ply
format ascii 1.0
element vertex 1024
property float x
property float y
property float z
end_header
0.578435 0.036068 0.004202
0.558131 -0.046413 0.008791
0.557848 -0.051503 0.009686
0.523212 0.086140 0.030817
0.539027 -0.040498 0.071211
0.538687 0.002305 -0.000035
0.521040 0.078435 0.022709
0.566895 0.031307 0.078950
0.532908 -0.051413 0.016036
0.524114 -0.003738 0.019416
0.538905 0.055036 0.076276
0.552884 0.093582 0.053326
0.554076 -0.031803 0.076930
0.533323 -0.007942 0.080660
0.529106 0.040979 0.076467
0.519064 -0.001042 0.032144
0.540871 -0.018149 0.004319
0.520537 0.082717 0.040965
0.562510 0.068570 -0.000987
0.514991 0.046125 0.055678
0.539034 -0.007802 0.083997
0.535428 -0.074151 0.037405
0.544277 0.095453 0.016689
0.573708 -0.048180 0.029848
0.544762 -0.067591 0.009890
0.581539 0.008340 0.013591
0.571956 0.074235 0.010324
0.587704 0.054836 0.038625
0.589213 0.006079 0.042061
0.577642 0.072197 0.018229
0.521204 -0.010878 0.031341
0.515579 0.031393 0.057850
0.546976 -0.046490 0.071528
0.566918 -0.054582 0.055035
0.585483 0.046170 0.056299
0.581905 -0.000573 0.064090
0.519967 -0.011086 0.038957
0.515536 0.057750 0.053823
0.582217 0.068573 0.027037
0.538226 -0.048054 0.066051
0.534017 0.085278 0.058710
0.569291 0.061558 0.067818
0.591067 0.031342 0.038028
0.527848 0.076960 0.060594
0.521338 0.084388 0.037591
0.519460 0.051336 0.063316
0.541712 -0.034437 0.075886
0.590490 0.023134 0.046754
0.524604 0.079005 0.016993
0.547373 -0.063203 0.008633
0.544103 -0.061927 0.008664
0.535421 0.059630 0.073093
0.580166 0.024428 0.068940
0.576179 -0.005810 0.010857
0.528238 0.068093 0.065494
0.587345 0.006709 0.054642
0.572942 0.085982 0.038802
0.548680 0.069035 -0.003592
0.589282 0.048670 0.034847
0.563341 0.031329 -0.007006
0.571936 0.035686 0.075146
0.556946 -0.009772 0.082394
0.538712 -0.029884 0.076473
0.525214 0.063278 0.007886
0.556054 0.070908 0.069137
0.519318 0.079880 0.029942
0.531557 0.092083 0.022288
0.527022 0.088517 0.047700
0.531595 0.087027 0.055458
0.557558 0.052074 0.077266
0.550892 -0.071221 0.052265
0.557852 0.048853 0.078326
0.533266 0.020040 0.081946
0.516780 0.012614 0.031918
0.535492 -0.055169 0.057949
0.564934 0.083989 0.010426
0.549425 -0.015019 0.000693
0.578246 -0.038266 0.037305
0.530974 0.094708 0.039857
0.544524 0.036908 0.082576
0.578472 -0.034904 0.049850
0.512628 0.033582 0.043573
0.579690 -0.034233 0.041089
0.536503 -0.038239 0.070389
0.529753 -0.059898 0.024216
0.518444 -0.001471 0.057572
0.526492 -0.044198 0.039615
0.521585 0.075298 0.018859
0.532238 0.000726 0.081480
0.577993 -0.028775 0.058043
0.545320 -0.041617 0.073624
0.515077 0.055119 0.053563
0.587883 0.053403 0.043397
0.527380 0.023170 0.077617
0.556086 0.089033 0.010121
0.564665 -0.038704 0.068648
0.578709 0.076307 0.027985
0.531065 0.036272 0.078549
0.515968 0.073276 0.032279
0.523179 -0.027989 0.052275
0.550635 0.100774 0.026303
0.590668 0.028478 0.033114
0.544962 0.061205 -0.005366
0.565730 0.032876 -0.006038
0.540432 0.012936 -0.003542
0.580636 0.070472 0.023949
0.559126 0.045431 0.079054
0.541222 0.020544 0.084633
0.570780 -0.027650 0.012777
0.587293 0.043311 0.020151
0.586795 0.056948 0.030052
0.542509 0.068150 0.071167
0.516739 0.059176 0.020064
0.572930 0.082859 0.046250
0.525089 0.012099 0.012052
0.516716 0.000946 0.047135
0.520198 0.077423 0.050590
0.537289 0.028938 -0.004113
0.549884 0.050640 -0.008437
0.588599 0.038132 0.023252
0.589793 0.044682 0.043922
0.562417 0.046623 -0.007153
0.584772 -0.005898 0.028504
0.590741 0.031542 0.044657
0.586427 0.029161 0.059607
0.568728 -0.025352 0.010023
0.518761 0.011454 0.025198
0.538294 -0.026021 0.077963
0.586091 0.053419 0.021406
0.567873 -0.018315 0.007113
0.536686 0.089142 0.013142
0.551478 0.019519 -0.007997
0.583665 -0.012832 0.029925
0.520046 -0.004731 0.061175
0.587470 0.055131 0.041906
0.519612 0.065284 0.058442
0.513846 0.064934 0.032099
0.580268 -0.019497 0.024712
0.583500 0.065838 0.041943
0.520906 -0.014941 0.057544
0.521202 0.082386 0.028311
0.557350 0.095983 0.019763
0.538695 0.030949 0.082346
0.525580 -0.019749 0.023270
0.522379 0.071543 0.015100
0.527809 -0.044004 0.027599
0.554075 -0.069603 0.052141
0.538340 -0.031279 0.075564
0.535064 -0.076148 0.026043
0.515335 0.030184 0.056944
0.558114 0.099228 0.027304
0.562713 0.094159 0.045451
0.553610 0.101073 0.029157
0.538413 0.067087 -0.001344
0.565857 0.085606 0.013123
0.569441 0.018232 0.078161
0.516097 0.008843 0.038374
0.545407 -0.079924 0.032997
0.590514 0.016592 0.040082
0.569366 -0.046917 0.019051
0.560574 0.022692 -0.007309
0.589430 0.039300 0.026793
0.575675 0.082395 0.031844
0.539442 0.056317 -0.004522
0.563255 -0.057867 0.056555
0.517261 -0.001033 0.051381
0.591051 0.033349 0.038329
0.535372 0.077325 0.064616
0.563552 -0.043970 0.066772
0.566562 0.055836 -0.003206
0.553230 0.050476 -0.008607
0.564311 0.069778 0.066325
0.532126 -0.043585 0.016611
0.513714 0.065176 0.040854
0.576202 0.079750 0.025190
0.577844 0.032594 0.003441
0.583120 -0.020432 0.049002
0.570173 0.082019 0.014863
0.581926 -0.009668 0.023014
0.561473 0.093065 0.048572
0.528629 -0.039197 0.059071
0.579665 0.049478 0.007909
0.578216 0.076852 0.026928
0.531252 0.049811 0.075159
0.525511 -0.039336 0.040855
0.573998 -0.003445 0.007246
0.532289 -0.064657 0.044786
0.520572 0.070302 0.057232
0.571263 0.009513 0.000291
0.531910 -0.061810 0.018352
0.574939 0.079378 0.047673
0.523156 -0.006306 0.067797
0.520371 0.031729 0.068756
0.581307 -0.004609 0.018954
0.535861 0.054048 -0.003091
0.556903 0.067578 -0.003469
0.573939 0.027943 -0.000393
0.551592 -0.027529 0.079268
0.515727 0.023584 0.029616
0.517704 -0.004119 0.046880
0.512389 0.040989 0.037773
0.516684 0.074907 0.031579
0.574688 0.053143 0.067651
0.513852 0.061612 0.029385
0.580537 0.032111 0.067910
0.547321 0.095593 0.016472
0.572671 -0.036251 0.062119
0.561116 0.030816 0.081568
0.566902 -0.010716 0.076991
0.585901 0.060037 0.039965
0.589174 0.037341 0.050723
0.538740 0.034168 -0.005360
0.550809 -0.071658 0.051732
0.517439 0.055079 0.017902
0.566773 0.092344 0.024879
0.542277 0.086860 0.060388
0.565450 -0.036538 0.069115
0.583957 0.011316 0.063129
0.546301 -0.031744 0.005213
0.527384 0.004019 0.011234
0.518981 0.059497 0.015747
0.540224 -0.067234 0.011120
0.519895 0.074740 0.021532
0.584271 0.028415 0.013424
0.561961 -0.070045 0.040126
0.545833 -0.079886 0.033348
0.512163 0.051786 0.040931
0.546769 0.030765 -0.008335
0.519490 -0.010811 0.042302
0.569762 0.058887 0.068833
0.555871 -0.025199 0.003718
0.584860 0.051193 0.055250
0.585147 -0.010540 0.051117
0.523942 0.055716 0.007698
0.579754 0.013633 0.069030
0.551740 -0.002483 0.085136
0.541785 0.071749 0.069330
0.514110 0.027745 0.034687
0.526393 0.015903 0.076848
0.545568 -0.044572 0.006814
0.522983 0.011159 0.071576
0.518829 -0.007914 0.042566
0.528550 0.032466 0.077544
0.586462 0.018044 0.059649
0.527689 0.048504 0.073256
0.569284 -0.058900 0.029098
0.546710 0.097194 0.018712
0.578994 -0.008781 0.016481
0.519464 0.045517 0.013873
0.524167 0.034702 0.007726
0.540668 -0.076246 0.041331
0.525178 -0.018291 0.023548
0.541809 -0.029158 0.006267
0.533740 0.021999 -0.000525
0.542375 0.091922 0.013121
0.574306 0.017541 0.074561
0.565105 0.078549 0.060103
0.578607 0.064359 0.057548
0.560273 0.082838 0.059885
0.541439 0.061554 -0.004209
0.563111 -0.065517 0.021105
0.549810 0.009626 -0.006186
0.587808 0.047676 0.050065
0.527855 -0.028995 0.064907
0.583766 0.010376 0.063276
0.572897 0.059421 0.003375
0.590029 0.019436 0.048865
0.570055 0.031781 0.077043
0.565180 0.018047 0.080633
0.540748 -0.071669 0.048364
0.536842 0.004410 0.000758
0.557417 -0.063860 0.056222
0.551681 0.024805 0.084507
0.533012 0.096478 0.031683
0.585948 -0.003096 0.030482
0.588920 0.047517 0.046072
0.560195 -0.042303 0.008938
0.590763 0.025104 0.034963
0.535174 0.003510 0.002380
0.550557 0.004427 0.085823
0.554087 -0.028576 0.078152
0.542127 -0.067907 0.053837
0.575516 0.072792 0.014762
0.522155 0.056745 0.010228
0.564563 0.038304 -0.006624
0.537011 -0.030050 0.075234
0.528257 0.064008 0.004913
0.582169 -0.025817 0.040094
0.551755 0.039590 -0.009272
0.538023 0.082125 0.006404
0.557650 -0.068557 0.015483
0.556269 0.098159 0.044864
0.532847 0.073119 0.065685
0.537861 -0.062035 0.055250
0.523417 -0.009198 0.067223
0.512619 0.057391 0.034762
0.513605 0.056895 0.047978
0.568635 0.021492 0.078651
0.525171 -0.028403 0.028573
0.567207 0.071008 0.063823
0.590286 0.034655 0.030307
0.549415 -0.015580 0.083414
0.546260 0.030590 -0.008200
0.570243 0.075165 0.058518
0.550717 0.088296 0.008293
0.554025 0.044629 -0.009140
0.532385 0.008416 0.003736
0.537921 -0.007123 0.003095
0.581025 0.058481 0.057978
0.531263 -0.003360 0.079928
0.526595 -0.040695 0.031089
0.519723 -0.013301 0.045813
0.544565 0.048267 0.079800
0.581218 -0.001479 0.064983
0.536049 0.005225 0.001181
0.577375 -0.040568 0.036044
0.573436 0.081268 0.020046
0.556946 0.090060 0.055402
0.559918 -0.031638 0.006387
0.577056 -0.013813 0.067432
0.577446 -0.039924 0.034939
0.552487 0.096413 0.018218
0.543077 0.100452 0.041111
0.522763 0.063834 0.062828
0.580037 0.062051 0.014348
0.579899 -0.018168 0.061205
0.528997 0.024484 0.003662
0.528269 -0.038727 0.023897
0.552467 0.088389 0.008546
0.529800 -0.059828 0.042352
0.536293 0.087592 0.011943
0.566663 0.024112 0.079689
0.523541 -0.000512 0.070243
0.539955 -0.039399 0.072449
0.579572 -0.032633 0.048336
0.521755 0.016485 0.016221
0.577699 0.036607 0.070155
0.556013 0.100413 0.028872
0.579917 0.026731 0.006450
0.551593 0.028514 0.084023
0.543990 0.062020 0.074227
0.543579 0.031693 0.083271
0.584505 0.063821 0.030375
0.577094 0.072387 0.052743
0.517121 0.065798 0.021554
0.552825 -0.072494 0.049150
0.564791 0.029884 -0.006352
0.540576 -0.078856 0.033854
0.569989 -0.013349 0.074258
0.554443 -0.021760 0.002633
0.581049 -0.025946 0.032352
0.555318 0.035869 0.082353
0.546256 0.028645 -0.008057
0.561482 0.027819 0.081781
0.567573 0.081074 0.055916
0.552819 0.004120 -0.005183
0.555373 0.100764 0.029735
0.524369 0.045174 0.071390
0.548954 0.015392 -0.007094
0.546645 0.099277 0.022284
0.516092 0.043311 0.058901
0.558812 0.066200 0.070673
0.589245 0.032678 0.051923
0.554536 -0.076805 0.022237
0.532206 -0.036854 0.066464
0.578584 0.074481 0.046321
0.569269 -0.001664 0.002286
0.548291 -0.050414 0.007089
0.581898 0.001495 0.064546
0.527322 -0.047972 0.035035
0.567234 0.071947 0.063208
0.576590 -0.037199 0.027878
0.519360 0.016107 0.065311
0.580597 0.026947 0.007403
0.577434 0.026284 0.003305
0.546281 0.084645 0.005295
0.529623 -0.048603 0.053134
0.551630 -0.034364 0.005161
0.517578 -0.003548 0.048774
0.517649 0.058328 0.058057
0.515500 0.026550 0.056913
0.513777 0.065307 0.041273
0.547967 -0.018468 0.001908
0.552719 -0.039437 0.074256
0.530067 -0.051658 0.051414
0.574885 0.076586 0.017264
0.536195 -0.077164 0.027501
0.526618 0.055094 0.069894
0.587655 0.021252 0.057335
0.554830 -0.070996 0.014509
0.572251 -0.042853 0.057608
0.551146 -0.048939 0.007141
0.560510 0.004996 -0.004254
0.522094 0.059972 0.010980
0.582598 0.057584 0.055967
0.583070 0.053390 0.014611
0.565902 0.002673 -0.001325
0.524388 0.072266 0.060396
0.512095 0.045104 0.040181
0.531781 0.010403 0.081802
0.517198 0.058027 0.057353
0.555935 0.045896 0.079761
0.512151 0.044667 0.042254
0.522469 0.044624 0.069427
0.546259 0.095578 0.016529
0.519630 0.081123 0.032070
0.528364 -0.055144 0.037332
0.583336 -0.009326 0.058191
0.529759 -0.057724 0.023984
0.589385 0.023686 0.027699
0.579984 -0.031681 0.035102
0.528539 -0.055126 0.040371
0.555452 0.099892 0.041248
0.559107 -0.016952 0.002332
0.514097 0.019314 0.047254
0.553324 -0.017383 0.001327
0.584098 0.064185 0.042688
0.588526 0.003685 0.046910
0.562687 -0.070639 0.033897
0.549047 -0.056115 0.007699
0.516163 0.005858 0.051113
0.557837 -0.062781 0.012680
0.524935 -0.012714 0.021584
0.521504 0.038779 0.011042
0.536372 0.021151 0.083142
0.578657 0.074295 0.023466
0.573103 -0.015508 0.071144
0.518562 -0.007027 0.043293
0.527409 0.057366 0.004065
0.583670 -0.001070 0.022453
0.512330 0.038459 0.040848
0.534298 0.040915 0.079246
0.576236 -0.042356 0.047122
0.550715 -0.063159 0.009141
0.559952 -0.071197 0.042092
0.553976 0.046652 0.079918
0.539653 0.046429 0.079575
0.584659 -0.013719 0.049890
0.585543 0.060226 0.027973
0.570816 0.070510 0.061436
0.590803 0.020674 0.041570
0.574413 -0.046801 0.047021
0.575834 -0.037156 0.055497
0.547603 -0.079641 0.034529
0.548558 -0.051442 0.007189
0.533508 -0.069129 0.042160
0.565671 0.022640 0.080281
0.574870 -0.040302 0.025689
0.562191 -0.070160 0.026031
0.531420 0.075174 0.006739
0.544348 0.021073 -0.006674
0.529693 0.093929 0.036717
0.516430 0.056352 0.020274
0.529435 0.002243 0.079122
0.576611 0.079220 0.025589
0.515767 0.068172 0.026478
0.577735 -0.004007 0.012309
0.515432 0.048508 0.056360
0.585705 -0.011768 0.040013
0.527305 -0.025634 0.066092
0.559828 0.058384 -0.005719
0.531014 -0.036022 0.017446
0.540363 0.030096 0.082892
0.589155 0.037376 0.025235
0.570982 -0.019810 0.071644
0.584442 0.052812 0.055259
0.577247 0.079879 0.034709
0.574430 0.080609 0.046733
0.578988 0.012235 0.069777
0.588133 0.001811 0.047529
0.561363 0.094138 0.047140
0.583819 -0.003449 0.059614
0.523378 -0.000281 0.019413
0.543900 -0.019303 0.003250
0.527520 0.054730 0.070751
0.512292 0.051986 0.042563
0.520131 -0.001524 0.062694
0.568118 0.020416 -0.003894
0.523560 -0.005779 0.021391
0.520061 0.081213 0.043567
0.538946 -0.001274 0.000748
0.526663 -0.044561 0.045008
0.561507 0.007079 -0.004451
0.586208 0.052095 0.020820
0.539289 -0.039948 0.071704
0.576478 0.080261 0.027784
0.546006 0.085966 0.061451
0.538963 -0.024799 0.078868
0.524888 0.088891 0.035045
0.530687 0.003326 0.080483
0.556047 0.053105 0.077277
0.541891 0.080260 0.003323
0.569080 -0.018941 0.008239
0.566208 0.094600 0.031099
0.557885 0.054716 0.076173
0.586309 0.058925 0.039707
0.512999 0.028955 0.041328
0.561913 0.009747 0.082092
0.534854 0.093359 0.019696
0.522848 0.075816 0.056512
0.520596 -0.003767 0.063020
0.581712 0.068244 0.024172
0.529057 -0.016031 0.073574
0.572344 -0.054147 0.036265
0.546821 -0.015293 0.001222
0.542154 0.008860 0.086057
0.567963 0.023427 -0.004319
0.538982 -0.006592 0.084194
0.588450 0.032330 0.022753
0.515465 0.046278 0.056893
0.546193 -0.020035 0.002718
0.552369 0.029096 0.083859
0.523930 -0.024886 0.031168
0.519851 0.006432 0.064352
0.574574 -0.011363 0.070877
0.530714 0.045801 0.076186
0.532133 -0.039117 0.016066
0.539686 -0.077779 0.020594
0.579808 0.007441 0.010866
0.546990 -0.038216 0.005948
0.561377 0.068773 0.068332
0.589765 0.043561 0.045116
0.539040 0.093015 0.053128
0.548513 0.100701 0.025724
0.564878 -0.065600 0.042681
0.583753 0.020775 0.064366
0.516159 0.070485 0.047237
0.572955 -0.050689 0.045814
0.550118 0.010934 0.085895
0.542512 0.098462 0.021882
0.522991 -0.020876 0.032219
0.563201 -0.051369 0.013498
0.560516 0.093320 0.049163
0.565600 -0.039495 0.011839
0.530549 0.001652 0.080130
0.526098 0.035117 0.075295
0.572582 0.062064 0.065110
0.541391 0.015385 0.085425
0.580018 0.048755 0.063888
0.569752 -0.053067 0.023573
0.518333 0.048477 0.015866
0.540444 0.004400 0.085746
0.560527 -0.047924 0.010423
0.519840 -0.004263 0.060795
0.570217 0.089530 0.028079
0.582110 0.069925 0.037238
0.539814 0.064115 -0.002901
0.523961 0.060501 0.008642
0.533307 -0.012852 0.008987
0.549810 0.031727 0.083649
0.548799 0.100871 0.026298
0.584865 -0.015493 0.040661
0.515296 0.059842 0.023775
0.554144 0.084040 0.004768
0.512149 0.045267 0.038479
0.523196 0.008392 0.071501
0.573118 -0.035266 0.019090
0.572376 0.078063 0.014279
0.542784 -0.006381 0.000025
0.565530 0.023254 -0.005543
0.573983 -0.035854 0.020896
0.589412 0.032266 0.051423
0.523661 0.002466 0.017792
0.548782 0.005356 0.086134
0.525970 0.082197 0.054780
0.588795 0.021829 0.054288
0.580776 0.018663 0.068173
0.539440 0.092465 0.014961
0.570847 0.083910 0.018372
0.550597 -0.056077 0.066305
0.521860 0.082827 0.027077
0.530128 -0.056621 0.046875
0.550867 -0.012919 -0.000056
0.563125 0.043161 -0.007106
0.537082 -0.028188 0.076190
0.549026 0.015313 0.085769
0.517408 0.011429 0.059281
0.513032 0.028731 0.041049
0.549644 -0.028103 0.079443
0.579366 -0.022674 0.059557
0.516889 0.008004 0.034927
0.588275 0.051800 0.031146
0.580316 -0.007111 0.065016
0.539937 0.097770 0.045853
0.521146 -0.007791 0.062775
0.520627 -0.002272 0.063666
0.568836 -0.023337 0.072099
0.553879 0.083138 0.062394
0.528752 -0.013876 0.015315
0.527521 -0.042262 0.053507
0.521028 0.021612 0.015846
0.518940 0.025517 0.065803
0.559826 0.019263 -0.007128
0.569908 0.082828 0.015356
0.526640 -0.029490 0.062315
0.557573 0.054486 -0.007347
0.585489 0.057700 0.048879
0.520101 0.013574 0.020727
0.553912 -0.009082 0.083640
0.564906 -0.001462 0.079685
0.573399 -0.018415 0.012310
0.543521 0.042963 0.081208
0.560430 -0.048885 0.066184
0.587414 -0.004136 0.043259
0.518651 0.071854 0.021865
0.528167 0.042543 0.075437
0.547393 -0.072479 0.012249
0.548061 0.038919 -0.008859
0.555307 0.070784 0.069399
0.552382 0.061777 0.074307
0.588265 0.040903 0.022539
0.514995 0.011507 0.044675
0.531156 -0.030419 0.069006
0.587346 0.005777 0.054209
0.577636 -0.035851 0.029942
0.587668 0.000706 0.049292
0.546779 0.058501 0.076016
0.580412 0.069415 0.021733
0.540971 0.004006 0.085843
0.588288 0.019600 0.055587
0.540121 0.014391 -0.003653
0.521504 -0.015825 0.035205
0.523695 -0.016363 0.064554
0.513497 0.059753 0.045725
0.547781 -0.068634 0.055870
0.536856 0.047164 -0.004334
0.539057 0.009977 0.085341
0.547783 -0.057886 0.065045
0.567525 0.085026 0.014483
0.553324 -0.073431 0.015406
0.567747 -0.011925 0.076180
0.530002 -0.043388 0.020756
0.584189 0.062830 0.045867
0.556340 -0.033555 0.005667
0.530413 -0.012427 0.076583
0.577096 0.080100 0.035381
0.576350 0.060660 0.008029
0.553682 0.005595 -0.005534
0.572033 0.001433 0.003432
0.563813 -0.019656 0.076589
0.544503 0.020739 0.085109
0.527666 0.043175 0.002765
0.582492 0.066156 0.023746
0.514262 0.050318 0.052655
0.536366 -0.057626 0.057108
0.585652 0.058070 0.047678
0.532875 0.054989 -0.001025
0.531072 -0.013782 0.076823
0.574193 -0.006384 0.072340
0.537908 -0.033559 0.009139
0.569231 0.091013 0.037400
0.525774 -0.021844 0.065633
0.572857 -0.050177 0.029282
0.544480 -0.007433 0.085278
0.537592 0.015978 0.084356
0.518602 0.071029 0.021402
0.529357 0.012058 0.006190
0.519112 0.080757 0.038217
0.564047 0.070841 0.000885
0.525520 0.069313 0.062907
0.524275 -0.028456 0.057199
0.573129 -0.022557 0.013593
0.546404 -0.057248 0.007785
0.540058 0.026531 0.083362
0.558814 0.099187 0.039232
0.529773 -0.064542 0.025740
0.589813 0.011275 0.045042
0.541937 -0.019641 0.004163
0.578920 0.065644 0.014944
0.519846 0.080193 0.045173
0.527824 0.016024 0.007058
0.522865 0.060029 0.064455
0.535307 -0.027986 0.074865
0.566350 -0.039587 0.066908
0.520184 -0.015722 0.051366
0.531438 -0.043369 0.017810
0.558337 0.068678 -0.002654
0.569040 -0.027777 0.070241
0.575503 -0.045050 0.033162
0.534570 0.093671 0.020519
0.530085 0.086500 0.054704
0.540265 -0.037796 0.073467
0.537639 0.007982 0.084934
0.564496 0.048737 0.075935
0.531704 -0.070137 0.035220
0.569299 0.056653 -0.000972
0.557896 0.027779 0.082973
0.532129 -0.057338 0.017746
0.529684 0.007606 0.079980
0.562178 0.077538 0.003292
0.574961 -0.019283 0.068016
0.572536 0.052896 0.000731
0.571199 -0.029875 0.067408
0.536152 0.031293 -0.003598
0.564143 -0.062242 0.050032
0.542719 0.009719 0.086099
0.515252 0.065970 0.048333
0.529019 -0.058015 0.028592
0.547929 -0.079927 0.028499
0.551217 -0.076718 0.042987
0.529226 0.052926 0.072692
0.550616 0.057653 -0.007084
0.548000 0.083917 0.004473
0.543982 0.094025 0.053410
0.588143 0.052532 0.043361
0.584061 0.031847 0.012668
0.567929 0.060285 -0.000762
0.520414 -0.004475 0.029269
0.578845 0.048936 0.006668
0.528654 0.055671 0.002565
0.561046 0.037777 -0.007950
0.584594 0.005850 0.060884
0.590151 0.012907 0.041966
0.587935 -0.000965 0.039307
0.565415 0.095306 0.035861
0.512978 0.029311 0.041081
0.581522 0.029476 0.008576
0.514253 0.020622 0.049596
0.547619 -0.056106 0.007633
0.515397 0.052833 0.055146
0.575767 -0.021366 0.016804
0.530870 -0.041734 0.061191
0.553562 0.042977 -0.009230
0.583011 0.033421 0.010740
0.516223 0.004144 0.044521
0.551204 0.048543 -0.008820
0.565956 0.094874 0.031454
0.543388 0.096328 0.018068
0.540003 -0.057451 0.061118
0.588832 0.041620 0.050047
0.568464 0.091697 0.028357
0.551040 0.012493 0.085687
0.564416 0.059245 0.071747
0.542963 -0.050795 0.007898
0.525232 0.069363 0.062636
0.536224 -0.071663 0.015998
0.563915 -0.039298 0.010459
0.542990 -0.048980 0.068886
0.577564 0.029047 0.003243
0.546018 0.070126 0.070637
0.545492 -0.078570 0.019659
0.588950 0.026554 0.025271
0.544986 0.013718 0.086003
0.532735 0.072013 0.004094
0.540784 -0.048509 0.008586
0.513310 0.053221 0.048304
0.525257 0.003867 0.074111
0.550922 -0.076062 0.044619
0.542082 -0.053791 0.065338
0.551429 0.052221 0.078377
0.513601 0.032531 0.050428
0.568041 0.019091 0.079039
0.534869 0.094328 0.021253
0.566760 -0.059683 0.022970
0.562514 -0.033325 0.072399
0.521771 -0.022760 0.047197
0.557850 0.067825 -0.003124
0.533564 0.052200 -0.001859
0.512137 0.051588 0.040451
0.574431 -0.014324 0.012015
0.570148 0.060694 0.001206
0.577349 0.036597 0.002934
0.556726 0.086597 0.058679
0.513907 0.050704 0.027742
0.530559 0.036942 0.078157
0.513978 0.020432 0.047221
0.582319 -0.023619 0.035652
0.538509 0.028841 0.082596
0.570702 -0.054740 0.046589
0.555837 -0.067736 0.053006
0.581796 -0.025197 0.048957
0.580358 0.038165 0.006806
0.544044 0.051787 -0.007001
0.532965 0.055754 -0.000971
0.571195 -0.009757 0.074172
0.555651 -0.012139 0.000001
0.521906 0.001295 0.067592
0.530768 0.027427 0.079574
0.514340 0.038116 0.028988
0.565658 0.085192 0.053662
0.532934 0.023158 -0.000028
0.558211 -0.075465 0.032842
0.537206 0.021925 -0.003151
0.553393 -0.074844 0.017055
0.515577 0.025891 0.028971
0.581761 0.061306 0.016960
0.582050 0.007198 0.015029
0.556474 -0.009336 0.082658
0.530953 -0.069856 0.025952
0.570992 0.067324 0.063327
0.547252 -0.079978 0.026672
0.560124 0.052194 0.076435
0.545244 -0.079727 0.034773
0.514793 0.057659 0.051804
0.572829 0.053531 0.069022
0.589845 0.037406 0.028318
0.548969 0.040432 -0.009007
0.586319 0.006564 0.057401
0.540875 0.076136 0.066907
0.528714 -0.054094 0.043612
0.569699 -0.002564 0.002938
0.540495 0.093797 0.052716
0.570931 0.083083 0.017434
0.577863 -0.031524 0.055926
0.557740 -0.070225 0.047268
0.581395 0.053025 0.011690
0.570451 -0.050799 0.023292
0.538078 0.064972 0.071585
0.556108 0.086870 0.007849
0.549815 0.020800 0.085150
0.575259 0.001189 0.006863
0.542724 0.017754 -0.005526
0.568177 0.084931 0.051130
0.524162 -0.003044 0.070636
0.560792 0.096797 0.024371
0.552550 -0.068044 0.055263
0.528450 0.008106 0.078785
0.571384 -0.048561 0.023668
0.537245 -0.032021 0.074402
0.582482 0.026470 0.010491
0.576334 -0.013572 0.068379
0.538116 0.000287 0.000894
0.532911 -0.013077 0.009496
0.540220 0.019741 0.084552
0.565386 0.056681 -0.003676
0.548206 0.010988 0.086120
0.522734 -0.018951 0.060626
0.585254 -0.013944 0.041299
0.558275 0.028842 -0.008353
0.571783 0.044319 -0.001736
0.566889 0.091168 0.022622
0.537839 -0.060582 0.011292
0.565766 -0.046259 0.014225
0.534419 0.026650 -0.001810
0.556417 -0.071762 0.016698
0.573207 0.028185 -0.001045
0.550790 -0.073888 0.048533
0.531011 -0.012447 0.011630
0.561057 0.011943 0.082550
0.518785 0.027608 0.018527
0.515357 0.071150 0.042150
0.547835 0.050973 -0.008089
0.548351 0.032756 0.083506
0.539306 -0.048125 0.066933
0.526090 -0.041698 0.046457
0.587858 0.035529 0.020907
0.559798 -0.006112 0.081733
0.567572 -0.056087 0.052204
0.569248 0.059506 -0.000007
0.563346 -0.007541 0.000891
0.541128 0.040757 -0.006681
0.543835 -0.078640 0.038868
0.558806 -0.032394 0.074757
0.514599 0.024763 0.034083
0.529214 -0.061815 0.029818
0.563674 -0.043992 0.066668
0.570057 0.063484 0.002267
0.565914 0.030651 0.079536
0.587875 0.035740 0.020955
0.573475 -0.020270 0.013127
0.530279 -0.001613 0.009102
0.574264 -0.007846 0.009272
0.536135 0.083426 0.061121
0.558719 0.059332 -0.005758
0.557292 -0.045990 0.069550
0.548038 0.025362 -0.008177
0.545213 -0.039574 0.074562
0.569365 0.050071 -0.002694
0.519264 0.016349 0.021594
0.556913 0.006175 -0.005374
0.520994 0.083439 0.040931
0.514010 0.062575 0.046011
0.583024 0.040873 0.062589
0.521862 0.044407 0.010011
0.523994 -0.001916 0.070663
0.575107 0.072994 0.014237
0.560107 0.033822 0.081473
0.549928 0.067770 0.071735
0.586617 0.051072 0.021384
0.542518 -0.029001 0.005938
0.547295 0.075772 0.067765
0.552837 0.017147 0.085087
0.578701 0.019395 0.005842
0.577887 -0.039587 0.038321
0.589352 0.024853 0.027205
0.588632 0.014127 0.053387
0.544610 0.092868 0.013545
0.588068 0.017788 0.055943
0.523384 0.044236 0.007857
0.514291 0.050360 0.026312
0.524687 0.081768 0.019490
0.519213 0.014906 0.022350
0.536185 0.033259 0.081239
0.576805 0.073221 0.017569
0.586614 0.008186 0.025312
0.532101 0.050692 -0.000953
0.527683 0.091997 0.036623
0.528512 -0.054920 0.040520
0.527062 0.037990 0.075603
0.588414 0.045747 0.024802
0.563675 0.008392 -0.003939
0.540286 -0.073640 0.045247
0.534306 0.004556 0.002884
0.558389 -0.049717 0.067011
0.585743 -0.002098 0.029028
0.518655 0.024293 0.065053
0.586040 -0.009020 0.047789
0.579457 0.062806 0.057502
0.544567 0.047964 0.079900
0.590860 0.029943 0.043822
0.542611 0.005070 0.086158
0.575359 0.036332 0.072348
0.525489 0.054072 0.069342
0.578961 -0.001490 0.013146
0.528440 0.023804 0.078430
0.551187 -0.055437 0.066620
0.556795 0.100226 0.038273
0.568870 -0.061244 0.035750
0.519137 0.077039 0.048369
0.578324 0.066254 0.014353
0.577620 0.048257 0.004921
0.523962 -0.020872 0.062481
0.577455 0.005571 0.007985
0.580735 0.025990 0.007725
0.562976 -0.070283 0.032229
0.568736 0.005400 -0.000432
0.525528 0.083097 0.019562
0.578646 -0.031284 0.053955
0.545906 -0.076515 0.044922
0.533840 0.089212 0.015514
0.544504 0.059526 -0.005661
0.571137 -0.047173 0.055533
0.545748 0.073741 -0.001279
0.579219 0.005771 0.010532
0.560249 -0.063705 0.053463
0.542814 0.033037 0.082954
0.563127 -0.023074 0.075891
0.571011 0.049336 0.072013
0.520140 0.016603 0.019438
0.515887 0.058009 0.054582
0.548979 -0.078363 0.040279
0.533664 0.041696 -0.002424
0.523190 0.085215 0.028136
0.569042 -0.019716 0.073178
0.516428 0.004595 0.041277
0.518435 0.001408 0.032960
0.577348 -0.041093 0.037783
0.568682 0.069470 0.003811
0.562663 -0.016104 0.003438
0.577639 0.037882 0.003341
0.545189 0.090179 0.057824
0.519301 -0.010373 0.043150
0.514380 0.048944 0.026142
0.521086 -0.010759 0.061104
0.556868 -0.013197 0.081737
0.566165 0.017860 -0.004587
0.564750 0.012387 -0.004324
0.556380 -0.049620 0.068158
0.516811 0.009027 0.034474
0.568845 -0.044874 0.017303
0.578624 -0.036908 0.036700
0.543668 -0.063071 0.008944
0.545068 -0.040831 0.073938
0.515822 0.018014 0.055920
0.526010 0.005761 0.075515
0.564513 0.086174 0.053786
0.566314 0.090352 0.046370
0.515996 0.057438 0.055061
0.538377 -0.076896 0.020066
0.560902 -0.012349 0.080077
0.535319 0.029964 0.081372
0.581845 -0.010115 0.023071
0.523786 0.087189 0.041124
0.531851 -0.062007 0.046356
0.548025 0.081056 0.002379
0.590396 0.016004 0.043772
0.563332 0.067543 -0.000975
0.538829 0.055693 -0.004355
0.521293 -0.015549 0.036239
0.570380 0.089670 0.029609
0.561515 0.097481 0.027354
0.522822 -0.025841 0.040889
0.553728 0.015298 0.084992
0.583479 0.066073 0.028503
0.527553 0.083316 0.016713
0.536890 0.087221 0.058470
0.551276 0.023264 0.084729
0.519393 0.022235 0.066364
0.526539 0.031499 0.076136
0.577003 0.043598 0.069024
0.536729 0.072414 0.067633
0.569443 0.090809 0.037170
0.523099 0.022653 0.072868
0.576664 0.033300 0.071716
0.573912 0.000395 0.073616
0.527800 0.092070 0.034592
0.519802 -0.000056 0.062363
0.516017 0.023109 0.028630
0.512108 0.048995 0.038183
0.561359 -0.064390 0.051191
0.538412 0.033371 0.081926
0.575427 0.052366 0.067310
0.526612 0.071202 0.062834
0.589660 0.009335 0.043557
0.573348 0.059384 0.003840
0.521603 0.025115 0.070713
0.521143 0.008144 0.020613
0.523043 -0.027103 0.053008
0.528386 -0.053966 0.031635
0.522170 -0.011762 0.028276
0.548025 0.060754 -0.006064
0.571431 0.062926 0.003365
0.578221 0.068097 0.055095
0.565029 0.089246 0.016809
0.531835 -0.031339 0.015367
0.556819 0.020239 -0.007855
0.522079 0.068548 0.014021
0.576597 0.061631 0.061657
0.568352 0.057479 0.070400
0.551658 -0.079095 0.028444
0.550121 0.079624 0.001322
0.557968 0.015928 -0.007084
0.579125 0.069816 0.051774
0.588412 0.041919 0.023263
