ply
format ascii 1.0
element vertex 1024
property float x
property float y
property float z
end_header
0.487215 0.145823 0.012492
0.510407 0.063983 0.011624
0.512680 0.059385 0.010935
0.479801 0.178233 0.084324
0.559507 0.075175 0.053581
0.481877 0.100391 0.037891
0.474154 0.168815 0.081285
0.552957 0.152207 0.049645
0.511032 0.052204 0.035593
0.497023 0.093688 0.056677
0.535058 0.163939 0.079574
0.506701 0.199626 0.068164
0.566496 0.089428 0.044482
0.556497 0.105010 0.070389
0.536602 0.147712 0.084860
0.506241 0.096946 0.066637
0.492676 0.083192 0.032442
0.489242 0.176169 0.089661
0.467942 0.169242 0.032913
0.512037 0.143536 0.090944
0.561165 0.107743 0.066581
0.538036 0.036367 0.035657
0.470403 0.191204 0.062564
0.534622 0.071816 0.005184
0.513880 0.040171 0.018649
0.505054 0.123243 0.006284
0.479260 0.179898 0.030152
0.515438 0.173006 0.021852
0.533797 0.129382 0.009555
0.488719 0.181519 0.027533
0.509133 0.088477 0.061957
0.518650 0.130623 0.087536
0.563962 0.072442 0.045103
0.557373 0.068568 0.019088
0.533422 0.167758 0.028291
0.553611 0.125106 0.022673
0.515729 0.089361 0.065866
0.506989 0.154043 0.092680
0.499150 0.181482 0.025847
0.556890 0.066941 0.050462
0.508522 0.186614 0.084934
0.534399 0.178641 0.050925
0.523023 0.152442 0.012728
0.510930 0.177233 0.089058
0.485915 0.177315 0.088098
0.518695 0.151353 0.091132
0.562695 0.082581 0.054462
0.533249 0.146417 0.014457
0.469856 0.169432 0.076103
0.512182 0.044849 0.016949
0.510855 0.044911 0.020198
0.529751 0.166347 0.082642
0.549900 0.148445 0.032320
0.505288 0.107870 0.006488
0.518176 0.170179 0.088323
0.544450 0.131797 0.016101
0.501781 0.196631 0.042908
0.461353 0.164437 0.044392
0.514354 0.167135 0.017478
0.474039 0.134112 0.020563
0.549672 0.157204 0.044819
0.565606 0.111731 0.049503
0.560958 0.085858 0.058501
0.466561 0.153394 0.068192
0.528843 0.182977 0.065578
0.479758 0.170978 0.085899
0.472737 0.184866 0.075169
0.495498 0.185038 0.087857
0.504330 0.186755 0.086314
0.542367 0.167777 0.062559
0.555178 0.047259 0.028170
0.544392 0.165126 0.061886
0.549151 0.130963 0.077948
0.501216 0.108673 0.072019
0.550902 0.057876 0.048074
0.474316 0.186486 0.038904
0.490969 0.088275 0.024234
0.539708 0.083944 0.006422
0.487683 0.190536 0.082942
0.547929 0.150434 0.072374
0.550118 0.089578 0.011773
0.504181 0.128821 0.085361
0.542339 0.088888 0.007567
0.557330 0.076228 0.056092
0.520085 0.044937 0.039348
0.529221 0.101339 0.076625
0.528305 0.061282 0.051979
0.471779 0.165361 0.078566
0.554288 0.112768 0.073842
0.555538 0.096659 0.016813
0.563892 0.076769 0.048591
0.507417 0.151416 0.092332
0.520249 0.172689 0.023122
0.542540 0.130980 0.082361
0.469892 0.188042 0.047951
0.564218 0.085070 0.030193
0.496624 0.187579 0.031275
0.540496 0.144463 0.082712
0.482889 0.164224 0.088107
0.533872 0.077539 0.063755
0.479375 0.200155 0.061835
0.519324 0.148707 0.010522
0.461024 0.155623 0.045079
0.475152 0.136539 0.019184
0.475989 0.110068 0.037687
0.495309 0.182080 0.026575
0.546468 0.162558 0.060163
0.553784 0.134670 0.071984
0.512062 0.086331 0.006544
0.502082 0.158640 0.012392
0.506763 0.172952 0.019975
0.527515 0.176218 0.077733
0.476333 0.149126 0.079295
0.509472 0.195220 0.044930
0.485834 0.107129 0.057019
0.518522 0.100919 0.074857
0.499466 0.173080 0.092246
0.469686 0.123592 0.044295
0.462904 0.146987 0.036881
0.506849 0.154935 0.011090
0.523936 0.165428 0.019426
0.468990 0.147825 0.025172
0.523840 0.114192 0.005423
0.528871 0.153818 0.015557
0.541861 0.153098 0.024420
0.508263 0.087201 0.007919
0.496067 0.106962 0.067437
0.561012 0.089558 0.060403
0.499795 0.167768 0.016473
0.503238 0.092804 0.009356
0.466862 0.182116 0.066422
0.473221 0.119013 0.027812
0.526905 0.107720 0.005203
0.533948 0.099598 0.075729
0.518252 0.173843 0.023366
0.510091 0.163267 0.092668
0.484630 0.155797 0.087838
0.523202 0.099409 0.004604
0.513861 0.182337 0.029610
0.534012 0.089793 0.071037
0.478076 0.173604 0.084235
0.476890 0.196758 0.052186
0.547806 0.142921 0.075992
0.505807 0.080229 0.052796
0.469749 0.161441 0.075504
0.517750 0.059548 0.046343
0.555516 0.049808 0.025690
0.560448 0.084270 0.058142
0.528243 0.032173 0.031216
0.518125 0.129251 0.087111
0.482962 0.201485 0.055149
0.502298 0.201963 0.056584
0.482749 0.202007 0.060327
0.460946 0.159585 0.053907
0.476540 0.188818 0.039498
0.556964 0.140904 0.043795
0.508007 0.106243 0.074104
0.538746 0.033599 0.023649
0.529198 0.139100 0.010289
0.523176 0.069372 0.005323
0.475569 0.125169 0.020751
0.509946 0.156988 0.011970
0.497375 0.192898 0.036958
0.461640 0.149412 0.049093
0.558664 0.064597 0.022102
0.523131 0.100121 0.075468
0.522682 0.154340 0.013360
0.516687 0.180927 0.083946
0.563789 0.079481 0.029160
0.470994 0.158484 0.025268
0.463789 0.147945 0.033792
0.529079 0.184203 0.056871
0.508946 0.059245 0.038472
0.492449 0.157697 0.091303
0.492306 0.189339 0.033327
0.487405 0.142279 0.011861
0.546331 0.104300 0.010940
0.480481 0.187335 0.035400
0.519170 0.108675 0.004955
0.505090 0.201148 0.058587
0.545041 0.070434 0.058629
0.486866 0.159298 0.016151
0.495356 0.187704 0.031454
0.533371 0.156305 0.084671
0.527662 0.065660 0.054541
0.500655 0.108589 0.007673
0.540912 0.045473 0.043611
0.507755 0.167969 0.092617
0.489614 0.118198 0.010756
0.515992 0.042763 0.034744
0.512412 0.192986 0.042798
0.541344 0.100514 0.075044
0.529843 0.134712 0.087438
0.513774 0.112317 0.005253
0.462567 0.146385 0.052256
0.464337 0.165929 0.036736
0.484190 0.135917 0.012739
0.566582 0.092968 0.048649
0.495490 0.117944 0.074848
0.520121 0.096550 0.072608
0.496608 0.134407 0.085257
0.481971 0.165830 0.087615
0.538397 0.172715 0.043933
0.483182 0.152212 0.085981
0.546745 0.155431 0.033531
0.471063 0.192329 0.059802
0.559927 0.088773 0.021215
0.553769 0.150299 0.055662
0.563941 0.113199 0.038355
0.514540 0.177435 0.025268
0.532142 0.159806 0.020688
0.467397 0.128649 0.043844
0.554803 0.046725 0.027936
0.475825 0.145173 0.076830
0.485414 0.197635 0.044785
0.512004 0.191217 0.078592
0.564216 0.087421 0.030212
0.549737 0.136545 0.023466
0.499218 0.072725 0.024519
0.488223 0.100325 0.052636
0.472987 0.149336 0.075756
0.513545 0.039192 0.023249
0.473871 0.164796 0.080938
0.499617 0.142595 0.008824
0.547097 0.049731 0.014034
0.539178 0.033849 0.023410
0.496124 0.144875 0.089355
0.468108 0.127677 0.034710
0.518534 0.090109 0.067617
0.536268 0.176546 0.050214
0.498705 0.081714 0.017062
0.530763 0.171956 0.029714
0.545843 0.114500 0.012409
0.468310 0.145972 0.067359
0.553137 0.138400 0.030012
0.564338 0.117193 0.057007
0.524544 0.178918 0.078593
0.498342 0.122213 0.079238
0.543757 0.123812 0.081129
0.504345 0.060999 0.022554
0.539414 0.117251 0.081001
0.517699 0.092598 0.069032
0.539998 0.139909 0.083623
0.545284 0.142900 0.021613
0.530990 0.153513 0.086808
0.535889 0.060306 0.006159
0.472426 0.194033 0.061590
0.512117 0.107206 0.005341
0.475676 0.136284 0.071111
0.474781 0.126739 0.061893
0.543778 0.037001 0.031928
0.505498 0.081487 0.053626
0.498059 0.073777 0.029572
0.473993 0.116708 0.047066
0.467681 0.186608 0.062036
0.555350 0.141221 0.037930
0.521016 0.191313 0.056030
0.526999 0.182376 0.039461
0.518088 0.193563 0.061336
0.460925 0.154968 0.048744
0.528833 0.050546 0.007006
0.477371 0.109706 0.027495
0.528005 0.168710 0.024255
0.547002 0.080694 0.064071
0.550100 0.135645 0.023455
0.477740 0.165236 0.022985
0.536147 0.143275 0.014733
0.552019 0.153347 0.046230
0.558000 0.139765 0.048479
0.548782 0.042619 0.035645
0.481411 0.101852 0.040364
0.558456 0.057030 0.025681
0.555467 0.142131 0.063674
0.480344 0.191250 0.078500
0.525128 0.117558 0.005818
0.524765 0.168158 0.021724
0.509903 0.068494 0.010869
0.522051 0.146003 0.010284
0.482660 0.100774 0.042235
0.562513 0.123276 0.060055
0.566627 0.092638 0.045741
0.553006 0.047623 0.037413
0.484770 0.180658 0.028278
0.469761 0.146805 0.070161
0.472629 0.141015 0.021367
0.559384 0.084881 0.059512
0.464546 0.154518 0.064545
0.539616 0.097274 0.007094
0.466055 0.137305 0.032124
0.463284 0.174797 0.060938
0.523049 0.044782 0.009006
0.498648 0.203325 0.063117
0.518185 0.176410 0.085544
0.551242 0.051842 0.043225
0.541779 0.097832 0.073870
0.488970 0.148969 0.088039
0.501384 0.151448 0.091995
0.556179 0.143721 0.045517
0.513117 0.073178 0.052979
0.527295 0.185830 0.053656
0.514793 0.153703 0.011360
0.566066 0.104023 0.055147
0.468134 0.127369 0.035171
0.522126 0.189644 0.050000
0.466874 0.185173 0.051870
0.465316 0.142738 0.031414
0.481575 0.104598 0.046463
0.487348 0.092079 0.037382
0.529888 0.177883 0.035988
0.553834 0.108374 0.073103
0.519549 0.062861 0.049567
0.522539 0.088590 0.068101
0.541979 0.160342 0.074146
0.554491 0.124214 0.023393
0.481312 0.102414 0.041434
0.539007 0.081283 0.006148
0.486369 0.188778 0.034245
0.510852 0.198184 0.064435
0.504273 0.077701 0.012836
0.559224 0.111938 0.024929
0.537832 0.081682 0.005832
0.473923 0.195189 0.056053
0.490652 0.200192 0.074055
0.515435 0.163872 0.091138
0.488991 0.172247 0.021392
0.555745 0.107681 0.018963
0.475629 0.118196 0.053493
0.512932 0.063827 0.045868
0.467592 0.185906 0.050427
0.536506 0.048583 0.046131
0.466130 0.180321 0.065933
0.555742 0.145660 0.048324
0.541915 0.106452 0.077073
0.560569 0.076745 0.053493
0.548383 0.091744 0.010794
0.487293 0.110843 0.062660
0.546575 0.159037 0.038035
0.483401 0.202165 0.057910
0.492523 0.138189 0.009668
0.553877 0.145415 0.064502
0.532585 0.171691 0.076021
0.549862 0.145454 0.072168
0.504293 0.178551 0.023865
0.519763 0.188293 0.041023
0.475785 0.155635 0.081175
0.553315 0.046137 0.024957
0.475499 0.133407 0.019153
0.537769 0.033100 0.028549
0.563177 0.111295 0.033913
0.496256 0.084174 0.018793
0.532311 0.095251 0.005155
0.551233 0.153119 0.062398
0.468852 0.125607 0.034739
0.554980 0.147710 0.054663
0.517186 0.193652 0.052889
0.480840 0.105870 0.023806
0.483887 0.202439 0.058893
0.529330 0.148952 0.088235
0.474545 0.114536 0.029366
0.475010 0.196628 0.063512
0.516137 0.141959 0.090465
0.532479 0.179893 0.062512
0.534666 0.155780 0.019904
0.530751 0.037466 0.012248
0.552084 0.075263 0.058800
0.513751 0.189464 0.037809
0.494224 0.107637 0.010479
0.507172 0.056613 0.018760
0.553394 0.127093 0.023369
0.525547 0.057196 0.048572
0.526462 0.186582 0.053638
0.530356 0.082506 0.004630
0.531166 0.119331 0.083125
0.493522 0.138807 0.009474
0.489077 0.136313 0.010592
0.463955 0.179714 0.053787
0.542813 0.060961 0.053153
0.501541 0.072126 0.019087
0.521626 0.097405 0.073575
0.511274 0.156127 0.092529
0.519248 0.125961 0.086040
0.492807 0.157920 0.091437
0.492686 0.084847 0.025125
0.565989 0.081422 0.042773
0.542313 0.057966 0.051344
0.485697 0.184422 0.030733
0.530207 0.031911 0.030499
0.525629 0.158544 0.088157
0.542566 0.145801 0.020486
0.522074 0.041386 0.010544
0.557720 0.081674 0.018239
0.507615 0.058953 0.016603
0.483689 0.109483 0.017512
0.469445 0.149899 0.071308
0.528804 0.177200 0.033605
0.492755 0.165374 0.016611
0.488641 0.109764 0.013216
0.511153 0.171699 0.090893
0.497454 0.138562 0.087456
0.551507 0.121570 0.076799
0.510594 0.155559 0.092591
0.546023 0.162036 0.063391
0.499481 0.138587 0.088075
0.527157 0.147413 0.089055
0.470806 0.191964 0.060768
0.481400 0.172646 0.086731
0.530113 0.051412 0.046704
0.551347 0.116388 0.016985
0.519217 0.046892 0.039802
0.515493 0.142800 0.008431
0.536228 0.090156 0.005698
0.532912 0.052086 0.047693
0.494604 0.203928 0.062925
0.495903 0.090126 0.015725
0.512281 0.116931 0.081850
0.493414 0.087558 0.020400
0.515215 0.181168 0.028941
0.538713 0.127901 0.011386
0.541850 0.048208 0.010900
0.509679 0.051751 0.016884
0.520471 0.106027 0.078076
0.518812 0.049603 0.009237
0.501954 0.086144 0.054505
0.475760 0.130229 0.066537
0.550815 0.133279 0.075904
0.493126 0.184823 0.029120
0.561932 0.109761 0.029425
0.518008 0.093465 0.069766
0.465544 0.147958 0.063316
0.516568 0.117063 0.005347
0.500144 0.132666 0.085829
0.540673 0.149971 0.081254
0.549248 0.081429 0.010873
0.513615 0.046129 0.014169
0.548635 0.048373 0.016275
0.545357 0.162093 0.065388
0.540881 0.156932 0.077983
0.545552 0.111170 0.011586
0.503515 0.175128 0.021135
0.526351 0.186135 0.049416
0.529392 0.143243 0.011615
0.549968 0.076701 0.011346
0.555137 0.087718 0.015680
0.540696 0.034910 0.022336
0.507654 0.055779 0.018302
0.540252 0.041262 0.040415
0.556432 0.144085 0.049062
0.528806 0.078636 0.004564
0.534433 0.046932 0.008510
0.463746 0.166221 0.065211
0.471839 0.118268 0.035060
0.484696 0.188765 0.082711
0.477289 0.146466 0.078941
0.550864 0.112742 0.075838
0.492950 0.189069 0.032979
0.479124 0.158324 0.084828
0.506516 0.110344 0.006097
0.512062 0.146011 0.091405
0.536323 0.111378 0.007435
0.546893 0.083830 0.065851
0.465955 0.158034 0.030973
0.507078 0.065982 0.041677
0.549052 0.142814 0.074495
0.509039 0.154820 0.011149
0.563064 0.105181 0.030424
0.530156 0.173304 0.030496
0.501199 0.191685 0.035999
0.511036 0.193759 0.043209
0.554012 0.137001 0.030625
0.539726 0.126166 0.011499
0.503435 0.201815 0.058417
0.550995 0.122235 0.018563
0.495753 0.096614 0.058201
0.492953 0.082955 0.029048
0.526782 0.158686 0.087582
0.497580 0.145424 0.089901
0.534375 0.102874 0.077030
0.481583 0.126324 0.014729
0.499268 0.092011 0.057400
0.491914 0.175136 0.090684
0.483749 0.097344 0.037055
0.533350 0.062068 0.053760
0.483173 0.111699 0.017071
0.499700 0.166475 0.015816
0.559864 0.075867 0.053670
0.494582 0.190413 0.034182
0.514340 0.191877 0.075439
0.561657 0.091088 0.060453
0.483291 0.182166 0.085106
0.552137 0.114432 0.075504
0.541618 0.168211 0.064169
0.462202 0.173797 0.055864
0.504804 0.092863 0.008544
0.490197 0.200739 0.048190
0.540672 0.170102 0.062519
0.514765 0.176501 0.024528
0.503662 0.124253 0.083026
0.560876 0.131308 0.049858
0.470977 0.186655 0.071575
0.506102 0.173673 0.091700
0.535489 0.101035 0.076173
0.496505 0.180443 0.025139
0.551273 0.094725 0.069506
0.541843 0.067128 0.007311
0.490762 0.087239 0.026687
0.558895 0.124528 0.068754
0.480238 0.128954 0.015464
0.560961 0.108877 0.067005
0.508113 0.149454 0.009579
0.513232 0.144077 0.091016
0.493371 0.082961 0.026619
0.553782 0.146183 0.063894
0.514034 0.076498 0.055943
0.533379 0.110417 0.079899
0.560867 0.114020 0.029051
0.535359 0.152638 0.084531
0.507098 0.063247 0.039383
0.525168 0.031179 0.024638
0.502347 0.121289 0.006581
0.502052 0.067156 0.022556
0.530335 0.182673 0.059990
0.525349 0.164623 0.019618
0.502602 0.194341 0.080300
0.478246 0.199250 0.063492
0.548924 0.055315 0.013506
0.547926 0.145412 0.026486
0.497342 0.164665 0.092850
0.549624 0.072393 0.011218
0.560473 0.129121 0.062107
0.473671 0.194389 0.066843
0.513490 0.080070 0.058182
0.517675 0.062084 0.007622
0.505266 0.201172 0.059727
0.513276 0.073490 0.007841
0.552285 0.112777 0.075075
0.536431 0.141066 0.085632
0.532765 0.179697 0.047098
0.556117 0.130141 0.070835
0.537896 0.169761 0.036664
0.529253 0.064741 0.005132
0.476248 0.139010 0.073612
0.559462 0.119785 0.069042
0.513054 0.063733 0.009719
0.533401 0.099883 0.075889
0.490186 0.196853 0.042206
0.507948 0.184693 0.030110
0.460852 0.157025 0.051328
0.467719 0.150562 0.068897
0.493060 0.086397 0.042273
0.552035 0.147686 0.066759
0.478798 0.199618 0.063496
0.537792 0.107795 0.007493
0.479065 0.149974 0.082143
0.465986 0.181737 0.046421
0.495879 0.138395 0.086810
0.540249 0.114765 0.080089
0.520783 0.081369 0.004915
0.481804 0.184336 0.032222
0.485779 0.093817 0.032077
0.478463 0.127725 0.017132
0.522853 0.081480 0.004673
0.534387 0.155361 0.019464
0.493535 0.098916 0.058029
0.561988 0.123585 0.061989
0.503519 0.180263 0.089867
0.539968 0.146120 0.018469
0.551136 0.143204 0.030041
0.468315 0.186467 0.065481
0.483285 0.189994 0.036591
0.563211 0.063839 0.037505
0.477019 0.173991 0.083295
0.539726 0.052532 0.048340
0.490080 0.090551 0.023194
0.470294 0.144894 0.023689
0.559705 0.086804 0.060275
0.558707 0.132749 0.064134
0.526548 0.113179 0.081430
0.503487 0.124003 0.082835
0.566339 0.091810 0.050309
0.555463 0.103033 0.017688
0.505374 0.105064 0.071893
0.509754 0.168940 0.017773
0.555964 0.118736 0.022796
0.494834 0.197588 0.077963
0.536651 0.097475 0.074580
0.535630 0.102546 0.076764
0.563912 0.101296 0.031624
0.518380 0.192150 0.068058
0.497756 0.085146 0.048455
0.540604 0.066145 0.056760
0.485182 0.115233 0.064455
0.528631 0.127933 0.086047
0.476553 0.121798 0.020625
0.480604 0.188086 0.036024
0.544446 0.079316 0.064058
0.464996 0.153361 0.031395
0.523202 0.176899 0.028395
0.491769 0.108488 0.065096
0.565628 0.111575 0.052851
0.562982 0.121553 0.043469
0.509610 0.095621 0.006350
0.544556 0.155387 0.074276
0.563825 0.073782 0.030492
0.537452 0.119614 0.009045
0.474681 0.161786 0.081448
0.534917 0.148626 0.085704
0.518279 0.037040 0.015959
0.465541 0.135509 0.035408
0.528897 0.182660 0.066311
0.535212 0.174348 0.068502
0.505263 0.157228 0.011816
0.512580 0.109555 0.078121
0.552123 0.081319 0.062307
0.544341 0.130857 0.015703
0.532126 0.084508 0.004810
0.541521 0.125338 0.012298
0.536098 0.169760 0.073320
0.493556 0.180597 0.025678
0.559826 0.119622 0.068511
0.541671 0.144154 0.018850
0.475354 0.111278 0.038288
0.514223 0.084792 0.061897
0.541618 0.090816 0.070822
0.498443 0.153596 0.091964
0.556738 0.049284 0.032949
0.463825 0.140153 0.049174
0.556992 0.124357 0.071528
0.561787 0.060969 0.039089
0.478441 0.189122 0.038375
0.523181 0.038810 0.011613
0.563823 0.112217 0.036992
0.512013 0.059516 0.041973
0.518533 0.180578 0.029713
0.503146 0.074576 0.015278
0.553305 0.099093 0.070330
0.501695 0.191970 0.036441
0.482600 0.168468 0.021962
0.480330 0.107451 0.023274
0.495139 0.111653 0.009220
0.565378 0.103848 0.038715
0.555125 0.136063 0.069284
0.468749 0.134745 0.059036
0.496983 0.178706 0.023760
0.507810 0.146547 0.091512
0.551144 0.055750 0.046363
0.522050 0.177058 0.027891
0.463270 0.146638 0.055932
0.554129 0.098119 0.069492
0.560568 0.118755 0.031191
0.500844 0.068965 0.033026
0.497887 0.199713 0.046957
0.544874 0.086700 0.067996
0.534464 0.069579 0.005230
0.563823 0.110193 0.062295
0.553846 0.129180 0.073972
0.474497 0.160918 0.081111
0.481797 0.107396 0.051001
0.486926 0.173342 0.089408
0.469402 0.172222 0.032814
0.514659 0.169865 0.090084
0.538798 0.078453 0.064508
0.511949 0.091974 0.006033
0.509319 0.049825 0.018990
0.550471 0.139526 0.074049
0.493986 0.204031 0.058991
0.522882 0.040975 0.038737
0.535098 0.134949 0.011442
0.493302 0.082154 0.031058
0.488110 0.175286 0.023515
0.493615 0.174441 0.091222
0.480927 0.110688 0.053691
0.518094 0.160729 0.090703
0.557919 0.086124 0.061412
0.563408 0.084490 0.027815
0.528440 0.087614 0.069167
0.509763 0.059445 0.039591
0.465165 0.167589 0.036038
0.563637 0.096920 0.029631
0.537205 0.075958 0.005612
0.471544 0.187007 0.072215
0.503360 0.185607 0.087247
0.561096 0.078524 0.054002
0.556810 0.121960 0.072140
0.544226 0.166816 0.055030
0.533738 0.038355 0.039167
0.473579 0.160609 0.023869
0.555012 0.146684 0.058299
0.514150 0.046828 0.035443
0.550086 0.117925 0.077284
0.468997 0.178213 0.037066
0.560794 0.106310 0.025645
0.477219 0.158594 0.020677
0.562347 0.095171 0.026115
0.469101 0.125469 0.046093
0.554347 0.059596 0.017763
0.558840 0.125520 0.068480
0.499437 0.160422 0.092937
0.523261 0.047277 0.042119
0.535417 0.033573 0.019710
0.548539 0.040493 0.023019
0.529592 0.157991 0.086336
0.462217 0.153949 0.038497
0.463940 0.179470 0.051762
0.504012 0.197013 0.076250
0.520558 0.171970 0.022658
0.497828 0.145529 0.009589
0.472261 0.163521 0.026082
0.505079 0.093685 0.063491
0.485663 0.158276 0.016281
0.465067 0.146530 0.061217
0.470549 0.139070 0.023876
0.549552 0.131297 0.020682
0.531915 0.135960 0.010396
0.533063 0.121930 0.007892
0.494062 0.202053 0.050861
0.503324 0.124524 0.083042
0.494090 0.141678 0.009724
0.514051 0.118648 0.082918
0.509194 0.051259 0.018136
0.509639 0.149736 0.092066
0.515275 0.094600 0.005183
0.548394 0.069285 0.056788
0.465599 0.141043 0.031378
0.495293 0.146237 0.010197
0.515038 0.103176 0.075119
0.463584 0.145435 0.035034
0.490360 0.200975 0.048616
0.471124 0.191976 0.064095
0.555799 0.057941 0.044666
0.530129 0.163490 0.021814
0.489261 0.198302 0.044419
0.560084 0.130828 0.061598
0.537219 0.175624 0.056168
0.506445 0.054604 0.023723
0.514313 0.169759 0.090252
0.518126 0.034716 0.027537
0.511468 0.072825 0.008875
0.561146 0.068274 0.047043
0.488220 0.138884 0.011146
0.527472 0.179128 0.074899
0.526277 0.032250 0.018907
0.512295 0.144810 0.008628
0.558209 0.129950 0.067425
0.462698 0.163244 0.062251
0.505731 0.056096 0.026499
0.502706 0.148035 0.091458
0.544596 0.111823 0.078094
0.549730 0.041316 0.024059
0.559125 0.062844 0.045314
0.541518 0.166040 0.068481
0.510998 0.129534 0.086801
0.557084 0.141388 0.045590
0.472098 0.187857 0.072390
0.529830 0.057519 0.005914
0.565347 0.090018 0.034871
0.527269 0.080867 0.064418
0.464854 0.166547 0.036083
0.463565 0.144144 0.054304
0.495742 0.144589 0.089147
0.508405 0.099675 0.006346
0.474576 0.165041 0.024943
0.485584 0.145689 0.013117
0.514806 0.195570 0.064992
0.485022 0.141882 0.082577
0.539788 0.144829 0.083184
0.511876 0.117912 0.082225
0.534969 0.098472 0.005844
0.548618 0.140969 0.075723
0.550889 0.068053 0.012502
0.556254 0.052296 0.024912
0.547345 0.099460 0.010909
0.489506 0.148920 0.012279
0.462130 0.146331 0.042919
0.463113 0.147382 0.056064
0.562365 0.114991 0.033707
0.491309 0.092912 0.019142
0.538481 0.107034 0.077991
0.544022 0.136434 0.081141
0.490100 0.130704 0.079497
0.513328 0.196341 0.054786
0.473853 0.117596 0.048263
0.541036 0.042037 0.013285
0.472661 0.117306 0.042969
0.525123 0.037860 0.011816
0.494160 0.119887 0.075318
0.492093 0.172664 0.020647
0.506854 0.122650 0.006082
0.565573 0.112023 0.050132
0.525036 0.036535 0.036429
0.529084 0.183639 0.049169
0.533578 0.032936 0.019616
0.542337 0.168600 0.059987
0.540246 0.034073 0.024510
0.504969 0.153308 0.092563
0.538972 0.172708 0.046204
0.512026 0.155690 0.011697
0.465216 0.137181 0.034922
0.546690 0.131857 0.018015
0.520749 0.182163 0.079597
0.535586 0.053731 0.049012
0.495215 0.107085 0.010113
0.502422 0.195476 0.079044
0.482711 0.189078 0.035955
0.554415 0.093672 0.015445
0.552373 0.049530 0.020436
0.489725 0.163892 0.016917
0.528516 0.067008 0.004972
0.527549 0.171867 0.081045
0.468498 0.185615 0.046536
0.556714 0.137940 0.064575
0.499274 0.113203 0.007568
0.473407 0.114889 0.036107
0.511859 0.196462 0.051523
0.543222 0.104414 0.076032
0.481834 0.199587 0.051049
0.557419 0.051335 0.028614
0.548487 0.117729 0.078063
0.528453 0.069458 0.004842
0.559297 0.082986 0.058497
0.497021 0.139619 0.008831
0.559795 0.112099 0.025990
0.483162 0.098524 0.038243
0.493472 0.086155 0.042760
0.553657 0.133574 0.072646
0.469965 0.158767 0.026353
0.560095 0.128562 0.063911
0.538562 0.087338 0.069555
0.538015 0.109477 0.007775
0.472077 0.129832 0.023954
0.477366 0.149969 0.018270
0.483761 0.196150 0.043539
0.510976 0.044527 0.027111
0.517540 0.067799 0.006890
0.471618 0.120962 0.047145
0.524758 0.041654 0.009757
0.483310 0.135761 0.013208
0.552577 0.044039 0.026192
0.494653 0.086506 0.045415
0.560370 0.133124 0.051345
0.485127 0.120506 0.068968
0.492295 0.164003 0.091823
0.462512 0.146663 0.038925
0.551163 0.148106 0.068266
0.558029 0.067418 0.049812
0.533624 0.064788 0.055533
0.505295 0.151829 0.010217
0.564739 0.115938 0.047629
0.555459 0.066851 0.017064
0.473572 0.163403 0.024993
0.492994 0.099939 0.013765
0.464906 0.135261 0.042872
0.543209 0.035397 0.027577
0.566104 0.090071 0.039297
0.498845 0.119521 0.077827
0.525583 0.044092 0.041451
0.563737 0.079481 0.029007
0.474663 0.167783 0.026124
0.553397 0.151385 0.050576
0.505280 0.152038 0.010273
0.510935 0.094102 0.006123
0.488858 0.095717 0.047839
0.503905 0.105033 0.007092
0.511894 0.186108 0.083485
0.465303 0.158519 0.032186
0.565068 0.076034 0.035282
0.470266 0.123175 0.032281
0.564090 0.078794 0.049550
0.474036 0.154242 0.021512
0.491465 0.110924 0.066866
0.481253 0.109119 0.020596
0.489127 0.176982 0.089421
0.497997 0.156420 0.092322
0.540001 0.163288 0.031515
0.473224 0.135322 0.067244
0.542855 0.105399 0.076475
0.484112 0.180602 0.028497
0.552473 0.152698 0.057280
0.530338 0.178513 0.071231
0.500642 0.165785 0.015405
0.497924 0.074098 0.028855
0.523534 0.184189 0.074099
0.558659 0.135601 0.060938
0.493840 0.130912 0.008684
0.540924 0.082807 0.006792
0.514682 0.143764 0.008567
0.541441 0.138808 0.016344
0.468438 0.188324 0.060438
0.542479 0.142484 0.018725
0.471774 0.135261 0.065034
0.483944 0.141415 0.081611
0.471304 0.172491 0.077659
0.492573 0.109729 0.066832
0.545361 0.143970 0.078397
0.487563 0.182044 0.028290
0.517217 0.127138 0.006116
0.464411 0.142438 0.055571
0.484604 0.186285 0.083984
0.532976 0.052295 0.047824
0.536122 0.144096 0.085609
0.505886 0.162176 0.013749
0.483879 0.113746 0.015659
0.546421 0.040036 0.034394
0.482543 0.101539 0.043461
0.564223 0.072483 0.032413
0.523448 0.118119 0.005706
0.528239 0.126564 0.085712
0.542631 0.115547 0.010744
0.527680 0.181230 0.038295
0.542161 0.160084 0.074107
0.528636 0.152225 0.014736
0.560273 0.121221 0.067433
0.547953 0.158417 0.040877
0.525105 0.157110 0.088700
0.506873 0.113240 0.005950
0.543397 0.132085 0.081879
0.563477 0.064690 0.037258
0.492206 0.204108 0.060693
0.542504 0.059318 0.008436
0.497258 0.171928 0.092262
0.487214 0.175527 0.023978
0.483925 0.156890 0.016548
0.541188 0.086355 0.068674
0.499609 0.118201 0.007129
0.494145 0.138038 0.009231
0.540316 0.048306 0.010105
0.489460 0.113413 0.011707
0.471214 0.174013 0.077270
0.552789 0.093772 0.014067
0.548660 0.039248 0.028535
0.468148 0.181675 0.069869
0.461131 0.153865 0.044954
0.556822 0.076916 0.017370
0.461153 0.168217 0.049058
0.502377 0.119488 0.006562
0.556747 0.057597 0.022158
0.548941 0.146366 0.073070
0.565580 0.100335 0.038208
0.542417 0.168819 0.047896
0.489694 0.111032 0.065338
0.507702 0.154550 0.092717
0.545924 0.037685 0.023587
0.466271 0.134413 0.051366
0.477647 0.176849 0.083106
0.563851 0.104907 0.032755
0.512023 0.103023 0.073832
0.506051 0.099143 0.068119
0.540735 0.081133 0.006693
0.473839 0.173119 0.029433
0.497698 0.092336 0.013181
0.485649 0.147050 0.013334
0.509534 0.194758 0.075865
0.519113 0.090613 0.068213
0.484247 0.140111 0.081112
0.536021 0.094399 0.073262
0.566027 0.108427 0.048466
0.481153 0.123172 0.015570
0.482635 0.117709 0.015557
0.564639 0.072112 0.034661
0.504629 0.105889 0.072049
0.520817 0.070728 0.005645
0.538860 0.085202 0.006199
0.511328 0.043766 0.020404
0.563863 0.077467 0.049130
0.521035 0.118029 0.083237
0.545515 0.114097 0.078424
0.512804 0.196877 0.056101
0.505350 0.199873 0.052760
0.508341 0.154157 0.092657
0.524035 0.031440 0.025829
0.565459 0.110258 0.044456
0.546226 0.140672 0.078392
0.519333 0.108249 0.004936
0.488988 0.181420 0.087944
0.541400 0.048068 0.045256
0.462919 0.176437 0.050235
0.532684 0.139245 0.011633
0.468507 0.168581 0.031926
0.461800 0.148662 0.049547
0.515013 0.085177 0.062543
0.491576 0.197339 0.042670
0.484543 0.201049 0.051695
0.522801 0.077153 0.060340
0.559398 0.134187 0.059643
0.501610 0.179903 0.024643
0.469166 0.174346 0.074448
0.508564 0.189332 0.082769
0.556017 0.140620 0.063732
0.530270 0.125182 0.085030
0.538421 0.138057 0.084646
0.543223 0.165003 0.039987
0.521311 0.177470 0.082635
0.497803 0.199553 0.046630
0.537130 0.128109 0.084269
0.548686 0.155951 0.038715
0.559583 0.125140 0.033622
0.482777 0.185992 0.083136
0.533533 0.104045 0.077566
0.494827 0.117412 0.074100
0.494467 0.141750 0.087672
0.555225 0.056899 0.020143
0.546608 0.144968 0.076696
0.538543 0.172187 0.042951
0.514342 0.171959 0.089556
0.534296 0.132821 0.010534
0.478306 0.165447 0.022748
0.533988 0.129438 0.085413
0.493622 0.103831 0.062760
0.534227 0.078452 0.064375
0.524601 0.051382 0.044842
0.506910 0.087392 0.059723
0.461434 0.156116 0.041970
0.476233 0.167955 0.025169
0.523529 0.185198 0.039823
0.478529 0.192606 0.042534
0.504016 0.070158 0.041339
0.474709 0.121526 0.023280
0.469592 0.158374 0.074616
0.530956 0.179990 0.042112
0.537698 0.175079 0.051707
0.536217 0.035599 0.016571
0.463015 0.175628 0.047609
0.477056 0.118107 0.021462
0.520266 0.186433 0.038202
0.505653 0.158354 0.012211
