ply
format ascii 1.0
element vertex 1024
property float x
property float y
property float z
end_header
0.577177 0.034693 0.005413
0.556325 -0.047409 0.013213
0.555991 -0.052451 0.014333
0.521499 0.086153 0.028151
0.535531 -0.038553 0.074739
0.537386 0.000927 0.001622
0.519513 0.078091 0.020349
0.563547 0.033422 0.079949
0.530886 -0.051971 0.019973
0.522250 -0.004157 0.020916
0.535766 0.057112 0.075410
0.550575 0.094506 0.051114
0.550461 -0.029664 0.080471
0.529737 -0.005575 0.082521
0.525892 0.043118 0.075973
0.516863 -0.000858 0.033361
0.539342 -0.019313 0.006970
0.518526 0.083211 0.038368
0.561571 0.066984 -0.001704
0.512385 0.047357 0.054583
0.535354 -0.005304 0.086006
0.532694 -0.073712 0.042426
0.542996 0.094723 0.014204
0.571303 -0.048266 0.034756
0.542820 -0.068461 0.014909
0.579876 0.007414 0.016148
0.570730 0.073127 0.009595
0.585586 0.054989 0.039184
0.586746 0.006436 0.044895
0.576184 0.071432 0.017740
0.518973 -0.010730 0.033070
0.512837 0.032738 0.057445
0.543436 -0.044556 0.075552
0.563785 -0.053476 0.060011
0.582832 0.047154 0.057169
0.578797 0.000834 0.066993
0.517525 -0.010582 0.040651
0.513042 0.058882 0.052213
0.580495 0.068200 0.026829
0.534834 -0.046335 0.069911
0.531524 0.086533 0.056345
0.566407 0.063119 0.067513
0.588843 0.031479 0.039760
0.525261 0.078335 0.058436
0.519430 0.084722 0.034944
0.516668 0.052896 0.062096
0.538116 -0.032294 0.079204
0.587982 0.023683 0.048834
0.523237 0.078384 0.014713
0.545488 -0.064146 0.013526
0.542225 -0.062857 0.013407
0.532395 0.061569 0.071924
0.577054 0.026037 0.070640
0.574520 -0.006825 0.013917
0.525469 0.069701 0.063747
0.584534 0.007651 0.057376
0.570988 0.086167 0.037520
0.547821 0.067383 -0.004712
0.587236 0.048649 0.035738
0.562375 0.029502 -0.005983
0.568714 0.037601 0.076091
0.553293 -0.007416 0.084996
0.535126 -0.027707 0.079498
0.524017 0.062253 0.006358
0.553188 0.072571 0.068032
0.517599 0.079874 0.027457
0.530108 0.091664 0.019595
0.524853 0.089289 0.045007
0.529202 0.088140 0.052950
0.554368 0.054126 0.077055
0.547756 -0.070162 0.057561
0.554616 0.050956 0.078269
0.529790 0.022437 0.082520
0.514657 0.012781 0.032445
0.532289 -0.053805 0.062071
0.563758 0.082903 0.009053
0.548010 -0.016387 0.003443
0.575684 -0.038038 0.041873
0.529053 0.095098 0.037002
0.541113 0.039272 0.082690
0.575581 -0.034103 0.054253
0.510293 0.034280 0.043005
0.577044 -0.033840 0.045508
0.533042 -0.036325 0.073744
0.527461 -0.060058 0.028443
0.515537 -0.000115 0.058754
0.523856 -0.043654 0.043009
0.520148 0.074779 0.016663
0.528674 0.003126 0.082912
0.574907 -0.027602 0.062139
0.541749 -0.039584 0.077376
0.512576 0.056244 0.052061
0.585627 0.053776 0.044020
0.524042 0.025387 0.077890
0.554949 0.087962 0.008269
0.561239 -0.036979 0.072812
0.577001 0.075982 0.027323
0.527768 0.038504 0.078322
0.514151 0.073398 0.030000
0.520279 -0.026867 0.054814
0.549113 0.100456 0.023738
0.588565 0.028393 0.034973
0.544113 0.059495 -0.006228
0.564744 0.031083 -0.005020
0.539283 0.011379 -0.002319
0.579009 0.069961 0.023614
0.555851 0.047566 0.079189
0.537671 0.023033 0.085402
0.568956 -0.028532 0.016686
0.585627 0.042627 0.021254
0.584926 0.056708 0.030501
0.539577 0.069963 0.069807
0.515187 0.058749 0.018471
0.570754 0.083390 0.045100
0.523510 0.011321 0.012864
0.514111 0.001826 0.048173
0.517893 0.078367 0.048212
0.536240 0.027350 -0.003710
0.549064 0.048780 -0.008672
0.586821 0.037592 0.024625
0.587476 0.045081 0.044997
0.561535 0.044778 -0.006857
0.582620 -0.006134 0.031782
0.588335 0.031985 0.046361
0.583596 0.030312 0.061279
0.566993 -0.026355 0.013774
0.516817 0.011306 0.025843
0.534687 -0.023779 0.080797
0.584444 0.052787 0.022010
0.566256 -0.019457 0.010521
0.535474 0.088286 0.010740
0.550482 0.017706 -0.006761
0.581438 -0.012991 0.033489
0.517021 -0.003212 0.062546
0.585264 0.055435 0.042441
0.517028 0.066605 0.056594
0.511992 0.065066 0.030143
0.578152 -0.019876 0.028494
0.581350 0.066149 0.041875
0.517928 -0.013581 0.059413
0.519540 0.082296 0.025765
0.555981 0.095343 0.017614
0.535262 0.033331 0.082570
0.523524 -0.019979 0.025540
0.521026 0.070852 0.013103
0.525507 -0.044018 0.031038
0.550950 -0.068564 0.057452
0.534771 -0.029141 0.078644
0.532635 -0.076228 0.031161
0.512611 0.031490 0.056589
0.556553 0.098929 0.025017
0.560621 0.094682 0.043498
0.552009 0.100874 0.026657
0.537486 0.065581 -0.002665
0.564615 0.084638 0.011697
0.566046 0.020315 0.079833
0.513776 0.009314 0.039046
0.542762 -0.079720 0.038568
0.588157 0.016842 0.042472
0.567269 -0.047485 0.023796
0.559572 0.020872 -0.005966
0.587559 0.038918 0.028130
0.573894 0.082253 0.030812
0.538547 0.054673 -0.005316
0.560065 -0.056673 0.061577
0.514528 0.000043 0.052520
0.588829 0.033498 0.039967
0.532673 0.078855 0.062646
0.560151 -0.042322 0.071150
0.565617 0.054146 -0.003223
0.552411 0.048596 -0.008741
0.561514 0.071281 0.065506
0.530128 -0.044122 0.020167
0.511619 0.065711 0.038871
0.574591 0.079303 0.024304
0.576590 0.031190 0.004796
0.580326 -0.019704 0.052872
0.568862 0.081118 0.013720
0.579907 -0.010142 0.026394
0.559290 0.093737 0.046630
0.525480 -0.037772 0.062267
0.578374 0.048254 0.008534
0.576541 0.076480 0.026229
0.528119 0.051871 0.074320
0.522866 -0.038737 0.043997
0.572452 -0.004620 0.010142
0.529401 -0.063876 0.049273
0.518047 0.071558 0.055181
0.569978 0.008014 0.002527
0.529769 -0.062246 0.022736
0.572704 0.079970 0.046737
0.519939 -0.004493 0.069318
0.517326 0.033557 0.068453
0.579428 -0.005272 0.022090
0.534916 0.052485 -0.003882
0.556030 0.065901 -0.004293
0.572768 0.026383 0.001072
0.547935 -0.025277 0.082540
0.513725 0.023638 0.029614
0.515079 -0.003249 0.048179
0.510253 0.041413 0.036867
0.514895 0.074993 0.029245
0.571764 0.054684 0.067882
0.512055 0.061622 0.027586
0.577494 0.033663 0.069269
0.546045 0.094841 0.014066
0.569436 -0.034861 0.066404
0.557695 0.033075 0.082426
0.563389 -0.008647 0.079922
0.583775 0.060253 0.040233
0.586630 0.038063 0.052108
0.537753 0.032511 -0.005156
0.547685 -0.070622 0.057047
0.515925 0.054553 0.016519
0.565240 0.091906 0.023153
0.539742 0.088159 0.058179
0.562022 -0.034797 0.073202
0.580936 0.012657 0.065544
0.544675 -0.032874 0.008638
0.525785 0.003203 0.012481
0.517549 0.058862 0.014208
0.538252 -0.068030 0.015995
0.518381 0.074351 0.019311
0.582716 0.027450 0.015136
0.559163 -0.069589 0.045694
0.543178 -0.079668 0.038928
0.509996 0.052345 0.039519
0.545843 0.028944 -0.007746
0.516956 -0.010152 0.043965
0.566837 0.060495 0.068662
0.554317 -0.026442 0.007111
0.582265 0.052126 0.055873
0.582344 -0.009733 0.054587
0.522711 0.054695 0.006482
0.576583 0.015260 0.071213
0.548051 0.000012 0.087254
0.538924 0.073476 0.067787
0.511990 0.028034 0.034441
0.523039 0.018097 0.077428
0.543831 -0.045612 0.010804
0.519752 0.013128 0.072286
0.516304 -0.007243 0.044077
0.525262 0.034665 0.077423
0.583572 0.019208 0.061831
0.524604 0.050492 0.072381
0.566846 -0.058992 0.034376
0.545381 0.096547 0.016212
0.577163 -0.009545 0.019748
0.518011 0.044809 0.012991
0.522826 0.033704 0.007481
0.537813 -0.075645 0.046589
0.523122 -0.018509 0.025740
0.540169 -0.030224 0.009446
0.532557 0.020598 0.000091
0.541175 0.091039 0.010751
0.571005 0.019440 0.076405
0.562525 0.079753 0.058913
0.576019 0.065408 0.057389
0.557723 0.084047 0.058363
0.540561 0.059910 -0.005187
0.560863 -0.065945 0.026526
0.548714 0.007913 -0.004546
0.585337 0.048362 0.050939
0.524597 -0.027309 0.067604
0.580737 0.011726 0.065730
0.571786 0.058005 0.003362
0.587443 0.020088 0.051098
0.566761 0.033796 0.078112
0.561717 0.020260 0.082191
0.537722 -0.070749 0.053403
0.535531 0.003074 0.002266
0.554207 -0.062652 0.061356
0.548151 0.027242 0.085373
0.531326 0.096481 0.028815
0.583756 -0.003249 0.033661
0.586558 0.048015 0.046990
0.558405 -0.043305 0.013229
0.588592 0.025108 0.036977
0.533814 0.002256 0.003880
0.546886 0.006951 0.087590
0.550455 -0.026384 0.081544
0.538968 -0.066745 0.058734
0.574158 0.071875 0.014191
0.520860 0.055846 0.008911
0.563622 0.036483 -0.005887
0.533459 -0.027924 0.078221
0.527145 0.062833 0.003442
0.579593 -0.025489 0.044198
0.550900 0.037696 -0.008947
0.536960 0.080961 0.004371
0.555543 -0.069219 0.020899
0.554217 0.098676 0.042549
0.530097 0.074713 0.063835
0.534695 -0.060797 0.059757
0.520201 -0.007409 0.068885
0.510652 0.057657 0.033115
0.511269 0.057766 0.046362
0.565243 0.023597 0.080150
0.522924 -0.028379 0.031221
0.564485 0.072383 0.063031
0.588293 0.034437 0.031876
0.545706 -0.013141 0.086071
0.545330 0.028777 -0.007617
0.567688 0.076279 0.057628
0.549628 0.087162 0.006329
0.553191 0.042727 -0.008983
0.531015 0.007230 0.004931
0.536485 -0.008344 0.005159
0.578394 0.059546 0.058155
0.527722 -0.001023 0.081523
0.524213 -0.040547 0.034338
0.517079 -0.012478 0.047591
0.541291 0.050490 0.079397
0.578081 -0.000028 0.067907
0.534731 0.003910 0.002629
0.574837 -0.040392 0.040696
0.571977 0.080594 0.019021
0.554560 0.091068 0.053462
0.558255 -0.032767 0.010185
0.573788 -0.012220 0.070802
0.574942 -0.039800 0.039565
0.551165 0.095720 0.015916
0.541146 0.100846 0.038328
0.520048 0.065345 0.061127
0.578633 0.061109 0.014397
0.576779 -0.016868 0.064863
0.527713 0.023291 0.004026
0.526097 -0.038918 0.027112
0.551372 0.087260 0.006626
0.527006 -0.059154 0.046552
0.535106 0.086684 0.009603
0.563257 0.026270 0.081011
0.520286 0.001406 0.071506
0.536430 -0.037402 0.075951
0.576734 -0.031908 0.052668
0.520085 0.015907 0.016732
0.574618 0.038269 0.071226
0.554416 0.100193 0.026470
0.578548 0.025464 0.008127
0.548096 0.030925 0.084716
0.540941 0.063975 0.073185
0.540123 0.034098 0.083596
0.582665 0.063597 0.030445
0.574682 0.073212 0.052180
0.515562 0.065430 0.019665
0.549768 -0.071584 0.054563
0.563798 0.028083 -0.005222
0.537914 -0.078596 0.039239
0.566537 -0.011415 0.077400
0.552937 -0.023051 0.005831
0.578688 -0.025970 0.036441
0.551904 0.038181 0.082816
0.545312 0.026840 -0.007385
0.558039 0.030089 0.082786
0.565122 0.082073 0.054684
0.551665 0.002448 -0.003207
0.553754 0.100586 0.027297
0.521319 0.047093 0.070578
0.547913 0.013635 -0.005740
0.545227 0.098792 0.019682
0.513382 0.044689 0.057962
0.555878 0.067928 0.069859
0.586644 0.033460 0.053522
0.552201 -0.077136 0.027935
0.528863 -0.035105 0.069641
0.576360 0.075003 0.045713
0.567871 -0.003051 0.004975
0.546516 -0.051446 0.011423
0.578788 0.002920 0.067353
0.524793 -0.047638 0.038631
0.564534 0.073293 0.062376
0.574296 -0.037399 0.032366
0.516330 0.017798 0.065702
0.579202 0.025721 0.009088
0.576150 0.024883 0.004939
0.545258 0.083395 0.003378
0.526589 -0.047445 0.056798
0.549990 -0.035515 0.008855
0.514904 -0.002590 0.050040
0.515039 0.059646 0.056473
0.512757 0.027858 0.056729
0.511671 0.065860 0.039285
0.546501 -0.019771 0.004775
0.549138 -0.037407 0.078113
0.527064 -0.050577 0.055232
0.573477 0.075783 0.016498
0.533719 -0.077180 0.032696
0.523661 0.056925 0.068692
0.584845 0.022302 0.059407
0.552739 -0.071689 0.019960
0.569106 -0.041663 0.062191
0.549375 -0.049980 0.011487
0.559331 0.003335 -0.002105
0.520795 0.059105 0.009513
0.580017 0.058551 0.056232
0.581612 0.052458 0.015142
0.564629 0.001129 0.001077
0.521784 0.073651 0.058358
0.509914 0.045635 0.039075
0.528259 0.012809 0.082777
0.514607 0.059314 0.055772
0.552645 0.048076 0.079784
0.509910 0.045294 0.041167
0.519471 0.046461 0.068590
0.544982 0.094833 0.014094
0.517858 0.081213 0.029533
0.525734 -0.054701 0.041284
0.580345 -0.008188 0.061544
0.527485 -0.057897 0.028112
0.587407 0.023363 0.029749
0.577517 -0.031568 0.039420
0.525825 -0.054543 0.044322
0.553509 0.100244 0.038836
0.557633 -0.018280 0.005439
0.511585 0.020190 0.047377
0.551878 -0.018734 0.004294
0.581919 0.064529 0.042711
0.585913 0.004270 0.049827
0.560057 -0.070471 0.039522
0.547225 -0.057115 0.012315
0.513473 0.006918 0.051905
0.555838 -0.063579 0.017839
0.522963 -0.013027 0.023516
0.520093 0.037939 0.010530
0.532867 0.023589 0.083750
0.577064 0.073765 0.022902
0.569725 -0.013726 0.074477
0.516021 -0.006323 0.044754
0.526286 0.056163 0.002875
0.581711 -0.001586 0.025488
0.510096 0.039027 0.040052
0.531005 0.043161 0.078895
0.573383 -0.041664 0.051808
0.548815 -0.064092 0.014124
0.557095 -0.070642 0.047655
0.550687 0.048846 0.079851
0.536378 0.048664 0.079120
0.581874 -0.012963 0.053493
0.583750 0.059891 0.028240
0.568155 0.071762 0.060771
0.588425 0.020987 0.043778
0.571540 -0.046102 0.051861
0.572776 -0.036082 0.059921
0.544915 -0.079376 0.040145
0.546774 -0.052469 0.011578
0.530669 -0.068469 0.046890
0.562241 0.024830 0.081643
0.572621 -0.040593 0.030273
0.559783 -0.070353 0.031631
0.530314 0.074059 0.004840
0.543327 0.019348 -0.005710
0.527855 0.094180 0.033866
0.514857 0.055938 0.018802
0.525946 0.004543 0.080410
0.574986 0.078790 0.024739
0.514084 0.068034 0.024435
0.576045 -0.004963 0.015327
0.512819 0.049767 0.055167
0.583204 -0.011472 0.043571
0.524032 -0.023894 0.068619
0.558969 0.056602 -0.006036
0.529033 -0.036524 0.020622
0.536910 0.032498 0.083201
0.587317 0.036925 0.026655
0.567569 -0.017993 0.075114
0.581855 0.053745 0.055796
0.575372 0.079866 0.033833
0.572227 0.081159 0.045727
0.575790 0.013900 0.072002
0.585493 0.002429 0.050520
0.559225 0.094744 0.045148
0.580819 -0.002253 0.062709
0.521532 -0.000701 0.020733
0.542394 -0.020527 0.006040
0.524537 0.056597 0.069590
0.510081 0.052619 0.041143
0.517080 0.000062 0.063919
0.567007 0.018726 -0.002240
0.521630 -0.006103 0.022966
0.517971 0.081831 0.041021
0.537605 -0.002613 0.002576
0.523876 -0.043769 0.048416
0.560345 0.005403 -0.002369
0.584570 0.051437 0.021489
0.535782 -0.037982 0.075214
0.574798 0.079932 0.026879
0.543436 0.087299 0.059385
0.535336 -0.022519 0.081662
0.523072 0.089089 0.032294
0.527165 0.005683 0.081754
0.552863 0.055162 0.076976
0.540901 0.078941 0.001488
0.567428 -0.020034 0.011707
0.564514 0.094448 0.029245
0.554739 0.056713 0.075851
0.584184 0.059128 0.040038
0.510702 0.029553 0.040986
0.558368 0.012049 0.083938
0.533483 0.092807 0.017040
0.520371 0.077024 0.054273
0.517525 -0.002166 0.064360
0.580068 0.067741 0.023969
0.525627 -0.013965 0.075697
0.569732 -0.053926 0.041399
0.545391 -0.016626 0.003912
0.538502 0.011423 0.087386
0.566879 0.021715 -0.002808
0.535303 -0.004086 0.086147
0.586654 0.031774 0.024388
0.512826 0.047563 0.055803
0.544697 -0.021291 0.005606
0.548880 0.031496 0.084548
0.521630 -0.024741 0.033617
0.516796 0.008087 0.065201
0.571225 -0.009605 0.074060
0.527532 0.047916 0.075515
0.530174 -0.039684 0.019418
0.537397 -0.078126 0.025924
0.578216 0.006398 0.013419
0.545310 -0.039308 0.009688
0.558520 0.070381 0.067474
0.587408 0.044017 0.046240
0.536739 0.093985 0.050556
0.547008 0.100365 0.023103
0.562031 -0.065043 0.048123
0.580747 0.022163 0.066340
0.513913 0.071298 0.045070
0.570096 -0.050035 0.050793
0.546478 0.013456 0.087351
0.541104 0.097975 0.019202
0.520683 -0.020683 0.034455
0.561237 -0.052163 0.018283
0.558318 0.094023 0.047183
0.563742 -0.040388 0.016148
0.527028 0.003995 0.081475
0.522887 0.037219 0.074987
0.569775 0.063487 0.064877
0.537791 0.017915 0.086434
0.577173 0.050106 0.064475
0.567497 -0.053421 0.028604
0.516840 0.047862 0.014814
0.536779 0.006960 0.087232
0.558667 -0.048853 0.014980
0.516828 -0.002761 0.062140
0.568580 0.089229 0.026574
0.580112 0.070019 0.036950
0.538914 0.062535 -0.004044
0.522729 0.059518 0.007206
0.531680 -0.013778 0.011176
0.546340 0.034125 0.084146
0.547278 0.100560 0.023677
0.582327 -0.015160 0.044365
0.513645 0.059590 0.022105
0.553130 0.082735 0.003100
0.510016 0.045719 0.037369
0.519952 0.010360 0.072344
0.571079 -0.035859 0.023405
0.571060 0.077131 0.013380
0.541435 -0.007763 0.002195
0.564481 0.021495 -0.004090
0.571891 -0.036367 0.025259
0.586823 0.033025 0.053047
0.521874 0.001968 0.018997
0.545107 0.007900 0.087809
0.523573 0.083307 0.052338
0.586072 0.022733 0.056369
0.577655 0.020241 0.070156
0.538193 0.091678 0.012481
0.569449 0.083166 0.017156
0.547151 -0.054387 0.070877
0.520235 0.082677 0.024532
0.527226 -0.055744 0.050929
0.549483 -0.014329 0.002640
0.562223 0.041318 -0.006631
0.533513 -0.026020 0.079092
0.545413 0.017829 0.086995
0.514521 0.012854 0.059841
0.510742 0.029316 0.040719
0.545980 -0.025835 0.082686
0.576269 -0.021443 0.063409
0.514659 0.008314 0.035665
0.586349 0.051610 0.031871
0.577149 -0.005649 0.068173
0.537862 0.098397 0.043099
0.518061 -0.006199 0.064315
0.517546 -0.000643 0.064938
0.565393 -0.021487 0.075670
0.551264 0.084487 0.060676
0.526946 -0.014491 0.017415
0.524510 -0.041085 0.056820
0.519396 0.021014 0.016102
0.515945 0.027221 0.065749
0.558802 0.017458 -0.005648
0.568588 0.081950 0.014167
0.523452 -0.027918 0.065005
0.556739 0.052642 -0.007547
0.583104 0.058330 0.049230
0.518291 0.013212 0.021319
0.550229 -0.006657 0.086124
0.561368 0.000729 0.082132
0.571635 -0.019339 0.015869
0.540180 0.045261 0.081018
0.557020 -0.047246 0.070701
0.584862 -0.003706 0.046509
0.517114 0.071489 0.019741
0.524990 0.044636 0.074846
0.545360 -0.073246 0.017563
0.547191 0.037059 -0.008607
0.552434 0.072463 0.068278
0.549326 0.063703 0.073510
0.586521 0.040328 0.023776
0.512514 0.012270 0.045184
0.527777 -0.028556 0.071855
0.584543 0.006701 0.056986
0.575291 -0.035961 0.034394
0.584973 0.001407 0.052318
0.543662 0.060530 0.075211
0.578841 0.068804 0.021444
0.537300 0.006569 0.087362
0.585518 0.020569 0.057754
0.538983 0.012829 -0.002505
0.519141 -0.015494 0.037164
0.520515 -0.014690 0.066556
0.511238 0.060519 0.043978
0.544559 -0.067399 0.060955
0.535909 0.045548 -0.004780
0.535433 0.012518 0.086533
0.544364 -0.056241 0.069624
0.566242 0.084115 0.013129
0.551197 -0.074075 0.020925
0.564251 -0.009895 0.079191
0.527891 -0.043726 0.024237
0.581914 0.063321 0.045951
0.554688 -0.034701 0.009454
0.526917 -0.010231 0.078575
0.575205 0.080118 0.034490
0.575114 0.059444 0.008048
0.552545 0.003902 -0.003601
0.570619 0.000085 0.006055
0.560267 -0.017584 0.079845
0.540939 0.023237 0.085960
0.526505 0.041926 0.002235
0.580847 0.065633 0.023661
0.511762 0.051409 0.051351
0.533172 -0.056302 0.061368
0.583302 0.058643 0.048018
0.531879 0.053533 -0.001946
0.527563 -0.011577 0.078895
0.570829 -0.004562 0.075282
0.536167 -0.034473 0.012407
0.567343 0.091143 0.035786
0.522534 -0.020124 0.067943
0.570458 -0.050284 0.034259
0.540764 -0.004898 0.087420
0.534027 0.018473 0.085234
0.517073 0.070643 0.019315
0.527938 0.010993 0.007130
0.517168 0.081133 0.035673
0.563068 0.069333 0.000104
0.522830 0.070812 0.061032
0.521236 -0.027111 0.059783
0.571308 -0.023417 0.017333
0.544574 -0.058232 0.012379
0.536574 0.028959 0.083826
0.556923 0.099434 0.036949
0.527415 -0.064627 0.030179
0.587290 0.011761 0.047649
0.540404 -0.020815 0.006912
0.577518 0.064730 0.014796
0.517706 0.080886 0.042666
0.526403 0.015001 0.007773
0.520086 0.061619 0.062929
0.531777 -0.025872 0.077710
0.562966 -0.037949 0.071162
0.517373 -0.014643 0.053261
0.529408 -0.043848 0.021335
0.557446 0.067032 -0.003490
0.565625 -0.026008 0.074024
0.573023 -0.044994 0.037972
0.533178 0.093158 0.017840
0.527710 0.087585 0.052180
0.536720 -0.035755 0.076903
0.534015 0.010512 0.086179
0.561323 0.050704 0.076073
0.529053 -0.069788 0.039956
0.568295 0.055054 -0.000952
0.554422 0.030118 0.083877
0.530028 -0.057808 0.021931
0.526199 0.009939 0.081027
0.561168 0.076141 0.002148
0.571649 -0.017649 0.071578
0.571464 0.051366 0.001011
0.567850 -0.028243 0.071352
0.535102 0.029730 -0.003336
0.561110 -0.061347 0.055289
0.539071 0.012281 0.087405
0.512953 0.066842 0.046346
0.526615 -0.057973 0.032707
0.545407 -0.079940 0.034146
0.548309 -0.076081 0.048558
0.526178 0.054878 0.071658
0.549794 0.055845 -0.007623
0.546996 0.082623 0.002639
0.541677 0.094988 0.050930
0.585883 0.052903 0.044031
0.582545 0.030845 0.014218
0.566938 0.058698 -0.000948
0.518274 -0.004426 0.030686
0.577586 0.047659 0.007296
0.527563 0.054396 0.001490
0.560140 0.035910 -0.007285
0.581607 0.007092 0.063572
0.587722 0.013249 0.044512
0.585509 -0.000722 0.042431
0.563594 0.095375 0.033945
0.510689 0.029897 0.040723
0.580107 0.028297 0.010170
0.511683 0.021605 0.049659
0.545798 -0.057104 0.012209
0.512841 0.054032 0.053755
0.573862 -0.022089 0.020558
0.527648 -0.040217 0.064563
0.552722 0.041074 -0.009010
0.581556 0.032331 0.012190
0.513707 0.004903 0.045403
0.550382 0.046662 -0.008922
0.564255 0.094740 0.029579
0.542073 0.095665 0.015517
0.536698 -0.055956 0.065466
0.586329 0.042308 0.051227
0.566831 0.091414 0.026703
0.547414 0.015000 0.087098
0.561414 0.061008 0.071406
0.541165 -0.051767 0.012100
0.522551 0.070851 0.060751
0.534095 -0.072214 0.020958
0.562098 -0.040248 0.014714
0.539512 -0.047149 0.072917
0.576296 0.027639 0.004753
0.543111 0.071899 0.069285
0.543223 -0.078982 0.025188
0.587055 0.026118 0.027182
0.541360 0.016262 0.087188
0.531686 0.070775 0.002381
0.538980 -0.049444 0.012621
0.510946 0.054113 0.046847
0.521916 0.005952 0.075215
0.547972 -0.075350 0.050149
0.538678 -0.052114 0.069570
0.548211 0.054348 0.077987
0.511070 0.033541 0.049926
0.564627 0.021219 0.080631
0.533459 0.093846 0.018551
0.564489 -0.060047 0.028222
0.559013 -0.031425 0.076251
0.519039 -0.021871 0.049464
0.556968 0.066161 -0.003933
0.532576 0.050705 -0.002632
0.509983 0.052124 0.039048
0.572696 -0.015270 0.015415
0.569105 0.059188 0.001060
0.576129 0.035168 0.004092
0.554231 0.087760 0.056888
0.512099 0.050650 0.026448
0.527277 0.039156 0.077885
0.511473 0.021306 0.047289
0.579879 -0.023499 0.039664
0.535058 0.031237 0.082912
0.567801 -0.054037 0.051690
0.552697 -0.066666 0.058280
0.578978 -0.024460 0.053008
0.579039 0.036901 0.007971
0.543192 0.050015 -0.007455
0.531970 0.054299 -0.001924
0.567764 -0.007835 0.077183
0.554268 -0.013566 0.002795
0.518734 0.003096 0.068730
0.527397 0.029717 0.079743
0.512432 0.038131 0.028281
0.563291 0.086091 0.052191
0.531744 0.021781 0.000512
0.555588 -0.075324 0.038565
0.536095 0.020388 -0.002431
0.551212 -0.075410 0.022638
0.513605 0.025913 0.028859
0.580280 0.060478 0.017088
0.580340 0.006338 0.017650
0.552816 -0.006966 0.085226
0.528561 -0.069931 0.030667
0.568263 0.068665 0.062811
0.544780 -0.080072 0.032305
0.556957 0.054197 0.076291
0.542550 -0.079442 0.040327
0.512354 0.058701 0.050181
0.569869 0.055142 0.069182
0.587922 0.037095 0.029751
0.548111 0.038561 -0.008799
0.583431 0.007638 0.060109
0.538104 0.077751 0.065141
0.525915 -0.053364 0.047516
0.568279 -0.003922 0.005680
0.538209 0.094741 0.050150
0.569555 0.082296 0.016259
0.574821 -0.030444 0.060147
0.554744 -0.069423 0.052717
0.580017 0.051965 0.012195
0.568216 -0.051171 0.028238
0.535121 0.066825 0.070247
0.555022 0.085697 0.006101
0.546247 0.023279 0.086146
0.573747 -0.000014 0.009582
0.541655 0.016091 -0.004457
0.565878 0.085703 0.049745
0.520882 -0.001107 0.072031
0.559299 0.096355 0.022274
0.549347 -0.066857 0.060455
0.525001 0.010389 0.079777
0.569150 -0.048922 0.028537
0.533705 -0.029931 0.077487
0.580998 0.025379 0.012246
0.573041 -0.011933 0.071717
0.536780 -0.001043 0.002627
0.531269 -0.013977 0.011684
0.536667 0.022231 0.085330
0.564459 0.054973 -0.003763
0.544561 0.013528 0.087520
0.519650 -0.017452 0.062726
0.582706 -0.013585 0.044942
0.557335 0.026976 -0.007355
0.570735 0.042688 -0.001080
0.565412 0.090627 0.020956
0.535898 -0.061368 0.015795
0.563807 -0.047035 0.018845
0.533296 0.025181 -0.001386
0.554261 -0.072360 0.022224
0.572055 0.026598 0.000389
0.547743 -0.072997 0.053954
0.529314 -0.013242 0.013733
0.557511 0.014267 0.084270
0.517110 0.027136 0.018441
0.513256 0.071732 0.039937
0.547007 0.049137 -0.008397
0.544892 0.035151 0.083916
0.535888 -0.046370 0.070825
0.523278 -0.040841 0.049714
0.586131 0.034887 0.022382
0.556181 -0.003802 0.084248
0.564510 -0.055112 0.057271
0.568233 0.057949 -0.000122
0.561959 -0.008962 0.003687
0.540211 0.039023 -0.006710
0.541034 -0.078162 0.044327
0.555246 -0.030373 0.078460
0.512480 0.025025 0.033989
0.526757 -0.061714 0.034110
0.560276 -0.042350 0.071051
0.568998 0.062024 0.001989
0.562547 0.032797 0.080538
0.586148 0.035099 0.022420
0.571679 -0.021155 0.016772
0.528709 -0.002534 0.010692
0.572639 -0.008924 0.012375
0.533564 0.084785 0.058897
0.557866 0.057552 -0.006150
0.553806 -0.044187 0.073843
0.547079 0.023549 -0.007305
0.541627 -0.037500 0.078216
0.568374 0.048399 -0.002369
0.517445 0.016028 0.022034
0.555773 0.004476 -0.003378
0.518988 0.083929 0.038313
0.511757 0.063348 0.044148
0.580173 0.042162 0.063624
0.520509 0.043512 0.009253
0.520720 0.000022 0.072002
0.573765 0.072055 0.013647
0.556705 0.036076 0.082164
0.546976 0.069581 0.070599
0.584959 0.050439 0.022110
0.540888 -0.030086 0.009131
0.544496 0.077402 0.066193
0.549251 0.019615 0.086335
0.577311 0.018113 0.007823
0.575291 -0.039309 0.042939
0.587395 0.024505 0.029202
0.585893 0.014999 0.055818
0.543402 0.091996 0.011193
0.585278 0.018776 0.058187
0.522089 0.043237 0.007152
0.512521 0.050239 0.025046
0.523265 0.081259 0.017082
0.517366 0.014621 0.022854
0.532796 0.035598 0.081289
0.575371 0.072428 0.017011
0.584623 0.007780 0.028000
0.531080 0.049246 -0.001698
0.525838 0.092254 0.033806
0.525795 -0.054331 0.044461
0.523857 0.040100 0.075189
0.586632 0.045271 0.025818
0.562504 0.006730 -0.001858
0.537335 -0.072860 0.050369
0.532938 0.003327 0.004312
0.554954 -0.048032 0.071508
0.583596 -0.002318 0.032158
0.515675 0.025966 0.065048
0.583338 -0.008371 0.051218
0.576862 0.063852 0.057438
0.541288 0.050192 0.079511
0.588468 0.030349 0.045604
0.538936 0.007640 0.087674
0.572216 0.038105 0.073363
0.522542 0.055883 0.068156
0.577260 -0.002416 0.016082
0.525083 0.026054 0.078702
0.547735 -0.053736 0.071179
0.554936 0.100435 0.035888
0.566236 -0.061026 0.041114
0.516893 0.077885 0.045982
0.576942 0.065314 0.014161
0.576406 0.046906 0.005549
0.520815 -0.019291 0.064701
0.575934 0.004406 0.010562
0.579326 0.024779 0.009457
0.560395 -0.070194 0.037848
0.567451 0.003883 0.001922
0.524110 0.082586 0.017117
0.575660 -0.030299 0.058190
0.542948 -0.075768 0.050333
0.532563 0.088476 0.013026
0.543655 0.057805 -0.006459
0.568028 -0.046068 0.060286
0.544851 0.072203 -0.002700
0.577628 0.004717 0.013146
0.557115 -0.062635 0.058674
0.539374 0.035428 0.083197
0.559582 -0.021027 0.079286
0.567947 0.051096 0.072310
0.518382 0.016178 0.019894
0.513373 0.059174 0.052969
0.546138 -0.077840 0.045867
0.532636 0.040186 -0.002711
0.521547 0.085106 0.025516
0.565588 -0.017820 0.076587
0.514004 0.005203 0.042148
0.516224 0.001629 0.034046
0.574760 -0.040836 0.042456
0.567613 0.068080 0.003218
0.561161 -0.017396 0.006604
0.576415 0.036469 0.004448
0.542741 0.091345 0.055548
0.516746 -0.009674 0.044786
0.512607 0.048816 0.024944
0.518032 -0.009241 0.062782
0.553215 -0.010867 0.084495
0.565060 0.016149 -0.002871
0.563611 0.010699 -0.002396
0.552914 -0.047875 0.072593
0.514599 0.009316 0.035163
0.566807 -0.045522 0.021941
0.576086 -0.036711 0.041218
0.541777 -0.063985 0.013727
0.541492 -0.038784 0.077646
0.513063 0.019284 0.056138
0.522640 0.007905 0.076551
0.562148 0.087082 0.052238
0.564175 0.090907 0.044691
0.513465 0.058626 0.053476
0.536108 -0.077263 0.025319
0.557298 -0.010112 0.082911
0.531909 0.032315 0.081549
0.579823 -0.010585 0.026469
0.521793 0.087673 0.038412
0.528934 -0.061155 0.050707
0.547064 0.079669 0.000680
0.587933 0.016424 0.046181
0.562387 0.065956 -0.001621
0.537925 0.054059 -0.005137
0.518902 -0.015171 0.038178
0.568700 0.089439 0.028099
0.559942 0.097172 0.025242
0.520248 -0.025243 0.043336
0.550135 0.017760 0.086350
0.581702 0.065765 0.028443
0.526215 0.082666 0.014319
0.534412 0.088451 0.056096
0.547732 0.025714 0.085654
0.516365 0.023967 0.066473
0.523286 0.033643 0.076005
0.573990 0.045203 0.069756
0.533920 0.074083 0.065921
0.567561 0.090928 0.035571
0.519892 0.024669 0.073052
0.573523 0.035042 0.072907
0.570548 0.002270 0.076238
0.526012 0.092232 0.031777
0.516769 0.001513 0.063512
0.514040 0.023117 0.028659
0.510002 0.049430 0.036902
0.558284 -0.063429 0.056467
0.535003 0.035732 0.082032
0.572508 0.053889 0.067598
0.523934 0.072690 0.060903
0.587169 0.009755 0.046251
0.572224 0.057988 0.003840
0.518469 0.027035 0.070745
0.519309 0.007779 0.021483
0.520126 -0.025947 0.055502
0.525920 -0.053786 0.035542
0.520019 -0.011757 0.030078
0.547192 0.059000 -0.006819
0.570339 0.061512 0.003149
0.575720 0.069031 0.054758
0.563704 0.088447 0.015188
0.529936 -0.031945 0.018355
0.555821 0.018412 -0.006503
0.520740 0.067812 0.012156
0.573882 0.062879 0.061562
0.565376 0.059167 0.070252
0.549140 -0.079127 0.034157
0.549180 0.078181 -0.000251
0.556926 0.014136 -0.005503
0.576725 0.070592 0.051387
0.586653 0.041376 0.024456
