ply
format ascii 1.0
element vertex 1024
property float x
property float y
property float z
end_header
0.564475 0.037857 0.084856
0.596594 -0.032775 0.049990
0.597669 -0.037576 0.048383
0.546740 0.095800 0.033930
0.548947 -0.034885 0.005026
0.595327 0.020282 0.046425
0.557129 0.091155 0.034486
0.506931 0.020799 0.038587
0.602131 -0.030947 0.023920
0.586578 0.015092 0.023540
0.512285 0.052178 0.020138
0.513234 0.088306 0.050167
0.535143 -0.032902 0.016871
0.532118 -0.005102 0.001639
0.520781 0.042286 0.009019
0.576816 0.016404 0.013652
0.597681 -0.000233 0.042467
0.540309 0.091275 0.026182
0.564206 0.074041 0.079604
0.542373 0.056067 0.007681
0.526956 -0.007520 0.004997
0.590616 -0.057396 0.011758
0.547261 0.100778 0.060482
0.573047 -0.043964 0.053083
0.608149 -0.048299 0.034055
0.564636 0.009238 0.077961
0.548887 0.073790 0.083414
0.525074 0.044698 0.079967
0.538075 -0.001511 0.070643
0.540578 0.068373 0.084183
0.579985 0.006824 0.014060
0.545282 0.041815 0.004439
0.547551 -0.043011 0.010613
0.556437 -0.053214 0.034110
0.513822 0.033547 0.068073
0.524448 -0.010138 0.052676
0.574052 0.005361 0.009344
0.539796 0.067024 0.011174
0.532478 0.061649 0.083275
0.556228 -0.040473 0.005391
0.518953 0.085471 0.029841
0.505215 0.050377 0.051509
0.532213 0.022085 0.078812
0.522618 0.079348 0.022102
0.542302 0.093299 0.028781
0.532317 0.057783 0.008865
0.541839 -0.031170 0.006237
0.527783 0.012789 0.072662
0.560395 0.091797 0.040371
0.606695 -0.044807 0.037708
0.607535 -0.042596 0.035114
0.514826 0.058220 0.019495
0.512527 0.012418 0.053490
0.573895 -0.001512 0.072034
0.521290 0.069973 0.018478
0.527875 -0.003086 0.063184
0.520227 0.078088 0.072921
0.571764 0.079439 0.069021
0.529759 0.039334 0.081980
0.581636 0.040737 0.076307
0.506687 0.024066 0.045538
0.521874 -0.014685 0.020812
0.540987 -0.026143 0.004217
0.573251 0.079085 0.042315
0.506178 0.062924 0.041213
0.551155 0.091455 0.029839
0.548683 0.100492 0.046256
0.530023 0.093090 0.029640
0.522095 0.088566 0.029621
0.505035 0.043295 0.035178
0.570808 -0.062861 0.018561
0.505106 0.039999 0.034334
0.521556 0.020449 0.006140
0.573286 0.029778 0.014311
0.566636 -0.044396 0.005569
0.548282 0.085000 0.079120
0.596314 0.000726 0.052127
0.561525 -0.037891 0.055281
0.533042 0.099259 0.037904
0.510826 0.032290 0.018642
0.549596 -0.037604 0.050145
0.557887 0.047894 0.009076
0.556356 -0.035458 0.055472
0.549886 -0.031818 0.003660
0.599286 -0.039559 0.015759
0.555524 0.010647 0.000976
0.582126 -0.027404 0.008542
0.561260 0.088930 0.036203
0.528910 0.003060 0.001914
0.540722 -0.033589 0.046977
0.544769 -0.038446 0.009092
0.541092 0.064799 0.010416
0.521419 0.042276 0.077594
0.526525 0.026154 0.003704
0.550348 0.092535 0.072579
0.540340 -0.040826 0.028642
0.530441 0.069693 0.081231
0.519824 0.036865 0.008850
0.552732 0.085918 0.024628
0.567151 -0.014165 0.002674
0.534733 0.101562 0.062376
0.537533 0.020644 0.080271
0.577409 0.073787 0.065218
0.579337 0.041193 0.078189
0.594020 0.030301 0.051551
0.535096 0.064579 0.083729
0.505139 0.036277 0.034454
0.515933 0.017795 0.011806
0.581807 -0.020362 0.062448
0.544899 0.038235 0.086251
0.532030 0.048810 0.083641
0.510764 0.064245 0.028082
0.567623 0.075335 0.028487
0.514940 0.073583 0.068801
0.587100 0.031001 0.030792
0.564291 0.015708 0.004885
0.534031 0.084396 0.020348
0.590329 0.046188 0.052067
0.581654 0.063146 0.068963
0.543491 0.032364 0.084949
0.523170 0.033509 0.077380
0.576943 0.055173 0.078402
0.555462 -0.008184 0.071043
0.526622 0.020924 0.075424
0.516393 0.016833 0.064179
0.584192 -0.016987 0.062411
0.578623 0.029546 0.018990
0.538572 -0.022773 0.003862
0.540879 0.047668 0.086486
0.584627 -0.009588 0.064354
0.555442 0.098147 0.054467
0.591198 0.033833 0.064386
0.557041 -0.014539 0.068137
0.552920 0.006343 0.000045
0.522269 0.044327 0.078263
0.531683 0.071667 0.013880
0.556558 0.078937 0.021349
0.565096 -0.018468 0.066457
0.520184 0.055460 0.076804
0.559136 -0.002556 0.000624
0.550948 0.093525 0.032697
0.539267 0.096436 0.070375
0.515359 0.028697 0.012635
0.588138 -0.000987 0.020020
0.565423 0.086035 0.037977
0.591784 -0.025018 0.015412
0.569100 -0.062354 0.021658
0.542382 -0.027113 0.004070
0.601127 -0.056638 0.016467
0.546561 0.040976 0.004435
0.531432 0.097539 0.068054
0.515849 0.087433 0.062469
0.531016 0.100268 0.063638
0.574586 0.080417 0.058758
0.545068 0.085608 0.078934
0.511025 0.008099 0.038741
0.569330 0.025105 0.009965
0.592368 -0.064933 0.021374
0.535682 0.008205 0.074642
0.583551 -0.039058 0.054701
0.585922 0.033716 0.072475
0.539746 0.032403 0.084200
0.526292 0.075430 0.077912
0.580540 0.070850 0.059165
0.557710 -0.055412 0.029630
0.561124 0.012781 0.002975
0.531282 0.023876 0.079025
0.516075 0.076412 0.026738
0.544167 -0.044920 0.027602
0.568806 0.061490 0.081796
0.580526 0.061968 0.071893
0.505680 0.059869 0.049446
0.599298 -0.023603 0.024417
0.549062 0.077289 0.017127
0.532653 0.074277 0.081034
0.566537 0.035007 0.084068
0.543566 -0.025547 0.057217
0.543086 0.080545 0.081162
0.562553 -0.009557 0.070502
0.514051 0.086136 0.059720
0.562990 -0.027723 0.002074
0.556278 0.049026 0.086630
0.531353 0.070583 0.081409
0.518050 0.050036 0.013116
0.579810 -0.022878 0.008005
0.577039 0.002152 0.072306
0.582350 -0.049252 0.007305
0.530633 0.076256 0.016206
0.579663 0.016496 0.075641
0.604077 -0.040727 0.020044
0.514108 0.069421 0.069213
0.546571 0.002453 -0.000710
0.533964 0.038217 0.003453
0.564545 -0.003805 0.072829
0.581511 0.069582 0.054985
0.568887 0.075453 0.075772
0.572934 0.032797 0.081667
0.532687 -0.028679 0.014412
0.571948 0.040736 0.016520
0.565833 0.010777 0.004923
0.560416 0.056071 0.012987
0.552492 0.087348 0.025878
0.506067 0.040932 0.054682
0.559996 0.076464 0.022029
0.510653 0.019613 0.055715
0.546190 0.099986 0.063231
0.541894 -0.039683 0.039083
0.507160 0.021612 0.032279
0.522847 -0.017542 0.031771
0.522884 0.049777 0.078739
0.520105 0.025447 0.072267
0.589043 0.050824 0.054873
0.571443 -0.063120 0.018661
0.570578 0.071805 0.029359
0.532394 0.088963 0.075388
0.513704 0.083936 0.036446
0.538895 -0.039179 0.029495
0.520423 0.000387 0.057091
0.599371 -0.014698 0.044210
0.589626 0.022996 0.031666
0.570305 0.075862 0.032523
0.608781 -0.046795 0.029631
0.559841 0.088368 0.033377
0.556886 0.026925 0.084094
0.576363 -0.062643 0.034064
0.591887 -0.065110 0.021582
0.554153 0.065413 0.013286
0.589544 0.045780 0.062568
0.571296 0.005036 0.007397
0.505068 0.047540 0.050940
0.594625 -0.011377 0.054364
0.513262 0.038608 0.068961
0.537603 -0.017529 0.059782
0.576481 0.072555 0.039915
0.516274 0.002572 0.051101
0.519133 -0.006903 0.016374
0.511398 0.068198 0.028994
0.566855 0.043980 0.013490
0.530036 0.019933 0.001878
0.602646 -0.026649 0.040453
0.537495 0.017794 0.000570
0.570351 0.007861 0.007238
0.522970 0.034374 0.006460
0.520113 0.006557 0.062139
0.521531 0.050380 0.010711
0.579079 -0.052282 0.047654
0.543979 0.101168 0.061938
0.568988 -0.006378 0.071242
0.576451 0.063222 0.031250
0.583492 0.053091 0.036219
0.585897 -0.061854 0.014020
0.587566 0.000425 0.019810
0.599379 -0.011113 0.040320
0.591032 0.040131 0.046031
0.552256 0.098905 0.059886
0.512397 0.006701 0.044509
0.507696 0.069069 0.054699
0.509322 0.052241 0.064917
0.508347 0.074611 0.051434
0.577704 0.074977 0.061701
0.590591 -0.054675 0.044912
0.593671 0.024841 0.060268
0.517705 0.035559 0.073309
0.554862 -0.019341 0.000521
0.520691 -0.000452 0.056684
0.559462 0.061344 0.084789
0.527421 0.009063 0.070582
0.507141 0.020648 0.042298
0.510672 0.008744 0.033866
0.578315 -0.059194 0.011597
0.594670 0.022638 0.044849
0.562345 -0.059011 0.023658
0.510441 0.018426 0.021655
0.538603 0.102030 0.043862
0.552358 -0.006406 0.071634
0.520722 0.035932 0.076131
0.594255 -0.029673 0.052455
0.537062 0.017098 0.078854
0.594255 0.021984 0.042477
0.516674 -0.000303 0.016305
0.533003 -0.030195 0.016896
0.571825 -0.057359 0.010881
0.544177 0.070356 0.084108
0.574684 0.073520 0.037366
0.578460 0.046700 0.078464
0.542775 -0.025485 0.003309
0.574329 0.079440 0.046479
0.553366 -0.028265 0.059630
0.585370 0.052539 0.068932
0.563036 0.092720 0.057520
0.598586 -0.054513 0.042317
0.517552 0.093301 0.057939
0.517593 0.073102 0.023282
0.570324 -0.050894 0.007621
0.547937 -0.000173 -0.000746
0.557331 0.071786 0.017639
0.545838 0.068127 0.012126
0.509822 0.011257 0.038416
0.586712 -0.009999 0.015556
0.506246 0.060630 0.053353
0.537984 0.027078 0.082413
0.525966 -0.017869 0.012775
0.589690 0.045751 0.062033
0.508154 0.064658 0.059249
0.554289 0.093962 0.068688
0.582647 0.056437 0.071752
0.592543 0.027100 0.040339
0.596159 0.011144 0.042542
0.509988 0.045955 0.065710
0.532007 -0.000060 0.001057
0.588168 -0.022341 0.013321
0.569054 0.001897 0.005473
0.509326 0.043362 0.022090
0.524267 -0.010950 0.051495
0.594348 0.023549 0.044116
0.563726 -0.039462 0.054705
0.537624 0.077682 0.081373
0.511043 0.083311 0.052029
0.592924 -0.019188 0.055394
0.528015 -0.021540 0.044475
0.564422 -0.038650 0.055410
0.542370 0.098717 0.067001
0.525217 0.100433 0.048787
0.527183 0.068369 0.014245
0.546377 0.059100 0.086215
0.533672 -0.025101 0.049073
0.588504 0.043017 0.040420
0.592969 -0.019487 0.018537
0.553347 0.093436 0.070093
0.583777 -0.043474 0.007208
0.557146 0.097103 0.054412
0.508832 0.014074 0.036709
0.542368 0.007140 -0.000470
0.547150 -0.034437 0.005440
0.549680 -0.035528 0.052228
0.583382 0.035197 0.026754
0.508341 0.024173 0.053036
0.530528 0.098957 0.065720
0.565135 0.028281 0.083344
0.509631 0.021981 0.022493
0.509644 0.057451 0.026775
0.512378 0.027628 0.016538
0.530333 0.055808 0.082784
0.511299 0.061179 0.067374
0.563956 0.080997 0.029330
0.573127 -0.063969 0.021468
0.580992 0.038800 0.076977
0.593195 -0.062598 0.017006
0.524843 -0.020356 0.035239
0.594951 -0.007514 0.054283
0.560457 -0.026336 0.062316
0.507081 0.027946 0.027848
0.590230 0.043926 0.061604
0.507850 0.018684 0.031940
0.509430 0.071528 0.059275
0.593487 0.018586 0.061366
0.529927 0.099296 0.064825
0.525571 0.048772 0.008124
0.592830 0.030631 0.061025
0.540253 0.102330 0.060572
0.540140 0.052416 0.006580
0.505369 0.057368 0.041990
0.520634 0.020860 0.070899
0.596860 -0.062608 0.034912
0.554470 -0.028316 0.002079
0.515473 0.064040 0.072089
0.582543 0.006384 0.070916
0.603311 -0.032965 0.041590
0.523362 -0.008328 0.052836
0.586982 -0.030149 0.010733
0.506440 0.061622 0.053841
0.569859 -0.034320 0.058525
0.542599 0.024881 0.001335
0.563979 0.028056 0.083517
0.568954 0.029346 0.082616
0.559847 0.092661 0.065619
0.570847 -0.035419 0.004012
0.598186 -0.018799 0.048338
0.564074 0.010930 0.004021
0.535150 0.065959 0.011090
0.547754 0.037578 0.003922
0.548635 0.077298 0.017007
0.597026 -0.002258 0.049660
0.540552 -0.038927 0.015563
0.573174 -0.038002 0.004646
0.541009 0.073510 0.083077
0.599779 -0.058255 0.016560
0.522589 0.057535 0.012599
0.520525 0.009643 0.064856
0.601363 -0.055653 0.039902
0.548147 -0.044654 0.039644
0.601632 -0.032522 0.044294
0.589342 0.016744 0.067707
0.572973 0.076352 0.037551
0.511382 0.045067 0.067852
0.547884 0.050088 0.087103
0.585489 0.012246 0.070531
0.525752 0.076162 0.018352
0.557084 0.059434 0.012351
0.525536 0.012061 0.003152
0.536031 0.065979 0.010981
0.505646 0.037567 0.031459
0.555442 0.058560 0.011334
0.528186 0.049299 0.007318
0.546568 0.100298 0.062287
0.548795 0.092038 0.029327
0.587040 -0.037598 0.009218
0.531879 -0.017379 0.055092
0.598744 -0.037505 0.016274
0.544286 0.017816 0.080852
0.560480 -0.031889 0.059037
0.584373 -0.038301 0.007930
0.520374 0.095950 0.059270
0.591725 -0.004496 0.059328
0.559002 0.033459 0.005962
0.595025 -0.002834 0.054747
0.519872 0.053582 0.076660
0.535026 -0.004561 0.067311
0.581588 -0.062061 0.037534
0.604423 -0.038597 0.040899
0.559453 0.019546 0.003428
0.598944 -0.048631 0.044873
0.587446 0.006077 0.021562
0.580340 0.056975 0.033106
0.518926 0.020223 0.008451
0.534997 0.068841 0.082959
0.526994 -0.022657 0.038999
0.569537 0.008605 0.006827
0.577641 0.073768 0.044927
0.559423 -0.002057 0.073855
0.558676 0.053084 0.011011
0.516371 0.039967 0.012159
0.555338 -0.043171 0.048140
0.604920 -0.045940 0.040352
0.575875 -0.063498 0.031190
0.506035 0.038853 0.029837
0.512093 0.043279 0.017630
0.539921 -0.020037 0.059359
0.533189 0.052686 0.084154
0.507016 0.059545 0.057500
0.532915 0.011554 0.074937
0.557655 -0.046670 0.045798
0.546593 -0.040077 0.044780
0.590094 -0.065705 0.022590
0.603468 -0.034019 0.041582
0.585622 -0.053192 0.008775
0.509220 0.012902 0.035303
0.573462 -0.036157 0.057510
0.588330 -0.059742 0.040927
0.567730 0.088336 0.050395
0.592376 0.037246 0.057909
0.536493 0.099635 0.038147
0.568524 0.072783 0.027600
0.531520 0.005866 0.000899
0.532330 0.073571 0.081099
0.559490 0.082542 0.026266
0.571427 -0.000661 0.073018
0.540808 0.057976 0.008176
0.547266 -0.016412 0.065304
0.552930 -0.016324 0.000105
0.572760 0.066532 0.077662
0.596463 -0.016454 0.024459
0.514520 0.027261 0.013655
0.541836 0.031056 0.084347
0.528869 -0.026061 0.036142
0.512871 0.040233 0.068895
0.524077 0.071983 0.077442
0.514695 0.070925 0.069448
0.516415 0.001362 0.049830
0.535289 -0.006300 0.066333
0.514952 0.087474 0.060502
0.528480 -0.012422 0.055917
0.585701 0.018517 0.023545
0.597781 -0.002028 0.045368
0.521623 0.056725 0.012902
0.552642 0.065200 0.012660
0.550503 0.008943 -0.000012
0.580784 0.028470 0.076929
0.585806 0.012954 0.021749
0.538789 0.089471 0.024261
0.595770 0.016727 0.045616
0.577582 -0.028972 0.006063
0.588408 0.018391 0.069043
0.541781 0.046537 0.086620
0.548236 -0.034568 0.005119
0.530158 0.074094 0.080136
0.511619 0.081692 0.038987
0.537121 -0.022056 0.004234
0.541535 0.096881 0.033875
0.529495 0.006170 0.001531
0.505276 0.044724 0.034062
0.564759 0.090443 0.061966
0.583400 -0.010795 0.064744
0.526550 0.089864 0.072367
0.504941 0.045867 0.036465
0.523319 0.048677 0.079007
0.561223 0.043998 0.009606
0.513540 0.001807 0.028831
0.549150 0.101187 0.050559
0.528472 0.080776 0.019524
0.550801 0.006654 -0.000179
0.535234 0.062132 0.084139
0.542598 -0.009659 -0.000164
0.570140 -0.050437 0.047766
0.596990 0.001185 0.049585
0.518310 0.006409 0.009778
0.580188 0.031390 0.077553
0.526397 -0.006430 0.005082
0.545944 0.027169 0.083988
0.541096 0.055792 0.007540
0.597571 -0.003316 0.047460
0.509264 0.022307 0.023346
0.583799 -0.006927 0.013905
0.546503 0.016009 0.000428
0.525232 -0.019244 0.041157
0.518747 0.046284 0.011426
0.598244 -0.019364 0.025506
0.604491 -0.058423 0.022729
0.567953 0.009555 0.077597
0.600664 -0.021048 0.043260
0.505474 0.059438 0.045783
0.522543 0.032223 0.076583
0.519095 0.092230 0.038239
0.536094 0.102297 0.060811
0.571518 -0.060030 0.036183
0.516241 0.008907 0.058073
0.540847 0.080013 0.017183
0.560582 -0.049529 0.044399
0.514581 0.005824 0.017093
0.542514 0.102980 0.057055
0.581917 -0.003159 0.013338
0.592246 -0.039990 0.051208
0.513840 0.086546 0.058663
0.588682 -0.029436 0.056249
0.530419 0.004747 0.001271
0.524964 0.038091 0.005905
0.506045 0.050388 0.055720
0.516940 0.012809 0.010625
0.508646 0.036011 0.060245
0.581627 -0.045842 0.051754
0.574198 0.065876 0.029877
0.520766 0.002906 0.007632
0.594762 -0.035289 0.051000
0.553167 0.006923 0.000134
0.529251 0.084572 0.076316
0.523364 0.060701 0.078593
0.576365 0.077571 0.060154
0.574045 0.076757 0.040365
0.594910 0.006039 0.034719
0.509569 0.025595 0.021728
0.535434 0.102238 0.060816
0.548311 -0.019723 0.063587
0.564807 0.075597 0.025606
0.557377 0.089716 0.072526
0.558459 0.059939 0.013234
0.538413 0.015189 0.000278
0.578077 -0.029512 0.060061
0.544050 0.076323 0.082606
0.596593 0.010953 0.048321
0.582257 0.032272 0.076008
0.576393 -0.030724 0.059840
0.521134 0.020536 0.071204
0.586039 0.021315 0.025064
0.516799 0.001051 0.014801
0.526546 0.086048 0.024210
0.522475 0.010478 0.067389
0.514893 0.007074 0.053316
0.551670 0.099938 0.056588
0.539184 0.081309 0.080426
0.553818 -0.051865 0.014440
0.551589 0.093991 0.033930
0.578703 -0.041608 0.005937
0.595667 0.002368 0.054111
0.577795 0.051743 0.078350
0.541300 -0.023999 0.003260
0.513637 0.010238 0.017020
0.550103 0.022504 0.001653
0.561524 0.043842 0.009726
0.533507 -0.028627 0.012546
0.536817 -0.028728 0.048565
0.572239 0.024832 0.012127
0.532254 0.043351 0.083446
0.526507 -0.015867 0.049664
0.523330 0.097921 0.043339
0.552156 0.002820 -0.000331
0.549731 0.007882 -0.000183
0.530530 -0.028731 0.033429
0.508646 0.076373 0.044795
0.591670 0.005161 0.027607
0.569215 -0.028982 0.003195
0.582252 0.040240 0.027251
0.539157 0.033587 0.002476
0.587227 0.030752 0.071113
0.542496 0.081269 0.080850
0.557722 -0.018845 0.000614
0.576367 0.064009 0.075774
0.516239 0.045804 0.073725
0.581184 0.032053 0.022655
0.521783 -0.013355 0.017737
0.518205 -0.008959 0.030483
0.578034 -0.012574 0.066627
0.510339 0.038494 0.019544
0.547576 -0.048332 0.024287
0.541232 -0.010625 0.066643
0.561029 0.086029 0.031616
0.521502 0.044252 0.008988
0.606749 -0.054162 0.034299
0.586713 0.053005 0.065432
0.506294 0.062991 0.040423
0.506325 0.054540 0.033916
0.543293 0.035182 0.085511
0.563492 0.026536 0.006519
0.550537 -0.022601 0.001156
0.528560 -0.003851 0.063219
0.567226 -0.033860 0.058694
0.534345 -0.007557 0.064892
0.508204 0.052926 0.027678
0.537433 0.064160 0.084392
0.520608 0.002354 0.007966
0.522324 0.008300 0.065925
0.593745 0.031767 0.051604
0.578248 0.001321 0.011573
0.552533 -0.006288 -0.000562
0.546833 0.071291 0.013629
0.568092 -0.060272 0.014650
0.584510 0.063187 0.055161
0.519772 0.008580 0.007659
0.556623 -0.052363 0.012282
0.543442 0.084245 0.079618
0.602023 -0.057617 0.037732
0.523612 -0.018749 0.032661
0.596540 -0.023651 0.020659
0.517584 0.051608 0.074980
0.595609 -0.019661 0.052302
0.538271 -0.007423 0.000240
0.523488 0.072088 0.077034
0.553701 0.060371 0.085781
0.592943 0.019749 0.062548
0.579418 0.008111 0.073324
0.527447 -0.024719 0.027655
0.514157 0.016827 0.014441
0.583460 0.060879 0.043147
0.535995 0.060052 0.084626
0.543819 0.060828 0.009261
0.567839 -0.046756 0.006267
0.517073 0.046355 0.074503
0.580616 0.070949 0.051608
0.538264 -0.008935 0.000444
0.522448 -0.014849 0.041053
0.599973 -0.014560 0.034788
0.521191 0.084217 0.071319
0.552645 -0.012241 -0.000296
0.574545 -0.045412 0.052251
0.523575 -0.009192 0.009145
0.519159 0.014798 0.007972
0.561724 0.085385 0.031641
0.590418 0.030888 0.037239
0.543883 0.090522 0.025898
0.561229 0.075238 0.080458
0.524162 0.072529 0.017591
0.562674 -0.016020 0.001196
0.578451 -0.016590 0.065022
0.605784 -0.038820 0.038375
0.515449 0.023966 0.012511
0.520996 0.094670 0.062991
0.599553 -0.044183 0.014196
0.533534 0.002439 0.070704
0.597897 -0.001915 0.043183
0.545094 0.062639 0.085633
0.537851 0.088247 0.023126
0.588942 0.034844 0.036239
0.527045 0.064470 0.012859
0.543067 -0.022958 0.002398
0.541454 -0.041797 0.030754
0.564956 -0.001696 0.002789
0.598475 -0.023447 0.023296
0.567249 0.075833 0.076823
0.533538 -0.032485 0.033667
0.568446 -0.042372 0.053634
0.548456 0.101385 0.049981
0.523517 0.088725 0.028581
0.545615 -0.033279 0.005519
0.521359 0.007281 0.006263
0.504545 0.038300 0.041166
0.592598 -0.052031 0.010329
0.565536 0.060885 0.083243
0.508272 0.019527 0.028281
0.602991 -0.036539 0.021345
0.528871 0.010547 0.001696
0.557648 0.081485 0.078943
0.530203 -0.026047 0.041386
0.564073 0.056017 0.084528
0.535807 -0.034489 0.036482
0.589544 0.048609 0.051279
0.564403 -0.058305 0.032682
0.517758 0.007012 0.010403
0.541803 0.075897 0.015050
0.595207 -0.038545 0.013397
0.595204 -0.064754 0.025678
0.580454 -0.066007 0.022227
0.519902 0.054094 0.013117
0.577833 0.069087 0.070244
0.560111 0.091622 0.067354
0.516547 0.091528 0.042546
0.521642 0.041397 0.077674
0.556451 0.030323 0.084905
0.564671 0.064626 0.082634
0.579895 0.013435 0.015544
0.557846 0.049059 0.086413
0.579001 0.072137 0.046397
0.581166 0.047623 0.075968
0.523936 -0.004368 0.057697
0.535469 0.004510 0.072755
0.543321 -0.007001 0.069551
0.522564 0.089727 0.069556
0.561321 0.044387 0.009771
0.561753 0.029838 0.084223
0.556499 0.034105 0.005227
0.605043 -0.038120 0.039703
0.540390 0.062243 0.009520
0.574262 -0.017031 0.065989
0.561152 -0.031240 0.002530
0.583468 0.055080 0.071092
0.557979 0.032530 0.085206
0.565632 0.019387 0.006291
0.582168 0.060875 0.069894
0.526254 0.090120 0.072033
0.546142 0.101567 0.059224
0.562915 -0.048628 0.007528
0.519367 0.029651 0.073082
0.528975 0.087068 0.075074
0.513864 0.007014 0.018273
0.504585 0.048934 0.045022
0.604867 -0.031797 0.036549
0.524491 0.072726 0.017481
0.607712 -0.050674 0.023057
0.590461 -0.028417 0.055490
0.552232 -0.043462 0.007976
0.568019 0.031867 0.083266
0.509152 0.065068 0.031719
0.603250 -0.060795 0.028025
0.545556 0.021131 0.082158
0.515583 0.010001 0.013138
0.570534 0.085580 0.052199
0.604371 -0.029145 0.034769
0.546923 0.064760 0.011040
0.536903 0.009789 -0.000021
0.578957 -0.065665 0.021320
0.557249 -0.046836 0.007990
0.506472 0.045138 0.029402
0.552011 0.045116 0.006467
0.510541 0.009145 0.037278
0.547488 0.101736 0.050011
0.585573 -0.050862 0.048244
0.536171 -0.035999 0.026003
0.570267 -0.007783 0.004836
0.568132 0.075304 0.076469
0.582000 0.068339 0.052082
0.554639 0.065343 0.013455
0.576488 -0.009063 0.068410
0.561972 0.063866 0.083686
0.565808 0.038968 0.084621
0.509510 0.079470 0.049646
0.565073 0.066742 0.020844
0.520132 0.037730 0.008724
0.558698 0.034536 0.006081
0.556350 -0.025315 0.062273
0.515935 0.026757 0.011967
0.562190 -0.052718 0.041345
0.567029 -0.061381 0.023108
0.545746 -0.029511 0.055220
0.560779 0.038611 0.085663
0.582362 0.065748 0.063467
0.580275 0.071615 0.051800
0.523220 -0.017407 0.036981
0.593454 0.001553 0.058347
0.544665 0.009908 -0.000287
0.522066 0.028576 0.006477
0.568107 0.054720 0.018304
0.510717 0.076429 0.059456
0.590535 0.041348 0.045315
0.585903 -0.064859 0.033292
0.591920 0.039534 0.050247
0.601068 -0.059302 0.036748
0.571775 0.043053 0.017123
0.543717 0.057293 0.086322
0.563595 0.007708 0.077507
0.521689 -0.014190 0.020362
0.600705 -0.049507 0.014131
0.506414 0.056136 0.056167
0.597048 -0.064186 0.025953
0.504683 0.042771 0.037803
0.590852 -0.065088 0.020428
0.541844 0.067617 0.011474
0.505504 0.041583 0.052503
0.538923 0.030191 0.083485
0.585965 0.054145 0.066563
0.525979 -0.003496 0.060965
0.512338 0.073064 0.030169
0.581190 -0.038114 0.006733
0.582121 0.005274 0.070811
0.518602 0.092578 0.039831
0.540231 0.080724 0.080792
0.543511 -0.035620 0.047362
0.572010 -0.063028 0.027009
0.551164 0.050922 0.086980
0.580820 -0.043911 0.052908
0.513245 0.062632 0.023484
0.553010 0.091029 0.073277
0.511991 0.015185 0.019005
0.575294 0.006110 0.074427
0.593167 0.034450 0.055354
0.511964 0.075940 0.062777
0.542645 0.004522 -0.000589
0.533694 0.095085 0.071302
0.566515 -0.061113 0.019152
0.530211 0.011663 0.001292
0.579370 -0.042225 0.053945
0.544060 -0.027195 0.003541
0.560758 0.026341 0.083586
0.527412 -0.021295 0.043449
0.595445 0.018400 0.045120
0.594709 0.005846 0.034095
0.516672 0.017391 0.010834
0.569387 0.062747 0.081162
0.515131 0.006433 0.015351
0.557141 -0.007510 -0.000003
0.547087 -0.018556 0.063904
0.585641 0.040349 0.072126
0.569383 0.048883 0.083469
0.534671 0.088335 0.076342
0.607326 -0.039937 0.028724
0.588875 -0.036250 0.054013
0.590282 0.044486 0.048083
0.599126 -0.057343 0.040089
0.573699 0.033395 0.081391
0.574935 -0.064472 0.019751
0.593430 0.006566 0.031563
0.512746 0.004006 0.028282
0.578825 0.045899 0.025155
0.545278 0.081994 0.019028
0.582059 0.064029 0.067095
0.509921 0.027038 0.020730
0.555071 -0.041074 0.005889
0.575604 -0.026466 0.005412
0.546668 0.030711 0.084944
0.520064 -0.012071 0.024256
0.559101 -0.054192 0.035739
0.563767 0.063322 0.083268
0.588078 0.003152 0.065395
0.586987 0.056431 0.058770
0.587551 -0.064531 0.017473
0.535318 -0.034476 0.021865
0.568187 0.041206 0.013647
0.595373 -0.042381 0.012283
0.544215 -0.044956 0.027753
0.560158 0.066238 0.083619
0.507043 0.020377 0.037343
0.546549 0.030889 0.084975
0.577936 -0.014488 0.065963
0.592203 0.017345 0.034130
0.576697 -0.002435 0.070762
0.516683 0.082561 0.030178
0.572913 0.067768 0.076901
0.544969 -0.045399 0.020523
0.590737 0.040358 0.062589
0.543319 -0.036733 0.008932
0.569211 0.055168 0.082903
0.579836 0.034690 0.022035
0.591327 0.019221 0.065360
0.539912 0.091803 0.026725
0.545429 0.073668 0.014455
0.511231 0.028068 0.061996
0.579169 0.062278 0.034941
0.542306 0.005610 -0.000539
0.544719 0.070787 0.084042
0.506623 0.024726 0.032011
0.507461 0.061411 0.034129
0.541485 0.045340 0.086516
0.599325 -0.011122 0.041115
0.509179 0.070498 0.035222
0.512083 0.010867 0.020963
0.568624 0.022034 0.081232
0.561248 -0.039218 0.054246
0.544324 0.019010 0.081274
0.525920 0.003622 0.066255
0.550686 0.098975 0.061784
0.522722 0.006620 0.065232
0.580459 0.062107 0.037241
0.566257 0.066615 0.021789
0.557295 0.093774 0.039767
0.579701 0.033209 0.021366
0.516517 0.031869 0.011425
0.541126 0.069728 0.083964
0.552677 0.004920 0.076741
0.582320 0.067216 0.050115
0.538026 0.098512 0.036105
0.584187 -0.038136 0.007874
0.523344 0.040367 0.007119
0.539662 0.039109 0.085459
0.586665 0.018801 0.070908
0.581826 -0.060184 0.012314
0.593815 0.023115 0.041684
0.547963 -0.048632 0.021985
0.553341 -0.005102 0.072331
0.540324 0.032713 0.002361
0.539571 -0.015683 0.062411
0.509550 0.050548 0.065384
0.509344 0.043061 0.021988
0.527828 0.019594 0.075627
0.519327 0.002745 0.009424
0.507494 0.024185 0.049931
0.523855 0.057072 0.011701
0.569373 0.001087 0.074140
0.525195 0.026225 0.004348
0.553098 -0.051531 0.014916
0.522263 0.096481 0.061899
0.574365 -0.055766 0.043710
0.536476 0.084864 0.020418
0.545628 0.063521 0.085512
0.560053 0.049205 0.086062
0.555723 -0.010079 -0.000181
0.571979 0.009208 0.076594
0.563974 0.027059 0.083307
0.582775 -0.061460 0.038640
0.582678 0.013664 0.073050
0.556449 0.094716 0.040702
0.544800 -0.035217 0.049015
0.580845 -0.064553 0.016776
0.554526 0.098598 0.050905
0.578412 0.072448 0.064654
0.551824 -0.047831 0.038873
0.569361 0.084208 0.066268
0.569038 0.008276 0.076941
0.563520 -0.059165 0.027433
0.512496 0.029180 0.016277
0.529474 -0.027501 0.026764
0.505099 0.037637 0.048745
0.581241 0.035116 0.023859
0.538921 0.066985 0.011163
0.584210 -0.066221 0.021282
0.586004 0.058741 0.050499
0.549348 0.095540 0.035012
0.528300 -0.025692 0.033763
0.568164 0.020447 0.008089
0.575539 0.018686 0.013175
0.562431 -0.040319 0.053760
0.557357 0.071859 0.082807
0.589081 -0.005086 0.062020
0.564910 0.039972 0.084914
0.513608 0.086632 0.040781
0.570500 0.005315 0.006914
0.566846 0.065318 0.021685
0.554611 0.000466 -0.000138
0.523627 -0.017676 0.020425
0.583018 0.026886 0.075106
0.585212 0.022228 0.072754
0.547750 -0.048154 0.019729
0.572310 0.025900 0.012464
0.584557 -0.036625 0.055459
0.561429 -0.036627 0.056143
0.607857 -0.043575 0.034396
0.544335 -0.037710 0.008871
0.551367 0.029818 0.003096
0.534765 0.010990 0.000311
0.510733 0.077672 0.058592
0.514925 0.082574 0.064431
0.538664 0.066320 0.010924
0.605162 -0.057076 0.022015
0.523152 -0.017814 0.024842
0.517865 0.029075 0.010009
0.562688 -0.009956 0.070324
0.537366 0.094333 0.029728
0.580287 -0.047011 0.006673
0.562857 0.089432 0.067842
0.532782 0.006894 0.072680
0.564217 0.072829 0.080116
0.580853 0.070432 0.058442
0.577357 0.001416 0.010952
0.527834 0.084315 0.075756
0.530631 0.094834 0.070635
0.576273 -0.009581 0.008164
0.512437 0.008899 0.021434
0.531574 0.058621 0.083204
0.558000 0.094897 0.043837
0.517358 0.086401 0.032786
0.510935 0.017084 0.020917
0.539611 0.030293 0.001994
0.525298 0.034430 0.005219
0.507212 0.031091 0.054263
0.514628 0.070791 0.025569
0.521372 0.084011 0.071573
0.532451 0.028078 0.002176
0.508543 0.021111 0.050795
0.519172 -0.008785 0.041456
0.539687 0.098986 0.037182
0.550418 0.010473 0.000134
0.572834 0.040421 0.017149
0.557464 0.063456 0.014027
0.565249 -0.059654 0.029340
0.515009 0.031113 0.013037
0.506327 0.040055 0.055337
0.523150 0.073940 0.018914
0.535518 0.001022 0.070919
0.558899 0.061064 0.084950
0.534048 0.031295 0.002365
0.582709 0.026737 0.022606
0.566279 -0.013464 0.002372
0.591490 -0.035273 0.012156
0.582515 0.006372 0.016183
0.576940 0.072549 0.068102
0.558864 0.065046 0.084178
0.510299 0.056348 0.066437
0.541019 0.088424 0.077144
0.596321 -0.011941 0.027016
0.588711 0.032768 0.069050
0.567477 0.083603 0.037678
0.507541 0.049466 0.060733
0.504769 0.046348 0.048723
0.593487 -0.065162 0.029068
0.563411 0.087675 0.069883
0.589058 0.028257 0.068878
0.512190 0.058373 0.069108
0.542273 0.035915 0.085482
