ply
format ascii 1.0
element vertex 1024
property float x
property float y
property float z
end_header
0.581297 0.024947 0.080212
0.604847 -0.047094 0.041589
0.605622 -0.051966 0.040026
0.546208 0.078500 0.033671
0.546028 -0.053827 0.013458
0.599955 0.005506 0.035362
0.556497 0.074205 0.031322
0.513395 0.002933 0.054759
0.602171 -0.047011 0.015009
0.584981 -0.001583 0.016581
0.511389 0.033026 0.033685
0.519566 0.071256 0.059751
0.536356 -0.051380 0.028797
0.527516 -0.024861 0.013547
0.516614 0.022597 0.021133
0.572640 -0.001274 0.010069
0.602013 -0.015168 0.032129
0.537971 0.073241 0.028535
0.577677 0.060630 0.073104
0.536092 0.036853 0.012457
0.523732 -0.027174 0.018456
0.588842 -0.074592 0.008555
0.554463 0.085410 0.058453
0.583908 -0.058693 0.052369
0.611810 -0.063401 0.023869
0.580780 -0.004082 0.075346
0.564251 0.060221 0.081400
0.541968 0.030289 0.087130
0.553812 -0.016087 0.077120
0.556838 0.054640 0.084986
0.576253 -0.010704 0.010076
0.538586 0.022491 0.009357
0.546782 -0.061561 0.019688
0.562828 -0.069769 0.039944
0.528218 0.017986 0.079921
0.535845 -0.026384 0.064706
0.569254 -0.012675 0.007485
0.534152 0.047957 0.015896
0.549182 0.047640 0.086994
0.553345 -0.059164 0.011930
0.519025 0.067113 0.038860
0.514201 0.033313 0.065769
0.549531 0.007865 0.085235
0.520483 0.060550 0.030761
0.540553 0.075505 0.030277
0.526789 0.038364 0.016536
0.539441 -0.050237 0.016545
0.543917 -0.001977 0.081300
0.561349 0.075366 0.035885
0.611355 -0.059695 0.027571
0.611265 -0.057656 0.024716
0.513317 0.039075 0.031935
0.523629 -0.004177 0.067734
0.588339 -0.014967 0.067550
0.518588 0.050902 0.028288
0.541929 -0.018491 0.073225
0.533587 0.062926 0.079877
0.581419 0.065456 0.060416
0.547301 0.025222 0.087945
0.594919 0.027684 0.066691
0.515098 0.006690 0.061243
0.524013 -0.033310 0.035472
0.537773 -0.045397 0.014579
0.574802 0.063201 0.034596
0.511398 0.045100 0.054926
0.549393 0.073996 0.028702
0.551543 0.084130 0.044513
0.529130 0.075010 0.034840
0.521798 0.070272 0.037508
0.509456 0.025059 0.050728
0.572300 -0.080109 0.021378
0.509431 0.021713 0.050104
0.517558 0.000638 0.019485
0.568820 0.012007 0.010957
0.563502 -0.062765 0.009173
0.561829 0.071066 0.076820
0.603576 -0.013547 0.041671
0.573300 -0.052807 0.057594
0.534192 0.081848 0.041404
0.510527 0.013049 0.033915
0.560380 -0.053234 0.056320
0.551688 0.029248 0.009562
0.568316 -0.050514 0.059200
0.546358 -0.050842 0.011688
0.597426 -0.056272 0.008639
0.548829 -0.008542 0.004843
0.578312 -0.045169 0.006257
0.561057 0.072229 0.031834
0.524143 -0.016795 0.014288
0.550777 -0.049715 0.055763
0.543450 -0.057200 0.018811
0.535268 0.045721 0.014916
0.537892 0.027598 0.086133
0.521275 0.006291 0.015312
0.561454 0.078161 0.069516
0.545242 -0.058275 0.038889
0.546231 0.055452 0.085182
0.515918 0.017153 0.021592
0.549596 0.068141 0.023606
0.561633 -0.032823 0.004429
0.543066 0.085974 0.064015
0.555107 0.006686 0.085092
0.585925 0.059705 0.055427
0.593275 0.028210 0.069152
0.599762 0.015830 0.040024
0.551667 0.050669 0.086452
0.509682 0.018012 0.050435
0.514042 -0.001754 0.026744
0.593911 -0.034232 0.057175
0.563058 0.024868 0.087469
0.549497 0.034854 0.088258
0.511742 0.045592 0.040967
0.565459 0.058296 0.023388
0.527532 0.057984 0.077843
0.586882 0.014820 0.022351
0.558106 -0.002962 0.005586
0.530574 0.065779 0.025316
0.595622 0.031600 0.040672
0.591621 0.049490 0.058343
0.561615 0.018880 0.087016
0.539926 0.018892 0.085930
0.590371 0.042094 0.069233
0.570817 -0.022215 0.072618
0.543243 0.006302 0.083785
0.530315 0.001113 0.076453
0.596004 -0.030802 0.056210
0.575324 0.012269 0.013797
0.535202 -0.042132 0.014771
0.558837 0.034174 0.088341
0.596641 -0.023272 0.057475
0.560569 0.082582 0.050407
0.600771 0.020205 0.052870
0.571757 -0.028718 0.069761
0.546281 -0.012975 0.005011
0.538802 0.029716 0.086386
0.527014 0.052552 0.020654
0.552594 0.061052 0.019749
0.579113 -0.032527 0.065953
0.535829 0.040649 0.084956
0.552812 -0.021627 0.004212
0.549955 0.076261 0.031357
0.550046 0.081574 0.070553
0.513210 0.009158 0.027044
0.586197 -0.017825 0.013736
0.565699 0.069591 0.032430
0.589462 -0.042014 0.009707
0.571582 -0.079427 0.024811
0.539106 -0.046335 0.014074
0.600233 -0.073195 0.009789
0.539844 0.021691 0.009015
0.541832 0.082281 0.070662
0.525807 0.071356 0.070705
0.539970 0.084669 0.066424
0.580964 0.065764 0.049741
0.558682 0.071568 0.077583
0.517965 -0.009599 0.054432
0.563973 0.006919 0.008312
0.593780 -0.081356 0.017622
0.552260 -0.006177 0.081059
0.594157 -0.053385 0.050415
0.598191 0.020528 0.062172
0.557821 0.018758 0.087440
0.540996 0.060812 0.082940
0.587227 0.056425 0.048899
0.562798 -0.072250 0.035432
0.554659 -0.006109 0.004911
0.548621 0.009639 0.085612
0.515794 0.057774 0.037336
0.548775 -0.062324 0.036985
0.583336 0.048408 0.074551
0.591487 0.048497 0.061543
0.513555 0.042640 0.063090
0.599262 -0.039734 0.015897
0.544265 0.058888 0.018115
0.548051 0.060071 0.084044
0.583163 0.022107 0.079010
0.556176 -0.040871 0.064145
0.557716 0.066626 0.080612
0.577473 -0.023422 0.070031
0.523330 0.069812 0.068717
0.558158 -0.046502 0.005947
0.573477 0.035978 0.083713
0.547109 0.056378 0.085020
0.514867 0.030544 0.025387
0.575723 -0.040761 0.006177
0.591234 -0.011205 0.066629
0.579228 -0.067033 0.006341
0.526490 0.057266 0.022906
0.594032 0.003413 0.068130
0.603337 -0.056988 0.011326
0.527069 0.053841 0.078740
0.540199 -0.017089 0.006460
0.527689 0.018510 0.012079
0.579789 -0.017462 0.071288
0.586954 0.054885 0.044707
0.580909 0.061891 0.067951
0.588640 0.019911 0.074916
0.533069 -0.047420 0.026949
0.567673 0.023054 0.012798
0.559829 -0.007832 0.005452
0.554873 0.037757 0.012014
0.549674 0.069651 0.024780
0.516433 0.024153 0.069101
0.556195 0.058733 0.019500
0.522161 0.003105 0.069983
0.554311 0.084791 0.061441
0.549814 -0.056332 0.048272
0.511672 0.003292 0.048643
0.528383 -0.035333 0.045768
0.539263 0.035201 0.086320
0.535864 0.010395 0.082490
0.595015 0.036390 0.043450
0.572948 -0.080343 0.021296
0.568710 0.054924 0.023534
0.545381 0.074294 0.077863
0.516093 0.065914 0.046830
0.544043 -0.056613 0.040039
0.532824 -0.015684 0.069488
0.604859 -0.029414 0.034151
0.589944 0.006975 0.022899
0.569204 0.059191 0.026378
0.611005 -0.062206 0.019379
0.558882 0.071423 0.029612
0.574379 0.013777 0.082460
0.582252 -0.078606 0.034414
0.593393 -0.081531 0.017976
0.548539 0.046914 0.013636
0.598060 0.031937 0.050919
0.566059 -0.013220 0.006492
0.514029 0.030440 0.065446
0.603237 -0.025499 0.045046
0.527703 0.023080 0.080629
0.550877 -0.032860 0.067911
0.577475 0.056608 0.031728
0.526962 -0.014060 0.064922
0.519682 -0.025954 0.031614
0.512425 0.049616 0.041402
0.561751 0.025922 0.011269
0.524374 0.000056 0.012887
0.607434 -0.041508 0.030310
0.531188 -0.001960 0.009505
0.564972 -0.010442 0.006456
0.518316 0.014585 0.018514
0.533748 -0.009174 0.074007
0.517440 0.030811 0.022021
0.588425 -0.067209 0.045879
0.551757 0.085812 0.060811
0.583667 -0.020016 0.068584
0.575295 0.046671 0.024067
0.583995 0.037135 0.027266
0.585249 -0.079007 0.012411
0.585520 -0.016449 0.013626
0.603518 -0.026122 0.030233
0.594770 0.025143 0.035088
0.559132 0.083642 0.056481
0.521079 -0.010534 0.059584
0.516605 0.052251 0.066912
0.522062 0.036265 0.077154
0.515969 0.057556 0.063273
0.585087 0.060643 0.051922
0.598678 -0.069467 0.039917
0.602327 0.011012 0.048749
0.533394 0.020484 0.083597
0.549537 -0.038490 0.006433
0.532998 -0.016542 0.069070
0.575347 0.048214 0.080247
0.543128 -0.005853 0.079659
0.514721 0.003059 0.058233
0.516128 -0.009321 0.049865
0.577169 -0.076747 0.012251
0.598738 0.007721 0.033920
0.565589 -0.076141 0.028563
0.511750 -0.000565 0.037738
0.541147 0.085201 0.045209
0.567952 -0.020488 0.074016
0.537100 0.021147 0.085339
0.603210 -0.043888 0.044455
0.554406 0.003034 0.084103
0.597660 0.006884 0.031832
0.516995 -0.019448 0.031895
0.534192 -0.048741 0.029307
0.570683 -0.075154 0.013433
0.560145 0.056713 0.083699
0.574949 0.057333 0.029793
0.592251 0.033695 0.069346
0.539170 -0.044756 0.013132
0.577066 0.063889 0.038205
0.566369 -0.043126 0.063625
0.595671 0.039019 0.057828
0.568987 0.077611 0.051330
0.605500 -0.069267 0.035009
0.525775 0.076925 0.065523
0.516361 0.054266 0.033790
0.567953 -0.068989 0.010398
0.541618 -0.019670 0.006169
0.552564 0.053675 0.016420
0.540138 0.049297 0.014897
0.516567 -0.006509 0.054297
0.583937 -0.027176 0.010474
0.515234 0.043699 0.066587
0.555866 0.013269 0.086600
0.525643 -0.036953 0.026780
0.598039 0.031872 0.050368
0.518630 0.048198 0.071367
0.563964 0.079413 0.064532
0.593737 0.043033 0.061101
0.595134 0.011780 0.030008
0.600026 -0.003863 0.031973
0.523244 0.030075 0.078088
0.526987 -0.019880 0.012722
0.585257 -0.039601 0.008656
0.563499 -0.016552 0.005535
0.509594 0.024295 0.036977
0.535356 -0.027285 0.063687
0.598166 0.008567 0.033266
0.575300 -0.054352 0.056472
0.552719 0.063632 0.082648
0.518287 0.066350 0.062491
0.602313 -0.033259 0.047017
0.537330 -0.038247 0.056517
0.576135 -0.053471 0.056881
0.551872 0.083691 0.066263
0.529963 0.083588 0.054058
0.523002 0.049162 0.022569
0.563428 0.045708 0.085717
0.544278 -0.041301 0.059384
0.590529 0.027540 0.030347
0.591260 -0.036239 0.011982
0.563516 0.078963 0.066185
0.580274 -0.061239 0.005463
0.562226 0.081586 0.049899
0.514971 -0.003853 0.052804
0.536038 -0.012518 0.007681
0.544420 -0.053401 0.014372
0.560985 -0.051010 0.058150
0.581918 0.018603 0.019387
0.518928 0.007390 0.067862
0.540197 0.083500 0.068632
0.581941 0.015309 0.079156
0.511057 0.003018 0.038566
0.510615 0.038691 0.040478
0.511600 0.008291 0.031726
0.547279 0.041720 0.087535
0.524245 0.045410 0.078346
0.561943 0.063896 0.024962
0.575439 -0.080936 0.023503
0.594603 0.025783 0.067642
0.593136 -0.079323 0.013076
0.531468 -0.037829 0.048629
0.603334 -0.021644 0.044636
0.573836 -0.040805 0.063905
0.509949 0.009282 0.044070
0.598513 0.030038 0.049906
0.512371 0.000367 0.048289
0.519515 0.055085 0.070586
0.602790 0.004851 0.050229
0.539339 0.083756 0.067943
0.520586 0.029134 0.018431
0.601469 0.016815 0.049373
0.547740 0.086764 0.060575
0.533814 0.033069 0.012311
0.511135 0.039594 0.056248
0.536181 0.005737 0.081307
0.602023 -0.077925 0.028985
0.550075 -0.047335 0.008578
0.529500 0.048725 0.081386
0.595849 -0.006930 0.063377
0.608720 -0.047703 0.031572
0.534769 -0.024599 0.065078
0.583732 -0.047607 0.007031
0.515518 0.044729 0.066931
0.582038 -0.048773 0.057926
0.535930 0.005306 0.008250
0.580903 0.015064 0.079686
0.585306 0.016426 0.077238
0.568394 0.078050 0.060003
0.566602 -0.053810 0.005867
0.605178 -0.033235 0.038685
0.557875 -0.007795 0.005121
0.529756 0.046757 0.017294
0.540993 0.018300 0.008370
0.543822 0.058876 0.018129
0.603657 -0.016682 0.039290
0.541408 -0.057328 0.026275
0.569135 -0.056273 0.005920
0.556661 0.059693 0.083492
0.599057 -0.074838 0.010386
0.518664 0.038111 0.023060
0.534807 -0.005888 0.076277
0.607473 -0.070500 0.031938
0.556181 -0.061068 0.047206
0.607915 -0.047113 0.034626
0.600846 0.003358 0.057630
0.573235 0.060121 0.030318
0.525261 0.029385 0.079754
0.565574 0.036831 0.086651
0.598249 -0.001031 0.061759
0.522494 0.057190 0.026436
0.551342 0.040968 0.012219
0.520860 -0.007827 0.015945
0.530561 0.046793 0.016921
0.509199 0.019095 0.047354
0.549516 0.039976 0.011805
0.522807 0.029675 0.016838
0.554370 0.085043 0.060409
0.546963 0.074472 0.028898
0.583697 -0.055142 0.006025
0.544005 -0.033215 0.065183
0.596964 -0.054202 0.009169
0.561852 0.004101 0.083763
0.573142 -0.046579 0.061117
0.580804 -0.056013 0.005654
0.528732 0.079744 0.065770
0.601633 -0.018360 0.050229
0.552521 0.014663 0.007140
0.603314 -0.016943 0.044770
0.535581 0.038757 0.085029
0.550053 -0.019457 0.075064
0.588244 -0.077623 0.036089
0.609848 -0.053336 0.030919
0.552872 0.000620 0.005439
0.606323 -0.063206 0.036973
0.585655 -0.010691 0.014984
0.579865 0.040690 0.025028
0.515761 0.000507 0.022496
0.551131 0.054858 0.085491
0.534762 -0.039788 0.051689
0.564036 -0.009753 0.006268
0.580032 0.058216 0.036067
0.575134 -0.015790 0.073715
0.552767 0.034585 0.010847
0.513475 0.020388 0.025599
0.565516 -0.058767 0.053007
0.610517 -0.060683 0.030694
0.580963 -0.079681 0.031882
0.509016 0.020270 0.045617
0.510887 0.023966 0.031900
0.553080 -0.035326 0.066955
0.550564 0.038789 0.088158
0.517271 0.042941 0.070360
0.549549 -0.002896 0.081978
0.567189 -0.062359 0.050289
0.556024 -0.056175 0.052284
0.592018 -0.082102 0.019516
0.608919 -0.048750 0.031580
0.582980 -0.070760 0.006983
0.514974 -0.005113 0.051420
0.585253 -0.050575 0.055977
0.595573 -0.074873 0.037124
0.571525 0.072854 0.043395
0.599772 0.023170 0.046147
0.537533 0.082338 0.040563
0.566176 0.055712 0.022426
0.526184 -0.013997 0.012360
0.547798 0.059362 0.084247
0.556691 0.065087 0.023313
0.586244 -0.014118 0.069183
0.534657 0.038747 0.013288
0.561688 -0.031070 0.070154
0.547423 -0.035568 0.006442
0.585607 0.053246 0.069112
0.596223 -0.032685 0.016365
0.512789 0.007777 0.028356
0.559921 0.017485 0.087026
0.535854 -0.043336 0.048610
0.527231 0.024684 0.080587
0.538915 0.057278 0.083376
0.527624 0.055374 0.078693
0.526772 -0.015355 0.063744
0.550095 -0.021255 0.074160
0.524358 0.071228 0.069105
0.540773 -0.028310 0.066699
0.583979 0.001806 0.016644
0.603071 -0.016743 0.034966
0.517876 0.037298 0.023691
0.546922 0.046612 0.013514
0.543834 -0.010456 0.005534
0.594899 0.015476 0.068288
0.583812 -0.003868 0.015243
0.536034 0.071259 0.027281
0.600308 0.001915 0.034675
0.573316 -0.047041 0.005378
0.600277 0.005071 0.059084
0.559792 0.033083 0.088263
0.545363 -0.053525 0.013744
0.545414 0.059752 0.083959
0.514984 0.063803 0.050016
0.533897 -0.041431 0.015523
0.541182 0.079425 0.035135
0.524431 -0.013706 0.013557
0.509279 0.026409 0.049508
0.572080 0.075713 0.055171
0.595649 -0.024482 0.058292
0.538860 0.074806 0.076713
0.509628 0.027714 0.051824
0.539813 0.034136 0.086510
0.555216 0.025497 0.009289
0.517683 -0.016522 0.044628
0.553250 0.085149 0.048419
0.525210 0.061952 0.026443
0.544180 -0.012741 0.005423
0.552042 0.048263 0.086948
0.537176 -0.029237 0.008923
0.579856 -0.065616 0.048591
0.603431 -0.013255 0.039020
0.516255 -0.013186 0.024784
0.594376 0.018415 0.068884
0.523172 -0.026097 0.018640
0.563916 0.013700 0.085671
0.534848 0.036532 0.012728
0.603565 -0.017881 0.037097
0.510949 0.003394 0.039469
0.580515 -0.024316 0.009604
0.539810 -0.003493 0.006739
0.533567 -0.036278 0.054069
0.515206 0.026700 0.023796
0.598378 -0.035459 0.016995
0.605412 -0.074422 0.014828
0.583813 -0.003698 0.073973
0.606117 -0.035776 0.033240
0.512276 0.041937 0.059697
0.539152 0.017534 0.085440
0.521358 0.074467 0.046391
0.543854 0.086630 0.062069
0.578149 -0.075984 0.037743
0.528720 -0.007238 0.071176
0.536325 0.061373 0.020500
0.569695 -0.065228 0.048242
0.514938 -0.013343 0.032908
0.548801 0.087221 0.056505
0.578366 -0.020654 0.009408
0.601428 -0.054321 0.044507
0.522790 0.070138 0.067751
0.599035 -0.043534 0.049742
0.525303 -0.015118 0.013115
0.519864 0.018307 0.017155
0.516260 0.033655 0.069520
0.514891 -0.006783 0.025617
0.520808 0.019726 0.073904
0.591770 -0.060418 0.048611
0.572604 0.049154 0.023285
0.518119 -0.016764 0.022210
0.603530 -0.049578 0.043258
0.546514 -0.012383 0.004985
0.542883 0.069894 0.079967
0.539138 0.046094 0.085372
0.583219 0.063078 0.050700
0.575085 0.060760 0.032642
0.596730 -0.009558 0.025225
0.510590 0.006563 0.037638
0.543229 0.086553 0.062279
0.562328 -0.034465 0.068405
0.561896 0.058267 0.021491
0.568270 0.075547 0.067499
0.552893 0.041575 0.012610
0.532102 -0.004552 0.009106
0.590090 -0.043634 0.056595
0.559277 0.062549 0.081948
0.602191 -0.003621 0.037346
0.595837 0.019241 0.066733
0.588479 -0.044906 0.056972
0.536764 0.005451 0.081465
0.584621 0.004715 0.017816
0.516594 -0.018205 0.030345
0.524529 0.067495 0.031163
0.537386 -0.004816 0.078041
0.526093 -0.009450 0.067174
0.557528 0.084415 0.053461
0.553741 0.067223 0.081053
0.554338 -0.069931 0.021958
0.550914 0.076834 0.032306
0.574967 -0.059616 0.005685
0.603477 -0.011784 0.043654
0.591336 0.038695 0.069133
0.537678 -0.043320 0.013444
0.513800 -0.008974 0.032858
0.543288 0.003173 0.006414
0.555546 0.025359 0.009320
0.533284 -0.047481 0.024923
0.547298 -0.044864 0.058166
0.567409 0.006887 0.009499
0.549921 0.029404 0.088336
0.537179 -0.032256 0.061564
0.526648 0.080633 0.049606
0.545613 -0.016536 0.005099
0.543099 -0.011548 0.005670
0.536749 -0.046148 0.045688
0.514166 0.058838 0.056764
0.591545 -0.011043 0.019502
0.564484 -0.047498 0.005196
0.580744 0.023634 0.019897
0.532567 0.013971 0.009852
0.599169 0.017510 0.060660
0.557025 0.067308 0.080450
0.552264 -0.037907 0.005621
0.588596 0.050696 0.066374
0.531620 0.030685 0.083815
0.578744 0.015107 0.016350
0.522934 -0.032211 0.032495
0.523152 -0.027002 0.045434
0.591194 -0.026271 0.061822
0.510030 0.019285 0.034544
0.551189 -0.065869 0.033004
0.556060 -0.025374 0.072910
0.559597 0.068997 0.027719
0.517195 0.024575 0.020764
0.610839 -0.069268 0.024882
0.595872 0.039267 0.054064
0.511266 0.045112 0.054136
0.509750 0.036214 0.048453
0.561456 0.021725 0.087439
0.557305 0.007929 0.006724
0.545771 -0.041817 0.008549
0.542629 -0.019232 0.073097
0.579560 -0.048377 0.058860
0.548824 -0.022640 0.073154
0.509739 0.034204 0.042049
0.554113 0.050365 0.086397
0.518096 -0.017294 0.022609
0.536909 -0.007098 0.076828
0.599445 0.017287 0.040069
0.574120 -0.016421 0.008574
0.546350 -0.025622 0.005318
0.541383 0.052589 0.015831
0.568408 -0.077890 0.018328
0.590177 0.048608 0.044351
0.516902 -0.011133 0.022193
0.556383 -0.070505 0.019084
0.557407 0.070213 0.078811
0.607543 -0.072597 0.029793
0.529439 -0.036449 0.046455
0.595505 -0.040135 0.013166
0.532993 0.036601 0.084247
0.603961 -0.033879 0.043289
0.533067 -0.027101 0.010487
0.538227 0.057337 0.083161
0.570209 0.047152 0.083001
0.602571 0.006080 0.051447
0.593513 -0.005122 0.066511
0.531876 -0.042657 0.040892
0.513193 -0.002578 0.029848
0.585670 0.045402 0.033388
0.553017 0.046246 0.087306
0.537711 0.041755 0.013230
0.564975 -0.065034 0.009614
0.532621 0.031316 0.084268
0.585017 0.055976 0.041686
0.533197 -0.028594 0.010775
0.530668 -0.031983 0.054550
0.602585 -0.029945 0.025002
0.533720 0.068946 0.077689
0.546831 -0.031534 0.005899
0.585155 -0.060154 0.051211
0.521845 -0.028635 0.023529
0.516106 -0.004929 0.022299
0.560298 0.068376 0.027571
0.591990 0.015270 0.027478
0.541327 0.072571 0.027224
0.575041 0.061801 0.074748
0.520929 0.053468 0.026416
0.557016 -0.034908 0.004497
0.591306 -0.030379 0.060413
0.610394 -0.053704 0.028119
0.513491 0.004435 0.027187
0.530510 0.078756 0.069196
0.597436 -0.060988 0.007353
0.549311 -0.012274 0.078319
0.602517 -0.016786 0.032847
0.561857 0.049158 0.085339
0.534859 0.069930 0.026561
0.590088 0.019100 0.026736
0.522645 0.045171 0.021531
0.539050 -0.042295 0.012024
0.546988 -0.059057 0.040617
0.558964 -0.020447 0.004448
0.598133 -0.039683 0.015072
0.579649 0.062301 0.069425
0.539870 -0.049788 0.045228
0.579615 -0.057197 0.054195
0.552405 0.085285 0.048070
0.522830 0.070395 0.036077
0.542925 -0.052285 0.014843
0.518056 -0.012486 0.020462
0.511040 0.020501 0.056874
0.590035 -0.069292 0.006268
0.580688 0.047817 0.076958
0.511628 0.000954 0.044631
0.602489 -0.052749 0.012639
0.523672 -0.009348 0.013638
0.570867 0.067816 0.074017
0.538704 -0.042902 0.053188
0.579922 0.043015 0.078920
0.542978 -0.051516 0.047335
0.594517 0.033934 0.040015
0.570233 -0.074722 0.036474
0.515888 -0.012555 0.025510
0.536796 0.057142 0.018431
0.592780 -0.055549 0.007572
0.597769 -0.080784 0.020841
0.582745 -0.082704 0.022121
0.516431 0.034642 0.024578
0.588075 0.055397 0.060362
0.569220 0.077148 0.061635
0.520265 0.074009 0.051302
0.538171 0.026734 0.086194
0.574042 0.017211 0.083157
0.579497 0.051477 0.076414
0.576289 -0.004008 0.011112
0.574903 0.036039 0.083028
0.581850 0.056735 0.037150
0.594031 0.034510 0.066094
0.536587 -0.020280 0.069284
0.551671 -0.010005 0.079554
0.558748 -0.021491 0.074820
0.534225 0.074350 0.075261
0.555339 0.025900 0.009391
0.578909 0.016829 0.080925
0.549884 0.015182 0.007163
0.610055 -0.052930 0.029564
0.534455 0.043087 0.014433
0.587630 -0.030868 0.062634
0.556717 -0.050027 0.007153
0.594386 0.041655 0.060306
0.575479 0.019477 0.082844
0.559626 0.000846 0.006291
0.592502 0.047309 0.059210
0.538466 0.075028 0.076470
0.552979 0.086073 0.057549
0.560758 -0.066948 0.012424
0.535199 0.014625 0.083235
0.542124 0.072284 0.078719
0.514552 -0.012091 0.034176
0.511717 0.031385 0.059881
0.608625 -0.046861 0.026235
0.521199 0.053665 0.026200
0.608196 -0.066582 0.013690
0.600450 -0.042523 0.048418
0.550466 -0.062069 0.015785
0.584488 0.018960 0.077987
0.511262 0.046631 0.044865
0.605943 -0.076437 0.020384
0.563292 0.007537 0.084417
0.514495 -0.009438 0.028590
0.574875 0.070318 0.044424
0.607485 -0.044361 0.024533
0.541010 0.045893 0.013739
0.530840 -0.010000 0.009609
0.581030 -0.082472 0.021693
0.555414 -0.065289 0.014478
0.508992 0.026516 0.044688
0.545443 0.026121 0.009038
0.517012 -0.008676 0.053124
0.551475 0.085609 0.048371
0.594717 -0.065566 0.044379
0.540240 -0.053774 0.037354
0.564938 -0.026215 0.005148
0.580409 0.061772 0.068852
0.586606 0.053448 0.041874
0.549057 0.046870 0.013653
0.590088 -0.022685 0.063774
0.577281 0.050720 0.078282
0.582441 0.026075 0.079516
0.516298 0.062304 0.060925
0.561150 0.049100 0.017420
0.516131 0.018014 0.021326
0.552215 0.015736 0.007280
0.569861 -0.039907 0.065051
0.513652 0.007192 0.026352
0.570462 -0.068584 0.045043
0.570000 -0.078411 0.026760
0.557845 -0.044906 0.061825
0.577983 0.025652 0.082058
0.590509 0.051704 0.052745
0.584717 0.056644 0.041931
0.530302 -0.034808 0.050599
0.602686 -0.012352 0.048403
0.538145 -0.009680 0.006989
0.517746 0.008780 0.019158
0.563865 0.037016 0.014813
0.520553 0.060020 0.070069
0.594021 0.026290 0.034484
0.591212 -0.080599 0.030914
0.596916 0.024880 0.038862
0.606421 -0.074376 0.029250
0.567576 0.025403 0.013283
0.561016 0.043838 0.086738
0.579727 -0.005670 0.075325
0.523676 -0.032855 0.035070
0.598776 -0.066268 0.007264
0.516463 0.039428 0.069483
0.599579 -0.080146 0.020506
0.509938 0.024717 0.053363
0.592058 -0.081623 0.017192
0.536164 0.048629 0.015523
0.515209 0.024627 0.067160
0.556930 0.016477 0.087145
0.595445 0.040465 0.055297
0.539474 -0.019115 0.071717
0.513435 0.054580 0.041937
0.577403 -0.056004 0.005473
0.595470 -0.008056 0.063473
0.521352 0.074916 0.048033
0.554877 0.066696 0.081117
0.553649 -0.051632 0.055404
0.576000 -0.079626 0.029054
0.568619 0.037747 0.085486
0.591255 -0.058431 0.049835
0.512797 0.043719 0.035940
0.564273 0.076786 0.069461
0.512588 -0.003945 0.034945
0.590017 -0.007155 0.068936
0.599893 0.020219 0.043647
0.522766 0.059810 0.072877
0.536395 -0.015129 0.007643
0.545085 0.080136 0.073211
0.568304 -0.078446 0.023138
0.524771 -0.008227 0.012779
0.590103 -0.056716 0.051160
0.540548 -0.046407 0.013066
0.577942 0.013268 0.080835
0.536434 -0.038094 0.055710
0.599767 0.003537 0.034200
0.596361 -0.009801 0.024705
0.514474 -0.002207 0.025619
0.583637 0.049631 0.073695
0.514906 -0.012847 0.031048
0.550967 -0.026669 0.004523
0.561201 -0.033314 0.069008
0.597491 0.027107 0.061522
0.585010 0.035978 0.076732
0.547867 0.073802 0.078115
0.609009 -0.055476 0.018542
0.598880 -0.050485 0.047972
0.594460 0.029613 0.037002
0.605483 -0.072235 0.032898
0.589255 0.020509 0.074385
0.576668 -0.081512 0.021352
0.594344 -0.009304 0.022643
0.516652 -0.014393 0.044214
0.576570 0.029026 0.018603
0.541004 0.063609 0.020787
0.591399 0.050246 0.056391
0.510553 0.007939 0.036494
0.552424 -0.059760 0.012793
0.571112 -0.044647 0.005208
0.564719 0.017322 0.086145
0.523199 -0.030505 0.039138
0.565904 -0.070550 0.040742
0.578891 0.050198 0.077371
0.599614 -0.010397 0.056642
0.593956 0.042205 0.047439
0.587997 -0.081377 0.015353
0.538106 -0.052581 0.033586
0.563202 0.023206 0.011182
0.592791 -0.059450 0.006696
0.548867 -0.062347 0.037115
0.575417 0.053028 0.078625
0.513148 0.002426 0.053568
0.564606 0.017499 0.086200
0.590996 -0.028230 0.061337
0.593419 0.001594 0.024802
0.590669 -0.015900 0.065544
0.517108 0.064172 0.040048
0.585462 0.054427 0.068267
0.547429 -0.063293 0.030040
0.599469 0.026566 0.050905
0.541937 -0.055545 0.018996
0.584366 0.042197 0.075864
0.577144 0.017653 0.016010
0.601906 0.005712 0.054645
0.537731 0.073796 0.029140
0.540178 0.054980 0.016899
0.524189 0.012008 0.075264
0.579041 0.046077 0.026807
0.536033 -0.014050 0.007728
0.560619 0.057154 0.083446
0.510927 0.006361 0.048362
0.510558 0.043112 0.047893
0.559538 0.031873 0.088327
0.603707 -0.026075 0.031006
0.512077 0.052300 0.047858
0.513478 -0.008104 0.037040
0.584934 0.009026 0.076467
0.572790 -0.054213 0.056775
0.561957 0.005323 0.084079
0.540662 -0.011635 0.076332
0.558205 0.083805 0.058759
0.537162 -0.008812 0.076150
0.580972 0.046111 0.028612
0.562569 0.049076 0.017966
0.558118 0.077205 0.036134
0.576887 0.016124 0.015505
0.513791 0.012265 0.025349
0.557227 0.055990 0.084529
0.569238 -0.008816 0.078085
0.586372 0.052194 0.039974
0.538432 0.081113 0.038223
0.580602 -0.055857 0.005647
0.518576 0.020618 0.018663
0.557789 0.025533 0.088255
0.599160 0.005565 0.061362
0.580777 -0.077582 0.011925
0.596947 0.007941 0.031143
0.550879 -0.066325 0.030716
0.569034 -0.019110 0.074300
0.533688 0.013124 0.009441
0.553452 -0.030772 0.069699
0.522503 0.034618 0.077631
0.509594 0.023987 0.036893
0.544518 0.005024 0.083692
0.517297 -0.016835 0.024361
0.517185 0.007151 0.065167
0.519621 0.037620 0.021849
0.584540 -0.012351 0.070769
0.520199 0.006370 0.016325
0.553780 -0.069584 0.022610
0.531298 0.080518 0.067663
0.582919 -0.071104 0.043774
0.532900 0.066321 0.024610
0.562285 0.050043 0.085009
0.576891 0.036221 0.082015
0.549690 -0.029283 0.004941
0.587361 -0.004002 0.071816
0.580884 0.014055 0.079548
0.589678 -0.076910 0.036743
0.596262 0.000487 0.064923
0.557548 0.078189 0.037222
0.555354 -0.051074 0.056560
0.581402 -0.081640 0.016731
0.558601 0.082746 0.047271
0.586776 0.058358 0.054667
0.559606 -0.064187 0.045548
0.578065 0.069942 0.058240
0.584711 -0.004990 0.073097
0.567853 -0.075987 0.031804
0.511558 0.009823 0.031348
0.533674 -0.045438 0.039598
0.513884 0.020408 0.063951
0.579010 0.018250 0.017291
0.533318 0.047892 0.016154
0.586047 -0.082879 0.020093
0.590413 0.043878 0.039734
0.549030 0.078393 0.033923
0.534576 -0.043157 0.046499
0.562526 0.002105 0.007166
0.571169 0.000930 0.009865
0.573825 -0.055312 0.056020
0.572228 0.058493 0.078363
0.599957 -0.018827 0.053628
0.581625 0.027072 0.080007
0.517176 0.068915 0.050816
0.565141 -0.012999 0.006257
0.563163 0.047792 0.017767
0.548124 -0.018798 0.004680
0.525712 -0.036270 0.034753
0.596555 0.013827 0.065970
0.598164 0.009075 0.063351
0.549973 -0.066018 0.028607
0.567525 0.007979 0.009733
0.595223 -0.050876 0.050682
0.573407 -0.051487 0.058366
0.611403 -0.058675 0.023995
0.542934 -0.056494 0.018688
0.544567 0.010606 0.006958
0.528844 -0.008840 0.010502
0.520247 0.061197 0.069167
0.525758 0.066629 0.073146
0.533034 0.047204 0.016046
0.605769 -0.073113 0.013864
0.526598 -0.036100 0.039104
0.514785 0.009415 0.023763
0.577568 -0.023828 0.069844
0.536088 0.076464 0.032616
0.576963 -0.064904 0.006231
0.572090 0.075079 0.061396
0.548972 -0.007710 0.080156
0.577902 0.059460 0.073661
0.587327 0.055965 0.048142
0.573079 -0.016396 0.008248
0.541378 0.069557 0.079881
0.541980 0.079750 0.073524
0.571749 -0.027594 0.006595
0.514053 -0.010022 0.037500
0.548449 0.044590 0.087386
0.559960 0.078641 0.039720
0.518348 0.068210 0.042089
0.512064 -0.001942 0.036968
0.533016 0.010664 0.009456
0.520156 0.014616 0.016623
0.517882 0.014344 0.068952
0.514341 0.052044 0.037006
0.533979 0.068765 0.077888
0.526362 0.008266 0.011941
0.518595 0.004179 0.065856
0.527372 -0.026002 0.055561
0.540315 0.081712 0.038714
0.543722 -0.008922 0.005605
0.568722 0.022811 0.013146
0.552011 0.045110 0.013452
0.570098 -0.076286 0.033121
0.512878 0.011586 0.027386
0.516922 0.023334 0.069697
0.520295 0.054941 0.027896
0.551336 -0.013614 0.078005
0.574873 0.047931 0.080588
0.527781 0.011533 0.011439
0.580442 0.009847 0.016162
0.560677 -0.032171 0.004364
0.588706 -0.052484 0.007324
0.579324 -0.010929 0.011352
0.586409 0.058667 0.058387
0.574412 0.051843 0.079623
0.523248 0.040498 0.078052
0.554150 0.074130 0.076942
0.596637 -0.028004 0.018565
0.599861 0.019412 0.058125
0.567684 0.067203 0.031669
0.519242 0.033143 0.073887
0.513135 0.029081 0.063501
0.597175 -0.080992 0.024610
0.573319 0.073492 0.063275
0.600361 0.014912 0.058130
0.525754 0.042765 0.079894
0.560440 0.022424 0.087677
