ply
format ascii 1.0
element vertex 1024
property float x
property float y
property float z
end_header
0.520609 -0.015309 0.036221
0.512039 0.068646 0.046919
0.511545 0.073489 0.048675
0.583139 -0.037832 -0.006764
0.574783 0.074994 0.064784
0.527338 0.030929 0.012674
0.575383 -0.030471 -0.010698
0.587022 -0.001271 0.069915
0.528994 0.083598 0.032685
0.548960 0.043515 0.013806
0.604847 -0.012287 0.039673
0.589385 -0.054713 0.026679
0.574548 0.061524 0.077164
0.594200 0.047997 0.056074
0.605984 0.004459 0.036220
0.562719 0.043894 0.016114
0.524367 0.049147 0.022741
0.591946 -0.032944 -0.002247
0.532835 -0.039269 0.011456
0.596985 0.003822 0.012210
0.594227 0.045867 0.062337
0.539373 0.104955 0.053085
0.563658 -0.055592 -0.000837
0.521460 0.065629 0.071236
0.513746 0.093386 0.043254
0.519406 0.009572 0.051909
0.539156 -0.047382 0.023434
0.549748 -0.033784 0.057022
0.538701 0.010610 0.074295
0.542400 -0.047190 0.032837
0.558354 0.052029 0.020205
0.594525 0.017263 0.018159
0.569555 0.077407 0.072910
0.543957 0.075897 0.081720
0.563168 -0.023743 0.067581
0.558759 0.021093 0.082703
0.565225 0.053229 0.023510
0.598319 -0.007188 0.008225
0.546507 -0.045046 0.042333
0.568848 0.081886 0.063506
0.600806 -0.039342 0.017342
0.584779 -0.030739 0.056824
0.541269 -0.013578 0.066159
0.603131 -0.029166 0.015988
0.589205 -0.035024 -0.003973
0.602559 -0.002181 0.018403
0.578994 0.068705 0.067699
0.546581 -0.005218 0.072922
0.569053 -0.032782 -0.011241
0.512616 0.088251 0.043320
0.514578 0.088361 0.040412
0.605142 -0.015360 0.033855
0.570385 -0.000837 0.076747
0.515925 0.024466 0.050332
0.604616 -0.020842 0.021583
0.550228 0.011631 0.079608
0.565498 -0.056584 0.036526
0.537536 -0.034467 -0.000918
0.544177 -0.029003 0.057961
0.517374 -0.005831 0.019621
0.582590 -0.007523 0.070474
0.583637 0.040559 0.076011
0.582172 0.065739 0.064356
0.556946 -0.019215 -0.011220
0.594849 -0.034052 0.044496
0.582620 -0.030624 -0.008466
0.573595 -0.047138 -0.006693
0.595945 -0.040339 0.004851
0.599758 -0.040225 0.013144
0.595781 -0.016795 0.055647
0.544970 0.097244 0.072521
0.595648 -0.013880 0.057400
0.602853 0.022428 0.048593
0.567332 0.032239 0.010229
0.561529 0.088926 0.058964
0.545296 -0.053581 0.015168
0.518033 0.042679 0.026504
0.528118 0.055269 0.076014
0.589179 -0.048108 0.001799
0.602446 0.002587 0.052821
0.539335 0.052961 0.082146
0.584697 0.015423 0.007325
0.531647 0.051265 0.078059
0.575940 0.073851 0.061701
0.535033 0.093183 0.037214
0.584023 0.046285 0.029810
0.553651 0.081112 0.038609
0.571073 -0.028070 -0.011488
0.597751 0.040523 0.053156
0.548027 0.048089 0.084517
0.573419 0.073726 0.071357
0.597617 -0.004611 0.008489
0.553237 -0.032210 0.060217
0.602971 0.021559 0.040693
0.550716 -0.054771 0.006622
0.560647 0.063144 0.082863
0.551092 -0.050706 0.037866
0.605487 0.008157 0.040271
0.584409 -0.023092 -0.007867
0.570156 0.068405 0.038300
0.569981 -0.062298 0.007892
0.536610 -0.011133 0.063965
0.535760 -0.025950 -0.002523
0.517432 -0.008118 0.021570
0.526446 0.020248 0.009003
0.545226 -0.046383 0.038839
0.594708 -0.011187 0.059794
0.601344 0.019039 0.056144
0.514253 0.046754 0.053536
0.531494 -0.024320 0.049845
0.543642 -0.035959 0.050958
0.602389 -0.026084 0.035845
0.570082 -0.011296 -0.009911
0.570846 -0.053199 0.041543
0.546647 0.028091 0.005886
0.576850 0.044022 0.021987
0.598675 -0.027289 0.004350
0.531825 0.006751 0.001574
0.527958 -0.018390 0.002700
0.532034 -0.019865 0.054087
0.550387 -0.024917 0.064538
0.521833 -0.019516 0.014365
0.526371 0.022404 0.066821
0.546987 -0.013177 0.069510
0.560862 -0.008274 0.075099
0.513587 0.045257 0.049742
0.560473 0.032065 0.008399
0.584657 0.062460 0.063729
0.535851 -0.033041 0.046657
0.513487 0.038933 0.045418
0.562706 -0.047077 -0.006888
0.519143 0.009579 0.013248
0.526218 0.029298 0.068761
0.585354 0.048899 0.034002
0.552667 -0.033737 0.058568
0.602204 -0.015378 0.011768
0.583040 -0.014619 -0.007194
0.521744 0.036384 0.065168
0.557523 -0.042009 0.052370
0.579163 0.057682 0.035638
0.581024 -0.033774 -0.008626
0.559984 -0.060979 0.010915
0.603485 0.010321 0.049877
0.547123 0.057903 0.021743
0.566550 -0.025194 -0.011852
0.543082 0.079590 0.032938
0.543754 0.094506 0.074467
0.581222 0.067102 0.063969
0.529575 0.106146 0.047102
0.593565 0.018405 0.017819
0.566751 -0.063736 0.014736
0.578212 -0.059630 0.029833
0.570983 -0.063539 0.011706
0.543879 -0.028510 -0.007125
0.547523 -0.055240 0.016909
0.581595 0.009679 0.075274
0.572008 0.036412 0.014363
0.529292 0.106047 0.060121
0.539261 0.000316 0.071157
0.514950 0.065422 0.061510
0.516139 0.003157 0.019807
0.534885 -0.021017 0.056353
0.557419 -0.054840 0.035858
0.537829 -0.019247 -0.004943
0.546116 0.080449 0.080657
0.579577 0.045918 0.025337
0.542069 -0.015393 0.065728
0.602904 -0.032165 0.023980
0.558209 0.068284 0.082490
0.525579 -0.029320 0.017101
0.526142 -0.019560 0.005266
0.588185 -0.036438 0.049718
0.531967 0.076759 0.030113
0.590441 -0.014186 -0.002528
0.550923 -0.053079 0.033361
0.519326 -0.011943 0.036351
0.540274 0.037803 0.081094
0.545896 -0.053515 0.022285
0.522180 0.026598 0.062662
0.581112 -0.057925 0.030909
0.570118 0.077029 0.049575
0.526709 -0.027842 0.035327
0.550602 -0.051086 0.036739
0.606237 -0.004575 0.034601
0.556472 0.077120 0.037112
0.514628 0.022899 0.045944
0.549596 0.097979 0.051950
0.602086 -0.020442 0.010387
0.513684 0.011597 0.036192
0.528597 0.093690 0.036213
0.570109 -0.050692 0.044911
0.588913 0.049585 0.040549
0.601338 0.015833 0.027830
0.520476 0.021916 0.058462
0.540150 -0.015665 -0.006287
0.533238 -0.036337 0.005994
0.516789 -0.006412 0.032537
0.578854 0.058734 0.075272
0.568896 0.022424 0.004941
0.574789 0.048267 0.024093
0.581997 0.008318 0.001776
0.583919 -0.024918 -0.008170
0.579738 -0.025138 0.063397
0.579887 -0.011760 -0.007723
0.571424 -0.008105 0.074230
0.562032 -0.056926 0.001379
0.551987 0.057312 0.084792
0.591880 0.001620 0.066992
0.574044 0.037159 0.081073
0.553144 -0.037760 0.054841
0.554354 -0.017468 0.069951
0.531494 0.001297 0.000495
0.544451 0.097640 0.072288
0.566838 -0.007959 -0.009367
0.558659 -0.060971 0.022160
0.598603 -0.043909 0.024258
0.561238 0.060882 0.083104
0.560171 0.009313 0.080312
0.518792 0.059563 0.031434
0.542667 0.034553 0.009578
0.565491 -0.012765 -0.010641
0.517075 0.094918 0.040286
0.573966 -0.026713 -0.011167
0.523357 -0.009932 0.048104
0.529814 0.090998 0.074111
0.529385 0.105869 0.060637
0.587645 -0.001285 0.000201
0.524193 0.001075 0.006110
0.568310 0.053395 0.024906
0.584671 -0.028401 0.058531
0.514655 0.049709 0.036174
0.563957 -0.028182 0.065052
0.543714 0.028078 0.080965
0.555368 -0.011791 -0.010116
0.567746 0.009237 0.079617
0.590419 0.036094 0.071339
0.602188 -0.029231 0.033216
0.575018 0.019588 0.005270
0.600851 0.028561 0.041613
0.517015 0.071733 0.035481
0.596852 0.033884 0.037418
0.569633 0.051012 0.023693
0.604850 0.012564 0.038860
0.557878 0.001918 0.078386
0.606039 -0.002114 0.031148
0.520098 0.077145 0.070488
0.564623 -0.058002 0.001674
0.518422 0.026480 0.056503
0.559924 -0.000254 -0.007229
0.549607 0.007409 -0.003806
0.539515 0.105100 0.059957
0.547944 0.056741 0.021158
0.522555 0.059018 0.027756
0.534660 0.014755 0.002806
0.560668 -0.051854 -0.003266
0.576049 0.008162 0.077283
0.585000 -0.045228 0.044345
0.572467 -0.037662 0.057607
0.588331 -0.047290 0.039202
0.538531 -0.024812 -0.004735
0.514680 0.085080 0.063177
0.518787 0.019436 0.015828
0.557265 -0.026464 0.065512
0.578097 0.068372 0.049226
0.560133 0.010260 0.080518
0.528926 -0.034634 0.024641
0.547560 -0.001498 0.074804
0.584027 -0.003073 0.071190
0.585675 0.011686 0.073367
0.546553 0.101352 0.062574
0.529464 0.029773 0.011059
0.547065 0.088209 0.077659
0.597294 0.011030 0.063000
0.581875 -0.051093 -0.001643
0.528197 0.019509 0.068017
0.553364 -0.027029 0.064219
0.512265 0.064077 0.047415
0.537188 -0.007947 0.066043
0.531381 0.031363 0.010915
0.593431 0.030262 0.068783
0.576429 0.058642 0.076909
0.551442 0.097739 0.065581
0.540717 -0.047144 0.029088
0.558617 -0.011862 -0.010412
0.518980 -0.012684 0.018755
0.581927 0.066472 0.062392
0.553192 -0.021280 -0.010699
0.531886 0.042502 0.076995
0.523368 -0.009038 0.006917
0.554564 -0.041624 -0.007525
0.511851 0.089618 0.056690
0.581945 -0.060822 0.023313
0.603886 -0.027245 0.023823
0.556280 0.094115 0.061321
0.587528 0.052097 0.041278
0.583813 -0.007032 -0.004484
0.594175 -0.006051 0.003735
0.583276 0.007036 0.073965
0.549390 0.066371 0.026875
0.585028 -0.038873 0.050238
0.536133 -0.016847 0.060316
0.586585 0.048904 0.072385
0.524506 0.001444 0.005839
0.580266 -0.044241 0.048466
0.551615 -0.052121 0.001634
0.523733 -0.014541 0.007294
0.535190 0.028045 0.008059
0.527765 0.040097 0.016551
0.570058 -0.033183 0.061444
0.595833 0.044547 0.052727
0.547467 0.077268 0.032956
0.570440 0.055831 0.027753
0.603188 -0.008045 0.048012
0.559591 0.022254 0.082924
0.530422 0.029364 0.010436
0.526874 0.057636 0.075307
0.548408 -0.053745 0.027916
0.588179 -0.052926 0.032024
0.513161 0.054221 0.042683
0.560321 0.035371 0.084619
0.526095 0.056941 0.074565
0.561187 -0.059578 0.006139
0.585874 -0.058026 0.010270
0.603919 -0.014977 0.017074
0.535270 -0.039083 0.035516
0.552589 0.037827 0.084664
0.541119 0.014618 0.000694
0.541209 0.074311 0.029715
0.550997 -0.052874 0.003113
0.550092 0.094352 0.047255
0.561483 -0.045582 -0.007405
0.585806 0.005474 0.072237
0.592322 0.044286 0.040515
0.575655 0.073708 0.065873
0.538155 0.050342 0.081507
0.552918 0.025657 0.004310
0.575885 -0.010966 0.071947
0.569397 -0.063893 0.013617
0.519231 -0.007165 0.041340
0.597936 0.007627 0.061584
0.602554 -0.020827 0.040477
0.602075 0.007792 0.053985
0.546882 -0.041349 0.047349
0.571382 -0.044769 0.051432
0.572921 -0.017420 -0.010717
0.541099 0.097441 0.072679
0.516822 -0.005026 0.021535
0.532645 0.107015 0.056512
0.569559 0.038180 0.082739
0.515379 0.047037 0.033458
0.525966 0.042525 0.071878
0.596721 -0.000695 0.061429
0.524101 0.003241 0.006481
0.591069 0.004243 0.068269
0.581002 -0.048799 0.043222
0.516668 0.023381 0.020334
0.570520 -0.063906 0.013492
0.605208 0.002112 0.028494
0.520007 0.014416 0.012979
0.568183 -0.059642 0.002991
0.598366 0.006197 0.015671
0.593510 -0.030704 0.048869
0.554057 -0.013133 0.072028
0.516750 0.098872 0.060393
0.575147 0.073990 0.055773
0.565888 -0.047717 0.048436
0.513294 0.022772 0.038991
0.514338 0.076048 0.039460
0.559699 0.019230 0.082347
0.548424 0.083935 0.037824
0.584758 -0.039788 0.049646
0.521385 0.054287 0.069200
0.594751 0.030327 0.029685
0.519750 -0.007564 0.042334
0.517709 -0.006001 0.037793
0.550300 -0.047243 -0.002424
0.562163 0.084863 0.049809
0.515445 0.059880 0.036329
0.576578 0.047922 0.024875
0.600962 -0.008252 0.012047
0.592478 0.021674 0.018989
0.590794 -0.014302 -0.002286
0.518821 0.046498 0.027042
0.570927 0.068876 0.076848
0.559693 0.087375 0.050094
0.544127 -0.050206 0.028873
0.529961 0.106737 0.049086
0.605549 -0.007975 0.026535
0.556241 -0.001652 0.077104
0.511757 0.092892 0.054660
0.546662 0.063225 0.083892
0.513389 0.073581 0.041288
0.513929 0.019634 0.026598
0.560144 -0.014747 -0.010984
0.567380 -0.033113 0.061822
0.531672 -0.032302 0.040551
0.513107 0.019859 0.033104
0.603385 -0.023519 0.014544
0.585251 0.004823 0.001680
0.600854 0.031844 0.050161
0.600516 -0.007848 0.011394
0.596975 -0.010318 0.057558
0.586828 0.005345 0.002996
0.604356 0.003224 0.026085
0.562593 -0.056493 0.000585
0.584571 -0.031740 -0.007408
0.547887 0.090268 0.041995
0.550799 0.028160 0.083108
0.535425 0.091170 0.036457
0.531443 -0.006607 0.061364
0.527220 0.048395 0.074237
0.550331 0.090393 0.043806
0.579808 -0.062342 0.020171
0.514155 0.040779 0.035533
0.583185 0.028197 0.014661
0.516021 0.043367 0.030588
0.557404 -0.040675 0.053730
0.542415 0.013410 0.077136
0.524127 0.090830 0.071407
0.512938 0.081026 0.042048
0.581749 0.040005 0.022325
0.510991 0.084051 0.053604
0.547938 0.051582 0.018259
0.554759 0.004938 -0.005240
0.602633 0.020276 0.051356
0.546822 -0.049151 0.035914
0.564873 0.038728 0.084077
0.570607 0.050353 0.023627
0.551107 -0.014912 -0.009897
0.523186 0.017987 0.061210
0.583896 0.010875 0.004166
0.605744 0.002680 0.041829
0.536146 0.060487 0.081063
0.511420 0.086939 0.046197
0.532115 0.092977 0.073965
0.598264 -0.010235 0.055895
0.604898 -0.004453 0.044587
0.542075 0.031101 0.080831
0.543410 -0.038621 0.047878
0.581153 -0.039992 0.051881
0.541458 -0.003440 0.071016
0.535750 0.065272 0.080878
0.544701 0.056449 0.083864
0.529570 0.105034 0.062600
0.514015 0.076894 0.040023
0.545614 0.101425 0.052752
0.586384 0.007254 0.072218
0.519566 0.057657 0.067550
0.517965 0.090041 0.066533
0.556183 -0.032639 -0.010472
0.524134 0.011032 0.007960
0.586985 -0.047109 -0.000710
0.569644 -0.008569 -0.009214
0.597568 0.040065 0.049224
0.550912 -0.052724 0.034056
0.578311 -0.018730 -0.009744
0.516860 0.022303 0.051824
0.597981 0.001510 0.012237
0.533889 0.028220 0.075621
0.580257 0.065583 0.048473
0.527462 -0.029199 0.009712
0.535245 0.070310 0.027504
0.602896 0.010488 0.051729
0.533206 -0.019251 0.055837
0.565159 0.043541 0.083951
0.564605 -0.029504 0.064260
0.558354 -0.052948 0.039401
0.569909 -0.051687 0.043635
0.568362 0.010871 0.079840
0.542615 0.015327 0.077717
0.580267 -0.058966 0.029719
0.553333 0.022675 0.082561
0.550250 0.040630 0.012223
0.521692 0.048948 0.024851
0.605723 -0.007935 0.027819
0.588991 -0.001407 0.001146
0.587441 0.046027 0.033974
0.514685 0.002531 0.028248
0.550319 0.045742 0.015060
0.593933 -0.031199 -0.000742
0.526896 0.034166 0.014351
0.557949 0.081751 0.041829
0.513842 0.017319 0.026661
0.534950 -0.031912 0.046810
0.575213 0.074421 0.065101
0.553080 -0.053476 0.034862
0.597427 -0.044473 0.028018
0.585412 0.061140 0.064395
0.586577 -0.040721 -0.003919
0.598381 0.038675 0.050637
0.596804 -0.017149 0.054173
0.549618 -0.041637 -0.005665
0.513664 0.039112 0.047164
0.564709 -0.062391 0.024500
0.595427 -0.019422 0.054529
0.552430 -0.036916 0.055340
0.581402 0.019370 0.007721
0.586237 0.020682 0.074039
0.570181 -0.049778 -0.005923
0.601868 -0.026443 0.010161
0.586879 0.047926 0.035170
0.544285 -0.044744 0.040451
0.588209 0.056601 0.051181
0.525842 0.072081 0.075455
0.519667 0.043986 0.024844
0.598917 0.029497 0.061061
0.515220 -0.000201 0.027015
0.594743 0.044790 0.062053
0.530126 -0.014516 0.055383
0.597805 0.003581 0.013207
0.519935 0.048686 0.026561
0.597580 0.006778 0.061931
0.553100 0.063807 0.026316
0.591103 0.038949 0.032355
0.565053 0.034331 0.083872
0.606269 -0.000615 0.035916
0.532718 0.072618 0.028517
0.522357 0.105460 0.048173
0.517743 0.010887 0.049312
0.517320 0.065283 0.034262
0.591010 -0.034230 0.048829
0.551090 -0.023795 0.065502
0.595813 -0.048792 0.015926
0.570514 -0.061442 0.005937
0.531715 0.085954 0.076507
0.563852 0.000797 0.078083
0.595985 -0.019573 0.001364
0.534408 0.069327 0.080204
0.595462 0.024468 0.066585
0.569642 -0.057305 -0.000221
0.555512 0.060566 0.024996
0.512139 0.071536 0.054923
0.582139 -0.057745 0.030414
0.512799 0.059586 0.052421
0.597703 0.040241 0.050822
0.604893 0.010935 0.034930
0.581063 -0.032677 0.057750
0.600526 0.023763 0.058216
0.572831 -0.023455 0.066756
0.516856 0.071228 0.066101
0.562930 -0.002390 -0.007873
0.598288 0.034236 0.060852
0.511819 0.069208 0.050133
0.585266 0.048524 0.033495
0.558879 -0.059514 0.027438
0.555396 -0.045540 0.047494
0.541101 -0.026437 -0.006026
0.557435 -0.016124 -0.010972
0.533359 0.047566 0.017873
0.599362 0.005349 0.059049
0.570897 -0.061670 0.006428
0.533830 0.032012 0.076408
0.574046 -0.011087 -0.009181
0.545868 -0.049798 0.003601
0.583856 0.004535 0.000733
0.595939 0.036336 0.038348
0.516300 0.053265 0.061069
0.543270 -0.050786 0.024834
0.523046 0.037302 0.018435
0.515342 0.000825 0.024489
0.517220 0.053591 0.062914
0.553450 -0.012855 0.072002
0.549508 0.037886 0.010749
0.594805 0.030125 0.067299
0.600632 -0.033639 0.009783
0.553311 -0.002837 0.076142
0.567894 0.004162 0.078478
0.563772 -0.051077 -0.004699
0.548993 -0.055273 0.024200
0.560864 0.084429 0.075641
0.579798 -0.034521 -0.008922
0.554553 0.091593 0.049078
0.517276 0.040136 0.026605
0.520592 -0.016612 0.015952
0.583189 0.064801 0.062434
0.597073 0.020867 0.064389
0.589431 0.034969 0.026190
0.581094 0.019543 0.007658
0.579793 0.060035 0.074015
0.550263 0.042057 0.084649
0.568533 0.036635 0.013321
0.542439 -0.031737 0.054218
0.558536 0.027779 0.083878
0.590618 -0.054009 0.011221
0.585321 0.051387 0.036636
0.587804 0.046587 0.035117
0.565630 0.047649 0.083553
0.593611 -0.044891 0.035510
0.540557 0.050723 0.018112
0.565209 0.079892 0.046527
0.554345 0.021210 0.002043
0.597905 0.021890 0.026890
0.515728 0.006609 0.020322
0.546653 -0.054121 0.022115
0.576403 0.069122 0.046990
0.526155 -0.024851 0.008186
0.560116 -0.034839 0.060127
0.556680 0.029287 0.006357
0.586336 0.041198 0.074129
0.579752 0.029632 0.078309
0.515083 0.037222 0.052634
0.603434 -0.002671 0.049519
0.557915 0.073975 0.081158
0.537813 0.020772 0.076527
0.574070 -0.023556 -0.011114
0.606008 0.003321 0.034462
0.513103 0.097006 0.048035
0.525331 -0.006949 0.004455
0.595397 -0.033629 0.044094
0.598466 -0.023880 0.047144
0.532353 -0.022326 0.052625
0.578497 0.034833 0.016209
0.579508 0.068670 0.054485
0.549617 0.012455 0.079641
0.522954 0.052784 0.070765
0.544007 0.016645 0.078650
0.601730 -0.018564 0.044669
0.543209 -0.045479 0.037747
0.598006 0.034399 0.061432
0.554035 -0.000504 0.077113
0.526899 0.019026 0.008274
0.560081 0.056718 0.024015
0.583242 0.058381 0.042105
0.593129 -0.008788 0.001573
0.550179 0.096335 0.071330
0.536774 -0.009822 -0.004193
0.600133 0.029633 0.057922
0.560700 0.087103 0.073275
0.547683 -0.055266 0.019132
0.512578 0.095778 0.054689
0.572632 0.037882 0.081637
0.536497 0.077695 0.030688
0.559634 -0.039246 0.055953
0.513789 0.057330 0.040050
0.591022 0.052970 0.052854
0.559045 -0.053047 0.039591
0.531444 -0.036800 0.029549
0.516354 0.021666 0.020385
0.513735 0.018927 0.040882
0.572801 0.046544 0.081042
0.600193 0.017610 0.058913
0.546070 -0.002077 -0.006284
0.542988 -0.043162 0.041432
0.595962 0.000051 0.008749
0.559742 0.090781 0.059897
0.559139 -0.035325 0.059483
0.543575 -0.015219 -0.007750
0.590533 0.053973 0.053896
0.567799 0.030011 0.082933
0.525652 0.064781 0.027579
0.567501 -0.059847 0.031388
0.581645 0.062672 0.045921
0.520865 0.067755 0.070840
0.592737 0.043487 0.067190
0.601649 0.024630 0.054486
0.573486 -0.022810 -0.011169
0.539688 0.026055 0.005990
0.589829 -0.030779 -0.004308
0.534254 -0.041826 0.013030
0.604121 -0.021078 0.017675
0.573585 0.068744 0.042014
0.515162 0.041218 0.054339
0.513991 0.083106 0.040361
0.602473 0.013912 0.052790
0.576305 -0.063149 0.021887
0.535036 0.097543 0.039424
0.542287 0.005813 0.074899
0.523315 0.050089 0.023921
0.537280 -0.041902 0.033927
0.595096 -0.030067 0.000274
0.542227 0.023075 0.004118
0.604193 -0.011412 0.019161
0.583008 0.065218 0.060256
0.558142 0.063177 0.083474
0.574174 0.058255 0.031888
0.533357 0.076913 0.030176
0.533513 -0.037852 0.007244
0.562789 0.051515 0.083978
0.524182 0.062282 0.073558
0.571087 -0.049896 -0.005780
0.599726 -0.039202 0.011702
0.576783 0.072186 0.066211
0.599947 0.031990 0.057170
0.590394 -0.016537 0.061301
0.540457 0.102577 0.047801
0.526322 -0.030987 0.020235
0.593795 0.005765 0.066139
0.529194 0.089459 0.034747
0.599607 0.035105 0.048330
0.538972 -0.047075 0.010951
0.560350 0.041251 0.084898
0.525144 -0.028686 0.024797
0.558818 0.052401 0.084709
0.533442 0.005070 0.000286
0.539085 0.083667 0.079019
0.598909 0.028490 0.061275
0.596118 -0.015000 0.002576
0.539535 0.092045 0.038511
0.524326 0.104753 0.059604
0.535623 0.101522 0.069246
0.606017 -0.006812 0.030749
0.530619 -0.025019 0.001977
0.548584 -0.047304 -0.001324
0.593912 -0.051633 0.019647
0.552845 -0.031515 0.060654
0.523758 -0.013052 0.046523
0.528144 -0.033769 0.018223
0.558747 0.046319 0.016579
0.525931 -0.027110 0.034158
0.548797 -0.013946 -0.009261
0.519450 -0.010917 0.015429
0.556521 0.013925 0.081161
0.540008 0.003970 0.072987
0.535133 0.017385 0.073826
0.569241 -0.062400 0.026308
0.581304 0.019034 0.007465
0.520957 -0.010165 0.042969
0.585407 0.027097 0.015696
0.513582 0.081572 0.040893
0.598157 -0.002530 0.010279
0.516864 0.039314 0.057826
0.570102 0.078627 0.053236
0.523438 -0.012850 0.007365
0.523093 -0.014218 0.044179
0.575783 0.041099 0.019227
0.526430 -0.017008 0.004129
0.565201 -0.062520 0.024420
0.565473 -0.055952 -0.001024
0.561347 0.089475 0.064903
0.555115 -0.021308 0.068064
0.560549 -0.060799 0.025592
0.595261 0.022662 0.066737
0.589792 -0.026438 0.055864
0.517504 0.078537 0.035858
0.604050 -0.021030 0.017286
0.521880 0.100883 0.041149
0.512527 0.059969 0.050286
0.568631 0.081068 0.069062
0.518340 -0.008591 0.037055
0.600773 -0.029307 0.037717
0.518538 0.103851 0.052420
0.530414 -0.009237 0.058848
0.598804 0.023927 0.061828
0.552492 -0.030435 -0.009986
0.519754 0.077339 0.033871
0.593597 -0.002542 0.004755
0.595881 0.039863 0.042718
0.537299 0.101148 0.069727
0.564827 0.085594 0.067793
0.599730 -0.014456 0.051433
0.589632 0.016480 0.012180
0.583239 0.009499 0.074415
0.571729 -0.050565 -0.005333
0.516026 0.078429 0.065358
0.566263 0.059308 0.081691
0.568037 0.063806 0.032872
0.533130 -0.036911 0.006853
0.541793 -0.012986 -0.006861
0.587205 -0.001126 -0.000026
0.515440 0.033043 0.052086
0.528808 -0.034877 0.020925
0.520227 -0.015458 0.034518
0.590073 -0.049436 0.034672
0.575550 -0.001883 -0.005412
0.605589 0.007713 0.039464
0.583518 0.027215 0.014224
0.528716 0.040120 0.074017
0.603215 0.012345 0.050484
0.535056 0.073979 0.080052
0.544118 0.092163 0.075777
0.539595 0.042690 0.081422
0.522400 -0.017807 0.038552
0.532305 -0.017060 -0.001401
0.543783 -0.015952 -0.007873
0.569870 0.034406 0.082587
0.515202 0.037553 0.030145
0.591405 0.043083 0.037247
0.604095 0.016461 0.043181
0.572974 0.009586 -0.000720
0.581175 -0.051985 0.039282
0.535779 0.014040 0.002114
0.524128 0.096937 0.068734
0.530770 0.013287 0.004083
0.513533 0.097161 0.056065
0.569056 0.020321 0.003796
0.536398 -0.038893 0.038523
0.520042 0.010520 0.053434
0.584204 0.040361 0.075661
0.533202 0.101973 0.042010
0.581778 -0.037006 0.053992
0.523125 0.104938 0.058081
0.593873 -0.017965 0.057156
0.530899 0.106053 0.060918
0.596980 -0.006953 0.006555
0.581887 -0.024673 0.062590
0.535438 -0.019336 0.058072
0.525174 -0.008703 0.004642
0.552981 0.012355 0.080374
0.601804 -0.033068 0.029889
0.553216 0.089601 0.045434
0.513383 0.023475 0.039950
0.594973 -0.050107 0.016607
0.547949 -0.054611 0.023988
0.545590 0.050516 0.084045
0.537754 0.093307 0.074815
0.529964 -0.031513 0.037735
0.516894 0.068853 0.065831
0.604037 -0.021406 0.033542
0.548235 -0.052952 0.006013
0.597656 0.015479 0.063065
0.514947 0.018127 0.045367
0.524983 0.014792 0.008293
0.577774 -0.052905 0.039926
0.591662 0.046393 0.041954
0.562354 -0.062754 0.015913
0.547511 0.093887 0.074547
0.599352 0.035046 0.046560
0.517356 0.066460 0.066116
0.580591 0.068131 0.062688
0.521268 -0.007650 0.045652
0.561525 0.035498 0.084509
0.527843 0.033068 0.013329
0.533914 0.047962 0.017911
0.601548 0.020162 0.055550
0.525990 -0.029668 0.015677
0.596595 0.025181 0.065201
0.579749 0.060860 0.039938
0.534589 0.030482 0.076612
0.518053 -0.001660 0.015644
0.521146 -0.020691 0.025343
0.556411 -0.060093 0.021345
0.520176 0.089757 0.036583
0.512873 0.065894 0.055839
0.534518 0.010132 0.001272
0.512595 0.093125 0.057332
0.516669 -0.006392 0.031534
0.541201 0.099474 0.071154
0.536782 0.048274 0.017423
0.587627 0.019033 0.072984
0.559283 0.016769 0.000027
0.592331 -0.020222 -0.002269
0.529336 -0.017870 0.001195
0.600233 0.004966 0.057532
0.569034 0.081590 0.064857
0.560204 0.079447 0.041349
0.529745 -0.017348 0.052970
0.582686 0.036039 0.076806
0.540880 0.076827 0.081104
0.527918 -0.033518 0.019898
0.513435 0.030385 0.035306
0.531014 -0.005775 -0.000289
0.535280 0.105888 0.061765
0.570279 0.060066 0.079828
0.573474 0.022091 0.006186
0.539431 0.095540 0.040448
0.558058 0.068249 0.082535
0.530487 -0.037329 0.020628
0.587810 -0.000244 0.069664
0.529833 -0.017544 0.052949
0.515223 0.038951 0.053685
0.537965 0.038443 0.012301
0.514993 0.026974 0.048553
0.601277 -0.038304 0.020867
0.528225 -0.029638 0.008548
0.563021 0.072777 0.079726
0.522247 0.005549 0.008761
0.574801 0.071958 0.071197
0.523082 -0.025090 0.021250
0.558557 0.027127 0.005375
0.515069 0.019881 0.022827
0.591890 -0.033788 -0.002119
0.593878 -0.011558 0.001310
0.568160 -0.017486 0.070680
0.555248 -0.000438 -0.007168
0.592071 0.045425 0.041509
0.540535 -0.047206 0.028419
0.593104 -0.000750 0.065278
0.599144 -0.028598 0.042062
0.534943 -0.031094 0.047740
0.521978 0.058574 0.028082
0.599290 -0.035186 0.035482
0.595145 0.017646 0.066453
0.517338 0.000001 0.042190
0.528781 0.056692 0.076680
0.531364 -0.007699 0.060726
0.550562 0.004233 0.077759
0.560187 -0.053567 -0.001562
0.553949 0.001269 0.077666
0.552672 -0.001025 -0.007121
0.574082 -0.001816 -0.005803
0.571833 -0.035179 -0.010601
0.558820 0.028524 0.006173
0.604414 0.009106 0.046633
0.542537 -0.047847 0.031520
0.526625 0.008538 0.062394
0.542852 -0.010967 -0.007064
0.587365 -0.044556 -0.001769
0.550523 0.090225 0.043807
0.605455 0.007943 0.035017
0.535468 -0.026674 0.052582
0.513565 0.015301 0.028254
0.543657 0.103128 0.061064
0.532505 0.030777 0.010211
0.559371 0.075594 0.080265
0.527359 0.018573 0.066763
0.597090 0.023072 0.026609
0.540925 0.026103 0.079380
0.571595 -0.036572 0.058697
0.603188 -0.007760 0.048156
0.545804 -0.011814 0.069607
0.597755 0.032803 0.062577
0.578772 -0.009648 0.071411
0.605365 -0.006634 0.025646
0.517637 0.019571 0.052511
0.603301 0.020618 0.041786
0.561011 0.083633 0.076090
0.576773 -0.063379 0.019479
0.525191 0.079917 0.074524
0.597244 -0.026675 0.002407
0.537244 -0.042269 0.032957
0.524894 -0.026128 0.032433
0.580172 0.062272 0.042481
0.515992 0.013324 0.046427
0.519692 -0.006717 0.042899
0.522697 0.090275 0.070607
0.513203 0.016310 0.035016
0.571842 -0.036722 -0.010291
0.543636 0.049854 0.083497
0.539873 0.103545 0.066110
0.566081 -0.045864 -0.007819
0.535284 -0.024250 -0.002554
0.544315 0.067481 0.083133
0.542156 -0.037481 -0.003299
0.517302 0.012626 0.049153
0.543437 0.086769 0.078300
0.602548 0.006836 0.052822
0.571633 0.049901 0.081115
0.584124 -0.019905 0.064045
0.556408 0.026403 0.004794
0.598848 -0.007510 0.008844
0.534020 0.103720 0.066481
0.538439 -0.003423 -0.004038
0.580674 -0.037160 -0.007994
0.567404 0.044319 0.083256
0.573111 0.040381 0.017462
0.564366 0.041948 0.015361
0.528190 0.058248 0.076401
0.534056 -0.042178 0.018665
0.513570 0.038687 0.038674
0.520771 -0.016723 0.034596
0.595951 -0.048271 0.024148
0.569224 0.053125 0.025099
0.573516 -0.000564 -0.005414
0.583161 0.054019 0.036530
0.582204 0.043687 0.076584
0.514371 0.005593 0.027083
0.513800 0.011188 0.027718
0.561329 0.076370 0.079302
0.568471 0.035695 0.012711
0.514303 0.063631 0.059542
0.527799 0.053834 0.075580
0.514714 0.089600 0.040561
0.574014 0.073125 0.071105
0.589190 0.029313 0.021176
0.597191 0.037927 0.043530
0.582101 -0.052430 0.038171
0.576193 -0.057480 0.034261
0.599039 -0.006996 0.009359
0.522795 0.105125 0.046602
0.579089 0.041217 0.078569
0.604056 0.012478 0.046990
0.522146 0.027044 0.062760
0.591703 -0.038309 -0.000924
0.551829 0.095826 0.051704
0.546060 -0.044832 -0.001629
0.542225 0.001157 0.073275
0.532167 -0.038647 0.012404
0.538099 -0.018423 -0.005147
0.561117 0.056619 0.024342
0.560108 -0.059602 0.028369
0.564664 -0.063458 0.017927
0.561454 0.065788 0.031103
0.594132 0.018988 0.067635
0.546435 -0.043144 0.044857
0.568549 -0.037911 -0.010348
0.599732 -0.042265 0.018887
0.597259 0.012618 0.063256
0.597264 0.024764 0.028509
0.604399 0.014141 0.036793
0.577173 -0.017189 0.068742
0.603422 -0.027981 0.028137
0.567151 -0.059759 0.031486
0.600973 0.023380 0.034876
0.576793 -0.007419 0.072963
0.570826 0.023988 0.081446
0.585641 -0.044808 -0.002821
0.587722 0.044786 0.033107
0.567808 0.022679 0.004761
0.584637 0.001109 -0.000548
0.540823 0.086808 0.078110
0.603929 0.008180 0.048719
0.578885 -0.024737 0.064011
0.604039 -0.023243 0.017938
0.540604 0.007551 0.074524
0.529083 -0.034744 0.025261
0.600577 0.021557 0.031800
0.554610 0.033855 0.008689
0.571071 0.067696 0.038341
0.543464 0.088786 0.038520
0.555099 0.052251 0.019523
0.533566 -0.026781 -0.000385
0.530578 -0.037278 0.022470
0.571628 -0.041110 0.054861
0.551970 -0.058003 0.017240
0.534383 0.065548 0.025633
0.516853 0.006839 0.017287
0.564992 -0.022403 -0.011811
0.576123 -0.034088 0.059103
0.586279 -0.026450 0.058706
0.522688 0.102528 0.062244
0.543774 -0.044410 -0.000160
0.515770 0.010399 0.019866
0.568893 -0.043271 0.053230
0.533157 -0.023266 0.052844
