ply
format ascii 1.0
element vertex 1024
property float x
property float y
property float z
end_header
0.565212 0.037450 0.084582
0.593597 -0.034885 0.049969
0.594444 -0.039748 0.048413
0.547998 0.095174 0.033231
0.544498 -0.035956 0.006558
0.594161 0.018118 0.045519
0.558223 0.090156 0.033543
0.505638 0.021789 0.040437
0.598365 -0.033689 0.023710
0.584503 0.012884 0.023012
0.511548 0.052643 0.021284
0.514774 0.089195 0.050634
0.531160 -0.033268 0.018791
0.528671 -0.005628 0.003178
0.519317 0.042263 0.010081
0.574486 0.014396 0.013413
0.595635 -0.002533 0.041848
0.541162 0.090766 0.025768
0.566101 0.073528 0.078710
0.541346 0.055209 0.007828
0.523533 -0.007797 0.006737
0.585508 -0.059886 0.012377
0.549547 0.100561 0.059663
0.569767 -0.045140 0.053990
0.604062 -0.051085 0.033954
0.564106 0.008736 0.078185
0.550912 0.073909 0.083001
0.525952 0.045669 0.080806
0.536950 -0.001137 0.071890
0.542439 0.068817 0.084123
0.577314 0.004713 0.013889
0.543626 0.040807 0.004747
0.542984 -0.043932 0.012326
0.552233 -0.054075 0.035709
0.513927 0.034751 0.069466
0.522451 -0.009543 0.054510
0.571184 0.003395 0.009387
0.539284 0.066309 0.011208
0.534074 0.062385 0.083585
0.551577 -0.041803 0.006792
0.519736 0.085819 0.030192
0.505419 0.051617 0.052887
0.532218 0.022791 0.079824
0.522925 0.079439 0.022451
0.543310 0.092757 0.028267
0.531402 0.057316 0.009296
0.537573 -0.031960 0.007925
0.527258 0.013567 0.073979
0.561695 0.090772 0.039311
0.602854 -0.047482 0.037589
0.603692 -0.045347 0.034932
0.514286 0.058576 0.020458
0.511396 0.013451 0.055301
0.572771 -0.002446 0.072162
0.521141 0.070062 0.019034
0.526467 -0.002453 0.064781
0.522110 0.079097 0.073333
0.573511 0.078469 0.067804
0.530500 0.040168 0.082766
0.582186 0.039551 0.075452
0.505736 0.025176 0.047333
0.518699 -0.014510 0.022826
0.536841 -0.026939 0.005845
0.574133 0.077625 0.041075
0.506513 0.063951 0.042349
0.552119 0.090602 0.029080
0.550503 0.099991 0.045406
0.531065 0.093018 0.029512
0.522981 0.088791 0.029821
0.504460 0.044282 0.036696
0.565739 -0.064500 0.019890
0.504383 0.040972 0.035908
0.519200 0.020368 0.007560
0.571471 0.027901 0.013948
0.561835 -0.046107 0.006714
0.550582 0.085062 0.078533
0.594612 -0.001367 0.051529
0.558550 -0.038608 0.056440
0.534569 0.099204 0.037570
0.509315 0.032802 0.020182
0.546483 -0.037962 0.051674
0.556587 0.046489 0.008881
0.553483 -0.035982 0.056750
0.545504 -0.032949 0.005109
0.594948 -0.042321 0.015794
0.552605 0.009228 0.001511
0.578023 -0.029657 0.008905
0.562322 0.087807 0.035169
0.525775 0.002652 0.003410
0.537665 -0.033672 0.048715
0.540323 -0.039293 0.010813
0.540473 0.064026 0.010449
0.522138 0.043347 0.078591
0.524294 0.025845 0.004871
0.552713 0.092407 0.071800
0.536435 -0.041187 0.030531
0.532269 0.070465 0.081466
0.518158 0.036879 0.010036
0.553326 0.084926 0.023921
0.563364 -0.015967 0.003278
0.537122 0.101841 0.061933
0.537525 0.021177 0.081141
0.578821 0.072550 0.063925
0.579967 0.040123 0.077397
0.593385 0.028260 0.050508
0.536810 0.065223 0.083906
0.504284 0.037254 0.036092
0.513667 0.018018 0.013445
0.579679 -0.021730 0.062663
0.545717 0.038577 0.086581
0.533168 0.049579 0.084189
0.510724 0.064887 0.029060
0.567934 0.073862 0.027496
0.516532 0.074725 0.069460
0.585838 0.028879 0.029966
0.561672 0.014024 0.005055
0.534455 0.084030 0.020254
0.590297 0.044279 0.050862
0.582791 0.061821 0.067722
0.544055 0.032742 0.085426
0.523558 0.034518 0.078476
0.578094 0.054183 0.077440
0.554084 -0.008443 0.071863
0.526483 0.021783 0.076633
0.515759 0.017892 0.065786
0.582183 -0.018447 0.062493
0.576942 0.027548 0.018462
0.534541 -0.023487 0.005507
0.542055 0.048156 0.086776
0.582951 -0.011038 0.064292
0.557429 0.097531 0.053442
0.591105 0.032103 0.063362
0.555336 -0.014899 0.069020
0.549817 0.005009 0.000736
0.523082 0.045375 0.079198
0.531437 0.071294 0.014085
0.556786 0.077756 0.020646
0.563184 -0.019151 0.067158
0.521362 0.056553 0.077610
0.555719 -0.004103 0.001276
0.552079 0.092724 0.031907
0.541718 0.096681 0.069875
0.513520 0.028946 0.014100
0.585361 -0.003297 0.019727
0.566431 0.084789 0.036863
0.587976 -0.027519 0.015427
0.564150 -0.063880 0.023029
0.538195 -0.027962 0.005671
0.596184 -0.059443 0.016742
0.544873 0.039921 0.004718
0.533858 0.098036 0.067781
0.517745 0.088426 0.062862
0.533402 0.100706 0.063333
0.576039 0.079175 0.057442
0.547387 0.085786 0.078436
0.509267 0.008951 0.040685
0.567210 0.023308 0.009810
0.587288 -0.067325 0.022065
0.535042 0.008726 0.075791
0.580490 -0.040601 0.055193
0.586088 0.032314 0.071612
0.540292 0.032908 0.084794
0.528228 0.076297 0.078179
0.581648 0.069400 0.057830
0.553282 -0.056391 0.031231
0.558340 0.011185 0.003296
0.531361 0.024619 0.080035
0.516430 0.076824 0.027339
0.540075 -0.045437 0.029444
0.570306 0.060853 0.080977
0.581714 0.060733 0.070706
0.506165 0.061051 0.050646
0.595819 -0.026237 0.024168
0.549105 0.076318 0.016690
0.534639 0.074960 0.081120
0.567142 0.034513 0.083780
0.541126 -0.025576 0.058720
0.545293 0.080837 0.080813
0.561100 -0.010087 0.071125
0.515815 0.087152 0.060193
0.558693 -0.029370 0.003044
0.557490 0.048943 0.086416
0.533218 0.071323 0.081600
0.517004 0.050175 0.014125
0.575859 -0.025057 0.008362
0.576054 0.001104 0.072271
0.577408 -0.051515 0.008044
0.530630 0.075955 0.016363
0.579306 0.015393 0.075271
0.599827 -0.043596 0.019947
0.515562 0.070604 0.069970
0.543309 0.001346 0.000248
0.532158 0.037617 0.004177
0.563374 -0.004377 0.073288
0.582439 0.068030 0.053645
0.570706 0.074703 0.074710
0.573375 0.032028 0.081220
0.528783 -0.028998 0.016336
0.570606 0.038935 0.016006
0.563032 0.009040 0.005130
0.559537 0.054629 0.012568
0.553178 0.086384 0.025152
0.506025 0.042201 0.056197
0.560152 0.075168 0.021261
0.509858 0.020746 0.057458
0.548535 0.099855 0.062458
0.538362 -0.039934 0.040896
0.505696 0.022491 0.034111
0.519914 -0.017222 0.033797
0.523912 0.050805 0.079559
0.520040 0.026493 0.073603
0.589271 0.049005 0.053625
0.566368 -0.064782 0.019975
0.570784 0.070239 0.028338
0.534739 0.089551 0.075230
0.514646 0.084588 0.036984
0.535079 -0.039475 0.031400
0.518956 0.001195 0.058864
0.596848 -0.017020 0.043790
0.588096 0.020801 0.030901
0.570761 0.074354 0.031437
0.604608 -0.049678 0.029487
0.560794 0.087253 0.032399
0.557208 0.026797 0.084248
0.571790 -0.064237 0.035206
0.586807 -0.067481 0.022290
0.553632 0.064201 0.012899
0.589832 0.044072 0.061387
0.568358 0.003140 0.007533
0.505150 0.048779 0.052373
0.592553 -0.013361 0.054028
0.513581 0.039844 0.070282
0.535546 -0.017301 0.061330
0.577043 0.070942 0.038689
0.514702 0.003434 0.052969
0.516104 -0.006705 0.018341
0.511530 0.068827 0.029883
0.565542 0.042317 0.013081
0.527516 0.019468 0.003045
0.599563 -0.029144 0.040142
0.534846 0.017032 0.001542
0.567512 0.005996 0.007354
0.521133 0.034234 0.007593
0.519033 0.007454 0.063811
0.520417 0.050350 0.011606
0.575315 -0.053763 0.048521
0.546329 0.101097 0.061213
0.567667 -0.007138 0.071608
0.576396 0.061475 0.030194
0.583216 0.051173 0.035117
0.580703 -0.064129 0.014863
0.584835 -0.001869 0.019511
0.596864 -0.013502 0.039840
0.590585 0.038103 0.044913
0.554448 0.098495 0.058944
0.510770 0.007597 0.046430
0.508682 0.070254 0.055672
0.510016 0.053546 0.066126
0.509432 0.075714 0.052292
0.579047 0.073670 0.060381
0.586638 -0.056627 0.045464
0.593114 0.022960 0.059326
0.518045 0.036703 0.074542
0.550832 -0.020718 0.001600
0.519180 0.000340 0.058463
0.561062 0.061102 0.084261
0.526693 0.009824 0.071976
0.505960 0.021691 0.044142
0.508784 0.009529 0.035812
0.573151 -0.061229 0.012632
0.593540 0.020470 0.043923
0.557590 -0.060256 0.025181
0.508518 0.019012 0.023447
0.540415 0.101863 0.043302
0.551068 -0.006542 0.072520
0.521163 0.037009 0.077262
0.591453 -0.031658 0.052451
0.536880 0.017628 0.079802
0.593026 0.019793 0.041578
0.513888 -0.000020 0.018233
0.529122 -0.030485 0.018836
0.566712 -0.059166 0.012087
0.546105 0.070664 0.083901
0.575203 0.071930 0.036182
0.579301 0.045662 0.077603
0.538622 -0.026362 0.004870
0.575356 0.078007 0.045196
0.550892 -0.028616 0.060874
0.586113 0.051084 0.067760
0.564913 0.091876 0.056351
0.594546 -0.056804 0.042618
0.519518 0.094152 0.058179
0.517715 0.073404 0.023896
0.565346 -0.052703 0.008763
0.544576 -0.001329 0.000215
0.557179 0.070522 0.017038
0.545390 0.067202 0.011952
0.508172 0.012145 0.040342
0.583464 -0.012322 0.015467
0.506882 0.061854 0.054520
0.538280 0.027624 0.083156
0.522413 -0.017975 0.014722
0.589960 0.044029 0.060849
0.509124 0.065904 0.060282
0.556578 0.093624 0.067764
0.583626 0.055126 0.070595
0.591435 0.024934 0.039405
0.594533 0.008893 0.041772
0.510476 0.047253 0.067008
0.528726 -0.000595 0.002512
0.584396 -0.024744 0.013404
0.565942 0.000057 0.005735
0.508332 0.043976 0.023482
0.522203 -0.010367 0.053349
0.593229 0.021381 0.043185
0.560673 -0.040269 0.055823
0.539740 0.078183 0.081245
0.512463 0.084316 0.052650
0.590601 -0.021085 0.055246
0.525334 -0.021202 0.046402
0.561421 -0.039471 0.056492
0.544793 0.098790 0.066366
0.527143 0.100845 0.048669
0.526833 0.068171 0.014648
0.547956 0.059369 0.086134
0.531001 -0.024895 0.050882
0.587987 0.040989 0.039335
0.589461 -0.021985 0.018417
0.555662 0.093156 0.069205
0.579042 -0.045796 0.007801
0.559091 0.096424 0.053352
0.507231 0.014969 0.038618
0.539290 0.006190 0.000537
0.542733 -0.035434 0.007020
0.546709 -0.035857 0.053718
0.582150 0.033143 0.025973
0.507630 0.025344 0.054773
0.532933 0.099449 0.065452
0.565473 0.027833 0.083218
0.507866 0.022608 0.024248
0.509315 0.058118 0.027907
0.510627 0.028051 0.018112
0.531702 0.056620 0.083264
0.512396 0.062443 0.068364
0.564506 0.079669 0.028355
0.568108 -0.065646 0.022742
0.581493 0.037650 0.076176
0.588060 -0.065095 0.017633
0.521916 -0.020052 0.037250
0.593018 -0.009514 0.053870
0.558131 -0.026908 0.063303
0.505708 0.028751 0.029575
0.590418 0.042179 0.060435
0.506267 0.019534 0.033802
0.510651 0.072721 0.060148
0.592736 0.016735 0.060538
0.532317 0.099796 0.064570
0.524310 0.048551 0.008923
0.592511 0.028788 0.060007
0.542606 0.102374 0.059944
0.538947 0.051626 0.006862
0.505526 0.058442 0.043248
0.520357 0.021868 0.072299
0.592290 -0.064949 0.035413
0.550161 -0.029645 0.003325
0.516820 0.065224 0.072896
0.581663 0.005105 0.070637
0.600032 -0.035461 0.041368
0.521437 -0.007692 0.054671
0.582843 -0.032543 0.010991
0.507129 0.062846 0.054984
0.567109 -0.035297 0.059359
0.540228 0.023936 0.002024
0.564315 0.027654 0.083430
0.569303 0.028743 0.082352
0.561983 0.092067 0.064545
0.566320 -0.037319 0.004870
0.595647 -0.021007 0.048024
0.561253 0.009243 0.004282
0.534602 0.065416 0.011288
0.545924 0.036474 0.004227
0.548675 0.076341 0.016582
0.595136 -0.004415 0.049093
0.536300 -0.039511 0.017420
0.568570 -0.039977 0.005476
0.543022 0.073916 0.082914
0.594781 -0.061007 0.016906
0.521795 0.057490 0.013335
0.519644 0.010566 0.066459
0.597202 -0.058086 0.040138
0.544443 -0.045124 0.041348
0.598458 -0.034913 0.044115
0.588731 0.015151 0.067036
0.573603 0.074827 0.036371
0.511904 0.046349 0.069121
0.549160 0.050323 0.087132
0.584808 0.010846 0.070057
0.525820 0.076078 0.018661
0.556312 0.058102 0.011977
0.522773 0.011791 0.004596
0.535480 0.065401 0.011151
0.504742 0.038475 0.033060
0.554608 0.057274 0.011028
0.526916 0.048967 0.008027
0.548894 0.100137 0.061496
0.549767 0.091264 0.028632
0.582580 -0.040014 0.009605
0.529684 -0.017015 0.056819
0.594498 -0.040240 0.016290
0.544185 0.018110 0.081561
0.557846 -0.032511 0.060121
0.579849 -0.040638 0.008413
0.522475 0.096717 0.059375
0.590066 -0.006296 0.058959
0.557073 0.031974 0.005986
0.593278 -0.004833 0.054249
0.520976 0.054685 0.077509
0.533686 -0.004125 0.068708
0.577140 -0.063792 0.038500
0.600914 -0.041141 0.040741
0.556933 0.018014 0.003683
0.595201 -0.050899 0.045059
0.584977 0.003812 0.021166
0.580111 0.055120 0.032036
0.516638 0.020278 0.009955
0.536843 0.069472 0.083066
0.524100 -0.022369 0.040980
0.566713 0.006763 0.006955
0.578407 0.072192 0.043641
0.558354 -0.002423 0.074443
0.557626 0.051677 0.010700
0.514927 0.040161 0.013396
0.551950 -0.043771 0.049589
0.601124 -0.048506 0.040307
0.571179 -0.065119 0.032363
0.505125 0.039720 0.031405
0.510950 0.043718 0.018939
0.537756 -0.019900 0.060878
0.534483 0.053417 0.084598
0.507744 0.060809 0.058658
0.532410 0.012179 0.076114
0.554062 -0.047391 0.047238
0.543222 -0.040408 0.046450
0.585027 -0.067993 0.023363
0.600150 -0.036520 0.041373
0.580578 -0.055549 0.009479
0.507531 0.013760 0.037221
0.570608 -0.037282 0.058265
0.584068 -0.061671 0.041640
0.569214 0.087205 0.049161
0.592200 0.035364 0.056792
0.538037 0.099455 0.037698
0.568713 0.071263 0.026627
0.528452 0.005342 0.002266
0.534293 0.074267 0.081208
0.560004 0.081329 0.025405
0.570369 -0.001488 0.073207
0.539868 0.057182 0.008338
0.545415 -0.016454 0.066527
0.548999 -0.017639 0.001191
0.574308 0.065677 0.076633
0.593251 -0.018989 0.024173
0.512662 0.027558 0.015170
0.542335 0.031487 0.084899
0.525757 -0.025887 0.038127
0.513248 0.041481 0.070201
0.525875 0.072928 0.077838
0.516211 0.072088 0.070160
0.514758 0.002200 0.051715
0.533854 -0.005888 0.067753
0.516789 0.088468 0.060924
0.526498 -0.011922 0.057662
0.583753 0.016338 0.022985
0.595761 -0.004283 0.044776
0.520811 0.056722 0.013683
0.552095 0.064034 0.012324
0.547496 0.007696 0.000710
0.580906 0.027336 0.076315
0.583597 0.010747 0.021284
0.539517 0.088988 0.023927
0.594447 0.014536 0.044760
0.573348 -0.031095 0.006597
0.587901 0.016854 0.068372
0.542919 0.046995 0.086901
0.543802 -0.035612 0.006667
0.532112 0.074855 0.080304
0.512563 0.082465 0.039628
0.533130 -0.022711 0.005911
0.542837 0.096447 0.033319
0.526460 0.005731 0.002955
0.504718 0.045683 0.035549
0.566692 0.089609 0.060780
0.581693 -0.012192 0.064741
0.528838 0.090620 0.072377
0.504501 0.046876 0.037941
0.524315 0.049695 0.079833
0.559793 0.042481 0.009375
0.511234 0.002409 0.030812
0.551132 0.100738 0.049680
0.528743 0.080607 0.019667
0.547705 0.005395 0.000573
0.536871 0.062780 0.084354
0.538915 -0.010599 0.001129
0.566457 -0.051586 0.048880
0.595223 -0.000974 0.048958
0.515560 0.006519 0.011542
0.580437 0.030286 0.076906
0.523018 -0.006686 0.006820
0.546284 0.027445 0.084479
0.540056 0.054979 0.007732
0.595571 -0.005528 0.046896
0.507539 0.022961 0.025107
0.580615 -0.009171 0.013855
0.543774 0.014912 0.001151
0.522534 -0.018858 0.043132
0.517509 0.046373 0.012480
0.594957 -0.021945 0.025215
0.599678 -0.061249 0.022926
0.567419 0.008924 0.077713
0.597878 -0.023428 0.042911
0.505827 0.060568 0.046999
0.522860 0.033243 0.077721
0.520392 0.092704 0.038462
0.538459 0.102499 0.060314
0.567114 -0.061411 0.037429
0.515123 0.009879 0.059827
0.541001 0.079346 0.016954
0.556836 -0.050378 0.045798
0.512047 0.006192 0.018979
0.544777 0.102882 0.056348
0.578855 -0.005345 0.013282
0.589029 -0.041912 0.051447
0.515585 0.087553 0.059136
0.586016 -0.031153 0.056412
0.527323 0.004270 0.002691
0.523242 0.037865 0.006911
0.506382 0.051666 0.057070
0.514453 0.012979 0.012319
0.508598 0.037279 0.061762
0.578225 -0.047357 0.052427
0.574199 0.064189 0.028845
0.517817 0.002893 0.009382
0.591707 -0.037312 0.051079
0.550087 0.005581 0.000807
0.531468 0.085295 0.076332
0.524786 0.061700 0.079207
0.577756 0.076287 0.058831
0.574779 0.075237 0.039142
0.592850 0.003711 0.034082
0.507912 0.026209 0.023422
0.537797 0.102465 0.060340
0.546282 -0.019829 0.064836
0.565039 0.074182 0.024701
0.559629 0.089329 0.071576
0.557732 0.058570 0.012808
0.535658 0.014391 0.001267
0.575542 -0.030772 0.060554
0.546148 0.076606 0.082299
0.595144 0.008780 0.047538
0.582487 0.031065 0.075282
0.573808 -0.031925 0.060408
0.520853 0.021531 0.072594
0.584241 0.019146 0.024444
0.514015 0.001304 0.016703
0.527161 0.086022 0.024318
0.521703 0.011369 0.068915
0.513558 0.008020 0.055147
0.553795 0.099495 0.055648
0.541401 0.081733 0.080186
0.549040 -0.052950 0.016109
0.552775 0.093187 0.033111
0.574001 -0.043764 0.006657
0.594089 0.000330 0.053503
0.578818 0.050723 0.077422
0.537202 -0.024824 0.004842
0.511263 0.010637 0.018859
0.547646 0.021287 0.002149
0.560092 0.042316 0.009488
0.529545 -0.029008 0.014446
0.533994 -0.028645 0.050340
0.570175 0.022962 0.011885
0.533186 0.044113 0.084083
0.524202 -0.015393 0.051535
0.524993 0.098317 0.043328
0.548913 0.001511 0.000445
0.546680 0.006662 0.000581
0.527232 -0.028660 0.035410
0.509584 0.077355 0.045617
0.589355 0.002838 0.027091
0.564899 -0.030840 0.003992
0.581222 0.038232 0.026418
0.537145 0.032781 0.003119
0.587240 0.029281 0.070262
0.544721 0.081577 0.080507
0.553710 -0.020327 0.001594
0.577758 0.062991 0.074678
0.516969 0.047000 0.074825
0.579709 0.030016 0.022001
0.518559 -0.013228 0.019732
0.515551 -0.008495 0.032505
0.576328 -0.013740 0.066822
0.509084 0.039033 0.020991
0.543249 -0.049027 0.026084
0.539642 -0.010425 0.067952
0.561839 0.084843 0.030643
0.520109 0.044200 0.009992
0.602457 -0.056887 0.034344
0.587360 0.051443 0.064212
0.506605 0.064000 0.041555
0.506120 0.055449 0.035198
0.543978 0.035575 0.085945
0.561322 0.024899 0.006523
0.546412 -0.023804 0.002426
0.527124 -0.003242 0.064808
0.564501 -0.034737 0.059602
0.532819 -0.007133 0.066364
0.507739 0.053665 0.028934
0.539150 0.064728 0.084504
0.517649 0.002353 0.009730
0.521426 0.009174 0.067495
0.593166 0.029736 0.050544
0.575298 -0.000762 0.011554
0.548948 -0.007606 0.000362
0.546547 0.070351 0.013368
0.562997 -0.061876 0.016020
0.585206 0.061531 0.053839
0.517032 0.008600 0.009341
0.551755 -0.053587 0.013874
0.545735 0.084496 0.079194
0.597720 -0.060108 0.037982
0.520663 -0.018442 0.034684
0.592943 -0.026245 0.020499
0.518566 0.052770 0.075936
0.593168 -0.021708 0.052081
0.534687 -0.008197 0.001628
0.525278 0.073048 0.077447
0.555305 0.060361 0.085450
0.592274 0.017935 0.061715
0.578681 0.006986 0.073110
0.524116 -0.024631 0.029665
0.511942 0.017159 0.016150
0.583690 0.059069 0.041906
0.537571 0.060680 0.084854
0.543014 0.059938 0.009279
0.562972 -0.048499 0.007415
0.517847 0.047533 0.075567
0.581488 0.069374 0.050274
0.534631 -0.009705 0.001859
0.519910 -0.014365 0.043039
0.597155 -0.017058 0.034353
0.523246 0.085159 0.071595
0.548851 -0.013554 0.000729
0.571184 -0.046655 0.053137
0.520227 -0.009274 0.011018
0.516658 0.014841 0.009564
0.562510 0.084174 0.030657
0.589353 0.028747 0.036308
0.544696 0.089876 0.025386
0.563199 0.074849 0.079636
0.524075 0.072495 0.018013
0.558777 -0.017679 0.001972
0.576547 -0.017794 0.065275
0.602185 -0.041455 0.038179
0.513432 0.024213 0.014057
0.523168 0.095475 0.063096
0.594995 -0.046976 0.014305
0.532560 0.002980 0.072023
0.595812 -0.004209 0.042587
0.546786 0.062944 0.085531
0.538499 0.087782 0.022843
0.587992 0.032739 0.035285
0.526509 0.064259 0.013335
0.538978 -0.023863 0.003907
0.537579 -0.042164 0.032624
0.561632 -0.003425 0.003243
0.594968 -0.026069 0.023070
0.569118 0.075161 0.075805
0.530107 -0.032519 0.035620
0.565248 -0.043369 0.054657
0.550427 0.100953 0.049121
0.524373 0.088880 0.028734
0.541244 -0.034220 0.007127
0.518526 0.007220 0.007918
0.503978 0.039407 0.042783
0.587639 -0.054623 0.010794
0.567064 0.060393 0.082535
0.506603 0.020301 0.030117
0.598937 -0.039350 0.021208
0.526003 0.010130 0.003064
0.559802 0.081199 0.078124
0.527257 -0.025837 0.043325
0.565465 0.055604 0.083950
0.532390 -0.034560 0.038397
0.589576 0.046714 0.050057
0.559958 -0.059480 0.034122
0.515051 0.007153 0.012174
0.541738 0.075164 0.014864
0.590836 -0.041195 0.013543
0.590264 -0.067183 0.026274
0.575376 -0.067942 0.023308
0.519002 0.054160 0.013997
0.579232 0.067920 0.069018
0.562264 0.091048 0.066289
0.517959 0.092168 0.042858
0.522330 0.042461 0.078679
0.556923 0.030221 0.085013
0.566317 0.064153 0.081888
0.577513 0.011346 0.015259
0.559051 0.048914 0.086149
0.579752 0.070535 0.045096
0.581958 0.046443 0.075008
0.522311 -0.003677 0.059443
0.534635 0.005011 0.073977
0.541953 -0.006835 0.070730
0.524763 0.090584 0.069695
0.559910 0.042869 0.009529
0.562180 0.029528 0.084174
0.554573 0.032700 0.005319
0.601514 -0.040707 0.039518
0.539650 0.061483 0.009620
0.572377 -0.018064 0.066380
0.556742 -0.032808 0.003619
0.584375 0.053729 0.069934
0.558540 0.032375 0.085227
0.563190 0.017672 0.006354
0.583251 0.059548 0.068676
0.528541 0.090881 0.072048
0.548417 0.101371 0.058427
0.558025 -0.050166 0.008862
0.519482 0.030735 0.074367
0.531245 0.087780 0.075056
0.511411 0.007427 0.020160
0.504530 0.050094 0.046449
0.601468 -0.034434 0.036261
0.524407 0.072678 0.017890
0.603189 -0.053621 0.023018
0.587806 -0.030213 0.055581
0.547558 -0.044600 0.009553
0.568483 0.031307 0.082987
0.509259 0.065828 0.032731
0.598520 -0.063487 0.028299
0.545617 0.021396 0.082768
0.513075 0.010264 0.014922
0.571972 0.084376 0.050924
0.601013 -0.031795 0.034451
0.546316 0.063781 0.010892
0.533943 0.009046 0.001110
0.573865 -0.067560 0.022442
0.552447 -0.048157 0.009469
0.505779 0.045976 0.030847
0.550533 0.043889 0.006506
0.508776 0.009990 0.039219
0.549475 0.101339 0.049175
0.581872 -0.052576 0.048884
0.532364 -0.036253 0.027939
0.566779 -0.009671 0.005229
0.569969 0.074594 0.075432
0.582789 0.066722 0.050750
0.554121 0.064115 0.013054
0.574970 -0.010146 0.068590
0.563627 0.063512 0.083037
0.566577 0.038507 0.084286
0.510715 0.080497 0.050384
0.564829 0.065246 0.020088
0.518493 0.037729 0.009885
0.556813 0.033063 0.006096
0.554065 -0.025736 0.063370
0.514002 0.026975 0.013449
0.558228 -0.053675 0.042751
0.562164 -0.062808 0.024526
0.543095 -0.029650 0.056725
0.561573 0.038354 0.085491
0.583418 0.064305 0.062162
0.581178 0.070055 0.050465
0.520459 -0.017016 0.038990
0.591983 -0.000333 0.057819
0.541691 0.008872 0.000600
0.520018 0.028475 0.007739
0.567338 0.053080 0.017665
0.512121 0.077573 0.060203
0.590111 0.039326 0.044192
0.581212 -0.066817 0.034175
0.591584 0.037542 0.049109
0.596673 -0.061772 0.037058
0.570538 0.041267 0.016573
0.545236 0.057664 0.086356
0.562995 0.007239 0.077792
0.518517 -0.014015 0.022373
0.595949 -0.052340 0.014297
0.506975 0.057403 0.057404
0.592135 -0.066679 0.026481
0.504173 0.043814 0.039340
0.585738 -0.067439 0.021168
0.541361 0.066831 0.011434
0.505417 0.042836 0.054025
0.539366 0.030717 0.084144
0.586691 0.052628 0.065346
0.524487 -0.002829 0.062630
0.512685 0.073674 0.030943
0.576639 -0.040352 0.007313
0.581198 0.004010 0.070564
0.519963 0.093097 0.040063
0.542437 0.081116 0.080529
0.540389 -0.035799 0.049048
0.567203 -0.064574 0.028298
0.552463 0.051033 0.086892
0.577527 -0.045378 0.053571
0.512996 0.063107 0.024416
0.555338 0.090815 0.072440
0.509864 0.015673 0.020807
0.574524 0.005157 0.074376
0.592806 0.032499 0.054263
0.513454 0.077092 0.063491
0.539467 0.003561 0.000455
0.536131 0.095553 0.070999
0.561534 -0.062585 0.020583
0.527369 0.011188 0.002599
0.576174 -0.043623 0.054624
0.539851 -0.028115 0.005092
0.561038 0.026061 0.083630
0.524708 -0.020952 0.045391
0.594168 0.016211 0.044245
0.592623 0.003516 0.033469
0.514360 0.017570 0.012457
0.570912 0.062076 0.080303
0.512562 0.006752 0.017210
0.553524 -0.008990 0.000798
0.545113 -0.018613 0.065171
0.586039 0.038947 0.071156
0.570474 0.048262 0.082850
0.537021 0.088855 0.076122
0.603378 -0.042787 0.028506
0.585888 -0.038005 0.054290
0.590060 0.042516 0.046911
0.594912 -0.059688 0.040424
0.574152 0.032593 0.080909
0.569840 -0.066244 0.020978
0.591291 0.004241 0.030966
0.510503 0.004626 0.030250
0.577939 0.043980 0.024331
0.545558 0.081191 0.018625
0.583168 0.062658 0.065827
0.508285 0.027622 0.022388
0.550415 -0.042353 0.007337
0.571444 -0.028528 0.005964
0.547167 0.030973 0.085351
0.517096 -0.011775 0.026279
0.554911 -0.055124 0.037271
0.565387 0.062894 0.082573
0.586898 0.001580 0.065003
0.587547 0.054747 0.057486
0.582367 -0.066809 0.018309
0.531436 -0.034767 0.023804
0.566775 0.039498 0.013244
0.590825 -0.045052 0.012492
0.540126 -0.045473 0.029593
0.561900 0.065948 0.082985
0.505695 0.021343 0.039197
0.547056 0.031156 0.085382
0.576140 -0.015660 0.066195
0.590542 0.015098 0.033381
0.575496 -0.003492 0.070818
0.517373 0.083002 0.030651
0.574482 0.066894 0.075846
0.540633 -0.046061 0.022352
0.590826 0.038610 0.061466
0.538933 -0.037530 0.010669
0.570515 0.054539 0.082180
0.578439 0.032691 0.021377
0.590729 0.017514 0.064586
0.540802 0.091317 0.026313
0.545258 0.072792 0.014196
0.510945 0.029274 0.063569
0.579193 0.060492 0.033814
0.539169 0.004662 0.000497
0.546659 0.071074 0.083810
0.505265 0.025618 0.033806
0.507513 0.062276 0.035256
0.542576 0.045808 0.086828
0.596835 -0.013496 0.040637
0.509597 0.071310 0.036136
0.509860 0.011388 0.022836
0.568662 0.021427 0.081107
0.558193 -0.039941 0.055438
0.544281 0.019309 0.081960
0.524857 0.004372 0.067794
0.552943 0.098654 0.060888
0.521740 0.007470 0.066820
0.580549 0.060311 0.036076
0.566038 0.065091 0.020998
0.558653 0.092853 0.038770
0.578229 0.031206 0.020739
0.514754 0.032052 0.012800
0.543029 0.070147 0.083863
0.551964 0.004846 0.077415
0.583005 0.065556 0.048794
0.539463 0.098243 0.035629
0.579668 -0.040466 0.008361
0.521747 0.040219 0.008135
0.540493 0.039633 0.085937
0.586234 0.017358 0.070283
0.576643 -0.062337 0.013256
0.592603 0.020926 0.040779
0.543552 -0.049379 0.023777
0.552120 -0.005265 0.073163
0.538275 0.031863 0.002984
0.537663 -0.015487 0.063863
0.510197 0.051854 0.066615
0.508335 0.043673 0.023384
0.527646 0.020413 0.076822
0.516430 0.002815 0.011221
0.506686 0.025337 0.051696
0.523014 0.056966 0.012406
0.568417 0.000354 0.074362
0.522989 0.025975 0.005554
0.548349 -0.052582 0.016602
0.524466 0.097219 0.061935
0.570353 -0.057134 0.044788
0.536916 0.084408 0.020239
0.547348 0.063803 0.085378
0.561249 0.048972 0.085727
0.552008 -0.011507 0.000709
0.571395 0.008411 0.076591
0.564267 0.026654 0.083238
0.578383 -0.063218 0.039558
0.582132 0.012409 0.072638
0.557872 0.093841 0.039714
0.541743 -0.035418 0.050653
0.575646 -0.066593 0.017822
0.556418 0.097957 0.049903
0.579756 0.071166 0.063354
0.547975 -0.048447 0.040519
0.571197 0.083279 0.065044
0.568435 0.007595 0.077046
0.558878 -0.060393 0.028919
0.510794 0.029593 0.017821
0.526010 -0.027501 0.028761
0.504748 0.038847 0.050352
0.579916 0.033095 0.023149
0.538409 0.066302 0.011226
0.579090 -0.068311 0.022249
0.586386 0.056957 0.049210
0.550628 0.094836 0.034236
0.525126 -0.025535 0.035760
0.565815 0.018666 0.008053
0.573279 0.016716 0.012936
0.559319 -0.041092 0.054935
0.559282 0.071655 0.082163
0.587490 -0.006744 0.061742
0.565726 0.039548 0.084590
0.514788 0.087356 0.041272
0.567557 0.003441 0.007069
0.566575 0.063771 0.020899
0.551285 -0.000928 0.000603
0.520328 -0.017570 0.022437
0.583021 0.025640 0.074451
0.584967 0.020867 0.072113
0.543284 -0.048930 0.021520
0.570296 0.024032 0.012200
0.581607 -0.038196 0.055877
0.558529 -0.037328 0.057283
0.603955 -0.046348 0.034222
0.539910 -0.038545 0.010593
0.549223 0.028572 0.003424
0.531861 0.010331 0.001488
0.512155 0.078800 0.059317
0.516708 0.083638 0.064936
0.538120 0.065643 0.011007
0.600375 -0.059940 0.022169
0.519989 -0.017618 0.026868
0.515952 0.029187 0.011391
0.561214 -0.010494 0.070949
0.538448 0.093988 0.029350
0.575409 -0.049210 0.007437
0.564943 0.088766 0.066729
0.532035 0.007491 0.073944
0.566085 0.072326 0.079243
0.581922 0.068960 0.057105
0.574392 -0.000643 0.010959
0.530026 0.085083 0.075821
0.533041 0.095405 0.070433
0.572818 -0.011636 0.008399
0.510156 0.009415 0.023330
0.533057 0.059392 0.083596
0.559527 0.094015 0.042796
0.518270 0.086856 0.033169
0.508939 0.017641 0.022718
0.537462 0.029465 0.002681
0.523420 0.034183 0.006278
0.506795 0.032318 0.055914
0.514742 0.071242 0.026314
0.523427 0.084951 0.071847
0.530235 0.027521 0.003125
0.507649 0.022240 0.052581
0.516873 -0.008178 0.043438
0.541174 0.098673 0.036646
0.547472 0.009230 0.000831
0.571500 0.038598 0.016613
0.556892 0.062134 0.013570
0.560648 -0.060914 0.030779
0.513271 0.031379 0.014471
0.506273 0.041325 0.056858
0.523158 0.073963 0.019342
0.534497 0.001494 0.072201
0.560495 0.060847 0.084445
0.531954 0.030680 0.003208
0.581035 0.024647 0.021996
0.562509 -0.015239 0.002991
0.587204 -0.037808 0.012362
0.579891 0.004202 0.015939
0.578399 0.071377 0.066844
0.560582 0.064814 0.083605
0.511191 0.057638 0.067543
0.543390 0.088721 0.076725
0.593356 -0.014432 0.026654
0.588730 0.031207 0.068118
0.568384 0.082278 0.036542
0.508003 0.050771 0.062049
0.504737 0.047563 0.050188
0.588642 -0.067470 0.029722
0.565497 0.087023 0.068782
0.588906 0.026684 0.068014
0.513238 0.059634 0.070118
0.542985 0.036344 0.085934
