ply
format ascii 1.0
element vertex 1024
property float x
property float y
property float z
end_header
0.518402 -0.015889 0.045799
0.512321 0.068689 0.052574
0.512171 0.073637 0.054084
0.572334 -0.041999 -0.005919
0.577257 0.075060 0.058824
0.521186 0.028726 0.018607
0.564053 -0.034761 -0.008895
0.589758 -0.000950 0.066488
0.526618 0.082471 0.034705
0.542747 0.040997 0.015175
0.601965 -0.014064 0.034353
0.584224 -0.056934 0.026914
0.579109 0.062366 0.071871
0.594697 0.047268 0.048568
0.602579 0.002422 0.029719
0.556700 0.041285 0.015027
0.520125 0.047566 0.027883
0.581822 -0.036995 -0.003315
0.525976 -0.041499 0.020826
0.589523 0.000488 0.007726
0.595805 0.045519 0.054852
0.540525 0.104845 0.051619
0.554083 -0.059043 0.004400
0.525826 0.066988 0.075022
0.513507 0.093131 0.047134
0.520102 0.009910 0.059876
0.534244 -0.048979 0.032004
0.550617 -0.033558 0.062325
0.543015 0.011975 0.078457
0.539081 -0.048274 0.040668
0.553163 0.049724 0.019300
0.588217 0.014302 0.013164
0.573543 0.078045 0.067569
0.549868 0.077494 0.080774
0.565733 -0.023122 0.069742
0.564294 0.022611 0.082578
0.560513 0.051007 0.021278
0.590076 -0.010764 0.004264
0.544796 -0.045629 0.049153
0.571230 0.081960 0.058171
0.593929 -0.042346 0.014794
0.585093 -0.031112 0.055848
0.543982 -0.012700 0.071520
0.596041 -0.032310 0.012425
0.578809 -0.039129 -0.004405
0.596057 -0.005223 0.013218
0.581876 0.068888 0.061349
0.550442 -0.004036 0.076722
0.557712 -0.036995 -0.008184
0.512376 0.088029 0.047716
0.513801 0.087931 0.044510
0.601221 -0.017487 0.028775
0.574573 0.000172 0.076069
0.516486 0.024737 0.058004
0.598529 -0.023690 0.017147
0.555299 0.013122 0.081610
0.562413 -0.057811 0.040862
0.528472 -0.037531 0.007548
0.545323 -0.028637 0.063918
0.512374 -0.007377 0.029456
0.585455 -0.007082 0.068197
0.587734 0.041222 0.070462
0.584404 0.065674 0.057695
0.545874 -0.023253 -0.006902
0.592836 -0.035330 0.042187
0.571567 -0.034900 -0.007950
0.562894 -0.051125 -0.003610
0.586956 -0.044013 0.003425
0.592159 -0.043463 0.010905
0.595801 -0.017449 0.051909
0.549384 0.098228 0.070227
0.595994 -0.014433 0.053474
0.601762 0.021154 0.041304
0.560146 0.029222 0.009167
0.563272 0.088834 0.054542
0.538810 -0.055766 0.023198
0.514507 0.041442 0.033085
0.533156 0.056826 0.079205
0.579715 -0.051839 0.002086
0.601984 0.001614 0.046765
0.545257 0.054706 0.083425
0.576638 0.011975 0.004340
0.536964 0.052894 0.080851
0.577851 0.073714 0.055664
0.533411 0.092211 0.037508
0.580081 0.044144 0.024633
0.551916 0.079939 0.036393
0.559685 -0.032341 -0.009071
0.597641 0.039574 0.045549
0.554201 0.049842 0.084547
0.577054 0.074214 0.065600
0.589445 -0.008164 0.004485
0.554619 -0.031852 0.064760
0.600493 0.019808 0.033574
0.542647 -0.057559 0.013931
0.566426 0.064558 0.079788
0.548497 -0.051624 0.044318
0.602819 0.006365 0.033555
0.573478 -0.027376 -0.008141
0.568038 0.066963 0.034011
0.561794 -0.065315 0.012297
0.539025 -0.010314 0.070022
0.526493 -0.029098 0.005750
0.512758 -0.009543 0.031504
0.519605 0.017859 0.015819
0.542916 -0.047154 0.046025
0.595502 -0.011585 0.055822
0.601575 0.018252 0.049198
0.515530 0.047202 0.060056
0.531446 -0.024242 0.057857
0.543533 -0.035992 0.057563
0.598796 -0.028024 0.031877
0.559082 -0.015489 -0.008394
0.568574 -0.054219 0.044652
0.538996 0.025164 0.008755
0.571639 0.041533 0.018334
0.589632 -0.031065 0.001645
0.523525 0.003852 0.008423
0.519767 -0.021108 0.011768
0.532745 -0.019548 0.061654
0.552610 -0.024265 0.069047
0.515766 -0.021427 0.024368
0.529638 0.023499 0.072521
0.550199 -0.012192 0.073794
0.564866 -0.007192 0.076569
0.514202 0.045491 0.056536
0.553072 0.029052 0.008572
0.586722 0.062323 0.056851
0.535129 -0.033210 0.054509
0.513312 0.038920 0.052697
0.552139 -0.050894 -0.001911
0.513092 0.007589 0.021926
0.529867 0.030500 0.074025
0.582139 0.046984 0.028358
0.553761 -0.033466 0.063333
0.594472 -0.018788 0.007580
0.572297 -0.018856 -0.007770
0.524876 0.037430 0.070830
0.557412 -0.042176 0.056913
0.576380 0.055951 0.030497
0.569949 -0.038027 -0.007633
0.552486 -0.063650 0.016925
0.602538 0.009137 0.043210
0.542408 0.055865 0.022398
0.555185 -0.029418 -0.008822
0.540511 0.078252 0.032754
0.548510 0.095633 0.072521
0.583409 0.067027 0.057395
0.529839 0.105835 0.047368
0.587220 0.015437 0.012925
0.559800 -0.066284 0.019674
0.573745 -0.061465 0.032263
0.563439 -0.066340 0.015948
0.533668 -0.032065 -0.000026
0.541297 -0.057354 0.024625
0.585415 0.010392 0.072016
0.565496 0.033559 0.012157
0.531833 0.106526 0.060219
0.542959 0.001502 0.075916
0.517717 0.066303 0.066609
0.511243 0.001625 0.029294
0.535940 -0.020609 0.063457
0.554352 -0.055977 0.041502
0.528147 -0.022588 0.002594
0.551835 0.081938 0.079070
0.574920 0.043582 0.021033
0.544684 -0.014550 0.071070
0.597196 -0.034818 0.020506
0.563991 0.069706 0.079526
0.519875 -0.031109 0.027016
0.518420 -0.022091 0.014678
0.587172 -0.037285 0.048627
0.529056 0.075442 0.032086
0.580401 -0.018265 -0.004499
0.547530 -0.054261 0.040068
0.517181 -0.012501 0.045940
0.545910 0.039499 0.083171
0.540644 -0.055281 0.030084
0.524810 0.027505 0.068901
0.576798 -0.059748 0.032709
0.570020 0.076251 0.044562
0.524179 -0.028553 0.044640
0.547815 -0.052063 0.043320
0.602493 -0.006697 0.028646
0.554409 0.075816 0.034681
0.514434 0.022930 0.054015
0.550351 0.097644 0.049159
0.594085 -0.023924 0.006559
0.511735 0.011077 0.045299
0.526902 0.092763 0.037613
0.568452 -0.051501 0.047934
0.586790 0.048004 0.034132
0.596606 0.013344 0.021573
0.522371 0.022607 0.065361
0.530218 -0.019133 0.000646
0.525437 -0.038909 0.015206
0.514049 -0.007168 0.042288
0.583003 0.059396 0.069436
0.560705 0.019081 0.004309
0.570002 0.045931 0.020497
0.572969 0.004595 -0.000202
0.572931 -0.029208 -0.008240
0.581309 -0.025042 0.062835
0.569116 -0.015982 -0.007919
0.575114 -0.007251 0.073868
0.552861 -0.060214 0.006944
0.558202 0.058998 0.083553
0.594049 0.001679 0.062591
0.579153 0.038294 0.077317
0.553556 -0.037714 0.059838
0.557505 -0.016570 0.073213
0.522979 -0.001651 0.007760
0.548834 0.098618 0.070064
0.556003 -0.012071 -0.007502
0.553145 -0.062942 0.028206
0.592941 -0.046450 0.022259
0.567037 0.062305 0.080063
0.565198 0.010686 0.080717
0.516215 0.058577 0.036747
0.535760 0.031902 0.012673
0.554426 -0.016922 -0.008221
0.516276 0.094426 0.043544
0.562598 -0.031015 -0.009344
0.523214 -0.009852 0.056665
0.534702 0.092342 0.074814
0.532014 0.106379 0.060721
0.578200 -0.005179 -0.002134
0.516769 -0.001412 0.014562
0.563795 0.051205 0.022103
0.585298 -0.028675 0.057399
0.512911 0.049098 0.042738
0.566042 -0.027718 0.067396
0.549218 0.029727 0.083052
0.544556 -0.015750 -0.006005
0.572534 0.010443 0.078721
0.593570 0.036372 0.064969
0.598120 -0.031320 0.029525
0.566774 0.016169 0.003744
0.598607 0.026887 0.034410
0.515242 0.070997 0.040275
0.593969 0.032013 0.030651
0.564872 0.048732 0.020829
0.601971 0.010689 0.032005
0.562561 0.003228 0.079683
0.601710 -0.004445 0.025133
0.524422 0.078459 0.073806
0.555457 -0.061313 0.006850
0.520034 0.027077 0.063510
0.549613 -0.004137 -0.004679
0.540098 0.003889 0.000003
0.541865 0.105401 0.058339
0.543107 0.054657 0.021753
0.519274 0.057749 0.032511
0.526578 0.011867 0.008643
0.550737 -0.055409 0.002300
0.580296 0.009092 0.075051
0.583046 -0.046329 0.044448
0.573066 -0.037770 0.059189
0.585417 -0.048753 0.038943
0.528842 -0.028142 0.003023
0.517857 0.086028 0.067069
0.513250 0.017588 0.023909
0.559543 -0.025865 0.068905
0.577765 0.067457 0.043370
0.565202 0.011645 0.080867
0.524457 -0.036013 0.034175
0.551756 -0.000225 0.078171
0.587022 -0.002622 0.068374
0.589111 0.012212 0.069308
0.549229 0.101702 0.059921
0.522991 0.027440 0.016721
0.552291 0.089486 0.075475
0.598737 0.010740 0.057140
0.571905 -0.054904 0.000160
0.531628 0.020652 0.073559
0.555473 -0.026441 0.068348
0.512604 0.064155 0.053307
0.539976 -0.007018 0.071766
0.524862 0.028987 0.016148
0.596056 0.030347 0.062297
0.580900 0.059444 0.071472
0.554547 0.098196 0.062250
0.536770 -0.048426 0.037274
0.547703 -0.015892 -0.006857
0.513764 -0.014296 0.028753
0.583825 0.066291 0.055761
0.542256 -0.025220 -0.005609
0.536962 0.044081 0.080309
0.516039 -0.011444 0.016128
0.544043 -0.045355 -0.001461
0.513965 0.090213 0.060903
0.576275 -0.063110 0.025280
0.598164 -0.029933 0.019875
0.558546 0.094242 0.057448
0.585569 0.050579 0.034932
0.573575 -0.011134 -0.005713
0.585218 -0.009831 0.000501
0.586826 0.007647 0.070603
0.545585 0.064589 0.026520
0.584140 -0.039631 0.049839
0.537885 -0.016229 0.066875
0.590053 0.049284 0.065866
0.517032 -0.001066 0.014218
0.579111 -0.045017 0.049259
0.542677 -0.055230 0.008707
0.516432 -0.016920 0.016779
0.528095 0.025439 0.012885
0.522337 0.038103 0.021772
0.571391 -0.033028 0.063101
0.595701 0.043596 0.045210
0.544817 0.075864 0.032153
0.566403 0.053773 0.024379
0.601812 -0.009300 0.042572
0.565158 0.023770 0.082579
0.523822 0.026978 0.015968
0.531821 0.059166 0.078580
0.544099 -0.055212 0.035196
0.583981 -0.054808 0.032266
0.512603 0.054018 0.049115
0.566250 0.036951 0.083300
0.530921 0.058440 0.078029
0.552845 -0.062560 0.011935
0.577883 -0.061172 0.011604
0.597089 -0.018096 0.012472
0.532576 -0.039902 0.044036
0.558659 0.039533 0.084537
0.532568 0.011496 0.005452
0.538073 0.072821 0.030240
0.542322 -0.055882 0.010315
0.549998 0.093733 0.044685
0.550853 -0.049413 -0.002300
0.589006 0.005943 0.068561
0.590110 0.042657 0.033835
0.578299 0.073827 0.059822
0.543969 0.052073 0.083165
0.544881 0.022536 0.006267
0.579092 -0.010319 0.071026
0.562209 -0.066552 0.018124
0.517987 -0.007430 0.050562
0.599102 0.007247 0.055848
0.599797 -0.022500 0.036074
0.601851 0.006884 0.047650
0.546062 -0.041643 0.053787
0.570878 -0.045217 0.053752
0.561701 -0.021696 -0.009298
0.545601 0.098498 0.071043
0.512168 -0.006449 0.031383
0.534510 0.107219 0.056028
0.575034 0.039488 0.079672
0.513134 0.046255 0.040110
0.530240 0.043893 0.076309
0.597830 -0.001048 0.056425
0.516756 0.000773 0.014808
0.593488 0.004387 0.063823
0.578893 -0.049895 0.044262
0.511973 0.021832 0.028461
0.563293 -0.066591 0.017807
0.600453 -0.000374 0.022406
0.513925 0.012386 0.021210
0.559184 -0.062930 0.007627
0.591500 0.003044 0.010739
0.592300 -0.031702 0.046510
0.557601 -0.012114 0.075036
0.519490 0.099590 0.063115
0.576037 0.073508 0.049967
0.564929 -0.048249 0.051947
0.511905 0.022406 0.047422
0.513327 0.075589 0.044383
0.565147 0.020714 0.082181
0.546648 0.082795 0.036355
0.583766 -0.040576 0.049361
0.525331 0.055547 0.073741
0.590529 0.028032 0.023639
0.518669 -0.007776 0.051474
0.515876 -0.006456 0.047268
0.540702 -0.050584 0.004644
0.562274 0.084216 0.045687
0.513775 0.059244 0.042120
0.571898 0.045604 0.020976
0.593340 -0.011639 0.007627
0.586372 0.018788 0.014060
0.580789 -0.018372 -0.004314
0.515399 0.045273 0.033239
0.575532 0.069745 0.071733
0.559907 0.086781 0.046240
0.540072 -0.051552 0.036660
0.530569 0.106539 0.049215
0.600387 -0.010565 0.021050
0.560705 -0.000386 0.078931
0.513538 0.093359 0.058721
0.552836 0.064933 0.083227
0.512697 0.073253 0.046498
0.510348 0.018516 0.035327
0.549090 -0.018832 -0.007504
0.568820 -0.032891 0.063933
0.529952 -0.032772 0.049188
0.510676 0.019146 0.041850
0.596072 -0.026765 0.010610
0.576136 0.001046 -0.000644
0.600122 0.030679 0.042606
0.592788 -0.011268 0.007037
0.597348 -0.010890 0.053176
0.577922 0.001620 0.000343
0.599199 0.000605 0.020118
0.553278 -0.059839 0.006039
0.573666 -0.035982 -0.007180
0.546885 0.089376 0.040154
0.556568 0.029821 0.083921
0.533653 0.090149 0.036822
0.533511 -0.005868 0.068083
0.531921 0.049873 0.078043
0.549608 0.089570 0.041501
0.573613 -0.064782 0.022658
0.512254 0.040155 0.042752
0.576505 0.025192 0.011017
0.513244 0.042409 0.037406
0.557540 -0.040760 0.058187
0.547185 0.014879 0.080428
0.528630 0.092105 0.073157
0.512429 0.080736 0.046859
0.576499 0.037463 0.018063
0.512548 0.084484 0.058367
0.542564 0.049333 0.019227
0.544906 0.001251 -0.002149
0.602015 0.019177 0.044192
0.543961 -0.050119 0.043045
0.570657 0.040193 0.081768
0.565815 0.048054 0.020637
0.540381 -0.018781 -0.004854
0.525497 0.018806 0.067836
0.575271 0.007259 0.001658
0.603312 0.000988 0.035383
0.541972 0.062204 0.082446
0.511694 0.086913 0.050833
0.536953 0.094270 0.074148
0.598328 -0.010929 0.051313
0.602919 -0.005950 0.038685
0.547598 0.032764 0.083017
0.542752 -0.038831 0.054741
0.580605 -0.040585 0.052197
0.545076 -0.002292 0.075630
0.541578 0.066976 0.082035
0.550862 0.058202 0.083962
0.532534 0.105660 0.062670
0.513111 0.076472 0.044939
0.546591 0.101198 0.050426
0.589583 0.007708 0.068332
0.523272 0.058841 0.072225
0.521707 0.091127 0.069487
0.545174 -0.036593 -0.005198
0.517092 0.008637 0.015770
0.577123 -0.050957 -0.000060
0.558789 -0.012717 -0.007802
0.596771 0.038882 0.041744
0.547642 -0.053865 0.040731
0.567171 -0.023034 -0.009198
0.517654 0.022652 0.059443
0.590494 -0.001835 0.007724
0.538612 0.029710 0.079500
0.579745 0.064593 0.042428
0.520439 -0.031465 0.019419
0.531790 0.068794 0.029354
0.602282 0.009426 0.045122
0.534208 -0.018849 0.063132
0.570945 0.044984 0.081293
0.566535 -0.029096 0.066587
0.555902 -0.053890 0.044704
0.568026 -0.052568 0.046777
0.573189 0.012077 0.078731
0.547494 0.016824 0.080845
0.575752 -0.060844 0.031752
0.558935 0.024272 0.083284
0.543723 0.038001 0.013575
0.517858 0.047539 0.030434
0.600783 -0.010450 0.022279
0.579689 -0.005265 -0.001431
0.584172 0.044081 0.028147
0.511281 0.001534 0.037882
0.544317 0.043272 0.016032
0.584051 -0.035195 -0.002291
0.521062 0.032065 0.020130
0.556713 0.080698 0.038771
0.510260 0.016210 0.035548
0.534275 -0.032059 0.054745
0.577733 0.074500 0.059096
0.549913 -0.054603 0.041193
0.592436 -0.046767 0.026193
0.587574 0.061032 0.057456
0.576198 -0.044768 -0.003541
0.597810 0.037567 0.043079
0.596550 -0.017909 0.050305
0.539497 -0.045174 0.001228
0.513792 0.039201 0.054372
0.559503 -0.064318 0.029542
0.595242 -0.020133 0.051036
0.552946 -0.036830 0.060401
0.573486 0.015993 0.005057
0.589834 0.021222 0.069311
0.559651 -0.053655 -0.002094
0.593796 -0.029923 0.006748
0.583838 0.046058 0.029302
0.542280 -0.045404 0.047671
0.587995 0.055660 0.044266
0.530915 0.073609 0.078005
0.515834 0.042619 0.031088
0.600105 0.029026 0.053801
0.511577 -0.001276 0.036747
0.596257 0.044418 0.054550
0.531123 -0.014100 0.062927
0.590503 0.000293 0.008578
0.516425 0.047409 0.032437
0.598807 0.006426 0.056304
0.549125 0.061935 0.025486
0.587453 0.036858 0.026360
0.570772 0.035789 0.081808
0.602777 -0.002665 0.029686
0.529492 0.071200 0.030645
0.522916 0.105335 0.049719
0.518019 0.011092 0.057531
0.515292 0.064482 0.039426
0.589812 -0.035183 0.047124
0.553477 -0.023099 0.069803
0.588710 -0.051780 0.014859
0.561982 -0.064587 0.010230
0.536962 0.087421 0.077153
0.568384 0.001992 0.078416
0.586507 -0.023500 -0.001302
0.540163 0.071004 0.081353
0.597638 0.024397 0.060145
0.560073 -0.060815 0.004072
0.551251 0.058581 0.023971
0.513835 0.072055 0.060243
0.577724 -0.059614 0.032034
0.513978 0.059966 0.058414
0.597184 0.039152 0.043280
0.601317 0.008826 0.028237
0.581584 -0.032929 0.057525
0.601158 0.023105 0.051082
0.575105 -0.023045 0.067233
0.520429 0.072342 0.070428
0.552448 -0.006358 -0.005701
0.599476 0.033754 0.053411
0.512669 0.069448 0.055736
0.581961 0.046580 0.027899
0.554292 -0.061173 0.033265
0.554446 -0.045959 0.052711
0.531137 -0.029884 0.001407
0.546417 -0.020161 -0.006936
0.528119 0.045544 0.021633
0.600051 0.004797 0.053251
0.562444 -0.064792 0.010659
0.538713 0.033543 0.080047
0.563115 -0.015301 -0.008378
0.537375 -0.052698 0.011495
0.574595 0.000725 -0.001314
0.593247 0.034531 0.031572
0.518898 0.054121 0.066697
0.538519 -0.052360 0.032876
0.518003 0.035506 0.024618
0.511262 -0.000407 0.034180
0.520128 0.054542 0.068330
0.557000 -0.011828 0.075099
0.542719 0.035186 0.012426
0.597149 0.030098 0.060608
0.592471 -0.037108 0.007040
0.557644 -0.001578 0.078569
0.572452 0.005307 0.077892
0.553548 -0.054772 0.000304
0.544017 -0.056971 0.031537
0.565503 0.085362 0.071328
0.568686 -0.038769 -0.007665
0.554693 0.091015 0.045873
0.513765 0.038923 0.033475
0.514839 -0.018412 0.025962
0.585065 0.064605 0.055687
0.598819 0.020644 0.057930
0.584708 0.032542 0.020840
0.573173 0.016167 0.005037
0.583715 0.060603 0.067957
0.556391 0.043793 0.084663
0.561894 0.033776 0.011722
0.542943 -0.031562 0.060712
0.564319 0.029358 0.083356
0.582743 -0.057184 0.011463
0.582580 0.049627 0.030798
0.584733 0.044702 0.029172
0.571363 0.049052 0.080565
0.589985 -0.046669 0.034246
0.535267 0.048590 0.020420
0.564672 0.079006 0.042241
0.545865 0.017937 0.004067
0.593097 0.019390 0.020868
0.510948 0.005108 0.029657
0.541356 -0.055908 0.029823
0.575711 0.068099 0.041420
0.518912 -0.027196 0.017876
0.561362 -0.034596 0.063638
0.548964 0.026219 0.007398
0.590067 0.041701 0.068104
0.584247 0.030520 0.074078
0.516134 0.037621 0.059619
0.602349 -0.003850 0.043676
0.563502 0.075310 0.077913
0.542590 0.022266 0.080172
0.562727 -0.027862 -0.009506
0.602290 0.001179 0.028058
0.513730 0.097043 0.051720
0.517553 -0.009540 0.013238
0.593307 -0.034941 0.041670
0.596918 -0.025078 0.043527
0.532789 -0.022098 0.060315
0.572199 0.031986 0.012941
0.580075 0.068048 0.048274
0.554707 0.013957 0.081697
0.527140 0.054114 0.075099
0.549036 0.018172 0.081438
0.599731 -0.019976 0.040195
0.540745 -0.046283 0.045246
0.599301 0.033956 0.054019
0.558540 0.000797 0.079252
0.519916 0.016589 0.015100
0.555556 0.054605 0.022452
0.581529 0.056971 0.036099
0.583795 -0.012675 -0.001271
0.554299 0.097162 0.068208
0.527294 -0.013119 0.002927
0.600754 0.028952 0.050497
0.564944 0.087891 0.068864
0.541843 -0.057249 0.026784
0.514368 0.096228 0.058427
0.577865 0.039072 0.078072
0.533623 0.076335 0.031806
0.560132 -0.039238 0.059895
0.512780 0.056952 0.046224
0.591035 0.052090 0.045647
0.556615 -0.053988 0.044776
0.527780 -0.037921 0.038695
0.511663 0.020129 0.028672
0.512647 0.018675 0.049442
0.577978 0.047679 0.076919
0.600917 0.017011 0.052208
0.536127 -0.005670 -0.001227
0.541184 -0.043745 0.048762
0.587889 -0.003468 0.004737
0.561686 0.090771 0.055654
0.560284 -0.035103 0.063206
0.533337 -0.018833 -0.001416
0.590742 0.053162 0.046694
0.573287 0.031376 0.080677
0.522326 0.063439 0.031440
0.563469 -0.061410 0.035668
0.580648 0.061510 0.039859
0.525184 0.069096 0.074604
0.595171 0.043461 0.060029
0.601618 0.023727 0.047168
0.562147 -0.027112 -0.009504
0.532150 0.023254 0.010193
0.579390 -0.034923 -0.005108
0.527633 -0.043979 0.022285
0.597358 -0.024153 0.013407
0.572066 0.067469 0.037043
0.516532 0.041710 0.061031
0.513183 0.082693 0.044889
0.602070 0.012914 0.046025
0.570459 -0.065425 0.025005
0.533825 0.096695 0.039409
0.546623 0.007164 0.078725
0.519301 0.048594 0.029167
0.534260 -0.042846 0.042301
0.585380 -0.034024 -0.001564
0.534306 0.020124 0.008098
0.597744 -0.014417 0.014253
0.584508 0.064893 0.053553
0.564067 0.064669 0.080822
0.570816 0.056380 0.027642
0.530436 0.075576 0.031897
0.525916 -0.040350 0.016480
0.568662 0.052983 0.081236
0.528893 0.063743 0.077039
0.560568 -0.053781 -0.002105
0.591881 -0.042529 0.009430
0.579460 0.072310 0.060053
0.600454 0.031263 0.049643
0.591486 -0.016761 0.058387
0.540655 0.102135 0.046385
0.521144 -0.032595 0.030070
0.595809 0.005732 0.061161
0.527210 0.088442 0.036332
0.598594 0.033844 0.040821
0.531885 -0.049422 0.019748
0.566362 0.042836 0.083204
0.520795 -0.030004 0.034616
0.564885 0.053978 0.082590
0.524882 0.002070 0.006981
0.544644 0.085167 0.078482
0.600128 0.028034 0.054076
0.586876 -0.018864 -0.000419
0.538063 0.091078 0.038072
0.526846 0.105286 0.060655
0.539634 0.102455 0.068368
0.601590 -0.009158 0.025038
0.522222 -0.027812 0.011008
0.539204 -0.050550 0.006027
0.587472 -0.054360 0.019023
0.554314 -0.031125 0.065214
0.523315 -0.013068 0.055235
0.522571 -0.035524 0.027950
0.552884 0.043800 0.016023
0.523213 -0.027880 0.043581
0.538223 -0.017740 -0.003888
0.513656 -0.012740 0.025293
0.561779 0.015401 0.081898
0.544035 0.005247 0.077357
0.539460 0.018767 0.078194
0.564280 -0.064294 0.030532
0.573343 0.015644 0.004842
0.519953 -0.010354 0.052049
0.578868 0.024119 0.011717
0.512864 0.081201 0.045579
0.590303 -0.005988 0.006021
0.518806 0.039992 0.064281
0.570653 0.078067 0.048063
0.516163 -0.015222 0.016794
0.522244 -0.014362 0.053120
0.570089 0.038467 0.015988
0.518520 -0.019617 0.013352
0.559972 -0.064461 0.029386
0.555835 -0.059444 0.003923
0.564133 0.089742 0.060376
0.557903 -0.020530 0.071466
0.555607 -0.062594 0.031239
0.597456 0.022607 0.060441
0.589886 -0.026961 0.053764
0.515829 0.077803 0.040137
0.597220 -0.024127 0.013034
0.521192 0.100352 0.043184
0.513339 0.060224 0.056339
0.571982 0.081482 0.063720
0.516353 -0.009096 0.046595
0.597512 -0.031101 0.034199
0.519887 0.104048 0.054657
0.532042 -0.008627 0.065952
0.600095 0.023515 0.054922
0.541638 -0.034302 -0.004216
0.517691 0.076449 0.037868
0.584848 -0.006257 0.001385
0.593973 0.038316 0.035656
0.541366 0.102083 0.068572
0.568042 0.085986 0.062853
0.598967 -0.015435 0.046935
0.582351 0.013241 0.008188
0.586882 0.010133 0.070898
0.561274 -0.054432 -0.001735
0.519525 0.079498 0.069393
0.571729 0.060565 0.077898
0.564977 0.062081 0.029331
0.525477 -0.039428 0.016103
0.531751 -0.016521 -0.000371
0.577728 -0.005026 -0.002290
0.516365 0.033411 0.059278
0.523690 -0.036478 0.030559
0.517728 -0.016134 0.044201
0.586328 -0.051196 0.034321
0.565307 -0.005913 -0.005509
0.602776 0.005872 0.032773
0.576751 0.024180 0.010591
0.533307 0.041576 0.078082
0.602389 0.011199 0.043727
0.540801 0.075628 0.080802
0.549084 0.093368 0.073892
0.545327 0.044407 0.083307
0.520558 -0.018271 0.047934
0.523339 -0.020100 0.006900
0.533517 -0.019576 -0.001527
0.575291 0.035706 0.079703
0.512326 0.036593 0.037475
0.588629 0.041275 0.030857
0.602005 0.014852 0.036141
0.563657 0.005859 -0.001164
0.578357 -0.053315 0.040558
0.527555 0.011094 0.007813
0.528199 0.098039 0.070150
0.522962 0.010543 0.010665
0.515556 0.097675 0.059527
0.560650 0.016910 0.003286
0.534213 -0.039550 0.046784
0.521000 0.010937 0.061205
0.588230 0.040994 0.070033
0.532497 0.101303 0.041993
0.581606 -0.037488 0.053977
0.525398 0.105399 0.059355
0.594179 -0.018495 0.053797
0.533555 0.106553 0.060722
0.588467 -0.010607 0.002841
0.583288 -0.024662 0.061640
0.536795 -0.018837 0.064945
0.517421 -0.011277 0.013558
0.558147 0.013846 0.081839
0.597139 -0.035345 0.026560
0.552728 0.088830 0.042648
0.512164 0.023164 0.048305
0.587994 -0.053038 0.015756
0.542956 -0.056307 0.031469
0.551734 0.052276 0.084355
0.542656 0.094557 0.073982
0.527783 -0.032125 0.046669
0.520406 0.069956 0.070304
0.600043 -0.023522 0.029036
0.540108 -0.055739 0.013650
0.599131 0.015178 0.056863
0.514619 0.018127 0.053690
0.518008 0.012396 0.015716
0.575116 -0.054138 0.041839
0.589724 0.044858 0.035232
0.555682 -0.065160 0.021535
0.552220 0.094957 0.071986
0.598033 0.033682 0.039129
0.520896 0.067577 0.070652
0.582570 0.067987 0.056181
0.520742 -0.007687 0.054476
0.567417 0.037051 0.082975
0.521810 0.030892 0.019030
0.528674 0.045933 0.021549
0.601678 0.019334 0.048510
0.520030 -0.031549 0.025566
0.598516 0.025007 0.058543
0.577726 0.059372 0.034422
0.539487 0.032016 0.080212
0.512372 -0.003466 0.025170
0.517000 -0.021925 0.035350
0.550794 -0.062077 0.027742
0.518652 0.089000 0.039686
0.514684 0.066466 0.061367
0.526143 0.007163 0.007448
0.514830 0.093739 0.061187
0.513757 -0.007207 0.041322
0.545447 0.100434 0.069400
0.531416 0.046167 0.020552
0.591009 0.019489 0.068134
0.550349 0.013301 0.001504
0.582271 -0.024305 -0.004196
0.520864 -0.020703 0.010017
0.600640 0.004309 0.051633
0.571648 0.081742 0.059485
0.558836 0.078333 0.038050
0.530310 -0.017066 0.060798
0.586911 0.036775 0.071691
0.546736 0.078436 0.080646
0.522642 -0.035168 0.029619
0.511445 0.029780 0.043302
0.522327 -0.008748 0.007513
0.538015 0.106368 0.060803
0.575362 0.061143 0.075322
0.565428 0.018748 0.004757
0.538320 0.094685 0.039775
0.563849 0.069676 0.079598
0.525277 -0.038970 0.030127
0.590497 0.000047 0.066041
0.530392 -0.017265 0.060774
0.516465 0.039407 0.060520
0.531628 0.036027 0.015924
0.515272 0.027148 0.056262
0.595014 -0.041106 0.018112
0.520985 -0.031986 0.018170
0.568273 0.073944 0.075693
0.515342 0.003244 0.017227
0.578377 0.072416 0.065313
0.518166 -0.026595 0.031265
0.550628 0.023973 0.006240
0.510814 0.018516 0.031407
0.581785 -0.037828 -0.003127
0.584470 -0.015468 -0.001488
0.571225 -0.016774 0.071530
0.545019 -0.004240 -0.003794
0.590043 0.043858 0.034785
0.536473 -0.048525 0.036652
0.594940 -0.000810 0.060841
0.596671 -0.030104 0.038708
0.534434 -0.031187 0.055609
0.518761 0.057336 0.032960
0.595628 -0.037079 0.032627
0.597262 0.017586 0.060495
0.516313 -0.000195 0.051280
0.533933 0.058276 0.079656
0.533315 -0.006995 0.067538
0.555262 0.005622 0.080195
0.550550 -0.057009 0.004165
0.558562 0.002602 0.079699
0.542487 -0.004780 -0.003263
0.563794 -0.005846 -0.005642
0.560547 -0.039395 -0.007888
0.551035 0.025411 0.006892
0.602878 0.007713 0.039936
0.538982 -0.049012 0.039392
0.529035 0.009389 0.068990
0.532770 -0.014536 -0.000880
0.577327 -0.048479 -0.001326
0.549797 0.089399 0.041479
0.601868 0.005835 0.028411
0.535823 -0.026492 0.060001
0.510254 0.014298 0.037288
0.546125 0.103431 0.058829
0.525842 0.028341 0.015297
0.564789 0.076848 0.076681
0.530578 0.019656 0.072531
0.592253 0.020567 0.020660
0.546183 0.027708 0.082102
0.572405 -0.036602 0.060345
0.601839 -0.009007 0.042696
0.549060 -0.010806 0.074011
0.599245 0.032436 0.055287
0.581848 -0.009083 0.069915
0.600058 -0.009277 0.020125
0.518524 0.019955 0.060153
0.601003 0.018929 0.034649
0.565722 0.084593 0.071792
0.570498 -0.065808 0.022571
0.530157 0.081385 0.076715
0.587887 -0.030545 -0.000054
0.534054 -0.043270 0.041377
0.521896 -0.026987 0.042005
0.578595 0.060928 0.036760
0.515805 0.013380 0.054849
0.518715 -0.006896 0.051986
0.527078 0.091527 0.072654
0.511085 0.015718 0.043933
0.560601 -0.040916 -0.007490
0.549710 0.051615 0.084198
0.543282 0.104215 0.064420
0.555307 -0.049795 -0.003489
0.526029 -0.027395 0.005696
0.550418 0.069174 0.082624
0.532588 -0.040759 0.004592
0.517567 0.012826 0.057344
0.548822 0.088147 0.076826
0.602108 0.005852 0.046484
0.576861 0.051054 0.076985
0.585772 -0.019853 0.062384
0.548407 0.023251 0.006088
0.590703 -0.011057 0.004800
0.537586 0.104509 0.065792
0.528998 -0.006751 0.002392
0.569695 -0.041362 -0.006741
0.573038 0.045681 0.080172
0.567146 0.037689 0.014763
0.558177 0.039271 0.014121
0.533311 0.059821 0.079388
0.528420 -0.043988 0.027880
0.512215 0.038266 0.046070
0.518269 -0.017401 0.044262
0.590285 -0.050766 0.022883
0.564727 0.050932 0.022151
0.563311 -0.004563 -0.005240
0.580451 0.052283 0.030906
0.586442 0.044403 0.071080
0.510786 0.004524 0.036601
0.510368 0.010156 0.036976
0.566553 0.077532 0.075346
0.561721 0.032802 0.011192
0.516726 0.064407 0.064898
0.532758 0.055373 0.078923
0.513968 0.089174 0.044555
0.577593 0.073589 0.065286
0.583562 0.026599 0.016306
0.595393 0.036411 0.036348
0.579072 -0.053841 0.039332
0.572542 -0.059019 0.036832
0.590984 -0.010516 0.005241
0.523070 0.104899 0.048120
0.583707 0.042108 0.073727
0.602608 0.011106 0.040139
0.524796 0.027956 0.068976
0.581782 -0.042265 -0.001639
0.552494 0.095443 0.048664
0.536680 -0.048060 0.006012
0.546252 0.002420 0.077430
0.525488 -0.040810 0.021834
0.528381 -0.021782 0.002294
0.556633 0.054509 0.022599
0.555664 -0.061225 0.033971
0.558304 -0.065779 0.023157
0.558199 0.064061 0.028614
0.596480 0.019013 0.061749
0.545176 -0.043577 0.051528
0.557341 -0.042052 -0.006899
0.593124 -0.045153 0.016681
0.598757 0.012340 0.057298
0.592766 0.022366 0.022392
0.601176 0.012146 0.029954
0.579763 -0.016743 0.068040
0.598456 -0.030400 0.024240
0.563142 -0.061311 0.035819
0.597521 0.021307 0.028091
0.580183 -0.006732 0.071646
0.575973 0.025224 0.079064
0.575444 -0.048766 -0.002045
0.584290 0.042785 0.027324
0.559603 0.019343 0.004305
0.575121 -0.002784 -0.002495
0.546216 0.088218 0.077091
0.602760 0.006923 0.042128
0.580579 -0.024591 0.063563
0.597310 -0.026296 0.013815
0.544911 0.008904 0.078541
0.524718 -0.036088 0.034764
0.596584 0.019309 0.025250
0.547360 0.030953 0.009765
0.568942 0.066242 0.033936
0.541914 0.087760 0.037600
0.549841 0.049958 0.019181
0.524701 -0.029762 0.008284
0.525689 -0.038811 0.031919
0.571740 -0.041363 0.056852
0.545717 -0.060165 0.024349
0.530587 0.063942 0.027962
0.511527 0.005136 0.026465
0.553675 -0.026603 -0.008684
0.576948 -0.034173 0.059802
0.586923 -0.026743 0.057170
0.525681 0.103252 0.063673
0.534688 -0.047512 0.007827
0.510931 0.008863 0.028966
0.568751 -0.043572 0.055859
0.533613 -0.023037 0.060449
