ply
format ascii 1.0
element vertex 1024
property float x
property float y
property float z
end_header
0.547655 0.009968 0.013958
0.582113 0.086519 0.027699
0.583577 0.091153 0.029480
0.599274 -0.049352 0.004906
0.621468 0.062843 0.074464
0.588250 0.040577 0.001601
0.599610 -0.039956 -0.001530
0.586461 -0.006151 0.077024
0.608689 0.087518 0.025181
0.609752 0.040137 0.014434
0.606976 -0.030342 0.058380
0.579131 -0.060261 0.035199
0.608313 0.054092 0.083691
0.624540 0.028615 0.073611
0.618425 -0.017613 0.057669
0.618576 0.033790 0.023190
0.591378 0.059247 0.010754
0.606034 -0.048954 0.013624
0.554705 -0.021088 -0.004006
0.622809 -0.018097 0.032402
0.620521 0.028023 0.078832
0.618149 0.103894 0.050129
0.573228 -0.052981 -0.001297
0.575908 0.083794 0.053062
0.598386 0.105586 0.027906
0.553042 0.034362 0.029531
0.549246 -0.028830 0.008624
0.548584 -0.016515 0.044305
0.556868 0.029554 0.058458
0.547302 -0.028543 0.018376
0.618020 0.043619 0.025443
0.625608 -0.004468 0.037742
0.615352 0.069113 0.079203
0.592464 0.082757 0.074188
0.558595 -0.013040 0.061042
0.572780 0.029557 0.076617
0.621983 0.041706 0.031785
0.619627 -0.028740 0.028465
0.546978 -0.027055 0.028832
0.621609 0.071416 0.071170
0.599784 -0.055117 0.034266
0.574972 -0.032098 0.061547
0.549339 0.006479 0.050167
0.607548 -0.048082 0.035276
0.603775 -0.049605 0.010575
0.620631 -0.024799 0.039872
0.619686 0.055978 0.078398
0.554484 0.012011 0.059483
0.594156 -0.038721 -0.005330
0.594782 0.101896 0.026883
0.597562 0.100417 0.025332
0.608201 -0.034175 0.053166
0.571842 0.004109 0.074869
0.559376 0.048289 0.028001
0.610519 -0.040829 0.041708
0.563084 0.025471 0.068795
0.556774 -0.047603 0.031880
0.566311 -0.021877 -0.011941
0.546817 -0.009467 0.042892
0.558154 0.016370 -0.001031
0.579703 -0.008974 0.074701
0.603899 0.031679 0.084967
0.621858 0.051221 0.076746
0.592966 -0.021142 -0.009823
0.585945 -0.042424 0.055437
0.603591 -0.043393 0.003921
0.587490 -0.052178 -0.000651
0.601578 -0.055831 0.020965
0.600502 -0.056116 0.030025
0.590799 -0.026365 0.067334
0.608962 0.098290 0.068910
0.591475 -0.023528 0.069090
0.620242 0.001372 0.068716
0.618228 0.020553 0.019140
0.622359 0.080201 0.064387
0.554022 -0.038757 0.003818
0.581688 0.057839 0.010256
0.572788 0.072624 0.059385
0.594020 -0.059407 0.014216
0.607276 -0.014169 0.070137
0.576608 0.066081 0.069937
0.622688 -0.003005 0.023366
0.572163 0.067851 0.062468
0.623085 0.060702 0.072239
0.616038 0.093269 0.033042
0.628551 0.027410 0.045705
0.621966 0.073847 0.042095
0.598239 -0.035878 -0.004072
0.624340 0.019984 0.072045
0.578996 0.057980 0.075733
0.616795 0.063749 0.079364
0.620405 -0.026176 0.028616
0.550418 -0.016390 0.048939
0.623494 -0.000928 0.061837
0.561128 -0.044186 -0.001066
0.596783 0.063714 0.082011
0.549200 -0.035003 0.026615
0.618210 -0.013494 0.061318
0.608649 -0.037915 0.006090
0.626848 0.054660 0.048574
0.570028 -0.060172 0.008663
0.548394 0.010506 0.046244
0.570408 -0.014158 -0.013321
0.556059 0.014804 0.000451
0.583536 0.031419 -0.003117
0.546962 -0.028179 0.025040
0.591167 -0.020336 0.070983
0.613869 0.000769 0.074174
0.568780 0.068370 0.032259
0.544164 -0.000565 0.030150
0.545904 -0.016338 0.035845
0.599546 -0.041323 0.052441
0.605890 -0.021063 -0.001460
0.560057 -0.046578 0.039187
0.603429 0.026940 0.004851
0.625883 0.027727 0.035191
0.610789 -0.046444 0.023208
0.583442 0.015954 -0.008320
0.566602 -0.002819 -0.011824
0.545001 0.003688 0.034550
0.550368 -0.008004 0.052044
0.556309 0.001637 -0.004820
0.558015 0.044333 0.047177
0.552035 0.004504 0.055904
0.561877 0.002503 0.068026
0.569249 0.066738 0.028491
0.614150 0.023599 0.014188
0.622122 0.047082 0.077078
0.543981 -0.010704 0.028616
0.567750 0.060683 0.024043
0.579951 -0.046542 -0.006128
0.570670 0.027099 -0.004102
0.560743 0.050538 0.049495
0.628971 0.029708 0.050257
0.549951 -0.017686 0.047074
0.616299 -0.036903 0.032587
0.611959 -0.030007 0.006877
0.563083 0.058075 0.044927
0.551748 -0.028285 0.043221
0.628612 0.040549 0.049558
0.600838 -0.045229 0.002678
0.562315 -0.053330 0.006539
0.613547 -0.008815 0.068890
0.612587 0.054614 0.021899
0.596781 -0.031212 -0.006299
0.616318 0.076947 0.031864
0.605729 0.097005 0.069721
0.622106 0.052775 0.076088
0.614654 0.108801 0.040283
0.625708 -0.003085 0.037097
0.563825 -0.058394 0.012869
0.567156 -0.057992 0.031972
0.568305 -0.060995 0.012329
0.576856 -0.021368 -0.013610
0.553889 -0.040958 0.006243
0.586097 0.006816 0.080148
0.621871 0.022414 0.025435
0.608404 0.111358 0.051418
0.553140 0.020071 0.054951
0.575696 0.085120 0.041434
0.562061 0.024545 -0.000546
0.545340 0.001688 0.037786
0.552340 -0.042105 0.027537
0.576605 -0.010096 -0.013717
0.596935 0.085238 0.074790
0.627284 0.028543 0.039620
0.549118 0.004469 0.049997
0.602084 -0.048938 0.041783
0.598019 0.069191 0.081028
0.552381 -0.007956 -0.001631
0.563509 -0.002367 -0.010607
0.577559 -0.039975 0.056464
0.608266 0.079783 0.023698
0.615252 -0.032573 0.014578
0.549872 -0.037758 0.022384
0.548514 0.013465 0.013791
0.569554 0.052742 0.067921
0.551201 -0.037649 0.010286
0.559251 0.049201 0.041959
0.569623 -0.057861 0.034495
0.626293 0.064038 0.059216
0.545580 -0.003814 0.014869
0.549168 -0.035283 0.025360
0.614462 -0.025595 0.055458
0.622481 0.068772 0.041763
0.559637 0.046811 0.023404
0.622091 0.092575 0.053416
0.614112 -0.041333 0.030811
0.557351 0.035996 0.013326
0.612244 0.096823 0.029085
0.559343 -0.043460 0.042006
0.628830 0.029697 0.057739
0.625173 -0.007328 0.049302
0.557454 0.045369 0.037005
0.580795 -0.008561 -0.013380
0.559091 -0.019895 -0.008241
0.551478 0.018661 0.009817
0.610706 0.049178 0.083865
0.616455 0.010540 0.014308
0.625759 0.032737 0.036447
0.619501 -0.008604 0.016506
0.607456 -0.039244 0.005400
0.571427 -0.023561 0.065360
0.611530 -0.026093 0.005175
0.569800 -0.002976 0.072446
0.570341 -0.052831 -0.000308
0.586646 0.063687 0.078854
0.592790 -0.006806 0.077161
0.592978 0.034764 0.084321
0.549826 -0.022004 0.043662
0.554695 -0.002797 0.059440
0.580756 0.011365 -0.009979
0.608919 0.098845 0.068496
0.605162 -0.016498 -0.002228
0.556206 -0.050486 0.015639
0.592577 -0.056467 0.038714
0.595864 0.061567 0.082275
0.568503 0.018538 0.074019
0.589085 0.072484 0.016640
0.602423 0.035095 0.006774
0.602201 -0.020058 -0.004485
0.602924 0.104577 0.027118
0.600862 -0.036177 -0.002242
0.547024 0.015313 0.026153
0.594186 0.101207 0.062246
0.608136 0.111260 0.051892
0.619006 -0.019838 0.016909
0.572912 0.016026 -0.008700
0.623600 0.040518 0.034517
0.575374 -0.029764 0.063215
0.578660 0.067304 0.017713
0.557913 -0.017636 0.058777
0.566773 0.042823 0.068487
0.595363 -0.013918 -0.008871
0.574112 0.014431 0.077107
0.608408 0.023556 0.083768
0.598913 -0.044349 0.049740
0.619077 0.005075 0.017290
0.625367 0.006188 0.062321
0.592553 0.084335 0.020534
0.627365 0.011893 0.057283
0.623801 0.037614 0.033866
0.620796 -0.009757 0.060239
0.563776 0.013180 0.070469
0.617245 -0.024100 0.052622
0.581524 0.093967 0.052936
0.571446 -0.055011 0.001101
0.559379 0.049863 0.034776
0.603480 -0.006087 -0.002956
0.598789 0.006292 -0.004235
0.615161 0.105258 0.056169
0.612805 0.053109 0.021673
0.593132 0.069382 0.015233
0.589199 0.021407 -0.005044
0.574265 -0.048783 -0.004476
0.580448 0.008799 0.079027
0.573038 -0.046696 0.049346
0.562203 -0.031369 0.055502
0.576636 -0.051122 0.046303
0.573992 -0.015063 -0.013768
0.585372 0.101987 0.044773
0.574563 0.036004 -0.001024
0.553922 -0.012660 0.056086
0.627384 0.052625 0.061916
0.568893 0.019388 0.074277
0.548388 -0.012675 0.005991
0.556318 0.014971 0.061976
0.582791 -0.005865 0.076482
0.590932 0.006020 0.080694
0.616880 0.098997 0.061486
0.589865 0.038206 0.001120
0.603182 0.090652 0.073455
0.603529 -0.002512 0.077314
0.588851 -0.058787 0.007360
0.557183 0.041203 0.048807
0.551467 -0.011364 0.053003
0.579572 0.082683 0.027769
0.549566 0.013265 0.048656
0.592141 0.038516 0.002095
0.608550 0.016643 0.082422
0.608195 0.050667 0.084090
0.616981 0.094033 0.066106
0.547870 -0.028353 0.014310
0.597747 -0.015711 -0.007548
0.555975 0.009654 -0.001704
0.622987 0.051583 0.075000
0.588967 -0.020827 -0.011417
0.568081 0.060210 0.060758
0.566489 0.008164 -0.009446
0.577465 -0.037908 -0.010093
0.588825 0.105993 0.038238
0.572141 -0.062163 0.028020
0.605509 -0.045368 0.042633
0.620387 0.087694 0.064402
0.628879 0.032648 0.057954
0.615358 -0.023554 0.010386
0.619394 -0.026511 0.022668
0.586453 0.003492 0.079562
0.616398 0.061495 0.028326
0.573781 -0.040277 0.055122
0.546648 0.005284 0.042259
0.612158 0.036429 0.084123
0.573456 0.016120 -0.008744
0.568343 -0.042638 0.050709
0.565492 -0.043393 -0.004676
0.563594 0.003455 -0.009507
0.594342 0.033232 0.001137
0.591724 0.048753 0.006115
0.561164 -0.025652 0.058113
0.625365 0.024251 0.071152
0.618139 0.072749 0.033780
0.625104 0.041997 0.038276
0.604262 -0.024348 0.065235
0.573892 0.030140 0.077334
0.590605 0.037251 0.001006
0.573518 0.075107 0.058410
0.550250 -0.038059 0.016369
0.576787 -0.057123 0.039427
0.577050 0.073087 0.023090
0.580721 0.041036 0.080511
0.572936 0.074786 0.057314
0.566119 -0.053697 0.003132
0.582427 -0.064357 0.018922
0.615278 -0.036437 0.038065
0.545436 -0.017581 0.018053
0.576587 0.047087 0.077029
0.594643 0.017553 -0.003736
0.613629 0.072891 0.027612
0.563969 -0.043419 -0.003774
0.622641 0.088393 0.049215
0.580138 -0.044762 -0.007020
0.588185 0.000551 0.079139
0.628378 0.023507 0.058828
0.620885 0.061528 0.075701
0.574655 0.064381 0.068538
0.607251 0.021368 0.006296
0.572444 -0.008105 0.072350
0.566117 -0.060106 0.013175
0.548734 0.018457 0.018561
0.602792 -0.005956 0.076049
0.600372 -0.036132 0.057078
0.609294 -0.009410 0.071501
0.546930 -0.023202 0.033743
0.560439 -0.037924 0.048888
0.604946 -0.027795 -0.001404
0.606272 0.100484 0.067178
0.557318 0.017693 0.000441
0.612950 0.109744 0.050027
0.589607 0.038251 0.083681
0.578975 0.064179 0.015437
0.566285 0.062305 0.053437
0.597507 -0.012305 0.074463
0.573848 0.017952 -0.008200
0.593050 -0.003954 0.078141
0.568810 -0.047828 0.046054
0.573130 0.041254 0.002254
0.566958 -0.060720 0.013613
0.620169 -0.020652 0.050352
0.574019 0.030638 -0.003415
0.572458 -0.057966 0.003812
0.623471 -0.016165 0.036320
0.584799 -0.038100 0.058918
0.555874 0.001372 0.061542
0.595572 0.111897 0.044792
0.625332 0.060091 0.066729
0.556359 -0.038122 0.043306
0.561832 0.046061 0.016713
0.591171 0.090082 0.023121
0.572598 0.027449 0.076575
0.620176 0.078752 0.039153
0.573369 -0.041015 0.054383
0.570658 0.073976 0.050092
0.627525 0.008527 0.049189
0.548425 0.018047 0.019636
0.549926 0.019535 0.014865
0.569076 -0.039420 -0.008332
0.624825 0.074729 0.056343
0.584646 0.075414 0.019281
0.626471 0.031676 0.037962
0.619151 -0.030260 0.032957
0.626171 0.000429 0.037916
0.615326 -0.032805 0.014949
0.584060 0.060724 0.011501
0.609888 0.062038 0.082407
0.624315 0.078155 0.055643
0.548712 -0.032712 0.015473
0.614332 0.109475 0.042253
0.615854 -0.029622 0.047781
0.561283 0.010800 0.068191
0.591465 0.108385 0.036770
0.586511 0.071199 0.076085
0.588327 0.088863 0.023987
0.566290 0.040740 0.005959
0.597524 -0.019018 -0.007596
0.559142 -0.024139 0.057141
0.544253 -0.009099 0.021359
0.562837 0.042599 0.011220
0.611447 -0.043776 0.034731
0.619944 -0.013220 0.017651
0.623208 0.010563 0.070069
0.619356 -0.029818 0.032215
0.594263 -0.021209 0.070241
0.620730 -0.013347 0.019615
0.621280 -0.019744 0.047963
0.571336 -0.052912 -0.000677
0.603872 -0.045129 0.005675
0.621303 0.085115 0.043160
0.570816 0.039644 0.073810
0.615573 0.091241 0.032370
0.548404 0.016453 0.041934
0.569256 0.067009 0.056698
0.622256 0.084304 0.045935
0.571263 -0.062931 0.024097
0.573772 0.059985 0.015993
0.625155 0.009843 0.030303
0.578764 0.060235 0.012885
0.551759 -0.026849 0.044479
0.559688 0.030518 0.063022
0.591339 0.103485 0.057110
0.591687 0.095456 0.025193
0.627002 0.021909 0.037460
0.586630 0.101199 0.034570
0.611345 0.048251 0.018626
0.601738 0.001294 -0.003218
0.617651 0.000219 0.070781
0.547935 -0.031873 0.022999
0.585989 0.041385 0.082610
0.624159 0.036549 0.034217
0.590575 -0.014281 -0.011082
0.555969 0.041215 0.040305
0.621120 -0.006993 0.019768
0.614710 -0.017900 0.062230
0.578934 0.073801 0.068217
0.591906 0.101969 0.028658
0.596943 0.101643 0.063447
0.595981 -0.022124 0.069438
0.608986 -0.022889 0.063471
0.567316 0.046168 0.067882
0.545720 -0.019031 0.032788
0.569692 -0.038896 0.054539
0.552718 0.015774 0.055514
0.581330 0.077964 0.068357
0.581480 0.066550 0.074405
0.606910 0.110844 0.053598
0.591142 0.091063 0.023538
0.620784 0.097662 0.052523
0.589563 0.001735 0.079588
0.571961 0.077411 0.048122
0.588822 0.105075 0.049796
0.584822 -0.031809 -0.010930
0.577404 0.024721 -0.006099
0.594173 -0.057921 0.011074
0.606736 -0.018427 -0.000789
0.625774 0.018943 0.068500
0.549736 -0.037324 0.023017
0.607583 -0.031485 0.001935
0.558176 0.046286 0.029527
0.622247 -0.020536 0.032673
0.562398 0.046991 0.059074
0.627743 0.049038 0.062031
0.557175 -0.010242 -0.007103
0.608286 0.072208 0.022372
0.612369 -0.008015 0.070224
0.545351 0.003930 0.036702
0.588853 0.045230 0.083136
0.558020 -0.019226 0.058271
0.552389 -0.040329 0.031259
0.559252 -0.044432 0.040699
0.575327 0.015519 0.077769
0.560598 0.032125 0.063821
0.569013 -0.058521 0.032944
0.569883 0.033653 0.074008
0.609828 0.036759 0.013394
0.588415 0.060867 0.011256
0.615407 -0.029433 0.048983
0.619452 -0.020453 0.018373
0.628898 0.026227 0.050955
0.556810 0.026391 0.005996
0.611336 0.041533 0.016413
0.607683 -0.048234 0.016077
0.588918 0.043829 0.003172
0.623852 0.072778 0.047049
0.564947 0.038865 0.005733
0.543888 -0.009267 0.028424
0.621315 0.062203 0.074889
0.550483 -0.038917 0.024697
0.589712 -0.055610 0.041340
0.621632 0.045717 0.077887
0.598819 -0.052993 0.008752
0.624943 0.017634 0.069979
0.592007 -0.027471 0.066520
0.573121 -0.035009 -0.010897
0.567167 0.061075 0.025662
0.558618 -0.054347 0.020474
0.589644 -0.028589 0.065922
0.549551 -0.020836 0.043834
0.622322 0.002066 0.022508
0.595884 0.013368 0.082478
0.583305 -0.052471 -0.001921
0.610817 -0.046273 0.029890
0.628979 0.028332 0.051913
0.546444 -0.026016 0.026147
0.627232 0.037953 0.067333
0.580538 0.087725 0.059523
0.584309 0.057768 0.009750
0.615554 0.011692 0.078328
0.556277 0.023598 0.004906
0.620432 0.026803 0.078728
0.545954 0.009386 0.035293
0.622796 -0.018531 0.033641
0.586250 0.061882 0.011854
0.601922 -0.006414 0.076088
0.617879 0.057333 0.029388
0.628392 0.018119 0.050610
0.583832 0.037582 0.082066
0.616021 -0.022054 0.057022
0.607290 0.075633 0.022254
0.608711 0.112160 0.037618
0.553779 0.035820 0.026605
0.589840 0.078561 0.018962
0.581151 -0.039761 0.057300
0.551025 -0.007245 0.053339
0.591810 -0.060698 0.029627
0.571767 -0.060107 0.007317
0.591692 0.096474 0.064731
0.567513 0.009102 0.073007
0.614446 -0.039187 0.020102
0.582889 0.081913 0.067536
0.607857 0.010337 0.080912
0.576228 -0.057383 0.001981
0.618432 0.053130 0.029088
0.580060 0.090413 0.034983
0.570671 -0.058335 0.034586
0.575212 0.079618 0.031906
0.625229 0.019327 0.069969
0.621755 -0.011891 0.056686
0.570882 -0.031620 0.060336
0.614895 0.005531 0.076057
0.565930 -0.017946 0.065073
0.578063 0.089861 0.046942
0.604736 -0.009546 -0.002267
0.617771 0.015934 0.078329
0.580782 0.087717 0.030435
0.628939 0.029343 0.049736
0.554717 -0.048372 0.020471
0.550587 -0.031069 0.037593
0.575517 -0.017994 -0.013800
0.594868 -0.018766 -0.009050
0.599092 0.052352 0.010761
0.603731 -0.009078 0.074314
0.571687 -0.060402 0.007906
0.564045 0.050337 0.060118
0.608456 -0.022795 0.001130
0.561799 -0.038110 -0.005538
0.619242 -0.012921 0.016120
0.627621 0.014588 0.057896
0.570273 0.074190 0.040457
0.549655 -0.033527 0.011494
0.586024 0.049217 0.005156
0.558081 0.023907 0.002883
0.570246 0.074341 0.042539
0.555609 0.001913 0.061252
0.608501 0.034570 0.011472
0.610127 0.015535 0.081792
0.606228 -0.051714 0.028218
0.559023 0.011140 0.065805
0.571996 0.009900 0.075669
0.577529 -0.050012 -0.004123
0.551547 -0.040348 0.013276
0.611776 0.079985 0.078052
0.599707 -0.045276 0.001746
0.623448 0.084135 0.052688
0.579733 0.056127 0.009712
0.556276 0.005006 -0.003751
0.622952 0.049545 0.075480
0.608054 0.006079 0.079423
0.627902 0.014479 0.044041
0.622228 0.002358 0.022320
0.612649 0.049538 0.083368
0.577246 0.051816 0.076317
0.620027 0.024194 0.022858
0.545840 -0.011569 0.038518
0.575699 0.035479 0.078215
0.587500 -0.063271 0.022476
0.629080 0.032307 0.052780
0.628930 0.026726 0.052181
0.591589 0.048339 0.083445
0.583350 -0.052554 0.045927
0.605755 0.051316 0.014807
0.625791 0.068377 0.054473
0.606894 0.016485 0.004569
0.626468 -0.000679 0.047436
0.563402 0.027737 0.000055
0.551484 -0.038577 0.010446
0.627629 0.053697 0.059228
0.559310 -0.006231 -0.008615
0.553878 -0.022154 0.051948
0.610919 0.022848 0.010280
0.607011 0.030458 0.084719
0.594196 0.025005 0.083936
0.564623 0.059812 0.030900
0.606648 -0.019701 0.067215
0.601505 0.073838 0.080316
0.560712 0.038922 0.061007
0.602618 -0.033585 -0.001820
0.618636 -0.018913 0.056040
0.597689 0.109855 0.032110
0.570134 0.008424 -0.010406
0.586745 -0.042431 0.055399
0.592772 -0.035293 0.060546
0.544567 0.001189 0.033185
0.624733 0.018099 0.030040
0.626117 0.053152 0.067193
0.563085 0.026482 0.068610
0.570228 0.072210 0.052059
0.561860 0.032685 0.065445
0.599086 -0.033015 0.060541
0.546536 -0.026592 0.023203
0.617393 0.016326 0.078710
0.560347 0.012899 0.067240
0.583529 0.030027 -0.003653
0.620017 0.047371 0.030071
0.628880 0.040265 0.057226
0.618174 -0.028669 0.020001
0.612684 0.094614 0.070327
0.580616 -0.001540 -0.012611
0.617929 0.010577 0.076215
0.614198 0.081848 0.076197
0.552964 -0.040637 0.008245
0.593590 0.110376 0.037494
0.592116 0.036204 0.084195
0.611695 0.078335 0.026505
0.553077 -0.026383 0.047641
0.580387 0.074854 0.021435
0.626477 0.033791 0.069782
0.552735 -0.040732 0.031751
0.546727 -0.014844 0.011249
0.571958 0.039994 0.001968
0.559192 0.042987 0.018171
0.597194 0.043234 0.084654
0.611011 0.000700 0.075865
0.592309 -0.000275 -0.009087
0.545935 -0.023838 0.026527
0.621643 -0.021380 0.028514
0.621676 0.082851 0.064514
0.553224 -0.022178 0.050863
0.584120 -0.010237 -0.012930
0.626196 0.035080 0.070550
0.583859 0.032379 0.082148
0.598511 0.072560 0.017185
0.558785 -0.052345 0.028068
0.628321 0.045402 0.060195
0.576822 0.085800 0.052648
0.615949 0.027735 0.082066
0.617872 0.004960 0.073463
0.602636 -0.032672 -0.002075
0.597383 0.028853 0.001334
0.606665 -0.046447 0.011027
0.553596 -0.023653 -0.002213
0.611843 -0.041519 0.038055
0.627734 0.053884 0.053501
0.566055 0.063433 0.032827
0.594330 0.096325 0.024459
0.613435 -0.004736 0.071290
0.567570 -0.061467 0.023792
0.617379 0.097330 0.035408
0.556518 0.023814 0.060238
0.590603 0.060802 0.011360
0.546057 -0.021277 0.017366
0.608645 -0.047696 0.017643
0.598420 0.024696 0.000644
0.616438 -0.033203 0.040374
0.624054 0.049569 0.073548
0.594757 0.065151 0.081321
0.627139 0.042885 0.043931
0.609298 0.079205 0.024447
0.557889 -0.021061 -0.007180
0.591486 0.053114 0.082824
0.574944 0.080040 0.056059
0.583813 -0.053010 -0.001368
0.601697 -0.055522 0.028865
0.620700 0.059740 0.076388
0.619420 0.012497 0.075716
0.584544 -0.022285 0.069632
0.620059 0.100337 0.045833
0.550559 -0.009130 0.001276
0.596772 -0.004499 0.077783
0.611050 0.092702 0.027670
0.624937 0.013579 0.068210
0.555034 -0.030869 -0.002253
0.583793 0.045982 0.081374
0.548873 -0.005728 0.004893
0.588835 0.056045 0.081611
0.584264 0.013469 -0.008821
0.594483 0.091241 0.070270
0.614904 0.010897 0.078407
0.616455 -0.035206 0.021689
0.617992 0.090243 0.036246
0.604448 0.112743 0.048413
0.606208 0.106060 0.061951
0.614871 -0.028086 0.051781
0.565221 -0.009865 -0.011835
0.567328 -0.038374 -0.008223
0.587222 -0.061375 0.031631
0.550317 -0.015523 0.049199
0.546347 0.012199 0.024657
0.551262 -0.012779 0.000135
0.616879 0.037955 0.021903
0.545967 -0.003026 0.013552
0.589179 -0.012161 -0.011559
0.558794 0.010250 -0.004174
0.568038 0.024435 0.073448
0.554799 0.023086 0.057278
0.558238 0.036961 0.057008
0.560968 -0.056348 0.024252
0.622190 0.001788 0.022203
0.547575 0.015374 0.020506
0.625646 0.007976 0.032171
0.592967 0.095358 0.024563
0.621087 -0.024375 0.030646
0.564617 0.061633 0.036485
0.625459 0.066081 0.062545
0.564269 0.005032 -0.009416
0.546328 0.011120 0.022180
0.624823 0.025309 0.031976
0.565616 -0.000603 -0.011188
0.558930 -0.054724 0.020631
0.574396 -0.054255 -0.000610
0.619793 0.081890 0.069501
0.554023 -0.006757 0.057781
0.556049 -0.050661 0.019554
0.606669 0.008962 0.080759
0.581269 -0.031281 0.063605
0.596405 0.089834 0.021800
0.611998 -0.041517 0.037688
0.609134 0.107241 0.030825
0.576211 0.079669 0.029962
0.618454 0.071910 0.075795
0.549309 0.016906 0.014266
0.595803 -0.042820 0.052942
0.603196 0.113602 0.039268
0.547417 0.014308 0.038980
0.612108 0.007248 0.078364
0.583193 -0.027971 -0.012084
0.598255 0.087292 0.021054
0.620417 -0.023088 0.023631
0.627475 0.018400 0.062018
0.606963 0.104974 0.063147
0.618811 0.077408 0.073305
0.596784 -0.027259 0.065851
0.624496 -0.003741 0.030092
0.587551 0.005653 0.080188
0.583697 -0.053814 -0.000736
0.581717 0.096158 0.046635
0.599199 0.057387 0.083341
0.625370 0.050876 0.042361
0.558309 -0.020154 -0.007609
0.583665 -0.007283 -0.012800
0.618887 -0.019522 0.016514
0.562866 0.056035 0.030168
0.549885 -0.013529 0.002687
0.548090 0.009714 0.012281
0.578788 -0.054680 0.043006
0.612757 -0.015168 0.006079
0.618413 -0.014071 0.060623
0.625059 0.008768 0.029985
0.565934 0.059288 0.056385
0.614172 -0.006869 0.069492
0.585931 0.085433 0.068200
0.604114 0.095113 0.070793
0.571568 0.057235 0.068378
0.546491 0.007404 0.016596
0.572269 -0.004739 -0.013118
0.583927 -0.010981 -0.013011
0.587854 0.034911 0.083312
0.575246 0.055720 0.011502
0.628588 0.022351 0.055423
0.620382 -0.005286 0.064017
0.614987 -0.003366 0.010070
0.569023 -0.051331 0.042395
0.589918 0.020100 -0.005171
0.595874 0.108070 0.055423
0.585079 0.022434 -0.005987
0.594376 0.111301 0.039295
0.615957 0.008483 0.013177
0.544948 -0.017429 0.021230
0.553300 0.035117 0.031262
0.604352 0.031154 0.084920
0.617295 0.102470 0.037211
0.570775 -0.036322 0.056982
0.604405 0.113226 0.046525
0.588128 -0.026067 0.067591
0.609171 0.110686 0.052894
0.619581 -0.028172 0.026388
0.573563 -0.024437 0.065758
0.545846 0.003135 0.039719
0.568988 0.007076 -0.010501
0.565060 0.024801 0.070877
0.598100 -0.047992 0.046274
0.623108 0.082465 0.048672
0.561833 0.046786 0.017660
0.590194 -0.061231 0.029672
0.551268 -0.039298 0.012651
0.578812 0.061174 0.074384
0.600698 0.099169 0.066970
0.544775 -0.008098 0.018167
0.576929 0.087808 0.046482
0.604297 -0.038710 0.051732
0.560647 -0.041503 -0.002617
0.606160 0.001027 0.078005
0.557545 0.042552 0.022567
0.579882 0.027486 -0.005008
0.565836 -0.050220 0.041198
0.628391 0.025882 0.059969
0.560719 -0.055079 0.011844
0.608000 0.094564 0.071560
0.625541 0.013322 0.066546
0.575829 0.085626 0.046707
0.622808 0.053715 0.074775
0.547918 0.017827 0.023243
0.581687 0.040499 0.081016
0.589461 0.042228 0.002636
0.599679 0.052404 0.011105
0.614894 0.001488 0.073875
0.553138 -0.008732 -0.002700
0.609678 0.010082 0.080339
0.628762 0.043723 0.053898
0.563657 0.048708 0.060508
0.562719 0.018739 -0.003716
0.550133 0.003115 0.004239
0.555475 -0.048748 0.013926
0.604021 0.097959 0.024890
0.577102 0.085499 0.035554
0.587305 0.017328 -0.006919
0.590950 0.108659 0.039519
0.551866 0.018547 0.008892
0.608146 0.101836 0.066116
0.602091 0.051089 0.012115
0.596456 0.011071 0.082072
0.608895 0.009843 0.004775
0.613197 -0.038537 0.015104
0.568545 -0.003385 -0.012402
0.604835 -0.010138 0.073384
0.620957 0.071331 0.072401
0.624414 0.069599 0.047496
0.545265 0.006757 0.032723
0.600419 0.028550 0.084726
0.591085 0.085004 0.072248
0.550468 -0.012132 0.001502
0.567747 0.051638 0.014373
0.576953 0.005561 -0.011622
0.611775 0.108449 0.055749
0.603293 0.055590 0.083765
0.618923 0.008138 0.017588
0.618918 0.093585 0.038234
0.597874 0.069249 0.080989
0.549878 -0.016499 0.002996
0.587686 -0.005749 0.077298
0.545231 0.006543 0.032728
0.565173 0.061385 0.032057
0.599965 0.041292 0.007240
0.560896 0.050523 0.026263
0.599052 -0.053818 0.037658
0.558011 -0.011226 -0.007784
0.605110 0.069928 0.081444
0.572741 0.021272 -0.006891
0.616884 0.061528 0.079718
0.551001 -0.002340 0.001183
0.611524 0.019887 0.010122
0.568963 0.039636 0.003273
0.605479 -0.049605 0.013621
0.617323 -0.031418 0.019853
0.564064 -0.009801 0.066809
0.600062 -0.003816 -0.005204
0.628360 0.024778 0.059684
0.548016 -0.028439 0.013636
0.593158 -0.009745 0.076028
0.593039 -0.040555 0.055986
0.543896 -0.008403 0.029311
0.592336 0.069372 0.015188
0.592608 -0.047390 0.049676
0.604005 0.004781 0.079939
0.550887 0.025579 0.019113
0.573717 0.073598 0.060433
0.548051 0.015461 0.041230
0.560169 0.018770 0.066593
0.572214 -0.049638 -0.003412
0.560992 0.014530 0.067860
0.597910 -0.002966 -0.006482
0.611940 -0.014429 0.005030
0.594520 -0.042034 -0.003664
0.612097 0.021070 0.011086
0.615037 -0.010929 0.066406
0.547649 -0.029414 0.017234
0.552732 0.031779 0.042036
0.585595 -0.006184 -0.012251
0.596309 -0.056189 0.010605
0.622299 0.084065 0.046012
0.620492 -0.014662 0.056727
0.544427 -0.004057 0.034219
0.562928 0.037629 0.006771
0.616499 0.101685 0.058947
0.592938 0.037312 0.001973
0.603817 0.074267 0.080419
0.556664 0.040614 0.047214
0.626664 0.000675 0.046916
0.564472 0.042312 0.065548
0.561677 -0.029801 0.056134
0.604349 -0.024083 0.065389
0.551896 0.006271 0.055552
0.615826 0.015342 0.079416
0.575435 -0.008598 0.073431
0.616860 -0.028578 0.047059
0.556929 0.043737 0.030221
0.622714 -0.001674 0.062849
0.611243 0.079331 0.078430
0.568885 -0.062362 0.021909
0.584748 0.094424 0.059206
0.611009 -0.045565 0.020889
0.546281 -0.021751 0.016471
0.546563 -0.002001 0.011652
0.628652 0.045169 0.056454
0.555194 0.038207 0.023501
0.548582 0.018892 0.020183
0.590401 0.103607 0.055661
0.560104 0.039953 0.012558
0.593550 -0.043267 -0.003551
0.577331 0.061525 0.072888
0.611737 0.104954 0.061515
0.583411 -0.047450 -0.005163
0.571007 -0.012499 -0.013405
0.587512 0.075818 0.074720
0.569029 -0.027234 -0.012060
0.554482 0.037469 0.026431
0.599554 0.091446 0.072091
0.609645 -0.010675 0.070625
0.598154 0.046653 0.084494
0.577046 -0.021333 0.068602
0.609888 0.020281 0.008495
0.619540 -0.029163 0.029226
0.607543 0.108193 0.058998
0.585177 0.002972 -0.011004
0.598469 -0.047753 0.002706
0.591173 0.044587 0.083710
0.623367 0.025752 0.029068
0.619029 0.031172 0.023140
0.574272 0.075148 0.060063
0.550670 -0.022766 0.002538
0.570782 0.059142 0.018214
0.547753 0.008393 0.012483
0.588402 -0.058759 0.036875
0.624008 0.039858 0.035103
0.612040 -0.013016 0.005219
0.629033 0.035598 0.051905
0.604319 0.035140 0.085086
0.558782 0.028885 0.005148
0.561114 0.033971 0.005997
0.606058 0.073719 0.080621
0.619756 0.023325 0.022203
0.575178 0.083581 0.039228
0.571987 0.071508 0.058705
0.598259 0.101410 0.025655
0.617005 0.062891 0.079375
0.626983 0.008922 0.038995
0.626975 0.016263 0.063162
0.569946 -0.052394 0.041838
0.564858 -0.054307 0.035045
0.619715 -0.028734 0.029818
0.609561 0.111354 0.036435
0.599876 0.035066 0.085032
0.616445 -0.007862 0.066888
0.559422 0.049609 0.042074
0.602351 -0.053053 0.014098
0.622611 0.089578 0.054071
0.567030 -0.035066 -0.009465
0.554704 0.019649 0.058320
0.554136 -0.020043 -0.003447
0.577335 -0.009586 -0.013678
0.620542 0.046816 0.030850
0.555106 -0.048901 0.021869
0.561036 -0.056473 0.014645
0.622625 0.055589 0.037819
0.603473 0.006650 0.080607
0.546793 -0.024946 0.031180
0.590614 -0.042571 -0.005330
0.596735 -0.056706 0.034779
0.604246 -0.001120 0.077682
0.626826 0.002360 0.048823
0.622284 -0.008604 0.058390
0.571460 -0.014577 0.069560
0.602798 -0.044917 0.046069
0.558542 -0.052072 0.027992
0.625753 0.000510 0.056008
0.574533 -0.005418 0.074040
0.583416 0.025503 0.081716
0.595443 -0.055711 0.008825
0.628824 0.024880 0.050213
0.615910 0.011280 0.013647
0.618529 -0.016429 0.015038
0.597824 0.092791 0.070655
0.613234 -0.011052 0.067882
0.570760 -0.022668 0.065518
0.610493 -0.043233 0.038020
0.556447 0.026061 0.059270
0.548153 -0.012729 0.006593
0.625906 -0.001397 0.052961
0.610860 0.028176 0.011762
0.627089 0.053603 0.048982
0.618989 0.085495 0.037836
0.616164 0.045353 0.023285
0.567429 -0.013310 -0.012624
0.549120 -0.016152 0.004643
0.561012 -0.034341 0.052357
0.555372 -0.045497 0.008416
0.605965 0.068319 0.019840
0.565715 0.026767 -0.002002
0.597175 -0.028070 -0.006736
0.566020 -0.029987 0.058951
0.577481 -0.028932 0.064353
0.600875 0.112237 0.049672
0.564973 -0.033252 -0.009264
0.565691 0.030792 0.000071
0.558670 -0.035044 0.049387
0.544523 0.000031 0.033670
