ply
format ascii 1.0
element vertex 1024
property float x
property float y
property float z
end_header
0.563223 0.037606 0.085158
0.594484 -0.033992 0.051502
0.595484 -0.038827 0.049953
0.547955 0.095563 0.033455
0.547813 -0.035347 0.005498
0.594511 0.019054 0.047548
0.558220 0.090687 0.034275
0.506346 0.021521 0.037730
0.600639 -0.032480 0.025551
0.586156 0.013896 0.024509
0.512826 0.052635 0.019192
0.513933 0.088951 0.048988
0.533798 -0.032964 0.017017
0.531748 -0.005215 0.001532
0.521338 0.042471 0.008334
0.576649 0.015357 0.014396
0.596482 -0.001539 0.043784
0.541596 0.091128 0.025596
0.563899 0.073747 0.079656
0.543264 0.055748 0.007386
0.526460 -0.007490 0.004790
0.588796 -0.058749 0.013315
0.548000 0.100721 0.059977
0.570625 -0.044619 0.054144
0.606032 -0.049891 0.035936
0.562882 0.008941 0.078463
0.548497 0.073872 0.083124
0.524107 0.045305 0.079342
0.536252 -0.001255 0.070627
0.540052 0.068651 0.083743
0.579588 0.005711 0.014941
0.545917 0.041410 0.004307
0.546107 -0.043398 0.011107
0.554233 -0.053629 0.034867
0.512871 0.034325 0.067275
0.522834 -0.009701 0.052418
0.573730 0.004349 0.010103
0.540861 0.066786 0.010746
0.531822 0.062107 0.082699
0.554954 -0.041096 0.006064
0.520036 0.085838 0.028815
0.505021 0.051224 0.050408
0.530751 0.022527 0.078501
0.523731 0.079577 0.021202
0.543576 0.093126 0.028225
0.533226 0.057701 0.008333
0.540766 -0.031463 0.006524
0.526248 0.013290 0.072317
0.561368 0.091297 0.040227
0.604577 -0.046339 0.039531
0.605526 -0.044168 0.036942
0.515518 0.058613 0.018566
0.511417 0.013125 0.052811
0.572022 -0.002060 0.072819
0.522270 0.070208 0.017613
0.526187 -0.002653 0.062952
0.520184 0.078743 0.071962
0.571812 0.078895 0.069208
0.528623 0.039850 0.081496
0.580631 0.040032 0.076976
0.506023 0.024844 0.044651
0.520865 -0.014422 0.020536
0.540074 -0.026433 0.004452
0.573883 0.078312 0.042545
0.506500 0.063671 0.040051
0.552359 0.091089 0.029493
0.549730 0.100299 0.045789
0.531280 0.093202 0.028810
0.523253 0.088859 0.028645
0.505042 0.044029 0.034126
0.568721 -0.063713 0.019710
0.505056 0.040726 0.033307
0.521677 0.020601 0.005621
0.573412 0.028812 0.014885
0.565262 -0.045253 0.006502
0.548245 0.085061 0.078741
0.594923 -0.000478 0.053405
0.559198 -0.038271 0.056042
0.534254 0.099361 0.037098
0.510946 0.032775 0.017800
0.547397 -0.037750 0.050637
0.558552 0.047235 0.009183
0.554084 -0.035719 0.056100
0.548851 -0.032313 0.004133
0.597780 -0.041085 0.017387
0.555518 0.009993 0.001287
0.581067 -0.028597 0.009705
0.562259 0.088381 0.036099
0.528723 0.003020 0.001680
0.538689 -0.033557 0.047244
0.543464 -0.038783 0.009494
0.542123 0.064527 0.010032
0.520452 0.042949 0.076904
0.526828 0.026175 0.003259
0.550627 0.092499 0.072196
0.538549 -0.040918 0.028956
0.530016 0.070179 0.080556
0.520261 0.037073 0.008181
0.553925 0.085479 0.024357
0.566533 -0.015064 0.003414
0.535453 0.101804 0.061585
0.536003 0.020977 0.080089
0.577409 0.073088 0.065570
0.578302 0.040554 0.078803
0.593320 0.029136 0.052576
0.534495 0.064980 0.083192
0.505002 0.037005 0.033453
0.515870 0.018118 0.011179
0.579712 -0.021154 0.063541
0.543635 0.038438 0.086112
0.531072 0.049284 0.083143
0.511406 0.064792 0.027018
0.568480 0.074589 0.028620
0.514888 0.074329 0.067756
0.586881 0.029842 0.031663
0.564310 0.014882 0.005357
0.535293 0.084351 0.019670
0.589983 0.045106 0.052901
0.581325 0.062380 0.069482
0.542122 0.032592 0.084819
0.522006 0.034143 0.076790
0.576224 0.054586 0.078867
0.553468 -0.008318 0.071461
0.525211 0.021469 0.074997
0.515144 0.017529 0.063554
0.582173 -0.017835 0.063535
0.578637 0.028494 0.019684
0.537746 -0.023011 0.004020
0.539827 0.047962 0.086192
0.582735 -0.010434 0.065436
0.556249 0.097861 0.054165
0.590295 0.032826 0.065320
0.554965 -0.014729 0.068634
0.552838 0.005742 0.000327
0.521333 0.044985 0.077579
0.532799 0.071632 0.013238
0.557661 0.078389 0.021212
0.562964 -0.018852 0.067162
0.519537 0.056152 0.075997
0.558834 -0.003291 0.001106
0.552136 0.093183 0.032332
0.539690 0.096635 0.069718
0.515528 0.029036 0.011920
0.587426 -0.002239 0.021134
0.566315 0.085405 0.037986
0.590622 -0.026380 0.016773
0.566957 -0.063145 0.022764
0.541450 -0.027435 0.004343
0.599214 -0.058197 0.018252
0.547176 0.040542 0.004338
0.531936 0.097898 0.067215
0.516253 0.088108 0.061351
0.531681 0.100604 0.062772
0.574883 0.079733 0.059004
0.545050 0.085741 0.078478
0.510144 0.008734 0.038063
0.569448 0.024198 0.010484
0.590160 -0.066253 0.023019
0.533993 0.008542 0.074505
0.581200 -0.039941 0.055963
0.584839 0.032888 0.073289
0.538397 0.032711 0.083986
0.526073 0.075985 0.077106
0.580605 0.070036 0.059610
0.555554 -0.055887 0.030432
0.561119 0.012014 0.003396
0.529857 0.024341 0.078682
0.517021 0.076824 0.025711
0.542304 -0.045105 0.028030
0.568161 0.061111 0.082036
0.580105 0.061250 0.072394
0.505748 0.060689 0.048292
0.597964 -0.025070 0.025934
0.550225 0.076881 0.016835
0.532336 0.074711 0.080377
0.565236 0.034704 0.084437
0.541488 -0.025508 0.057491
0.542903 0.080741 0.080696
0.560536 -0.009856 0.071089
0.514488 0.086832 0.058572
0.562078 -0.028528 0.002813
0.555246 0.048971 0.086672
0.530944 0.071050 0.080748
0.518695 0.050311 0.012316
0.578868 -0.024023 0.009086
0.575242 0.001534 0.073136
0.580819 -0.050453 0.008623
0.531802 0.076260 0.015509
0.578119 0.015839 0.076431
0.602447 -0.042330 0.021786
0.513952 0.070191 0.068177
0.546420 0.001992 -0.000543
0.534545 0.038063 0.003092
0.562607 -0.004134 0.073420
0.581640 0.068716 0.055461
0.568694 0.075024 0.075919
0.571633 0.032331 0.082194
0.531495 -0.028705 0.014475
0.572276 0.039813 0.016989
0.565737 0.009917 0.005462
0.561180 0.055381 0.013094
0.553689 0.086923 0.025592
0.505586 0.041787 0.053664
0.561026 0.075843 0.021986
0.509659 0.020377 0.054945
0.546850 0.099975 0.062707
0.539897 -0.039735 0.039421
0.506734 0.022283 0.031423
0.521528 -0.017220 0.031533
0.522062 0.050423 0.078031
0.518872 0.026115 0.071664
0.588741 0.049791 0.055646
0.569348 -0.063986 0.019826
0.571333 0.070999 0.029583
0.532538 0.089357 0.074627
0.514608 0.084471 0.035312
0.537123 -0.039233 0.029765
0.518953 0.000944 0.056670
0.597801 -0.016025 0.045662
0.589203 0.021788 0.032648
0.571083 0.075084 0.032711
0.606796 -0.048433 0.031517
0.560891 0.087831 0.033245
0.555405 0.026844 0.084301
0.573934 -0.063508 0.035331
0.589671 -0.066418 0.023217
0.555127 0.064865 0.013189
0.588956 0.044794 0.063384
0.571011 0.004072 0.008097
0.504822 0.048388 0.049856
0.592908 -0.012523 0.055685
0.512406 0.039404 0.068116
0.535655 -0.017337 0.059867
0.577015 0.071692 0.040262
0.514990 0.003179 0.050574
0.518402 -0.006613 0.015986
0.512109 0.068735 0.027917
0.567328 0.043150 0.013824
0.530236 0.019862 0.001555
0.600886 -0.028074 0.042062
0.537671 0.017544 0.000428
0.570135 0.006916 0.007898
0.523402 0.034493 0.005879
0.518672 0.007157 0.061668
0.522236 0.050559 0.009987
0.576584 -0.053111 0.048908
0.544696 0.101197 0.061357
0.567024 -0.006819 0.071950
0.576965 0.062298 0.031663
0.583659 0.052048 0.036857
0.583926 -0.063082 0.015501
0.586891 -0.000816 0.020903
0.597978 -0.012470 0.041750
0.590681 0.038992 0.046923
0.552962 0.098732 0.059506
0.511355 0.007347 0.043869
0.507857 0.069878 0.053526
0.508871 0.053093 0.063892
0.508708 0.075380 0.050239
0.577809 0.074245 0.062053
0.588096 -0.055786 0.046441
0.592653 0.023750 0.061319
0.516681 0.036287 0.072583
0.554181 -0.019975 0.001021
0.519211 0.000097 0.056275
0.558751 0.061199 0.084819
0.525847 0.009558 0.070255
0.506470 0.021393 0.041446
0.509915 0.009350 0.033176
0.576464 -0.060268 0.012891
0.593943 0.021412 0.045942
0.560238 -0.059634 0.024590
0.510176 0.018945 0.020897
0.539743 0.102048 0.043160
0.550394 -0.006466 0.071971
0.519643 0.036612 0.075469
0.592163 -0.030819 0.053893
0.535482 0.017431 0.078686
0.593566 0.020750 0.043566
0.516097 0.000041 0.015816
0.531720 -0.030210 0.016976
0.570035 -0.058292 0.012017
0.543696 0.070551 0.083735
0.575298 0.072679 0.037668
0.577545 0.046082 0.079021
0.541897 -0.025822 0.003580
0.574877 0.078672 0.046730
0.551167 -0.028430 0.060141
0.584797 0.051692 0.069607
0.563647 0.092286 0.057424
0.596148 -0.055825 0.044024
0.518191 0.093903 0.056821
0.518539 0.073456 0.022312
0.568754 -0.051818 0.008681
0.547726 -0.000664 -0.000531
0.558353 0.071196 0.017569
0.546904 0.067758 0.011825
0.509022 0.011915 0.037689
0.585893 -0.011250 0.016701
0.506245 0.061465 0.052206
0.536553 0.027414 0.082197
0.525060 -0.017757 0.012614
0.589113 0.044757 0.062853
0.508113 0.065492 0.058115
0.554686 0.093808 0.068385
0.582102 0.055672 0.072339
0.592019 0.025888 0.041355
0.595219 0.009871 0.043747
0.509375 0.046800 0.064743
0.531766 -0.000176 0.000914
0.587116 -0.023638 0.014583
0.568741 0.000971 0.006145
0.509623 0.043903 0.021138
0.522661 -0.010518 0.051239
0.593658 0.022325 0.045196
0.561375 -0.039895 0.055526
0.537374 0.078004 0.080804
0.511588 0.084020 0.050835
0.591007 -0.020286 0.056730
0.526320 -0.021242 0.044377
0.562074 -0.039093 0.056240
0.542919 0.098820 0.066399
0.526218 0.100792 0.047794
0.528217 0.068439 0.013524
0.545590 0.059264 0.085967
0.531791 -0.024896 0.049124
0.588345 0.041893 0.041238
0.591863 -0.020855 0.019886
0.553700 0.093314 0.069771
0.582380 -0.044709 0.008518
0.557930 0.096779 0.054155
0.508134 0.014741 0.035941
0.542320 0.006775 -0.000430
0.546018 -0.034855 0.005869
0.547482 -0.035661 0.052708
0.583351 0.034092 0.027514
0.507512 0.024968 0.052184
0.531116 0.099320 0.064852
0.563697 0.028007 0.083727
0.509430 0.022524 0.021693
0.510160 0.058015 0.025732
0.512437 0.028063 0.015762
0.529555 0.056312 0.082201
0.510996 0.062001 0.066332
0.564925 0.080338 0.029342
0.570949 -0.064852 0.022675
0.579928 0.038115 0.077645
0.591137 -0.063970 0.018655
0.523382 -0.020054 0.035065
0.593325 -0.008669 0.055585
0.558239 -0.026642 0.062972
0.506898 0.028585 0.026949
0.589620 0.042918 0.062448
0.507364 0.019337 0.031120
0.509545 0.072330 0.058123
0.592301 0.017509 0.062456
0.530544 0.099666 0.063941
0.526293 0.048840 0.007502
0.591928 0.029563 0.062018
0.541028 0.102433 0.059899
0.540973 0.052141 0.006260
0.505547 0.058141 0.040848
0.519326 0.021508 0.070339
0.594402 -0.063932 0.036637
0.553549 -0.028927 0.002631
0.515129 0.064802 0.071120
0.580872 0.005629 0.071842
0.601380 -0.034395 0.043256
0.521786 -0.007867 0.052541
0.585809 -0.031435 0.012023
0.506451 0.062456 0.052691
0.567538 -0.034866 0.059446
0.542918 0.024519 0.001260
0.562532 0.027809 0.083875
0.567555 0.028979 0.083077
0.560278 0.092358 0.065450
0.569712 -0.036386 0.004979
0.596432 -0.020068 0.049791
0.564003 0.010104 0.004521
0.536195 0.065826 0.010565
0.548303 0.037114 0.003874
0.549802 0.076899 0.016705
0.595621 -0.003496 0.050975
0.539095 -0.039120 0.015872
0.571964 -0.039017 0.005682
0.540624 0.073769 0.082612
0.597828 -0.059781 0.018327
0.523414 0.057701 0.011850
0.519094 0.010252 0.064372
0.598952 -0.057045 0.041680
0.546020 -0.044842 0.040155
0.599652 -0.033895 0.045919
0.587975 0.015808 0.068715
0.573648 0.075550 0.037795
0.510700 0.045895 0.066922
0.546870 0.050227 0.086950
0.583959 0.011419 0.071482
0.526874 0.076293 0.017546
0.557941 0.058813 0.012361
0.525529 0.012104 0.002781
0.537079 0.065825 0.010475
0.505605 0.038261 0.030461
0.556302 0.057970 0.011314
0.528937 0.049301 0.006752
0.547256 0.100271 0.061769
0.550025 0.091721 0.028925
0.585731 -0.038895 0.010560
0.530041 -0.017092 0.055049
0.597274 -0.039015 0.017876
0.542674 0.018000 0.080840
0.558208 -0.032218 0.059732
0.583078 -0.039546 0.009218
0.521042 0.096498 0.058197
0.590057 -0.005541 0.060536
0.559405 0.032756 0.006194
0.593495 -0.003989 0.056019
0.519185 0.054280 0.075859
0.533208 -0.004259 0.067248
0.579092 -0.063019 0.038913
0.602377 -0.040056 0.042629
0.559594 0.018818 0.003766
0.596584 -0.049934 0.046548
0.586861 0.004849 0.022612
0.580668 0.055979 0.033647
0.518991 0.020453 0.007875
0.534512 0.069237 0.082391
0.525396 -0.022375 0.038887
0.569347 0.007676 0.007463
0.578092 0.072915 0.045291
0.557505 -0.002263 0.074319
0.559416 0.052420 0.011100
0.516807 0.040277 0.011390
0.553052 -0.043461 0.048800
0.602718 -0.047413 0.042143
0.573490 -0.064372 0.032452
0.506058 0.039527 0.028840
0.512486 0.043724 0.016741
0.537924 -0.019901 0.059513
0.532308 0.053137 0.083655
0.506898 0.060393 0.056376
0.531297 0.011955 0.074715
0.555340 -0.047028 0.046535
0.544457 -0.040193 0.045224
0.587843 -0.066965 0.024188
0.601513 -0.035453 0.043259
0.583966 -0.054455 0.010192
0.508527 0.013551 0.034552
0.571119 -0.036791 0.058525
0.585809 -0.060830 0.042441
0.568397 0.087744 0.050436
0.591694 0.036164 0.058847
0.537706 0.099660 0.037415
0.569342 0.072010 0.027771
0.531418 0.005758 0.000705
0.531995 0.074012 0.080440
0.560565 0.081962 0.026169
0.569553 -0.001146 0.073741
0.541732 0.057696 0.007832
0.545216 -0.016400 0.065597
0.552327 -0.016918 0.000541
0.572320 0.066032 0.077956
0.595294 -0.017859 0.025864
0.514634 0.027627 0.012931
0.540452 0.031318 0.084189
0.527255 -0.025842 0.036097
0.512054 0.041037 0.068031
0.523791 0.072586 0.076609
0.514567 0.071682 0.068415
0.515132 0.001957 0.049315
0.533453 -0.006011 0.066288
0.515402 0.088155 0.059365
0.526740 -0.012053 0.055764
0.585358 0.017340 0.024471
0.596476 -0.003314 0.046699
0.522424 0.056915 0.012137
0.553625 0.064681 0.012531
0.550483 0.008396 0.000199
0.579485 0.027793 0.077663
0.585376 0.011763 0.022716
0.540078 0.089345 0.023654
0.594890 0.015483 0.046774
0.576545 -0.030079 0.007136
0.587049 0.017486 0.070019
0.540700 0.046812 0.086354
0.547107 -0.035014 0.005573
0.529858 0.074578 0.079425
0.512417 0.082294 0.037821
0.536304 -0.022258 0.004355
0.542778 0.096761 0.033276
0.529388 0.006113 0.001289
0.505341 0.045444 0.033007
0.565218 0.090003 0.061923
0.581472 -0.011609 0.065807
0.526785 0.090369 0.071470
0.504978 0.046612 0.035394
0.522466 0.049315 0.078316
0.561785 0.043268 0.009815
0.512735 0.002313 0.028254
0.550117 0.101014 0.050096
0.529673 0.080852 0.018746
0.550732 0.006100 0.000053
0.534568 0.062533 0.083621
0.542159 -0.010022 -0.000004
0.567689 -0.051064 0.048806
0.595666 -0.000053 0.050874
0.518031 0.006666 0.009282
0.578942 0.030730 0.078253
0.525925 -0.006387 0.004855
0.544476 0.027335 0.083948
0.541985 0.055501 0.007218
0.596191 -0.004582 0.048794
0.509052 0.022865 0.022536
0.583089 -0.008124 0.014965
0.546637 0.015554 0.000501
0.523665 -0.018907 0.040982
0.519343 0.046532 0.010668
0.596984 -0.020801 0.026970
0.602396 -0.060011 0.024600
0.566213 0.009180 0.078172
0.598970 -0.022409 0.044785
0.505615 0.060235 0.044629
0.521368 0.032866 0.075987
0.520146 0.092653 0.037168
0.536866 0.102496 0.060046
0.569105 -0.060770 0.037323
0.514947 0.009564 0.057501
0.542075 0.079791 0.016688
0.558231 -0.049963 0.045221
0.514128 0.006219 0.016515
0.543381 0.103006 0.056430
0.581307 -0.004318 0.014330
0.589946 -0.041096 0.052671
0.514310 0.087240 0.057507
0.586513 -0.030428 0.057559
0.530284 0.004667 0.001059
0.525492 0.038159 0.005343
0.505757 0.051248 0.054637
0.516789 0.013101 0.010054
0.507927 0.036849 0.059317
0.579186 -0.046702 0.053019
0.574803 0.064994 0.030221
0.520453 0.003093 0.007215
0.592573 -0.036456 0.052488
0.553095 0.006317 0.000417
0.529275 0.085045 0.075514
0.522795 0.061331 0.077821
0.576565 0.076857 0.060459
0.574667 0.075951 0.040629
0.594028 0.004738 0.035933
0.509467 0.026133 0.020902
0.536204 0.102452 0.060037
0.546222 -0.019746 0.063926
0.565734 0.074894 0.025676
0.557589 0.089521 0.072320
0.559307 0.059294 0.013271
0.538535 0.014918 0.000175
0.575828 -0.030234 0.061133
0.543738 0.076508 0.082189
0.595521 0.009712 0.049536
0.581064 0.031554 0.076749
0.574121 -0.031410 0.060884
0.519811 0.021175 0.070658
0.585726 0.020140 0.025978
0.516286 0.001381 0.014306
0.527763 0.086201 0.023352
0.521006 0.011061 0.066942
0.513664 0.007727 0.052727
0.552473 0.099753 0.056188
0.539037 0.081588 0.079868
0.552083 -0.052364 0.015134
0.552760 0.093644 0.033575
0.577379 -0.042738 0.007121
0.594270 0.001193 0.055362
0.576999 0.051137 0.078858
0.540458 -0.024303 0.003488
0.513287 0.010653 0.016391
0.550356 0.021974 0.001761
0.562080 0.043106 0.009942
0.532357 -0.028685 0.012628
0.534862 -0.028598 0.048712
0.572301 0.023876 0.012712
0.531176 0.043820 0.082990
0.524828 -0.015498 0.049492
0.524396 0.098284 0.042323
0.552002 0.002235 -0.000043
0.549690 0.007351 0.000017
0.528914 -0.028569 0.033439
0.509194 0.077086 0.043596
0.590928 0.003882 0.028757
0.568246 -0.029920 0.004081
0.582326 0.039162 0.027952
0.539651 0.033309 0.002263
0.586106 0.029885 0.071977
0.542338 0.081475 0.080366
0.557048 -0.019543 0.001174
0.575909 0.063414 0.076167
0.515441 0.046565 0.072896
0.581173 0.030968 0.023388
0.520873 -0.013113 0.017451
0.517113 -0.008544 0.030083
0.576026 -0.013252 0.067581
0.510580 0.038994 0.018649
0.545706 -0.048618 0.024815
0.539288 -0.010467 0.066760
0.562064 0.085453 0.031528
0.522105 0.044420 0.008306
0.604493 -0.055717 0.036188
0.586228 0.052102 0.066134
0.506634 0.063729 0.039264
0.506617 0.055232 0.032817
0.541976 0.035418 0.085357
0.563722 0.025737 0.006898
0.549769 -0.023131 0.001581
0.526853 -0.003433 0.063007
0.564913 -0.034345 0.059553
0.532513 -0.007257 0.064835
0.508597 0.053530 0.026634
0.536807 0.064512 0.083910
0.520275 0.002547 0.007549
0.520838 0.008876 0.065491
0.593077 0.030609 0.052613
0.577782 0.000231 0.012453
0.552175 -0.006880 -0.000203
0.547937 0.070909 0.013328
0.566153 -0.061092 0.015721
0.584487 0.062256 0.055748
0.519589 0.008788 0.007181
0.554923 -0.052942 0.013043
0.543378 0.084421 0.079135
0.599614 -0.059039 0.039538
0.522246 -0.018438 0.032448
0.595290 -0.025084 0.022116
0.516890 0.052346 0.074142
0.593749 -0.020842 0.053702
0.537876 -0.007685 0.000287
0.523215 0.072702 0.076188
0.552949 0.060365 0.085689
0.591758 0.018692 0.063617
0.577734 0.007445 0.074166
0.526054 -0.024530 0.027570
0.514014 0.017210 0.013780
0.583652 0.059885 0.043729
0.535271 0.060440 0.084140
0.544783 0.060486 0.008965
0.566395 -0.047635 0.007242
0.516270 0.047103 0.073689
0.580852 0.070078 0.052056
0.537830 -0.009196 0.000501
0.520985 -0.014451 0.040785
0.598615 -0.015970 0.036256
0.521323 0.084837 0.070340
0.552145 -0.012832 0.000107
0.572107 -0.046107 0.053355
0.522950 -0.009055 0.008873
0.519111 0.015021 0.007438
0.562743 0.084793 0.031573
0.590051 0.029700 0.038183
0.545157 0.090292 0.025397
0.560932 0.075018 0.080434
0.525219 0.072692 0.016773
0.562049 -0.016827 0.001848
0.576387 -0.017288 0.066013
0.603789 -0.040328 0.040137
0.515512 0.024303 0.011831
0.521552 0.095231 0.061939
0.597975 -0.045725 0.015862
0.531802 0.002797 0.070559
0.596644 -0.003219 0.044516
0.544402 0.062827 0.085332
0.539137 0.088135 0.022506
0.588688 0.033682 0.037123
0.528022 0.064535 0.012162
0.542267 -0.023309 0.002659
0.539594 -0.041898 0.031099
0.564622 -0.002548 0.003394
0.597171 -0.024904 0.024794
0.567043 0.075449 0.076931
0.531830 -0.032388 0.033770
0.566051 -0.042919 0.054581
0.549440 0.101225 0.049502
0.524700 0.088978 0.027636
0.544508 -0.033662 0.005906
0.521176 0.007442 0.005830
0.504304 0.039090 0.040136
0.590931 -0.053441 0.011894
0.564847 0.060591 0.083413
0.507886 0.020144 0.027466
0.601429 -0.038109 0.023034
0.528861 0.010504 0.001411
0.557529 0.081333 0.078797
0.528473 -0.025820 0.041368
0.563244 0.055767 0.084698
0.533990 -0.034422 0.036649
0.589271 0.047539 0.052079
0.562110 -0.058909 0.033652
0.517479 0.007286 0.009891
0.542985 0.075639 0.014605
0.593779 -0.039996 0.014928
0.592903 -0.066108 0.027384
0.578209 -0.067050 0.023612
0.520639 0.054326 0.012331
0.577613 0.068416 0.070637
0.560480 0.091327 0.067198
0.517488 0.092041 0.041421
0.520652 0.042066 0.076995
0.555029 0.030257 0.085079
0.564081 0.064346 0.082759
0.579617 0.012333 0.016377
0.556819 0.048966 0.086490
0.579381 0.071264 0.046802
0.580327 0.046924 0.076580
0.522343 -0.003884 0.057387
0.533738 0.004839 0.072639
0.541393 -0.006871 0.069690
0.522861 0.090301 0.068571
0.561888 0.043656 0.009979
0.560333 0.029646 0.084519
0.556935 0.033453 0.005398
0.603036 -0.039602 0.041443
0.541383 0.061981 0.009138
0.572168 -0.017627 0.066890
0.560150 -0.031998 0.003252
0.582906 0.054291 0.071706
0.556601 0.032431 0.085399
0.565702 0.018539 0.006767
0.581766 0.060106 0.070440
0.526502 0.090629 0.071128
0.546926 0.101526 0.058689
0.561403 -0.049386 0.008406
0.518212 0.030341 0.072434
0.529085 0.087538 0.074250
0.513411 0.007434 0.017671
0.504503 0.049749 0.043919
0.603074 -0.033300 0.038244
0.525555 0.072880 0.016669
0.605785 -0.052336 0.024947
0.588332 -0.029455 0.056834
0.550834 -0.043975 0.008579
0.566664 0.031525 0.083689
0.509732 0.065677 0.030612
0.600984 -0.062315 0.029883
0.543991 0.021294 0.082152
0.515313 0.010343 0.012555
0.571097 0.084938 0.052321
0.602678 -0.030651 0.036435
0.547936 0.064360 0.010787
0.536909 0.009551 -0.000121
0.576741 -0.066681 0.022670
0.555771 -0.047462 0.008729
0.506649 0.045797 0.028372
0.552673 0.044572 0.006463
0.509717 0.009780 0.036581
0.548481 0.101597 0.049508
0.583094 -0.051836 0.049633
0.534552 -0.036017 0.026191
0.569746 -0.008739 0.005601
0.567922 0.074898 0.076600
0.582165 0.067441 0.052579
0.555608 0.064785 0.013370
0.574522 -0.009695 0.069305
0.561342 0.063656 0.083756
0.564586 0.038685 0.084946
0.510021 0.080198 0.048444
0.565904 0.066001 0.020981
0.520592 0.037929 0.008056
0.559124 0.033841 0.006299
0.554158 -0.025529 0.062830
0.516073 0.027079 0.011279
0.559833 -0.053210 0.042225
0.564877 -0.062114 0.024161
0.543621 -0.029535 0.055570
0.559528 0.038450 0.085878
0.582214 0.064926 0.063986
0.580522 0.070753 0.052236
0.521789 -0.017056 0.036749
0.591945 0.000459 0.059552
0.544676 0.009491 -0.000214
0.522365 0.028717 0.005915
0.568718 0.053894 0.018592
0.510939 0.077202 0.058299
0.590228 0.040214 0.046188
0.583435 -0.065945 0.034788
0.591461 0.038405 0.051162
0.598643 -0.060709 0.038545
0.572144 0.042138 0.017572
0.542887 0.057518 0.086027
0.561817 0.007432 0.077997
0.520701 -0.013926 0.020078
0.599007 -0.051074 0.015859
0.506247 0.056989 0.055053
0.594753 -0.065580 0.027696
0.504620 0.043532 0.036746
0.588663 -0.066381 0.022039
0.542915 0.067335 0.011088
0.505087 0.042434 0.051468
0.537539 0.030512 0.083268
0.585481 0.053267 0.067241
0.524332 -0.003036 0.060694
0.513134 0.073587 0.029080
0.579927 -0.039295 0.007949
0.580427 0.004529 0.071735
0.519626 0.093024 0.038746
0.540063 0.080982 0.080260
0.541422 -0.035648 0.047705
0.569732 -0.063845 0.028183
0.550170 0.050985 0.086894
0.578399 -0.044744 0.054142
0.513950 0.063089 0.022488
0.553237 0.090938 0.072963
0.511711 0.015650 0.018305
0.573542 0.005545 0.075191
0.592478 0.033332 0.056330
0.512101 0.076709 0.061650
0.542540 0.004151 -0.000525
0.534068 0.095418 0.070530
0.564458 -0.061863 0.020192
0.530234 0.011586 0.001029
0.576965 -0.043018 0.055135
0.543137 -0.027559 0.003852
0.559273 0.026168 0.083884
0.525745 -0.020991 0.043336
0.594615 0.017159 0.046260
0.593837 0.004545 0.035306
0.516622 0.017690 0.010226
0.568784 0.062350 0.081406
0.514729 0.006803 0.014782
0.556740 -0.008203 0.000467
0.545019 -0.018550 0.064208
0.584718 0.039523 0.072889
0.568412 0.048507 0.083807
0.534779 0.088684 0.075635
0.605520 -0.041551 0.030531
0.586600 -0.037261 0.055375
0.589985 0.043378 0.048928
0.596673 -0.058682 0.041828
0.572417 0.032910 0.081932
0.572783 -0.065409 0.021003
0.592632 0.005275 0.032742
0.512003 0.004525 0.027672
0.579076 0.044882 0.025740
0.546509 0.081685 0.018619
0.581791 0.063241 0.067618
0.509875 0.027561 0.019902
0.553773 -0.041667 0.006540
0.574640 -0.027533 0.006423
0.545260 0.030867 0.084897
0.519039 -0.011743 0.023921
0.556837 -0.054655 0.036562
0.563133 0.063068 0.083382
0.586453 0.002232 0.066468
0.586728 0.055472 0.059457
0.585442 -0.065771 0.019008
0.533826 -0.034506 0.022024
0.568592 0.040348 0.014029
0.593881 -0.043843 0.013844
0.542347 -0.045142 0.028181
0.559585 0.066068 0.083632
0.506476 0.021088 0.036492
0.545144 0.031048 0.084923
0.575899 -0.015168 0.066928
0.591595 0.016098 0.035207
0.574830 -0.003056 0.071616
0.517694 0.082983 0.029121
0.572518 0.067259 0.077191
0.543252 -0.045654 0.020974
0.590024 0.039346 0.063468
0.542058 -0.037038 0.009290
0.568396 0.054790 0.083194
0.579900 0.033631 0.022720
0.590068 0.018222 0.066396
0.541198 0.091669 0.026126
0.546570 0.073324 0.014107
0.510291 0.028862 0.061179
0.579577 0.061320 0.035420
0.542225 0.005247 -0.000489
0.544249 0.070970 0.083678
0.506275 0.025406 0.031122
0.507904 0.062077 0.033008
0.540379 0.045621 0.086253
0.597906 -0.012472 0.042544
0.509806 0.071131 0.034078
0.511661 0.011347 0.020294
0.567088 0.021666 0.081736
0.558914 -0.039598 0.055010
0.542731 0.019196 0.081254
0.524318 0.004121 0.065933
0.551353 0.098851 0.061368
0.521213 0.007183 0.064818
0.580812 0.061137 0.037750
0.567064 0.065854 0.021953
0.558328 0.093340 0.039541
0.579746 0.032149 0.022059
0.516784 0.032172 0.010715
0.540635 0.069992 0.083527
0.550858 0.004887 0.077005
0.582502 0.066296 0.050626
0.539259 0.098488 0.035415
0.582897 -0.039377 0.009157
0.523898 0.040481 0.006505
0.538438 0.039426 0.085197
0.585276 0.017949 0.071841
0.579934 -0.061333 0.013692
0.593169 0.021885 0.042756
0.546138 -0.048943 0.022525
0.551390 -0.005180 0.072681
0.540800 0.032408 0.002181
0.537606 -0.015517 0.062527
0.509049 0.051399 0.064375
0.509636 0.043600 0.021038
0.526382 0.020113 0.075236
0.518971 0.002978 0.008976
0.506735 0.024977 0.049060
0.524689 0.057203 0.010983
0.567515 0.000657 0.074805
0.525486 0.026280 0.003872
0.551360 -0.052011 0.015592
0.522884 0.097004 0.060864
0.571880 -0.056517 0.044883
0.537746 0.084764 0.019791
0.544958 0.063695 0.085218
0.559036 0.049059 0.086188
0.555269 -0.010740 0.000276
0.570251 0.008734 0.077262
0.562509 0.026811 0.083672
0.580268 -0.062437 0.040041
0.581125 0.012920 0.073928
0.557484 0.094308 0.040449
0.542682 -0.035263 0.049384
0.578754 -0.065645 0.018161
0.555424 0.098307 0.050580
0.578393 0.071722 0.065039
0.549639 -0.048107 0.039488
0.569580 0.083697 0.066369
0.567282 0.007871 0.077549
0.561324 -0.059788 0.028391
0.512596 0.029610 0.015494
0.528036 -0.027364 0.026744
0.504675 0.038471 0.047730
0.581273 0.034038 0.024572
0.539986 0.066766 0.010716
0.581979 -0.067356 0.022753
0.585982 0.057743 0.051150
0.550531 0.095251 0.034597
0.526748 -0.025477 0.033702
0.568217 0.019555 0.008614
0.575435 0.017664 0.013875
0.560083 -0.040729 0.054558
0.556932 0.071745 0.082719
0.587342 -0.006052 0.063172
0.563705 0.039711 0.085212
0.514478 0.087200 0.039625
0.570232 0.004365 0.007594
0.567625 0.064543 0.021871
0.554397 -0.000172 0.000222
0.522557 -0.017455 0.020209
0.581722 0.026145 0.075901
0.583860 0.021422 0.073630
0.545986 -0.048477 0.020261
0.572389 0.024944 0.013043
0.582244 -0.037527 0.056726
0.559113 -0.036998 0.056893
0.605841 -0.045158 0.036238
0.543053 -0.038038 0.009258
0.551755 0.029268 0.003183
0.534792 0.010802 0.000155
0.511003 0.078438 0.057427
0.515176 0.083286 0.063325
0.539719 0.066106 0.010476
0.603114 -0.058685 0.023893
0.521981 -0.017550 0.024615
0.518099 0.029338 0.009349
0.560666 -0.010259 0.070916
0.538646 0.094278 0.029055
0.578822 -0.048170 0.007929
0.563164 0.089079 0.067761
0.531108 0.007282 0.072488
0.563871 0.072539 0.080176
0.580924 0.069606 0.058897
0.576907 0.000342 0.011811
0.527866 0.084817 0.074925
0.531016 0.095231 0.069796
0.575634 -0.010648 0.009075
0.511958 0.009374 0.020786
0.530851 0.059100 0.082629
0.558968 0.094476 0.043617
0.518398 0.086826 0.031717
0.510656 0.017588 0.020180
0.540040 0.030002 0.001814
0.525757 0.034486 0.004689
0.506514 0.031919 0.053338
0.515473 0.071229 0.024548
0.521494 0.084629 0.070600
0.532829 0.027952 0.001851
0.507694 0.021886 0.049968
0.517841 -0.008311 0.041074
0.540906 0.098932 0.036527
0.550430 0.009929 0.000331
0.573141 0.039483 0.017640
0.558375 0.062838 0.014017
0.563000 -0.060302 0.030339
0.515224 0.031462 0.012298
0.505811 0.040909 0.054330
0.524211 0.074134 0.018063
0.533748 0.001338 0.070828
0.558178 0.060934 0.084969
0.534494 0.031133 0.002053
0.582576 0.025619 0.023409
0.565685 -0.014345 0.003088
0.590167 -0.036650 0.013581
0.582059 0.005217 0.017123
0.576848 0.071881 0.068452
0.558253 0.064909 0.084170
0.509908 0.057188 0.065406
0.541108 0.088635 0.076579
0.595199 -0.013325 0.028386
0.587681 0.031851 0.069934
0.568319 0.082926 0.037749
0.507120 0.050328 0.059689
0.504545 0.047186 0.047641
0.591103 -0.066451 0.030737
0.563632 0.087325 0.069826
0.587929 0.027333 0.069800
0.511784 0.059189 0.068104
0.540974 0.036173 0.085300
