ply
format ascii 1.0
element vertex 1024
property float x
property float y
property float z
end_header
0.561955 0.036863 0.085873
0.596011 -0.033337 0.051986
0.597174 -0.038117 0.050379
0.547335 0.095544 0.034803
0.551114 -0.034729 0.004251
0.595014 0.019767 0.049097
0.557667 0.090872 0.035909
0.507239 0.020560 0.036038
0.603087 -0.031156 0.026319
0.587633 0.014913 0.025663
0.513712 0.052183 0.018381
0.512916 0.087887 0.048917
0.536633 -0.032885 0.015283
0.534546 -0.004870 0.000289
0.522842 0.042431 0.007649
0.578476 0.016381 0.015233
0.597577 -0.000696 0.044998
0.541370 0.091140 0.026625
0.562036 0.073117 0.081123
0.544490 0.056189 0.007786
0.529192 -0.007325 0.003301
0.592286 -0.057411 0.013126
0.546285 0.100150 0.061407
0.572310 -0.044523 0.053521
0.608474 -0.048660 0.036549
0.562494 0.008343 0.078599
0.546518 0.072842 0.084014
0.522920 0.043846 0.078752
0.536403 -0.002253 0.069569
0.538172 0.067431 0.084212
0.581605 0.006791 0.015694
0.547571 0.041978 0.004524
0.549380 -0.042930 0.009630
0.556845 -0.053477 0.033467
0.512383 0.032883 0.066057
0.523857 -0.010603 0.050706
0.575961 0.005405 0.010614
0.541722 0.067101 0.011274
0.530133 0.060735 0.082731
0.558354 -0.040335 0.004968
0.519828 0.085325 0.028929
0.504791 0.049958 0.049249
0.530091 0.021238 0.077706
0.523939 0.079304 0.021336
0.543207 0.093124 0.029365
0.534384 0.057908 0.008396
0.543950 -0.031018 0.005090
0.526025 0.012037 0.071175
0.560579 0.091425 0.041986
0.606809 -0.045216 0.040158
0.607805 -0.042971 0.037649
0.516293 0.058229 0.017975
0.511933 0.011962 0.051128
0.572077 -0.002342 0.073082
0.522819 0.069983 0.017508
0.526662 -0.003705 0.061497
0.518536 0.077340 0.071900
0.570215 0.078648 0.071083
0.527473 0.038446 0.080965
0.579596 0.039829 0.078398
0.506587 0.023730 0.043007
0.523173 -0.014700 0.018685
0.543224 -0.025962 0.003093
0.573283 0.078664 0.044511
0.506377 0.062646 0.039205
0.551980 0.091248 0.030920
0.548548 0.100060 0.047287
0.530899 0.092926 0.029491
0.522981 0.088417 0.028939
0.505573 0.043106 0.032839
0.572103 -0.062933 0.018665
0.505691 0.039821 0.031954
0.523763 0.020635 0.004514
0.574928 0.029751 0.015869
0.568729 -0.044280 0.005708
0.546181 0.084111 0.079849
0.595640 0.000131 0.054573
0.560684 -0.038460 0.055116
0.533428 0.098973 0.038006
0.512324 0.032321 0.016523
0.549082 -0.038079 0.049286
0.559886 0.047968 0.009984
0.555515 -0.036020 0.055035
0.552135 -0.031646 0.002986
0.600722 -0.039648 0.017884
0.557967 0.010842 0.001237
0.584033 -0.027362 0.009832
0.561687 0.088615 0.037837
0.531337 0.003293 0.000488
0.540415 -0.034003 0.045653
0.546697 -0.038339 0.008011
0.543059 0.064885 0.010563
0.519410 0.041465 0.076133
0.528874 0.026365 0.002457
0.548639 0.091733 0.073549
0.541114 -0.040983 0.027229
0.528230 0.068811 0.080683
0.521891 0.037016 0.007347
0.553858 0.085781 0.025736
0.569447 -0.014013 0.003274
0.533667 0.100932 0.062565
0.535314 0.019767 0.079458
0.576069 0.073039 0.067543
0.577190 0.040263 0.080147
0.593415 0.029716 0.054277
0.532722 0.063654 0.083381
0.505713 0.036098 0.032024
0.517811 0.017913 0.009799
0.580524 -0.021071 0.063718
0.542331 0.037258 0.086110
0.529651 0.047893 0.082890
0.511736 0.064142 0.026390
0.568482 0.075118 0.030321
0.513498 0.072903 0.067412
0.587740 0.030719 0.033156
0.566493 0.015832 0.005730
0.535442 0.084354 0.020333
0.589718 0.045601 0.054796
0.580074 0.062338 0.071384
0.540997 0.031409 0.084645
0.521161 0.032698 0.075901
0.574802 0.054243 0.080414
0.553728 -0.008964 0.070906
0.524710 0.020135 0.073976
0.515162 0.016220 0.062089
0.582910 -0.017700 0.063871
0.579977 0.029445 0.020853
0.540839 -0.022583 0.002643
0.538314 0.046695 0.086238
0.583238 -0.010330 0.065939
0.554805 0.097588 0.055851
0.589841 0.033074 0.066971
0.555470 -0.015281 0.068010
0.555419 0.006556 0.000093
0.520221 0.043504 0.076881
0.533468 0.071721 0.013559
0.557863 0.078839 0.022592
0.563606 -0.019201 0.066755
0.518238 0.054660 0.075456
0.561581 -0.002361 0.000915
0.551606 0.093278 0.033790
0.537713 0.095686 0.070746
0.517201 0.028804 0.010745
0.589382 -0.001118 0.022016
0.565734 0.085688 0.039814
0.593269 -0.025089 0.017296
0.570215 -0.062466 0.021661
0.544626 -0.026933 0.003016
0.602500 -0.056739 0.018460
0.548847 0.041137 0.004584
0.530030 0.096835 0.067980
0.514795 0.086838 0.061340
0.529880 0.099627 0.063586
0.573642 0.079764 0.061021
0.542984 0.084729 0.079481
0.511303 0.007852 0.036257
0.571231 0.025147 0.011231
0.593456 -0.065084 0.022722
0.533787 0.007411 0.073555
0.582705 -0.039660 0.055827
0.584094 0.032855 0.074730
0.537303 0.031465 0.083676
0.524291 0.074601 0.077205
0.579551 0.070180 0.061646
0.558379 -0.055614 0.029041
0.563441 0.012937 0.003595
0.529152 0.023028 0.077889
0.517129 0.076316 0.025534
0.544992 -0.045069 0.026361
0.566485 0.060528 0.083408
0.578772 0.061121 0.074225
0.505387 0.059478 0.047351
0.600237 -0.023814 0.026750
0.550629 0.077264 0.017910
0.530454 0.073393 0.080682
0.564056 0.034020 0.085170
0.542655 -0.026110 0.056156
0.540868 0.079639 0.081517
0.560838 -0.010342 0.070767
0.513162 0.085583 0.058471
0.565315 -0.027554 0.002238
0.553679 0.048022 0.087315
0.529131 0.069696 0.080928
0.519881 0.050129 0.011684
0.581758 -0.022824 0.009223
0.575203 0.001313 0.073591
0.584307 -0.049190 0.008305
0.532286 0.076279 0.015883
0.577640 0.015604 0.077276
0.605249 -0.040885 0.022428
0.512638 0.068737 0.067715
0.549122 0.002689 -0.001092
0.536328 0.038416 0.002817
0.562694 -0.004628 0.073289
0.580767 0.068969 0.057513
0.566938 0.074573 0.077595
0.570583 0.031832 0.083121
0.534332 -0.028624 0.012741
0.573472 0.040680 0.018148
0.568025 0.010897 0.005790
0.562187 0.056085 0.014153
0.553545 0.087194 0.026989
0.505443 0.040469 0.052334
0.561253 0.076350 0.023439
0.509937 0.019129 0.053339
0.545051 0.099322 0.064076
0.542048 -0.039989 0.037758
0.507843 0.021461 0.029767
0.523491 -0.017712 0.029641
0.520813 0.048946 0.077468
0.518397 0.024714 0.070502
0.588272 0.050200 0.057586
0.572731 -0.063195 0.018798
0.571376 0.071570 0.031318
0.530547 0.088157 0.075238
0.514194 0.083708 0.035189
0.539623 -0.039346 0.028018
0.519588 -0.000133 0.055022
0.599145 -0.015187 0.046635
0.590202 0.022698 0.034066
0.570920 0.075582 0.034517
0.609369 -0.047095 0.032192
0.560437 0.088096 0.034924
0.554413 0.025957 0.084510
0.576729 -0.062942 0.034472
0.592963 -0.065264 0.022898
0.555926 0.065434 0.014211
0.588311 0.045049 0.065225
0.573325 0.005112 0.008503
0.504675 0.047130 0.048633
0.593808 -0.011999 0.056536
0.511776 0.037933 0.066981
0.536559 -0.018117 0.058476
0.576643 0.072162 0.042215
0.515805 0.002143 0.048828
0.520708 -0.006853 0.014202
0.512318 0.068080 0.027393
0.568572 0.043976 0.014867
0.532481 0.020163 0.000756
0.602625 -0.027090 0.042913
0.540003 0.018028 -0.000137
0.572394 0.007941 0.008328
0.525171 0.034552 0.005113
0.518986 0.005967 0.060129
0.523500 0.050500 0.009495
0.578645 -0.052776 0.048342
0.542922 0.100526 0.062671
0.567221 -0.007187 0.071931
0.577118 0.062950 0.033433
0.583840 0.052738 0.038669
0.587436 -0.061891 0.015041
0.588825 0.000298 0.021793
0.599388 -0.011548 0.042804
0.590771 0.039628 0.048728
0.551304 0.098276 0.061082
0.512329 0.006371 0.042076
0.507098 0.068599 0.052843
0.508097 0.051628 0.062902
0.507948 0.074185 0.049700
0.576573 0.074276 0.064067
0.590296 -0.055152 0.046255
0.592544 0.024136 0.062880
0.515950 0.034815 0.071542
0.557302 -0.019136 0.000323
0.519879 -0.000966 0.054619
0.556979 0.060357 0.085839
0.525783 0.008341 0.069024
0.507228 0.020357 0.039753
0.511241 0.008566 0.031378
0.580014 -0.059183 0.012210
0.594454 0.022146 0.047518
0.563357 -0.059138 0.023304
0.511745 0.018417 0.019312
0.538629 0.101650 0.044322
0.550597 -0.007188 0.071337
0.518795 0.035142 0.074543
0.593533 -0.030265 0.054352
0.534924 0.016241 0.077966
0.594180 0.021525 0.045117
0.518265 -0.000247 0.014080
0.534498 -0.030176 0.015218
0.573580 -0.057326 0.011137
0.541772 0.069407 0.084379
0.575002 0.073165 0.039578
0.576303 0.045768 0.080447
0.545064 -0.025295 0.002303
0.574113 0.078958 0.048736
0.552292 -0.028880 0.059108
0.583773 0.051726 0.071425
0.562198 0.092105 0.059273
0.598431 -0.054970 0.044141
0.516771 0.092765 0.057001
0.518846 0.073052 0.022128
0.572282 -0.050813 0.007884
0.550485 0.000062 -0.001084
0.558848 0.071739 0.018833
0.547698 0.068179 0.012598
0.510126 0.011016 0.035905
0.588213 -0.010065 0.017350
0.505722 0.060183 0.051295
0.535644 0.026169 0.081713
0.527731 -0.017780 0.010860
0.588488 0.045026 0.064700
0.507281 0.064125 0.057350
0.552806 0.093207 0.069919
0.580892 0.055589 0.074133
0.592603 0.026674 0.042953
0.596065 0.010683 0.045143
0.508708 0.045330 0.063645
0.534476 0.000180 -0.000227
0.589786 -0.022377 0.015032
0.571198 0.002005 0.006406
0.510633 0.043347 0.020030
0.523745 -0.011398 0.049505
0.594177 0.023068 0.046780
0.562914 -0.040027 0.054650
0.535400 0.076783 0.081364
0.510613 0.082871 0.050576
0.592041 -0.019820 0.057353
0.527891 -0.021897 0.042572
0.563568 -0.039225 0.055405
0.541013 0.098008 0.067595
0.524972 0.100010 0.048421
0.528951 0.068427 0.013610
0.543830 0.058119 0.086454
0.533262 -0.025532 0.047447
0.588583 0.042596 0.043018
0.594272 -0.019604 0.020563
0.551781 0.092663 0.071257
0.585744 -0.043414 0.008374
0.556508 0.096542 0.055882
0.509241 0.013859 0.034182
0.544917 0.007381 -0.001036
0.549296 -0.034284 0.004564
0.549044 -0.036032 0.051399
0.584274 0.034978 0.028963
0.507793 0.023730 0.050591
0.529268 0.098288 0.065617
0.562693 0.027308 0.084269
0.510891 0.021962 0.020151
0.510688 0.057369 0.024923
0.513993 0.027686 0.014449
0.528015 0.054905 0.082032
0.509934 0.060526 0.065597
0.564777 0.080773 0.031025
0.574244 -0.064086 0.021688
0.578911 0.037884 0.079002
0.594543 -0.062691 0.018444
0.525275 -0.020578 0.033182
0.594143 -0.008135 0.056529
0.559213 -0.027002 0.062237
0.508034 0.027857 0.025428
0.589050 0.043207 0.064277
0.508549 0.018537 0.029429
0.508561 0.070991 0.057548
0.592289 0.017867 0.063878
0.528722 0.098641 0.064692
0.527683 0.048920 0.007130
0.591666 0.029916 0.063667
0.539285 0.101714 0.061102
0.542323 0.052558 0.006504
0.505517 0.057081 0.039855
0.519002 0.020145 0.069104
0.597139 -0.062957 0.036534
0.556809 -0.028130 0.001729
0.513824 0.063314 0.070591
0.580785 0.005553 0.072590
0.603214 -0.033422 0.043998
0.522765 -0.008794 0.050826
0.588748 -0.030145 0.012269
0.505888 0.061168 0.051808
0.568815 -0.034950 0.058898
0.545060 0.025094 0.001029
0.561528 0.027083 0.084370
0.566550 0.028376 0.083784
0.558534 0.091938 0.067167
0.573035 -0.035291 0.004530
0.597713 -0.019342 0.050628
0.566323 0.011067 0.004788
0.537088 0.066046 0.010900
0.550065 0.037744 0.004094
0.550211 0.077276 0.017764
0.596494 -0.002819 0.052111
0.542103 -0.038902 0.014213
0.575317 -0.037887 0.005265
0.538673 0.072582 0.083206
0.601147 -0.058354 0.018451
0.524451 0.057625 0.011543
0.519239 0.009014 0.062908
0.601346 -0.056081 0.041880
0.548251 -0.044979 0.038619
0.601379 -0.033015 0.046604
0.587773 0.015944 0.069935
0.573285 0.075997 0.039701
0.509972 0.044409 0.065854
0.545272 0.049092 0.087304
0.583755 0.011414 0.072462
0.527287 0.076165 0.017734
0.558902 0.059462 0.013367
0.527905 0.012283 0.001650
0.537975 0.066065 0.010843
0.506398 0.037428 0.029082
0.557323 0.058606 0.012243
0.530342 0.049453 0.006488
0.545485 0.099646 0.063160
0.549655 0.091842 0.030278
0.588888 -0.037573 0.010656
0.531123 -0.017891 0.053457
0.600152 -0.037600 0.018395
0.542017 0.016918 0.080398
0.559424 -0.032509 0.058887
0.586301 -0.038253 0.009202
0.519511 0.095391 0.058534
0.590626 -0.005182 0.061415
0.561168 0.033576 0.006740
0.594194 -0.003463 0.057062
0.517933 0.052785 0.075268
0.533553 -0.005251 0.066019
0.581739 -0.062418 0.038253
0.604359 -0.039046 0.043296
0.561754 0.019698 0.004043
0.598643 -0.049125 0.046796
0.588607 0.005925 0.023614
0.580883 0.056670 0.035429
0.521000 0.020382 0.006661
0.532674 0.067926 0.082666
0.527196 -0.022935 0.037029
0.571607 0.008692 0.007879
0.577505 0.073302 0.047304
0.557522 -0.002885 0.074033
0.560563 0.053129 0.012035
0.518251 0.040078 0.010488
0.554926 -0.043628 0.047547
0.604880 -0.046382 0.042675
0.576411 -0.063755 0.031561
0.506883 0.038737 0.027505
0.513659 0.043321 0.015741
0.538896 -0.020624 0.058155
0.530781 0.051760 0.083525
0.506244 0.059039 0.055464
0.531011 0.010761 0.073733
0.557374 -0.047098 0.045298
0.546399 -0.040471 0.043718
0.591113 -0.065869 0.023790
0.603370 -0.034477 0.043984
0.587481 -0.053156 0.009911
0.509711 0.012706 0.032785
0.572470 -0.036779 0.058073
0.588271 -0.060160 0.042072
0.567302 0.087811 0.052378
0.591405 0.036575 0.060623
0.536859 0.099339 0.038458
0.569431 0.072575 0.029454
0.534005 0.006108 -0.000330
0.530127 0.072686 0.080718
0.560502 0.082370 0.027724
0.569556 -0.001500 0.073929
0.542900 0.058094 0.008214
0.545879 -0.017096 0.064576
0.555401 -0.016110 -0.000165
0.570683 0.065620 0.079586
0.597412 -0.016661 0.026724
0.516302 0.027355 0.011693
0.539379 0.030113 0.083928
0.529234 -0.026302 0.034242
0.511391 0.039559 0.066915
0.522104 0.071165 0.076556
0.513212 0.070236 0.068005
0.516019 0.000951 0.047550
0.533872 -0.006976 0.065034
0.514017 0.086908 0.059324
0.527687 -0.012940 0.054148
0.586760 0.018339 0.025664
0.597502 -0.002531 0.047875
0.523468 0.056813 0.011777
0.554455 0.065232 0.013494
0.553012 0.009161 -0.000070
0.578695 0.027556 0.078797
0.586966 0.012802 0.023800
0.539965 0.089365 0.024592
0.595500 0.016223 0.048267
0.579643 -0.028886 0.007067
0.586763 0.017574 0.071237
0.539206 0.045561 0.086410
0.550399 -0.034413 0.004306
0.528017 0.073227 0.079635
0.511960 0.081433 0.037570
0.539369 -0.021868 0.002939
0.542143 0.096635 0.034455
0.531947 0.006407 0.000184
0.505882 0.044550 0.031759
0.563652 0.089763 0.063781
0.581988 -0.011540 0.066239
0.524893 0.089111 0.071888
0.505406 0.045659 0.034154
0.521230 0.047842 0.077746
0.563180 0.044059 0.010657
0.514396 0.001694 0.026426
0.548760 0.100693 0.051619
0.529938 0.080757 0.019130
0.553318 0.006874 -0.000252
0.532833 0.061201 0.083764
0.545111 -0.009421 -0.000953
0.569717 -0.050916 0.047949
0.596466 0.000625 0.052082
0.520293 0.006552 0.007756
0.578067 0.030469 0.079425
0.528631 -0.006235 0.003368
0.543497 0.026223 0.083758
0.543224 0.055918 0.007566
0.597167 -0.003848 0.049932
0.510474 0.022277 0.020985
0.585407 -0.006964 0.015572
0.549001 0.016228 0.000231
0.525313 -0.019549 0.039127
0.520673 0.046400 0.009986
0.599125 -0.019589 0.027834
0.605485 -0.058617 0.024885
0.565827 0.008658 0.078437
0.600486 -0.021525 0.045675
0.505399 0.059098 0.043677
0.520582 0.031424 0.075049
0.519478 0.091966 0.037414
0.535120 0.101685 0.061094
0.571770 -0.060349 0.036335
0.515365 0.008380 0.055874
0.542428 0.080003 0.017516
0.560376 -0.049943 0.044035
0.516136 0.005872 0.014828
0.541752 0.102409 0.057735
0.583566 -0.003185 0.014948
0.591590 -0.040560 0.052843
0.513015 0.086008 0.057409
0.587745 -0.030071 0.057811
0.532883 0.004986 -0.000041
0.527198 0.038272 0.004729
0.505370 0.049909 0.053502
0.518881 0.012942 0.008609
0.507682 0.035466 0.057972
0.580952 -0.046399 0.052676
0.574952 0.065628 0.031966
0.522868 0.003075 0.005710
0.594119 -0.035861 0.052851
0.555661 0.007134 0.000204
0.527349 0.083758 0.075915
0.521312 0.059869 0.077504
0.575332 0.076894 0.062479
0.574189 0.076361 0.042579
0.595277 0.005690 0.037188
0.510878 0.025586 0.019434
0.534460 0.101627 0.061059
0.547020 -0.020384 0.062878
0.565841 0.075425 0.027283
0.555656 0.088902 0.073873
0.560223 0.059953 0.014338
0.540933 0.015426 -0.000411
0.576933 -0.030179 0.060986
0.541740 0.075395 0.082955
0.596155 0.010410 0.050934
0.580224 0.031368 0.078018
0.575263 -0.031385 0.060649
0.519482 0.019816 0.069433
0.587011 0.021115 0.027240
0.518481 0.001127 0.012605
0.527742 0.085966 0.023767
0.521036 0.009809 0.065564
0.514299 0.006616 0.051019
0.550916 0.099356 0.057769
0.537017 0.080420 0.080561
0.555399 -0.051848 0.013697
0.552173 0.093726 0.035065
0.580756 -0.041521 0.006831
0.594878 0.001747 0.056538
0.575652 0.050813 0.080364
0.543597 -0.023805 0.002187
0.515202 0.010289 0.014761
0.552529 0.022698 0.001757
0.563473 0.043900 0.010792
0.535261 -0.028548 0.010929
0.536428 -0.029158 0.047076
0.574007 0.024838 0.013558
0.529880 0.042437 0.082632
0.526085 -0.016293 0.047741
0.523409 0.097578 0.042836
0.554675 0.003040 -0.000378
0.552250 0.008104 -0.000303
0.531050 -0.028938 0.031595
0.508642 0.076039 0.043116
0.592464 0.004917 0.029885
0.571460 -0.028840 0.003708
0.583121 0.040015 0.029464
0.541565 0.033789 0.002085
0.585474 0.029907 0.073406
0.540299 0.080368 0.081180
0.560152 -0.018646 0.000592
0.574392 0.063117 0.077881
0.514473 0.045055 0.072013
0.582319 0.031895 0.024698
0.523266 -0.013327 0.015629
0.518942 -0.009103 0.028200
0.576517 -0.013335 0.067775
0.511790 0.038512 0.017481
0.548587 -0.048441 0.023206
0.539782 -0.011316 0.065635
0.561725 0.085779 0.033204
0.523566 0.044396 0.007688
0.607056 -0.054522 0.036627
0.585322 0.052238 0.068017
0.506539 0.062724 0.038425
0.506948 0.054364 0.031813
0.540768 0.034219 0.085234
0.565609 0.026637 0.007465
0.552944 -0.022396 0.000654
0.527343 -0.004472 0.061561
0.566177 -0.034488 0.058917
0.533014 -0.008211 0.063523
0.509192 0.052834 0.025676
0.535016 0.063221 0.084176
0.522689 0.002519 0.006026
0.520970 0.007652 0.064063
0.593139 0.031181 0.054334
0.580013 0.001326 0.013032
0.555055 -0.006064 -0.000714
0.548605 0.071319 0.014201
0.569627 -0.060285 0.014636
0.583744 0.062567 0.057778
0.521880 0.008750 0.005758
0.558327 -0.052322 0.011703
0.541319 0.083360 0.080048
0.602131 -0.058016 0.039725
0.524201 -0.018932 0.030558
0.597707 -0.023805 0.022835
0.515747 0.050839 0.073428
0.594905 -0.020255 0.054419
0.540769 -0.007183 -0.000775
0.521541 0.071278 0.076116
0.551169 0.059382 0.086474
0.591677 0.019013 0.065041
0.577524 0.007253 0.074832
0.528320 -0.024839 0.025704
0.515881 0.016912 0.012310
0.583406 0.060429 0.045691
0.533562 0.059112 0.084266
0.545845 0.060925 0.009516
0.569886 -0.046653 0.006443
0.515259 0.045594 0.072848
0.580076 0.070385 0.054109
0.540749 -0.008698 -0.000593
0.522545 -0.015147 0.038920
0.600305 -0.014918 0.037268
0.519600 0.083489 0.070445
0.555145 -0.012020 -0.000524
0.573853 -0.045962 0.052759
0.525569 -0.009048 0.007218
0.521256 0.014964 0.006121
0.562417 0.085133 0.033261
0.590670 0.030509 0.039786
0.544954 0.090383 0.026543
0.559015 0.074308 0.081816
0.525741 0.072546 0.016829
0.565064 -0.015839 0.001506
0.577025 -0.017328 0.066141
0.605867 -0.039237 0.040853
0.517293 0.024075 0.010561
0.519910 0.094058 0.062267
0.601076 -0.044250 0.016275
0.531870 0.001704 0.069416
0.597748 -0.002387 0.045702
0.542588 0.061669 0.085847
0.539094 0.088159 0.023386
0.589260 0.034482 0.038756
0.528891 0.064548 0.012164
0.545413 -0.022756 0.001446
0.542100 -0.041985 0.029390
0.567262 -0.001543 0.003433
0.599482 -0.023641 0.025584
0.565241 0.074942 0.078553
0.534035 -0.032700 0.031958
0.567686 -0.042931 0.053820
0.548101 0.100901 0.051005
0.524462 0.088587 0.027988
0.547760 -0.033124 0.004568
0.523546 0.007467 0.004440
0.504723 0.038028 0.038717
0.594355 -0.052030 0.011893
0.563135 0.059909 0.084650
0.509188 0.019430 0.025813
0.604093 -0.036713 0.023721
0.531319 0.010782 0.000374
0.555537 0.080582 0.080179
0.530255 -0.026364 0.039555
0.561592 0.055026 0.085777
0.536131 -0.034747 0.034874
0.588983 0.048034 0.053997
0.564876 -0.058562 0.032444
0.519705 0.007147 0.008356
0.543506 0.075915 0.015386
0.596791 -0.038593 0.015299
0.596031 -0.064972 0.027189
0.581511 -0.066148 0.022852
0.521735 0.054183 0.011852
0.576189 0.068268 0.072519
0.558694 0.090875 0.068900
0.516679 0.091210 0.041552
0.519627 0.040584 0.076214
0.553934 0.029344 0.085341
0.562311 0.063659 0.084043
0.581434 0.013381 0.017262
0.555257 0.048054 0.087191
0.578774 0.071648 0.048829
0.579154 0.046720 0.078129
0.523054 -0.004902 0.055768
0.533683 0.003743 0.071607
0.541698 -0.007738 0.068713
0.521081 0.089020 0.068844
0.563268 0.044445 0.010832
0.559267 0.028859 0.084967
0.558714 0.034237 0.005867
0.605050 -0.038554 0.042145
0.542409 0.062342 0.009591
0.572785 -0.017775 0.066852
0.563449 -0.031073 0.002534
0.581749 0.054240 0.073503
0.555444 0.031544 0.085763
0.567751 0.019488 0.007264
0.580529 0.060054 0.072312
0.524617 0.089372 0.071541
0.545242 0.100958 0.060095
0.564893 -0.048533 0.007383
0.517616 0.028908 0.071331
0.527150 0.086273 0.074695
0.515350 0.007047 0.015980
0.504546 0.048608 0.042717
0.605067 -0.032187 0.039075
0.526076 0.072744 0.016742
0.608688 -0.050880 0.025512
0.589567 -0.029044 0.057174
0.554208 -0.043353 0.007269
0.565581 0.030889 0.084413
0.509911 0.064917 0.029936
0.603929 -0.061060 0.030064
0.543212 0.020212 0.081824
0.517375 0.010102 0.010998
0.569992 0.085025 0.054306
0.604681 -0.029510 0.037306
0.548842 0.064826 0.011531
0.539438 0.010033 -0.000875
0.580072 -0.065790 0.021863
0.559213 -0.046737 0.007534
0.507352 0.045026 0.027184
0.554171 0.045238 0.006993
0.510909 0.008920 0.034782
0.547133 0.101253 0.050982
0.585094 -0.051377 0.049337
0.537115 -0.036112 0.024415
0.572436 -0.007668 0.005705
0.566143 0.074416 0.078244
0.581426 0.067765 0.054628
0.556402 0.065360 0.014407
0.574873 -0.009846 0.069512
0.559553 0.062891 0.084923
0.563301 0.037975 0.085734
0.509221 0.079067 0.048052
0.566381 0.066637 0.022421
0.522207 0.037881 0.007251
0.560859 0.034652 0.006856
0.555117 -0.025972 0.061965
0.517813 0.026872 0.010086
0.562159 -0.053092 0.041038
0.568063 -0.061510 0.023000
0.544946 -0.030050 0.054236
0.558218 0.037613 0.086471
0.581109 0.065016 0.065976
0.579725 0.071048 0.054290
0.523555 -0.017650 0.034865
0.592417 0.000877 0.060623
0.547202 0.010141 -0.000678
0.524261 0.028756 0.004995
0.569547 0.054645 0.019898
0.509839 0.075887 0.057873
0.590319 0.040856 0.048001
0.586295 -0.065165 0.034235
0.591407 0.038970 0.052980
0.601234 -0.059685 0.038662
0.573267 0.042988 0.018772
0.541167 0.056315 0.086378
0.561480 0.006821 0.078063
0.523015 -0.014199 0.018231
0.602224 -0.049575 0.016204
0.505717 0.055650 0.054050
0.597857 -0.064411 0.027580
0.505066 0.042545 0.035431
0.591999 -0.065223 0.021685
0.543749 0.067686 0.011704
0.505011 0.041151 0.050135
0.536521 0.029265 0.082882
0.584510 0.053364 0.069118
0.524900 -0.004080 0.059164
0.513192 0.072928 0.028690
0.583195 -0.038043 0.007822
0.580369 0.004446 0.072445
0.518893 0.092293 0.038979
0.538040 0.079828 0.080980
0.543175 -0.036044 0.046175
0.572802 -0.063220 0.027166
0.548555 0.049922 0.087387
0.580080 -0.044482 0.053807
0.514483 0.062588 0.021924
0.551253 0.090213 0.074382
0.513447 0.015210 0.016714
0.573339 0.005244 0.075660
0.592343 0.033813 0.058080
0.510887 0.075349 0.061255
0.545197 0.004764 -0.001175
0.532093 0.094333 0.071322
0.567785 -0.061185 0.019024
0.532681 0.011901 0.000065
0.578573 -0.042808 0.054780
0.546331 -0.027010 0.002587
0.558308 0.025373 0.084224
0.527351 -0.021636 0.041515
0.595207 0.017903 0.047776
0.595114 0.005506 0.036551
0.518607 0.017521 0.008867
0.567104 0.061792 0.082827
0.516788 0.006504 0.013130
0.559621 -0.007303 0.000101
0.545781 -0.019220 0.063138
0.583841 0.039492 0.074457
0.566948 0.047898 0.084935
0.532763 0.087511 0.076315
0.607979 -0.040222 0.031296
0.588063 -0.036853 0.055495
0.589905 0.043955 0.050793
0.599100 -0.057769 0.041910
0.571364 0.032433 0.082900
0.576150 -0.064569 0.020075
0.593988 0.006263 0.033958
0.513637 0.003902 0.025862
0.579830 0.045709 0.027248
0.546745 0.081950 0.019649
0.580589 0.063247 0.069556
0.511290 0.027043 0.018479
0.557169 -0.040942 0.005388
0.577710 -0.026367 0.006335
0.544167 0.029750 0.084805
0.521165 -0.012132 0.022052
0.559407 -0.054482 0.035238
0.561369 0.062349 0.084604
0.586634 0.002388 0.067362
0.585994 0.055756 0.061432
0.588880 -0.064620 0.018548
0.536510 -0.034530 0.020255
0.569889 0.041197 0.015064
0.597019 -0.042414 0.014143
0.545030 -0.045108 0.026513
0.557749 0.065266 0.084781
0.507424 0.020156 0.034797
0.544046 0.029928 0.084831
0.576458 -0.015239 0.067080
0.592622 0.017008 0.036599
0.574949 -0.003252 0.071965
0.517539 0.082416 0.029090
0.570882 0.066866 0.078853
0.546212 -0.045451 0.019335
0.589495 0.039624 0.065240
0.545262 -0.036621 0.007790
0.566817 0.054190 0.084448
0.581013 0.034543 0.024036
0.589896 0.018449 0.067745
0.540941 0.091661 0.027150
0.547157 0.073688 0.014977
0.510151 0.027494 0.059760
0.579610 0.061950 0.037266
0.544857 0.005852 -0.001129
0.542317 0.069839 0.084351
0.507326 0.024579 0.029511
0.508076 0.061230 0.032189
0.538914 0.044365 0.086272
0.599287 -0.011568 0.043594
0.509736 0.070298 0.033510
0.513418 0.010866 0.018613
0.566295 0.021084 0.082281
0.560468 -0.039772 0.054048
0.542032 0.018106 0.080838
0.524535 0.002964 0.064540
0.549624 0.098323 0.062884
0.521407 0.005982 0.063372
0.580762 0.061744 0.039636
0.567507 0.066494 0.023433
0.557523 0.093416 0.041227
0.580917 0.033072 0.023340
0.518432 0.031990 0.009651
0.538734 0.068787 0.084045
0.550625 0.004064 0.076611
0.581861 0.066669 0.052667
0.538509 0.098242 0.036495
0.586119 -0.038086 0.009138
0.525512 0.040535 0.005877
0.537151 0.038154 0.085021
0.584913 0.017961 0.073001
0.583475 -0.060190 0.013120
0.593789 0.022668 0.044315
0.549111 -0.048709 0.020927
0.551538 -0.005896 0.072109
0.542736 0.032915 0.002028
0.538370 -0.016312 0.061242
0.508295 0.049929 0.063358
0.510656 0.043047 0.019926
0.525901 0.018800 0.074232
0.521325 0.002892 0.007412
0.507132 0.023787 0.047442
0.525767 0.057173 0.010715
0.567441 0.000237 0.074952
0.527508 0.026428 0.003022
0.554652 -0.051520 0.014135
0.521242 0.095881 0.061278
0.574170 -0.056196 0.044077
0.537879 0.084816 0.020554
0.543129 0.062551 0.085771
0.557481 0.048201 0.086974
0.558213 -0.009866 -0.000197
0.569905 0.008318 0.077670
0.561535 0.026089 0.084146
0.582859 -0.061835 0.039436
0.580801 0.012803 0.074830
0.556624 0.094347 0.042123
0.544363 -0.035667 0.047907
0.582226 -0.064619 0.017454
0.554103 0.098090 0.052248
0.577103 0.071706 0.067021
0.551963 -0.048152 0.038023
0.567984 0.083459 0.068260
0.566948 0.007386 0.077829
0.564305 -0.059348 0.027140
0.514128 0.029241 0.014217
0.530393 -0.027613 0.024897
0.504825 0.037259 0.046305
0.582307 0.034941 0.025946
0.540850 0.067064 0.011211
0.585317 -0.066356 0.022128
0.585506 0.058183 0.053150
0.549873 0.095264 0.036035
0.528807 -0.025899 0.031838
0.570173 0.020518 0.009224
0.577232 0.018672 0.014713
0.561677 -0.040868 0.053618
0.555007 0.070904 0.083883
0.587827 -0.005805 0.063937
0.562388 0.038976 0.085987
0.513845 0.086344 0.039548
0.572559 0.005399 0.007977
0.568099 0.065198 0.023346
0.557111 0.000680 -0.000072
0.524942 -0.017689 0.018361
0.581032 0.025993 0.077087
0.583356 0.021365 0.074805
0.549032 -0.048200 0.018669
0.574059 0.025902 0.013913
0.583666 -0.037240 0.056677
0.560539 -0.037208 0.055989
0.608168 -0.043940 0.036938
0.546278 -0.037599 0.007775
0.553713 0.029989 0.003376
0.537285 0.011233 -0.000653
0.509908 0.077141 0.057029
0.513752 0.081954 0.063175
0.540606 0.066402 0.010948
0.606198 -0.057262 0.024231
0.524206 -0.017888 0.022739
0.519858 0.029214 0.008278
0.560982 -0.010739 0.070591
0.538225 0.094153 0.030033
0.582287 -0.046937 0.007583
0.561404 0.088673 0.069518
0.531007 0.006132 0.071406
0.562016 0.071898 0.081618
0.579905 0.069772 0.060937
0.579160 0.001432 0.012360
0.525968 0.083513 0.075269
0.529075 0.094096 0.070471
0.578233 -0.009523 0.009359
0.513741 0.008890 0.019077
0.529232 0.057710 0.082565
0.557985 0.094481 0.045347
0.518062 0.086218 0.031787
0.512280 0.017085 0.018586
0.542043 0.030501 0.001585
0.527568 0.034620 0.004013
0.506601 0.030632 0.051846
0.515748 0.070715 0.024202
0.519765 0.083279 0.070706
0.534882 0.028298 0.001311
0.508125 0.020699 0.048323
0.519257 -0.009084 0.039213
0.540104 0.098697 0.037676
0.552921 0.010689 0.000091
0.574320 0.040354 0.018825
0.559186 0.063460 0.015119
0.565918 -0.059866 0.029139
0.516830 0.031215 0.011159
0.505663 0.039583 0.052991
0.524654 0.073939 0.018109
0.533837 0.000281 0.069728
0.556407 0.060077 0.085962
0.536469 0.031510 0.001639
0.583838 0.026577 0.024664
0.568595 -0.013306 0.002930
0.593158 -0.035298 0.013885
0.584004 0.006304 0.017956
0.575429 0.071761 0.070377
0.556423 0.064069 0.085246
0.508987 0.055712 0.064535
0.539052 0.087577 0.077494
0.597124 -0.012184 0.029331
0.587081 0.031949 0.071463
0.567800 0.083257 0.039603
0.506565 0.048914 0.058582
0.504507 0.045970 0.046386
0.594116 -0.065423 0.030465
0.561834 0.086887 0.071564
0.587433 0.027440 0.071248
0.510718 0.057695 0.067341
0.539753 0.034954 0.085154
