ply
format ascii 1.0
element vertex 1024
property float x
property float y
property float z
end_header
0.564341 0.037107 0.084712
0.595021 -0.034107 0.049732
0.595997 -0.038926 0.048117
0.547813 0.095489 0.033883
0.547356 -0.035162 0.004751
0.594840 0.018972 0.046260
0.558104 0.090632 0.034434
0.506476 0.021310 0.038396
0.600603 -0.032346 0.023667
0.585995 0.014002 0.023363
0.512477 0.052605 0.020004
0.514154 0.088653 0.050096
0.533592 -0.032918 0.016595
0.531140 -0.005036 0.001410
0.520773 0.042561 0.008871
0.576265 0.015530 0.013474
0.596776 -0.001581 0.042266
0.541293 0.091110 0.026125
0.564814 0.073298 0.079524
0.542642 0.055900 0.007563
0.525929 -0.007354 0.004763
0.588554 -0.058533 0.011455
0.548427 0.100409 0.060444
0.571249 -0.044817 0.052799
0.606261 -0.049836 0.033773
0.563919 0.008503 0.077767
0.549492 0.073354 0.083329
0.525090 0.044761 0.079823
0.537147 -0.001688 0.070423
0.541074 0.068106 0.084086
0.579238 0.005887 0.013867
0.545260 0.041597 0.004297
0.545792 -0.043268 0.010322
0.554459 -0.053692 0.033804
0.513617 0.033863 0.067906
0.523352 -0.010003 0.052437
0.573277 0.004554 0.009147
0.540289 0.066901 0.011074
0.532838 0.061551 0.083163
0.554521 -0.040899 0.005107
0.519821 0.085737 0.029767
0.505361 0.050894 0.051369
0.531766 0.022009 0.078631
0.523363 0.079555 0.022019
0.543326 0.093089 0.028728
0.532623 0.057819 0.008747
0.540325 -0.031305 0.005966
0.527149 0.012816 0.072464
0.561380 0.091196 0.040320
0.604877 -0.046321 0.037432
0.605764 -0.044124 0.034842
0.515141 0.058595 0.019373
0.511895 0.012791 0.053286
0.572958 -0.002424 0.071825
0.521845 0.070215 0.018378
0.526920 -0.003042 0.062958
0.520930 0.078255 0.072834
0.572485 0.078559 0.068952
0.529664 0.039299 0.081829
0.581561 0.039650 0.076173
0.506297 0.024569 0.045353
0.520696 -0.014441 0.020564
0.539576 -0.026259 0.003954
0.573973 0.078221 0.042247
0.506585 0.063437 0.041096
0.552139 0.091062 0.029785
0.549847 0.100119 0.046218
0.531045 0.093130 0.029583
0.523026 0.088768 0.029554
0.505042 0.043846 0.035026
0.568635 -0.063603 0.018243
0.505046 0.040550 0.034177
0.521102 0.020717 0.005953
0.573009 0.028972 0.014156
0.564846 -0.045034 0.005282
0.549118 0.084581 0.079054
0.595425 -0.000611 0.051928
0.559852 -0.038514 0.055004
0.534187 0.099221 0.037859
0.510613 0.032754 0.018473
0.547934 -0.037973 0.049864
0.557986 0.047409 0.008948
0.554734 -0.035975 0.055198
0.548357 -0.032114 0.003390
0.597585 -0.040884 0.015490
0.554864 0.010232 0.000783
0.580679 -0.028369 0.008289
0.562188 0.088319 0.036148
0.528100 0.003190 0.001699
0.539145 -0.033772 0.046701
0.543104 -0.038645 0.008809
0.541540 0.064652 0.010313
0.521388 0.042419 0.077445
0.526187 0.026325 0.003529
0.551340 0.092083 0.072527
0.538621 -0.040967 0.028354
0.530967 0.069638 0.081133
0.519705 0.037161 0.008692
0.553605 0.085503 0.024566
0.565980 -0.014815 0.002441
0.535916 0.101446 0.062335
0.537054 0.020457 0.080089
0.578014 0.072799 0.065141
0.579271 0.040150 0.078056
0.593736 0.029006 0.051403
0.535515 0.064426 0.083623
0.505003 0.036829 0.034290
0.515424 0.018169 0.011613
0.580487 -0.021415 0.062207
0.544777 0.037882 0.086102
0.532128 0.048723 0.083507
0.511201 0.064687 0.027969
0.568274 0.074611 0.028410
0.515553 0.073866 0.068706
0.586840 0.029884 0.030644
0.563732 0.015106 0.004703
0.534878 0.084371 0.020277
0.590372 0.044964 0.051946
0.582040 0.062066 0.068869
0.543250 0.032044 0.084790
0.522958 0.033618 0.077217
0.577163 0.054175 0.078292
0.554393 -0.008716 0.070816
0.526153 0.020968 0.075240
0.515847 0.017107 0.063985
0.582940 -0.018089 0.062177
0.578338 0.028624 0.018837
0.537231 -0.022839 0.003605
0.540950 0.047395 0.086352
0.583526 -0.010704 0.064133
0.556553 0.097622 0.054427
0.590983 0.032573 0.064244
0.555843 -0.015097 0.067899
0.552173 0.005983 -0.000157
0.522278 0.044450 0.078119
0.532272 0.071705 0.013786
0.557287 0.078451 0.021276
0.563816 -0.019187 0.066215
0.520423 0.055626 0.076678
0.558206 -0.003041 0.000409
0.551974 0.093130 0.032647
0.540342 0.096214 0.070327
0.515073 0.029080 0.012461
0.587227 -0.002099 0.019815
0.566290 0.085337 0.037918
0.590382 -0.026192 0.015166
0.566937 -0.063067 0.021340
0.540952 -0.027257 0.003806
0.599076 -0.057999 0.016169
0.546522 0.040732 0.004292
0.532531 0.097481 0.068005
0.516747 0.087706 0.062398
0.532173 0.100226 0.063594
0.575330 0.079497 0.058692
0.545917 0.085255 0.078868
0.510310 0.008529 0.038530
0.568959 0.024389 0.009801
0.590147 -0.066121 0.021059
0.534951 0.008068 0.074438
0.581851 -0.040129 0.054428
0.585703 0.032550 0.072331
0.539507 0.032161 0.084040
0.526937 0.075465 0.077823
0.581086 0.069809 0.059084
0.555689 -0.055908 0.029321
0.560506 0.012248 0.002787
0.530872 0.023818 0.078848
0.516759 0.076745 0.026648
0.542364 -0.045137 0.027308
0.569156 0.060652 0.081696
0.580886 0.060907 0.071797
0.506021 0.060379 0.049324
0.597920 -0.024947 0.024176
0.549761 0.076964 0.017048
0.533272 0.074177 0.080945
0.566344 0.034217 0.083921
0.542149 -0.025808 0.056956
0.543831 0.080230 0.081087
0.561455 -0.010232 0.070275
0.514924 0.086450 0.059646
0.561544 -0.028285 0.001816
0.556374 0.048438 0.086504
0.531897 0.070509 0.081313
0.518200 0.050358 0.012980
0.578457 -0.023795 0.007760
0.576176 0.001175 0.072104
0.580457 -0.050214 0.007015
0.531315 0.076309 0.016120
0.579092 0.015456 0.075464
0.602350 -0.042157 0.019774
0.514636 0.069722 0.069110
0.545746 0.002226 -0.000920
0.533871 0.038233 0.003301
0.563564 -0.004527 0.072612
0.582033 0.068529 0.054902
0.569524 0.074620 0.075695
0.572696 0.031880 0.081517
0.531223 -0.028642 0.014142
0.571895 0.039951 0.016384
0.565172 0.010144 0.004733
0.560680 0.055526 0.012874
0.553393 0.086935 0.025818
0.506019 0.041429 0.054527
0.560674 0.075907 0.021952
0.510167 0.020019 0.055524
0.547338 0.099635 0.063191
0.540195 -0.039875 0.038797
0.506724 0.022130 0.032090
0.521607 -0.017337 0.031518
0.523005 0.049886 0.078604
0.519732 0.025629 0.072088
0.589180 0.049620 0.054760
0.569265 -0.063876 0.018343
0.571157 0.071020 0.029277
0.533316 0.088875 0.075325
0.514540 0.084299 0.036369
0.537210 -0.039293 0.029209
0.519541 0.000594 0.056869
0.598168 -0.016080 0.043984
0.589201 0.021828 0.031504
0.570965 0.075076 0.032448
0.606925 -0.048337 0.029352
0.560759 0.087792 0.033320
0.556531 0.026334 0.083929
0.574189 -0.063527 0.033748
0.589663 -0.066288 0.021266
0.554609 0.064993 0.013188
0.589575 0.044555 0.062446
0.570516 0.004288 0.007198
0.505156 0.048062 0.050796
0.593488 -0.012681 0.054143
0.513160 0.038933 0.068803
0.536351 -0.017674 0.059534
0.577069 0.071631 0.039836
0.515441 0.002874 0.050882
0.518117 -0.006597 0.016139
0.511915 0.068624 0.028888
0.566870 0.043304 0.013358
0.529571 0.020036 0.001693
0.601200 -0.028088 0.040208
0.536986 0.017747 0.000383
0.569629 0.007132 0.007044
0.522801 0.034610 0.006298
0.519356 0.006761 0.061928
0.521688 0.050635 0.010577
0.577111 -0.053246 0.047357
0.545153 0.100864 0.061899
0.567953 -0.007187 0.071022
0.576852 0.062315 0.031155
0.583682 0.052034 0.036108
0.583743 -0.062898 0.013708
0.586684 -0.000676 0.019608
0.598252 -0.012489 0.040101
0.590953 0.038905 0.045899
0.553382 0.098436 0.059846
0.511650 0.007093 0.044296
0.508223 0.069526 0.054593
0.509501 0.052651 0.064782
0.508989 0.075059 0.051338
0.578334 0.073988 0.061626
0.588573 -0.055870 0.044614
0.593273 0.023540 0.060110
0.517538 0.035787 0.073148
0.553589 -0.019736 0.000275
0.519792 -0.000249 0.056460
0.559809 0.060691 0.084685
0.526711 0.009102 0.070377
0.506682 0.021148 0.042108
0.509972 0.009190 0.033655
0.576219 -0.060079 0.011288
0.594232 0.021343 0.044687
0.560251 -0.059590 0.023344
0.509942 0.018895 0.021461
0.539801 0.101867 0.043824
0.551327 -0.006876 0.071410
0.520562 0.036092 0.075971
0.592745 -0.030961 0.052202
0.536511 0.016923 0.078666
0.593804 0.020702 0.042315
0.515793 0.000053 0.016081
0.531507 -0.030169 0.016624
0.569768 -0.058110 0.010573
0.544713 0.070015 0.084015
0.575294 0.072636 0.037288
0.578506 0.045673 0.078340
0.541378 -0.025636 0.003048
0.575057 0.078547 0.046412
0.551891 -0.028730 0.059368
0.585538 0.051386 0.068821
0.564034 0.092036 0.057473
0.596570 -0.055867 0.042022
0.518572 0.093546 0.057879
0.518210 0.073411 0.023187
0.568400 -0.051610 0.007324
0.547058 -0.000427 -0.000961
0.557916 0.071292 0.017552
0.546352 0.067878 0.012030
0.509172 0.011711 0.038209
0.585618 -0.011073 0.015335
0.506601 0.061121 0.053232
0.537637 0.026877 0.082243
0.524725 -0.017694 0.012522
0.589720 0.044523 0.061911
0.508589 0.065099 0.059136
0.555311 0.093436 0.068640
0.582894 0.055334 0.071647
0.592198 0.025856 0.040185
0.595486 0.009826 0.042361
0.510038 0.046351 0.065565
0.531133 0.000008 0.000838
0.586822 -0.023438 0.013079
0.568211 0.001200 0.005268
0.509338 0.043848 0.021940
0.523155 -0.010810 0.051254
0.593929 0.022262 0.043956
0.562021 -0.040128 0.054426
0.538311 0.077479 0.081292
0.511862 0.083701 0.051949
0.591628 -0.020457 0.055159
0.526687 -0.021462 0.044217
0.562733 -0.039331 0.055132
0.543492 0.098437 0.066958
0.526384 0.100536 0.048741
0.527705 0.068498 0.014144
0.546681 0.058713 0.086103
0.532269 -0.025145 0.048810
0.588485 0.041852 0.040293
0.591678 -0.020692 0.018301
0.554357 0.092927 0.070043
0.582002 -0.044466 0.006928
0.558236 0.096544 0.054370
0.508240 0.014551 0.036507
0.541639 0.006998 -0.000674
0.545569 -0.034679 0.005165
0.548060 -0.035903 0.051952
0.583210 0.034162 0.026611
0.507950 0.024629 0.052852
0.531658 0.098922 0.065674
0.564806 0.027522 0.083184
0.509205 0.022465 0.022306
0.509943 0.057920 0.026649
0.512069 0.028065 0.016361
0.530575 0.055756 0.082662
0.511659 0.061542 0.067256
0.564724 0.080345 0.029262
0.570930 -0.064764 0.021148
0.580877 0.037725 0.076840
0.591024 -0.063796 0.016695
0.523544 -0.020197 0.034982
0.593893 -0.008825 0.054069
0.559019 -0.026951 0.062059
0.506776 0.028472 0.027670
0.590223 0.042689 0.061478
0.507354 0.019188 0.031746
0.510005 0.071941 0.059175
0.592961 0.017288 0.061197
0.531064 0.099275 0.064779
0.525694 0.048949 0.007988
0.592551 0.029344 0.060877
0.541451 0.102104 0.060534
0.540336 0.052297 0.006455
0.505662 0.057897 0.041863
0.520167 0.021034 0.070713
0.594681 -0.063912 0.034602
0.553013 -0.028703 0.001817
0.515889 0.064309 0.071977
0.581767 0.005296 0.070723
0.601735 -0.034419 0.041334
0.522303 -0.008172 0.052599
0.585478 -0.031215 0.010477
0.506816 0.062108 0.053722
0.568257 -0.035119 0.058256
0.542233 0.024726 0.001163
0.563645 0.027321 0.083356
0.568646 0.028510 0.082459
0.560841 0.092027 0.065570
0.569241 -0.036143 0.003742
0.596899 -0.020163 0.048106
0.563417 0.010335 0.003831
0.535622 0.065931 0.010987
0.547645 0.037311 0.003773
0.549335 0.076982 0.016928
0.596077 -0.003604 0.049456
0.538876 -0.039051 0.015278
0.571514 -0.038774 0.004373
0.541610 0.073235 0.082989
0.597695 -0.059587 0.016259
0.522891 0.057763 0.012478
0.519830 0.009833 0.064650
0.599324 -0.057059 0.039606
0.546345 -0.044974 0.039351
0.600065 -0.033947 0.044038
0.588777 0.015520 0.067534
0.573641 0.075502 0.037478
0.511413 0.045431 0.067706
0.548003 0.049670 0.086976
0.584832 0.011096 0.070349
0.526432 0.076312 0.018265
0.557418 0.058957 0.012243
0.524911 0.012256 0.002952
0.536504 0.065933 0.010878
0.505537 0.038113 0.031297
0.555759 0.058119 0.011225
0.528320 0.049424 0.007184
0.547723 0.099940 0.062248
0.549792 0.091694 0.029274
0.585384 -0.038662 0.008949
0.530632 -0.017399 0.054842
0.597085 -0.038820 0.016009
0.543748 0.017490 0.080667
0.558929 -0.032497 0.058770
0.582704 -0.039308 0.007659
0.521446 0.096135 0.059215
0.590728 -0.005750 0.059118
0.558806 0.032960 0.005810
0.594063 -0.004148 0.054541
0.520072 0.053755 0.076531
0.534037 -0.004669 0.067084
0.579423 -0.063057 0.037220
0.602732 -0.040071 0.040634
0.558973 0.019044 0.003251
0.597048 -0.049998 0.044589
0.586679 0.004974 0.021369
0.580612 0.055987 0.033000
0.518467 0.020542 0.008263
0.535504 0.068690 0.082861
0.525646 -0.022548 0.038738
0.568830 0.007894 0.006634
0.578253 0.072811 0.044851
0.558478 -0.002677 0.073640
0.558880 0.052578 0.010892
0.516315 0.040328 0.012005
0.553561 -0.043653 0.047852
0.603079 -0.047422 0.040074
0.573684 -0.064366 0.030872
0.505952 0.039394 0.029678
0.512104 0.043716 0.017480
0.538617 -0.020229 0.059106
0.533365 0.052574 0.084027
0.507348 0.060013 0.057377
0.532253 0.011472 0.074738
0.555807 -0.047195 0.045505
0.544882 -0.040375 0.044495
0.587857 -0.066848 0.022272
0.601871 -0.035476 0.041324
0.583647 -0.054222 0.008479
0.508604 0.013374 0.035099
0.571822 -0.037027 0.057239
0.586210 -0.060883 0.040620
0.568640 0.087568 0.050341
0.592233 0.035972 0.057773
0.537644 0.099525 0.038103
0.569124 0.072042 0.027519
0.530767 0.005943 0.000690
0.532935 0.073477 0.081009
0.560291 0.081986 0.026199
0.570508 -0.001525 0.072809
0.541116 0.057840 0.008061
0.546033 -0.016765 0.065061
0.551719 -0.016679 -0.000137
0.573214 0.065619 0.077571
0.595232 -0.017742 0.024230
0.514205 0.027659 0.013478
0.541569 0.030771 0.084185
0.527452 -0.025984 0.035876
0.512802 0.040566 0.068741
0.524652 0.072065 0.077346
0.515253 0.071213 0.069347
0.515557 0.001664 0.049608
0.534265 -0.006412 0.066103
0.515852 0.087768 0.060431
0.527336 -0.012375 0.055674
0.585188 0.017443 0.023374
0.596838 -0.003382 0.045165
0.521909 0.056973 0.012779
0.553094 0.064812 0.012561
0.549810 0.008632 -0.000210
0.580458 0.027402 0.076774
0.585180 0.011883 0.021568
0.539737 0.089341 0.024201
0.595210 0.015410 0.045445
0.576105 -0.029839 0.005807
0.587876 0.017183 0.068873
0.541830 0.046247 0.086484
0.546652 -0.034832 0.004844
0.530775 0.074046 0.080046
0.512409 0.082094 0.038905
0.535795 -0.022093 0.003978
0.542631 0.096676 0.033828
0.528749 0.006287 0.001321
0.505313 0.045272 0.033913
0.565708 0.089716 0.061915
0.582274 -0.011887 0.064521
0.527492 0.089901 0.072303
0.505000 0.046417 0.036318
0.523418 0.048777 0.078870
0.561241 0.043444 0.009473
0.512699 0.002204 0.028609
0.550327 0.100796 0.050522
0.529246 0.080867 0.019445
0.550061 0.006339 -0.000381
0.535603 0.061976 0.084029
0.541526 -0.009803 -0.000397
0.568212 -0.051220 0.047469
0.596111 -0.000161 0.049386
0.517568 0.006740 0.009566
0.579921 0.030333 0.077403
0.525393 -0.006253 0.004849
0.545596 0.026801 0.083820
0.541360 0.055651 0.007421
0.596601 -0.004669 0.047254
0.508845 0.022797 0.023159
0.582769 -0.007939 0.013689
0.545955 0.015778 0.000242
0.523954 -0.019103 0.040902
0.518820 0.046596 0.011284
0.596953 -0.020689 0.025272
0.602401 -0.059862 0.022428
0.567242 0.008753 0.077405
0.599332 -0.022453 0.043024
0.505808 0.059958 0.045660
0.522306 0.032346 0.076417
0.520098 0.092478 0.038177
0.537293 0.102155 0.060772
0.569398 -0.060818 0.035870
0.515535 0.009196 0.057865
0.541603 0.079855 0.017106
0.558675 -0.050110 0.044101
0.513826 0.006219 0.016878
0.543727 0.102714 0.057019
0.580965 -0.004132 0.013128
0.590525 -0.041233 0.050936
0.514722 0.086867 0.058589
0.587176 -0.030617 0.055995
0.529643 0.004846 0.001059
0.524870 0.038287 0.005751
0.506190 0.050881 0.055581
0.516329 0.013166 0.010423
0.508494 0.036447 0.060082
0.579789 -0.046867 0.051469
0.574654 0.065017 0.029785
0.519953 0.003192 0.007414
0.593137 -0.036584 0.050737
0.552431 0.006558 -0.000067
0.530083 0.084547 0.076244
0.523708 0.060797 0.078477
0.577050 0.076612 0.060083
0.574720 0.075880 0.040293
0.594136 0.004761 0.034528
0.509217 0.026080 0.021547
0.536631 0.102110 0.060777
0.547010 -0.020093 0.063338
0.565465 0.074936 0.025529
0.558310 0.089121 0.072471
0.558803 0.059432 0.013128
0.537850 0.015125 0.000087
0.576571 -0.030482 0.059803
0.544708 0.075986 0.082523
0.595915 0.009615 0.048140
0.582008 0.031175 0.075860
0.574862 -0.031660 0.059580
0.520660 0.020700 0.071017
0.585583 0.020231 0.024898
0.515946 0.001406 0.014579
0.527426 0.086169 0.024140
0.521796 0.010623 0.067185
0.514151 0.007399 0.053104
0.552818 0.099486 0.056549
0.539946 0.081075 0.080351
0.551875 -0.052255 0.014136
0.552624 0.093582 0.033881
0.576968 -0.042495 0.005659
0.594811 0.001041 0.053915
0.577945 0.050729 0.078235
0.539934 -0.024120 0.003002
0.512972 0.010652 0.016813
0.549687 0.022196 0.001478
0.561538 0.043282 0.009592
0.532045 -0.028604 0.012277
0.535340 -0.028835 0.048297
0.571862 0.024053 0.011963
0.532240 0.043261 0.083303
0.525295 -0.015768 0.049415
0.524447 0.098072 0.043289
0.551337 0.002478 -0.000540
0.549016 0.007588 -0.000384
0.529059 -0.028683 0.033159
0.509326 0.076826 0.044703
0.590881 0.003961 0.027414
0.567741 -0.029672 0.002936
0.582183 0.039226 0.027118
0.538969 0.033499 0.002317
0.586948 0.029562 0.070964
0.543256 0.080966 0.080776
0.556459 -0.019298 0.000369
0.576769 0.063026 0.075680
0.516282 0.046058 0.073581
0.580949 0.031071 0.022507
0.520634 -0.013104 0.017491
0.517142 -0.008658 0.030243
0.576872 -0.013559 0.066399
0.510252 0.038964 0.019386
0.545703 -0.048612 0.023988
0.540118 -0.010857 0.066407
0.561899 0.085432 0.031556
0.521534 0.044512 0.008843
0.604741 -0.055669 0.034007
0.586891 0.051831 0.065322
0.506701 0.063503 0.040306
0.506562 0.055064 0.033784
0.543109 0.034865 0.085357
0.563153 0.025945 0.006355
0.549198 -0.022907 0.000902
0.527588 -0.003820 0.062991
0.565634 -0.034606 0.058425
0.533296 -0.007647 0.064660
0.508410 0.053423 0.027544
0.537843 0.063958 0.084287
0.519783 0.002643 0.007747
0.521601 0.008451 0.065718
0.593492 0.030477 0.051459
0.577389 0.000425 0.011370
0.551527 -0.006635 -0.000787
0.547410 0.071018 0.013539
0.565975 -0.060953 0.014335
0.584900 0.062074 0.055068
0.519075 0.008886 0.007451
0.554670 -0.052807 0.011978
0.544263 0.083925 0.079549
0.599944 -0.059032 0.037432
0.522347 -0.018560 0.032406
0.595163 -0.024932 0.020417
0.517745 0.051831 0.074847
0.594304 -0.020979 0.052067
0.537245 -0.007479 0.000009
0.524066 0.072183 0.076939
0.554030 0.059835 0.085674
0.592441 0.018459 0.062381
0.578676 0.007082 0.073132
0.526061 -0.024599 0.027390
0.513628 0.017233 0.014246
0.583808 0.059809 0.043050
0.536322 0.059880 0.084513
0.544185 0.060627 0.009151
0.566000 -0.047420 0.005976
0.517127 0.046591 0.074360
0.581167 0.069920 0.051528
0.537207 -0.008992 0.000211
0.521260 -0.014652 0.040804
0.598776 -0.015938 0.034563
0.522020 0.084366 0.071244
0.551518 -0.012590 -0.000530
0.572717 -0.046293 0.051965
0.522513 -0.008963 0.008907
0.518589 0.015114 0.007774
0.562581 0.084773 0.031580
0.590152 0.029691 0.037091
0.544851 0.090284 0.025841
0.561862 0.074554 0.080379
0.524769 0.072714 0.017496
0.561467 -0.016576 0.000958
0.577208 -0.017580 0.064787
0.604089 -0.040318 0.038109
0.515066 0.024348 0.012329
0.522041 0.094836 0.062934
0.597757 -0.045509 0.013920
0.532687 0.002354 0.070489
0.596957 -0.003267 0.042980
0.545471 0.062279 0.085527
0.538775 0.088138 0.023063
0.588758 0.033679 0.036098
0.527488 0.064606 0.012751
0.541722 -0.023114 0.002142
0.539714 -0.041965 0.030465
0.564041 -0.002305 0.002577
0.597101 -0.024772 0.023055
0.567895 0.075032 0.076747
0.531990 -0.032499 0.033391
0.566682 -0.043132 0.053351
0.549637 0.101010 0.049945
0.524451 0.088899 0.028515
0.544058 -0.033490 0.005246
0.520636 0.007556 0.006053
0.504448 0.038851 0.041006
0.590646 -0.053207 0.010037
0.565874 0.060111 0.083140
0.507794 0.020029 0.028089
0.601349 -0.037950 0.021082
0.528215 0.010676 0.001494
0.558410 0.080875 0.078874
0.528785 -0.026007 0.041120
0.564311 0.055271 0.084416
0.534217 -0.034553 0.036203
0.589636 0.047402 0.051162
0.562320 -0.058942 0.032370
0.517029 0.007354 0.010192
0.542476 0.075724 0.014966
0.593528 -0.039783 0.013129
0.592985 -0.066008 0.025364
0.578214 -0.066953 0.021907
0.520134 0.054377 0.012989
0.578340 0.068082 0.070160
0.561084 0.090980 0.067304
0.517536 0.091821 0.042482
0.521592 0.041535 0.077524
0.556165 0.029739 0.084746
0.565086 0.063870 0.082537
0.579282 0.012496 0.015362
0.557942 0.048439 0.086287
0.579579 0.071149 0.046318
0.581232 0.046544 0.075846
0.522957 -0.004232 0.057467
0.534664 0.004381 0.072545
0.542279 -0.007283 0.069323
0.523505 0.089849 0.069491
0.561347 0.043831 0.009638
0.561457 0.029147 0.084064
0.556317 0.033658 0.005075
0.603363 -0.039605 0.039438
0.540786 0.062112 0.009412
0.573010 -0.017937 0.065752
0.559633 -0.031764 0.002265
0.583687 0.053961 0.070985
0.557738 0.031914 0.085051
0.565147 0.018754 0.006116
0.582507 0.059784 0.069796
0.527202 0.090163 0.071970
0.547324 0.101223 0.059187
0.561039 -0.049193 0.007232
0.519079 0.029846 0.072911
0.529859 0.087051 0.075007
0.513132 0.007422 0.018060
0.504704 0.049476 0.044880
0.603316 -0.033274 0.036296
0.525102 0.072904 0.017387
0.605779 -0.052182 0.022771
0.588976 -0.029633 0.055238
0.550463 -0.043810 0.007686
0.567763 0.031049 0.083113
0.509605 0.065536 0.031607
0.601110 -0.062218 0.027720
0.545085 0.020776 0.081980
0.514915 0.010382 0.012931
0.571387 0.084752 0.052141
0.602875 -0.030610 0.034520
0.547368 0.064492 0.010939
0.536230 0.009757 -0.000222
0.576725 -0.066578 0.021000
0.555411 -0.047286 0.007696
0.506518 0.045669 0.029254
0.552055 0.044756 0.006333
0.509848 0.009588 0.037068
0.548676 0.101380 0.049974
0.583633 -0.051961 0.047952
0.534553 -0.036052 0.025722
0.569226 -0.008502 0.004614
0.568767 0.074486 0.076392
0.582497 0.067281 0.051998
0.555094 0.064913 0.013357
0.575398 -0.010020 0.068188
0.562371 0.063164 0.083588
0.565697 0.038191 0.084480
0.510251 0.079897 0.049559
0.565552 0.066086 0.020751
0.520031 0.038019 0.008567
0.558524 0.034043 0.005930
0.554933 -0.025846 0.062017
0.515609 0.027129 0.011790
0.560219 -0.053326 0.041042
0.564886 -0.062055 0.022792
0.544248 -0.029812 0.054953
0.560661 0.037935 0.085520
0.582802 0.064664 0.063378
0.580840 0.070592 0.051721
0.521981 -0.017218 0.036728
0.592580 0.000264 0.058148
0.543993 0.009717 -0.000485
0.521778 0.028832 0.006305
0.568340 0.054008 0.018192
0.511392 0.076814 0.059364
0.590481 0.040133 0.045185
0.583681 -0.065936 0.032975
0.591827 0.038282 0.050114
0.598956 -0.060696 0.036445
0.571769 0.042270 0.016990
0.543984 0.056960 0.086206
0.562847 0.006995 0.077311
0.520521 -0.013941 0.020114
0.598800 -0.050856 0.013846
0.506676 0.056619 0.056038
0.594840 -0.065478 0.025640
0.504679 0.043324 0.037650
0.588629 -0.066243 0.020112
0.542348 0.067452 0.011376
0.505470 0.042094 0.052348
0.538638 0.029967 0.083321
0.586167 0.052984 0.066454
0.525016 -0.003409 0.060738
0.512954 0.073468 0.030072
0.579525 -0.039053 0.006461
0.581322 0.004195 0.070616
0.519613 0.092833 0.039770
0.540981 0.080468 0.080716
0.541892 -0.035860 0.047083
0.569831 -0.063810 0.026691
0.551300 0.050437 0.086855
0.579022 -0.044922 0.052626
0.513650 0.063031 0.023369
0.553970 0.090522 0.073223
0.511427 0.015628 0.018806
0.574512 0.005163 0.074231
0.592968 0.033165 0.055213
0.512627 0.076294 0.062684
0.541863 0.004375 -0.000798
0.534742 0.094976 0.071250
0.564379 -0.061769 0.018835
0.529577 0.011765 0.001093
0.577606 -0.043209 0.053666
0.542628 -0.027372 0.003278
0.560390 0.025672 0.083422
0.526090 -0.021203 0.043190
0.594920 0.017089 0.044952
0.593932 0.004573 0.033904
0.516155 0.017752 0.010641
0.569763 0.061897 0.081064
0.514388 0.006820 0.015138
0.556110 -0.007953 -0.000228
0.545811 -0.018902 0.063657
0.585558 0.039188 0.071993
0.569474 0.048033 0.083346
0.535580 0.088198 0.076278
0.605612 -0.041450 0.028457
0.587231 -0.037430 0.053747
0.590291 0.043271 0.047959
0.597053 -0.058704 0.039789
0.573474 0.032464 0.081243
0.572728 -0.065301 0.019431
0.592668 0.005323 0.031373
0.511950 0.004419 0.028064
0.578873 0.044958 0.025030
0.546074 0.081742 0.018957
0.582463 0.062945 0.067003
0.509599 0.027518 0.020551
0.553352 -0.041477 0.005604
0.574179 -0.027291 0.005159
0.546392 0.030327 0.084783
0.518939 -0.011797 0.024012
0.557103 -0.054727 0.035433
0.564155 0.062583 0.083169
0.587237 0.001961 0.065198
0.587237 0.055262 0.058666
0.585341 -0.065614 0.017157
0.533733 -0.034505 0.021586
0.568145 0.040503 0.013511
0.593616 -0.043619 0.012008
0.542411 -0.045175 0.027458
0.560606 0.065572 0.083524
0.506580 0.020888 0.037152
0.546277 0.030507 0.084814
0.576736 -0.015469 0.065732
0.591661 0.016121 0.033959
0.575742 -0.003402 0.070551
0.517493 0.082875 0.030099
0.573392 0.066853 0.076812
0.543159 -0.045620 0.020228
0.590657 0.039109 0.062457
0.541690 -0.036902 0.008652
0.569432 0.054321 0.082791
0.579656 0.033736 0.021891
0.590813 0.017959 0.065192
0.540906 0.091645 0.026669
0.546055 0.073422 0.014369
0.510917 0.028449 0.061819
0.579548 0.061309 0.034845
0.541546 0.005469 -0.000745
0.545263 0.070436 0.083950
0.506251 0.025254 0.031827
0.507838 0.061911 0.034010
0.541508 0.045055 0.086379
0.598197 -0.012499 0.040896
0.509742 0.070959 0.035119
0.511430 0.011306 0.020756
0.568167 0.021208 0.081062
0.559549 -0.039833 0.053967
0.543811 0.018682 0.081091
0.525100 0.003700 0.066040
0.551813 0.098534 0.061743
0.521965 0.006765 0.065022
0.580834 0.061108 0.037145
0.566733 0.065933 0.021697
0.558322 0.093237 0.039720
0.579491 0.032260 0.021219
0.516296 0.032229 0.011257
0.541650 0.069450 0.083869
0.551875 0.004432 0.076536
0.582795 0.066155 0.050028
0.539155 0.098375 0.036060
0.582521 -0.039138 0.007603
0.523297 0.040593 0.006968
0.539559 0.038865 0.085310
0.586142 0.017626 0.070738
0.579708 -0.061142 0.012003
0.593388 0.021843 0.041524
0.546085 -0.048916 0.021685
0.552335 -0.005594 0.072109
0.540119 0.032602 0.002202
0.538356 -0.015873 0.062166
0.509694 0.050953 0.065246
0.509349 0.043547 0.021837
0.527332 0.019613 0.075441
0.518510 0.003057 0.009206
0.507105 0.024664 0.049746
0.524147 0.057276 0.011579
0.568490 0.000263 0.073933
0.524859 0.026421 0.004172
0.551162 -0.051908 0.014612
0.523345 0.096622 0.061846
0.572329 -0.056627 0.043405
0.537332 0.084789 0.020349
0.546023 0.063149 0.085408
0.560152 0.048540 0.085937
0.554640 -0.010492 -0.000411
0.571260 0.008325 0.076403
0.563620 0.026324 0.083144
0.580622 -0.062483 0.038328
0.582050 0.012567 0.072869
0.557495 0.094195 0.040655
0.543188 -0.035487 0.048737
0.578636 -0.065497 0.016457
0.555649 0.098097 0.050865
0.578990 0.071441 0.064575
0.549956 -0.048224 0.038575
0.570180 0.083381 0.066207
0.568301 0.007452 0.076747
0.561421 -0.059775 0.027119
0.512219 0.029614 0.016103
0.528031 -0.027421 0.026496
0.504985 0.038164 0.048584
0.581068 0.034130 0.023716
0.539414 0.066880 0.011063
0.581965 -0.067242 0.020962
0.586304 0.057606 0.050398
0.550414 0.095174 0.034966
0.526891 -0.025599 0.033497
0.567699 0.019759 0.007917
0.575035 0.017838 0.013001
0.560710 -0.040956 0.053479
0.557921 0.071251 0.082721
0.588072 -0.006291 0.061809
0.564820 0.039213 0.084775
0.514498 0.086989 0.040708
0.569726 0.004584 0.006715
0.567295 0.064624 0.021591
0.553743 0.000074 -0.000350
0.522388 -0.017466 0.020172
0.582660 0.025776 0.074948
0.584758 0.021079 0.072589
0.545883 -0.048430 0.019430
0.571955 0.025119 0.012302
0.582906 -0.037719 0.055191
0.559783 -0.037249 0.055868
0.606066 -0.045107 0.034123
0.542685 -0.037899 0.008589
0.551100 0.029480 0.002935
0.534116 0.011000 0.000112
0.511434 0.078058 0.058502
0.515724 0.082863 0.064351
0.539143 0.066220 0.010823
0.603100 -0.058529 0.021718
0.521909 -0.017603 0.024589
0.517587 0.029411 0.009837
0.561582 -0.010634 0.070096
0.538412 0.094222 0.029676
0.578440 -0.047930 0.006386
0.563784 0.088734 0.067788
0.532026 0.006820 0.072473
0.564801 0.072085 0.080034
0.581391 0.069386 0.058361
0.576500 0.000540 0.010749
0.528662 0.084321 0.075683
0.531675 0.094788 0.070582
0.575193 -0.010428 0.007941
0.511743 0.009330 0.021224
0.531873 0.058542 0.083087
0.559048 0.094339 0.043792
0.518245 0.086695 0.032714
0.510409 0.017545 0.020721
0.539356 0.030197 0.001830
0.525129 0.034620 0.005058
0.506962 0.031567 0.054091
0.515198 0.071157 0.025469
0.522196 0.084156 0.071497
0.532152 0.028129 0.002006
0.508090 0.021567 0.050605
0.518109 -0.008523 0.041217
0.540825 0.098813 0.037139
0.549756 0.010164 -0.000062
0.572774 0.039617 0.017013
0.557879 0.062967 0.013926
0.563140 -0.060303 0.029026
0.514772 0.031501 0.012867
0.506261 0.040546 0.055180
0.523786 0.074142 0.018821
0.534642 0.000897 0.070702
0.559241 0.060423 0.084845
0.533814 0.031313 0.002201
0.582365 0.025725 0.022448
0.565123 -0.014096 0.002140
0.589880 -0.036433 0.011892
0.581756 0.005379 0.015990
0.577519 0.071565 0.068023
0.559288 0.064406 0.084081
0.510562 0.056735 0.066310
0.541928 0.088156 0.077082
0.595182 -0.013231 0.026794
0.588474 0.031551 0.068905
0.568295 0.082864 0.037616
0.507665 0.049919 0.060593
0.504834 0.046880 0.048577
0.591259 -0.066386 0.028753
0.564302 0.086963 0.069826
0.588729 0.027034 0.068725
0.512492 0.058715 0.068984
0.542104 0.035618 0.085328
