ply
format ascii 1.0
element vertex 1024
property float x
property float y
property float z
end_header
0.564229 0.037487 0.084574
0.593290 -0.034959 0.050762
0.594160 -0.039825 0.049230
0.548722 0.095291 0.032771
0.545443 -0.035819 0.005971
0.594198 0.018042 0.046346
0.558912 0.090231 0.033373
0.505872 0.022080 0.038747
0.598808 -0.033777 0.024650
0.585164 0.012852 0.023572
0.512452 0.052912 0.019780
0.514991 0.089446 0.049220
0.531773 -0.033079 0.017821
0.529843 -0.005426 0.002151
0.520494 0.042502 0.008799
0.575430 0.014407 0.013691
0.595691 -0.002614 0.042712
0.542083 0.090912 0.025115
0.565434 0.073563 0.078741
0.542630 0.055358 0.007178
0.524598 -0.007574 0.005562
0.586171 -0.059920 0.012949
0.549539 0.100667 0.059238
0.569313 -0.045115 0.054101
0.604140 -0.051199 0.035047
0.563187 0.008779 0.078141
0.550130 0.074005 0.082598
0.525127 0.045869 0.079685
0.536181 -0.000981 0.071072
0.541608 0.068949 0.083477
0.578204 0.004713 0.014245
0.544938 0.040947 0.004159
0.543732 -0.043790 0.011691
0.552271 -0.053975 0.035325
0.513385 0.035003 0.068004
0.522149 -0.009324 0.053284
0.572199 0.003420 0.009570
0.540519 0.066466 0.010501
0.533235 0.062551 0.082699
0.552488 -0.041696 0.006405
0.520519 0.086053 0.028927
0.505421 0.051906 0.051195
0.531324 0.022965 0.078875
0.523901 0.079661 0.021277
0.544166 0.092894 0.027676
0.532658 0.057506 0.008362
0.538498 -0.031795 0.007141
0.526494 0.013763 0.072889
0.562222 0.090831 0.039238
0.602844 -0.047592 0.038647
0.603766 -0.045460 0.036016
0.515237 0.058834 0.019033
0.511170 0.013715 0.053767
0.571975 -0.002437 0.072363
0.522177 0.070292 0.017808
0.525900 -0.002253 0.063667
0.521636 0.079313 0.072116
0.573171 0.078475 0.068051
0.529595 0.040349 0.081772
0.581465 0.039520 0.075932
0.505787 0.025465 0.045645
0.519279 -0.014270 0.021505
0.537846 -0.026771 0.005043
0.574550 0.077633 0.041351
0.506866 0.064237 0.040696
0.552940 0.090703 0.028738
0.550899 0.100095 0.045015
0.531893 0.093205 0.028572
0.523785 0.089012 0.028649
0.504893 0.044578 0.034981
0.566178 -0.064453 0.019894
0.504826 0.041268 0.034190
0.520359 0.020608 0.006269
0.572457 0.027924 0.014145
0.562726 -0.046042 0.006618
0.549973 0.085160 0.078125
0.594398 -0.001445 0.052360
0.558058 -0.038538 0.056232
0.535192 0.099376 0.036727
0.510169 0.033081 0.018609
0.546135 -0.037841 0.051125
0.557800 0.046575 0.008661
0.552995 -0.035891 0.056399
0.546502 -0.032816 0.004553
0.595582 -0.042394 0.016637
0.553876 0.009332 0.001170
0.578913 -0.029659 0.009273
0.562954 0.087864 0.035114
0.526976 0.002866 0.002303
0.537422 -0.033515 0.047918
0.541135 -0.039140 0.010105
0.541720 0.064178 0.009776
0.521368 0.043563 0.077362
0.525550 0.026064 0.003728
0.552325 0.092498 0.071458
0.536679 -0.041022 0.029703
0.531524 0.070638 0.080532
0.519314 0.037123 0.008719
0.554270 0.085022 0.023614
0.564476 -0.015908 0.003235
0.537061 0.101998 0.061154
0.536585 0.021329 0.080343
0.578565 0.072535 0.064324
0.579193 0.040100 0.077813
0.593322 0.028187 0.051314
0.535972 0.065377 0.083099
0.504706 0.037551 0.034370
0.514650 0.018280 0.011993
0.579070 -0.021748 0.063059
0.544690 0.038695 0.086018
0.532259 0.049748 0.083273
0.511457 0.065158 0.027533
0.568725 0.073898 0.027600
0.516154 0.074965 0.068085
0.586366 0.028840 0.030566
0.562857 0.014089 0.004972
0.535507 0.084205 0.019411
0.590292 0.044219 0.051584
0.582381 0.061788 0.068229
0.543038 0.032867 0.084815
0.522755 0.034728 0.077285
0.577378 0.054168 0.077807
0.553280 -0.008358 0.071530
0.525678 0.021982 0.075522
0.515251 0.018137 0.064373
0.581592 -0.018475 0.062962
0.577795 0.027548 0.018812
0.535571 -0.023310 0.004641
0.541063 0.048288 0.086112
0.582339 -0.011071 0.064783
0.557583 0.097605 0.053244
0.590693 0.032037 0.064098
0.554585 -0.014818 0.068723
0.551094 0.005124 0.000315
0.522303 0.045587 0.077996
0.532614 0.071482 0.013155
0.557793 0.077838 0.020437
0.562465 -0.019102 0.067084
0.520674 0.056772 0.076363
0.556940 -0.004013 0.001020
0.552828 0.092824 0.031563
0.541407 0.096818 0.069222
0.514530 0.029208 0.012648
0.586048 -0.003331 0.020307
0.567000 0.084829 0.036923
0.588685 -0.027563 0.016077
0.564503 -0.063827 0.022987
0.539200 -0.027800 0.004908
0.596721 -0.059522 0.017615
0.546182 0.040056 0.004165
0.533616 0.098205 0.066905
0.517610 0.088663 0.061527
0.533298 0.100878 0.062447
0.575996 0.079171 0.057766
0.546786 0.085898 0.077938
0.509440 0.009227 0.039094
0.568296 0.023349 0.009886
0.587644 -0.067368 0.022680
0.534204 0.008889 0.074920
0.580016 -0.040621 0.055610
0.585445 0.032268 0.072203
0.539295 0.033048 0.084076
0.527603 0.076488 0.077133
0.581551 0.069374 0.058311
0.553437 -0.056295 0.030878
0.559566 0.011265 0.003118
0.530469 0.024796 0.079062
0.517259 0.077072 0.025978
0.540331 -0.045287 0.028719
0.569520 0.060869 0.081123
0.581215 0.060705 0.071181
0.506270 0.061338 0.048979
0.596281 -0.026316 0.025037
0.550221 0.076433 0.016263
0.533922 0.075124 0.080255
0.566169 0.034543 0.083827
0.540631 -0.025434 0.058019
0.544605 0.080957 0.080253
0.560306 -0.010030 0.070992
0.515751 0.087397 0.058804
0.559758 -0.029291 0.002865
0.556506 0.049012 0.086191
0.532473 0.071492 0.080693
0.518099 0.050423 0.012778
0.576784 -0.025050 0.008670
0.575268 0.001099 0.072566
0.578233 -0.051514 0.008388
0.531762 0.076147 0.015410
0.578492 0.015373 0.075662
0.600336 -0.043690 0.020927
0.515152 0.070848 0.068566
0.544587 0.001488 -0.000359
0.533479 0.037804 0.003262
0.562542 -0.004329 0.073220
0.582455 0.068001 0.054149
0.570155 0.074719 0.074873
0.572462 0.032032 0.081444
0.529485 -0.028799 0.015300
0.571579 0.038962 0.016181
0.564195 0.009099 0.005085
0.560677 0.054702 0.012433
0.554093 0.086481 0.024841
0.505894 0.042487 0.054518
0.561129 0.075236 0.021147
0.509601 0.021016 0.055881
0.548446 0.099964 0.062003
0.538316 -0.039778 0.040120
0.506113 0.022782 0.032426
0.520171 -0.016989 0.032505
0.523144 0.051014 0.078382
0.519343 0.026719 0.072311
0.589207 0.048948 0.054319
0.566803 -0.064738 0.019996
0.571535 0.070263 0.028522
0.534249 0.089716 0.074374
0.515234 0.084842 0.035571
0.535306 -0.039304 0.030534
0.518575 0.001427 0.057540
0.596789 -0.017106 0.044683
0.588563 0.020753 0.031561
0.571440 0.074377 0.031620
0.604819 -0.049793 0.030598
0.561503 0.087317 0.032301
0.556194 0.026867 0.084010
0.571791 -0.064218 0.035376
0.587157 -0.067522 0.022892
0.554805 0.064298 0.012599
0.589527 0.044012 0.062092
0.569425 0.003178 0.007636
0.505156 0.049070 0.050673
0.592219 -0.013431 0.054796
0.513036 0.040097 0.068812
0.535012 -0.017137 0.060472
0.577499 0.070938 0.039047
0.514500 0.003685 0.051527
0.516846 -0.006454 0.016950
0.512256 0.069095 0.028379
0.566614 0.042365 0.013113
0.528796 0.019675 0.001993
0.599557 -0.029240 0.041111
0.536156 0.017209 0.000698
0.568597 0.006037 0.007434
0.522347 0.034466 0.006361
0.518538 0.007685 0.062489
0.521583 0.050585 0.010358
0.574979 -0.053761 0.048789
0.546281 0.101216 0.060697
0.566869 -0.007108 0.071662
0.577056 0.061476 0.030534
0.583690 0.051144 0.035646
0.581280 -0.064143 0.015295
0.585534 -0.001901 0.020077
0.596932 -0.013587 0.040736
0.590724 0.038043 0.045644
0.554451 0.098581 0.058659
0.510773 0.007865 0.044880
0.508681 0.070529 0.054077
0.509648 0.053814 0.064560
0.509549 0.075986 0.050721
0.578896 0.073654 0.060788
0.586372 -0.056670 0.046055
0.592779 0.022886 0.060118
0.517365 0.036937 0.073196
0.551977 -0.020607 0.001200
0.518807 0.000572 0.057145
0.560188 0.061156 0.084143
0.525972 0.010022 0.070869
0.506089 0.021980 0.042460
0.509098 0.009807 0.034210
0.573807 -0.061211 0.012851
0.593633 0.020398 0.044734
0.557899 -0.060176 0.024952
0.509223 0.019294 0.021845
0.540882 0.102009 0.042625
0.550254 -0.006444 0.072102
0.520405 0.037230 0.076004
0.591090 -0.031723 0.053183
0.535964 0.017783 0.078984
0.593183 0.019723 0.042375
0.514661 0.000241 0.016781
0.529746 -0.030287 0.017808
0.567395 -0.059122 0.012124
0.545286 0.070780 0.083359
0.575736 0.071934 0.036488
0.578544 0.045642 0.078002
0.539657 -0.026202 0.004120
0.575656 0.078009 0.045506
0.550318 -0.028515 0.060449
0.585657 0.051038 0.068358
0.564958 0.091919 0.056363
0.594358 -0.056880 0.043435
0.519539 0.094382 0.056898
0.518627 0.073648 0.022572
0.566150 -0.052653 0.008764
0.545844 -0.001192 -0.000357
0.558258 0.070603 0.016840
0.546605 0.067333 0.011419
0.508368 0.012425 0.038721
0.584236 -0.012348 0.015993
0.506880 0.062137 0.052871
0.537309 0.027773 0.082380
0.523209 -0.017749 0.013508
0.589669 0.043968 0.061558
0.508973 0.066176 0.058696
0.556309 0.093699 0.067534
0.583106 0.055090 0.071123
0.591676 0.024871 0.040159
0.594639 0.008817 0.042609
0.510057 0.047519 0.065453
0.529938 -0.000393 0.001489
0.585175 -0.024774 0.013953
0.567049 0.000104 0.005770
0.509139 0.044259 0.021882
0.521930 -0.010147 0.052116
0.593346 0.021310 0.043988
0.560191 -0.040208 0.055676
0.539030 0.078325 0.080526
0.512603 0.084576 0.051168
0.590202 -0.021147 0.055956
0.525214 -0.020994 0.045258
0.560922 -0.039413 0.056365
0.544590 0.098914 0.065803
0.527459 0.101045 0.047611
0.527983 0.068378 0.013585
0.547027 0.059477 0.085641
0.530735 -0.024711 0.049896
0.588297 0.040940 0.039995
0.590107 -0.022036 0.019109
0.555350 0.093235 0.068949
0.579896 -0.045802 0.008194
0.559243 0.096491 0.053200
0.507488 0.015253 0.036972
0.540581 0.006348 -0.000184
0.543667 -0.035291 0.006383
0.546311 -0.035737 0.053175
0.582811 0.033121 0.026471
0.507470 0.025623 0.053136
0.532763 0.099622 0.064552
0.564489 0.027869 0.083215
0.508563 0.022893 0.022629
0.510053 0.058395 0.026338
0.511521 0.028325 0.016576
0.530849 0.056796 0.082309
0.512000 0.062700 0.066867
0.565297 0.079718 0.028363
0.568460 -0.065610 0.022811
0.580744 0.037622 0.076636
0.588552 -0.065140 0.018273
0.522062 -0.019827 0.036013
0.592704 -0.009586 0.054652
0.557492 -0.026837 0.063083
0.506280 0.029043 0.027894
0.590132 0.042116 0.061156
0.506680 0.019823 0.032133
0.510531 0.072987 0.058608
0.592341 0.016663 0.061318
0.532174 0.099971 0.063653
0.525544 0.048770 0.007785
0.592180 0.028717 0.060784
0.542601 0.102508 0.059322
0.540246 0.051784 0.006143
0.505831 0.058732 0.041564
0.519678 0.022092 0.071015
0.592275 -0.065014 0.036166
0.551221 -0.029532 0.002903
0.516304 0.065462 0.071524
0.580937 0.005077 0.071094
0.599965 -0.035559 0.042347
0.521138 -0.007469 0.053417
0.583659 -0.032566 0.011495
0.507117 0.063128 0.053343
0.566544 -0.035262 0.059395
0.541550 0.024090 0.001335
0.563325 0.027695 0.083395
0.568346 0.028764 0.082459
0.561797 0.092121 0.064470
0.567298 -0.037273 0.004904
0.595451 -0.021088 0.048881
0.562441 0.009311 0.004186
0.535833 0.065592 0.010448
0.547232 0.036604 0.003703
0.549795 0.076458 0.016144
0.594978 -0.004495 0.049940
0.536924 -0.039343 0.016595
0.569518 -0.039940 0.005574
0.542246 0.074045 0.082287
0.595308 -0.061079 0.017739
0.522941 0.057718 0.012127
0.519085 0.010794 0.065154
0.597078 -0.058172 0.041031
0.544360 -0.044993 0.040743
0.598315 -0.035005 0.045049
0.588146 0.015095 0.067699
0.574143 0.074837 0.036633
0.511420 0.046608 0.067605
0.548164 0.050426 0.086671
0.584121 0.010805 0.070606
0.526889 0.076289 0.017571
0.557484 0.058188 0.011752
0.523979 0.012017 0.003406
0.536714 0.065573 0.010336
0.505256 0.038770 0.031353
0.555804 0.057367 0.010755
0.528175 0.049175 0.006964
0.548833 0.100245 0.061052
0.550604 0.091374 0.028224
0.583406 -0.040035 0.010100
0.529283 -0.016826 0.055795
0.595127 -0.040311 0.017121
0.543218 0.018235 0.080950
0.557275 -0.032438 0.059894
0.580707 -0.040648 0.008830
0.522471 0.096934 0.058179
0.589622 -0.006357 0.059656
0.558308 0.032058 0.005778
0.592973 -0.004906 0.055040
0.520284 0.054906 0.076251
0.532997 -0.003955 0.067797
0.577047 -0.063796 0.038821
0.600841 -0.041243 0.041745
0.558177 0.018099 0.003467
0.594967 -0.050978 0.045895
0.585653 0.003778 0.021737
0.580691 0.055104 0.032479
0.517729 0.020528 0.008591
0.536047 0.069626 0.082261
0.524129 -0.022155 0.039803
0.567813 0.006807 0.007013
0.578727 0.072182 0.044036
0.557499 -0.002356 0.074232
0.558808 0.051758 0.010510
0.516003 0.040418 0.011988
0.551635 -0.043672 0.049195
0.601033 -0.048609 0.041314
0.571258 -0.065097 0.032517
0.505691 0.040014 0.029710
0.511884 0.043990 0.017416
0.537223 -0.019745 0.060082
0.533579 0.053581 0.083721
0.507620 0.061087 0.057033
0.531578 0.012354 0.075169
0.553798 -0.047300 0.046903
0.543013 -0.040273 0.045809
0.585344 -0.068026 0.023914
0.600078 -0.036619 0.042356
0.581344 -0.055561 0.009912
0.507823 0.014044 0.035584
0.570065 -0.037262 0.058400
0.583891 -0.061703 0.042158
0.569443 0.087231 0.049296
0.591988 0.035295 0.057563
0.538656 0.099612 0.036954
0.569517 0.071296 0.026752
0.529695 0.005545 0.001237
0.533570 0.074432 0.080332
0.560888 0.081397 0.025287
0.569548 -0.001469 0.073339
0.541147 0.057337 0.007647
0.544732 -0.016331 0.065948
0.550169 -0.017520 0.000740
0.573664 0.065678 0.076896
0.593744 -0.019056 0.024972
0.513636 0.027824 0.013693
0.541328 0.031619 0.084239
0.525853 -0.025678 0.036997
0.512712 0.041735 0.068721
0.525246 0.073128 0.076724
0.515801 0.072330 0.068774
0.514587 0.002451 0.050275
0.533185 -0.005719 0.066847
0.516709 0.088709 0.059563
0.526094 -0.011721 0.056549
0.584429 0.016309 0.023524
0.595727 -0.004365 0.045642
0.521944 0.056954 0.012446
0.553284 0.064137 0.011981
0.548786 0.007820 0.000223
0.580110 0.027310 0.076755
0.584298 0.010719 0.021818
0.540484 0.089141 0.023228
0.594491 0.014459 0.045594
0.574300 -0.031077 0.006833
0.587285 0.016800 0.069011
0.541919 0.047124 0.086261
0.544746 -0.035472 0.006061
0.531419 0.075029 0.079367
0.513067 0.082727 0.038153
0.534152 -0.022527 0.005005
0.543566 0.096585 0.032713
0.527687 0.005942 0.001869
0.505190 0.045978 0.033842
0.566601 0.089644 0.060840
0.581064 -0.012219 0.065196
0.528437 0.090809 0.071355
0.504910 0.047172 0.036227
0.523535 0.049901 0.078667
0.560974 0.042553 0.009245
0.511660 0.002678 0.029280
0.551409 0.100839 0.049304
0.529801 0.080805 0.018660
0.548989 0.005519 0.000092
0.536011 0.062934 0.083548
0.540120 -0.010439 0.000392
0.566124 -0.051547 0.048896
0.595084 -0.001054 0.049808
0.516550 0.006774 0.010142
0.579637 0.030262 0.077333
0.524085 -0.006461 0.005631
0.545271 0.027560 0.083930
0.541343 0.055133 0.007045
0.595471 -0.005609 0.047755
0.508213 0.023247 0.023478
0.581447 -0.009185 0.014301
0.545082 0.015052 0.000561
0.522517 -0.018637 0.041911
0.518635 0.046619 0.011147
0.595407 -0.022020 0.026060
0.600030 -0.061343 0.023896
0.566513 0.008953 0.077763
0.597817 -0.023518 0.043833
0.506034 0.060856 0.045324
0.522073 0.033456 0.076510
0.520968 0.092934 0.037214
0.538446 0.102650 0.059574
0.567066 -0.061373 0.037466
0.514752 0.010127 0.058396
0.542125 0.079494 0.016297
0.556599 -0.050299 0.045542
0.512825 0.006460 0.017476
0.544875 0.103008 0.055789
0.579720 -0.005352 0.013679
0.588653 -0.041967 0.052108
0.515554 0.087799 0.057741
0.585544 -0.031196 0.056988
0.528550 0.004478 0.001629
0.524490 0.038088 0.005741
0.506266 0.051951 0.055403
0.515447 0.013238 0.010889
0.508287 0.037553 0.060153
0.577804 -0.047367 0.052778
0.574909 0.064199 0.029124
0.518852 0.003139 0.008046
0.591360 -0.037378 0.051817
0.551364 0.005695 0.000394
0.530931 0.085473 0.075381
0.524073 0.061905 0.078058
0.577661 0.076276 0.059203
0.575241 0.075242 0.039437
0.593154 0.003643 0.034872
0.508648 0.026493 0.021806
0.537783 0.102619 0.059582
0.545633 -0.019710 0.064281
0.565911 0.074230 0.024724
0.559232 0.089391 0.071430
0.558882 0.058651 0.012623
0.536964 0.014564 0.000446
0.574959 -0.030773 0.060830
0.545399 0.076722 0.081762
0.595085 0.008700 0.048389
0.581735 0.031033 0.075768
0.573225 -0.031918 0.060634
0.520165 0.021753 0.071324
0.584887 0.019115 0.024997
0.514837 0.001564 0.015255
0.528109 0.086226 0.023266
0.521077 0.011588 0.067668
0.513313 0.008275 0.053673
0.553896 0.099584 0.055346
0.540735 0.081869 0.079516
0.549641 -0.052833 0.015643
0.553492 0.093284 0.032787
0.574899 -0.043750 0.006907
0.593826 0.000254 0.054319
0.578088 0.050706 0.077809
0.538245 -0.024657 0.004051
0.512063 0.010908 0.017335
0.548951 0.021411 0.001670
0.561268 0.042387 0.009367
0.530300 -0.028811 0.013432
0.533727 -0.028472 0.049439
0.571199 0.022992 0.012044
0.532258 0.044282 0.083166
0.523959 -0.015180 0.050358
0.525451 0.098526 0.042210
0.550184 0.001630 -0.000002
0.547970 0.006790 0.000071
0.527392 -0.028458 0.034322
0.509898 0.077628 0.044054
0.589856 0.002786 0.027784
0.565929 -0.030788 0.003988
0.581891 0.038213 0.026890
0.538473 0.032948 0.002345
0.586622 0.029230 0.070885
0.544044 0.081699 0.079931
0.554856 -0.020228 0.001276
0.577157 0.062978 0.075040
0.516324 0.047238 0.073451
0.580471 0.030005 0.022429
0.519233 -0.012987 0.018409
0.515882 -0.008244 0.031092
0.575635 -0.013745 0.067123
0.509941 0.039312 0.019412
0.543585 -0.048889 0.025450
0.538946 -0.010279 0.067210
0.562588 0.084903 0.030576
0.521296 0.044436 0.008734
0.602501 -0.056994 0.035389
0.587006 0.051393 0.064847
0.506981 0.064286 0.039905
0.506641 0.055738 0.033534
0.542957 0.035700 0.085332
0.562511 0.024965 0.006433
0.547524 -0.023675 0.001899
0.526552 -0.003044 0.063712
0.563933 -0.034692 0.059564
0.532185 -0.006959 0.065429
0.508431 0.053949 0.027318
0.538293 0.064873 0.083762
0.518672 0.002600 0.008389
0.520832 0.009395 0.066240
0.593108 0.029663 0.051344
0.576233 -0.000753 0.011852
0.550184 -0.007487 -0.000088
0.547734 0.070477 0.012868
0.563558 -0.061818 0.015949
0.585189 0.061491 0.054420
0.518093 0.008849 0.007984
0.552416 -0.053481 0.013485
0.545108 0.084614 0.078648
0.597648 -0.060196 0.038890
0.520889 -0.018212 0.033412
0.593511 -0.026311 0.021288
0.517912 0.053001 0.074609
0.592855 -0.021780 0.052865
0.535890 -0.008020 0.000773
0.524662 0.073251 0.076317
0.554396 0.060438 0.085167
0.591850 0.017865 0.062482
0.577894 0.006970 0.073481
0.524458 -0.024415 0.028492
0.512845 0.017428 0.014648
0.584003 0.059037 0.042448
0.536688 0.060832 0.084067
0.544277 0.060079 0.008677
0.563833 -0.048439 0.007350
0.517182 0.047767 0.074218
0.581606 0.069349 0.050753
0.535822 -0.009528 0.001001
0.519916 -0.014133 0.041743
0.597364 -0.017144 0.035259
0.522847 0.085371 0.070413
0.550052 -0.013435 0.000275
0.570747 -0.046637 0.053288
0.521165 -0.009039 0.009746
0.517737 0.015091 0.008198
0.563256 0.084231 0.030609
0.589699 0.028693 0.037005
0.545622 0.090007 0.024834
0.562511 0.074895 0.079584
0.525148 0.072713 0.016872
0.559922 -0.017600 0.001799
0.575882 -0.017800 0.065581
0.602183 -0.041562 0.039220
0.514424 0.024476 0.012600
0.523053 0.095689 0.061918
0.595653 -0.047049 0.015149
0.531806 0.003154 0.071081
0.595840 -0.004291 0.043455
0.545889 0.063057 0.085006
0.539492 0.087939 0.022115
0.588383 0.032690 0.035945
0.527681 0.064467 0.012263
0.540050 -0.023704 0.003168
0.537760 -0.042004 0.031828
0.562797 -0.003359 0.003155
0.595462 -0.026144 0.023916
0.568538 0.075183 0.075923
0.530244 -0.032328 0.034612
0.564784 -0.043327 0.054639
0.550721 0.101056 0.048726
0.525209 0.089095 0.027602
0.542181 -0.034070 0.006448
0.519620 0.007463 0.006605
0.504218 0.039703 0.041050
0.588368 -0.054665 0.011428
0.566233 0.060423 0.082588
0.507124 0.020589 0.028459
0.599428 -0.039441 0.022163
0.527245 0.010343 0.001965
0.559186 0.081259 0.077978
0.527204 -0.025636 0.042235
0.564575 0.055640 0.083955
0.532439 -0.034379 0.037453
0.589604 0.046657 0.050760
0.560015 -0.059412 0.033958
0.516025 0.007409 0.010759
0.542904 0.075309 0.014228
0.591541 -0.041251 0.014271
0.590500 -0.067238 0.026973
0.575699 -0.067936 0.023583
0.520117 0.054400 0.012708
0.578812 0.067902 0.069425
0.562024 0.091100 0.066221
0.518409 0.092407 0.041539
0.521554 0.042676 0.077455
0.555902 0.030293 0.084767
0.565521 0.064186 0.081921
0.578391 0.011345 0.015623
0.558073 0.048976 0.085969
0.580023 0.070519 0.045528
0.581278 0.046412 0.075484
0.521892 -0.003458 0.058212
0.533833 0.005176 0.073094
0.541192 -0.006699 0.070054
0.524439 0.090791 0.068558
0.561088 0.042940 0.009403
0.561177 0.029578 0.084078
0.555831 0.032795 0.005039
0.601477 -0.040811 0.040539
0.540911 0.061638 0.008923
0.571681 -0.018053 0.066567
0.557778 -0.032721 0.003383
0.583868 0.053689 0.070482
0.557521 0.032439 0.085028
0.564353 0.017731 0.006315
0.582804 0.059514 0.069195
0.528150 0.091071 0.071018
0.548449 0.101481 0.057971
0.558840 -0.050086 0.008655
0.518781 0.030962 0.073060
0.530754 0.087958 0.074100
0.512161 0.007698 0.018638
0.504710 0.050388 0.044734
0.601550 -0.034538 0.037284
0.525484 0.072895 0.016758
0.603568 -0.053730 0.024090
0.587361 -0.030264 0.056208
0.548381 -0.044476 0.009049
0.567518 0.031331 0.083072
0.509892 0.066104 0.031160
0.598710 -0.063577 0.029232
0.544628 0.021515 0.082199
0.513985 0.010528 0.013451
0.572137 0.084391 0.051137
0.601157 -0.031897 0.035463
0.547546 0.063908 0.010384
0.535232 0.009227 0.000238
0.574215 -0.067547 0.022675
0.553255 -0.048054 0.009104
0.506385 0.046267 0.029172
0.551805 0.044000 0.006114
0.508995 0.010268 0.037616
0.549769 0.101447 0.048753
0.581528 -0.052601 0.049338
0.532704 -0.036070 0.026998
0.567860 -0.009627 0.005284
0.569398 0.074613 0.075575
0.582883 0.066692 0.051266
0.555288 0.064210 0.012768
0.574242 -0.010146 0.068853
0.562796 0.063556 0.082993
0.565607 0.038539 0.084318
0.510905 0.080764 0.048852
0.565797 0.065296 0.020104
0.519657 0.037972 0.008579
0.558049 0.033149 0.005880
0.553430 -0.025648 0.063035
0.515022 0.027235 0.012010
0.558064 -0.053601 0.042535
0.562479 -0.062747 0.024427
0.542638 -0.029516 0.056080
0.560570 0.038406 0.085380
0.583176 0.064271 0.062689
0.581293 0.070032 0.050936
0.520568 -0.016786 0.037711
0.591596 -0.000401 0.058573
0.542991 0.009021 -0.000051
0.521205 0.028712 0.006474
0.568324 0.053119 0.017750
0.512019 0.077833 0.058706
0.590275 0.039268 0.044910
0.581228 -0.066837 0.034613
0.591601 0.037476 0.049867
0.596622 -0.061856 0.037937
0.571504 0.041293 0.016746
0.544295 0.057784 0.085785
0.562082 0.007287 0.077715
0.519113 -0.013775 0.021047
0.596584 -0.052417 0.015166
0.506872 0.057685 0.055756
0.592366 -0.066742 0.027233
0.504530 0.044110 0.037615
0.586120 -0.067475 0.021740
0.542591 0.066979 0.010787
0.505351 0.043125 0.052330
0.538379 0.030861 0.083399
0.586309 0.052580 0.065962
0.523980 -0.002619 0.061460
0.513400 0.073936 0.029473
0.577531 -0.040348 0.007640
0.580470 0.003984 0.071008
0.520496 0.093328 0.038802
0.541759 0.081248 0.079888
0.540127 -0.035652 0.048327
0.567402 -0.064535 0.028340
0.551475 0.051122 0.086525
0.577081 -0.045386 0.053903
0.513853 0.063370 0.022954
0.554925 0.090895 0.072172
0.510630 0.015949 0.019244
0.573695 0.005158 0.074629
0.592655 0.032428 0.055052
0.513256 0.077346 0.062031
0.540750 0.003719 -0.000261
0.535786 0.095713 0.070186
0.561963 -0.062521 0.020468
0.528627 0.011396 0.001540
0.575705 -0.043625 0.054917
0.540871 -0.027959 0.004376
0.560037 0.026116 0.083501
0.524618 -0.020740 0.044229
0.594234 0.016136 0.045072
0.592944 0.003449 0.034252
0.515370 0.017830 0.011026
0.570150 0.062091 0.080467
0.513393 0.007018 0.015722
0.554740 -0.008890 0.000478
0.544460 -0.018489 0.064583
0.585436 0.038900 0.071747
0.569583 0.048278 0.082996
0.536502 0.089009 0.075331
0.603645 -0.042897 0.029584
0.585448 -0.038047 0.054862
0.590160 0.042457 0.047628
0.594774 -0.059765 0.041251
0.573250 0.032594 0.081157
0.570239 -0.066215 0.021098
0.591687 0.004180 0.031712
0.510955 0.004899 0.028698
0.578692 0.043975 0.024712
0.546641 0.081321 0.018098
0.582815 0.062624 0.066346
0.509056 0.027905 0.020783
0.551309 -0.042241 0.006916
0.572425 -0.028502 0.006146
0.546144 0.031084 0.084827
0.517591 -0.011529 0.024911
0.554898 -0.055036 0.036962
0.564566 0.062931 0.082579
0.586315 0.001531 0.065610
0.587397 0.054697 0.058131
0.582835 -0.066831 0.018786
0.531900 -0.034580 0.022838
0.567831 0.039541 0.013311
0.591544 -0.045107 0.013218
0.540377 -0.045322 0.028870
0.561081 0.065999 0.082892
0.505962 0.021634 0.037510
0.546032 0.031268 0.084856
0.575457 -0.015664 0.066490
0.590914 0.015040 0.034109
0.574732 -0.003495 0.071097
0.518133 0.083245 0.029317
0.573865 0.066894 0.076115
0.541088 -0.045911 0.021646
0.590495 0.038546 0.062197
0.539756 -0.037371 0.009922
0.569668 0.054555 0.082329
0.579231 0.032685 0.021771
0.590223 0.017450 0.065307
0.541709 0.091464 0.025651
0.546432 0.072923 0.013660
0.510549 0.029539 0.062023
0.579745 0.060480 0.034232
0.540456 0.004821 -0.000227
0.545844 0.071187 0.083285
0.505704 0.025911 0.032109
0.508060 0.062559 0.033633
0.541573 0.045938 0.086178
0.596880 -0.013582 0.041532
0.510155 0.071584 0.034575
0.510550 0.011664 0.021271
0.567710 0.021450 0.081195
0.557724 -0.039869 0.055220
0.543307 0.019433 0.081353
0.524233 0.004579 0.066635
0.552891 0.098745 0.060559
0.521158 0.007690 0.065573
0.581035 0.060293 0.036531
0.566978 0.065135 0.021048
0.559204 0.092925 0.038611
0.579032 0.031201 0.021126
0.515813 0.032310 0.011384
0.542211 0.070276 0.083234
0.551057 0.004939 0.077024
0.583149 0.065525 0.049315
0.540134 0.098395 0.034926
0.580528 -0.040475 0.008773
0.522970 0.040449 0.006922
0.539491 0.039772 0.085226
0.585567 0.017311 0.070874
0.577276 -0.062334 0.013573
0.592787 0.020858 0.041565
0.543951 -0.049241 0.023152
0.551292 -0.005171 0.072775
0.539603 0.032025 0.002241
0.537064 -0.015332 0.063065
0.509808 0.052121 0.065053
0.509143 0.043955 0.021785
0.526830 0.020606 0.075743
0.517414 0.003066 0.009845
0.506614 0.025621 0.050033
0.524184 0.057189 0.011233
0.567571 0.000380 0.074439
0.524226 0.026199 0.004374
0.548937 -0.052463 0.016116
0.524390 0.097428 0.060794
0.570112 -0.057111 0.044915
0.537970 0.084573 0.019466
0.546458 0.063914 0.084870
0.560283 0.049025 0.085610
0.553217 -0.011401 0.000346
0.570518 0.008425 0.076754
0.563278 0.026696 0.083201
0.578262 -0.063227 0.039914
0.581379 0.012378 0.073109
0.558401 0.093916 0.039533
0.541436 -0.035277 0.049970
0.576131 -0.066586 0.018108
0.556675 0.098036 0.049677
0.579510 0.071146 0.063779
0.547900 -0.048330 0.040013
0.570957 0.083294 0.065229
0.567542 0.007620 0.077124
0.559079 -0.060319 0.028725
0.511702 0.029866 0.016289
0.526365 -0.027292 0.027641
0.504771 0.039140 0.048637
0.580658 0.033082 0.023583
0.539644 0.066462 0.010494
0.579440 -0.068320 0.022631
0.586482 0.056913 0.049826
0.551320 0.094941 0.033851
0.525291 -0.025324 0.034613
0.566933 0.018714 0.008089
0.574247 0.016732 0.013181
0.558859 -0.041025 0.054748
0.558512 0.071717 0.081998
0.586966 -0.006795 0.062365
0.564751 0.039583 0.084598
0.515264 0.087608 0.039862
0.568640 0.003482 0.007150
0.567513 0.063814 0.020964
0.552540 -0.000819 0.000222
0.520906 -0.017336 0.021161
0.582271 0.025606 0.074951
0.584262 0.020825 0.072668
0.543750 -0.048791 0.020889
0.571316 0.024061 0.012363
0.581124 -0.038221 0.056325
0.558018 -0.037258 0.057074
0.604045 -0.046462 0.035313
0.540731 -0.038390 0.009874
0.550520 0.028689 0.002992
0.533146 0.010520 0.000557
0.512083 0.079060 0.057822
0.516495 0.083878 0.063570
0.539358 0.065805 0.010266
0.600753 -0.060037 0.023159
0.520441 -0.017384 0.025581
0.517039 0.029440 0.010009
0.560424 -0.010437 0.070819
0.539281 0.094145 0.028620
0.576261 -0.049201 0.007726
0.564679 0.088807 0.066736
0.531245 0.007667 0.072988
0.565397 0.072360 0.079273
0.581844 0.068933 0.057594
0.575344 -0.000631 0.011232
0.529503 0.085266 0.074830
0.532713 0.095577 0.069532
0.573799 -0.011617 0.008625
0.510824 0.009690 0.021773
0.532206 0.059562 0.082680
0.559969 0.094082 0.042660
0.518974 0.087095 0.031861
0.509659 0.017921 0.021128
0.538789 0.029631 0.001915
0.524670 0.034406 0.005113
0.506631 0.032601 0.054254
0.515578 0.071498 0.024904
0.523020 0.085162 0.070670
0.531545 0.027716 0.002153
0.507538 0.022520 0.050943
0.516894 -0.007934 0.042058
0.541817 0.098817 0.035992
0.548765 0.009355 0.000344
0.572454 0.038621 0.016813
0.558035 0.062218 0.013362
0.560794 -0.060848 0.030635
0.514280 0.031642 0.013012
0.506120 0.041610 0.055186
0.524200 0.074185 0.018175
0.533732 0.001660 0.071314
0.559614 0.060903 0.084310
0.533274 0.030868 0.002285
0.581775 0.024630 0.022461
0.563633 -0.015177 0.002924
0.587958 -0.037849 0.012988
0.580719 0.004190 0.016368
0.578056 0.071363 0.067229
0.559742 0.064870 0.083475
0.510799 0.057901 0.066011
0.542851 0.088849 0.076115
0.593797 -0.014501 0.027456
0.588180 0.031150 0.068785
0.568952 0.082311 0.036658
0.507740 0.051048 0.060427
0.504800 0.047855 0.048476
0.588779 -0.067520 0.030373
0.565168 0.087061 0.068804
0.588341 0.026626 0.068685
0.512780 0.059888 0.068643
0.541969 0.036473 0.085294
