ply
format ascii 1.0
element vertex 1024
property float x
property float y
property float z
end_header
0.565074 0.037800 0.084595
0.595032 -0.033923 0.050033
0.595981 -0.038767 0.048477
0.546942 0.095227 0.033227
0.546150 -0.035918 0.006410
0.594566 0.019085 0.045638
0.557262 0.090412 0.033578
0.506011 0.021011 0.040178
0.599887 -0.032605 0.023797
0.585111 0.013686 0.023085
0.511391 0.051996 0.021082
0.513768 0.088574 0.050480
0.532709 -0.033508 0.018589
0.529741 -0.005905 0.002992
0.519413 0.041783 0.009901
0.575106 0.015010 0.013444
0.596464 -0.001528 0.041953
0.540226 0.090692 0.025730
0.565274 0.073895 0.078762
0.541190 0.055165 0.007757
0.524632 -0.008179 0.006527
0.587600 -0.059039 0.012383
0.548270 0.100615 0.059670
0.571392 -0.044651 0.053942
0.605884 -0.049896 0.034048
0.564563 0.009077 0.078166
0.550062 0.073971 0.082988
0.525676 0.045245 0.080658
0.537635 -0.001325 0.071743
0.541687 0.068711 0.084068
0.578124 0.005384 0.013923
0.543768 0.040815 0.004671
0.544769 -0.043929 0.012164
0.554118 -0.053911 0.035577
0.513918 0.034104 0.069255
0.523380 -0.009997 0.054293
0.572040 0.003950 0.009393
0.538895 0.066219 0.011139
0.533453 0.062116 0.083488
0.553342 -0.041625 0.006669
0.518883 0.085318 0.030057
0.505148 0.050816 0.052657
0.532397 0.022496 0.079681
0.522231 0.079011 0.022323
0.542323 0.092723 0.028241
0.531200 0.057074 0.009183
0.539141 -0.032061 0.007751
0.527645 0.013182 0.073805
0.560697 0.091090 0.039361
0.604589 -0.046321 0.037681
0.605397 -0.044167 0.035030
0.514015 0.057983 0.020273
0.511869 0.012772 0.055059
0.573474 -0.001925 0.072168
0.520647 0.069604 0.018890
0.527211 -0.002841 0.064588
0.521205 0.078598 0.073201
0.572632 0.078993 0.067893
0.530323 0.039833 0.082632
0.582042 0.040246 0.075540
0.506012 0.024392 0.047078
0.519862 -0.015004 0.022588
0.538319 -0.027054 0.005673
0.573384 0.078190 0.041166
0.506043 0.063180 0.042135
0.551170 0.090742 0.029089
0.549299 0.100080 0.045417
0.530071 0.092740 0.029433
0.522070 0.088354 0.029702
0.504404 0.043480 0.036455
0.567894 -0.064051 0.019806
0.504396 0.040170 0.035663
0.519739 0.019893 0.007358
0.571823 0.028451 0.013979
0.563683 -0.045725 0.006631
0.549531 0.085120 0.078529
0.595377 -0.000393 0.051630
0.560038 -0.038345 0.056350
0.533417 0.098986 0.037511
0.509556 0.032116 0.019951
0.547981 -0.037933 0.051533
0.556596 0.046747 0.008866
0.554919 -0.035819 0.056641
0.547103 -0.032890 0.004969
0.596676 -0.041294 0.015857
0.553383 0.009423 0.001442
0.579534 -0.028960 0.008908
0.561400 0.088143 0.035219
0.526680 0.002315 0.003220
0.539093 -0.033815 0.048540
0.542024 -0.039342 0.010645
0.540132 0.063960 0.010382
0.521917 0.042850 0.078424
0.524736 0.025472 0.004697
0.551545 0.092513 0.071813
0.538089 -0.041333 0.030344
0.531498 0.070160 0.081370
0.518360 0.036378 0.009846
0.552510 0.085096 0.023929
0.564631 -0.015557 0.003231
0.535813 0.101647 0.061888
0.537729 0.020987 0.081019
0.578074 0.073185 0.064031
0.579803 0.040771 0.077476
0.593569 0.029205 0.050634
0.536131 0.065007 0.083824
0.504370 0.036451 0.035843
0.514228 0.017428 0.013217
0.580802 -0.021059 0.062681
0.545552 0.038539 0.086511
0.532798 0.049293 0.084076
0.510292 0.064213 0.028866
0.567319 0.074320 0.027557
0.515731 0.074121 0.069300
0.586099 0.029696 0.030060
0.562338 0.014393 0.005030
0.533677 0.083831 0.020180
0.590163 0.045160 0.050990
0.582239 0.062531 0.067834
0.544011 0.032674 0.085343
0.523513 0.034051 0.078307
0.577652 0.054792 0.077525
0.554911 -0.008291 0.071783
0.526697 0.021379 0.076464
0.516098 0.017288 0.065567
0.583241 -0.017727 0.062525
0.577280 0.028202 0.018516
0.535953 -0.023648 0.005329
0.541700 0.048043 0.086699
0.583855 -0.010307 0.064334
0.556238 0.097748 0.053481
0.591158 0.032989 0.063481
0.556302 -0.014718 0.068940
0.550683 0.005150 0.000652
0.522819 0.044896 0.079037
0.530938 0.071045 0.013986
0.556126 0.077999 0.020663
0.564240 -0.018812 0.067107
0.520884 0.056039 0.077453
0.556761 -0.003844 0.001209
0.551075 0.092860 0.031918
0.540476 0.096571 0.069844
0.513862 0.028350 0.013883
0.586302 -0.002472 0.019787
0.565560 0.085205 0.036928
0.589414 -0.026632 0.015475
0.566280 -0.063466 0.022939
0.539694 -0.028050 0.005505
0.598247 -0.058390 0.016794
0.545032 0.039954 0.004646
0.532600 0.097772 0.067718
0.516702 0.087851 0.062721
0.532110 0.100438 0.063271
0.575189 0.079759 0.057543
0.546323 0.085781 0.078419
0.509892 0.008247 0.040429
0.567671 0.023779 0.009819
0.589485 -0.066452 0.022071
0.535516 0.008494 0.075646
0.582018 -0.039903 0.055196
0.586102 0.033092 0.071710
0.540248 0.032766 0.084695
0.527357 0.075915 0.078070
0.580989 0.070097 0.057945
0.555231 -0.056202 0.031101
0.559071 0.011491 0.003254
0.531503 0.024307 0.079890
0.515768 0.076262 0.027181
0.541817 -0.045510 0.029268
0.569719 0.061303 0.081034
0.581171 0.061420 0.070813
0.505717 0.060265 0.050428
0.597193 -0.025205 0.024251
0.548491 0.076414 0.016672
0.533780 0.074702 0.081038
0.567065 0.034903 0.083799
0.542351 -0.025662 0.058568
0.544317 0.080789 0.080783
0.561960 -0.009795 0.071074
0.514808 0.086541 0.060042
0.560227 -0.029049 0.002965
0.557118 0.049136 0.086407
0.532429 0.071037 0.081508
0.516926 0.049644 0.013943
0.577281 -0.024403 0.008360
0.576685 0.001688 0.072295
0.579355 -0.050825 0.008023
0.530029 0.075687 0.016265
0.579641 0.016035 0.075323
0.601562 -0.042477 0.020030
0.514841 0.069981 0.069802
0.544250 0.001359 0.000132
0.532368 0.037399 0.004048
0.564112 -0.004043 0.073252
0.581825 0.068747 0.053762
0.569872 0.075165 0.074783
0.573356 0.032544 0.081262
0.530259 -0.029283 0.016128
0.570731 0.039465 0.016044
0.563797 0.009436 0.005107
0.559369 0.054940 0.012574
0.552329 0.086550 0.025162
0.505926 0.041410 0.055960
0.559540 0.075478 0.021290
0.510177 0.020033 0.057217
0.547261 0.099886 0.062460
0.539947 -0.040053 0.040718
0.506082 0.021721 0.033854
0.521084 -0.017703 0.033562
0.523539 0.050341 0.079407
0.520174 0.025964 0.073410
0.589032 0.049861 0.053753
0.568528 -0.064320 0.019893
0.570237 0.070753 0.028407
0.533616 0.089299 0.075163
0.513790 0.083980 0.036826
0.536696 -0.039649 0.031208
0.519654 0.000664 0.058643
0.597956 -0.015991 0.043886
0.588512 0.021664 0.030996
0.570119 0.074863 0.031510
0.606421 -0.048473 0.029585
0.559895 0.087561 0.032442
0.557283 0.026991 0.084216
0.573873 -0.063684 0.035148
0.589007 -0.066617 0.022294
0.553274 0.064393 0.012889
0.589657 0.044933 0.061513
0.569227 0.003641 0.007526
0.504938 0.047974 0.052139
0.593545 -0.012428 0.054109
0.513467 0.039188 0.070075
0.536596 -0.017502 0.061162
0.576437 0.071568 0.038786
0.515382 0.002825 0.052732
0.517133 -0.007247 0.018100
0.511017 0.068167 0.029696
0.565613 0.042748 0.013100
0.528091 0.019163 0.002879
0.600925 -0.028054 0.040238
0.535474 0.016874 0.001405
0.568326 0.006479 0.007347
0.521397 0.033795 0.007413
0.519587 0.006918 0.063596
0.520346 0.049890 0.011440
0.577133 -0.053157 0.048489
0.545036 0.101086 0.061207
0.568465 -0.006717 0.071587
0.576014 0.062100 0.030279
0.583014 0.051929 0.035221
0.582869 -0.063378 0.014844
0.585749 -0.001054 0.019570
0.597919 -0.012468 0.039939
0.590599 0.038997 0.045036
0.553214 0.098647 0.058971
0.511397 0.006917 0.046180
0.508031 0.069510 0.055473
0.509650 0.052821 0.065917
0.508687 0.074987 0.052102
0.578293 0.074312 0.060489
0.588523 -0.055793 0.045477
0.593365 0.023891 0.059445
0.517974 0.036132 0.074352
0.552202 -0.020553 0.001495
0.519897 -0.000185 0.058242
0.560458 0.061366 0.084279
0.527163 0.009431 0.071796
0.506319 0.020916 0.043884
0.509418 0.008820 0.035555
0.575271 -0.060626 0.012583
0.593906 0.021427 0.044042
0.559640 -0.059974 0.025066
0.509018 0.018310 0.023198
0.539184 0.101754 0.043272
0.551855 -0.006450 0.072429
0.521074 0.036496 0.077085
0.592814 -0.030742 0.052509
0.537160 0.017427 0.079673
0.593416 0.020742 0.041694
0.514786 -0.000607 0.017989
0.530616 -0.030765 0.018627
0.568795 -0.058690 0.012013
0.545316 0.070630 0.083864
0.574588 0.072522 0.036272
0.579027 0.046296 0.077685
0.540093 -0.026441 0.004707
0.574582 0.078592 0.045293
0.552165 -0.028511 0.060760
0.585773 0.051863 0.067876
0.563819 0.092240 0.056416
0.596446 -0.055811 0.042665
0.518381 0.093616 0.058051
0.517135 0.072873 0.023740
0.567316 -0.052252 0.008689
0.545571 -0.001290 0.000102
0.556678 0.070778 0.017050
0.544978 0.067231 0.011909
0.508735 0.011419 0.040085
0.584603 -0.011528 0.015511
0.506402 0.061078 0.054306
0.538348 0.027445 0.083043
0.523679 -0.018386 0.014497
0.589788 0.044892 0.060975
0.508538 0.065165 0.060082
0.555402 0.093810 0.067794
0.583194 0.055852 0.070705
0.591733 0.025853 0.039519
0.595137 0.009874 0.041884
0.510231 0.046538 0.066795
0.529699 -0.000872 0.002332
0.585788 -0.023927 0.013439
0.566881 0.000512 0.005715
0.508338 0.043265 0.023257
0.523153 -0.010825 0.053130
0.593580 0.022332 0.043304
0.562196 -0.039963 0.055741
0.538815 0.078025 0.081188
0.511545 0.083648 0.052482
0.591741 -0.020190 0.055312
0.526528 -0.021589 0.046186
0.562925 -0.039151 0.056413
0.543524 0.098744 0.066351
0.525912 0.100468 0.048580
0.526395 0.067831 0.014526
0.547381 0.059372 0.086094
0.532247 -0.025174 0.050687
0.587967 0.041837 0.039450
0.590777 -0.021074 0.018477
0.554490 0.093322 0.069232
0.580876 -0.045074 0.007793
0.557922 0.096674 0.053396
0.507746 0.014225 0.038360
0.540135 0.006122 0.000408
0.544373 -0.035432 0.006865
0.548157 -0.035825 0.053579
0.582344 0.033892 0.026055
0.507871 0.024589 0.054527
0.531657 0.099169 0.065387
0.565530 0.028191 0.083222
0.508291 0.021891 0.024000
0.509022 0.057419 0.027700
0.510971 0.027394 0.017882
0.531197 0.056305 0.083151
0.511844 0.061761 0.068174
0.563773 0.080056 0.028407
0.570273 -0.065153 0.022667
0.581384 0.038331 0.076260
0.590232 -0.064202 0.017644
0.523127 -0.020496 0.037021
0.593934 -0.008572 0.053956
0.559359 -0.026663 0.063222
0.505989 0.027984 0.029324
0.590285 0.043052 0.060561
0.506713 0.018776 0.033544
0.509930 0.072011 0.059961
0.593105 0.017659 0.060649
0.531038 0.099504 0.064502
0.524285 0.048171 0.008771
0.592643 0.029706 0.060129
0.541294 0.102290 0.059923
0.538867 0.051536 0.006776
0.505161 0.057651 0.043024
0.520588 0.021347 0.072104
0.594383 -0.063991 0.035442
0.551701 -0.029493 0.003209
0.516192 0.064624 0.072728
0.582221 0.005801 0.070689
0.601514 -0.034362 0.041459
0.522329 -0.008167 0.054452
0.584400 -0.031753 0.011012
0.506627 0.062074 0.054772
0.568517 -0.034868 0.059309
0.540716 0.023882 0.001917
0.564375 0.027989 0.083430
0.569346 0.029178 0.082374
0.560851 0.092364 0.064598
0.568002 -0.036848 0.004815
0.596815 -0.020004 0.048111
0.562017 0.009606 0.004251
0.534231 0.065233 0.011197
0.546153 0.036528 0.004156
0.548062 0.076429 0.016563
0.595971 -0.003427 0.049194
0.537977 -0.039647 0.017234
0.570301 -0.039461 0.005429
0.542174 0.073822 0.082867
0.596874 -0.059981 0.016950
0.521575 0.057053 0.013182
0.520124 0.010039 0.066249
0.599137 -0.057037 0.040196
0.546128 -0.045122 0.041191
0.599917 -0.033848 0.044200
0.589104 0.015989 0.067129
0.572930 0.075387 0.036457
0.511667 0.045659 0.068913
0.548759 0.050351 0.087088
0.585254 0.011604 0.070129
0.525208 0.075712 0.018543
0.556078 0.058349 0.011973
0.523494 0.011392 0.004402
0.535109 0.065236 0.011064
0.504817 0.037684 0.032814
0.554394 0.057489 0.011015
0.526886 0.048639 0.007887
0.547618 0.100176 0.061501
0.548807 0.091357 0.028632
0.584292 -0.039225 0.009617
0.530750 -0.017327 0.056625
0.596183 -0.039223 0.016354
0.544447 0.018051 0.081464
0.559198 -0.032267 0.060034
0.581579 -0.039902 0.008413
0.521281 0.096237 0.059262
0.590898 -0.005419 0.059036
0.557381 0.032248 0.005960
0.594100 -0.003888 0.054342
0.520536 0.054165 0.077349
0.534444 -0.004374 0.068544
0.579199 -0.063138 0.038466
0.602511 -0.040023 0.040831
0.557528 0.018290 0.003642
0.596973 -0.049897 0.045115
0.585772 0.004626 0.021232
0.579845 0.055817 0.032131
0.517169 0.019750 0.009743
0.536084 0.069256 0.082988
0.525340 -0.022774 0.040758
0.567514 0.007231 0.006946
0.577754 0.072840 0.043745
0.559050 -0.002190 0.074387
0.557524 0.051952 0.010694
0.515051 0.039592 0.013196
0.553571 -0.043630 0.049466
0.602868 -0.047382 0.040390
0.573292 -0.064576 0.032302
0.505182 0.038938 0.031162
0.510980 0.043063 0.018725
0.538859 -0.020057 0.060717
0.534035 0.053157 0.084494
0.507267 0.060045 0.058447
0.532815 0.011895 0.075961
0.555764 -0.047205 0.047120
0.544791 -0.040437 0.046292
0.587232 -0.067165 0.023359
0.601652 -0.035419 0.041464
0.582598 -0.054797 0.009468
0.508076 0.013025 0.036962
0.572059 -0.036783 0.058228
0.586070 -0.060883 0.041638
0.568243 0.087662 0.049240
0.592216 0.036278 0.056919
0.536879 0.099305 0.037655
0.568153 0.071738 0.026688
0.529309 0.005058 0.002090
0.533447 0.074002 0.081123
0.559252 0.081630 0.025439
0.571048 -0.001016 0.073204
0.539671 0.057108 0.008262
0.546424 -0.016466 0.066402
0.550310 -0.017510 0.001081
0.573644 0.066209 0.076713
0.594482 -0.018009 0.024252
0.513027 0.026945 0.014948
0.542318 0.031386 0.084807
0.527079 -0.026255 0.037908
0.513102 0.040817 0.069994
0.525072 0.072500 0.077716
0.515459 0.071478 0.069996
0.515468 0.001594 0.051477
0.534652 -0.006132 0.067588
0.515752 0.087876 0.060778
0.527459 -0.012300 0.057460
0.584292 0.017124 0.023058
0.596612 -0.003278 0.044880
0.520604 0.056265 0.013524
0.551743 0.064196 0.012308
0.548309 0.007790 0.000618
0.581000 0.028007 0.076386
0.584254 0.011533 0.021351
0.538625 0.088884 0.023880
0.594926 0.015511 0.044876
0.574898 -0.030487 0.006579
0.588234 0.017674 0.068463
0.542587 0.046900 0.086827
0.545447 -0.035588 0.006517
0.531259 0.074547 0.080211
0.511738 0.081813 0.039458
0.534525 -0.022900 0.005728
0.541756 0.096397 0.033294
0.527307 0.005407 0.002771
0.504639 0.044887 0.035310
0.565624 0.090004 0.060851
0.582618 -0.011486 0.064777
0.527708 0.090253 0.072285
0.504389 0.046073 0.037702
0.523963 0.049239 0.079681
0.559878 0.042803 0.009370
0.512030 0.001756 0.030559
0.549895 0.100834 0.049694
0.528037 0.080296 0.019565
0.548564 0.005495 0.000480
0.536239 0.062565 0.084270
0.540089 -0.010671 0.000982
0.568233 -0.051156 0.048811
0.595991 0.000015 0.049063
0.516357 0.005971 0.011312
0.580470 0.030946 0.076978
0.524095 -0.007079 0.006609
0.546348 0.027422 0.084401
0.539905 0.054910 0.007655
0.596438 -0.004529 0.046997
0.507954 0.022237 0.024858
0.581698 -0.008432 0.013889
0.544443 0.014931 0.001050
0.523696 -0.019297 0.042907
0.517513 0.045854 0.012297
0.596242 -0.020932 0.025298
0.601749 -0.060133 0.022991
0.567873 0.009330 0.077707
0.599116 -0.022376 0.043006
0.505405 0.059779 0.046779
0.522843 0.032764 0.077548
0.519367 0.092206 0.038337
0.537143 0.102333 0.060275
0.569132 -0.060954 0.037354
0.515646 0.009270 0.059598
0.540328 0.079281 0.016904
0.558603 -0.050136 0.045689
0.512819 0.005567 0.018733
0.543469 0.102845 0.056337
0.579866 -0.004641 0.013312
0.590597 -0.041041 0.051485
0.514575 0.086939 0.058984
0.587351 -0.030348 0.056448
0.528199 0.003964 0.002509
0.523437 0.037468 0.006744
0.506093 0.050879 0.056843
0.515119 0.012407 0.012090
0.508572 0.036533 0.061531
0.579900 -0.046698 0.052413
0.573768 0.064771 0.028924
0.518694 0.002393 0.009157
0.593186 -0.036388 0.051133
0.550941 0.005727 0.000724
0.530425 0.084977 0.076246
0.524199 0.061251 0.079070
0.576957 0.076904 0.058936
0.574086 0.075817 0.039234
0.593589 0.004668 0.034181
0.508270 0.025493 0.023178
0.536482 0.102285 0.060299
0.547365 -0.019821 0.064712
0.564430 0.074585 0.024750
0.558521 0.089572 0.071616
0.557485 0.058845 0.012810
0.536339 0.014250 0.001131
0.576854 -0.030179 0.060545
0.545248 0.076574 0.082268
0.595725 0.009767 0.047652
0.582511 0.031768 0.075363
0.575144 -0.031366 0.060390
0.521090 0.021020 0.072400
0.584719 0.019940 0.024521
0.514893 0.000720 0.016460
0.526328 0.085674 0.024215
0.522157 0.010880 0.068715
0.514138 0.007385 0.054909
0.552556 0.099638 0.055673
0.540410 0.081609 0.080140
0.550987 -0.052829 0.015965
0.551758 0.093335 0.033125
0.575801 -0.043142 0.006629
0.594812 0.001292 0.053604
0.578445 0.051347 0.077506
0.538643 -0.024930 0.004674
0.511948 0.009995 0.018614
0.548184 0.021381 0.002071
0.560180 0.042643 0.009484
0.531029 -0.029275 0.014241
0.535316 -0.028863 0.050154
0.570633 0.023491 0.011906
0.532924 0.043829 0.083964
0.525259 -0.015808 0.051320
0.523835 0.097903 0.043228
0.549849 0.001636 0.000354
0.547515 0.006740 0.000484
0.528619 -0.028996 0.035195
0.508835 0.076638 0.045430
0.590143 0.003733 0.027175
0.566457 -0.030398 0.003937
0.581314 0.038960 0.026501
0.537453 0.032664 0.003008
0.587320 0.030084 0.070362
0.543732 0.081517 0.080474
0.555072 -0.020105 0.001502
0.577155 0.063595 0.074770
0.516694 0.046405 0.074639
0.579983 0.030721 0.022069
0.519710 -0.013721 0.019495
0.516555 -0.009063 0.032259
0.577276 -0.013141 0.066832
0.509198 0.038340 0.020764
0.545076 -0.049032 0.025918
0.540527 -0.010554 0.067808
0.560995 0.085174 0.030688
0.520166 0.043736 0.009818
0.604392 -0.055728 0.034425
0.587028 0.052250 0.064334
0.506138 0.063232 0.041342
0.505849 0.054679 0.034975
0.543875 0.035504 0.085864
0.561767 0.025257 0.006508
0.547842 -0.023727 0.002299
0.527883 -0.003617 0.064617
0.565898 -0.034360 0.059542
0.533647 -0.007395 0.066194
0.507530 0.052934 0.028716
0.538478 0.064557 0.084431
0.518535 0.001849 0.009505
0.521929 0.008682 0.067292
0.593320 0.030676 0.050670
0.576227 -0.000127 0.011574
0.550065 -0.007480 0.000261
0.546067 0.070401 0.013333
0.565118 -0.061478 0.015927
0.584719 0.062305 0.053962
0.517797 0.008083 0.009119
0.553723 -0.053410 0.013740
0.544693 0.084457 0.079169
0.599704 -0.059046 0.038040
0.521853 -0.018909 0.034451
0.594334 -0.025266 0.020569
0.518171 0.052204 0.075763
0.594333 -0.020759 0.052156
0.535813 -0.008354 0.001466
0.524474 0.072609 0.077323
0.554711 0.060509 0.085443
0.592614 0.018849 0.061826
0.579192 0.007620 0.073151
0.525449 -0.025023 0.029441
0.512509 0.016533 0.015914
0.583303 0.059825 0.042020
0.536978 0.060479 0.084771
0.542758 0.059924 0.009219
0.564865 -0.048094 0.007335
0.517558 0.046954 0.075386
0.580861 0.070076 0.050389
0.535786 -0.009863 0.001695
0.520984 -0.014856 0.042806
0.598303 -0.016013 0.034450
0.522228 0.084683 0.071474
0.550084 -0.013429 0.000622
0.572842 -0.046137 0.053094
0.521338 -0.009727 0.010792
0.517298 0.014315 0.009346
0.561679 0.084518 0.030705
0.589589 0.029627 0.036417
0.543778 0.089873 0.025362
0.562342 0.075157 0.079677
0.523537 0.072096 0.017884
0.560085 -0.017357 0.001904
0.577582 -0.017189 0.065282
0.603799 -0.040310 0.038275
0.513868 0.023616 0.013834
0.521983 0.095005 0.062985
0.596821 -0.045946 0.014364
0.533164 0.002704 0.071862
0.596671 -0.003201 0.042691
0.546143 0.062924 0.085489
0.537635 0.087659 0.022791
0.588153 0.033592 0.035392
0.526154 0.063914 0.013208
0.540403 -0.023934 0.003748
0.539244 -0.042290 0.032441
0.562651 -0.003052 0.003201
0.596343 -0.025053 0.023149
0.568270 0.075590 0.075871
0.531569 -0.032798 0.035413
0.566836 -0.042971 0.054591
0.549188 0.101036 0.049133
0.523465 0.088472 0.028622
0.542861 -0.034247 0.006967
0.519323 0.006734 0.007701
0.503992 0.038590 0.042535
0.589633 -0.053733 0.010814
0.566480 0.060777 0.082578
0.507049 0.019553 0.029862
0.600582 -0.038251 0.021291
0.526762 0.009797 0.002882
0.558828 0.081440 0.078157
0.528555 -0.026181 0.043113
0.564970 0.055956 0.083982
0.533880 -0.034796 0.038198
0.589397 0.047581 0.050184
0.561954 -0.059162 0.034018
0.515832 0.006594 0.011942
0.541157 0.075116 0.014814
0.592552 -0.040247 0.013590
0.592440 -0.066255 0.026293
0.577582 -0.067306 0.023262
0.518845 0.053668 0.013828
0.578555 0.068558 0.069121
0.561145 0.091348 0.066342
0.516927 0.091617 0.042722
0.522127 0.041969 0.078513
0.556928 0.030408 0.084983
0.565662 0.064523 0.081932
0.578186 0.012018 0.015300
0.558680 0.049138 0.086147
0.579125 0.071208 0.045204
0.581680 0.047132 0.075102
0.523102 -0.004140 0.059231
0.535190 0.004774 0.073826
0.542755 -0.006922 0.070600
0.523645 0.090140 0.069585
0.559987 0.043193 0.009525
0.562201 0.029820 0.084166
0.554870 0.032925 0.005282
0.603107 -0.039576 0.039611
0.539363 0.061403 0.009547
0.573413 -0.017542 0.066369
0.558342 -0.032525 0.003527
0.583973 0.054470 0.070045
0.558501 0.032593 0.085206
0.563778 0.018069 0.006339
0.582740 0.060267 0.068788
0.527407 0.090508 0.071956
0.547130 0.101404 0.058430
0.559946 -0.049860 0.008758
0.519529 0.030193 0.074177
0.530159 0.087458 0.074972
0.512154 0.006788 0.019912
0.504318 0.049282 0.046214
0.602951 -0.033302 0.036360
0.523866 0.072285 0.017762
0.605108 -0.052437 0.023106
0.589126 -0.029372 0.055625
0.549368 -0.044503 0.009410
0.568472 0.031725 0.083008
0.508793 0.065121 0.032531
0.600613 -0.062399 0.028357
0.545808 0.021364 0.082681
0.513784 0.009663 0.014685
0.571048 0.084886 0.051012
0.602452 -0.030670 0.034551
0.545976 0.063830 0.010850
0.534730 0.008872 0.000961
0.576068 -0.066952 0.022390
0.554326 -0.047963 0.009344
0.505714 0.045206 0.030613
0.550604 0.044031 0.006462
0.509387 0.009278 0.038962
0.548228 0.101403 0.049183
0.583664 -0.051841 0.048880
0.533933 -0.036478 0.027739
0.567912 -0.009197 0.005203
0.569134 0.075040 0.075502
0.582213 0.067450 0.050868
0.553764 0.064317 0.013046
0.575840 -0.009577 0.068599
0.562980 0.063827 0.083069
0.566419 0.038884 0.084306
0.509883 0.079797 0.050204
0.564418 0.065652 0.020127
0.518679 0.037235 0.009698
0.557099 0.033332 0.006069
0.555269 -0.025571 0.063273
0.514386 0.026390 0.013232
0.560073 -0.053400 0.042645
0.564267 -0.062434 0.024428
0.544408 -0.029695 0.056577
0.561414 0.038631 0.085489
0.582841 0.065034 0.062279
0.580537 0.070750 0.050579
0.521602 -0.017492 0.038757
0.592701 0.000582 0.057910
0.542483 0.008852 0.000484
0.520396 0.028015 0.007549
0.567177 0.053540 0.017703
0.511304 0.076891 0.060027
0.590103 0.040211 0.044314
0.583349 -0.066077 0.034155
0.591591 0.038451 0.049236
0.598695 -0.060730 0.037110
0.570614 0.041794 0.016614
0.544695 0.057613 0.086302
0.563484 0.007558 0.077766
0.519673 -0.014513 0.022135
0.597881 -0.051290 0.014355
0.506570 0.056626 0.057186
0.594300 -0.065714 0.026508
0.504115 0.043004 0.039096
0.587942 -0.066595 0.021168
0.540960 0.066781 0.011374
0.505315 0.042035 0.053786
0.539368 0.030557 0.084039
0.586331 0.053420 0.065466
0.525248 -0.003253 0.062428
0.512071 0.073035 0.030766
0.578368 -0.039679 0.007300
0.581778 0.004697 0.070613
0.518924 0.092588 0.039936
0.541457 0.081011 0.080486
0.541857 -0.035887 0.048883
0.569324 -0.064105 0.028220
0.552048 0.051125 0.086863
0.579158 -0.044735 0.053556
0.512618 0.062484 0.024230
0.554198 0.090973 0.072463
0.510441 0.015000 0.020561
0.575066 0.005708 0.074398
0.592890 0.033428 0.054390
0.512633 0.076433 0.063320
0.540364 0.003498 0.000324
0.534907 0.095331 0.070944
0.563650 -0.062220 0.020483
0.528109 0.010882 0.002424
0.577765 -0.043008 0.054605
0.541355 -0.028169 0.004933
0.561130 0.026331 0.083614
0.525902 -0.021349 0.045172
0.594617 0.017180 0.044362
0.593369 0.004469 0.033567
0.514934 0.016995 0.012232
0.570304 0.062539 0.080365
0.513331 0.006138 0.016967
0.554666 -0.008773 0.000716
0.546170 -0.018628 0.065043
0.585924 0.039723 0.071260
0.570128 0.048716 0.082896
0.535908 0.088646 0.076064
0.605059 -0.041607 0.028605
0.587367 -0.037199 0.054319
0.589978 0.043397 0.047037
0.596878 -0.058685 0.040470
0.574123 0.033124 0.080956
0.572024 -0.065715 0.020910
0.592034 0.005170 0.031059
0.511258 0.003959 0.029995
0.577927 0.044644 0.024406
0.544841 0.081214 0.018597
0.582608 0.063378 0.065942
0.508619 0.026914 0.022147
0.552189 -0.042198 0.007209
0.572946 -0.027958 0.005940
0.547158 0.030966 0.085279
0.518191 -0.012305 0.026037
0.556809 -0.054909 0.037149
0.564754 0.063245 0.082611
0.587548 0.002387 0.065074
0.587178 0.055564 0.057612
0.584572 -0.066029 0.018294
0.532994 -0.035006 0.023601
0.566902 0.039954 0.013267
0.592622 -0.044103 0.012535
0.541868 -0.045544 0.029417
0.561205 0.066228 0.083011
0.506082 0.020568 0.038939
0.547043 0.031147 0.085311
0.577128 -0.015064 0.066203
0.591060 0.016008 0.033482
0.576224 -0.002916 0.070836
0.516574 0.082454 0.030503
0.573797 0.067431 0.075928
0.542418 -0.046114 0.022178
0.590759 0.039491 0.061590
0.540600 -0.037606 0.010496
0.570047 0.054993 0.082232
0.578663 0.033371 0.021443
0.591065 0.018394 0.064689
0.539853 0.091236 0.026274
0.544726 0.072815 0.014158
0.511070 0.028575 0.063340
0.578814 0.061168 0.033910
0.540045 0.004593 0.000367
0.545863 0.071051 0.083776
0.505591 0.024839 0.033549
0.507106 0.061533 0.035045
0.542267 0.045706 0.086752
0.597886 -0.012464 0.040736
0.509007 0.070605 0.035943
0.510513 0.010714 0.022586
0.568854 0.021852 0.081119
0.559711 -0.039683 0.055345
0.544517 0.019251 0.081865
0.525453 0.003949 0.067601
0.551698 0.098774 0.060908
0.522280 0.006985 0.066616
0.580164 0.061011 0.036177
0.565625 0.065519 0.021042
0.557616 0.093111 0.038810
0.578485 0.031883 0.020802
0.515040 0.031482 0.012591
0.542252 0.070053 0.083812
0.552504 0.004948 0.077339
0.582460 0.066290 0.048911
0.538337 0.098124 0.035591
0.581395 -0.039734 0.008360
0.521890 0.039791 0.007964
0.540311 0.039492 0.085846
0.586550 0.018143 0.070367
0.578782 -0.061666 0.013221
0.592973 0.021868 0.040894
0.545396 -0.049375 0.023612
0.552878 -0.005153 0.073078
0.538603 0.031768 0.002876
0.538666 -0.015649 0.063706
0.509862 0.051132 0.066405
0.508347 0.042962 0.023159
0.527886 0.020031 0.076656
0.517301 0.002285 0.010991
0.506940 0.024567 0.051446
0.522808 0.056554 0.012257
0.569056 0.000785 0.074352
0.523425 0.025576 0.005375
0.550286 -0.052475 0.016455
0.523250 0.096776 0.061831
0.572255 -0.056622 0.044731
0.536130 0.084258 0.020176
0.546688 0.063794 0.085340
0.560879 0.049240 0.085734
0.553200 -0.011319 0.000618
0.571864 0.008898 0.076602
0.564348 0.026989 0.083236
0.580426 -0.062540 0.039529
0.582537 0.013111 0.072699
0.556812 0.094083 0.039751
0.543197 -0.035481 0.050494
0.577849 -0.065945 0.017778
0.555233 0.098158 0.049938
0.579039 0.071819 0.063463
0.549728 -0.048374 0.040374
0.570235 0.083759 0.065128
0.568918 0.008022 0.077043
0.560914 -0.060090 0.028809
0.511108 0.028940 0.017592
0.527404 -0.027854 0.028542
0.504741 0.038038 0.050106
0.580124 0.033802 0.023221
0.538020 0.066195 0.011152
0.581307 -0.067600 0.022219
0.586009 0.057759 0.049334
0.549573 0.094939 0.034243
0.526451 -0.025914 0.035539
0.566376 0.019113 0.008051
0.573856 0.017305 0.012964
0.560862 -0.040812 0.054845
0.558479 0.071884 0.082184
0.588319 -0.005921 0.061808
0.565546 0.039908 0.084607
0.513858 0.086745 0.041117
0.568423 0.003926 0.007060
0.566189 0.064211 0.020944
0.552268 -0.000757 0.000519
0.521553 -0.018030 0.022203
0.583156 0.026355 0.074529
0.585206 0.021624 0.072195
0.545129 -0.048929 0.021355
0.570732 0.024563 0.012223
0.583085 -0.037476 0.055886
0.559988 -0.037066 0.057194
0.605682 -0.045162 0.034320
0.541597 -0.038601 0.010424
0.549611 0.028694 0.003361
0.532622 0.010115 0.001331
0.511318 0.078120 0.059143
0.515750 0.083040 0.064786
0.537744 0.065530 0.010931
0.602423 -0.058810 0.022238
0.521196 -0.018090 0.026633
0.516301 0.028643 0.011185
0.562083 -0.010199 0.070898
0.537434 0.093857 0.029304
0.577313 -0.048559 0.007410
0.563866 0.089119 0.066791
0.532541 0.007202 0.073785
0.565279 0.072692 0.079294
0.581275 0.069663 0.057221
0.575320 -0.000026 0.010975
0.528990 0.084737 0.075729
0.531824 0.095123 0.070364
0.573976 -0.011045 0.008397
0.510846 0.008747 0.023079
0.532496 0.059103 0.083492
0.558450 0.094286 0.042840
0.517384 0.086323 0.033029
0.509469 0.016948 0.022470
0.537838 0.029355 0.002568
0.523691 0.033791 0.006109
0.506893 0.031544 0.055671
0.514195 0.070650 0.026143
0.522412 0.084479 0.071727
0.530649 0.027268 0.002979
0.507960 0.021489 0.052331
0.517824 -0.008731 0.043198
0.540035 0.098586 0.036615
0.548255 0.009324 0.000740
0.571629 0.039144 0.016655
0.556571 0.062390 0.013572
0.562687 -0.060578 0.030677
0.513563 0.030778 0.014255
0.506189 0.040539 0.056621
0.522586 0.073544 0.019210
0.535130 0.001257 0.072046
0.559895 0.061099 0.084460
0.532305 0.030460 0.003072
0.581415 0.025379 0.022066
0.563763 -0.014846 0.002941
0.588859 -0.036931 0.012396
0.580702 0.004922 0.015984
0.577663 0.072000 0.066947
0.559908 0.065068 0.083625
0.510737 0.056934 0.067343
0.542276 0.088638 0.076694
0.594486 -0.013454 0.026738
0.588781 0.032041 0.068227
0.567564 0.082734 0.036613
0.507709 0.050011 0.061829
0.504559 0.046751 0.049950
0.590809 -0.066578 0.029734
0.564446 0.087386 0.068845
0.589047 0.027522 0.068119
0.512734 0.058968 0.069929
0.542867 0.036253 0.085851
