ply
format ascii 1.0
element vertex 1024
property float x
property float y
property float z
end_header
0.565369 0.038308 0.084585
0.594556 -0.034026 0.050640
0.595463 -0.038895 0.049139
0.546866 0.095115 0.032663
0.545123 -0.036379 0.007661
0.594284 0.018919 0.045525
0.557167 0.090255 0.032952
0.505677 0.021201 0.041141
0.599089 -0.033090 0.024330
0.584522 0.013258 0.023167
0.510963 0.051895 0.021556
0.513880 0.088859 0.050418
0.531847 -0.033738 0.019972
0.528813 -0.006336 0.004036
0.518796 0.041492 0.010418
0.574404 0.014499 0.013634
0.596039 -0.001752 0.042099
0.540036 0.090511 0.025313
0.565666 0.074318 0.078256
0.540607 0.054737 0.007819
0.523739 -0.008537 0.007665
0.586536 -0.059618 0.013434
0.548550 0.100857 0.059012
0.570917 -0.044584 0.054990
0.605132 -0.050269 0.034742
0.564644 0.009502 0.078557
0.550509 0.074525 0.082669
0.525961 0.045890 0.081037
0.537589 -0.000855 0.072614
0.542124 0.069322 0.083925
0.577382 0.004866 0.014207
0.543079 0.040333 0.004899
0.543777 -0.044304 0.013541
0.553370 -0.054011 0.036970
0.514009 0.034651 0.069936
0.523076 -0.009696 0.055463
0.571236 0.003399 0.009774
0.538407 0.065847 0.011077
0.533852 0.062759 0.083539
0.552291 -0.042117 0.007909
0.518723 0.085300 0.029979
0.505111 0.051177 0.053220
0.532562 0.023097 0.080289
0.521945 0.078872 0.022292
0.542173 0.092565 0.027770
0.530646 0.056714 0.009343
0.538150 -0.032470 0.009036
0.527694 0.013727 0.074601
0.560677 0.090996 0.038682
0.603900 -0.046638 0.038342
0.604684 -0.044525 0.035652
0.513605 0.057858 0.020632
0.511682 0.013138 0.056060
0.573427 -0.001624 0.072601
0.520274 0.069426 0.019008
0.527069 -0.002418 0.065611
0.521553 0.079159 0.073180
0.572911 0.079231 0.067226
0.530607 0.040483 0.083027
0.582235 0.040547 0.075287
0.505781 0.024675 0.047994
0.519138 -0.015118 0.023877
0.537325 -0.027488 0.006900
0.573325 0.078060 0.040506
0.505932 0.063392 0.042519
0.551021 0.090553 0.028535
0.549398 0.100122 0.044756
0.529937 0.092659 0.029115
0.521920 0.088316 0.029544
0.504129 0.043624 0.037130
0.566901 -0.064432 0.021170
0.504096 0.040304 0.036384
0.518988 0.019567 0.008172
0.571190 0.027962 0.014026
0.562611 -0.046267 0.007798
0.549974 0.085615 0.078064
0.595079 -0.000479 0.051773
0.559624 -0.038191 0.057453
0.533414 0.098998 0.037064
0.509021 0.032011 0.020721
0.547509 -0.037786 0.052781
0.555987 0.046260 0.008852
0.554520 -0.035637 0.057773
0.546072 -0.033376 0.006167
0.595737 -0.041871 0.016551
0.552506 0.008854 0.001982
0.578568 -0.029550 0.009647
0.561314 0.087988 0.034573
0.525795 0.001901 0.004189
0.538604 -0.033666 0.049843
0.541034 -0.039724 0.011993
0.539624 0.063572 0.010337
0.522163 0.043483 0.078884
0.523977 0.025086 0.005372
0.551939 0.092906 0.071223
0.537337 -0.041428 0.031765
0.531908 0.070783 0.081334
0.517717 0.036092 0.010450
0.552270 0.084831 0.023437
0.563658 -0.016153 0.003973
0.536127 0.101980 0.061370
0.537904 0.021580 0.081581
0.578278 0.073344 0.063377
0.580023 0.041110 0.077243
0.593396 0.029111 0.050393
0.536547 0.065641 0.083801
0.504054 0.036587 0.036616
0.513540 0.017209 0.014132
0.580546 -0.020921 0.063287
0.545877 0.039168 0.086733
0.533144 0.049950 0.084310
0.510019 0.064223 0.029185
0.567073 0.074033 0.027028
0.516011 0.074655 0.069409
0.585673 0.029357 0.029909
0.561528 0.013829 0.005389
0.533385 0.083606 0.019941
0.590070 0.045085 0.050572
0.582440 0.062724 0.067274
0.544294 0.033295 0.085666
0.523716 0.034675 0.078867
0.577938 0.055140 0.077127
0.554831 -0.007904 0.072534
0.526817 0.021964 0.077159
0.516064 0.017776 0.066452
0.582999 -0.017603 0.063054
0.576703 0.027748 0.018497
0.534971 -0.024075 0.006538
0.542072 0.048692 0.086840
0.583670 -0.010162 0.064754
0.556426 0.097867 0.052764
0.591164 0.033081 0.063216
0.556156 -0.014376 0.069762
0.549776 0.004584 0.001283
0.523082 0.045533 0.079457
0.530509 0.070750 0.013957
0.555812 0.077673 0.020224
0.564052 -0.018533 0.067888
0.521180 0.056662 0.077744
0.555818 -0.004431 0.001888
0.550972 0.092710 0.031336
0.540865 0.096990 0.069337
0.513233 0.028141 0.014652
0.585596 -0.002949 0.020076
0.565482 0.085054 0.036269
0.588541 -0.027181 0.016058
0.565329 -0.063796 0.024314
0.538693 -0.028493 0.006728
0.597239 -0.058960 0.017703
0.544339 0.039466 0.004870
0.532969 0.098201 0.067292
0.516963 0.088289 0.062630
0.532436 0.100807 0.062815
0.575343 0.079844 0.056836
0.546768 0.086290 0.077986
0.509502 0.008422 0.041519
0.566965 0.023254 0.009982
0.588507 -0.066907 0.023198
0.535565 0.009026 0.076408
0.581580 -0.039871 0.056046
0.586213 0.033322 0.071505
0.540524 0.033396 0.085063
0.527753 0.076513 0.078008
0.581101 0.070160 0.057299
0.554417 -0.056367 0.032513
0.558226 0.010919 0.003694
0.531680 0.024914 0.080484
0.515530 0.076221 0.027267
0.541032 -0.045636 0.030700
0.570081 0.061736 0.080645
0.581404 0.061658 0.070280
0.505696 0.060592 0.050855
0.596435 -0.025672 0.024716
0.548120 0.076070 0.016350
0.534208 0.075309 0.080912
0.567337 0.035390 0.083804
0.542025 -0.025393 0.059716
0.544769 0.081341 0.080442
0.561864 -0.009452 0.071758
0.515030 0.086953 0.059994
0.559188 -0.029626 0.003946
0.557491 0.049706 0.086340
0.532845 0.071657 0.081449
0.516397 0.049419 0.014382
0.576330 -0.024990 0.009065
0.576657 0.001975 0.072638
0.578275 -0.051424 0.009064
0.529651 0.075427 0.016183
0.579718 0.016348 0.075432
0.600669 -0.043021 0.020679
0.515107 0.070528 0.069979
0.543320 0.000818 0.000896
0.531657 0.036965 0.004465
0.564069 -0.003681 0.073830
0.581878 0.068749 0.053124
0.570220 0.075511 0.074202
0.573585 0.032966 0.081222
0.529386 -0.029535 0.017484
0.570176 0.039008 0.015953
0.562965 0.008867 0.005516
0.558844 0.054489 0.012412
0.552110 0.086302 0.024652
0.505886 0.041813 0.056642
0.559221 0.075143 0.020843
0.510052 0.020435 0.058139
0.547572 0.100172 0.061824
0.539331 -0.040015 0.042097
0.505673 0.021823 0.034808
0.520485 -0.017673 0.034870
0.523833 0.050978 0.079743
0.520279 0.026538 0.074124
0.588996 0.049829 0.053285
0.567534 -0.064703 0.021253
0.569984 0.070464 0.027891
0.534039 0.089825 0.074839
0.513709 0.084079 0.036829
0.535963 -0.039725 0.032624
0.519455 0.001042 0.059712
0.597487 -0.016194 0.044212
0.588060 0.021326 0.030925
0.569924 0.074617 0.030938
0.605620 -0.048909 0.030253
0.559772 0.087376 0.031822
0.557524 0.027532 0.084452
0.573073 -0.063885 0.036430
0.588031 -0.067067 0.023429
0.552798 0.063975 0.012673
0.589695 0.045004 0.061103
0.568398 0.003079 0.007947
0.504880 0.048329 0.052744
0.593221 -0.012470 0.054439
0.513592 0.039748 0.070692
0.536342 -0.017170 0.062269
0.576317 0.071390 0.038179
0.515120 0.003143 0.053826
0.516390 -0.007410 0.019316
0.510773 0.068184 0.029952
0.565037 0.042276 0.013028
0.527280 0.018736 0.003600
0.600354 -0.028320 0.040693
0.534633 0.016391 0.002065
0.567508 0.005919 0.007739
0.520712 0.033461 0.008015
0.519479 0.007363 0.064580
0.519786 0.049614 0.011833
0.576549 -0.053192 0.049583
0.545338 0.101365 0.060583
0.568389 -0.006399 0.072148
0.575743 0.061809 0.029809
0.582757 0.051673 0.034803
0.581815 -0.063900 0.016013
0.585046 -0.001531 0.019847
0.597417 -0.012726 0.040218
0.590403 0.038840 0.044699
0.553476 0.098856 0.058278
0.511072 0.007163 0.047269
0.508116 0.069894 0.055744
0.509787 0.053341 0.066394
0.508756 0.075321 0.052290
0.578457 0.074422 0.059818
0.587888 -0.055924 0.046466
0.593278 0.023919 0.059278
0.518138 0.036728 0.074953
0.551185 -0.021112 0.002460
0.519689 0.000186 0.059320
0.560861 0.061889 0.084004
0.527169 0.009951 0.072650
0.506032 0.021154 0.044845
0.508969 0.008931 0.036644
0.574202 -0.061142 0.013809
0.593615 0.021242 0.043905
0.558733 -0.060244 0.026475
0.508459 0.018253 0.024164
0.539266 0.101816 0.042713
0.551792 -0.006040 0.073193
0.521273 0.037115 0.077642
0.592384 -0.030800 0.053100
0.537301 0.018005 0.080291
0.593092 0.020527 0.041572
0.514072 -0.000761 0.019144
0.529768 -0.030984 0.019999
0.567730 -0.059182 0.013293
0.545759 0.071220 0.083649
0.574441 0.072320 0.035675
0.579275 0.046641 0.077386
0.539090 -0.026897 0.005903
0.574576 0.078512 0.044612
0.551853 -0.028259 0.061825
0.585924 0.052040 0.067419
0.564018 0.092363 0.055680
0.595775 -0.056019 0.043557
0.518610 0.093982 0.057861
0.516838 0.072778 0.023856
0.566239 -0.052783 0.009900
0.544627 -0.001838 0.000885
0.556284 0.070400 0.016703
0.544504 0.066840 0.011758
0.508355 0.011595 0.041146
0.583801 -0.012054 0.015947
0.506433 0.061454 0.054712
0.538578 0.028062 0.083508
0.522838 -0.018629 0.015785
0.589819 0.044956 0.060564
0.508661 0.065610 0.060404
0.555752 0.094129 0.067139
0.583399 0.056079 0.070224
0.591406 0.025616 0.039349
0.594765 0.009654 0.041890
0.510349 0.047068 0.067351
0.528787 -0.001312 0.003307
0.584902 -0.024486 0.014031
0.566014 -0.000063 0.006208
0.507897 0.043210 0.023889
0.522830 -0.010539 0.054315
0.593284 0.022138 0.043158
0.561766 -0.039828 0.056839
0.539259 0.078609 0.080953
0.511659 0.083972 0.052515
0.591396 -0.020207 0.055770
0.526068 -0.021412 0.047478
0.562507 -0.039011 0.057491
0.543879 0.099100 0.065777
0.526055 0.100668 0.048204
0.525958 0.067566 0.014598
0.547799 0.059984 0.086008
0.531826 -0.024963 0.051956
0.587715 0.041616 0.039107
0.589967 -0.021588 0.018966
0.554855 0.093666 0.068594
0.579820 -0.045684 0.008736
0.558104 0.096784 0.052673
0.507358 0.014382 0.039395
0.539231 0.005604 0.001158
0.543354 -0.035878 0.008132
0.547720 -0.035652 0.054796
0.581888 0.033516 0.025894
0.507734 0.024965 0.055416
0.532003 0.099570 0.064954
0.565764 0.028679 0.083339
0.507759 0.021849 0.024926
0.508703 0.057420 0.028129
0.510388 0.027254 0.018700
0.531564 0.056956 0.083310
0.512051 0.062300 0.068501
0.563564 0.079798 0.027843
0.569310 -0.065506 0.024015
0.581576 0.038645 0.076041
0.589209 -0.064721 0.018732
0.522558 -0.020429 0.038341
0.593626 -0.008619 0.054229
0.559085 -0.026413 0.064172
0.505552 0.028025 0.030194
0.590302 0.043108 0.060169
0.506285 0.018871 0.034531
0.510083 0.072446 0.060172
0.593004 0.017705 0.060571
0.531375 0.099896 0.064073
0.523684 0.047839 0.009140
0.592592 0.029746 0.059892
0.541586 0.102570 0.059329
0.538255 0.051106 0.006918
0.505036 0.057880 0.043495
0.520655 0.021902 0.072875
0.593583 -0.064287 0.036473
0.550664 -0.030026 0.004303
0.516470 0.065204 0.072960
0.582191 0.006039 0.070907
0.600928 -0.034614 0.041993
0.522036 -0.007859 0.055610
0.583447 -0.032337 0.011729
0.506668 0.062456 0.055161
0.568155 -0.034715 0.060258
0.539914 0.023380 0.002416
0.564611 0.028485 0.083563
0.569573 0.029635 0.082429
0.561153 0.092613 0.063895
0.566949 -0.037437 0.005807
0.596380 -0.020144 0.048506
0.561175 0.009033 0.004680
0.533740 0.064885 0.011208
0.545438 0.036029 0.004413
0.547689 0.076086 0.016246
0.595628 -0.003549 0.049371
0.537069 -0.039920 0.018636
0.569243 -0.040053 0.006427
0.542620 0.074413 0.082649
0.595862 -0.060542 0.017898
0.521071 0.056795 0.013461
0.520064 0.010518 0.067183
0.598429 -0.057292 0.041071
0.545493 -0.045107 0.042563
0.599368 -0.034054 0.044747
0.589077 0.016144 0.067122
0.572799 0.075194 0.035841
0.511808 0.046211 0.069463
0.549147 0.050970 0.087109
0.585244 0.011818 0.070230
0.524859 0.075507 0.018520
0.555562 0.057906 0.011805
0.522666 0.011009 0.005286
0.534616 0.064882 0.011063
0.504470 0.037777 0.033565
0.553863 0.057041 0.010881
0.526276 0.048283 0.008217
0.547919 0.100447 0.060856
0.548655 0.091173 0.028099
0.583286 -0.039828 0.010438
0.530440 -0.017029 0.057804
0.595260 -0.039791 0.017025
0.544613 0.018618 0.081983
0.558858 -0.032059 0.061063
0.580555 -0.040508 0.009277
0.521538 0.096605 0.059000
0.590669 -0.005382 0.059302
0.556667 0.031719 0.006135
0.593819 -0.003931 0.054548
0.520822 0.054788 0.077670
0.534344 -0.003932 0.069497
0.578442 -0.063318 0.039673
0.601890 -0.040287 0.041431
0.556719 0.017730 0.004008
0.596361 -0.050074 0.045918
0.585117 0.004171 0.021430
0.579568 0.055534 0.031699
0.516448 0.019470 0.010590
0.536510 0.069880 0.082907
0.524806 -0.022666 0.042082
0.566694 0.006669 0.007338
0.577702 0.072724 0.043103
0.559031 -0.001789 0.075003
0.556962 0.051485 0.010597
0.514466 0.039367 0.013797
0.553046 -0.043538 0.050723
0.602208 -0.047653 0.041086
0.572452 -0.064812 0.033604
0.504820 0.039006 0.031892
0.510481 0.042933 0.019328
0.538587 -0.019742 0.061831
0.534405 0.053812 0.084660
0.507345 0.060474 0.058856
0.532884 0.012444 0.076710
0.555193 -0.047155 0.048399
0.544242 -0.040346 0.047615
0.586267 -0.067591 0.024524
0.601062 -0.035671 0.042011
0.581517 -0.055391 0.010523
0.507665 0.013161 0.038010
0.571675 -0.036662 0.059159
0.585363 -0.061054 0.042728
0.568330 0.087666 0.048512
0.592156 0.036275 0.056597
0.536879 0.099302 0.037160
0.567883 0.071435 0.026184
0.528421 0.004616 0.002989
0.533872 0.074612 0.081011
0.559014 0.081353 0.024910
0.571019 -0.000689 0.073654
0.539105 0.056695 0.008317
0.546239 -0.016110 0.067372
0.549303 -0.018066 0.002029
0.573974 0.066565 0.076208
0.593758 -0.018463 0.024652
0.512405 0.026755 0.015747
0.542588 0.032007 0.085169
0.526493 -0.026194 0.039258
0.513234 0.041378 0.070592
0.525448 0.073104 0.077729
0.515735 0.072024 0.070144
0.515184 0.001894 0.052587
0.534531 -0.005704 0.068563
0.515990 0.088293 0.060699
0.527184 -0.011975 0.058611
0.583719 0.016700 0.023103
0.596216 -0.003463 0.045048
0.520101 0.056016 0.013826
0.551259 0.063778 0.012114
0.547415 0.007235 0.001243
0.581146 0.028326 0.076314
0.583634 0.011086 0.021473
0.538403 0.088686 0.023509
0.594618 0.015333 0.044807
0.573896 -0.031087 0.007397
0.588232 0.017850 0.068444
0.542955 0.047546 0.086972
0.544423 -0.036044 0.007772
0.531676 0.075155 0.080118
0.511680 0.081958 0.039516
0.533552 -0.023315 0.006945
0.541687 0.096311 0.032779
0.526430 0.004984 0.003690
0.504357 0.045014 0.035964
0.565867 0.090179 0.060122
0.582433 -0.011329 0.065228
0.528099 0.090768 0.072023
0.504142 0.046234 0.038342
0.524255 0.049878 0.080027
0.559256 0.042307 0.009369
0.511485 0.001786 0.031713
0.550051 0.100932 0.049014
0.527722 0.080091 0.019444
0.547657 0.004936 0.001133
0.536649 0.063205 0.084279
0.539114 -0.011179 0.001963
0.567663 -0.051144 0.049989
0.595662 -0.000110 0.049193
0.515590 0.005717 0.012358
0.580637 0.031276 0.076871
0.523208 -0.007433 0.007739
0.546594 0.028019 0.084766
0.539321 0.054487 0.007736
0.596062 -0.004684 0.047184
0.507434 0.022208 0.025783
0.580891 -0.008967 0.014319
0.543588 0.014400 0.001625
0.523205 -0.019152 0.044203
0.516946 0.045604 0.012781
0.595517 -0.021380 0.025716
0.600811 -0.060635 0.023879
0.567949 0.009733 0.078055
0.598605 -0.022596 0.043405
0.505336 0.060058 0.047217
0.523031 0.033381 0.078134
0.519344 0.092298 0.038157
0.537440 0.102637 0.059732
0.568373 -0.061101 0.038656
0.515500 0.009680 0.060599
0.539974 0.078980 0.016645
0.557999 -0.050119 0.046973
0.512144 0.005432 0.019827
0.543719 0.103065 0.055708
0.579069 -0.005175 0.013713
0.590106 -0.041101 0.052245
0.514786 0.087337 0.058933
0.586972 -0.030327 0.057101
0.527312 0.003533 0.003437
0.522761 0.037114 0.007271
0.506108 0.051293 0.057393
0.514392 0.012169 0.013063
0.508578 0.037001 0.062246
0.579395 -0.046694 0.053383
0.573493 0.064473 0.028445
0.517884 0.002099 0.010224
0.592712 -0.036467 0.051797
0.550038 0.005161 0.001345
0.530841 0.085534 0.076022
0.524540 0.061880 0.079248
0.577114 0.076999 0.058246
0.573991 0.075657 0.038598
0.593096 0.004351 0.034280
0.507744 0.025439 0.024055
0.536779 0.102593 0.059764
0.547143 -0.019493 0.065716
0.564150 0.074274 0.024254
0.558898 0.089929 0.070979
0.556982 0.058406 0.012618
0.535482 0.013759 0.001816
0.576529 -0.030050 0.061325
0.545699 0.077142 0.081974
0.595425 0.009623 0.047651
0.582661 0.032065 0.075220
0.574811 -0.031231 0.061208
0.521159 0.021576 0.073170
0.584177 0.019533 0.024522
0.514166 0.000545 0.017596
0.526096 0.085540 0.024041
0.522131 0.011382 0.069612
0.513924 0.007738 0.055956
0.552781 0.099804 0.054975
0.540858 0.082170 0.079837
0.550000 -0.053181 0.017386
0.551671 0.093198 0.032528
0.574741 -0.043743 0.007609
0.594546 0.001235 0.053730
0.578714 0.051692 0.077145
0.537647 -0.025380 0.005868
0.511292 0.009863 0.019658
0.547372 0.020845 0.002511
0.559559 0.042148 0.009481
0.530132 -0.029556 0.015587
0.534870 -0.028674 0.051436
0.569952 0.022979 0.012035
0.533243 0.044483 0.084272
0.524890 -0.015556 0.052547
0.523899 0.098040 0.042913
0.548922 0.001070 0.001044
0.546614 0.006187 0.001134
0.527987 -0.028979 0.036564
0.508828 0.076880 0.045594
0.589558 0.003338 0.027330
0.565423 -0.030992 0.004860
0.580887 0.038595 0.026283
0.536707 0.032192 0.003426
0.587399 0.030289 0.070183
0.544183 0.082068 0.080131
0.554057 -0.020678 0.002425
0.577448 0.063906 0.074258
0.516910 0.047011 0.075115
0.579461 0.030302 0.021982
0.518954 -0.013877 0.020769
0.515980 -0.009029 0.033506
0.577109 -0.012931 0.067373
0.508703 0.038247 0.021454
0.544232 -0.049220 0.027359
0.540388 -0.010151 0.068770
0.560839 0.084960 0.030088
0.519558 0.043440 0.010299
0.603618 -0.056088 0.035218
0.587136 0.052373 0.063856
0.506017 0.063432 0.041724
0.505608 0.054795 0.035479
0.544178 0.036132 0.086149
0.561027 0.024715 0.006725
0.546820 -0.024253 0.003362
0.527738 -0.003197 0.065642
0.565542 -0.034191 0.060516
0.533504 -0.006982 0.067199
0.507203 0.052957 0.029224
0.538899 0.065189 0.084385
0.517727 0.001561 0.010580
0.521876 0.009166 0.068222
0.593155 0.030583 0.050412
0.575430 -0.000668 0.011958
0.549094 -0.008047 0.001074
0.545625 0.070024 0.013125
0.564088 -0.061899 0.017291
0.584744 0.062296 0.053376
0.517013 0.007792 0.010118
0.552705 -0.053806 0.015136
0.545142 0.084985 0.078773
0.598959 -0.059333 0.038936
0.521259 -0.018870 0.035766
0.593530 -0.025769 0.021072
0.518428 0.052817 0.076141
0.593945 -0.020831 0.052591
0.534855 -0.008835 0.002468
0.524846 0.073211 0.077342
0.555125 0.061076 0.085250
0.592533 0.018913 0.061737
0.579201 0.007906 0.073381
0.524764 -0.025070 0.030796
0.511850 0.016360 0.016863
0.583168 0.059660 0.041488
0.537385 0.061123 0.084799
0.542217 0.059508 0.009196
0.563791 -0.048633 0.008519
0.517786 0.047566 0.075844
0.580879 0.070036 0.049745
0.534824 -0.010341 0.002718
0.520514 -0.014700 0.044075
0.597716 -0.016346 0.034774
0.522584 0.085215 0.071357
0.549090 -0.013990 0.001516
0.572349 -0.046089 0.054145
0.520490 -0.010010 0.011991
0.516546 0.014029 0.010266
0.561520 0.084301 0.030105
0.589241 0.029358 0.036222
0.543579 0.089669 0.024913
0.562752 0.075607 0.079189
0.523163 0.071890 0.017932
0.559087 -0.017950 0.002727
0.577377 -0.017000 0.065875
0.603145 -0.040615 0.038862
0.513216 0.023408 0.014669
0.522281 0.095421 0.062731
0.595843 -0.046544 0.015120
0.533138 0.003197 0.072733
0.596247 -0.003416 0.042858
0.546570 0.063533 0.085370
0.537394 0.087450 0.022449
0.587812 0.033316 0.035161
0.525682 0.063632 0.013337
0.539400 -0.024405 0.004906
0.538514 -0.042361 0.033860
0.561737 -0.003640 0.003796
0.595572 -0.025530 0.023623
0.568634 0.075959 0.075304
0.530921 -0.032792 0.036798
0.566377 -0.042874 0.055673
0.549338 0.101129 0.048459
0.523302 0.088412 0.028444
0.541849 -0.034685 0.008236
0.518515 0.006417 0.008701
0.503771 0.038819 0.043282
0.588574 -0.054343 0.011767
0.566859 0.061248 0.082236
0.506579 0.019597 0.030834
0.599726 -0.038773 0.021894
0.525908 0.009377 0.003747
0.559248 0.081886 0.077627
0.528035 -0.026056 0.044442
0.565343 0.056454 0.083724
0.533257 -0.034763 0.039581
0.589306 0.047499 0.049743
0.561162 -0.059320 0.035387
0.515076 0.006351 0.012986
0.540757 0.074783 0.014601
0.591590 -0.040835 0.014321
0.591515 -0.066666 0.027380
0.576616 -0.067686 0.024549
0.518334 0.053432 0.014188
0.578800 0.068785 0.068524
0.561464 0.091620 0.065650
0.516956 0.091781 0.042580
0.522370 0.042601 0.078981
0.557194 0.030962 0.085176
0.566050 0.064988 0.081548
0.577492 0.011518 0.015493
0.559049 0.049697 0.086061
0.579084 0.071106 0.044568
0.581899 0.047428 0.074759
0.522888 -0.003771 0.060323
0.535198 0.005283 0.074643
0.542668 -0.006492 0.071484
0.524003 0.090638 0.069376
0.559369 0.042698 0.009518
0.562454 0.030337 0.084301
0.554152 0.032399 0.005479
0.602473 -0.039860 0.040197
0.538833 0.061007 0.009546
0.573220 -0.017318 0.067018
0.557294 -0.033085 0.004580
0.584164 0.054685 0.069574
0.558781 0.033141 0.085350
0.563002 0.017516 0.006630
0.582942 0.060471 0.068252
0.527796 0.091021 0.071694
0.547398 0.101634 0.057775
0.558882 -0.050355 0.010028
0.519663 0.030780 0.074840
0.530570 0.087999 0.074717
0.511499 0.006672 0.020998
0.504193 0.049559 0.046809
0.602306 -0.033630 0.036863
0.523491 0.072076 0.017803
0.604207 -0.052955 0.023846
0.588742 -0.029371 0.056242
0.548338 -0.044938 0.010738
0.568719 0.032195 0.083040
0.508570 0.065188 0.032856
0.599731 -0.062822 0.029289
0.546005 0.021940 0.083137
0.513077 0.009467 0.015712
0.571144 0.084901 0.050288
0.601797 -0.031021 0.035024
0.545473 0.063420 0.010733
0.533846 0.008388 0.001740
0.575092 -0.067337 0.023691
0.553279 -0.048423 0.010658
0.505374 0.045264 0.031250
0.549953 0.043540 0.006561
0.508983 0.009436 0.040045
0.548380 0.101502 0.048516
0.583090 -0.051903 0.049875
0.533172 -0.036588 0.029146
0.566994 -0.009783 0.005816
0.569491 0.075400 0.074932
0.582225 0.067410 0.050244
0.553290 0.063899 0.012825
0.575712 -0.009335 0.069108
0.563379 0.064321 0.082728
0.566716 0.039381 0.084264
0.509950 0.080098 0.050311
0.564037 0.065279 0.019754
0.518039 0.036945 0.010286
0.556392 0.032805 0.006233
0.555002 -0.025301 0.064259
0.513740 0.026170 0.014022
0.559416 -0.053432 0.043957
0.563339 -0.062735 0.025814
0.544038 -0.029462 0.057756
0.561725 0.039168 0.085513
0.582983 0.065147 0.061678
0.580561 0.070714 0.049930
0.521069 -0.017394 0.040055
0.592486 0.000595 0.058072
0.541592 0.008323 0.001167
0.519685 0.027688 0.008243
0.566710 0.053121 0.017463
0.511481 0.077320 0.060154
0.589904 0.040046 0.043966
0.582524 -0.066337 0.035352
0.591445 0.038346 0.048893
0.597931 -0.061025 0.038042
0.570077 0.041345 0.016492
0.545107 0.058241 0.086274
0.563552 0.007983 0.078192
0.518946 -0.014632 0.023419
0.596877 -0.051892 0.015171
0.506617 0.057042 0.057651
0.593380 -0.066132 0.027565
0.503872 0.043185 0.039782
0.586952 -0.067055 0.022316
0.540477 0.066403 0.011279
0.505251 0.042412 0.054467
0.539625 0.031183 0.084448
0.586458 0.053561 0.064980
0.525077 -0.002850 0.063481
0.511863 0.073061 0.030941
0.577332 -0.040284 0.008201
0.581742 0.004936 0.070852
0.518923 0.092704 0.039756
0.541906 0.081573 0.080178
0.541362 -0.035747 0.050180
0.568435 -0.064378 0.029565
0.552436 0.051726 0.086832
0.578676 -0.044712 0.054509
0.512279 0.062419 0.024544
0.554593 0.091362 0.071860
0.509833 0.014901 0.021555
0.575083 0.006031 0.074706
0.592785 0.033388 0.054099
0.512848 0.076901 0.063437
0.539447 0.002978 0.001107
0.535305 0.095793 0.070522
0.562674 -0.062571 0.021875
0.527253 0.010450 0.003257
0.577305 -0.042964 0.055551
0.540346 -0.028628 0.006137
0.561360 0.026846 0.083811
0.525430 -0.021184 0.046469
0.594310 0.016997 0.044274
0.592867 0.004145 0.033671
0.514231 0.016760 0.013145
0.570663 0.062960 0.079951
0.512636 0.005977 0.018047
0.553694 -0.009356 0.001489
0.545958 -0.018290 0.066046
0.586060 0.039946 0.070966
0.570454 0.049174 0.082674
0.536338 0.089173 0.075721
0.604278 -0.042050 0.029197
0.586930 -0.037206 0.055066
0.589828 0.043269 0.046646
0.596166 -0.058925 0.041396
0.574351 0.033539 0.080898
0.571037 -0.066101 0.022245
0.591504 0.004818 0.031170
0.510717 0.003985 0.031129
0.577500 0.044266 0.024152
0.544517 0.080914 0.018255
0.582789 0.063543 0.065366
0.508087 0.026844 0.023000
0.551143 -0.042677 0.008470
0.571948 -0.028556 0.006748
0.547432 0.031571 0.085586
0.517523 -0.012364 0.027308
0.556076 -0.055000 0.038523
0.565144 0.063724 0.082256
0.587431 0.002522 0.065274
0.587217 0.055594 0.057088
0.583549 -0.066511 0.019478
0.532187 -0.035168 0.025000
0.566315 0.039478 0.013217
0.591629 -0.044705 0.013318
0.541084 -0.045669 0.030849
0.561615 0.066730 0.082660
0.505731 0.020740 0.039907
0.547318 0.031753 0.085616
0.576945 -0.014861 0.066771
0.590611 0.015693 0.033456
0.576156 -0.002647 0.071248
0.516407 0.082454 0.030493
0.574122 0.067774 0.075404
0.541541 -0.046341 0.023613
0.590772 0.039559 0.061241
0.539616 -0.037984 0.011838
0.570394 0.055442 0.081925
0.578147 0.032950 0.021335
0.591019 0.018505 0.064625
0.539672 0.091063 0.025855
0.544307 0.072455 0.013933
0.511061 0.029056 0.064133
0.578584 0.060913 0.033417
0.539133 0.004075 0.001138
0.546306 0.071637 0.083549
0.505192 0.024939 0.034467
0.506899 0.061642 0.035440
0.542629 0.046353 0.086917
0.597394 -0.012710 0.041015
0.508853 0.070717 0.036189
0.509910 0.010642 0.023637
0.569031 0.022295 0.081282
0.559278 -0.039541 0.056470
0.544694 0.019823 0.082366
0.525381 0.004420 0.068552
0.551985 0.099017 0.060232
0.522210 0.007458 0.067565
0.579961 0.060781 0.035669
0.565255 0.065153 0.020656
0.557599 0.093023 0.038141
0.577954 0.031454 0.020718
0.514409 0.031249 0.013303
0.542691 0.070657 0.083644
0.552556 0.005421 0.077938
0.582442 0.066222 0.048300
0.538305 0.098086 0.035094
0.580371 -0.040340 0.009224
0.521240 0.039461 0.008477
0.540632 0.040137 0.086121
0.586574 0.018354 0.070362
0.577717 -0.062190 0.014417
0.592645 0.021644 0.040763
0.544521 -0.049596 0.025054
0.552829 -0.004739 0.073811
0.537850 0.031289 0.003292
0.538452 -0.015293 0.064762
0.509997 0.051658 0.066903
0.507903 0.042905 0.023795
0.528002 0.020613 0.077355
0.516514 0.002023 0.012075
0.506764 0.024905 0.052347
0.522290 0.056277 0.012529
0.569049 0.001137 0.074802
0.522676 0.025205 0.006065
0.549307 -0.052817 0.017879
0.523542 0.097170 0.061536
0.571608 -0.056684 0.045934
0.535841 0.084021 0.019900
0.547117 0.064398 0.085202
0.561243 0.049782 0.085619
0.552216 -0.011896 0.001445
0.571924 0.009266 0.076906
0.564576 0.027483 0.083384
0.579685 -0.062712 0.040713
0.582566 0.013373 0.072812
0.556811 0.094012 0.039079
0.542724 -0.035326 0.051768
0.576821 -0.066402 0.019044
0.555380 0.098234 0.049228
0.579228 0.071966 0.062816
0.549067 -0.048387 0.041745
0.570502 0.083970 0.064427
0.568980 0.008411 0.077396
0.560053 -0.060314 0.030204
0.510528 0.028795 0.018388
0.526693 -0.027922 0.029912
0.504612 0.038367 0.050850
0.579631 0.033398 0.023089
0.537532 0.065827 0.011102
0.580326 -0.068012 0.023464
0.585956 0.057681 0.048795
0.549509 0.094828 0.033650
0.525837 -0.025882 0.036893
0.565626 0.018571 0.008295
0.573158 0.016793 0.013138
0.560417 -0.040682 0.055972
0.558905 0.072387 0.081788
0.588123 -0.005833 0.062112
0.565852 0.040413 0.084562
0.513844 0.086903 0.041081
0.567589 0.003362 0.007486
0.565812 0.063840 0.020568
0.551332 -0.001332 0.001212
0.520810 -0.018158 0.023512
0.583271 0.026638 0.074452
0.585269 0.021866 0.072159
0.544228 -0.049180 0.022794
0.570059 0.024055 0.012336
0.582667 -0.037441 0.056690
0.559590 -0.036901 0.058280
0.604956 -0.045531 0.034951
0.540608 -0.038985 0.011767
0.548849 0.028168 0.003682
0.531749 0.009646 0.002119
0.511489 0.078537 0.059253
0.516015 0.083512 0.064772
0.537251 0.065161 0.010894
0.601482 -0.059326 0.023100
0.520508 -0.018156 0.027946
0.515640 0.028385 0.011920
0.561983 -0.009859 0.071586
0.537303 0.093737 0.028878
0.576237 -0.049157 0.008446
0.564180 0.089384 0.066095
0.532561 0.007723 0.074602
0.565672 0.073122 0.078803
0.581376 0.069715 0.056577
0.574516 -0.000570 0.011369
0.529399 0.085294 0.075526
0.532214 0.095591 0.069984
0.573088 -0.011617 0.008960
0.510240 0.008681 0.024154
0.532881 0.059752 0.083595
0.558489 0.094249 0.042145
0.517267 0.086353 0.032955
0.508894 0.016879 0.023449
0.537070 0.028875 0.003027
0.522989 0.033427 0.006683
0.506803 0.031940 0.056476
0.513918 0.070603 0.026326
0.522770 0.085013 0.071610
0.529877 0.026829 0.003556
0.507781 0.021835 0.053262
0.517387 -0.008555 0.044422
0.540017 0.098553 0.036091
0.547369 0.008771 0.001345
0.571080 0.038691 0.016556
0.556094 0.061966 0.013343
0.561846 -0.060785 0.032056
0.512950 0.030575 0.014995
0.506153 0.040950 0.057312
0.522235 0.073361 0.019250
0.535100 0.001742 0.072913
0.560299 0.061627 0.084195
0.531549 0.030014 0.003584
0.580868 0.024954 0.022033
0.562790 -0.015442 0.003684
0.587898 -0.037518 0.013128
0.579983 0.004419 0.016242
0.577898 0.072201 0.066314
0.560320 0.065584 0.083305
0.510912 0.057468 0.067750
0.542713 0.089143 0.076272
0.593815 -0.013875 0.027075
0.588843 0.032210 0.068003
0.567470 0.082569 0.035964
0.507782 0.050485 0.062370
0.504468 0.047079 0.050577
0.589926 -0.066935 0.030845
0.564777 0.087676 0.068165
0.589086 0.027689 0.067954
0.512950 0.059527 0.070282
0.543174 0.036886 0.086138
