ply
format ascii 1.0
element vertex 1024
property float x
property float y
property float z
end_header
0.581809 0.023977 0.079851
0.604401 -0.047850 0.040269
0.605118 -0.052712 0.038646
0.547014 0.078419 0.034127
0.545360 -0.053657 0.012398
0.600016 0.004865 0.034674
0.557244 0.074047 0.031671
0.513544 0.002954 0.054533
0.601579 -0.047434 0.013708
0.584866 -0.001854 0.015898
0.511729 0.033306 0.033818
0.520444 0.071148 0.060274
0.535800 -0.051289 0.027818
0.527148 -0.024506 0.012924
0.516777 0.022969 0.021117
0.572493 -0.001343 0.009461
0.601843 -0.015790 0.031193
0.538695 0.073305 0.028979
0.578517 0.059775 0.073173
0.536352 0.037125 0.012495
0.523368 -0.026837 0.017828
0.587931 -0.074801 0.007013
0.555477 0.084958 0.058940
0.583405 -0.059358 0.051035
0.611097 -0.064023 0.022323
0.580967 -0.004987 0.074655
0.565134 0.059407 0.081540
0.542577 0.029641 0.087053
0.553887 -0.016736 0.076443
0.557683 0.053861 0.085104
0.576008 -0.010809 0.009339
0.538681 0.022775 0.009216
0.546070 -0.061470 0.018534
0.562143 -0.070075 0.038604
0.528661 0.017562 0.079782
0.535746 -0.026704 0.064015
0.568975 -0.012678 0.006766
0.534546 0.048208 0.016072
0.549967 0.046917 0.087075
0.552614 -0.059050 0.010768
0.519744 0.067251 0.039340
0.514723 0.033194 0.065886
0.549897 0.007163 0.084858
0.521089 0.060768 0.031158
0.541309 0.075522 0.030732
0.527088 0.038684 0.016644
0.538828 -0.050036 0.015564
0.544161 -0.002574 0.080842
0.562134 0.075106 0.036219
0.610701 -0.060355 0.026071
0.610616 -0.058282 0.023239
0.513710 0.039355 0.032126
0.523776 -0.004410 0.067368
0.588370 -0.015858 0.066691
0.519082 0.051169 0.028585
0.541958 -0.018973 0.072590
0.534491 0.062443 0.080223
0.582237 0.064709 0.060520
0.547861 0.024510 0.087779
0.595383 0.026730 0.066285
0.515321 0.006617 0.061050
0.523680 -0.033171 0.034771
0.537199 -0.045157 0.013663
0.575454 0.062819 0.034714
0.511981 0.045134 0.055195
0.550124 0.073940 0.029089
0.552466 0.083869 0.045003
0.529908 0.075091 0.035353
0.522542 0.070397 0.038009
0.509809 0.025163 0.050779
0.571404 -0.080296 0.019866
0.509747 0.021825 0.050117
0.517486 0.001023 0.019212
0.568814 0.011965 0.010523
0.562718 -0.062723 0.007912
0.562798 0.070329 0.077099
0.603476 -0.014296 0.040744
0.572887 -0.053425 0.056387
0.535076 0.081800 0.041967
0.510664 0.013338 0.033823
0.559956 -0.053706 0.055182
0.551852 0.029395 0.009424
0.567936 -0.051100 0.058047
0.545712 -0.050656 0.010661
0.596703 -0.056571 0.007258
0.548579 -0.008307 0.004288
0.577691 -0.045247 0.005113
0.561787 0.072018 0.032134
0.523862 -0.016415 0.013777
0.550387 -0.050082 0.054720
0.542777 -0.057065 0.017726
0.535633 0.045972 0.015060
0.538467 0.027003 0.086048
0.521237 0.006685 0.015083
0.562455 0.077511 0.069879
0.544671 -0.058390 0.037780
0.547087 0.054780 0.085370
0.516028 0.017528 0.021517
0.550240 0.068143 0.023925
0.561130 -0.032711 0.003522
0.544118 0.085574 0.064573
0.555460 0.005929 0.084669
0.586657 0.058970 0.055440
0.593758 0.027245 0.068760
0.599956 0.015136 0.039456
0.552480 0.049926 0.086553
0.509962 0.018119 0.050403
0.513986 -0.001417 0.026463
0.593685 -0.035058 0.056064
0.563611 0.024000 0.087209
0.550158 0.034115 0.088190
0.512252 0.045783 0.041242
0.565999 0.058139 0.023504
0.528374 0.057587 0.078166
0.586967 0.014462 0.021846
0.557917 -0.002831 0.005042
0.531203 0.065956 0.025716
0.595982 0.030939 0.040309
0.592263 0.048664 0.058206
0.562104 0.018033 0.086696
0.540411 0.018279 0.085734
0.590998 0.041156 0.069018
0.570802 -0.022985 0.071775
0.543586 0.005681 0.083425
0.530564 0.000710 0.076108
0.595809 -0.031639 0.055126
0.575336 0.012127 0.013329
0.534662 -0.041868 0.013907
0.559491 0.033339 0.088212
0.596529 -0.024131 0.056474
0.561509 0.082161 0.050827
0.601081 0.019352 0.052346
0.571659 -0.029464 0.068838
0.545986 -0.012715 0.004419
0.539400 0.029108 0.086321
0.527482 0.052821 0.020923
0.553142 0.061069 0.019970
0.578955 -0.033304 0.064945
0.536532 0.040087 0.085033
0.552424 -0.021423 0.003483
0.550725 0.076169 0.031767
0.551089 0.081029 0.071020
0.513268 0.009500 0.026893
0.585898 -0.018073 0.012861
0.566405 0.069326 0.032674
0.588892 -0.042246 0.008536
0.570713 -0.079646 0.023310
0.538519 -0.046103 0.013139
0.599342 -0.073535 0.008199
0.539929 0.021966 0.008857
0.542883 0.081818 0.071184
0.526747 0.071057 0.071192
0.541022 0.084273 0.066984
0.581726 0.065145 0.049852
0.559661 0.070854 0.077886
0.517983 -0.009620 0.054036
0.563900 0.006958 0.007848
0.592849 -0.081719 0.015974
0.552459 -0.006857 0.080505
0.593696 -0.054133 0.049083
0.598556 0.019594 0.061665
0.558311 0.017945 0.087140
0.541895 0.060218 0.083219
0.587888 0.055752 0.048868
0.562062 -0.072503 0.034063
0.554434 -0.005935 0.004350
0.549008 0.008943 0.085260
0.516409 0.057964 0.037727
0.548151 -0.062452 0.035810
0.584058 0.047480 0.074448
0.592137 0.047635 0.061396
0.514158 0.042557 0.063319
0.598749 -0.040138 0.014696
0.544782 0.059009 0.018358
0.548948 0.059393 0.084274
0.583639 0.021132 0.078605
0.555923 -0.041391 0.063172
0.558660 0.065888 0.080863
0.577432 -0.024229 0.069136
0.524244 0.069561 0.069201
0.557523 -0.046370 0.004903
0.574123 0.035046 0.083522
0.547973 0.055698 0.085213
0.515136 0.030885 0.025472
0.575147 -0.040812 0.005098
0.591298 -0.012115 0.065797
0.578383 -0.067119 0.004941
0.527018 0.057513 0.023232
0.594254 0.002455 0.067450
0.602621 -0.057379 0.009904
0.527873 0.053439 0.079018
0.539871 -0.016783 0.005856
0.527759 0.018875 0.011954
0.579815 -0.018308 0.070448
0.587576 0.054263 0.044659
0.581733 0.061062 0.068017
0.589070 0.018927 0.074455
0.532543 -0.047274 0.026035
0.567791 0.023001 0.012498
0.559589 -0.007716 0.004842
0.555138 0.037842 0.011956
0.550339 0.069638 0.025116
0.516880 0.023974 0.069100
0.556718 0.058716 0.019674
0.522395 0.002860 0.069708
0.555335 0.084306 0.061921
0.549314 -0.056602 0.047159
0.511790 0.003400 0.048432
0.528086 -0.035358 0.045018
0.539918 0.034588 0.086315
0.536242 0.009865 0.082220
0.595439 0.035702 0.043144
0.572049 -0.080535 0.019777
0.569215 0.054733 0.023593
0.546390 0.073712 0.078272
0.516844 0.065991 0.047312
0.543495 -0.056729 0.038956
0.532862 -0.016030 0.068937
0.604554 -0.030087 0.033035
0.589952 0.006580 0.022287
0.569769 0.058961 0.026483
0.610279 -0.062767 0.017853
0.559591 0.071260 0.029916
0.574789 0.012853 0.082009
0.581444 -0.079045 0.032862
0.592462 -0.081894 0.016328
0.548908 0.047044 0.013718
0.598480 0.031133 0.050544
0.565769 -0.013179 0.005785
0.514520 0.030327 0.065531
0.603033 -0.026281 0.043983
0.528202 0.022653 0.080550
0.550728 -0.033370 0.067059
0.578043 0.056233 0.031756
0.526991 -0.014294 0.064423
0.519404 -0.025727 0.031022
0.512979 0.049795 0.041718
0.561890 0.025948 0.011036
0.524259 0.000447 0.012569
0.606983 -0.042161 0.029040
0.531033 -0.001599 0.009125
0.564710 -0.010390 0.005787
0.518382 0.014971 0.018397
0.533877 -0.009583 0.073525
0.517692 0.031164 0.022095
0.587797 -0.067844 0.044421
0.552789 0.085361 0.061318
0.583652 -0.020870 0.067693
0.575718 0.046408 0.023993
0.584337 0.036747 0.027033
0.584314 -0.079222 0.010839
0.585235 -0.016689 0.012770
0.603225 -0.026737 0.029162
0.595032 0.024556 0.034655
0.560117 0.083165 0.056922
0.521115 -0.010646 0.059159
0.517328 0.052092 0.067233
0.522677 0.035934 0.077259
0.516726 0.057446 0.063659
0.585809 0.059957 0.051950
0.597993 -0.070138 0.038376
0.602519 0.010192 0.048110
0.533882 0.019965 0.083456
0.548988 -0.038277 0.005530
0.533025 -0.016885 0.068508
0.576099 0.047301 0.080186
0.543323 -0.006423 0.079161
0.514890 0.003026 0.058001
0.516123 -0.009271 0.049483
0.576257 -0.076879 0.010751
0.598814 0.007109 0.033265
0.564774 -0.076342 0.027135
0.511768 -0.000331 0.037483
0.542086 0.085038 0.045771
0.567963 -0.021245 0.073209
0.537605 0.020570 0.085185
0.602814 -0.044661 0.043181
0.554716 0.002296 0.083643
0.597716 0.006307 0.031173
0.516786 -0.019198 0.031393
0.533666 -0.048634 0.028371
0.569794 -0.075234 0.011988
0.561004 0.055916 0.083822
0.575513 0.057006 0.029844
0.592792 0.032738 0.069023
0.538595 -0.044514 0.012215
0.577745 0.063442 0.038318
0.566089 -0.043744 0.062568
0.596202 0.038159 0.057548
0.569881 0.077094 0.051645
0.604790 -0.069951 0.033431
0.526744 0.076686 0.066075
0.516920 0.054492 0.034138
0.567111 -0.069006 0.009039
0.541261 -0.019375 0.005527
0.553018 0.053731 0.016557
0.540539 0.049499 0.015054
0.516615 -0.006515 0.053944
0.583524 -0.027362 0.009504
0.515867 0.043559 0.066817
0.556296 0.012486 0.086249
0.525224 -0.036731 0.026029
0.598455 0.031075 0.049993
0.519336 0.047968 0.071629
0.564950 0.078794 0.064895
0.594328 0.042154 0.060877
0.595230 0.011250 0.029421
0.599972 -0.004465 0.031177
0.523801 0.029722 0.078115
0.526665 -0.019511 0.012160
0.584706 -0.039778 0.007536
0.563169 -0.016474 0.004804
0.509863 0.024557 0.037019
0.535242 -0.027589 0.062989
0.598247 0.007968 0.032624
0.574865 -0.054978 0.055236
0.553645 0.062921 0.082893
0.519131 0.066223 0.062964
0.602040 -0.034054 0.045870
0.537063 -0.038487 0.055682
0.575711 -0.054110 0.055650
0.552912 0.083176 0.066744
0.530936 0.083437 0.054664
0.523446 0.049450 0.022822
0.564185 0.044854 0.085695
0.543995 -0.041644 0.058475
0.590790 0.027050 0.029967
0.590762 -0.036516 0.010866
0.564506 0.078331 0.066546
0.579483 -0.061326 0.004124
0.563153 0.081154 0.050299
0.515038 -0.003826 0.052491
0.535763 -0.012184 0.007153
0.543762 -0.053225 0.013325
0.560594 -0.051509 0.057033
0.582026 0.018329 0.018954
0.519194 0.007201 0.067655
0.541250 0.083077 0.069177
0.582348 0.014346 0.078680
0.511116 0.003249 0.038356
0.511052 0.038900 0.040679
0.511675 0.008595 0.031573
0.548007 0.041011 0.087559
0.524961 0.045042 0.078544
0.562549 0.063757 0.025162
0.574546 -0.081180 0.021964
0.595053 0.024822 0.067215
0.592201 -0.079627 0.011455
0.531162 -0.037918 0.047833
0.603167 -0.022423 0.043616
0.573581 -0.041503 0.062832
0.510104 0.009460 0.043937
0.598908 0.029241 0.049507
0.512457 0.000473 0.048040
0.520288 0.054853 0.070923
0.602927 0.004009 0.049517
0.540391 0.083349 0.068496
0.520800 0.029497 0.018467
0.601725 0.015996 0.048805
0.548781 0.086357 0.061115
0.534035 0.033367 0.012319
0.511669 0.039616 0.056455
0.536505 0.005218 0.080982
0.601190 -0.078503 0.027329
0.549447 -0.047151 0.007570
0.530267 0.048268 0.081591
0.595938 -0.007851 0.062568
0.608212 -0.048383 0.030224
0.534691 -0.024913 0.064413
0.583090 -0.047749 0.005828
0.516164 0.044582 0.067172
0.581668 -0.049485 0.056716
0.535842 0.005632 0.007927
0.581311 0.014105 0.079213
0.585713 0.015451 0.076755
0.569341 0.077439 0.060326
0.565891 -0.053762 0.004691
0.604858 -0.033963 0.037523
0.557633 -0.007655 0.004522
0.530145 0.047037 0.017481
0.541039 0.018571 0.008168
0.544340 0.059001 0.018376
0.603512 -0.017403 0.038327
0.540776 -0.057259 0.025200
0.568399 -0.056252 0.004701
0.557551 0.058933 0.083669
0.598153 -0.075172 0.008783
0.518997 0.038439 0.023210
0.534983 -0.006334 0.075826
0.606733 -0.071169 0.030335
0.555627 -0.061391 0.046002
0.607431 -0.047820 0.033289
0.601009 0.002451 0.056911
0.573832 0.059805 0.030410
0.525820 0.028992 0.079762
0.566245 0.035946 0.086515
0.598390 -0.001958 0.061004
0.523042 0.057438 0.026784
0.551642 0.041087 0.012217
0.520681 -0.007434 0.015556
0.530948 0.047070 0.017104
0.509472 0.019241 0.047338
0.549803 0.040119 0.011802
0.523018 0.030033 0.016868
0.555392 0.084570 0.060892
0.547700 0.074439 0.029305
0.582972 -0.055271 0.004736
0.543837 -0.033624 0.064367
0.596265 -0.054503 0.007815
0.562170 0.003291 0.083272
0.572813 -0.047237 0.059983
0.580068 -0.056108 0.004372
0.529731 0.079471 0.066338
0.601532 -0.019186 0.049257
0.552522 0.014831 0.006830
0.603196 -0.017724 0.043805
0.536265 0.038197 0.085086
0.550082 -0.020043 0.074371
0.587455 -0.078143 0.034513
0.609278 -0.054020 0.029500
0.552719 0.000806 0.004965
0.605686 -0.063923 0.035460
0.585437 -0.010948 0.014193
0.580231 0.040369 0.024859
0.515705 0.000876 0.022231
0.551983 0.054132 0.085644
0.534452 -0.039946 0.050851
0.563781 -0.009689 0.005612
0.580640 0.057764 0.036098
0.575192 -0.016618 0.072921
0.552993 0.034706 0.010764
0.513640 0.020742 0.025576
0.565017 -0.059252 0.051776
0.609871 -0.061370 0.029187
0.580130 -0.080077 0.030325
0.509292 0.020439 0.045616
0.511125 0.024273 0.031932
0.552900 -0.035847 0.066063
0.551265 0.038039 0.088130
0.517918 0.042736 0.070570
0.549787 -0.003559 0.081477
0.566637 -0.062830 0.049007
0.555548 -0.056555 0.051137
0.591091 -0.082469 0.017869
0.608401 -0.049432 0.030219
0.582100 -0.070891 0.005519
0.515021 -0.005069 0.051093
0.584854 -0.051297 0.054728
0.594818 -0.075480 0.035538
0.572325 0.072403 0.043642
0.600075 0.022404 0.045662
0.538417 0.082266 0.041112
0.566683 0.055559 0.022508
0.525921 -0.013617 0.011870
0.548689 0.058684 0.084470
0.557300 0.065020 0.023557
0.586292 -0.015006 0.068346
0.534941 0.039025 0.013355
0.561569 -0.031717 0.069262
0.546904 -0.035333 0.005584
0.586348 0.052357 0.069051
0.595786 -0.033064 0.015262
0.512840 0.008107 0.028191
0.560396 0.016656 0.086700
0.535491 -0.043469 0.047726
0.527746 0.024262 0.080529
0.539780 0.056701 0.083626
0.528444 0.054966 0.078986
0.526782 -0.015573 0.063231
0.550100 -0.021831 0.073446
0.525288 0.070963 0.069600
0.540665 -0.028704 0.065958
0.583899 0.001544 0.016007
0.602901 -0.017409 0.034006
0.518204 0.037627 0.023836
0.547287 0.046761 0.013602
0.543569 -0.010177 0.004985
0.595247 0.014505 0.067741
0.583665 -0.004110 0.014541
0.536731 0.071357 0.027713
0.600328 0.001279 0.033944
0.572671 -0.047058 0.004241
0.600466 0.004153 0.058388
0.560434 0.032239 0.088116
0.544700 -0.053351 0.012691
0.546308 0.059101 0.084201
0.515732 0.063854 0.050480
0.533369 -0.041162 0.014674
0.542006 0.079378 0.035631
0.524178 -0.013321 0.013080
0.509640 0.026529 0.049575
0.572975 0.075120 0.055447
0.595530 -0.025340 0.057283
0.539869 0.074304 0.077165
0.510015 0.027803 0.051905
0.540457 0.033517 0.086489
0.555340 0.025612 0.009088
0.517574 -0.016426 0.044155
0.554206 0.084825 0.048911
0.525807 0.062172 0.026829
0.543890 -0.012465 0.004846
0.552834 0.047511 0.087020
0.536737 -0.028927 0.008196
0.579261 -0.066196 0.047200
0.603319 -0.013972 0.038097
0.516071 -0.012847 0.024360
0.594757 0.017443 0.068374
0.522820 -0.025756 0.018028
0.564344 0.012846 0.085279
0.535106 0.036814 0.012769
0.603395 -0.018576 0.036120
0.511017 0.003616 0.039263
0.580127 -0.024457 0.008686
0.539623 -0.003188 0.006293
0.533307 -0.036451 0.053278
0.515426 0.027056 0.023836
0.597916 -0.035867 0.015848
0.604536 -0.074873 0.013193
0.583996 -0.004618 0.073268
0.605742 -0.036451 0.032044
0.512853 0.041907 0.059924
0.539620 0.016935 0.085233
0.522195 0.074494 0.046941
0.544902 0.086245 0.062630
0.577387 -0.076420 0.036244
0.528854 -0.007563 0.070745
0.536882 0.061548 0.020817
0.569102 -0.065700 0.046914
0.514797 -0.013084 0.032488
0.549824 0.086849 0.057045
0.578015 -0.020772 0.008545
0.600925 -0.055075 0.043123
0.523702 0.069904 0.068242
0.598672 -0.044326 0.048496
0.525032 -0.014736 0.012618
0.519961 0.018693 0.017072
0.516807 0.033471 0.069629
0.514777 -0.006440 0.025273
0.521235 0.019447 0.073827
0.591227 -0.061120 0.047212
0.573048 0.048927 0.023255
0.517884 -0.016414 0.021733
0.603069 -0.050340 0.041918
0.546225 -0.012125 0.004399
0.543859 0.069314 0.080340
0.539899 0.045493 0.085492
0.583959 0.062425 0.050767
0.575701 0.060398 0.032731
0.596580 -0.010047 0.024383
0.510680 0.006809 0.037471
0.544278 0.086172 0.062842
0.562164 -0.035099 0.067470
0.562425 0.058169 0.021627
0.569232 0.074851 0.067793
0.553202 0.041673 0.012606
0.531918 -0.004195 0.008691
0.589765 -0.044413 0.055398
0.560187 0.061780 0.082143
0.602169 -0.004306 0.036541
0.596214 0.018279 0.066224
0.588143 -0.045673 0.055769
0.537086 0.004924 0.081133
0.584578 0.004434 0.017208
0.516389 -0.017933 0.029860
0.525209 0.067666 0.031617
0.537583 -0.005309 0.077588
0.526182 -0.009702 0.066733
0.558504 0.083989 0.053919
0.554694 0.066520 0.081333
0.553552 -0.069942 0.020665
0.551695 0.076721 0.032716
0.574194 -0.059652 0.004394
0.603407 -0.012555 0.042748
0.591927 0.037749 0.068873
0.537119 -0.043066 0.012552
0.513704 -0.008704 0.032495
0.543167 0.003446 0.006025
0.555669 0.025470 0.009116
0.532747 -0.047313 0.024007
0.546972 -0.045224 0.057198
0.567342 0.006877 0.009015
0.550526 0.028660 0.088204
0.537002 -0.032553 0.060798
0.527566 0.080568 0.050197
0.545282 -0.016270 0.004470
0.542823 -0.011263 0.005113
0.536340 -0.046256 0.044766
0.514900 0.058821 0.057175
0.591348 -0.011413 0.018674
0.563834 -0.047422 0.004104
0.580907 0.023366 0.019529
0.532578 0.014312 0.009647
0.599494 0.016584 0.060113
0.557975 0.066578 0.080713
0.551716 -0.037713 0.004709
0.589296 0.049808 0.066267
0.532214 0.030181 0.083802
0.578799 0.014901 0.015895
0.522596 -0.032027 0.031813
0.522940 -0.026971 0.044809
0.591077 -0.027124 0.060818
0.510234 0.019571 0.034527
0.550506 -0.065976 0.031775
0.556016 -0.025996 0.072115
0.560271 0.068849 0.027991
0.517376 0.024946 0.020767
0.610072 -0.069890 0.023275
0.596385 0.038449 0.053785
0.511845 0.045156 0.054406
0.510206 0.036340 0.048630
0.561977 0.020875 0.087153
0.557234 0.008054 0.006309
0.545199 -0.041589 0.007629
0.542649 -0.019719 0.072448
0.579199 -0.049075 0.057668
0.548809 -0.023191 0.072431
0.510138 0.034405 0.042204
0.554923 0.049599 0.086481
0.517857 -0.016949 0.022127
0.537075 -0.007572 0.076351
0.599653 0.016596 0.039520
0.573808 -0.016486 0.007784
0.545927 -0.025365 0.004581
0.541823 0.052767 0.016019
0.567518 -0.078003 0.016864
0.590733 0.047958 0.044213
0.516724 -0.010772 0.021788
0.555575 -0.070503 0.017773
0.558379 0.069498 0.079105
0.606770 -0.073242 0.028166
0.529135 -0.036493 0.045686
0.594974 -0.040469 0.011982
0.533651 0.036077 0.084294
0.603661 -0.034648 0.042126
0.532659 -0.026767 0.009808
0.539092 0.056769 0.083416
0.570966 0.046261 0.082957
0.602728 0.005227 0.050750
0.593639 -0.006055 0.065736
0.531477 -0.042660 0.040038
0.513146 -0.002268 0.029562
0.586131 0.044925 0.033240
0.553789 0.045480 0.087350
0.538026 0.042002 0.013315
0.564169 -0.065012 0.008318
0.533225 0.030795 0.084256
0.585633 0.055409 0.041662
0.532774 -0.028265 0.010078
0.530455 -0.032133 0.053825
0.602224 -0.030489 0.023894
0.534674 0.068486 0.078103
0.546350 -0.031288 0.005091
0.584630 -0.060819 0.049853
0.521494 -0.028337 0.022895
0.515993 -0.004561 0.021970
0.560965 0.068223 0.027831
0.592108 0.014800 0.026948
0.542036 0.072615 0.027641
0.575902 0.060953 0.074845
0.521439 0.053732 0.026730
0.556492 -0.034749 0.003593
0.591138 -0.031217 0.059361
0.609805 -0.054361 0.026693
0.513501 0.004772 0.026979
0.531517 0.078426 0.069742
0.596658 -0.061272 0.005919
0.549432 -0.012891 0.077712
0.602335 -0.017421 0.031889
0.562648 0.048325 0.085366
0.535538 0.070048 0.026984
0.590242 0.018658 0.026261
0.523042 0.045475 0.021740
0.538493 -0.042039 0.011136
0.546418 -0.059210 0.039489
0.558589 -0.020309 0.003698
0.597616 -0.040066 0.013878
0.580485 0.061467 0.069502
0.539421 -0.049922 0.044247
0.579138 -0.057840 0.052902
0.553361 0.084974 0.048568
0.523568 0.070526 0.036574
0.542281 -0.052099 0.013818
0.517855 -0.012116 0.020035
0.511381 0.020519 0.056863
0.589165 -0.069487 0.004781
0.581418 0.046888 0.076862
0.511700 0.001109 0.044393
0.601824 -0.053147 0.011270
0.523464 -0.008957 0.013216
0.571786 0.067019 0.074207
0.538371 -0.043117 0.052292
0.580612 0.042072 0.078774
0.542523 -0.051706 0.046316
0.594897 0.033292 0.039685
0.569477 -0.075062 0.035035
0.515714 -0.012221 0.025094
0.537297 0.057336 0.018697
0.592059 -0.055789 0.006227
0.596861 -0.081225 0.019176
0.581826 -0.083006 0.020520
0.516737 0.034975 0.024701
0.588789 0.054583 0.060313
0.570167 0.076510 0.061943
0.521125 0.073990 0.051854
0.538738 0.026135 0.086098
0.574491 0.016282 0.082747
0.580261 0.050566 0.076368
0.576119 -0.004126 0.010452
0.575545 0.035100 0.082830
0.582449 0.056252 0.037154
0.594562 0.033572 0.065771
0.536576 -0.020662 0.068659
0.551822 -0.010660 0.078960
0.558754 -0.022163 0.074054
0.535221 0.073913 0.075734
0.555468 0.026012 0.009194
0.579342 0.015876 0.080484
0.549891 0.015377 0.006873
0.609482 -0.053601 0.028149
0.534790 0.043353 0.014551
0.587470 -0.031694 0.061597
0.556053 -0.049894 0.006076
0.594958 0.040779 0.060063
0.575950 0.018537 0.082452
0.559479 0.000953 0.005782
0.593126 0.046464 0.059043
0.539475 0.074533 0.076927
0.553995 0.085647 0.058052
0.559949 -0.066915 0.011130
0.535625 0.014092 0.083016
0.543117 0.071726 0.079124
0.514431 -0.011843 0.033772
0.512187 0.031360 0.059991
0.608096 -0.047479 0.024898
0.521710 0.053929 0.026514
0.607394 -0.067049 0.012130
0.600090 -0.043314 0.047175
0.549727 -0.061971 0.014605
0.584926 0.017984 0.077539
0.511805 0.046781 0.045154
0.605077 -0.076957 0.018723
0.563650 0.006704 0.083957
0.514370 -0.009126 0.028217
0.575655 0.069821 0.044623
0.606973 -0.044948 0.023231
0.541369 0.046100 0.013853
0.530602 -0.009636 0.009139
0.580111 -0.082751 0.020105
0.554634 -0.065226 0.013233
0.509327 0.026695 0.044759
0.545572 0.026339 0.008899
0.517032 -0.008673 0.052745
0.552436 0.085304 0.048878
0.594098 -0.066249 0.042904
0.539707 -0.053821 0.036325
0.564507 -0.026145 0.004298
0.581236 0.060938 0.068919
0.587197 0.052863 0.041812
0.549425 0.046995 0.013732
0.590018 -0.023550 0.062817
0.578048 0.049810 0.078239
0.582961 0.025102 0.079161
0.517091 0.062216 0.061363
0.561562 0.049057 0.017455
0.516248 0.018390 0.021260
0.552228 0.015906 0.006984
0.569623 -0.040578 0.064011
0.513686 0.007537 0.026176
0.569817 -0.069027 0.043672
0.569152 -0.078636 0.025280
0.557538 -0.045416 0.060796
0.578513 0.024694 0.081723
0.591143 0.050954 0.052640
0.585342 0.056077 0.041917
0.530038 -0.034909 0.049844
0.602636 -0.013169 0.047494
0.537895 -0.009360 0.006481
0.517756 0.009166 0.018977
0.564138 0.036977 0.014695
0.521374 0.059784 0.070456
0.594292 0.025718 0.034069
0.590363 -0.081089 0.029288
0.597196 0.024227 0.038414
0.605626 -0.075003 0.027609
0.567721 0.025345 0.013010
0.561760 0.042998 0.086708
0.579897 -0.006564 0.074621
0.523346 -0.032708 0.034376
0.597942 -0.066564 0.005762
0.517069 0.039242 0.069657
0.598677 -0.080601 0.018839
0.510303 0.024786 0.053407
0.591123 -0.081963 0.015551
0.536562 0.048864 0.015695
0.515649 0.024482 0.067172
0.557395 0.015677 0.086824
0.595977 0.039636 0.055035
0.539489 -0.019555 0.071089
0.514043 0.054742 0.042305
0.576667 -0.056062 0.004210
0.595548 -0.008974 0.062653
0.522203 0.074924 0.048589
0.555825 0.065981 0.081385
0.553237 -0.052024 0.054323
0.575152 -0.079940 0.027526
0.569293 0.036844 0.085343
0.590739 -0.059143 0.048462
0.513260 0.043957 0.036187
0.565259 0.076108 0.069792
0.512555 -0.003687 0.034646
0.590136 -0.008080 0.068157
0.600151 0.019481 0.043128
0.523600 0.059519 0.073249
0.536093 -0.014798 0.007082
0.546128 0.079611 0.073690
0.567436 -0.078612 0.021668
0.524570 -0.007838 0.012363
0.589613 -0.057432 0.049813
0.539955 -0.046178 0.012122
0.578337 0.012326 0.080358
0.536164 -0.038316 0.054882
0.599801 0.002912 0.033491
0.596205 -0.010280 0.023863
0.514407 -0.001861 0.025331
0.584366 0.048709 0.073604
0.514760 -0.012567 0.030634
0.550528 -0.026450 0.003747
0.561053 -0.033943 0.068092
0.597920 0.026187 0.061095
0.585616 0.035009 0.076476
0.548873 0.073192 0.078504
0.608348 -0.056009 0.017104
0.598436 -0.051253 0.046646
0.594778 0.029006 0.036623
0.604730 -0.072894 0.031287
0.589689 0.019525 0.073927
0.575757 -0.081743 0.019799
0.594182 -0.009739 0.021818
0.516564 -0.014282 0.043771
0.576781 0.028815 0.018320
0.541585 0.063732 0.021103
0.592038 0.049445 0.056264
0.510651 0.008199 0.036343
0.551691 -0.059647 0.011628
0.570492 -0.044639 0.004111
0.565187 0.016454 0.085790
0.522916 -0.030401 0.038473
0.565215 -0.070896 0.039375
0.579647 0.049282 0.077313
0.599630 -0.011278 0.055772
0.594462 0.041482 0.047206
0.587054 -0.081655 0.013738
0.537564 -0.052563 0.032584
0.563313 0.023218 0.010909
0.592024 -0.059679 0.005306
0.548244 -0.062479 0.035939
0.576209 0.052133 0.078619
0.513284 0.002462 0.053338
0.565076 0.016631 0.085847
0.590855 -0.029075 0.060311
0.593382 0.001142 0.024107
0.590679 -0.016792 0.064661
0.517804 0.064317 0.040505
0.586210 0.053549 0.068221
0.546756 -0.063328 0.028862
0.599833 0.025748 0.050461
0.541282 -0.055397 0.017939
0.585032 0.041244 0.075683
0.577224 0.017467 0.015593
0.602076 0.004829 0.053947
0.538463 0.073854 0.029591
0.540649 0.055157 0.017121
0.524544 0.011680 0.075080
0.579473 0.045744 0.026705
0.535744 -0.013716 0.007182
0.561482 0.056355 0.083571
0.511075 0.006480 0.048190
0.511082 0.043236 0.048145
0.560168 0.031031 0.088168
0.603419 -0.026701 0.029935
0.512694 0.052407 0.048206
0.513414 -0.007879 0.036688
0.585261 0.008064 0.075902
0.572358 -0.054816 0.055555
0.562290 0.004508 0.083602
0.540779 -0.012141 0.075782
0.559205 0.083312 0.059206
0.537307 -0.009280 0.075652
0.581414 0.045737 0.028499
0.562984 0.049013 0.017993
0.558923 0.076974 0.036507
0.576948 0.015947 0.015073
0.513872 0.012620 0.025230
0.558084 0.055213 0.084660
0.569392 -0.009635 0.077405
0.586940 0.051633 0.039900
0.539291 0.081059 0.038754
0.579868 -0.055950 0.004368
0.518705 0.021000 0.018613
0.558354 0.024710 0.088033
0.599367 0.004633 0.060678
0.579854 -0.077747 0.010395
0.597009 0.007380 0.030501
0.550179 -0.066402 0.029483
0.569061 -0.019881 0.073503
0.533687 0.013459 0.009220
0.553335 -0.031330 0.068857
0.523104 0.034277 0.077715
0.509860 0.024250 0.036932
0.544847 0.004392 0.083311
0.517073 -0.016502 0.023889
0.517434 0.007012 0.064967
0.519943 0.037952 0.021988
0.584616 -0.013241 0.069961
0.520168 0.006764 0.016102
0.553001 -0.069597 0.021324
0.532315 0.080197 0.068225
0.582240 -0.071659 0.042304
0.533531 0.066482 0.025003
0.563084 0.049209 0.085043
0.577530 0.035274 0.081807
0.549227 -0.029055 0.004143
0.587529 -0.004934 0.071088
0.581280 0.013098 0.079063
0.588900 -0.077452 0.035168
0.596436 -0.000457 0.064196
0.558369 0.077951 0.037610
0.554954 -0.051497 0.055475
0.580464 -0.081866 0.015150
0.559526 0.082381 0.047705
0.587489 0.057622 0.054660
0.559010 -0.064525 0.044289
0.578918 0.069253 0.058415
0.584876 -0.005910 0.072373
0.567058 -0.076249 0.030364
0.511647 0.010131 0.031213
0.533239 -0.045444 0.038703
0.514263 0.020315 0.063922
0.579103 0.018030 0.016870
0.533713 0.048149 0.016334
0.585115 -0.083191 0.018472
0.590894 0.043279 0.039541
0.549836 0.078281 0.034362
0.534203 -0.043253 0.045624
0.562398 0.002173 0.006655
0.571042 0.000878 0.009291
0.573377 -0.055917 0.054781
0.573076 0.057633 0.078438
0.599870 -0.019676 0.052660
0.582158 0.026101 0.079668
0.517980 0.068934 0.051326
0.564852 -0.012947 0.005558
0.563563 0.047725 0.017776
0.547768 -0.018553 0.004011
0.525345 -0.036140 0.034008
0.596872 0.012867 0.065395
0.598418 0.008129 0.062712
0.549264 -0.066062 0.027383
0.567471 0.007965 0.009261
0.594790 -0.051639 0.049373
0.573012 -0.052115 0.057173
0.610740 -0.059294 0.022506
0.542268 -0.056353 0.017615
0.544526 0.010858 0.006647
0.528624 -0.008465 0.010057
0.521075 0.060974 0.069570
0.526663 0.066303 0.073579
0.533420 0.047465 0.016219
0.604902 -0.073556 0.012242
0.526257 -0.036029 0.038356
0.514828 0.009778 0.023606
0.577521 -0.024635 0.068944
0.536868 0.076499 0.033107
0.576139 -0.064965 0.004868
0.573013 0.074414 0.061664
0.549150 -0.008346 0.079603
0.578733 0.058596 0.073715
0.587979 0.055300 0.048105
0.572766 -0.016447 0.007464
0.542350 0.068994 0.080259
0.543021 0.079252 0.074016
0.571311 -0.027610 0.005691
0.513972 -0.009808 0.037123
0.549205 0.043871 0.087436
0.560800 0.078350 0.040100
0.519096 0.068318 0.042585
0.512064 -0.001702 0.036696
0.532991 0.011006 0.009211
0.520211 0.015006 0.016496
0.518226 0.014153 0.068830
0.514895 0.052254 0.037340
0.534932 0.068301 0.078299
0.526326 0.008647 0.011706
0.518818 0.004018 0.065614
0.527227 -0.026131 0.054923
0.541183 0.081632 0.039240
0.543473 -0.008643 0.005074
0.568839 0.022743 0.012837
0.552361 0.045208 0.013494
0.569308 -0.076586 0.031664
0.512963 0.011926 0.027264
0.517363 0.023143 0.069684
0.520828 0.055195 0.028230
0.551441 -0.014248 0.077372
0.575624 0.047020 0.080526
0.527776 0.011905 0.011233
0.580442 0.009627 0.015637
0.560181 -0.032048 0.003470
0.588015 -0.052679 0.006037
0.579083 -0.011080 0.010595
0.587146 0.057893 0.058385
0.575198 0.050947 0.079609
0.523912 0.040144 0.078200
0.555151 0.073469 0.077300
0.596260 -0.028413 0.017513
0.600192 0.018508 0.057596
0.568361 0.066928 0.031874
0.519807 0.032879 0.073973
0.513601 0.029000 0.063576
0.596287 -0.081471 0.022946
0.574237 0.072793 0.063517
0.600646 0.014003 0.057546
0.526451 0.042364 0.080053
0.560969 0.021581 0.087404
