ply
format ascii 1.0
element vertex 1024
property float x
property float y
property float z
end_header
0.557120 0.150805 0.084405
0.573832 0.077533 0.044554
0.574032 0.072666 0.042805
0.536754 0.211132 0.037381
0.518609 0.081477 0.009466
0.577941 0.130443 0.040936
0.546465 0.205339 0.035986
0.490300 0.141031 0.050016
0.574504 0.079115 0.017895
0.564486 0.126614 0.020163
0.495589 0.171880 0.030674
0.506299 0.207218 0.059733
0.507613 0.084825 0.023703
0.504932 0.113014 0.009134
0.500648 0.161262 0.018212
0.553241 0.129165 0.012299
0.577160 0.109854 0.036742
0.528502 0.207477 0.031025
0.559969 0.186863 0.079056
0.523017 0.172541 0.012707
0.500259 0.111143 0.013427
0.557970 0.054317 0.008319
0.542855 0.215622 0.063318
0.550183 0.069023 0.052136
0.580324 0.061046 0.026821
0.552725 0.122456 0.077798
0.545720 0.188283 0.085706
0.518542 0.162114 0.087037
0.524215 0.114878 0.075728
0.537148 0.183826 0.088074
0.555323 0.119284 0.012163
0.523624 0.158102 0.009069
0.517383 0.073477 0.015271
0.529341 0.061987 0.036723
0.504051 0.152480 0.077571
0.506544 0.108111 0.060733
0.548478 0.118570 0.008669
0.522408 0.183665 0.016552
0.528313 0.178071 0.088765
0.525145 0.075100 0.008480
0.507707 0.204061 0.038710
0.494429 0.170418 0.062828
0.522721 0.138860 0.084701
0.509121 0.197681 0.030458
0.531167 0.209225 0.033185
0.513628 0.175361 0.015766
0.512327 0.085951 0.011979
0.516182 0.130215 0.079567
0.550838 0.205521 0.041140
0.579993 0.064625 0.030659
0.580573 0.066765 0.027938
0.498631 0.177607 0.029521
0.497630 0.131852 0.063642
0.559414 0.110821 0.070295
0.506077 0.188571 0.027215
0.512676 0.114574 0.070351
0.516269 0.195939 0.080814
0.565949 0.191534 0.067194
0.522885 0.156226 0.088161
0.572566 0.151861 0.072735
0.491749 0.144201 0.056864
0.497484 0.104360 0.029968
0.511683 0.091071 0.010124
0.562303 0.191414 0.040695
0.494843 0.182930 0.052452
0.539793 0.206379 0.032555
0.541516 0.215391 0.049082
0.519330 0.210388 0.036360
0.511081 0.206786 0.037878
0.490358 0.163647 0.046877
0.539319 0.051017 0.018795
0.489894 0.160376 0.046057
0.498381 0.139521 0.015385
0.551441 0.142840 0.013526
0.534884 0.070027 0.006706
0.545590 0.199552 0.081529
0.577765 0.110816 0.046479
0.540050 0.076321 0.056440
0.524539 0.216053 0.043860
0.491627 0.152308 0.029617
0.527476 0.078027 0.053659
0.537486 0.162653 0.011187
0.535321 0.079319 0.057592
0.519613 0.084438 0.007926
0.569207 0.071002 0.010481
0.529422 0.126034 0.003935
0.552483 0.085119 0.006570
0.550567 0.202637 0.036903
0.502781 0.121480 0.009958
0.518676 0.083064 0.052206
0.514899 0.078348 0.014275
0.523277 0.181320 0.015576
0.514253 0.160155 0.085418
0.503414 0.144667 0.012012
0.547221 0.206904 0.074664
0.514011 0.076191 0.034327
0.526852 0.186323 0.087091
0.499068 0.155986 0.018264
0.539717 0.200778 0.027178
0.538268 0.100047 0.003563
0.531083 0.217785 0.067550
0.528022 0.136807 0.085134
0.570093 0.185339 0.062427
0.570732 0.152545 0.075016
0.578773 0.140467 0.046150
0.531284 0.180681 0.088695
0.489526 0.156673 0.046194
0.493669 0.137434 0.022034
0.563177 0.091345 0.059508
0.538334 0.153365 0.089488
0.526488 0.165360 0.089296
0.496979 0.183922 0.038681
0.553770 0.188529 0.028211
0.509821 0.192120 0.077804
0.568173 0.142253 0.027077
0.539287 0.130016 0.006074
0.520494 0.201436 0.026536
0.577074 0.156659 0.047250
0.573736 0.174232 0.065370
0.536049 0.147710 0.088517
0.514926 0.151250 0.084935
0.570023 0.166700 0.075585
0.540491 0.106284 0.072865
0.516494 0.138387 0.082444
0.503925 0.135643 0.073373
0.565879 0.094430 0.058997
0.557505 0.141939 0.017109
0.509643 0.094697 0.010211
0.535528 0.163186 0.090418
0.567511 0.101703 0.060771
0.549396 0.212177 0.055877
0.578852 0.144102 0.059263
0.540760 0.099835 0.069755
0.526217 0.122064 0.003544
0.515441 0.162087 0.085900
0.515535 0.189152 0.020717
0.542035 0.193461 0.023280
0.547852 0.095050 0.066603
0.514395 0.173404 0.084787
0.531381 0.112515 0.002993
0.540367 0.208416 0.035387
0.536438 0.212061 0.074577
0.494503 0.148318 0.022883
0.563517 0.110516 0.016520
0.554635 0.199265 0.037874
0.563474 0.086299 0.011466
0.538296 0.051666 0.022156
0.512906 0.089952 0.009721
0.569199 0.053814 0.010942
0.524775 0.157124 0.008827
0.528482 0.214074 0.073778
0.511079 0.205872 0.071321
0.527550 0.216898 0.069503
0.566869 0.192341 0.056576
0.542488 0.200522 0.081952
0.492882 0.127951 0.049476
0.546229 0.138708 0.010042
0.560645 0.046487 0.017478
0.523740 0.124742 0.080042
0.561291 0.072690 0.051697
0.575224 0.144460 0.068207
0.532259 0.148182 0.088492
0.522827 0.192540 0.084582
0.571668 0.182158 0.055910
0.529485 0.059727 0.032098
0.535504 0.127493 0.004820
0.522057 0.140741 0.085075
0.503284 0.195432 0.036272
0.517082 0.071707 0.032607
0.563447 0.173843 0.080420
0.573056 0.173145 0.068469
0.495569 0.179828 0.060651
0.572668 0.086724 0.018871
0.533737 0.192731 0.020569
0.529492 0.190632 0.086447
0.558659 0.147753 0.083260
0.524301 0.090580 0.061666
0.540402 0.195682 0.084550
0.547149 0.104129 0.070998
0.508658 0.204827 0.068972
0.532559 0.087054 0.003855
0.550729 0.162799 0.087627
0.527876 0.187102 0.087087
0.499640 0.169208 0.022701
0.550636 0.089884 0.006453
0.562947 0.114104 0.069940
0.549989 0.063405 0.005461
0.515471 0.193794 0.023169
0.567765 0.128009 0.072619
0.574559 0.069237 0.013786
0.508615 0.188073 0.078394
0.519441 0.118926 0.004034
0.511990 0.155817 0.010272
0.550185 0.109584 0.072865
0.571680 0.180852 0.051630
0.563968 0.187796 0.074395
0.564193 0.144872 0.079703
0.505231 0.089334 0.021725
0.551797 0.153845 0.015875
0.540239 0.124942 0.005852
0.541621 0.170433 0.014491
0.539881 0.202207 0.028441
0.494789 0.160892 0.065846
0.545236 0.190606 0.023311
0.497039 0.139178 0.066134
0.542241 0.214915 0.066225
0.517634 0.076995 0.044274
0.489422 0.141908 0.043774
0.500183 0.101248 0.040562
0.516750 0.167425 0.086213
0.510054 0.143662 0.080551
0.576877 0.161368 0.050217
0.539928 0.050686 0.018774
0.556417 0.184676 0.028531
0.529837 0.205336 0.080854
0.503664 0.203029 0.046202
0.512950 0.077977 0.035428
0.504647 0.118955 0.065760
0.577497 0.095266 0.038230
0.569894 0.134002 0.027510
0.557210 0.188689 0.031661
0.580273 0.062535 0.022347
0.548584 0.202281 0.034401
0.548335 0.140810 0.085171
0.547697 0.050375 0.032960
0.560194 0.046362 0.017775
0.536628 0.180416 0.015911
0.578250 0.156186 0.057711
0.545384 0.118586 0.007283
0.493856 0.167625 0.062317
0.575167 0.098948 0.049078
0.504246 0.157559 0.078515
0.519881 0.099180 0.065262
0.564257 0.184598 0.037769
0.499715 0.121683 0.060652
0.494853 0.112466 0.026078
0.498218 0.187764 0.039430
0.546624 0.157687 0.013845
0.505787 0.138117 0.009595
0.578625 0.083080 0.034001
0.512572 0.135171 0.006910
0.544753 0.121501 0.007287
0.501401 0.153192 0.015337
0.506001 0.125045 0.070733
0.502619 0.169194 0.019676
0.554095 0.060161 0.045717
0.539974 0.216358 0.065367
0.553926 0.106551 0.070480
0.561529 0.175458 0.029330
0.568188 0.164526 0.032941
0.553290 0.050385 0.011465
0.563080 0.111987 0.016413
0.577176 0.098885 0.034385
0.575930 0.150653 0.041231
0.547401 0.213208 0.061797
0.495153 0.126321 0.054888
0.499573 0.188662 0.065363
0.501185 0.171608 0.075200
0.500219 0.194143 0.061997
0.569850 0.186540 0.058910
0.564532 0.056527 0.040856
0.579464 0.134952 0.054811
0.509057 0.153964 0.081961
0.525288 0.096321 0.003816
0.504736 0.118098 0.065315
0.554883 0.174705 0.085132
0.515012 0.126585 0.077618
0.491191 0.140802 0.053621
0.491688 0.128704 0.044752
0.545739 0.053918 0.010508
0.577269 0.132881 0.039497
0.532467 0.055719 0.025379
0.490249 0.138532 0.032741
0.531405 0.218090 0.048635
0.537778 0.108391 0.074023
0.512577 0.153952 0.084157
0.572370 0.080842 0.047397
0.526892 0.133358 0.083856
0.576341 0.132313 0.037252
0.493191 0.119302 0.026433
0.505837 0.087755 0.024115
0.539481 0.056483 0.011024
0.540869 0.185391 0.087304
0.562132 0.185797 0.035601
0.570553 0.158111 0.075415
0.513330 0.091537 0.008889
0.564183 0.191582 0.044576
0.534008 0.086740 0.062194
0.576151 0.163276 0.064706
0.556765 0.205884 0.057470
0.571856 0.055826 0.036790
0.512549 0.211578 0.066510
0.503735 0.192024 0.032613
0.538133 0.063125 0.008065
0.520469 0.116164 0.003757
0.541275 0.186324 0.019538
0.528606 0.184066 0.016332
0.492006 0.131228 0.049363
0.560258 0.101789 0.012469
0.496947 0.180462 0.064375
0.529598 0.143117 0.087108
0.499591 0.100855 0.021321
0.578288 0.156148 0.057159
0.500381 0.184160 0.069774
0.550490 0.207936 0.070087
0.574471 0.167413 0.067966
0.574846 0.137621 0.035443
0.576980 0.121328 0.037028
0.501271 0.165275 0.075895
0.505285 0.118044 0.008550
0.559855 0.089397 0.010081
0.542477 0.115749 0.005841
0.492073 0.163426 0.033212
0.506051 0.107342 0.059612
0.576919 0.133834 0.038833
0.541910 0.074521 0.055467
0.534790 0.193449 0.085814
0.503948 0.202474 0.062010
0.572818 0.091364 0.050464
0.507176 0.096503 0.052081
0.542814 0.075240 0.056021
0.539085 0.214028 0.070660
0.519101 0.217938 0.056021
0.510841 0.186376 0.021952
0.542136 0.173928 0.089031
0.513160 0.092260 0.055545
0.572728 0.153889 0.036183
0.565849 0.091614 0.014272
0.549777 0.207498 0.071648
0.552018 0.068987 0.005056
0.550929 0.210949 0.055506
0.491036 0.134164 0.047856
0.515918 0.124053 0.005035
0.516985 0.082118 0.010211
0.528188 0.080050 0.055675
0.564259 0.146901 0.023790
0.494794 0.144009 0.063911
0.527319 0.215620 0.071649
0.556391 0.141239 0.082860
0.490021 0.142143 0.033694
0.494869 0.177318 0.037656
0.492213 0.147532 0.027288
0.525465 0.172517 0.088730
0.504592 0.180228 0.077177
0.550995 0.194554 0.029697
0.542005 0.049611 0.021216
0.571845 0.149999 0.073528
0.560889 0.048779 0.013017
0.502468 0.098175 0.043607
0.575909 0.102751 0.048911
0.541652 0.087817 0.063472
0.489224 0.148277 0.039396
0.578526 0.154281 0.056647
0.489698 0.138926 0.043330
0.502410 0.190841 0.069511
0.578783 0.128742 0.055966
0.526603 0.216038 0.070881
0.505886 0.167180 0.016380
0.579444 0.140788 0.055675
0.536212 0.217952 0.064725
0.520217 0.169182 0.012075
0.493570 0.177489 0.053406
0.509791 0.139065 0.079138
0.567852 0.048089 0.029901
0.524183 0.087425 0.005480
0.509881 0.182530 0.080995
0.568533 0.117709 0.067502
0.578772 0.076713 0.035033
0.505720 0.110029 0.061083
0.557323 0.081812 0.007818
0.497342 0.181418 0.064810
0.549197 0.078882 0.058018
0.518499 0.141626 0.006644
0.555271 0.141143 0.083251
0.560099 0.141878 0.081413
0.555181 0.206063 0.066027
0.539716 0.078494 0.004318
0.576658 0.091264 0.042536
0.538370 0.125306 0.005300
0.517740 0.183132 0.017358
0.525456 0.153622 0.008120
0.533300 0.192789 0.020531
0.577653 0.107808 0.043942
0.511957 0.078249 0.021433
0.541812 0.075656 0.004516
0.537941 0.188897 0.086872
0.567719 0.052359 0.011300
0.504819 0.176154 0.021281
0.507267 0.128024 0.073301
0.573979 0.054416 0.033899
0.523274 0.071343 0.043672
0.577697 0.077301 0.038004
0.575732 0.127284 0.062991
0.560819 0.188801 0.036089
0.502936 0.164203 0.077740
0.542752 0.164792 0.089678
0.571999 0.123206 0.066525
0.511107 0.194219 0.026203
0.538632 0.174159 0.014477
0.500746 0.130785 0.011754
0.518582 0.183053 0.017083
0.489600 0.157942 0.043148
0.536739 0.173491 0.013796
0.508344 0.167420 0.015089
0.542466 0.215196 0.065224
0.537460 0.207232 0.032497
0.556248 0.074427 0.006370
0.513427 0.100044 0.061743
0.569009 0.073096 0.011076
0.534398 0.133228 0.084441
0.540423 0.082347 0.060285
0.553323 0.074048 0.005616
0.515853 0.213873 0.067264
0.574059 0.106038 0.054455
0.536346 0.148232 0.008016
0.576600 0.107385 0.049320
0.513850 0.171576 0.084718
0.520263 0.112241 0.073055
0.553516 0.050314 0.035371
0.579086 0.071003 0.034182
0.534728 0.134395 0.005536
0.573357 0.061591 0.039192
0.563935 0.117589 0.018117
0.564965 0.168786 0.030456
0.496228 0.139559 0.018155
0.531526 0.184937 0.087929
0.505016 0.095591 0.046905
0.543965 0.122339 0.007033
0.566476 0.185597 0.042462
0.545582 0.111882 0.074833
0.539210 0.167691 0.012902
0.496678 0.159408 0.022148
0.532065 0.071879 0.050639
0.578634 0.063659 0.033600
0.546579 0.049624 0.030236
0.489818 0.159201 0.041474
0.493917 0.163098 0.028308
0.521777 0.096433 0.064423
0.528155 0.169073 0.089554
0.498360 0.179235 0.068307
0.521477 0.128376 0.080835
0.533484 0.068177 0.047924
0.523250 0.075989 0.048979
0.558569 0.045958 0.019108
0.578804 0.075648 0.035003
0.553011 0.059101 0.006310
0.491015 0.132977 0.046410
0.552311 0.076667 0.056351
0.560998 0.051807 0.037407
0.559497 0.201105 0.049613
0.579161 0.147457 0.052657
0.527993 0.216034 0.043440
0.554191 0.185904 0.027187
0.505453 0.123989 0.008448
0.529109 0.189965 0.086577
0.546234 0.196638 0.027526
0.557290 0.111930 0.071723
0.521801 0.174607 0.013477
0.530478 0.099118 0.068842
0.523667 0.099542 0.003754
0.567092 0.178469 0.075576
0.570722 0.094145 0.019402
0.493715 0.146970 0.024053
0.534172 0.146606 0.088249
0.505918 0.092040 0.043768
0.504037 0.159218 0.078514
0.520187 0.189372 0.084563
0.509403 0.189497 0.078503
0.499475 0.120484 0.059385
0.520138 0.110499 0.072057
0.509837 0.206044 0.069560
0.510831 0.105339 0.063164
0.564020 0.130115 0.020312
0.577603 0.108016 0.039584
0.503843 0.175454 0.021767
0.535011 0.180383 0.015585
0.524144 0.124921 0.003929
0.570461 0.139760 0.073591
0.563151 0.124603 0.018566
0.526451 0.205884 0.029440
0.577816 0.126873 0.040082
0.547404 0.084110 0.005010
0.575260 0.129005 0.064469
0.536305 0.161959 0.090385
0.517969 0.081870 0.009691
0.526868 0.190744 0.086040
0.501857 0.200997 0.049108
0.508380 0.095567 0.010847
0.531790 0.212793 0.038308
0.503632 0.124510 0.009450
0.490544 0.165056 0.045726
0.559029 0.203361 0.061523
0.566251 0.100637 0.061395
0.523666 0.206935 0.078991
0.490802 0.166193 0.048141
0.517101 0.166279 0.086401
0.540397 0.158398 0.011101
0.492745 0.121564 0.039311
0.542865 0.215964 0.053213
0.514505 0.198479 0.026806
0.524144 0.122616 0.003724
0.531219 0.178228 0.089087
0.514295 0.107333 0.005405
0.545606 0.062999 0.047511
0.577995 0.111235 0.043852
0.494312 0.125883 0.019668
0.570329 0.142719 0.074296
0.499854 0.112287 0.013609
0.537670 0.142286 0.087142
0.521714 0.172414 0.012813
0.577648 0.106729 0.041686
0.489862 0.142495 0.034599
0.557453 0.105195 0.011380
0.521128 0.132385 0.005073
0.504094 0.099148 0.049335
0.499574 0.165427 0.020935
0.572328 0.091037 0.020112
0.573464 0.051569 0.016463
0.555927 0.122403 0.076809
0.577859 0.088826 0.037095
0.494626 0.179477 0.057097
0.514017 0.150055 0.084279
0.510202 0.210636 0.046883
0.532198 0.218384 0.065750
0.543669 0.053486 0.035942
0.501722 0.127877 0.067461
0.526045 0.196361 0.022164
0.535749 0.065028 0.046013
0.491994 0.125613 0.027562
0.537826 0.218396 0.060839
0.555938 0.109159 0.011155
0.569004 0.070837 0.046624
0.508299 0.205275 0.067971
0.567679 0.081648 0.052178
0.504322 0.122995 0.009029
0.503662 0.156669 0.014389
0.496037 0.170273 0.066805
0.493862 0.132384 0.020716
0.497800 0.155629 0.070852
0.558086 0.066210 0.049215
0.559372 0.178370 0.028392
0.495904 0.122159 0.017119
0.571952 0.075226 0.045910
0.526541 0.122612 0.003580
0.526448 0.201313 0.082391
0.518429 0.178226 0.085905
0.568546 0.189291 0.057627
0.562444 0.189040 0.038645
0.573702 0.116514 0.029618
0.490225 0.145752 0.032931
0.531548 0.218400 0.065881
0.530796 0.095737 0.066980
0.550507 0.189150 0.025916
0.553746 0.203312 0.073297
0.540198 0.174493 0.015080
0.513116 0.132485 0.006466
0.558050 0.082711 0.057934
0.541137 0.191356 0.085813
0.578476 0.121003 0.042621
0.572155 0.143385 0.072381
0.556227 0.081699 0.058046
0.510299 0.138683 0.079345
0.564955 0.132834 0.021720
0.493181 0.120655 0.024923
0.514111 0.203864 0.031737
0.509743 0.128596 0.075413
0.499298 0.126278 0.063058
0.546322 0.214349 0.058663
0.536544 0.196891 0.084563
0.523215 0.063917 0.017899
0.541279 0.208789 0.036473
0.547040 0.071431 0.004759
0.577696 0.112491 0.048539
0.570455 0.163197 0.075395
0.512051 0.093180 0.009111
0.491560 0.130106 0.027640
0.525608 0.138414 0.005548
0.540696 0.158207 0.011162
0.505683 0.089321 0.019738
0.515720 0.088309 0.054474
0.549445 0.138077 0.011614
0.526051 0.159914 0.089100
0.507331 0.102232 0.057423
0.515944 0.215736 0.051048
0.525001 0.118656 0.003343
0.523238 0.123956 0.003914
0.506721 0.089241 0.040807
0.499454 0.195960 0.055410
0.569096 0.116113 0.023257
0.538699 0.085086 0.003782
0.563823 0.152031 0.024459
0.516345 0.150646 0.008359
0.575903 0.141388 0.066642
0.539850 0.196471 0.084351
0.528152 0.096490 0.003361
0.569966 0.175584 0.073055
0.508868 0.164301 0.082578
0.560982 0.144086 0.020204
0.496964 0.105738 0.026957
0.496386 0.110317 0.040120
0.561172 0.099445 0.064275
0.492026 0.158513 0.030553
0.519392 0.067983 0.028728
0.525503 0.105528 0.071262
0.549144 0.199850 0.032463
0.501569 0.163134 0.018031
0.578339 0.055375 0.027366
0.576851 0.163640 0.061011
0.494813 0.182995 0.051655
0.492653 0.174692 0.045317
0.536281 0.150524 0.089087
0.540045 0.140839 0.007757
0.520820 0.093560 0.005282
0.513263 0.113736 0.070260
0.546714 0.079633 0.058681
0.518802 0.109377 0.070830
0.493122 0.172970 0.038847
0.533642 0.179991 0.088905
0.495750 0.121624 0.017480
0.509072 0.126470 0.074019
0.578681 0.141954 0.046244
0.552534 0.114049 0.010089
0.524292 0.109569 0.003106
0.530220 0.187075 0.017597
0.536223 0.053953 0.015452
0.573913 0.174158 0.051277
0.495583 0.127908 0.017295
0.525486 0.063139 0.015251
0.540877 0.199341 0.082941
0.573988 0.052424 0.031656
0.500961 0.099949 0.041298
0.569261 0.087042 0.015706
0.511077 0.169897 0.083516
0.574798 0.090638 0.046922
0.510405 0.110036 0.006608
0.519548 0.189549 0.084274
0.549342 0.174373 0.087207
0.578608 0.129940 0.057221
0.566136 0.119741 0.070447
0.503077 0.093660 0.035695
0.492326 0.136633 0.024965
0.570352 0.172163 0.039697
0.531818 0.176068 0.089436
0.525267 0.177085 0.013951
0.535922 0.067535 0.007179
0.509892 0.164743 0.083181
0.570323 0.182362 0.048475
0.510265 0.108530 0.006820
0.501857 0.103830 0.049732
0.576316 0.095477 0.028864
0.517601 0.201943 0.079017
0.523777 0.103637 0.003387
0.551322 0.067428 0.051045
0.497557 0.109800 0.018153
0.495749 0.134150 0.017677
0.549754 0.199130 0.032360
0.572617 0.141670 0.032778
0.531849 0.206330 0.030074
0.557363 0.188375 0.080451
0.509000 0.190800 0.025782
0.533412 0.098731 0.002973
0.560820 0.095433 0.062647
0.579911 0.070666 0.031447
0.494030 0.143609 0.022777
0.517020 0.212476 0.070807
0.568647 0.066401 0.008927
0.520245 0.119314 0.076623
0.577315 0.108149 0.037415
0.541176 0.177599 0.088679
0.525182 0.204791 0.028512
0.571437 0.145782 0.032050
0.510002 0.182539 0.020643
0.513729 0.094028 0.007922
0.515387 0.075069 0.036196
0.537564 0.112681 0.004008
0.571671 0.086988 0.017926
0.562614 0.188343 0.075735
0.509275 0.085168 0.040495
0.545981 0.071114 0.053539
0.542100 0.216248 0.052777
0.512289 0.206799 0.036585
0.515635 0.083440 0.010572
0.496719 0.126459 0.015632
0.490447 0.158650 0.052883
0.560242 0.059445 0.006504
0.560463 0.173588 0.082465
0.489513 0.139771 0.039651
0.574221 0.073501 0.015241
0.503552 0.128926 0.009701
0.554292 0.195008 0.079601
0.508214 0.091825 0.048662
0.558726 0.168897 0.084037
0.511794 0.082880 0.042841
0.576433 0.159165 0.046609
0.536262 0.056053 0.033844
0.493960 0.126536 0.020383
0.526107 0.192197 0.019916
0.564897 0.072504 0.008930
0.564245 0.046281 0.021165
0.549064 0.046749 0.020585
0.501907 0.173031 0.022322
0.570925 0.180546 0.067313
0.555650 0.204975 0.067688
0.508453 0.210161 0.051600
0.514386 0.159255 0.085460
0.548449 0.144223 0.086027
0.559928 0.177411 0.082006
0.556266 0.125840 0.013592
0.552221 0.162658 0.087116
0.567896 0.183801 0.043658
0.572825 0.158760 0.072445
0.507649 0.113827 0.065720
0.522756 0.121122 0.078255
0.528501 0.108849 0.073697
0.519231 0.207289 0.076988
0.540568 0.158771 0.011241
0.553436 0.143154 0.084354
0.533839 0.149167 0.007765
0.579519 0.071425 0.032886
0.522133 0.178873 0.014847
0.556867 0.095451 0.064395
0.530453 0.083761 0.004675
0.574993 0.165982 0.067171
0.550247 0.146239 0.086017
0.541278 0.133499 0.007175
0.574155 0.171904 0.066202
0.523344 0.207227 0.078718
0.541614 0.216551 0.062289
0.531146 0.066211 0.009364
0.509965 0.147910 0.081463
0.526228 0.203843 0.081208
0.491652 0.126859 0.028848
0.492423 0.169153 0.056589
0.579467 0.077774 0.029781
0.509322 0.190960 0.025610
0.577546 0.058900 0.016122
0.569387 0.082471 0.051089
0.521398 0.072541 0.011797
0.559597 0.144478 0.082212
0.496189 0.184867 0.042552
0.572987 0.049273 0.021914
0.536260 0.136358 0.085460
0.492696 0.129709 0.023460
0.562261 0.198024 0.050871
0.578947 0.080491 0.028109
0.529077 0.180615 0.015083
0.510974 0.127294 0.006496
0.547472 0.047272 0.019976
0.525911 0.068623 0.010882
0.490875 0.165402 0.040921
0.530945 0.160593 0.009760
0.492252 0.129067 0.048124
0.541202 0.216705 0.052987
0.560701 0.060831 0.045054
0.509993 0.081496 0.032494
0.542441 0.106004 0.005050
0.563348 0.187723 0.075224
0.571466 0.179605 0.048696
0.537127 0.180289 0.015985
0.560401 0.103081 0.066295
0.557408 0.176945 0.083556
0.558503 0.151762 0.083914
0.501566 0.198867 0.059988
0.548861 0.180393 0.021250
0.499443 0.156812 0.018076
0.536194 0.149335 0.008183
0.537753 0.089295 0.064202
0.494718 0.146335 0.022131
0.536378 0.061724 0.042732
0.536662 0.052844 0.023966
0.525599 0.086426 0.059318
0.553754 0.151958 0.085894
0.573680 0.176820 0.059822
0.570102 0.183058 0.048724
0.501549 0.101262 0.045605
0.576246 0.111867 0.053123
0.518508 0.126541 0.004761
0.499865 0.147534 0.015565
0.549975 0.168145 0.018262
0.504255 0.195563 0.069411
0.575447 0.151929 0.040614
0.556603 0.047111 0.030406
0.577526 0.149896 0.045205
0.572680 0.050872 0.030883
0.552006 0.156157 0.016484
0.539357 0.172431 0.089653
0.551450 0.121060 0.077561
0.497274 0.104879 0.029557
0.569154 0.060982 0.008681
0.497133 0.175935 0.067135
0.566160 0.046633 0.021080
0.490453 0.163126 0.049524
0.558969 0.046518 0.016838
0.524530 0.184020 0.016454
0.493901 0.161634 0.063809
0.531070 0.146087 0.087961
0.576465 0.164840 0.062256
0.510360 0.114413 0.068535
0.499910 0.192475 0.040372
0.550013 0.074611 0.005044
0.567976 0.116655 0.067487
0.510063 0.211013 0.048538
0.537568 0.196186 0.084727
0.521239 0.080726 0.052068
0.542072 0.050589 0.026862
0.546022 0.165253 0.088929
0.557737 0.068203 0.050488
0.498345 0.182109 0.033707
0.549778 0.205098 0.074854
0.490891 0.135176 0.029868
0.562096 0.118200 0.072327
0.579132 0.144628 0.050017
0.506045 0.194887 0.072438
0.515869 0.121423 0.004883
0.531025 0.211333 0.076554
0.535442 0.053228 0.020177
0.504908 0.129890 0.009043
0.556710 0.070025 0.051770
0.514433 0.089690 0.008885
0.551949 0.139801 0.083942
0.506421 0.096830 0.051186
0.577596 0.128578 0.039646
0.573366 0.116354 0.029045
0.494160 0.136963 0.020942
0.564036 0.175035 0.079678
0.492268 0.126182 0.025743
0.528753 0.107826 0.002789
0.529795 0.097029 0.067516
0.575637 0.151087 0.067873
0.562896 0.161227 0.082037
0.532167 0.204441 0.081362
0.579461 0.069526 0.021686
0.566671 0.074890 0.049992
0.576080 0.155034 0.043358
0.571640 0.052987 0.034519
0.564955 0.145385 0.079283
0.543386 0.048933 0.019191
0.571721 0.117251 0.026797
0.492115 0.123846 0.038908
0.560725 0.158071 0.023013
0.530941 0.197803 0.023121
0.573877 0.175092 0.063453
0.490544 0.147161 0.031874
0.524043 0.074625 0.009193
0.545636 0.086833 0.004728
0.538959 0.145710 0.087920
0.496667 0.107109 0.033675
0.532137 0.060691 0.037823
0.559018 0.176208 0.082809
0.572520 0.113957 0.061053
0.576245 0.167112 0.054396
0.555254 0.047487 0.014559
0.508551 0.083166 0.028583
0.547638 0.154778 0.013765
0.564412 0.068691 0.007830
0.517153 0.071664 0.032746
0.555895 0.179507 0.083818
0.490126 0.140618 0.048776
0.538869 0.145900 0.087971
0.560734 0.097565 0.063654
0.572233 0.128060 0.029478
0.561802 0.109608 0.068519
0.505227 0.201422 0.039492
0.567237 0.179691 0.074791
0.516470 0.071247 0.025507
0.578803 0.150664 0.057541
0.513649 0.080216 0.014382
0.563334 0.167499 0.081471
0.559849 0.146867 0.019833
0.577504 0.129556 0.060293
0.528277 0.208038 0.031630
0.529277 0.189582 0.018659
0.499752 0.147419 0.072133
0.564771 0.174159 0.032445
0.515671 0.122541 0.004990
0.541434 0.185760 0.087134
0.489200 0.145066 0.043591
0.494581 0.181388 0.045264
0.535861 0.160804 0.090349
0.577272 0.098870 0.035176
0.497495 0.190207 0.045950
0.490862 0.130847 0.031801
0.558686 0.134671 0.080167
0.539434 0.075050 0.055485
0.534651 0.134404 0.084840
0.512111 0.121413 0.073692
0.546237 0.213426 0.063958
0.509139 0.124768 0.073275
0.566446 0.173809 0.034459
0.550181 0.180119 0.021954
0.547925 0.207843 0.041122
0.559423 0.145421 0.019212
0.495763 0.151356 0.021454
0.537795 0.185113 0.087746
0.540341 0.119531 0.078899
0.571278 0.178483 0.046711
0.528975 0.214776 0.041152
0.553150 0.074235 0.005596
0.502571 0.159095 0.015873
0.533176 0.154835 0.089698
0.573960 0.129581 0.066628
0.549186 0.052528 0.010551
0.575890 0.133498 0.036550
0.519300 0.067676 0.026397
0.539016 0.109565 0.074512
0.517363 0.149648 0.008031
0.522508 0.100753 0.067457
0.501304 0.169893 0.075627
0.492036 0.163126 0.033111
0.517559 0.136926 0.082424
0.494821 0.122134 0.019153
0.493382 0.144163 0.061023
0.505831 0.175565 0.020162
0.555697 0.113882 0.073203
0.502246 0.144877 0.012896
0.522640 0.064323 0.018501
0.518254 0.214148 0.069483
0.548355 0.057288 0.042763
0.522945 0.201625 0.026137
0.541774 0.178416 0.088454
0.554323 0.162559 0.086352
0.527046 0.105437 0.002901
0.559625 0.121620 0.075063
0.555113 0.140156 0.083052
0.554951 0.050760 0.036227
0.569895 0.124894 0.069522
0.547383 0.208861 0.042194
0.522854 0.080956 0.053444
0.548578 0.048232 0.015148
0.547880 0.212781 0.052550
0.570813 0.183904 0.061692
0.526354 0.067784 0.042238
0.563625 0.196584 0.064915
0.556716 0.121019 0.075968
0.534310 0.055377 0.028863
0.492455 0.149065 0.026999
0.504569 0.090681 0.034455
0.492347 0.157815 0.060223
0.561613 0.147105 0.021354
0.521549 0.183725 0.016707
0.552524 0.046128 0.018945
0.573982 0.169642 0.046446
0.539474 0.210564 0.037951
0.504954 0.092507 0.041537
0.544208 0.134240 0.008453
0.552164 0.131583 0.012058
0.540371 0.073830 0.054791
0.553648 0.185420 0.083515
0.571924 0.105709 0.057604
0.557796 0.152856 0.084366
0.504697 0.205654 0.050458
0.544548 0.118960 0.006957
0.550588 0.178766 0.021749
0.527165 0.116039 0.003083
0.498781 0.101197 0.029275
0.572115 0.137961 0.071387
0.573281 0.133122 0.068693
0.518719 0.068209 0.024219
0.549699 0.139125 0.011924
0.562691 0.074982 0.052234
0.540263 0.077575 0.057296
0.580640 0.065767 0.027179
0.514517 0.079132 0.014136
0.527944 0.145517 0.006676
0.509087 0.128723 0.007220
0.504248 0.196809 0.068551
0.509999 0.201120 0.073455
0.521177 0.183097 0.016526
0.574136 0.052842 0.015626
0.499138 0.101047 0.033703
0.496493 0.148450 0.019827
0.547202 0.103720 0.070799
0.526650 0.210794 0.035045
0.548111 0.065874 0.005217
0.558172 0.202483 0.067659
0.520391 0.123795 0.078676
0.559940 0.185651 0.079565
0.571788 0.181719 0.055144
0.551557 0.114254 0.009647
0.524932 0.201227 0.082112
0.527883 0.211438 0.076483
0.548725 0.103492 0.007190
0.491073 0.128845 0.032210
0.527074 0.175166 0.088888
0.549510 0.208818 0.044977
0.506814 0.205122 0.041899
0.490438 0.137154 0.031932
0.516323 0.147330 0.007822
0.503443 0.153004 0.013677
0.494710 0.150991 0.065284
0.501014 0.190028 0.035436
0.517802 0.201715 0.079234
0.509122 0.145933 0.009375
0.494219 0.140977 0.061693
0.499427 0.110217 0.050708
0.530852 0.215044 0.041891
0.524263 0.126448 0.004078
0.552745 0.153422 0.016327
0.539776 0.178087 0.016023
0.536302 0.054668 0.030411
0.494511 0.150751 0.023328
0.495067 0.159981 0.066445
0.508424 0.192295 0.027263
0.522061 0.117679 0.076467
0.554332 0.174489 0.085399
0.511081 0.148947 0.009235
0.561856 0.138633 0.019902
0.537441 0.100846 0.003427
0.561408 0.076192 0.008394
0.558141 0.118518 0.013770
0.570042 0.184118 0.065356
0.554605 0.178460 0.084621
0.502892 0.175555 0.076479
0.538520 0.203802 0.080945
0.571580 0.098606 0.021909
0.577188 0.143254 0.064321
0.556306 0.196622 0.037207
0.498341 0.169113 0.071450
0.493010 0.166507 0.060205
0.563167 0.046019 0.024821
0.558900 0.200645 0.069570
0.576983 0.138736 0.064116
0.505471 0.177314 0.078729
0.535364 0.151367 0.089247
