ply
format ascii 1.0
element vertex 1024
property float x
property float y
property float z
end_header
0.512851 -0.011123 0.068207
0.516073 0.072573 0.053343
0.516689 0.077709 0.053494
0.552436 -0.056293 0.016653
0.581220 0.071036 0.046277
0.514097 0.024750 0.030138
0.544422 -0.048894 0.013360
0.587994 -0.001852 0.071455
0.527617 0.079471 0.030260
0.535534 0.032660 0.019885
0.592113 -0.023927 0.042311
0.569368 -0.064379 0.049673
0.584528 0.061739 0.061685
0.593568 0.039416 0.040855
0.593278 -0.009305 0.033451
0.549128 0.030932 0.017237
0.516689 0.045228 0.034144
0.562675 -0.052199 0.016147
0.512774 -0.042811 0.049966
0.575878 -0.014632 0.015375
0.595771 0.039098 0.047084
0.546682 0.103075 0.037970
0.535196 -0.067588 0.034125
0.533670 0.074456 0.072734
0.518360 0.094558 0.041517
0.519754 0.016806 0.074447
0.522431 -0.048459 0.061106
0.546005 -0.028640 0.082940
0.546074 0.020044 0.087536
0.528982 -0.046372 0.068296
0.547329 0.040565 0.019677
0.576985 0.000128 0.017110
0.579662 0.076538 0.054431
0.559240 0.082540 0.071226
0.563211 -0.018963 0.084586
0.568631 0.028248 0.084928
0.555015 0.041237 0.019934
0.574676 -0.026349 0.014968
0.536529 -0.042590 0.074650
0.575846 0.078353 0.044884
0.577686 -0.054671 0.032631
0.578502 -0.032722 0.070145
0.543333 -0.005458 0.087307
0.580181 -0.045905 0.027364
0.559320 -0.054086 0.016202
0.582845 -0.019710 0.020955
0.585671 0.065069 0.049498
0.551488 0.003205 0.088827
0.538182 -0.049973 0.015729
0.516908 0.089960 0.043615
0.517632 0.088890 0.040351
0.589934 -0.028456 0.038054
0.575258 0.003681 0.082892
0.517209 0.031099 0.069383
0.584362 -0.036840 0.029132
0.558796 0.020174 0.088083
0.550884 -0.058774 0.066935
0.512855 -0.042561 0.035887
0.541623 -0.022784 0.084074
0.504415 -0.006047 0.051505
0.583587 -0.006719 0.075446
0.590705 0.039882 0.064434
0.587092 0.060744 0.046441
0.528169 -0.034799 0.015376
0.582867 -0.041163 0.056952
0.551925 -0.049859 0.012984
0.542871 -0.063164 0.022899
0.568412 -0.058033 0.023502
0.575063 -0.056432 0.029546
0.589387 -0.022067 0.060933
0.558514 0.099966 0.055827
0.590171 -0.018820 0.061586
0.596570 0.011592 0.039634
0.550181 0.017448 0.014266
0.567979 0.085199 0.041011
0.524457 -0.057747 0.053751
0.511717 0.041398 0.041676
0.540736 0.064676 0.078111
0.560364 -0.064848 0.025561
0.596110 -0.005880 0.049939
0.553198 0.061952 0.080566
0.563682 -0.002603 0.011372
0.544423 0.060761 0.080048
0.581029 0.068897 0.043531
0.535704 0.088541 0.029163
0.574141 0.032698 0.021522
0.552383 0.073878 0.028124
0.540351 -0.045997 0.013314
0.595112 0.030884 0.039511
0.561697 0.056291 0.081357
0.582330 0.071889 0.052964
0.574345 -0.023711 0.014600
0.550559 -0.026980 0.084103
0.593629 0.008612 0.032878
0.526136 -0.062248 0.044765
0.573988 0.067546 0.070825
0.538597 -0.050036 0.071003
0.594658 -0.004627 0.036007
0.554438 -0.042952 0.010481
0.566418 0.058570 0.026485
0.543750 -0.072791 0.041930
0.538415 -0.002830 0.086119
0.511332 -0.034619 0.032298
0.505009 -0.007687 0.053953
0.510989 0.013867 0.030641
0.533918 -0.044544 0.072413
0.590434 -0.015449 0.063147
0.597736 0.010740 0.047922
0.518758 0.053298 0.065559
0.527262 -0.018071 0.079580
0.537904 -0.031128 0.080301
0.587237 -0.037481 0.044203
0.541449 -0.029569 0.009608
0.557993 -0.055279 0.068508
0.529112 0.016437 0.018631
0.564386 0.029860 0.017706
0.571845 -0.046409 0.017925
0.512011 -0.001921 0.026644
0.506742 -0.024546 0.037067
0.529736 -0.012830 0.081716
0.550175 -0.018377 0.086515
0.505391 -0.021244 0.049800
0.532882 0.031562 0.081189
0.549904 -0.005298 0.088247
0.565224 -0.001897 0.087003
0.516588 0.050992 0.062904
0.543149 0.018140 0.014979
0.588871 0.056995 0.046122
0.529344 -0.028009 0.078133
0.514331 0.043882 0.061154
0.532759 -0.061015 0.026323
0.504949 0.006401 0.040282
0.534055 0.038614 0.080726
0.577169 0.036033 0.023946
0.549283 -0.028752 0.083325
0.578902 -0.033872 0.019468
0.554145 -0.034516 0.008788
0.529173 0.045200 0.076734
0.550729 -0.039181 0.078901
0.572817 0.045972 0.024608
0.550126 -0.052557 0.014392
0.535779 -0.068761 0.047500
0.596613 0.000406 0.044482
0.538045 0.048727 0.022867
0.536285 -0.042495 0.013562
0.540369 0.072989 0.027104
0.557894 0.098152 0.058841
0.586186 0.062111 0.045972
0.535490 0.104507 0.035538
0.576069 0.001301 0.016758
0.543227 -0.071657 0.049531
0.559834 -0.065959 0.057770
0.546006 -0.073125 0.045378
0.516872 -0.039876 0.026353
0.527027 -0.059277 0.055091
0.585933 0.010985 0.074459
0.556404 0.021579 0.015024
0.540125 0.107993 0.047198
0.544538 0.009384 0.087902
0.523983 0.072911 0.066347
0.504106 0.002716 0.049170
0.533121 -0.013864 0.083149
0.543328 -0.055721 0.068462
0.512896 -0.029366 0.027296
0.561216 0.086117 0.068093
0.568323 0.032016 0.019154
0.543755 -0.007442 0.087247
0.582729 -0.046524 0.035491
0.572034 0.072768 0.069640
0.509048 -0.030480 0.054154
0.505935 -0.024596 0.040322
0.578485 -0.040686 0.064564
0.528812 0.071746 0.029209
0.562766 -0.034302 0.010323
0.536543 -0.053457 0.067837
0.512001 -0.007663 0.067658
0.552386 0.047199 0.084230
0.527697 -0.055877 0.059835
0.527803 0.035214 0.077538
0.563059 -0.064633 0.057208
0.571359 0.069756 0.033694
0.517081 -0.024376 0.069448
0.537688 -0.050602 0.070291
0.592137 -0.018307 0.034859
0.554084 0.069155 0.027155
0.514227 0.028691 0.066434
0.555095 0.094180 0.035828
0.577845 -0.038994 0.019924
0.508727 0.015587 0.061768
0.529433 0.090015 0.030250
0.558795 -0.051860 0.070925
0.582977 0.037751 0.028343
0.586793 0.000056 0.023879
0.524254 0.030001 0.075899
0.514834 -0.026811 0.024174
0.511336 -0.041606 0.044044
0.508691 -0.002984 0.063330
0.587552 0.057750 0.059482
0.548801 0.006460 0.012240
0.563637 0.034836 0.018882
0.558501 -0.010268 0.009653
0.553717 -0.044658 0.010967
0.576801 -0.024672 0.075828
0.551279 -0.031344 0.008441
0.574653 -0.004053 0.082671
0.534418 -0.067926 0.037060
0.566233 0.064277 0.077299
0.591619 -0.000875 0.066316
0.583475 0.039937 0.073205
0.547979 -0.033646 0.081168
0.556504 -0.010673 0.087581
0.510838 -0.007287 0.027564
0.557981 0.100379 0.055664
0.538944 -0.025638 0.010087
0.538793 -0.065449 0.057900
0.577873 -0.056669 0.040968
0.574432 0.065363 0.071575
0.568037 0.016222 0.086155
0.515702 0.058493 0.040323
0.527378 0.024309 0.021132
0.536815 -0.030246 0.010962
0.520443 0.094543 0.037287
0.543255 -0.045201 0.012198
0.520317 -0.003381 0.076081
0.544604 0.097495 0.064291
0.540390 0.107947 0.047681
0.562306 -0.020856 0.009492
0.506199 -0.004539 0.035035
0.558400 0.041163 0.020092
0.579243 -0.030036 0.070937
0.512838 0.051305 0.049087
0.562610 -0.023985 0.083521
0.554689 0.037322 0.086123
0.527757 -0.027193 0.014474
0.574756 0.014472 0.083049
0.594824 0.033075 0.059488
0.585796 -0.041118 0.042961
0.554333 0.002671 0.011417
0.592612 0.015876 0.032129
0.516616 0.071406 0.040558
0.587793 0.020545 0.028017
0.558962 0.038330 0.019350
0.593911 -0.000730 0.033542
0.564571 0.009184 0.087605
0.590862 -0.016883 0.031068
0.533105 0.085374 0.068794
0.536828 -0.069370 0.036809
0.522007 0.034176 0.073369
0.534022 -0.016437 0.011782
0.526443 -0.006258 0.015760
0.549413 0.105043 0.043964
0.538484 0.047313 0.022452
0.517742 0.056243 0.035992
0.515767 0.005396 0.024202
0.531839 -0.064135 0.031755
0.581445 0.011192 0.078572
0.572780 -0.049796 0.063708
0.566854 -0.036609 0.077169
0.573741 -0.053787 0.058714
0.513151 -0.034692 0.029049
0.526024 0.091939 0.061547
0.506426 0.016457 0.039494
0.556755 -0.020925 0.085595
0.577856 0.059932 0.033538
0.568160 0.017178 0.086044
0.514527 -0.034105 0.061444
0.553414 0.007028 0.088965
0.585559 -0.002616 0.074163
0.589148 0.011557 0.070764
0.556574 0.100834 0.045159
0.515353 0.022805 0.028375
0.561619 0.092431 0.062609
0.595905 0.005846 0.057934
0.552077 -0.067154 0.025904
0.534772 0.028798 0.082580
0.552622 -0.021039 0.085927
0.516083 0.068357 0.055187
0.540001 0.000622 0.086737
0.517201 0.023888 0.027096
0.596147 0.026294 0.058112
0.585923 0.058584 0.061767
0.561912 0.097280 0.047369
0.526021 -0.047012 0.065518
0.530637 -0.027979 0.013155
0.504991 -0.013056 0.052424
0.586189 0.060951 0.044545
0.524727 -0.035864 0.017752
0.543501 0.052169 0.081863
0.504887 -0.013688 0.039298
0.525469 -0.054446 0.026697
0.521355 0.095017 0.055270
0.560720 -0.069581 0.051140
0.583991 -0.042123 0.033432
0.564464 0.091760 0.043162
0.582186 0.040588 0.028635
0.556521 -0.026785 0.008475
0.569258 -0.025676 0.011998
0.586766 0.007810 0.073597
0.542786 0.057650 0.023918
0.575563 -0.042218 0.066862
0.536117 -0.009107 0.084895
0.592764 0.046184 0.057540
0.506417 -0.004326 0.034571
0.570049 -0.046818 0.068611
0.525311 -0.061278 0.039189
0.504901 -0.018844 0.041294
0.519358 0.019237 0.024376
0.516727 0.034355 0.030462
0.566457 -0.030876 0.079918
0.593522 0.034937 0.038464
0.544224 0.069943 0.026415
0.561643 0.043810 0.021119
0.594083 -0.017346 0.048876
0.569579 0.029238 0.084471
0.515967 0.022063 0.027638
0.539522 0.066960 0.077132
0.532117 -0.055064 0.064064
0.570421 -0.061011 0.054230
0.514294 0.057612 0.053889
0.572001 0.041914 0.081483
0.538465 0.066257 0.076957
0.535207 -0.068970 0.042417
0.559668 -0.071251 0.037375
0.582517 -0.032395 0.023469
0.524099 -0.036603 0.070411
0.565093 0.045763 0.083296
0.520918 0.003424 0.020230
0.536981 0.067512 0.026580
0.525235 -0.061465 0.040949
0.553476 0.089395 0.032679
0.531562 -0.059506 0.025786
0.588318 0.005372 0.071731
0.585660 0.032077 0.028897
0.582326 0.069947 0.047368
0.551647 0.059544 0.081239
0.534097 0.012482 0.015941
0.577667 -0.008246 0.080093
0.545233 -0.072630 0.047712
0.514197 -0.001792 0.070562
0.595676 0.002129 0.057568
0.589579 -0.031305 0.046550
0.596645 -0.000587 0.049409
0.539077 -0.037823 0.077772
0.562926 -0.044764 0.074361
0.543246 -0.036116 0.009934
0.555019 0.100957 0.057189
0.504694 -0.004662 0.053124
0.541940 0.107268 0.042573
0.580052 0.042233 0.075840
0.512257 0.047910 0.047306
0.536115 0.051971 0.079289
0.593793 -0.005516 0.060529
0.506437 -0.002379 0.034693
0.591573 0.002102 0.066867
0.568367 -0.052678 0.065198
0.506502 0.021812 0.042912
0.546221 -0.072896 0.047232
0.589453 -0.013456 0.027624
0.506054 0.010716 0.038190
0.540470 -0.071260 0.037324
0.578656 -0.011730 0.017214
0.583562 -0.036561 0.060187
0.557378 -0.005968 0.088116
0.528051 0.103775 0.053928
0.578076 0.067579 0.038498
0.556481 -0.047271 0.074485
0.510366 0.026952 0.060758
0.516011 0.077077 0.043575
0.569207 0.026211 0.084904
0.547504 0.077355 0.028251
0.575014 -0.043187 0.066723
0.531875 0.063232 0.074629
0.582641 0.015514 0.023016
0.515017 -0.002001 0.071400
0.511555 -0.001355 0.067548
0.522982 -0.057520 0.034451
0.564771 0.078767 0.034005
0.514485 0.060775 0.045669
0.565552 0.034371 0.019092
0.578464 -0.026837 0.017820
0.575783 0.004912 0.017097
0.563173 -0.034415 0.010458
0.512969 0.044988 0.040654
0.581690 0.069295 0.060227
0.562813 0.081698 0.034265
0.528827 -0.050627 0.065187
0.536644 0.105525 0.036976
0.588177 -0.023558 0.029042
0.562276 0.005795 0.088170
0.520780 0.097571 0.052443
0.561482 0.070654 0.076355
0.515616 0.075434 0.046308
0.506018 0.020516 0.050584
0.531586 -0.031154 0.013076
0.564134 -0.030181 0.081119
0.523251 -0.028143 0.073871
0.507730 0.022650 0.056548
0.580349 -0.041025 0.024171
0.561171 -0.014229 0.009619
0.596112 0.021283 0.038637
0.577840 -0.026546 0.017259
0.591756 -0.015682 0.060132
0.563166 -0.013691 0.010093
0.587853 -0.012892 0.025414
0.534674 -0.067843 0.036030
0.554029 -0.051009 0.013635
0.549116 0.084557 0.030074
0.562038 0.036584 0.085642
0.535611 0.086361 0.029014
0.533053 0.001749 0.084065
0.538657 0.057894 0.079061
0.552063 0.084684 0.030826
0.557437 -0.071444 0.049558
0.511381 0.042815 0.051578
0.566132 0.011718 0.014237
0.511458 0.043548 0.045739
0.551244 -0.037532 0.079713
0.550808 0.022720 0.087912
0.538326 0.097725 0.063839
0.516115 0.082744 0.044720
0.568693 0.025202 0.017679
0.518929 0.089105 0.054625
0.536950 0.041668 0.021557
0.530447 -0.009989 0.013578
0.597225 0.010356 0.042852
0.534054 -0.048258 0.070188
0.576280 0.044035 0.078404
0.559780 0.037499 0.019182
0.523645 -0.029236 0.017093
0.527457 0.026508 0.078707
0.561369 -0.007586 0.010312
0.595019 -0.009417 0.039076
0.550484 0.069378 0.078228
0.516778 0.089737 0.046985
0.546839 0.098868 0.062757
0.592325 -0.016307 0.058204
0.594674 -0.015225 0.044110
0.553381 0.040458 0.085570
0.536304 -0.034425 0.078510
0.572513 -0.042065 0.069966
0.546195 0.005373 0.088264
0.550454 0.073916 0.076646
0.559090 0.064647 0.079175
0.541230 0.107655 0.049629
0.515996 0.078090 0.043907
0.552015 0.098430 0.036745
0.588994 0.006930 0.070947
0.529860 0.066319 0.072679
0.530738 0.096876 0.061823
0.526611 -0.047096 0.020639
0.507684 0.005356 0.033469
0.557479 -0.064154 0.023743
0.541538 -0.026724 0.009488
0.593423 0.029423 0.036236
0.536825 -0.052933 0.068341
0.548474 -0.038149 0.009430
0.518450 0.029281 0.071095
0.576611 -0.017000 0.015817
0.543624 0.037944 0.084605
0.579330 0.056675 0.033057
0.508012 -0.032736 0.046944
0.530307 0.064317 0.027898
0.596781 0.001182 0.046264
0.531528 -0.012009 0.082678
0.576903 0.048479 0.076638
0.562798 -0.025573 0.083032
0.545685 -0.053163 0.070678
0.558046 -0.053104 0.070183
0.575546 0.015950 0.082512
0.551373 0.024644 0.087739
0.561742 -0.065769 0.056771
0.563706 0.030769 0.086092
0.535883 0.029259 0.018988
0.515000 0.046138 0.036966
0.588824 -0.023207 0.030109
0.563894 -0.020980 0.009922
0.578841 0.032908 0.024158
0.505891 0.004697 0.057334
0.537448 0.034830 0.019823
0.565221 -0.050538 0.016255
0.514595 0.028342 0.030722
0.557615 0.074504 0.029343
0.505766 0.018368 0.051419
0.528665 -0.026726 0.078201
0.581687 0.070497 0.046600
0.539065 -0.053851 0.068579
0.578157 -0.055951 0.044872
0.589707 0.055782 0.046889
0.556434 -0.058923 0.018967
0.594588 0.028336 0.037668
0.589746 -0.023001 0.059402
0.521606 -0.052981 0.029991
0.515168 0.044489 0.062585
0.545136 -0.067345 0.058424
0.588417 -0.024776 0.060911
0.547580 -0.032575 0.081574
0.561127 0.001872 0.011539
0.590680 0.020106 0.068260
0.539789 -0.064771 0.025570
0.577051 -0.044668 0.021739
0.578933 0.035132 0.024790
0.533796 -0.042377 0.073623
0.586926 0.047379 0.035724
0.539847 0.080815 0.072928
0.512709 0.041858 0.039239
0.598233 0.022402 0.049697
0.505689 0.001683 0.056948
0.596050 0.037904 0.047010
0.528915 -0.007063 0.081766
0.576989 -0.014751 0.016064
0.514001 0.046699 0.039149
0.595406 0.001493 0.058269
0.545781 0.054352 0.023021
0.581010 0.025079 0.023801
0.575996 0.039800 0.079587
0.592997 -0.014225 0.034731
0.528553 0.067264 0.028886
0.529178 0.105572 0.039106
0.517354 0.017669 0.072273
0.515893 0.064939 0.041465
0.580943 -0.039403 0.062123
0.551281 -0.017196 0.086772
0.571747 -0.062976 0.036094
0.543578 -0.072618 0.039743
0.546834 0.093017 0.067416
0.569873 0.006869 0.085716
0.568891 -0.039417 0.013675
0.549305 0.077819 0.075181
0.596702 0.019839 0.057367
0.540804 -0.070214 0.033238
0.547235 0.050466 0.022100
0.519426 0.077443 0.059465
0.563835 -0.064798 0.056370
0.518082 0.065375 0.060899
0.594164 0.029995 0.037550
0.592333 -0.003337 0.030574
0.575259 -0.033566 0.072827
0.598161 0.015913 0.048499
0.571838 -0.020817 0.080553
0.527962 0.079249 0.067901
0.536372 -0.019216 0.010905
0.597975 0.026937 0.048187
0.517129 0.074016 0.056081
0.576865 0.035560 0.023648
0.541107 -0.062691 0.062032
0.546631 -0.043409 0.076431
0.514898 -0.037079 0.027577
0.528975 -0.031915 0.014432
0.523017 0.040649 0.027357
0.595844 -0.000984 0.055587
0.544097 -0.072776 0.040125
0.544187 0.041742 0.084094
0.545399 -0.029954 0.008871
0.520947 -0.057425 0.042088
0.559503 -0.014481 0.009337
0.587508 0.023287 0.028350
0.524035 0.061070 0.069444
0.526465 -0.052098 0.062082
0.512847 0.033160 0.034603
0.504937 0.001942 0.054338
0.525605 0.061695 0.070668
0.556832 -0.005593 0.088204
0.534411 0.026420 0.018817
0.596843 0.025493 0.056385
0.575160 -0.051308 0.024146
0.559110 0.004995 0.088675
0.574034 0.009351 0.083634
0.534228 -0.064402 0.029203
0.531127 -0.057624 0.061072
0.573268 0.085606 0.057463
0.548820 -0.053099 0.014779
0.558045 0.086410 0.033706
0.510842 0.039178 0.042840
0.505090 -0.017833 0.050677
0.587227 0.059139 0.044704
0.597056 0.015534 0.056053
0.576809 0.019989 0.020183
0.560833 0.002079 0.011529
0.588054 0.058451 0.057635
0.563299 0.050203 0.082685
0.552825 0.022191 0.015182
0.538379 -0.026031 0.082220
0.569433 0.034910 0.083878
0.564742 -0.068142 0.035341
0.578341 0.039098 0.025485
0.579654 0.033673 0.024869
0.577535 0.052149 0.074800
0.577424 -0.053566 0.052912
0.530014 0.042272 0.024156
0.565925 0.072595 0.031696
0.534184 0.007397 0.014898
0.583784 0.006186 0.022224
0.504212 0.006189 0.048645
0.528280 -0.056642 0.059629
0.575514 0.060367 0.031876
0.506599 -0.028795 0.044618
0.556649 -0.030836 0.082589
0.538646 0.015716 0.015329
0.592540 0.039443 0.061663
0.587063 0.030972 0.071298
0.518378 0.043909 0.067572
0.595332 -0.011923 0.048389
0.571741 0.077828 0.066715
0.546956 0.030398 0.086517
0.543638 -0.042232 0.011188
0.592542 -0.010859 0.032255
0.519874 0.099390 0.044795
0.505947 -0.012772 0.035790
0.583257 -0.040981 0.056277
0.588061 -0.031573 0.054803
0.529271 -0.015608 0.081112
0.562952 0.019313 0.015016
0.581164 0.061358 0.037632
0.558314 0.021080 0.088048
0.533784 0.061930 0.075981
0.553120 0.025864 0.087677
0.590589 -0.027876 0.049804
0.531723 -0.043590 0.071822
0.597947 0.027302 0.048741
0.560341 0.007314 0.088539
0.511028 0.012430 0.030241
0.550754 0.045675 0.020960
0.579075 0.047577 0.028757
0.567247 -0.028634 0.011316
0.562794 0.097762 0.053337
0.513002 -0.020074 0.025258
0.598183 0.021442 0.046469
0.572451 0.087517 0.054555
0.528010 -0.058732 0.057015
0.521793 0.100137 0.051261
0.582446 0.041049 0.073939
0.533287 0.071892 0.027911
0.554259 -0.036023 0.080479
0.514144 0.059706 0.050341
0.589843 0.043856 0.037447
0.546385 -0.053340 0.070648
0.518515 -0.035314 0.065657
0.506087 0.020271 0.043617
0.511160 0.023754 0.063532
0.583110 0.049017 0.070551
0.597596 0.010368 0.051219
0.521445 -0.015172 0.017811
0.533102 -0.040366 0.074410
0.573311 -0.018922 0.013870
0.566839 0.087552 0.041830
0.555464 -0.031276 0.082501
0.517479 -0.027461 0.021596
0.589870 0.045179 0.038208
0.577810 0.034934 0.079242
0.521019 0.061016 0.032940
0.550521 -0.063633 0.062775
0.579402 0.052968 0.031277
0.533152 0.076470 0.071893
0.596024 0.038462 0.052649
0.597865 0.015499 0.044541
0.543142 -0.041429 0.011092
0.522560 0.015917 0.021693
0.560128 -0.050299 0.014323
0.514460 -0.045074 0.051717
0.582414 -0.038022 0.025911
0.571009 0.059220 0.028526
0.519430 0.048120 0.067761
0.516627 0.084040 0.042202
0.597080 0.004778 0.046236
0.554784 -0.071050 0.052504
0.536907 0.093247 0.029709
0.549204 0.014981 0.088433
0.516243 0.046641 0.035234
0.525116 -0.040086 0.069249
0.566773 -0.049426 0.016403
0.523945 0.012102 0.020157
0.583857 -0.028525 0.024073
0.586275 0.058979 0.042700
0.571911 0.068235 0.072188
0.566850 0.046479 0.022756
0.530130 0.071634 0.028753
0.511932 -0.042749 0.045550
0.575401 0.056467 0.074868
0.536773 0.071395 0.074971
0.540668 -0.065022 0.025434
0.574577 -0.055853 0.027947
0.583365 0.068382 0.047786
0.597928 0.023497 0.045100
0.586569 -0.019233 0.067647
0.545489 0.099190 0.033699
0.510773 -0.031348 0.057224
0.593414 0.002422 0.063582
0.529074 0.085513 0.030123
0.594548 0.024106 0.036374
0.517585 -0.051512 0.050008
0.572630 0.047524 0.079816
0.511600 -0.027713 0.060912
0.572089 0.058282 0.076547
0.512875 -0.004172 0.025510
0.554385 0.090090 0.067935
0.598221 0.021513 0.050216
0.569857 -0.034806 0.013223
0.540249 0.086933 0.029186
0.535240 0.107612 0.048808
0.549020 0.104952 0.054644
0.590293 -0.021414 0.032243
0.508363 -0.031512 0.037690
0.521808 -0.056942 0.036016
0.571156 -0.064272 0.040942
0.550422 -0.026128 0.084395
0.519828 -0.006828 0.075557
0.511461 -0.034874 0.055738
0.545843 0.034125 0.018182
0.515986 -0.023849 0.068433
0.521835 -0.027699 0.018111
0.504321 -0.012383 0.048749
0.565379 0.021517 0.086626
0.546226 0.013175 0.088092
0.543179 0.027003 0.086111
0.549996 -0.067757 0.058524
0.560911 0.001506 0.011453
0.516149 -0.004518 0.072403
0.568479 0.010523 0.014772
0.516320 0.082819 0.043307
0.575695 -0.021371 0.015332
0.522154 0.046934 0.070902
0.572858 0.072255 0.036425
0.504798 -0.017173 0.040907
0.518233 -0.008431 0.074078
0.562114 0.026569 0.016561
0.505988 -0.022556 0.038393
0.545548 -0.067586 0.058232
0.536769 -0.068336 0.033473
0.570095 0.087359 0.046155
0.556170 -0.014952 0.086900
0.541844 -0.064730 0.060257
0.596421 0.018218 0.058153
0.583129 -0.029916 0.066237
0.517785 0.077824 0.038526
0.582206 -0.038068 0.025574
0.525704 0.099452 0.034524
0.517059 0.065212 0.058974
0.577670 0.079129 0.050143
0.511640 -0.004120 0.067524
0.586179 -0.039693 0.047442
0.527118 0.105956 0.044658
0.530932 -0.001207 0.083029
0.597947 0.017384 0.052218
0.523576 -0.044161 0.021581
0.519011 0.075714 0.036407
0.569406 -0.021980 0.011957
0.589399 0.027804 0.031098
0.550715 0.104399 0.054635
0.574066 0.083799 0.048816
0.591640 -0.021781 0.055131
0.570154 -0.001264 0.013692
0.587110 0.010259 0.073211
0.541372 -0.065658 0.025834
0.527525 0.085997 0.065186
0.578403 0.062508 0.069164
0.562029 0.053184 0.023869
0.511512 -0.041893 0.045026
0.516359 -0.024765 0.022252
0.561828 -0.020681 0.009385
0.518147 0.039752 0.068320
0.512998 -0.035317 0.058270
0.511844 -0.011649 0.066873
0.573460 -0.057378 0.054816
0.548984 -0.020557 0.008730
0.594410 -0.005283 0.035403
0.566191 0.010609 0.014057
0.539254 0.049743 0.081049
0.596763 0.002532 0.044454
0.550238 0.082034 0.073326
0.558525 0.096228 0.060640
0.552296 0.052027 0.083163
0.515170 -0.013199 0.070486
0.509320 -0.025258 0.031560
0.517563 -0.028226 0.021655
0.579962 0.038574 0.076824
0.510044 0.038111 0.047501
0.583481 0.030240 0.026695
0.595172 0.004260 0.036359
0.549345 -0.007973 0.010028
0.566773 -0.056781 0.062682
0.516478 0.004316 0.023449
0.537836 0.102756 0.059493
0.512535 0.005125 0.027101
0.523309 0.101625 0.051716
0.548339 0.004137 0.011853
0.526289 -0.035832 0.072639
0.520996 0.017986 0.075280
0.591079 0.039489 0.064000
0.536565 0.098483 0.031174
0.574137 -0.038803 0.070662
0.533574 0.107610 0.047797
0.588096 -0.022386 0.063283
0.541908 0.107898 0.047368
0.572832 -0.026315 0.013857
0.578520 -0.024876 0.074249
0.534421 -0.011924 0.083944
0.505724 -0.014344 0.036575
0.561685 0.020521 0.087613
0.583864 -0.045559 0.041383
0.555270 0.083810 0.031567
0.510869 0.027856 0.061351
0.571118 -0.063865 0.037403
0.530140 -0.056853 0.061017
0.559476 0.058930 0.080962
0.552389 0.098298 0.061531
0.520681 -0.027825 0.071689
0.527694 0.076931 0.068418
0.588286 -0.034020 0.040101
0.523772 -0.060210 0.044460
0.596639 0.009985 0.056431
0.513900 0.023975 0.067362
0.508910 0.008822 0.032265
0.563801 -0.056804 0.064679
0.585772 0.034582 0.029707
0.539697 -0.069548 0.051716
0.561337 0.096851 0.057865
0.593641 0.023621 0.034910
0.528026 0.074662 0.069292
0.585207 0.062858 0.044713
0.517659 -0.001483 0.073863
0.573081 0.041766 0.080944
0.514991 0.026844 0.029858
0.523576 0.040924 0.027078
0.597795 0.011597 0.046964
0.508862 -0.031274 0.052869
0.597286 0.019914 0.055534
0.575246 0.050014 0.027193
0.544835 0.040206 0.084519
0.503895 -0.003327 0.046406
0.508794 -0.019244 0.060134
0.536487 -0.064400 0.057641
0.521471 0.088067 0.034647
0.519971 0.072229 0.061860
0.514667 0.000653 0.024387
0.522579 0.098349 0.054456
0.508205 -0.003213 0.062475
0.554711 0.102440 0.055146
0.526065 0.040521 0.025592
0.591425 0.017992 0.067398
0.537604 0.001695 0.012911
0.564097 -0.040292 0.011880
0.507490 -0.024735 0.035108
0.596043 -0.001927 0.054078
0.576502 0.078403 0.046115
0.559319 0.071760 0.028915
0.527415 -0.010310 0.080671
0.589746 0.036025 0.066918
0.556248 0.083855 0.071401
0.511904 -0.034139 0.057215
0.509752 0.033101 0.054982
0.509501 -0.014069 0.029319
0.546254 0.107110 0.046717
0.581470 0.061927 0.065934
0.553465 0.005582 0.011931
0.541179 0.090771 0.029804
0.571908 0.072777 0.069741
0.514227 -0.038038 0.058242
0.588713 -0.001107 0.070639
0.527472 -0.010518 0.080687
0.519049 0.045795 0.067896
0.524395 0.029638 0.023845
0.515891 0.033165 0.067304
0.579536 -0.052831 0.035261
0.508240 -0.033615 0.045802
0.575812 0.075307 0.064138
0.505781 0.000777 0.036581
0.583396 0.069907 0.052936
0.508665 -0.024878 0.057290
0.539825 0.013045 0.014535
0.505670 0.019503 0.046785
0.562600 -0.052948 0.016553
0.567605 -0.031463 0.011732
0.569511 -0.013211 0.083648
0.529717 -0.015674 0.013448
0.585899 0.033469 0.029491
0.525596 -0.047215 0.065007
0.591902 -0.003813 0.065158
0.586373 -0.037528 0.051603
0.529077 -0.025703 0.078763
0.517295 0.056027 0.036616
0.583472 -0.045546 0.047859
0.595782 0.013437 0.059564
0.513377 0.005564 0.069623
0.541718 0.066067 0.078020
0.532646 0.000563 0.083880
0.557782 0.012636 0.088730
0.531892 -0.065194 0.033979
0.560620 0.009152 0.088482
0.527308 -0.015707 0.014536
0.547488 -0.020311 0.008850
0.540785 -0.052605 0.016150
0.540486 0.014526 0.014702
0.596144 -0.001800 0.041693
0.528557 -0.047375 0.067297
0.530276 0.017247 0.081674
0.517430 -0.023126 0.021067
0.557647 -0.062109 0.021852
0.552226 0.084488 0.030818
0.592630 -0.006244 0.031433
0.531760 -0.020330 0.081446
0.505940 0.016953 0.053576
0.553485 0.102669 0.044208
0.517923 0.022924 0.026290
0.572885 0.078825 0.064916
0.533447 0.027742 0.082050
0.583026 0.007384 0.021863
0.551352 0.035582 0.086284
0.566553 -0.035116 0.078071
0.594161 -0.017039 0.048911
0.548965 -0.003754 0.088285
0.598012 0.026157 0.050355
0.580240 -0.007717 0.078233
0.587785 -0.022498 0.027881
0.519195 0.026740 0.072330
0.594265 0.007956 0.034041
0.573505 0.084948 0.058069
0.554289 -0.072010 0.050289
0.539558 0.088076 0.069782
0.569845 -0.046075 0.016480
0.524687 -0.040687 0.068521
0.514462 -0.023187 0.066932
0.576714 0.051950 0.028848
0.514857 0.019530 0.069509
0.515247 -0.001039 0.071645
0.536658 0.097267 0.063785
0.508239 0.019804 0.059360
0.540780 -0.053977 0.016920
0.557412 0.058543 0.081340
0.551930 0.105173 0.049799
0.535624 -0.060788 0.023984
0.511025 -0.032932 0.031877
0.559391 0.074922 0.075084
0.515965 -0.046955 0.033220
0.517034 0.019352 0.071716
0.558391 0.091962 0.064848
0.596563 -0.001896 0.048531
0.582344 0.052431 0.069917
0.581534 -0.020429 0.073251
0.537562 0.012629 0.014968
0.575370 -0.026589 0.015444
0.546686 0.106590 0.052015
0.515138 -0.014329 0.022771
0.549755 -0.055507 0.016165
0.578778 0.048582 0.075026
0.558924 0.025941 0.016118
0.550198 0.028570 0.016653
0.541199 0.067574 0.077465
0.516370 -0.043842 0.056889
0.511847 0.041809 0.055232
0.512269 -0.012927 0.067171
0.575017 -0.060286 0.043164
0.559293 0.040782 0.020048
0.547218 -0.018914 0.008976
0.576531 0.041974 0.025256
0.589864 0.043267 0.064404
0.505421 0.007329 0.055415
0.505607 0.012885 0.054355
0.574394 0.078910 0.063161
0.552458 0.021152 0.014967
0.522493 0.070817 0.065398
0.540156 0.063269 0.078297
0.517918 0.090071 0.040036
0.582734 0.071137 0.052737
0.574220 0.013350 0.017653
0.590750 0.025942 0.032010
0.567171 -0.057683 0.061533
0.559821 -0.062337 0.061667
0.575783 -0.026003 0.015671
0.528961 0.104745 0.037677
0.587529 0.042089 0.067998
0.596234 0.001545 0.041036
0.527847 0.035667 0.077493
0.562495 -0.056848 0.019137
0.556879 0.091646 0.035566
0.519574 -0.054199 0.035783
0.548142 0.010166 0.088522
0.512568 -0.041837 0.050826
0.513138 -0.028697 0.026758
0.551825 0.045466 0.020938
0.542584 -0.062764 0.062476
0.542527 -0.070121 0.052962
0.555458 0.055869 0.023846
0.595407 0.015221 0.060513
0.537574 -0.040100 0.076294
0.537619 -0.054465 0.018349
0.577030 -0.056796 0.035303
0.596104 0.007418 0.057658
0.584046 0.009458 0.022941
0.592850 0.000285 0.031350
0.577121 -0.015230 0.078842
0.585126 -0.041558 0.037646
0.550243 -0.063455 0.062949
0.589748 0.009147 0.027798
0.579187 -0.004806 0.079544
0.579534 0.028260 0.078870
0.555638 -0.062293 0.021574
0.578669 0.031449 0.023699
0.547751 0.006866 0.012359
0.559451 -0.018210 0.009052
0.555912 0.092461 0.065535
0.596405 -0.002012 0.044002
0.576280 -0.023961 0.076526
0.582254 -0.039975 0.026872
0.547657 0.016848 0.088096
0.514895 -0.034072 0.061977
0.588070 0.006674 0.025795
0.538001 0.021059 0.016603
0.567217 0.057732 0.026447
0.543601 0.083090 0.028944
0.544089 0.041230 0.020081
0.510043 -0.034392 0.035189
0.515010 -0.037510 0.059828
0.564754 -0.040437 0.076132
0.531020 -0.062667 0.054801
0.528405 0.059493 0.028069
0.504126 0.005363 0.045509
0.535099 -0.039547 0.013212
0.571092 -0.033556 0.076123
0.580958 -0.028466 0.069925
0.534535 0.106551 0.052411
0.518054 -0.052953 0.037707
0.504399 0.009629 0.047000
0.561435 -0.042376 0.076295
0.530015 -0.016593 0.081343
