ply
format ascii 1.0
element vertex 1024
property float x
property float y
property float z
end_header
0.517067 -0.004641 0.026345
0.512455 0.077126 0.049347
0.512182 0.081675 0.051800
0.578764 -0.023572 -0.019484
0.575297 0.077711 0.067971
0.526182 0.044187 0.009901
0.571399 -0.015343 -0.022286
0.583824 0.001022 0.061763
0.530214 0.093177 0.037487
0.548374 0.055403 0.012890
0.601325 -0.006256 0.030229
0.583943 -0.045494 0.011096
0.574324 0.062586 0.078222
0.593461 0.051387 0.055368
0.603290 0.010742 0.029292
0.562118 0.054768 0.015232
0.524014 0.060840 0.022553
0.587761 -0.019840 -0.014290
0.528314 -0.025243 -0.001690
0.594450 0.014098 0.005449
0.593339 0.048356 0.061246
0.541454 0.110755 0.060826
0.558409 -0.041046 -0.016255
0.521539 0.070095 0.072952
0.515375 0.102024 0.049384
0.516942 0.017677 0.045542
0.534149 -0.035335 0.008958
0.545131 -0.027380 0.044191
0.536098 0.014457 0.067841
0.537329 -0.036691 0.018286
0.558118 0.062412 0.020481
0.592593 0.026615 0.013322
0.570130 0.079147 0.076364
0.544424 0.077596 0.084847
0.558939 -0.019673 0.056123
0.556573 0.022595 0.077712
0.565014 0.062775 0.023928
0.595284 0.003745 -0.000120
0.541463 -0.036176 0.027996
0.569709 0.084996 0.067726
0.596158 -0.029485 0.004139
0.580268 -0.026044 0.044455
0.537564 -0.008359 0.056215
0.598978 -0.019345 0.004306
0.584936 -0.021506 -0.016306
0.599683 0.006982 0.010688
0.579180 0.070862 0.069925
0.543220 -0.001358 0.064142
0.564970 -0.017239 -0.023168
0.513999 0.096996 0.048689
0.515986 0.097440 0.045830
0.601516 -0.008446 0.024020
0.567177 0.001248 0.068580
0.514192 0.032791 0.046185
0.600819 -0.012022 0.011072
0.547621 0.014120 0.073249
0.559921 -0.047638 0.020550
0.533332 -0.018899 -0.013216
0.539789 -0.022526 0.045825
0.514415 0.007332 0.011329
0.579093 -0.005021 0.061389
0.582405 0.041606 0.073981
0.582237 0.068273 0.066181
0.553528 -0.003253 -0.021142
0.590259 -0.027983 0.031775
0.578603 -0.016176 -0.020100
0.568783 -0.032313 -0.020793
0.591348 -0.028387 -0.008364
0.595100 -0.029686 -0.000144
0.591935 -0.012629 0.045357
0.546529 0.099993 0.078908
0.591929 -0.010003 0.047522
0.600933 0.026815 0.044188
0.566210 0.043901 0.007688
0.562770 0.092977 0.064274
0.540047 -0.040534 -0.000133
0.517349 0.054202 0.025316
0.527657 0.058832 0.076147
0.584239 -0.035282 -0.012534
0.599543 0.006611 0.045432
0.538704 0.055101 0.081873
0.582769 0.026876 0.002332
0.530975 0.054402 0.077578
0.576421 0.076982 0.064753
0.536672 0.101683 0.043386
0.583409 0.054072 0.029137
0.554679 0.088649 0.042984
0.567215 -0.012646 -0.022714
0.596671 0.044263 0.051377
0.547135 0.049515 0.083499
0.573825 0.075553 0.074284
0.594704 0.006286 0.000522
0.548667 -0.026467 0.047585
0.601067 0.027118 0.036246
0.545466 -0.040710 -0.008760
0.560474 0.064020 0.084094
0.545805 -0.041330 0.022741
0.602941 0.013820 0.033845
0.580748 -0.008911 -0.018392
0.570556 0.075341 0.040803
0.564338 -0.049268 -0.008613
0.533043 -0.005393 0.054406
0.531978 -0.010162 -0.013543
0.514349 0.004782 0.012919
0.524806 0.034222 0.004690
0.540145 -0.036919 0.024342
0.591102 -0.007651 0.050288
0.599207 0.022425 0.051153
0.513567 0.054415 0.052652
0.527406 -0.016085 0.038489
0.538973 -0.028336 0.037871
0.598237 -0.019199 0.024400
0.567018 0.003739 -0.018672
0.565387 -0.045295 0.026014
0.545383 0.041450 0.002774
0.576195 0.053341 0.021063
0.594704 -0.015555 -0.006927
0.529587 0.021727 -0.004653
0.524509 -0.003087 -0.007261
0.528128 -0.012336 0.043344
0.546139 -0.019763 0.052936
0.518251 -0.005626 0.004107
0.524404 0.027810 0.062191
0.543269 -0.008736 0.059590
0.557321 -0.005392 0.065847
0.512858 0.053530 0.048679
0.559364 0.044332 0.005851
0.584566 0.065006 0.065076
0.531364 -0.024440 0.034047
0.512487 0.047927 0.043466
0.557912 -0.031694 -0.020979
0.516968 0.023410 0.007308
0.524568 0.034342 0.065130
0.584833 0.055970 0.033669
0.548037 -0.027704 0.045727
0.598745 -0.005056 0.002172
0.579782 -0.000574 -0.016474
0.520465 0.042089 0.062623
0.552537 -0.035195 0.038375
0.579058 0.064705 0.036586
0.576859 -0.019186 -0.020725
0.554394 -0.047926 -0.005430
0.600974 0.014634 0.043666
0.547171 0.068532 0.022867
0.562838 -0.009531 -0.022650
0.544091 0.088496 0.037148
0.545169 0.097060 0.080427
0.581356 0.069723 0.066000
0.531769 0.113291 0.055082
0.591692 0.027840 0.013154
0.560992 -0.051543 -0.002058
0.572524 -0.050275 0.013484
0.565250 -0.051106 -0.005024
0.539999 -0.012405 -0.018471
0.542178 -0.042538 0.001343
0.578890 0.011310 0.068682
0.571050 0.047185 0.012396
0.531384 0.111283 0.067944
0.536187 0.004725 0.063214
0.515099 0.071644 0.063301
0.513611 0.016243 0.012843
0.530903 -0.013948 0.045414
0.551941 -0.045425 0.020146
0.534385 -0.003284 -0.014944
0.546807 0.082145 0.084469
0.578984 0.054586 0.024657
0.538278 -0.010127 0.055520
0.598548 -0.023478 0.011766
0.558289 0.069270 0.084486
0.521502 -0.015897 0.005363
0.522621 -0.004534 -0.004897
0.583450 -0.030788 0.036585
0.532874 0.086658 0.033932
0.587160 -0.001195 -0.011793
0.545555 -0.043000 0.017935
0.515946 -0.001273 0.026971
0.538923 0.040238 0.078589
0.540596 -0.041550 0.006915
0.520450 0.032772 0.058697
0.575495 -0.048891 0.014801
0.570848 0.082195 0.053230
0.522565 -0.017185 0.023608
0.545305 -0.041515 0.021571
0.603121 0.002044 0.026354
0.557316 0.084789 0.040914
0.512854 0.031955 0.041614
0.551338 0.103535 0.058673
0.598394 -0.009849 0.000058
0.511441 0.022278 0.030296
0.530275 0.102644 0.042470
0.564747 -0.043280 0.029717
0.588372 0.055507 0.040247
0.599258 0.023442 0.022677
0.518555 0.028851 0.053850
0.536885 0.000341 -0.015742
0.528898 -0.021559 -0.006657
0.513706 0.004878 0.024017
0.578506 0.059901 0.075939
0.567341 0.034911 0.001006
0.574324 0.057322 0.023773
0.579773 0.020809 -0.004208
0.580172 -0.010646 -0.018962
0.575452 -0.021237 0.051783
0.576773 0.002482 -0.016574
0.567885 -0.005610 0.065016
0.556704 -0.042612 -0.014261
0.551530 0.058394 0.085136
0.588837 0.004074 0.059302
0.572623 0.037965 0.078482
0.548348 -0.031150 0.041446
0.550418 -0.013397 0.059393
0.529003 0.016515 -0.006527
0.546031 0.100445 0.078736
0.563934 0.007113 -0.017641
0.552987 -0.049516 0.005692
0.593687 -0.034911 0.010302
0.560954 0.061720 0.083997
0.557436 0.011244 0.073605
0.518881 0.070115 0.032690
0.541690 0.047480 0.007380
0.562368 0.002619 -0.019612
0.518796 0.103814 0.046677
0.570168 -0.011492 -0.022195
0.519982 -0.001220 0.038894
0.531079 0.094324 0.079552
0.531465 0.111027 0.068427
0.584966 0.011281 -0.007185
0.521658 0.015820 -0.001009
0.568093 0.062582 0.025334
0.580260 -0.023982 0.046489
0.514240 0.059882 0.035919
0.559532 -0.023723 0.052965
0.541894 0.030483 0.077023
0.552299 0.003995 -0.018952
0.565003 0.010904 0.072909
0.589000 0.037557 0.068702
0.597905 -0.021910 0.021335
0.573317 0.031763 0.000913
0.599279 0.034002 0.038191
0.517659 0.081625 0.038493
0.595572 0.040075 0.034829
0.569309 0.060344 0.023782
0.602527 0.018413 0.033102
0.554805 0.004335 0.070605
0.603068 0.004995 0.023303
0.520737 0.081648 0.073916
0.559238 -0.043845 -0.014128
0.516737 0.033747 0.052588
0.557382 0.014744 -0.014388
0.547419 0.022309 -0.009871
0.541551 0.109875 0.067644
0.547939 0.067431 0.022118
0.522640 0.069937 0.028973
0.532793 0.029313 -0.002249
0.555620 -0.036849 -0.018105
0.573262 0.009784 0.070444
0.579887 -0.038523 0.029969
0.567633 -0.032400 0.044201
0.583153 -0.039961 0.024579
0.534818 -0.008846 -0.015561
0.515761 0.090830 0.067859
0.517066 0.032783 0.011317
0.552927 -0.021769 0.053672
0.578405 0.073307 0.051606
0.557442 0.012151 0.073949
0.524534 -0.022423 0.012035
0.544362 0.001991 0.066555
0.580737 -0.000801 0.062757
0.583076 0.013376 0.067094
0.548381 0.105445 0.069679
0.528263 0.043181 0.008133
0.548150 0.090208 0.082654
0.594726 0.013696 0.056748
0.576827 -0.037367 -0.016381
0.526080 0.024685 0.062945
0.549013 -0.021946 0.052309
0.512458 0.072529 0.049162
0.533758 -0.002581 0.056933
0.530254 0.044680 0.008227
0.591748 0.032027 0.065312
0.576066 0.059686 0.077544
0.553069 0.101194 0.072119
0.535678 -0.036010 0.014585
0.555544 0.003811 -0.019254
0.515696 0.000612 0.009459
0.582042 0.069299 0.064346
0.549675 -0.005187 -0.020934
0.530801 0.045893 0.075228
0.520343 0.005751 -0.001708
0.550046 -0.025818 -0.020804
0.513201 0.096409 0.062114
0.576243 -0.050669 0.006860
0.599766 -0.018642 0.012340
0.557759 0.098009 0.067372
0.587104 0.057948 0.041339
0.580897 0.006482 -0.012670
0.591233 0.005734 -0.004393
0.580451 0.008811 0.066997
0.549803 0.076028 0.029197
0.580176 -0.033117 0.036738
0.532319 -0.010475 0.049951
0.585777 0.050242 0.071631
0.521990 0.016210 -0.001222
0.575175 -0.037926 0.034190
0.546528 -0.037398 -0.013301
0.520440 0.000241 -0.002149
0.533921 0.041639 0.004912
0.527019 0.052650 0.015093
0.565413 -0.028426 0.048658
0.594952 0.048395 0.051547
0.548359 0.085988 0.036823
0.570315 0.064464 0.028511
0.599809 -0.003217 0.039103
0.557457 0.023670 0.078103
0.529204 0.042823 0.007458
0.526533 0.061334 0.075798
0.543052 -0.042731 0.012451
0.582784 -0.044460 0.016646
0.512916 0.063449 0.043024
0.558804 0.036341 0.081721
0.525728 0.060795 0.074960
0.555698 -0.045895 -0.009946
0.580400 -0.046171 -0.005624
0.600438 -0.005528 0.007480
0.530576 -0.028733 0.022133
0.551198 0.039135 0.082127
0.539254 0.029177 -0.004357
0.541991 0.083849 0.033179
0.545864 -0.038330 -0.011949
0.551694 0.100623 0.053494
0.556766 -0.030082 -0.021270
0.582917 0.007401 0.065057
0.591523 0.050112 0.039430
0.576099 0.076237 0.068858
0.537405 0.052666 0.080853
0.551541 0.038974 0.000857
0.572221 -0.008315 0.062335
0.563635 -0.051662 -0.003187
0.516044 0.002714 0.032612
0.595215 0.010513 0.054844
0.598619 -0.014699 0.029760
0.599413 0.011598 0.047354
0.541977 -0.033284 0.033504
0.566254 -0.038455 0.037042
0.569566 -0.002329 -0.020375
0.542670 0.100353 0.079093
0.513887 0.007871 0.013341
0.534807 0.112610 0.064518
0.568179 0.038945 0.080280
0.514855 0.057609 0.032838
0.524927 0.046958 0.070170
0.593603 0.002374 0.053458
0.521667 0.017909 -0.000321
0.588144 0.006516 0.060952
0.575730 -0.041690 0.028329
0.515105 0.036117 0.016357
0.564757 -0.051710 -0.003313
0.602460 0.009603 0.021303
0.518066 0.028186 0.007757
0.562706 -0.045832 -0.013067
0.595918 0.015865 0.009224
0.589049 -0.025257 0.036595
0.550314 -0.009408 0.062089
0.518511 0.104764 0.067147
0.575680 0.078033 0.058911
0.560648 -0.040658 0.033642
0.511567 0.032922 0.034718
0.515163 0.085430 0.043067
0.557425 0.020762 0.077085
0.549599 0.091807 0.042624
0.579867 -0.033920 0.036017
0.520935 0.059196 0.069261
0.593360 0.037806 0.026655
0.516536 0.002148 0.033537
0.514606 0.004462 0.029277
0.545479 -0.031916 -0.016592
0.563277 0.090286 0.054618
0.515516 0.069867 0.037577
0.576088 0.056780 0.024496
0.597844 0.002001 0.003503
0.590754 0.030949 0.014794
0.587504 -0.001362 -0.011570
0.518315 0.057857 0.026414
0.571062 0.070071 0.078997
0.560928 0.092844 0.055271
0.538938 -0.039169 0.013920
0.532168 0.113564 0.057133
0.602331 -0.000089 0.017874
0.553008 0.001077 0.068809
0.513280 0.099947 0.060591
0.546502 0.064626 0.085120
0.514083 0.082769 0.044509
0.512143 0.031623 0.021997
0.556934 0.000971 -0.020246
0.562738 -0.028283 0.049042
0.527270 -0.022604 0.028115
0.511284 0.030924 0.028465
0.599513 -0.013566 0.003714
0.582856 0.017212 -0.004819
0.599376 0.035981 0.047130
0.597423 0.002519 0.002916
0.593424 -0.006572 0.048206
0.584446 0.017457 -0.003440
0.601680 0.011098 0.019086
0.557292 -0.042095 -0.014982
0.580490 -0.017530 -0.019218
0.549335 0.097473 0.047687
0.548958 0.029903 0.079156
0.536973 0.099787 0.042340
0.528119 -0.000287 0.052502
0.526444 0.052347 0.073371
0.551769 0.097210 0.049497
0.574060 -0.051603 0.003527
0.513317 0.051179 0.033964
0.581818 0.038484 0.011478
0.515342 0.054376 0.029456
0.552472 -0.034072 0.039918
0.539921 0.016623 0.071066
0.525412 0.094834 0.076852
0.513984 0.090032 0.046362
0.580893 0.049085 0.020804
0.512098 0.091407 0.058238
0.547707 0.062763 0.018487
0.552458 0.019829 -0.011654
0.600589 0.024292 0.046602
0.541628 -0.039298 0.021040
0.563515 0.039516 0.081683
0.570250 0.059655 0.023620
0.547892 0.001087 -0.019198
0.521053 0.024431 0.055987
0.581775 0.022889 -0.001466
0.602924 0.008166 0.034576
0.535888 0.062850 0.081914
0.512721 0.095333 0.051340
0.533473 0.096189 0.079702
0.594728 -0.006307 0.046574
0.601715 0.000754 0.036248
0.540402 0.033568 0.077338
0.538637 -0.030499 0.034430
0.576240 -0.034277 0.038196
0.538202 0.000928 0.062519
0.535724 0.067624 0.082439
0.544219 0.058032 0.084089
0.531595 0.109903 0.070245
0.514876 0.086198 0.043748
0.547520 0.107015 0.059976
0.583579 0.009134 0.065303
0.519293 0.062857 0.068127
0.519255 0.095075 0.071913
0.552115 -0.016586 -0.022389
0.522063 0.025385 0.002294
0.582115 -0.033818 -0.014868
0.566707 0.006352 -0.017580
0.596495 0.044400 0.047419
0.545556 -0.042752 0.018675
0.574880 -0.004028 -0.019605
0.515011 0.030388 0.047342
0.595334 0.011762 0.005135
0.532127 0.031890 0.071757
0.580435 0.070559 0.050449
0.523443 -0.014777 -0.001926
0.535858 0.080513 0.030398
0.600379 0.014555 0.045522
0.529315 -0.012046 0.045165
0.564033 0.044275 0.082270
0.560122 -0.024943 0.051986
0.552938 -0.044125 0.023930
0.564509 -0.044066 0.028308
0.565695 0.012456 0.073371
0.540208 0.018420 0.071924
0.574609 -0.049702 0.013469
0.551230 0.024443 0.077804
0.549536 0.052724 0.010898
0.521316 0.060462 0.024610
0.602497 -0.000247 0.019149
0.586297 0.010956 -0.006268
0.586780 0.053035 0.033217
0.512066 0.014448 0.021099
0.549829 0.057352 0.014459
0.589818 -0.018434 -0.012543
0.525883 0.047158 0.012039
0.558978 0.088595 0.046264
0.511944 0.029331 0.021717
0.530517 -0.023303 0.034364
0.575697 0.077077 0.068200
0.547679 -0.043719 0.019361
0.592457 -0.035967 0.013937
0.585252 0.063566 0.065539
0.582038 -0.027014 -0.017096
0.597230 0.042779 0.048612
0.592951 -0.012811 0.043848
0.545091 -0.025866 -0.018969
0.512660 0.047838 0.045220
0.558944 -0.051558 0.007798
0.591464 -0.015043 0.043863
0.547672 -0.030356 0.042065
0.579665 0.030876 0.003307
0.584063 0.022136 0.069091
0.565241 -0.034868 -0.020422
0.597891 -0.015733 -0.001054
0.586301 0.054762 0.034681
0.539272 -0.035492 0.026179
0.587927 0.060900 0.051800
0.526194 0.075632 0.078081
0.519056 0.055659 0.023868
0.597248 0.032146 0.057563
0.512478 0.011906 0.019475
0.593805 0.047309 0.060807
0.526468 -0.007152 0.045416
0.595250 0.013672 0.006400
0.519536 0.060035 0.026262
0.594815 0.009640 0.055061
0.553389 0.073398 0.028266
0.590110 0.046105 0.030570
0.563485 0.035194 0.080829
0.603334 0.005761 0.028241
0.533437 0.082766 0.031741
0.524519 0.112806 0.056038
0.515364 0.019440 0.043168
0.517663 0.075419 0.036333
0.586384 -0.028613 0.036033
0.546887 -0.018831 0.054056
0.590727 -0.038368 0.001338
0.564926 -0.048159 -0.010420
0.532718 0.088896 0.081176
0.560721 0.002983 0.070141
0.592409 -0.007361 -0.008740
0.534583 0.071794 0.082372
0.593515 0.026529 0.062281
0.564300 -0.043120 -0.015897
0.555653 0.070275 0.026481
0.512634 0.078794 0.057691
0.576532 -0.048689 0.014339
0.512739 0.067327 0.053449
0.596627 0.044332 0.049026
0.602520 0.017382 0.028975
0.576456 -0.027915 0.045083
0.598601 0.026824 0.053901
0.568610 -0.019736 0.055352
0.517248 0.076608 0.068702
0.560286 0.012583 -0.015340
0.596848 0.036889 0.058058
0.512238 0.077218 0.052609
0.584731 0.055678 0.033112
0.553237 -0.048868 0.011127
0.550279 -0.037859 0.033030
0.537316 -0.010385 -0.017079
0.554163 -0.000259 -0.020439
0.532955 0.059561 0.017507
0.596549 0.008568 0.052000
0.565294 -0.048476 -0.009968
0.532244 0.035522 0.073096
0.570983 0.003646 -0.017918
0.540885 -0.035115 -0.011013
0.581456 0.017136 -0.005799
0.594771 0.042403 0.036112
0.515868 0.059635 0.061066
0.538084 -0.039104 0.009839
0.522158 0.049840 0.016541
0.512668 0.013286 0.017129
0.516789 0.059639 0.062939
0.549721 -0.009100 0.062104
0.548674 0.050268 0.009033
0.593125 0.032045 0.063824
0.596313 -0.022726 -0.002493
0.550032 0.000191 0.067681
0.564916 0.006052 0.071031
0.558769 -0.036021 -0.019406
0.543590 -0.043720 0.008550
0.561766 0.086102 0.080102
0.575601 -0.019821 -0.021129
0.556004 0.097411 0.054889
0.516469 0.051712 0.025040
0.517139 -0.002932 0.006106
0.583222 0.067581 0.064141
0.594967 0.023219 0.059577
0.588295 0.043165 0.023884
0.579365 0.031072 0.003270
0.579515 0.061326 0.074888
0.549078 0.043429 0.082738
0.567598 0.047728 0.011396
0.537950 -0.024589 0.041719
0.556662 0.029037 0.079864
0.585324 -0.042574 -0.004089
0.584899 0.058040 0.036643
0.587161 0.053402 0.034430
0.564704 0.048369 0.082485
0.588570 -0.037302 0.021283
0.540295 0.062295 0.018213
0.566106 0.085712 0.050638
0.552770 0.034847 -0.002043
0.596127 0.029732 0.022642
0.513362 0.019597 0.013863
0.541324 -0.042160 0.006658
0.576766 0.074461 0.049504
0.522358 -0.010193 -0.002792
0.555413 -0.029385 0.047108
0.555458 0.042075 0.003419
0.585146 0.042384 0.072216
0.577983 0.030661 0.074636
0.513946 0.045093 0.050350
0.600302 0.001856 0.041389
0.558278 0.075103 0.084010
0.535682 0.024208 0.071552
0.570422 -0.008387 -0.021675
0.603273 0.009876 0.027385
0.514871 0.104925 0.054648
0.522421 0.008083 -0.003833
0.590830 -0.027532 0.031440
0.594340 -0.018502 0.035901
0.528339 -0.014567 0.041534
0.577442 0.045037 0.013989
0.579790 0.072756 0.056851
0.547049 0.014959 0.073403
0.522419 0.057403 0.070586
0.541655 0.019517 0.073042
0.597874 -0.013043 0.034240
0.538182 -0.035766 0.023395
0.596570 0.036978 0.058655
0.550859 0.002317 0.068987
0.525205 0.033101 0.003789
0.560039 0.066397 0.024943
0.583118 0.064241 0.043086
0.590072 0.003401 -0.006937
0.551697 0.099019 0.077597
0.533778 0.005967 -0.012808
0.598492 0.032685 0.054479
0.561748 0.089101 0.078157
0.542320 -0.042901 0.003538
0.514238 0.102754 0.061047
0.571243 0.038664 0.079146
0.537440 0.087277 0.034641
0.554751 -0.033098 0.042328
0.513712 0.066878 0.040880
0.590549 0.056930 0.052918
0.553622 -0.044283 0.024103
0.526908 -0.025410 0.016569
0.514709 0.034431 0.016154
0.511809 0.028823 0.036019
0.571831 0.047301 0.079840
0.597968 0.020659 0.053679
0.543450 0.013475 -0.013727
0.538045 -0.034011 0.027383
0.593273 0.010934 0.001468
0.561067 0.094758 0.065471
0.554418 -0.029722 0.046399
0.540338 0.000832 -0.017123
0.590102 0.057790 0.054097
0.566028 0.030932 0.079262
0.526011 0.075506 0.029651
0.561803 -0.050199 0.014987
0.581700 0.067994 0.047494
0.521050 0.072282 0.072875
0.591700 0.045360 0.065693
0.599792 0.028177 0.050341
0.569875 -0.007614 -0.021619
0.538333 0.039761 0.002573
0.585765 -0.017293 -0.016009
0.529597 -0.028069 -0.000511
0.600343 -0.011653 0.007172
0.573970 0.074960 0.044527
0.514203 0.048784 0.052627
0.515148 0.092285 0.045002
0.600113 0.017801 0.047078
0.570509 -0.052484 0.005104
0.536867 0.105662 0.046217
0.539445 0.009455 0.067729
0.522999 0.061647 0.023859
0.532460 -0.031381 0.020145
0.591026 -0.017523 -0.011370
0.540740 0.036971 0.000282
0.600867 -0.002328 0.010072
0.583077 0.068324 0.062049
0.557970 0.064083 0.084702
0.574130 0.066067 0.032960
0.534269 0.086732 0.034017
0.529090 -0.023253 -0.005645
0.562048 0.052263 0.083477
0.524081 0.066314 0.074755
0.566139 -0.035050 -0.020299
0.595127 -0.028461 -0.001419
0.577150 0.074629 0.068968
0.598425 0.035134 0.054084
0.586524 -0.012949 0.050986
0.542461 0.109134 0.055248
0.522141 -0.018042 0.008216
0.590955 0.008201 0.059072
0.530680 0.098652 0.040394
0.598301 0.039534 0.045803
0.534073 -0.033177 -0.003343
0.559113 0.042106 0.082867
0.521041 -0.016387 0.013069
0.558119 0.053223 0.084329
0.531131 0.020178 -0.006175
0.539951 0.085907 0.083324
0.597189 0.031120 0.057626
0.592752 -0.003029 -0.006864
0.541104 0.100148 0.044502
0.526366 0.110322 0.067240
0.537423 0.105157 0.076300
0.602823 0.000414 0.022213
0.526855 -0.009658 -0.008956
0.543754 -0.032055 -0.015514
0.588665 -0.041632 0.004597
0.548306 -0.025826 0.048120
0.520245 -0.004087 0.036869
0.523842 -0.020582 0.005815
0.558263 0.057288 0.016049
0.521833 -0.016252 0.022560
0.545627 0.002059 -0.018427
0.516276 0.002827 0.006432
0.554005 0.015851 0.075126
0.537095 0.008028 0.065564
0.532863 0.021392 0.068378
0.563457 -0.052055 0.009586
0.579553 0.030587 0.003004
0.517612 -0.000574 0.033780
0.583977 0.037136 0.012339
0.514661 0.090711 0.045301
0.595331 0.008052 0.002601
0.515787 0.046306 0.055795
0.570882 0.083233 0.057087
0.520226 0.001915 -0.001829
0.519542 -0.004860 0.034378
0.575009 0.050913 0.017900
0.523040 -0.001859 -0.005643
0.559429 -0.051698 0.007699
0.560206 -0.041463 -0.016493
0.562571 0.092650 0.070228
0.551008 -0.016949 0.056959
0.554858 -0.049945 0.009112
0.593226 0.024733 0.062164
0.585489 -0.021897 0.044143
0.518471 0.088267 0.039873
0.600276 -0.011545 0.006794
0.523874 0.109346 0.048414
0.512501 0.068034 0.051393
0.569411 0.083378 0.073100
0.515117 0.001982 0.028164
0.596454 -0.022581 0.025774
0.520595 0.110774 0.059999
0.526983 -0.002463 0.049624
0.596862 0.026536 0.057497
0.548531 -0.014302 -0.021584
0.520676 0.087267 0.037731
0.590816 0.009078 -0.002866
0.594849 0.045244 0.040955
0.539075 0.104635 0.076720
0.565839 0.088220 0.072514
0.596023 -0.009888 0.041537
0.587713 0.026963 0.007292
0.580529 0.011179 0.067807
0.566745 -0.035808 -0.019955
0.516770 0.083871 0.069032
0.565908 0.060130 0.082368
0.568260 0.071703 0.034753
0.528756 -0.022247 -0.005893
0.538659 0.002993 -0.015914
0.584536 0.011493 -0.007386
0.514106 0.041029 0.049189
0.524432 -0.022108 0.008324
0.516691 -0.004518 0.024639
0.584824 -0.041496 0.019781
0.572898 0.012107 -0.012828
0.603027 0.013496 0.032982
0.582106 0.037562 0.010900
0.527542 0.044133 0.071930
0.600796 0.016558 0.044565
0.535454 0.076380 0.082911
0.545410 0.094535 0.081376
0.538477 0.045050 0.079637
0.518719 -0.007540 0.028282
0.528946 -0.001378 -0.011118
0.540512 0.000115 -0.017353
0.568310 0.035224 0.079571
0.514248 0.048738 0.028158
0.590574 0.049451 0.036020
0.601927 0.021660 0.037952
0.570840 0.022868 -0.006491
0.575779 -0.044264 0.023961
0.533881 0.028655 -0.003039
0.525725 0.101262 0.075112
0.528828 0.027863 -0.001205
0.515248 0.103870 0.062613
0.567408 0.032995 -0.000438
0.531690 -0.029044 0.025136
0.517612 0.018357 0.047191
0.582964 0.041434 0.073606
0.535229 0.109746 0.049430
0.576991 -0.031670 0.040726
0.525187 0.110789 0.065760
0.589962 -0.013916 0.046676
0.532984 0.111093 0.068733
0.593970 0.004290 -0.001737
0.577628 -0.020763 0.051054
0.531523 -0.012569 0.047363
0.522179 0.006330 -0.003908
0.550399 0.014589 0.074115
0.597362 -0.025190 0.017476
0.554600 0.096047 0.050990
0.511683 0.033470 0.035770
0.589821 -0.039727 0.001817
0.542581 -0.042984 0.008438
0.544821 0.052101 0.083390
0.539115 0.096116 0.080592
0.525623 -0.021326 0.025447
0.517174 0.074300 0.068083
0.600124 -0.014318 0.022815
0.543080 -0.038702 -0.009094
0.595300 0.018064 0.057470
0.512948 0.027311 0.040337
0.523089 0.029009 0.003180
0.572334 -0.045102 0.024460
0.590954 0.052013 0.041165
0.556638 -0.050534 -0.000750
0.548890 0.096254 0.080416
0.598056 0.039749 0.044043
0.517519 0.071872 0.068011
0.580784 0.070959 0.064884
0.518022 0.001499 0.036806
0.560013 0.036424 0.081631
0.526785 0.046179 0.010866
0.533528 0.059920 0.017603
0.599469 0.023612 0.050733
0.521907 -0.016050 0.003903
0.594691 0.027383 0.061019
0.579764 0.067180 0.041308
0.532927 0.033944 0.073072
0.515322 0.012007 0.008014
0.517427 -0.008375 0.014791
0.550789 -0.048419 0.005015
0.521673 0.099113 0.042251
0.513090 0.073049 0.057762
0.532441 0.024980 -0.004450
0.514108 0.099742 0.063268
0.513595 0.005051 0.023028
0.542882 0.102581 0.077885
0.536412 0.060161 0.017168
0.585380 0.020595 0.067803
0.557505 0.030518 -0.004693
0.588755 -0.007287 -0.012429
0.525922 -0.002418 -0.008672
0.597411 0.008372 0.050443
0.569871 0.084494 0.069018
0.561123 0.086281 0.045449
0.525970 -0.009574 0.042611
0.581233 0.037069 0.074099
0.541400 0.078755 0.084374
0.523616 -0.020571 0.007509
0.512101 0.040980 0.032201
0.528189 0.009668 -0.008349
0.537345 0.110593 0.069547
0.569970 0.060960 0.080640
0.571888 0.034176 0.002190
0.541154 0.103320 0.046934
0.558136 0.069236 0.084524
0.525994 -0.024567 0.007667
0.584663 0.002035 0.061668
0.526049 -0.009769 0.042560
0.514161 0.046639 0.051645
0.537160 0.051149 0.010647
0.513395 0.035577 0.044797
0.596652 -0.029004 0.007779
0.524193 -0.015075 -0.003142
0.563332 0.073883 0.082418
0.519909 0.019942 0.002275
0.575122 0.073763 0.073865
0.519180 -0.012210 0.010093
0.557237 0.039995 0.002128
0.513322 0.032369 0.018305
0.587664 -0.020689 -0.014288
0.590690 0.000667 -0.007607
0.564201 -0.014193 0.060115
0.552703 0.014780 -0.014356
0.591319 0.051103 0.040582
0.535498 -0.035964 0.013914
0.589959 0.001927 0.057256
0.594828 -0.022444 0.030176
0.530541 -0.022632 0.035405
0.522040 0.069479 0.029230
0.594707 -0.027987 0.022694
0.592871 0.019826 0.061141
0.514491 0.009759 0.034513
0.528382 0.060107 0.077016
0.527992 -0.001268 0.051710
0.547614 0.007069 0.070325
0.555044 -0.038770 -0.016673
0.550854 0.003991 0.069796
0.550101 0.014318 -0.014398
0.571438 0.012302 -0.013205
0.567627 -0.019836 -0.022888
0.557560 0.041244 0.003124
0.601867 0.013869 0.040278
0.537443 -0.037153 0.016887
0.524026 0.014755 0.055761
0.539815 0.004965 -0.015815
0.582624 -0.031158 -0.015537
0.551952 0.097034 0.049473
0.602937 0.014386 0.028617
0.531242 -0.019007 0.040848
0.511560 0.027116 0.022994
0.545585 0.107563 0.068448
0.531354 0.044151 0.007445
0.559816 0.076763 0.083366
0.525207 0.023986 0.061566
0.595371 0.030980 0.022539
0.539025 0.028902 0.075163
0.566806 -0.031442 0.045441
0.599822 -0.002958 0.039288
0.542152 -0.007346 0.059888
0.596235 0.035244 0.059551
0.575172 -0.007074 0.062001
0.602218 0.001377 0.017193
0.515651 0.027551 0.047617
0.601344 0.026011 0.037188
0.561871 0.085242 0.080428
0.570984 -0.052378 0.002688
0.525927 0.083542 0.078320
0.593318 -0.014592 -0.008759
0.532414 -0.031598 0.019132
0.520856 -0.014977 0.020999
0.580236 0.068178 0.044033
0.513753 0.022359 0.040675
0.516514 0.002904 0.034221
0.523962 0.094473 0.075978
0.511196 0.027130 0.029831
0.567559 -0.021406 -0.022810
0.542842 0.051623 0.082750
0.541788 0.107413 0.073499
0.561348 -0.030522 -0.021720
0.531585 -0.008455 -0.013322
0.544368 0.069057 0.084999
0.537820 -0.021748 -0.016015
0.515008 0.021203 0.043268
0.544452 0.088866 0.083073
0.599848 0.010802 0.046062
0.570825 0.050663 0.080409
0.580080 -0.016377 0.053199
0.555060 0.039470 0.001446
0.595793 0.003310 0.000444
0.535948 0.107815 0.073890
0.535746 0.012185 -0.011707
0.576343 -0.022607 -0.020601
0.566317 0.045037 0.081699
0.572319 0.050595 0.016048
0.563675 0.052877 0.014199
0.527869 0.061714 0.076970
0.529340 -0.029241 0.005010
0.512609 0.048677 0.036760
0.517173 -0.005805 0.024529
0.590830 -0.039075 0.009547
0.568991 0.062243 0.025486
0.570929 0.013510 -0.012636
0.582869 0.060760 0.036927
0.581120 0.044681 0.075010
0.511907 0.017660 0.020400
0.511601 0.023120 0.021855
0.561817 0.077577 0.082529
0.567495 0.046893 0.010654
0.514382 0.070197 0.061089
0.527273 0.057494 0.075505
0.516180 0.098635 0.046161
0.574392 0.074968 0.073946
0.587821 0.038332 0.018088
0.596058 0.043148 0.041472
0.576692 -0.044584 0.022796
0.570577 -0.048708 0.018181
0.596004 0.003733 0.001029
0.524951 0.112686 0.054435
0.577875 0.042098 0.076608
0.601669 0.017164 0.041130
0.520436 0.033199 0.058860
0.587251 -0.025322 -0.013776
0.553467 0.101336 0.058112
0.541354 -0.029446 -0.015451
0.539172 0.005099 0.065434
0.527670 -0.024736 -0.000661
0.534695 -0.002452 -0.015024
0.561067 0.066200 0.025252
0.554453 -0.049151 0.012036
0.558896 -0.051639 0.001139
0.561793 0.074242 0.033295
0.591915 0.021025 0.062508
0.541464 -0.034667 0.030774
0.564213 -0.022413 -0.023043
0.594933 -0.032549 0.005234
0.594766 0.015229 0.057235
0.595612 0.032362 0.024669
0.602168 0.020298 0.031291
0.573232 -0.014050 0.058245
0.599235 -0.019985 0.016496
0.561458 -0.050109 0.015097
0.599203 0.029873 0.030762
0.573290 -0.005005 0.063865
0.568774 0.025055 0.076901
0.580898 -0.031168 -0.016616
0.587008 0.051924 0.032177
0.566267 0.035242 0.000865
0.582081 0.013903 -0.007572
0.541845 0.089059 0.082891
0.601323 0.012669 0.042204
0.574615 -0.020891 0.052450
0.600154 -0.013827 0.007111
0.537850 0.011309 0.067614
0.524680 -0.022631 0.012632
0.598743 0.028547 0.027450
0.553592 0.046343 0.006401
0.571436 0.074590 0.040738
0.544872 0.096736 0.044029
0.554883 0.062890 0.019837
0.529731 -0.011192 -0.011552
0.526074 -0.024795 0.009497
0.566650 -0.035360 0.040975
0.546484 -0.045532 0.001263
0.534783 0.076127 0.027843
0.514519 0.020218 0.010896
0.561416 -0.006704 -0.022196
0.571444 -0.029268 0.046211
0.581958 -0.022158 0.046952
0.524603 0.107814 0.069520
0.539080 -0.029135 -0.013936
0.513589 0.023406 0.013973
0.563827 -0.037120 0.039042
0.529095 -0.015567 0.041611
