ply
format ascii 1.0
element vertex 1024
property float x
property float y
property float z
end_header
0.518001 -0.013316 0.034830
0.513672 0.070651 0.047760
0.513462 0.075467 0.049643
0.577954 -0.037577 -0.010801
0.577205 0.073708 0.063589
0.526063 0.033138 0.012142
0.570418 -0.029777 -0.014292
0.586080 -0.003136 0.066526
0.530813 0.085167 0.033299
0.548268 0.044701 0.012818
0.602357 -0.014197 0.035439
0.584530 -0.055545 0.022008
0.576763 0.059960 0.075655
0.595055 0.046084 0.053590
0.604149 0.002561 0.032338
0.562099 0.044399 0.014657
0.524273 0.051218 0.022725
0.587123 -0.033206 -0.006478
0.528275 -0.037185 0.009109
0.594332 0.002926 0.008644
0.595192 0.043800 0.059798
0.542842 0.105522 0.053818
0.557884 -0.054577 -0.004617
0.523752 0.066610 0.071660
0.516394 0.095372 0.044612
0.518471 0.011199 0.051122
0.534612 -0.045870 0.020671
0.546938 -0.033599 0.054178
0.538531 0.010809 0.072847
0.538175 -0.046057 0.029957
0.558253 0.052620 0.019084
0.592694 0.016313 0.014985
0.572368 0.076154 0.071944
0.547036 0.075587 0.081596
0.561152 -0.024440 0.064497
0.559322 0.020161 0.080797
0.565279 0.053426 0.022176
0.595023 -0.008032 0.004362
0.542691 -0.044336 0.039353
0.571554 0.080892 0.062677
0.596329 -0.040481 0.012640
0.582045 -0.032140 0.052841
0.539709 -0.013263 0.064068
0.599074 -0.030390 0.011442
0.584232 -0.035117 -0.008156
0.599827 -0.003475 0.014501
0.581216 0.067165 0.066211
0.545624 -0.005321 0.070835
0.563974 -0.031785 -0.014670
0.515031 0.090293 0.044599
0.516899 0.090386 0.041628
0.602315 -0.017135 0.029545
0.569719 -0.002118 0.073936
0.515630 0.026270 0.050012
0.601127 -0.022283 0.017174
0.550265 0.011175 0.077780
0.560925 -0.056575 0.032627
0.532775 -0.032296 -0.003306
0.541627 -0.028596 0.055420
0.514653 -0.003293 0.018575
0.581386 -0.009193 0.067092
0.584833 0.038641 0.073702
0.584141 0.064142 0.062692
0.552513 -0.017689 -0.013916
0.591534 -0.035599 0.040099
0.577711 -0.030313 -0.012315
0.567998 -0.046441 -0.010615
0.591012 -0.040947 0.000304
0.595101 -0.041211 0.008461
0.593632 -0.018683 0.051608
0.548725 0.097087 0.072864
0.593693 -0.015810 0.053432
0.602265 0.020341 0.045225
0.565971 0.032696 0.008348
0.564420 0.088366 0.058555
0.540181 -0.052134 0.012056
0.517777 0.044952 0.026554
0.530082 0.055845 0.075964
0.583796 -0.048324 -0.002691
0.601086 0.000442 0.049003
0.541379 0.052881 0.081651
0.582434 0.015188 0.004457
0.533489 0.051635 0.077793
0.578204 0.072591 0.060442
0.537436 0.094355 0.037837
0.583936 0.045484 0.027661
0.555514 0.081422 0.038308
0.566199 -0.027165 -0.014877
0.598158 0.038531 0.050379
0.549912 0.047562 0.083606
0.576004 0.072342 0.070174
0.594449 -0.005433 0.004709
0.550600 -0.032265 0.057287
0.602078 0.019663 0.037307
0.545250 -0.053356 0.003302
0.563150 0.062068 0.081866
0.546859 -0.050086 0.034600
0.603958 0.006176 0.036488
0.579865 -0.022887 -0.011604
0.571395 0.067992 0.037136
0.564180 -0.061777 0.003731
0.535097 -0.010555 0.062094
0.531341 -0.023670 -0.004650
0.514671 -0.005628 0.020468
0.524558 0.022602 0.008257
0.541234 -0.045528 0.035875
0.592959 -0.013137 0.055918
0.600855 0.016839 0.052743
0.515095 0.048524 0.053788
0.528909 -0.023144 0.047858
0.540538 -0.035345 0.048280
0.599139 -0.027769 0.031379
0.566035 -0.010408 -0.012879
0.566588 -0.053561 0.037533
0.544982 0.029598 0.004628
0.576409 0.043742 0.020040
0.594322 -0.028026 0.000012
0.529057 0.009064 0.000336
0.524075 -0.015896 0.001013
0.529796 -0.018824 0.052180
0.548235 -0.024959 0.061871
0.518298 -0.017032 0.012853
0.526515 0.023330 0.066078
0.545548 -0.013204 0.067228
0.559814 -0.009073 0.072447
0.514234 0.047154 0.049985
0.559053 0.032878 0.006753
0.586449 0.060771 0.061903
0.532751 -0.031972 0.044320
0.513698 0.040950 0.045521
0.557124 -0.045881 -0.010432
0.516916 0.012174 0.012504
0.526745 0.030174 0.068181
0.585526 0.047930 0.031864
0.549905 -0.033723 0.055623
0.598642 -0.016474 0.007577
0.578911 -0.014380 -0.010689
0.522485 0.037542 0.064910
0.554165 -0.042050 0.049072
0.579805 0.056942 0.033916
0.575967 -0.033383 -0.012493
0.554361 -0.060081 0.007127
0.602381 0.008190 0.046205
0.547362 0.058956 0.021144
0.561804 -0.024079 -0.015018
0.544702 0.080520 0.032973
0.547449 0.094360 0.074787
0.583242 0.065556 0.062370
0.532914 0.107303 0.048206
0.591777 0.017506 0.014705
0.561118 -0.063236 0.010647
0.573255 -0.060027 0.025430
0.565250 -0.063156 0.007478
0.539175 -0.026481 -0.009588
0.542385 -0.053934 0.013679
0.581347 0.007912 0.072321
0.570970 0.036550 0.012414
0.533062 0.106894 0.061221
0.538512 0.000581 0.069453
0.516918 0.066940 0.062163
0.513841 0.005734 0.019012
0.532664 -0.020160 0.054319
0.552918 -0.054452 0.032279
0.533635 -0.017011 -0.006984
0.549367 0.080062 0.080565
0.579331 0.045429 0.023337
0.540410 -0.015101 0.063568
0.598976 -0.033573 0.019366
0.560941 0.067320 0.081697
0.521678 -0.027060 0.015230
0.522294 -0.017046 0.003612
0.584945 -0.037809 0.045491
0.533380 0.078267 0.030468
0.586476 -0.014398 -0.006272
0.546429 -0.052336 0.030050
0.516879 -0.009899 0.035082
0.541583 0.037726 0.080215
0.541020 -0.052271 0.019147
0.522385 0.027811 0.062164
0.576265 -0.058483 0.026444
0.572132 0.076328 0.048602
0.523483 -0.026086 0.033435
0.546314 -0.050416 0.033482
0.603930 -0.006433 0.030502
0.558096 0.077344 0.036623
0.514116 0.024872 0.045637
0.552689 0.098120 0.052168
0.598245 -0.021492 0.006085
0.512326 0.013869 0.035663
0.531000 0.095177 0.037072
0.566081 -0.051107 0.040983
0.589330 0.048292 0.038298
0.599754 0.014337 0.024379
0.520328 0.023317 0.057918
0.536072 -0.013505 -0.008324
0.528630 -0.034140 0.003706
0.514474 -0.004166 0.031487
0.580871 0.057026 0.073551
0.566903 0.022954 0.002783
0.574618 0.048022 0.022314
0.579226 0.008352 -0.001159
0.579281 -0.024680 -0.011932
0.577490 -0.026480 0.059712
0.575876 -0.011368 -0.011042
0.570337 -0.009361 0.071218
0.556273 -0.055891 -0.002378
0.554300 0.056588 0.083957
0.590966 -0.000396 0.063505
0.575268 0.035555 0.079012
0.550071 -0.037670 0.051790
0.552721 -0.017833 0.067315
0.528439 0.003659 -0.000857
0.548217 0.097512 0.072659
0.562969 -0.006941 -0.012145
0.553415 -0.060292 0.018409
0.594151 -0.045113 0.019520
0.563643 0.059775 0.082034
0.560109 0.008393 0.078086
0.519478 0.061657 0.031844
0.541430 0.036140 0.008604
0.561360 -0.011648 -0.013483
0.519689 0.096824 0.041568
0.569161 -0.025948 -0.014625
0.521390 -0.008364 0.046733
0.533358 0.091496 0.074832
0.533165 0.106700 0.061729
0.584370 -0.001455 -0.003150
0.521328 0.003629 0.005001
0.568413 0.053416 0.023468
0.582102 -0.029842 0.054605
0.515052 0.051887 0.036495
0.561650 -0.028846 0.061840
0.544565 0.027861 0.079742
0.551316 -0.010230 -0.012586
0.567644 0.007991 0.077129
0.591242 0.033990 0.068697
0.598706 -0.030838 0.028687
0.572895 0.019836 0.002835
0.600315 0.026729 0.038462
0.518400 0.073791 0.036231
0.596428 0.032331 0.034532
0.569584 0.051007 0.022155
0.603479 0.010641 0.035202
0.557414 0.001159 0.076070
0.603731 -0.003881 0.027115
0.522898 0.078192 0.071227
0.558820 -0.057090 -0.002198
0.518422 0.028015 0.056139
0.556493 0.001014 -0.009592
0.546660 0.009049 -0.005638
0.543220 0.105490 0.060682
0.548109 0.057774 0.020505
0.523087 0.061033 0.028027
0.532297 0.016898 0.001655
0.554990 -0.050649 -0.006854
0.575806 0.006599 0.074485
0.581180 -0.046311 0.040029
0.569460 -0.038515 0.053888
0.584239 -0.048394 0.034728
0.534086 -0.022605 -0.006930
0.517610 0.086542 0.064293
0.517101 0.021970 0.015322
0.555063 -0.026840 0.062570
0.579687 0.067329 0.047777
0.560121 0.009335 0.078316
0.525027 -0.032705 0.022525
0.546835 -0.001696 0.072769
0.583050 -0.004832 0.067861
0.585449 0.009779 0.070321
0.550161 0.101364 0.062967
0.528078 0.031927 0.010428
0.550572 0.087843 0.077717
0.596671 0.008855 0.059547
0.576252 -0.050889 -0.005947
0.528245 0.020326 0.067143
0.551099 -0.027195 0.061400
0.513704 0.066066 0.048142
0.535890 -0.007451 0.064224
0.530060 0.033433 0.010255
0.593895 0.028093 0.065904
0.578500 0.057004 0.075268
0.554976 0.097460 0.065719
0.536371 -0.045842 0.026270
0.554547 -0.010441 -0.012996
0.515912 -0.010189 0.017496
0.583865 0.064933 0.060755
0.548687 -0.019594 -0.013314
0.533288 0.042901 0.076518
0.520065 -0.006453 0.005601
0.549225 -0.040051 -0.010661
0.514778 0.091363 0.058015
0.576708 -0.061225 0.018760
0.600178 -0.028699 0.019290
0.559497 0.093728 0.061212
0.588088 0.050846 0.039132
0.580123 -0.006905 -0.007831
0.590788 -0.006597 0.000045
0.582858 0.005230 0.070894
0.550187 0.067184 0.026390
0.581698 -0.040111 0.046063
0.534235 -0.016149 0.058332
0.588039 0.046931 0.070171
0.521648 0.003990 0.004727
0.576637 -0.045212 0.044333
0.546103 -0.050627 -0.001651
0.520188 -0.011975 0.005838
0.533615 0.030017 0.007193
0.527041 0.042179 0.016213
0.567390 -0.034027 0.057909
0.596414 0.042647 0.050110
0.548973 0.078003 0.032785
0.570746 0.055683 0.026296
0.601175 -0.010091 0.043926
0.560213 0.021278 0.081016
0.528995 0.031491 0.009763
0.528925 0.058282 0.075356
0.543706 -0.052753 0.024682
0.583587 -0.053838 0.027431
0.513986 0.056299 0.043155
0.561604 0.034303 0.082988
0.528091 0.057642 0.074625
0.555467 -0.058619 0.002347
0.580324 -0.058289 0.005657
0.600551 -0.016282 0.012829
0.531519 -0.037704 0.033068
0.553999 0.037104 0.083358
0.538669 0.016521 -0.000682
0.542481 0.075413 0.029694
0.545501 -0.051387 -0.000169
0.552859 0.094592 0.047377
0.555955 -0.044321 -0.010872
0.585255 0.003598 0.069044
0.592488 0.042847 0.038024
0.578053 0.072357 0.064617
0.540060 0.050334 0.080992
0.551078 0.026922 0.002780
0.574583 -0.012364 0.068716
0.563715 -0.063485 0.009434
0.517172 -0.005247 0.040181
0.597108 0.005462 0.058031
0.599701 -0.022641 0.036124
0.600993 0.005627 0.050300
0.543403 -0.040785 0.044437
0.567842 -0.045411 0.047591
0.568560 -0.016632 -0.013924
0.544874 0.097455 0.073161
0.514203 -0.002512 0.020525
0.536334 0.107799 0.057522
0.570893 0.036736 0.080856
0.515561 0.049253 0.033695
0.527207 0.043317 0.071612
0.595506 -0.002791 0.057725
0.521348 0.005787 0.005425
0.590320 0.002229 0.064869
0.576986 -0.049668 0.038963
0.515318 0.025894 0.019989
0.564831 -0.063545 0.009270
0.603008 0.000443 0.024590
0.517993 0.016972 0.012317
0.562344 -0.058921 -0.001042
0.595936 0.005149 0.012109
0.590497 -0.032303 0.044592
0.552693 -0.013542 0.069501
0.520220 0.100290 0.061760
0.577220 0.072912 0.054550
0.562122 -0.048032 0.044719
0.512546 0.024977 0.038733
0.516060 0.078124 0.040400
0.560163 0.018267 0.080366
0.550398 0.084497 0.037770
0.581367 -0.040998 0.045460
0.523086 0.055337 0.069367
0.593908 0.029065 0.026796
0.517705 -0.005693 0.041147
0.515588 -0.003927 0.036716
0.544880 -0.045595 -0.005548
0.564559 0.084506 0.049291
0.516315 0.062004 0.036858
0.576414 0.047578 0.023026
0.597740 -0.009309 0.008064
0.590881 0.020790 0.015986
0.586830 -0.014535 -0.006045
0.518757 0.048717 0.027153
0.573476 0.067475 0.075635
0.562219 0.087119 0.049720
0.539627 -0.049049 0.025867
0.533393 0.107827 0.050189
0.602817 -0.009598 0.022388
0.555573 -0.002301 0.074763
0.514768 0.094686 0.056066
0.549226 0.062756 0.083379
0.515060 0.075658 0.042201
0.512620 0.022121 0.026255
0.555919 -0.013378 -0.013687
0.564732 -0.033846 0.058380
0.528408 -0.030894 0.038380
0.512028 0.022222 0.032790
0.599539 -0.024726 0.010122
0.582311 0.004717 -0.001448
0.600756 0.029796 0.047078
0.597291 -0.008869 0.007437
0.595187 -0.012316 0.053626
0.583953 0.005134 -0.000175
0.602127 0.001652 0.022239
0.556827 -0.055464 -0.003180
0.579642 -0.031542 -0.011351
0.550294 0.090743 0.042103
0.551714 0.027570 0.081640
0.537709 0.092345 0.037021
0.530060 -0.005737 0.059778
0.528809 0.049064 0.074060
0.552800 0.090712 0.043831
0.574399 -0.062569 0.015659
0.514120 0.043008 0.035665
0.581760 0.027833 0.012135
0.515937 0.045630 0.030720
0.554153 -0.040746 0.050465
0.542464 0.013367 0.075622
0.527583 0.091653 0.072323
0.514978 0.083095 0.043149
0.581127 0.039500 0.020115
0.513560 0.085918 0.054833
0.547767 0.052693 0.017489
0.551642 0.006384 -0.007306
0.602038 0.018135 0.047943
0.542602 -0.048291 0.032833
0.566285 0.037463 0.082368
0.570523 0.050306 0.022041
0.546925 -0.013160 -0.012292
0.522945 0.019201 0.060480
0.581320 0.010761 0.001223
0.604015 0.000656 0.037909
0.538506 0.060567 0.080852
0.513874 0.088965 0.047484
0.535741 0.093372 0.074653
0.596422 -0.012251 0.051922
0.602933 -0.006497 0.040528
0.543063 0.030958 0.079735
0.540081 -0.037917 0.045149
0.577833 -0.041094 0.047813
0.540528 -0.003267 0.069150
0.538326 0.065369 0.080792
0.546955 0.056078 0.083262
0.533377 0.105809 0.063665
0.515794 0.078970 0.040993
0.548899 0.101723 0.053187
0.585913 0.005350 0.069047
0.521371 0.058826 0.067858
0.521231 0.091265 0.067648
0.551156 -0.031079 -0.013453
0.521790 0.013530 0.007082
0.581568 -0.047165 -0.005099
0.565748 -0.007681 -0.012104
0.597822 0.038179 0.046446
0.546458 -0.051999 0.030753
0.573915 -0.018208 -0.013169
0.516513 0.024030 0.051421
0.595220 0.000571 0.008583
0.534584 0.028580 0.074746
0.581691 0.064466 0.046885
0.523316 -0.026842 0.007785
0.536268 0.071743 0.027599
0.601862 0.008339 0.048080
0.531053 -0.018307 0.053903
0.566788 0.042260 0.082343
0.562210 -0.030176 0.060995
0.554056 -0.052692 0.035832
0.565793 -0.052061 0.039692
0.568342 0.009590 0.077368
0.542771 0.015257 0.076240
0.575332 -0.059455 0.025261
0.553972 0.021991 0.080879
0.549369 0.041800 0.011125
0.521663 0.051088 0.024921
0.603036 -0.009597 0.023666
0.585740 -0.001660 -0.002255
0.587476 0.044968 0.031697
0.512642 0.004966 0.027482
0.549769 0.046832 0.014075
0.589237 -0.031590 -0.005003
0.525827 0.036350 0.013908
0.559941 0.081786 0.041392
0.512429 0.019811 0.026268
0.531908 -0.030807 0.044530
0.577618 0.073109 0.063877
0.548615 -0.052868 0.031466
0.593076 -0.045716 0.023305
0.587165 0.059401 0.062512
0.581348 -0.040688 -0.008143
0.598617 0.036719 0.047798
0.594589 -0.019047 0.050092
0.544348 -0.039887 -0.008632
0.513942 0.041077 0.047265
0.559468 -0.062042 0.020505
0.593121 -0.021263 0.050442
0.549414 -0.036807 0.052333
0.579341 0.019269 0.005058
0.586446 0.018721 0.071182
0.564494 -0.048941 -0.009788
0.597744 -0.027469 0.005727
0.587043 0.046861 0.032956
0.540423 -0.043887 0.037556
0.589306 0.055068 0.049108
0.528565 0.072751 0.075874
0.519413 0.046224 0.024869
0.599078 0.027271 0.057981
0.513010 0.002244 0.026168
0.595649 0.042708 0.059471
0.528180 -0.013428 0.053665
0.595173 0.002623 0.009606
0.519955 0.050863 0.026685
0.596725 0.004621 0.058370
0.553754 0.064469 0.025644
0.590752 0.037774 0.029789
0.566255 0.033068 0.082055
0.604189 -0.002511 0.031907
0.533885 0.074137 0.028751
0.525713 0.106918 0.049509
0.516785 0.012651 0.048615
0.518366 0.067367 0.034854
0.587838 -0.035711 0.044556
0.549021 -0.023894 0.062836
0.590861 -0.049657 0.011178
0.564686 -0.060897 0.001779
0.535104 0.086314 0.077043
0.563317 -0.000223 0.075535
0.591892 -0.020125 -0.002700
0.537150 0.069496 0.080259
0.595582 0.022268 0.063504
0.563800 -0.056574 -0.004247
0.555969 0.061156 0.024167
0.514173 0.073335 0.055820
0.577281 -0.058337 0.025919
0.514198 0.061433 0.053021
0.598019 0.038309 0.048042
0.603314 0.009110 0.031237
0.578277 -0.033930 0.053850
0.600325 0.021542 0.054950
0.570785 -0.024569 0.063346
0.519242 0.072537 0.066819
0.559374 -0.001240 -0.010388
0.598661 0.032038 0.057905
0.513586 0.071143 0.050991
0.585404 0.047572 0.031351
0.553878 -0.058977 0.023708
0.551716 -0.045360 0.044191
0.536534 -0.024312 -0.008347
0.553151 -0.014630 -0.013613
0.533015 0.049352 0.017514
0.598342 0.003185 0.055396
0.565075 -0.061155 0.002251
0.534726 0.032350 0.075622
0.570028 -0.010396 -0.012281
0.540539 -0.048096 0.000566
0.580873 0.004516 -0.002352
0.595660 0.034797 0.035550
0.517691 0.054748 0.061394
0.538609 -0.049490 0.021848
0.522264 0.039555 0.018194
0.513094 0.003325 0.023664
0.518686 0.054986 0.063213
0.552099 -0.013236 0.069502
0.548453 0.039130 0.009614
0.595211 0.027931 0.064370
0.596165 -0.034591 0.005226
0.552560 -0.003328 0.073876
0.567520 0.002944 0.075868
0.558077 -0.049979 -0.008375
0.544095 -0.054214 0.020913
0.564106 0.083493 0.075136
0.574698 -0.034066 -0.012764
0.557247 0.091589 0.048980
0.516907 0.042444 0.026622
0.517246 -0.014115 0.014549
0.585049 0.063206 0.060714
0.596950 0.018654 0.061170
0.588693 0.034027 0.023595
0.579039 0.019458 0.005009
0.581826 0.058314 0.072292
0.551871 0.041434 0.083521
0.567476 0.036956 0.011497
0.539641 -0.031155 0.051676
0.559447 0.026820 0.082134
0.585277 -0.054515 0.006536
0.585696 0.050352 0.034555
0.587903 0.045483 0.032839
0.567434 0.046350 0.082025
0.589498 -0.046146 0.030912
0.540355 0.052173 0.017578
0.567261 0.079484 0.045792
0.552223 0.022473 0.000362
0.596574 0.020565 0.023698
0.513607 0.009187 0.019621
0.541742 -0.052906 0.018937
0.577956 0.068211 0.045618
0.522161 -0.022403 0.006406
0.557344 -0.035199 0.056898
0.555070 0.030326 0.004779
0.587494 0.039203 0.071744
0.580527 0.027848 0.075880
0.515454 0.038990 0.052637
0.601719 -0.004773 0.045548
0.560864 0.073049 0.080508
0.538189 0.020942 0.075343
0.569412 -0.022801 -0.014502
0.604062 0.001466 0.030554
0.516080 0.098898 0.049496
0.522038 -0.004395 0.003122
0.592087 -0.035191 0.039688
0.595702 -0.025670 0.042856
0.529952 -0.021260 0.050652
0.577437 0.034633 0.013997
0.581286 0.067433 0.052989
0.549694 0.012025 0.077853
0.524636 0.053726 0.070841
0.544253 0.016487 0.077155
0.599123 -0.020447 0.040392
0.539226 -0.044506 0.034874
0.598406 0.032199 0.058497
0.553423 -0.001055 0.074875
0.524928 0.021380 0.007485
0.560320 0.057131 0.022940
0.584125 0.057295 0.040253
0.589545 -0.009230 -0.002142
0.553843 0.095973 0.071474
0.533041 -0.007569 -0.005981
0.600193 0.027430 0.054806
0.563987 0.086228 0.072839
0.542618 -0.054023 0.015894
0.515721 0.097531 0.056133
0.573910 0.036326 0.079641
0.537965 0.078982 0.030908
0.556520 -0.039476 0.052642
0.514669 0.059441 0.040574
0.592003 0.051274 0.050598
0.554748 -0.052826 0.035994
0.527605 -0.035104 0.027291
0.514928 0.024194 0.020011
0.512872 0.021071 0.040517
0.574458 0.044984 0.079242
0.599733 0.015395 0.055515
0.542609 -0.000203 -0.008211
0.539234 -0.042273 0.038618
0.593021 -0.000709 0.005134
0.562752 0.090277 0.059592
0.556324 -0.035624 0.056277
0.539463 -0.013178 -0.009895
0.591596 0.052272 0.051680
0.568765 0.028653 0.080922
0.526438 0.066653 0.027877
0.562603 -0.059797 0.027349
0.582856 0.061559 0.044219
0.523243 0.068770 0.071335
0.593758 0.041371 0.064643
0.601362 0.022449 0.051205
0.568861 -0.022029 -0.014519
0.537944 0.027877 0.004924
0.585040 -0.030897 -0.008414
0.529626 -0.039841 0.010573
0.600492 -0.022400 0.013281
0.574959 0.068084 0.040735
0.515774 0.042935 0.054430
0.516068 0.085166 0.041475
0.601633 0.011751 0.049233
0.570922 -0.063259 0.017476
0.537713 0.098653 0.040147
0.541911 0.005841 0.073215
0.523306 0.052177 0.023963
0.533342 -0.040571 0.031345
0.590484 -0.030538 -0.004001
0.540279 0.024832 0.002897
0.601058 -0.012786 0.014988
0.584814 0.063685 0.058555
0.560672 0.062198 0.082564
0.574724 0.057833 0.030354
0.534776 0.078356 0.030486
0.528876 -0.035696 0.004910
0.564790 0.050329 0.082637
0.526394 0.063088 0.073809
0.565398 -0.049104 -0.009681
0.595068 -0.040153 0.007045
0.579120 0.070778 0.064880
0.600091 0.029811 0.054116
0.588455 -0.018321 0.057449
0.543637 0.103229 0.048446
0.522448 -0.028835 0.018297
0.593040 0.003677 0.062682
0.531352 0.090960 0.035488
0.599599 0.033155 0.045368
0.534025 -0.045246 0.008211
0.561913 0.040166 0.083403
0.521531 -0.026597 0.022949
0.560891 0.051376 0.083525
0.530551 0.007344 -0.001046
0.542440 0.083634 0.079246
0.599030 0.026260 0.058172
0.592276 -0.015594 -0.001388
0.541921 0.092982 0.038952
0.528028 0.105840 0.060847
0.539480 0.101863 0.070015
0.603479 -0.008562 0.026609
0.526402 -0.022619 0.000045
0.543200 -0.045606 -0.004390
0.588957 -0.052500 0.014896
0.550255 -0.031563 0.057753
0.521594 -0.011459 0.045067
0.524071 -0.031647 0.016159
0.558261 0.046989 0.015315
0.522702 -0.025290 0.032312
0.544685 -0.012106 -0.011555
0.516351 -0.008362 0.014198
0.556705 0.013143 0.079167
0.539487 0.004151 0.071340
0.535266 0.017748 0.072658
0.564052 -0.062301 0.022155
0.579219 0.018945 0.004797
0.518812 -0.008361 0.041679
0.583962 0.026607 0.013067
0.515607 0.083640 0.041986
0.595145 -0.003423 0.006528
0.517503 0.040870 0.057811
0.572312 0.077834 0.052297
0.519973 -0.010275 0.005958
0.520798 -0.012535 0.042720
0.575117 0.040940 0.017251
0.522661 -0.014482 0.002525
0.559950 -0.062191 0.020405
0.559673 -0.055015 -0.004875
0.564462 0.088775 0.064507
0.553240 -0.021656 0.065314
0.555425 -0.060290 0.021776
0.595303 0.020470 0.063620
0.587216 -0.028048 0.051808
0.519214 0.080555 0.036749
0.600409 -0.022339 0.012896
0.524790 0.102543 0.042402
0.513872 0.061880 0.050906
0.571485 0.079947 0.068217
0.516074 -0.006524 0.035897
0.597439 -0.030961 0.033230
0.521968 0.105379 0.053847
0.528827 -0.008254 0.057239
0.598734 0.021694 0.058623
0.547589 -0.028723 -0.012790
0.521339 0.079305 0.034658
0.590406 -0.003092 0.001165
0.595911 0.038214 0.039999
0.541152 0.101402 0.070428
0.567854 0.084671 0.067185
0.597542 -0.016422 0.047315
0.587573 0.015901 0.009162
0.582950 0.007679 0.071403
0.566023 -0.049812 -0.009271
0.518721 0.079784 0.066272
0.568541 0.058011 0.080412
0.568886 0.063630 0.031678
0.528524 -0.034729 0.004554
0.537817 -0.010889 -0.008893
0.583931 -0.001270 -0.003358
0.515600 0.034814 0.051980
0.524773 -0.032850 0.018811
0.517556 -0.013405 0.033138
0.585728 -0.050503 0.030092
0.572079 -0.001366 -0.008354
0.604013 0.005748 0.035668
0.582032 0.026848 0.011664
0.529914 0.040739 0.073597
0.602224 0.010209 0.046868
0.538006 0.074116 0.080193
0.547749 0.091971 0.076030
0.541142 0.042630 0.080680
0.519753 -0.015949 0.037039
0.528339 -0.014664 -0.003204
0.539633 -0.013917 -0.010042
0.571024 0.032957 0.080606
0.514836 0.039871 0.030171
0.591408 0.041768 0.034762
0.603048 0.014460 0.039636
0.570193 0.010089 -0.003311
0.576881 -0.052761 0.034946
0.533358 0.016151 0.000909
0.527775 0.097818 0.069794
0.528389 0.015576 0.003031
0.516784 0.098835 0.057507
0.566927 0.020875 0.001584
0.532755 -0.037639 0.036038
0.519202 0.012079 0.052646
0.585378 0.038426 0.073329
0.536173 0.103097 0.042896
0.578665 -0.038192 0.049970
0.526787 0.106117 0.059370
0.591724 -0.019803 0.053155
0.534694 0.106808 0.061962
0.593641 -0.007695 0.002745
0.579631 -0.026093 0.058842
0.533351 -0.018549 0.056056
0.521807 -0.006144 0.003273
0.553072 0.011755 0.078467
0.598034 -0.034571 0.025287
0.555698 0.089751 0.045339
0.512699 0.025652 0.039704
0.589985 -0.050949 0.011857
0.543076 -0.053501 0.020753
0.547575 0.050109 0.083275
0.541415 0.093425 0.075315
0.526645 -0.029959 0.035644
0.519162 0.070171 0.066493
0.600923 -0.023115 0.029130
0.542837 -0.051412 0.002821
0.597240 0.013280 0.059702
0.514195 0.020107 0.044939
0.522821 0.017238 0.007472
0.573465 -0.053541 0.035685
0.591974 0.044946 0.039533
0.556812 -0.062085 0.011998
0.551174 0.093569 0.074724
0.599283 0.033151 0.043607
0.519522 0.067753 0.066706
0.582616 0.066643 0.061135
0.519327 -0.005929 0.044408
0.562808 0.034377 0.082840
0.526688 0.035235 0.012829
0.533588 0.049722 0.017542
0.601090 0.017966 0.052168
0.522025 -0.027391 0.013785
0.596699 0.022964 0.062098
0.580680 0.059983 0.038265
0.535420 0.030783 0.075764
0.515390 0.000940 0.014675
0.517926 -0.018445 0.023818
0.551183 -0.059293 0.017693
0.522424 0.091621 0.037640
0.514676 0.067644 0.056580
0.531891 0.012326 0.000020
0.515704 0.094815 0.058712
0.514322 -0.004116 0.030490
0.545019 0.099518 0.071681
0.536450 0.049915 0.016963
0.587723 0.017037 0.070042
0.556880 0.017864 -0.001925
0.588092 -0.020517 -0.006218
0.525424 -0.015403 -0.000527
0.599143 0.002801 0.053842
0.571772 0.080554 0.064013
0.562070 0.079395 0.040781
0.527588 -0.016179 0.051202
0.583702 0.034150 0.074426
0.543987 0.076670 0.081109
0.523913 -0.031428 0.017846
0.512914 0.032666 0.035223
0.527607 -0.003362 -0.001787
0.539088 0.106425 0.062653
0.572523 0.058633 0.078430
0.571499 0.022384 0.003861
0.542043 0.096430 0.040971
0.560789 0.067291 0.081746
0.526327 -0.035367 0.018398
0.586906 -0.002140 0.066272
0.527667 -0.016379 0.051173
0.515709 0.040685 0.053722
0.537006 0.040171 0.011576
0.514755 0.028861 0.048325
0.596965 -0.039553 0.016170
0.524019 -0.027286 0.006586
0.565860 0.071657 0.078873
0.519679 0.008119 0.007820
0.577297 0.070517 0.069926
0.519518 -0.022825 0.019560
0.556812 0.028109 0.003682
0.513644 0.022410 0.022454
0.587033 -0.034049 -0.006367
0.590156 -0.012024 -0.002495
0.566527 -0.018494 0.067566
0.551819 0.001040 -0.009374
0.592323 0.043972 0.039052
0.536164 -0.045879 0.025607
0.592021 -0.002776 0.061694
0.595991 -0.030287 0.037645
0.531969 -0.030013 0.045478
0.522501 0.060608 0.028363
0.595614 -0.036710 0.030913
0.594946 0.015473 0.063224
0.515641 0.001975 0.041261
0.530831 0.057220 0.076640
0.529909 -0.006808 0.059119
0.550196 0.003817 0.075750
0.554487 -0.052380 -0.005175
0.553437 0.000707 0.075471
0.549221 0.000569 -0.009251
0.570604 -0.001223 -0.008692
0.566660 -0.034320 -0.014181
0.557165 0.029472 0.004503
0.603143 0.007015 0.042903
0.538237 -0.046687 0.028622
0.525982 0.009580 0.061325
0.538960 -0.008916 -0.009086
0.582030 -0.044607 -0.006111
0.552984 0.090536 0.043822
0.603740 0.006094 0.031234
0.532860 -0.025742 0.050400
0.512113 0.017770 0.027823
0.547302 0.103306 0.061600
0.531132 0.032814 0.009500
0.562363 0.074622 0.079603
0.527323 0.019461 0.065897
0.595806 0.021790 0.023473
0.541637 0.026055 0.078209
0.568677 -0.037414 0.055032
0.601193 -0.009811 0.044077
0.544434 -0.011791 0.067398
0.598121 0.030588 0.059612
0.577508 -0.011165 0.068111
0.602665 -0.008228 0.021537
0.517187 0.021250 0.052017
0.602401 0.018682 0.038366
0.564231 0.082680 0.075561
0.571298 -0.063450 0.015048
0.528246 0.080629 0.075148
0.592857 -0.027300 -0.001866
0.533258 -0.040912 0.030369
0.521654 -0.024221 0.030647
0.581253 0.061310 0.040824
0.515052 0.015236 0.045850
0.517705 -0.004859 0.041733
0.526102 0.091183 0.071561
0.512025 0.018626 0.034614
0.566609 -0.035869 -0.013908
0.545576 0.049550 0.082780
0.543711 0.103769 0.066781
0.560518 -0.044799 -0.011451
0.530943 -0.021950 -0.004626
0.547053 0.067132 0.082801
0.537169 -0.035456 -0.005914
0.516419 0.014412 0.048513
0.546904 0.086553 0.078450
0.601383 0.004680 0.049099
0.573449 0.048388 0.079434
0.582132 -0.021469 0.060329
0.554614 0.027497 0.003159
0.595557 -0.008393 0.004954
0.537889 0.104200 0.067358
0.535003 -0.001257 -0.005735
0.575483 -0.036764 -0.011928
0.569042 0.042951 0.081589
0.572357 0.040387 0.015564
0.563628 0.042400 0.013803
0.530304 0.058807 0.076418
0.529601 -0.040323 0.016202
0.513544 0.040867 0.038775
0.518043 -0.014694 0.033168
0.591298 -0.049346 0.019401
0.569320 0.053101 0.023624
0.570109 0.000044 -0.008256
0.583657 0.053081 0.034584
0.583566 0.041816 0.074397
0.512431 0.008067 0.026400
0.512140 0.013664 0.027184
0.564321 0.075332 0.078591
0.567350 0.036035 0.010868
0.516124 0.065228 0.060177
0.529683 0.054437 0.075508
0.517096 0.091613 0.041800
0.576562 0.071721 0.069888
0.588025 0.028514 0.018463
0.597157 0.036201 0.040721
0.577748 -0.053219 0.033794
0.571485 -0.057899 0.029974
0.595788 -0.007901 0.005474
0.526082 0.106603 0.047917
0.580408 0.039440 0.076431
0.602953 0.010390 0.043351
0.522375 0.028255 0.062274
0.586677 -0.038585 -0.005272
0.554810 0.095875 0.051796
0.540784 -0.043016 -0.004551
0.541580 0.001234 0.071487
0.527669 -0.036557 0.010093
0.533935 -0.016194 -0.007179
0.561361 0.056977 0.023228
0.555132 -0.059143 0.024594
0.559153 -0.062943 0.013914
0.562347 0.065950 0.030184
0.594036 0.016830 0.064471
0.542791 -0.042496 0.041921
0.563263 -0.036907 -0.013879
0.595173 -0.043390 0.014153
0.596719 0.010436 0.059840
0.596121 0.023424 0.025405
0.603032 0.012287 0.033189
0.575474 -0.018557 0.065326
0.599826 -0.029520 0.023598
0.562261 -0.059696 0.027461
0.599973 0.021716 0.031606
0.575687 -0.008888 0.069782
0.571461 0.022537 0.079192
0.580262 -0.044755 -0.007109
0.587671 0.043738 0.030793
0.565822 0.023262 0.002646
0.581452 0.001091 -0.003739
0.544290 0.086714 0.078351
0.602687 0.006061 0.044983
0.576678 -0.026057 0.060365
0.600318 -0.024564 0.013497
0.540298 0.007662 0.072938
0.525199 -0.032838 0.023136
0.599391 0.019990 0.028505
0.553292 0.034924 0.007286
0.572277 0.067241 0.037128
0.545693 0.089549 0.038749
0.554991 0.053006 0.018520
0.529184 -0.024454 -0.002458
0.526482 -0.035367 0.020238
0.568372 -0.041853 0.051094
0.546709 -0.056903 0.013792
0.535125 0.067072 0.025649
0.514638 0.009441 0.016555
0.560379 -0.021222 -0.014858
0.573325 -0.035148 0.055339
0.583804 -0.027971 0.054769
0.526378 0.103627 0.063489
0.538571 -0.042527 -0.002994
0.513807 0.012982 0.019252
0.565487 -0.043846 0.049509
0.530718 -0.022241 0.050821
