ply
format ascii 1.0
element vertex 1024
property float x
property float y
property float z
end_header
0.519609 -0.016352 0.047652
0.511407 0.068096 0.053782
0.511180 0.073055 0.055244
0.571988 -0.041547 -0.006078
0.576343 0.076366 0.057139
0.519940 0.027997 0.019890
0.563383 -0.034580 -0.008768
0.591334 0.000835 0.065063
0.524520 0.082062 0.035164
0.540973 0.040829 0.015395
0.602515 -0.012312 0.032570
0.585705 -0.055749 0.026366
0.579118 0.063886 0.070228
0.594114 0.048956 0.046433
0.602457 0.004129 0.027738
0.554892 0.041508 0.014638
0.518741 0.046908 0.029002
0.581433 -0.036247 -0.003942
0.526830 -0.042034 0.022648
0.588525 0.001566 0.006354
0.595540 0.047314 0.052680
0.538496 0.105017 0.051218
0.554694 -0.058973 0.005206
0.525910 0.067042 0.075640
0.511656 0.092496 0.048036
0.521175 0.009650 0.061366
0.535784 -0.049145 0.033536
0.553000 -0.032909 0.062951
0.544799 0.012580 0.078911
0.540967 -0.048200 0.041974
0.551303 0.049894 0.018971
0.587060 0.015402 0.011696
0.572924 0.079349 0.066005
0.549866 0.078289 0.080230
0.568116 -0.021965 0.069593
0.565923 0.023859 0.081992
0.558692 0.051407 0.020614
0.589251 -0.009705 0.002992
0.546964 -0.045295 0.050174
0.570098 0.083085 0.056675
0.594457 -0.041040 0.013681
0.587080 -0.029571 0.054958
0.546172 -0.012138 0.072203
0.596177 -0.030976 0.011116
0.578438 -0.038478 -0.004877
0.595451 -0.003892 0.011618
0.581241 0.070358 0.059526
0.552599 -0.003234 0.077027
0.557145 -0.036984 -0.007759
0.510698 0.087370 0.048721
0.511986 0.087274 0.045457
0.601630 -0.015821 0.027067
0.576550 0.001642 0.075281
0.517059 0.024346 0.059494
0.598618 -0.022234 0.015633
0.557169 0.014111 0.081516
0.564549 -0.057074 0.041256
0.528637 -0.038155 0.009233
0.547641 -0.028121 0.064720
0.512641 -0.008208 0.031496
0.587286 -0.005395 0.067023
0.588277 0.042977 0.068671
0.583700 0.067173 0.055801
0.544984 -0.023566 -0.006111
0.594345 -0.033731 0.041019
0.570931 -0.034496 -0.008148
0.562921 -0.050906 -0.003263
0.587051 -0.043037 0.002644
0.592554 -0.042252 0.009885
0.597213 -0.015660 0.050412
0.548335 0.098874 0.069493
0.597386 -0.012621 0.051935
0.601603 0.022966 0.039148
0.558427 0.029478 0.008763
0.561798 0.089689 0.053322
0.540158 -0.055904 0.024613
0.513530 0.040692 0.034509
0.533701 0.057142 0.079609
0.579986 -0.051079 0.001704
0.602620 0.003507 0.044802
0.546029 0.055413 0.083322
0.575183 0.012645 0.003409
0.537688 0.053338 0.081129
0.576838 0.075000 0.053970
0.531146 0.092021 0.037565
0.578574 0.045138 0.023190
0.549929 0.080263 0.035779
0.558944 -0.032287 -0.008780
0.597143 0.041312 0.043370
0.555148 0.050817 0.084106
0.576456 0.075595 0.063926
0.588556 -0.007122 0.003212
0.557052 -0.031063 0.065192
0.600042 0.021494 0.031494
0.543642 -0.057699 0.015207
0.566730 0.065814 0.078665
0.550624 -0.051241 0.045247
0.602748 0.008123 0.031518
0.572616 -0.026924 -0.008503
0.566299 0.067719 0.032838
0.562915 -0.064932 0.012827
0.541089 -0.009911 0.070896
0.526342 -0.029803 0.007432
0.513175 -0.010338 0.033549
0.518552 0.017058 0.017290
0.544996 -0.046909 0.047147
0.596915 -0.009760 0.054272
0.601840 0.020155 0.047073
0.515548 0.046798 0.061346
0.533395 -0.024190 0.059220
0.545790 -0.035598 0.058527
0.599643 -0.026384 0.030383
0.557888 -0.015451 -0.008257
0.570762 -0.053265 0.044736
0.537404 0.024821 0.009313
0.569947 0.042216 0.017290
0.589276 -0.030040 0.000612
0.522550 0.003080 0.009880
0.519655 -0.021935 0.013652
0.534721 -0.019417 0.062907
0.555014 -0.023485 0.069481
0.516212 -0.022216 0.026415
0.530854 0.023652 0.073439
0.552465 -0.011429 0.074199
0.567088 -0.005985 0.076281
0.514120 0.045008 0.057906
0.551341 0.029101 0.008478
0.586074 0.063878 0.054892
0.537185 -0.033091 0.055812
0.513253 0.038370 0.054180
0.552248 -0.050958 -0.001102
0.512606 0.006682 0.023783
0.530947 0.030674 0.074857
0.580709 0.048078 0.026791
0.556180 -0.032717 0.063821
0.594013 -0.017563 0.006199
0.571208 -0.018438 -0.008172
0.525626 0.037422 0.071809
0.559799 -0.041397 0.057342
0.574793 0.056905 0.029082
0.569419 -0.037663 -0.007729
0.553771 -0.063474 0.017836
0.602805 0.011000 0.041146
0.540520 0.055766 0.022467
0.554377 -0.029488 -0.008367
0.538430 0.078213 0.032656
0.547635 0.096283 0.071851
0.582655 0.068493 0.055530
0.527613 0.105656 0.047425
0.586022 0.016506 0.011489
0.561270 -0.065868 0.020293
0.575600 -0.060510 0.032212
0.564744 -0.065866 0.016414
0.533344 -0.032635 0.001383
0.542748 -0.057404 0.025947
0.586910 0.012115 0.070653
0.563775 0.033998 0.011471
0.530138 0.106555 0.060170
0.544933 0.002081 0.076487
0.517468 0.066030 0.067594
0.511247 0.000756 0.031288
0.538020 -0.020366 0.064581
0.556474 -0.055460 0.042226
0.527671 -0.023288 0.004138
0.551630 0.082766 0.078395
0.573281 0.044388 0.019823
0.546907 -0.013973 0.071743
0.597750 -0.033355 0.019165
0.564140 0.070887 0.078453
0.520707 -0.031746 0.028986
0.518464 -0.022920 0.016628
0.589022 -0.035769 0.047719
0.527043 0.075073 0.032517
0.579426 -0.017580 -0.005262
0.549550 -0.053954 0.041071
0.518299 -0.012998 0.047809
0.547105 0.040228 0.083202
0.542272 -0.055286 0.031407
0.525762 0.027476 0.069990
0.578620 -0.058702 0.032508
0.568467 0.077183 0.043192
0.525691 -0.028861 0.046378
0.549912 -0.051711 0.044284
0.602585 -0.005001 0.026767
0.552463 0.076192 0.034004
0.514889 0.022435 0.055618
0.548410 0.098067 0.048411
0.593730 -0.022719 0.005251
0.512158 0.010408 0.047154
0.524634 0.092391 0.037947
0.570704 -0.050513 0.047992
0.585574 0.049298 0.032346
0.595828 0.014781 0.019743
0.523314 0.022470 0.066612
0.529557 -0.019798 0.002066
0.525975 -0.039527 0.017029
0.514861 -0.007799 0.044240
0.582986 0.060998 0.067658
0.559066 0.019300 0.003994
0.568280 0.046591 0.019476
0.571535 0.005111 -0.000890
0.572118 -0.028772 -0.008559
0.583429 -0.023527 0.062038
0.567943 -0.015656 -0.008213
0.577208 -0.005788 0.073138
0.553617 -0.060148 0.007812
0.558839 0.060069 0.082842
0.595375 0.003537 0.060955
0.580086 0.039891 0.075923
0.555947 -0.037010 0.060383
0.559861 -0.015606 0.073348
0.522133 -0.002444 0.009300
0.547767 0.099247 0.069350
0.554754 -0.012111 -0.007269
0.554895 -0.062614 0.029070
0.593910 -0.045081 0.021225
0.567416 0.063582 0.078936
0.567087 0.011944 0.080219
0.514902 0.057910 0.037910
0.534148 0.031511 0.013296
0.553287 -0.017012 -0.007867
0.514230 0.093825 0.044315
0.561803 -0.030882 -0.009193
0.524711 -0.010053 0.058233
0.534038 0.092632 0.074777
0.530345 0.106419 0.060664
0.576955 -0.004533 -0.002943
0.516218 -0.002299 0.016363
0.561999 0.051707 0.021294
0.587282 -0.027111 0.056472
0.512133 0.048414 0.044140
0.568455 -0.026577 0.067285
0.550683 0.030554 0.083043
0.543492 -0.016093 -0.005237
0.574334 0.011883 0.077910
0.594007 0.038228 0.062982
0.598962 -0.029725 0.028097
0.565186 0.016552 0.003197
0.597992 0.028526 0.032336
0.513727 0.070339 0.041345
0.593050 0.033475 0.028728
0.563091 0.049250 0.020000
0.601711 0.012403 0.029960
0.564622 0.004402 0.079381
0.601587 -0.002814 0.023268
0.524126 0.078455 0.074364
0.556237 -0.061175 0.007617
0.520772 0.026851 0.064816
0.548267 -0.004327 -0.004256
0.538736 0.003483 0.000749
0.540108 0.105691 0.057867
0.541225 0.054571 0.021806
0.517799 0.057119 0.033555
0.525378 0.011179 0.009882
0.551158 -0.055460 0.003214
0.581966 0.010707 0.073921
0.584981 -0.044974 0.043820
0.575404 -0.036524 0.058889
0.587180 -0.047395 0.038243
0.528543 -0.028813 0.004596
0.517063 0.085755 0.067838
0.512562 0.016704 0.025651
0.561977 -0.024890 0.069055
0.576401 0.068597 0.041760
0.567070 0.012903 0.080360
0.525731 -0.036434 0.035991
0.553865 0.000628 0.078376
0.588731 -0.000891 0.067084
0.590432 0.014006 0.067767
0.547636 0.102220 0.059167
0.521698 0.026740 0.017942
0.551714 0.090281 0.074704
0.599563 0.012661 0.055209
0.572192 -0.054385 0.000151
0.532968 0.020874 0.074420
0.557905 -0.025588 0.068681
0.511851 0.063581 0.054551
0.542020 -0.006569 0.072561
0.523498 0.028332 0.017271
0.596547 0.032244 0.060269
0.580973 0.061010 0.069783
0.553148 0.098893 0.061301
0.538517 -0.048458 0.038684
0.546602 -0.016156 -0.006223
0.514197 -0.015093 0.030807
0.583020 0.067750 0.053888
0.541484 -0.025618 -0.004641
0.537915 0.044523 0.080682
0.515843 -0.012328 0.018066
0.544023 -0.045644 -0.000360
0.512791 0.089755 0.061802
0.577873 -0.062166 0.025144
0.598549 -0.028452 0.018440
0.557048 0.094996 0.056372
0.584315 0.051846 0.033171
0.572353 -0.010658 -0.006255
0.584211 -0.008954 -0.000566
0.588337 0.009395 0.069209
0.543621 0.064625 0.026354
0.586114 -0.038185 0.049086
0.539984 -0.015892 0.067864
0.590163 0.051046 0.063894
0.516456 -0.001950 0.016004
0.581220 -0.043716 0.048784
0.543380 -0.055432 0.009963
0.516421 -0.017782 0.018757
0.526687 0.024838 0.013909
0.520957 0.037440 0.022902
0.573764 -0.031785 0.062818
0.595076 0.045274 0.043073
0.542773 0.075940 0.031894
0.564628 0.054374 0.023427
0.602580 -0.007456 0.040737
0.566752 0.025042 0.081942
0.522509 0.026293 0.017159
0.532274 0.059436 0.079017
0.545942 -0.055060 0.036363
0.585632 -0.053568 0.031700
0.511959 0.053399 0.050471
0.567497 0.038256 0.082475
0.531372 0.058678 0.078513
0.553883 -0.062434 0.012824
0.578834 -0.060346 0.011392
0.596819 -0.016739 0.010965
0.534376 -0.039976 0.045532
0.559895 0.040638 0.084012
0.531233 0.010939 0.006438
0.536043 0.072685 0.030309
0.543114 -0.056074 0.011592
0.547976 0.094095 0.043999
0.550905 -0.049519 -0.001451
0.590475 0.007728 0.067093
0.589029 0.044043 0.031963
0.577461 0.075175 0.058104
0.544806 0.052742 0.083146
0.543249 0.022330 0.006600
0.581146 -0.008776 0.070159
0.563616 -0.066087 0.018643
0.519158 -0.007852 0.052338
0.599973 0.009164 0.053941
0.600666 -0.020785 0.034473
0.602375 0.008782 0.045636
0.548314 -0.041221 0.054706
0.573198 -0.044095 0.053632
0.560642 -0.021592 -0.009208
0.544584 0.099048 0.070471
0.512493 -0.007263 0.033421
0.532611 0.107274 0.055859
0.576040 0.040996 0.078442
0.512323 0.045548 0.041534
0.531035 0.044098 0.076980
0.598965 0.000844 0.054661
0.516153 -0.000112 0.016585
0.594791 0.006243 0.062182
0.580927 -0.048657 0.043853
0.511362 0.020965 0.030208
0.564686 -0.066099 0.018279
0.600098 0.001188 0.020555
0.513269 0.011491 0.022980
0.560039 -0.062676 0.008249
0.590557 0.004213 0.009252
0.593892 -0.030069 0.045322
0.559907 -0.011127 0.075118
0.518135 0.099310 0.063672
0.574787 0.074675 0.048361
0.567265 -0.047314 0.052119
0.512095 0.021761 0.049147
0.511860 0.074924 0.045482
0.566811 0.021983 0.081578
0.544585 0.082969 0.035939
0.585746 -0.039145 0.048635
0.525687 0.055578 0.074503
0.589427 0.029316 0.021914
0.519888 -0.008168 0.053223
0.516880 -0.006977 0.049129
0.541100 -0.050892 0.005940
0.560551 0.084940 0.044568
0.512679 0.058572 0.043376
0.570203 0.046323 0.019876
0.592680 -0.010448 0.006219
0.585128 0.019845 0.012624
0.579825 -0.017673 -0.005094
0.514318 0.044548 0.034583
0.575328 0.071159 0.070166
0.558138 0.087444 0.045196
0.541877 -0.051497 0.037961
0.528402 0.106402 0.049231
0.600266 -0.009017 0.019312
0.562839 0.000729 0.078748
0.512180 0.092862 0.059607
0.553296 0.065847 0.082686
0.511390 0.072596 0.047647
0.510130 0.017686 0.037173
0.548043 -0.019064 -0.006899
0.571228 -0.031711 0.063760
0.531773 -0.032861 0.050716
0.510720 0.018403 0.043668
0.595970 -0.025455 0.009242
0.574780 0.001648 -0.001432
0.599749 0.032456 0.040417
0.592093 -0.010100 0.005650
0.598625 -0.009045 0.051541
0.576589 0.002284 -0.000530
0.598719 0.002104 0.018313
0.553984 -0.059772 0.006886
0.573092 -0.035510 -0.007459
0.544797 0.089599 0.039653
0.558059 0.030864 0.083591
0.531417 0.089959 0.036891
0.535371 -0.005645 0.069150
0.532617 0.050143 0.078575
0.547569 0.089885 0.040879
0.575150 -0.063943 0.022659
0.511734 0.039457 0.044277
0.574960 0.025932 0.009945
0.512427 0.041674 0.038870
0.559941 -0.039962 0.058594
0.548965 0.015624 0.080669
0.527910 0.092205 0.073387
0.510923 0.080073 0.047940
0.574905 0.038281 0.016853
0.511430 0.083959 0.059391
0.540727 0.049204 0.019362
0.543521 0.000956 -0.001581
0.602037 0.021032 0.042042
0.545995 -0.049879 0.044156
0.571739 0.041603 0.080718
0.564043 0.048597 0.019775
0.539459 -0.019226 -0.003874
0.526651 0.018788 0.068989
0.573838 0.007862 0.000839
0.603474 0.002784 0.033380
0.542491 0.062804 0.082406
0.510183 0.086273 0.051876
0.536203 0.094615 0.073992
0.599524 -0.009079 0.049637
0.603422 -0.004123 0.036770
0.548977 0.033543 0.083047
0.544969 -0.038491 0.055772
0.582713 -0.039209 0.051606
0.547143 -0.001655 0.076149
0.541943 0.067558 0.081962
0.551548 0.059072 0.083578
0.530969 0.105739 0.062596
0.511644 0.075807 0.046038
0.544607 0.101529 0.049802
0.590990 0.009506 0.066820
0.523471 0.058794 0.073044
0.520866 0.090989 0.070032
0.544741 -0.036898 -0.004235
0.516305 0.007769 0.017449
0.577280 -0.050295 -0.000337
0.557542 -0.012682 -0.007683
0.596130 0.040551 0.039615
0.549680 -0.053547 0.041724
0.566148 -0.022775 -0.009331
0.518347 0.022312 0.060904
0.589562 -0.000728 0.006335
0.539938 0.030196 0.079955
0.578420 0.065779 0.040763
0.520953 -0.032176 0.021376
0.529846 0.068473 0.029739
0.602623 0.011305 0.043064
0.536226 -0.018660 0.064313
0.571868 0.046394 0.080180
0.568952 -0.027950 0.066470
0.558100 -0.053293 0.045335
0.570260 -0.051605 0.046866
0.574942 0.013535 0.077874
0.549236 0.017581 0.081051
0.577565 -0.059839 0.031608
0.560554 0.025377 0.082911
0.541965 0.037842 0.013786
0.516587 0.046848 0.031650
0.600711 -0.008876 0.020521
0.578475 -0.004569 -0.002305
0.582813 0.045231 0.026522
0.511658 0.000768 0.039866
0.542512 0.043157 0.016159
0.583651 -0.034373 -0.003034
0.519787 0.031350 0.021382
0.554801 0.081185 0.037937
0.510117 0.015381 0.037423
0.536310 -0.031961 0.056072
0.576846 0.075823 0.057396
0.551989 -0.054216 0.042095
0.593584 -0.045365 0.025181
0.586988 0.062619 0.055474
0.576029 -0.044177 -0.003840
0.597264 0.039282 0.040917
0.597904 -0.016117 0.048782
0.539594 -0.045559 0.002522
0.513798 0.038685 0.055829
0.561341 -0.063795 0.030143
0.596694 -0.018369 0.049593
0.555336 -0.036137 0.060962
0.571951 0.016581 0.004219
0.590897 0.023032 0.067643
0.559821 -0.053509 -0.001582
0.593622 -0.028721 0.005516
0.582473 0.047212 0.027670
0.544382 -0.045159 0.048800
0.586994 0.057104 0.042336
0.530931 0.073839 0.078328
0.514735 0.041881 0.032443
0.600261 0.030937 0.051620
0.511985 -0.002046 0.038750
0.596011 0.046223 0.052371
0.533000 -0.014002 0.064191
0.589546 0.001410 0.007165
0.515247 0.046702 0.033714
0.599720 0.008341 0.054417
0.547188 0.062059 0.025196
0.586220 0.038083 0.024672
0.571982 0.037205 0.080801
0.602799 -0.000950 0.027751
0.527538 0.070829 0.031103
0.520814 0.104989 0.050080
0.518960 0.010746 0.059101
0.513927 0.063818 0.040563
0.591533 -0.033611 0.046081
0.555878 -0.022286 0.070186
0.589518 -0.050615 0.014073
0.562993 -0.064223 0.010745
0.536538 0.087805 0.077067
0.570418 0.003315 0.077876
0.585812 -0.022602 -0.002278
0.540385 0.071536 0.081299
0.598204 0.026317 0.058114
0.560713 -0.060580 0.004636
0.549342 0.058748 0.023626
0.513152 0.071594 0.061342
0.579511 -0.058550 0.031791
0.513563 0.059493 0.059637
0.596601 0.040851 0.041128
0.600949 0.010477 0.026245
0.583700 -0.031466 0.056805
0.601366 0.025016 0.048921
0.577365 -0.021653 0.066679
0.520169 0.072188 0.071227
0.551117 -0.006479 -0.005376
0.599481 0.035641 0.051207
0.511869 0.068902 0.056918
0.580523 0.047664 0.026344
0.556208 -0.060754 0.034055
0.556764 -0.045311 0.053312
0.530815 -0.030510 0.002901
0.545436 -0.020460 -0.006201
0.526513 0.045039 0.022433
0.600878 0.006712 0.051331
0.563479 -0.064410 0.011157
0.539954 0.034036 0.080457
0.561911 -0.015150 -0.008419
0.538133 -0.053017 0.012951
0.573221 0.001276 -0.002031
0.592297 0.035983 0.029652
0.519001 0.053888 0.067761
0.540187 -0.052394 0.034257
0.516827 0.034756 0.025962
0.511535 -0.001216 0.036189
0.520287 0.054363 0.069335
0.559302 -0.010858 0.075204
0.540993 0.034987 0.012712
0.597572 0.032006 0.058537
0.592516 -0.035936 0.005943
0.559802 -0.000553 0.078533
0.574363 0.006737 0.077140
0.553861 -0.054769 0.001091
0.545752 -0.056863 0.032730
0.564848 0.086482 0.070031
0.568177 -0.038442 -0.007698
0.552794 0.091524 0.045010
0.512877 0.038157 0.034957
0.515268 -0.019210 0.028017
0.584304 0.066099 0.053778
0.599396 0.022572 0.055890
0.583364 0.033626 0.019323
0.571632 0.016746 0.004211
0.583599 0.062206 0.066136
0.557513 0.044833 0.084192
0.560152 0.034109 0.011192
0.545209 -0.031150 0.061652
0.565788 0.030614 0.082695
0.583567 -0.056225 0.010997
0.581179 0.050761 0.029181
0.583399 0.045881 0.027516
0.572138 0.050463 0.079391
0.591480 -0.045240 0.033331
0.533512 0.048270 0.020878
0.562946 0.079759 0.041077
0.544268 0.017735 0.004409
0.592120 0.020717 0.019127
0.510868 0.004233 0.031625
0.542990 -0.055896 0.031122
0.574248 0.069158 0.039894
0.519239 -0.027971 0.019855
0.563816 -0.033628 0.063808
0.547270 0.026141 0.007513
0.590491 0.043494 0.066209
0.585256 0.032225 0.072549
0.516407 0.037233 0.060986
0.603008 -0.001981 0.041758
0.563421 0.076456 0.076804
0.544154 0.022875 0.080533
0.561835 -0.027730 -0.009394
0.602132 0.002859 0.026104
0.511965 0.096467 0.052565
0.517177 -0.010416 0.015092
0.594782 -0.033335 0.040478
0.598186 -0.023353 0.042072
0.534780 -0.021981 0.061595
0.570547 0.032624 0.011980
0.578903 0.069312 0.046552
0.556558 0.014929 0.081620
0.527594 0.054213 0.075797
0.550762 0.018980 0.081562
0.600705 -0.018214 0.038566
0.542769 -0.046109 0.046454
0.599327 0.035845 0.051820
0.560658 0.001854 0.079151
0.518868 0.015788 0.016572
0.553689 0.054878 0.021964
0.580147 0.058135 0.034445
0.582794 -0.011858 -0.002245
0.553187 0.097924 0.067274
0.526563 -0.013843 0.004407
0.600770 0.030843 0.048291
0.564111 0.088964 0.067566
0.543384 -0.057258 0.028079
0.512914 0.095749 0.059247
0.578810 0.040641 0.076725
0.531566 0.076091 0.032028
0.562560 -0.038348 0.060171
0.511927 0.056301 0.047544
0.590192 0.053638 0.043622
0.558818 -0.053370 0.045377
0.529299 -0.038194 0.040383
0.511110 0.019256 0.030451
0.513030 0.018078 0.051173
0.578627 0.049234 0.075476
0.601348 0.018932 0.050122
0.534991 -0.006198 -0.000205
0.543286 -0.043518 0.049920
0.586878 -0.002469 0.003482
0.560206 0.091594 0.054481
0.562736 -0.034171 0.063428
0.532574 -0.019435 -0.000132
0.589914 0.054714 0.044669
0.574570 0.032850 0.079608
0.520638 0.062879 0.032291
0.565483 -0.060704 0.036059
0.579300 0.062693 0.038191
0.525190 0.069127 0.075228
0.595190 0.045300 0.057901
0.601639 0.025604 0.044984
0.561234 -0.026996 -0.009376
0.530684 0.022737 0.011068
0.578867 -0.034265 -0.005649
0.528619 -0.044449 0.024060
0.597300 -0.022774 0.011953
0.570437 0.068373 0.035686
0.516749 0.041349 0.062336
0.511535 0.082026 0.045918
0.602351 0.014796 0.043938
0.572119 -0.064646 0.025147
0.531512 0.096538 0.039398
0.548551 0.007876 0.079074
0.517943 0.047928 0.030310
0.536068 -0.042891 0.043756
0.584976 -0.033156 -0.002379
0.532836 0.019644 0.008914
0.597444 -0.013022 0.012677
0.583648 0.066346 0.051667
0.564416 0.065871 0.079799
0.569101 0.057143 0.026467
0.528409 0.075244 0.032266
0.526550 -0.040938 0.018297
0.569357 0.054325 0.080137
0.529152 0.063910 0.077557
0.560739 -0.053608 -0.001631
0.592186 -0.041343 0.008413
0.578674 0.073694 0.058301
0.600367 0.033134 0.047427
0.593163 -0.015017 0.057063
0.538478 0.102250 0.046013
0.522148 -0.033160 0.031998
0.596956 0.007620 0.059407
0.525009 0.088065 0.036699
0.598055 0.035556 0.038667
0.532912 -0.049800 0.021400
0.567436 0.044140 0.082311
0.521921 -0.030526 0.036526
0.565615 0.055229 0.081643
0.523894 0.001319 0.008399
0.544331 0.085785 0.078086
0.600325 0.029950 0.051904
0.586086 -0.017948 -0.001461
0.535848 0.091027 0.037938
0.525212 0.105181 0.060835
0.538396 0.102803 0.068014
0.601599 -0.007529 0.023228
0.522266 -0.028575 0.012857
0.539662 -0.050884 0.007386
0.588535 -0.053179 0.018314
0.556746 -0.030339 0.065651
0.524842 -0.013282 0.056835
0.523566 -0.036073 0.029849
0.551052 0.043926 0.015772
0.524662 -0.028228 0.045355
0.537316 -0.018235 -0.002826
0.513896 -0.013582 0.027338
0.563588 0.016574 0.081498
0.545963 0.005872 0.077840
0.541042 0.019266 0.078731
0.566155 -0.063624 0.030924
0.571809 0.016226 0.004015
0.521269 -0.010702 0.053770
0.577380 0.024934 0.010552
0.511289 0.080534 0.046637
0.589416 -0.004904 0.004686
0.519209 0.039734 0.065502
0.569197 0.079058 0.046643
0.516104 -0.016094 0.018766
0.523718 -0.014630 0.054782
0.568386 0.039080 0.015047
0.518436 -0.020461 0.015272
0.561807 -0.063926 0.029969
0.556435 -0.059331 0.004657
0.562883 0.090691 0.059102
0.560296 -0.019573 0.071628
0.557474 -0.062161 0.031989
0.598087 0.024526 0.058436
0.591658 -0.025312 0.052624
0.514113 0.077156 0.041108
0.597146 -0.022757 0.011586
0.518954 0.099882 0.043679
0.512828 0.059708 0.057589
0.571102 0.082695 0.062191
0.517403 -0.009611 0.048463
0.598549 -0.029468 0.032791
0.518040 0.103677 0.055158
0.533892 -0.008470 0.067116
0.600458 0.025442 0.052799
0.541186 -0.034697 -0.003126
0.515913 0.075829 0.038775
0.583776 -0.005382 0.000295
0.593090 0.039835 0.033660
0.540145 0.102482 0.068147
0.567000 0.087076 0.061447
0.600103 -0.013617 0.045284
0.581018 0.014118 0.006991
0.588335 0.011884 0.069476
0.561479 -0.054235 -0.001285
0.519016 0.079303 0.070157
0.572059 0.061950 0.076589
0.563180 0.062697 0.028347
0.526069 -0.040034 0.017930
0.530969 -0.017156 0.000955
0.576472 -0.004396 -0.003081
0.516744 0.033028 0.060680
0.524823 -0.036963 0.032417
0.518874 -0.016635 0.046087
0.587961 -0.049867 0.033612
0.563955 -0.005671 -0.005747
0.602686 0.007619 0.030744
0.575215 0.024922 0.009519
0.534240 0.041890 0.078643
0.602619 0.013063 0.041647
0.540866 0.076169 0.080672
0.548332 0.094051 0.073219
0.546388 0.045120 0.083311
0.521923 -0.018647 0.049716
0.522984 -0.020885 0.008622
0.532770 -0.020174 -0.000244
0.576406 0.037224 0.078502
0.511680 0.035835 0.039041
0.587462 0.042584 0.029067
0.601804 0.016613 0.034046
0.562157 0.006102 -0.001461
0.580330 -0.052135 0.040212
0.526340 0.010424 0.009019
0.527180 0.098089 0.070338
0.521892 0.009779 0.012074
0.514107 0.097242 0.060279
0.559030 0.017116 0.002998
0.536119 -0.039545 0.048201
0.522100 0.010718 0.062644
0.588760 0.042758 0.068223
0.530165 0.101137 0.041989
0.583700 -0.036064 0.053308
0.523707 0.105238 0.059598
0.595704 -0.016728 0.052380
0.531878 0.106637 0.060597
0.587579 -0.009611 0.001639
0.585342 -0.023106 0.060753
0.538887 -0.018553 0.066012
0.517108 -0.012153 0.015436
0.560003 0.014916 0.081613
0.597969 -0.033811 0.025221
0.550755 0.089247 0.041897
0.512370 0.022537 0.050009
0.588878 -0.051881 0.015014
0.544671 -0.056230 0.032701
0.552606 0.053178 0.083995
0.541883 0.095060 0.073576
0.529480 -0.032306 0.048287
0.520208 0.069801 0.071130
0.600638 -0.021882 0.027442
0.541043 -0.055954 0.015018
0.599817 0.017105 0.054869
0.515197 0.017636 0.055336
0.517110 0.011551 0.017314
0.577172 -0.053034 0.041641
0.588641 0.046249 0.033352
0.557205 -0.064839 0.022319
0.551336 0.095706 0.071162
0.597427 0.035359 0.037003
0.520781 0.067441 0.071482
0.581737 0.069415 0.054344
0.522085 -0.007985 0.056131
0.568645 0.038385 0.082098
0.520520 0.030185 0.020263
0.527052 0.045442 0.022321
0.601882 0.021231 0.046369
0.520811 -0.032199 0.027536
0.598994 0.026932 0.056469
0.576209 0.060409 0.032908
0.540778 0.032534 0.080604
0.512342 -0.004349 0.027173
0.517932 -0.022549 0.037338
0.552503 -0.061821 0.028699
0.516592 0.088423 0.040415
0.514209 0.066045 0.062488
0.525027 0.006452 0.008757
0.513566 0.093308 0.062010
0.514529 -0.007858 0.043289
0.544304 0.100958 0.068815
0.529740 0.045741 0.021203
0.592069 0.021319 0.066436
0.548769 0.013197 0.001703
0.581480 -0.023561 -0.004976
0.520663 -0.021520 0.011850
0.601411 0.006221 0.049694
0.570578 0.082895 0.057971
0.556957 0.078872 0.037151
0.532181 -0.017014 0.062131
0.587634 0.038524 0.069982
0.546706 0.079141 0.080228
0.523698 -0.035695 0.031510
0.511246 0.029070 0.044972
0.521675 -0.009559 0.009158
0.536341 0.106578 0.060486
0.575559 0.062599 0.073851
0.563812 0.019105 0.004240
0.536075 0.094660 0.039591
0.564002 0.070855 0.078532
0.526461 -0.039415 0.031943
0.592024 0.001847 0.064574
0.532268 -0.017211 0.062105
0.516726 0.039039 0.061852
0.530044 0.035557 0.016679
0.515702 0.026702 0.057781
0.595648 -0.039729 0.016935
0.521460 -0.032697 0.020110
0.568129 0.075198 0.074393
0.514774 0.002347 0.019038
0.577817 0.073832 0.063601
0.519054 -0.027232 0.033257
0.548946 0.023928 0.006309
0.510426 0.017653 0.033237
0.581427 -0.037078 -0.003743
0.583539 -0.014634 -0.002460
0.573496 -0.015443 0.071073
0.543720 -0.004548 -0.003171
0.588969 0.045253 0.032901
0.538197 -0.048573 0.038078
0.596262 0.001053 0.059195
0.597875 -0.028442 0.037322
0.536481 -0.031075 0.056919
0.517317 0.056696 0.034030
0.596771 -0.035515 0.031366
0.598039 0.019502 0.058552
0.517310 -0.000658 0.053051
0.534455 0.058618 0.080010
0.535184 -0.006784 0.068627
0.557286 0.006596 0.080184
0.551098 -0.057042 0.005102
0.560647 0.003664 0.079577
0.541230 -0.005153 -0.002525
0.562436 -0.005647 -0.005815
0.560057 -0.039299 -0.007561
0.549339 0.025385 0.006927
0.603044 0.009548 0.037875
0.540834 -0.048956 0.040711
0.530504 0.009490 0.070088
0.531908 -0.015150 0.000381
0.577358 -0.047828 -0.001637
0.547761 0.089719 0.040851
0.601592 0.007505 0.026426
0.537923 -0.026291 0.061197
0.510241 0.013490 0.039181
0.544440 0.103848 0.058193
0.524459 0.027704 0.016386
0.564609 0.078015 0.075501
0.531904 0.019837 0.073449
0.591234 0.021867 0.018943
0.547670 0.028438 0.082248
0.574760 -0.035362 0.060059
0.602604 -0.007162 0.040856
0.551296 -0.010073 0.074450
0.599369 0.034339 0.053105
0.583815 -0.007476 0.068916
0.599861 -0.007749 0.018388
0.519323 0.019649 0.061604
0.600623 0.020643 0.032556
0.565108 0.085724 0.070493
0.572064 -0.065057 0.022717
0.529896 0.081575 0.076990
0.587446 -0.029591 -0.001016
0.535834 -0.043332 0.042846
0.523254 -0.027391 0.043828
0.577133 0.062016 0.035190
0.516567 0.012938 0.056493
0.519931 -0.007281 0.053723
0.526355 0.091577 0.072958
0.511316 0.015012 0.045769
0.560172 -0.040813 -0.007149
0.550598 0.052459 0.083933
0.541819 0.104618 0.063894
0.555312 -0.049789 -0.002827
0.525827 -0.028114 0.007380
0.550733 0.070011 0.082143
0.532712 -0.041301 0.006136
0.518451 0.012463 0.058915
0.548346 0.088861 0.076218
0.602611 0.007744 0.044470
0.577417 0.052576 0.075555
0.587717 -0.018220 0.061337
0.546742 0.023143 0.006261
0.589909 -0.009974 0.003503
0.536181 0.104768 0.065508
0.528059 -0.007436 0.003731
0.569299 -0.040994 -0.006791
0.573891 0.047136 0.078962
0.565417 0.038204 0.013960
0.556387 0.039525 0.013691
0.533778 0.060142 0.079752
0.529646 -0.044369 0.029615
0.511891 0.037607 0.047614
0.519454 -0.017885 0.046138
0.591408 -0.049462 0.022010
0.562940 0.051461 0.021304
0.561935 -0.004374 -0.005406
0.578981 0.053358 0.029353
0.586921 0.046127 0.069311
0.511023 0.003728 0.038577
0.510460 0.009350 0.038909
0.566294 0.078732 0.074083
0.559984 0.033124 0.010680
0.516459 0.064087 0.065949
0.533332 0.055675 0.079360
0.512119 0.088523 0.045482
0.576999 0.074982 0.063596
0.582195 0.027600 0.014907
0.594593 0.037979 0.034310
0.581007 -0.052656 0.038962
0.574526 -0.058045 0.036803
0.590192 -0.009420 0.003926
0.520912 0.104539 0.048480
0.584370 0.043789 0.072098
0.602686 0.012934 0.038054
0.525738 0.027928 0.070061
0.581616 -0.041496 -0.002209
0.550591 0.095922 0.047847
0.537070 -0.048466 0.007455
0.548261 0.003109 0.077847
0.526367 -0.041347 0.023669
0.527869 -0.022479 0.003820
0.554773 0.054814 0.022065
0.557610 -0.060758 0.034702
0.559911 -0.065365 0.023832
0.556323 0.064477 0.027904
0.597271 0.020922 0.059824
0.547388 -0.043206 0.052508
0.556974 -0.042033 -0.006405
0.593814 -0.043845 0.015631
0.599544 0.014263 0.055350
0.591770 0.023701 0.020632
0.600787 0.013811 0.027930
0.581872 -0.015214 0.067216
0.599043 -0.028859 0.022794
0.565161 -0.060611 0.036224
0.596794 0.022844 0.026130
0.582160 -0.005153 0.070693
0.577359 0.026758 0.077946
0.575455 -0.048176 -0.002270
0.582933 0.043930 0.025709
0.557958 0.019530 0.004035
0.573795 -0.002231 -0.003196
0.545753 0.088862 0.076596
0.603043 0.008781 0.040079
0.582718 -0.023089 0.062791
0.597331 -0.024913 0.012385
0.546784 0.009565 0.078946
0.526020 -0.036495 0.036569
0.595793 0.020786 0.023354
0.545635 0.030855 0.009897
0.567219 0.067023 0.032731
0.539769 0.087814 0.037335
0.547973 0.050033 0.018994
0.524680 -0.030487 0.010049
0.526945 -0.039223 0.033714
0.574082 -0.040181 0.056649
0.547231 -0.060093 0.025509
0.528723 0.063573 0.028452
0.511308 0.004240 0.028411
0.552794 -0.026716 -0.008194
0.579204 -0.032813 0.059294
0.588840 -0.025137 0.056152
0.524237 0.103150 0.063922
0.535143 -0.047953 0.009348
0.510714 0.007978 0.030896
0.571117 -0.042485 0.055811
0.535636 -0.022894 0.061703
