ply
format ascii 1.0
element vertex 1024
property float x
property float y
property float z
end_header
0.486737 0.145069 0.012654
0.510016 0.063250 0.012259
0.512284 0.058648 0.011582
0.480300 0.178173 0.084264
0.559690 0.074906 0.053404
0.481815 0.099882 0.038570
0.474623 0.168720 0.081397
0.552990 0.151889 0.048808
0.510995 0.051707 0.036331
0.497234 0.093380 0.057204
0.535503 0.163894 0.078871
0.506943 0.199436 0.067516
0.566533 0.089077 0.044068
0.556882 0.104901 0.069961
0.537142 0.147721 0.084294
0.506588 0.096745 0.067000
0.492557 0.082642 0.033137
0.489818 0.176172 0.089486
0.467726 0.168666 0.033116
0.512670 0.143578 0.090765
0.561492 0.107602 0.066060
0.538017 0.035901 0.036166
0.470579 0.190920 0.062514
0.534127 0.071047 0.005400
0.513617 0.039512 0.019466
0.504514 0.122449 0.006416
0.478990 0.179306 0.030091
0.515056 0.172374 0.021347
0.533293 0.128652 0.009218
0.488410 0.180912 0.027323
0.509423 0.088234 0.062362
0.519250 0.130640 0.087390
0.564029 0.072095 0.044891
0.557077 0.067959 0.019012
0.533136 0.167209 0.027581
0.553296 0.124526 0.022095
0.516074 0.089164 0.066169
0.507634 0.154096 0.092470
0.498815 0.180870 0.025489
0.557040 0.066640 0.050404
0.509017 0.186591 0.084385
0.534419 0.178314 0.050092
0.522537 0.151730 0.012319
0.511495 0.177254 0.088566
0.486468 0.177299 0.087960
0.519320 0.151404 0.090782
0.562882 0.082324 0.054167
0.532793 0.145733 0.013961
0.470251 0.169281 0.076271
0.511889 0.044171 0.017745
0.510609 0.044264 0.021012
0.530236 0.166326 0.081990
0.549693 0.147954 0.031566
0.504770 0.107079 0.006767
0.518738 0.170201 0.087798
0.544035 0.131142 0.015589
0.501669 0.196188 0.042363
0.461306 0.163966 0.044734
0.513917 0.166458 0.017047
0.473691 0.133423 0.021025
0.549631 0.156835 0.043981
0.565686 0.111428 0.048883
0.561198 0.085639 0.058198
0.466864 0.153162 0.068565
0.529067 0.182787 0.064779
0.480289 0.170933 0.085910
0.473100 0.184709 0.075145
0.496038 0.185029 0.087507
0.504844 0.186741 0.085823
0.542566 0.167574 0.061717
0.555037 0.046739 0.028332
0.544584 0.164918 0.061042
0.549612 0.130919 0.077368
0.501625 0.108519 0.072337
0.551030 0.057545 0.048189
0.474163 0.185975 0.038848
0.490728 0.087643 0.024905
0.539215 0.083191 0.006447
0.488146 0.190470 0.082650
0.548287 0.150333 0.071622
0.549693 0.088889 0.011594
0.504754 0.128800 0.085438
0.541856 0.088149 0.007506
0.557548 0.075981 0.055935
0.520109 0.044487 0.040028
0.529702 0.101262 0.076618
0.528486 0.060964 0.052380
0.472214 0.165236 0.078746
0.554712 0.112691 0.073368
0.555175 0.096025 0.016488
0.564003 0.076456 0.048337
0.508060 0.151467 0.092142
0.519884 0.172074 0.022552
0.543064 0.130972 0.081874
0.469866 0.187615 0.047940
0.564058 0.084577 0.029856
0.496359 0.187017 0.030893
0.541008 0.144456 0.082122
0.483459 0.164205 0.088140
0.534200 0.077342 0.063917
0.479529 0.199874 0.061570
0.518811 0.147969 0.010201
0.460997 0.155158 0.045512
0.474782 0.135838 0.019607
0.475913 0.109550 0.038355
0.494984 0.181471 0.026266
0.546638 0.162336 0.059315
0.554155 0.134573 0.071303
0.511570 0.085549 0.006937
0.501585 0.157901 0.012218
0.506355 0.172291 0.019594
0.527919 0.176145 0.077017
0.476797 0.149014 0.079569
0.509389 0.194806 0.044289
0.486034 0.106812 0.057573
0.518980 0.100812 0.075006
0.500083 0.173119 0.091956
0.469687 0.123131 0.044919
0.462772 0.146445 0.037373
0.506337 0.154189 0.010885
0.523528 0.164782 0.018875
0.468691 0.147175 0.025571
0.523297 0.113411 0.005377
0.528422 0.153140 0.015051
0.541537 0.152520 0.023735
0.507790 0.086428 0.008357
0.496413 0.106758 0.067846
0.561274 0.089358 0.060063
0.499344 0.167065 0.016242
0.502780 0.092040 0.009810
0.467104 0.181866 0.066510
0.472994 0.118395 0.028433
0.526367 0.106940 0.005177
0.534417 0.099517 0.075672
0.517890 0.173228 0.022812
0.510724 0.163323 0.092324
0.485207 0.155778 0.087929
0.522666 0.098620 0.004712
0.513578 0.181778 0.029035
0.534427 0.089667 0.071075
0.478580 0.173542 0.084244
0.476912 0.196379 0.051991
0.548225 0.142856 0.075315
0.505979 0.079894 0.053331
0.470145 0.161285 0.075752
0.517855 0.059163 0.046911
0.555337 0.049264 0.025822
0.560685 0.084047 0.057862
0.528166 0.031653 0.031906
0.518720 0.129262 0.086987
0.483019 0.201141 0.054821
0.502373 0.201655 0.055977
0.482879 0.201714 0.059996
0.461040 0.159207 0.054301
0.476393 0.188314 0.039388
0.556928 0.140533 0.043013
0.508448 0.106118 0.074350
0.538559 0.033017 0.024177
0.528692 0.138371 0.009923
0.522687 0.068591 0.005725
0.475235 0.124484 0.021279
0.509445 0.156254 0.011702
0.497184 0.192392 0.036512
0.461678 0.148988 0.049577
0.558416 0.064020 0.022045
0.523598 0.100026 0.075559
0.522202 0.153634 0.012936
0.517174 0.180904 0.083337
0.563621 0.078977 0.028884
0.470683 0.157837 0.025534
0.463612 0.147374 0.034262
0.529178 0.183928 0.056058
0.508941 0.058774 0.039170
0.493071 0.157720 0.091263
0.492069 0.188792 0.032988
0.486922 0.141519 0.012055
0.545876 0.103598 0.010671
0.480277 0.186796 0.035248
0.518628 0.107885 0.005029
0.505195 0.200862 0.057948
0.545304 0.070199 0.058703
0.486423 0.158578 0.016186
0.495094 0.187143 0.031089
0.533897 0.156308 0.084067
0.527874 0.065366 0.054908
0.500154 0.107805 0.008010
0.540994 0.045088 0.043990
0.508382 0.168021 0.092260
0.489145 0.117431 0.011155
0.515953 0.042263 0.035503
0.512302 0.192555 0.042137
0.541802 0.100435 0.074873
0.530436 0.134740 0.087094
0.513232 0.111523 0.005368
0.462654 0.145993 0.052756
0.464180 0.165386 0.037022
0.483728 0.135163 0.013041
0.566673 0.092658 0.048199
0.495928 0.117811 0.075157
0.520552 0.096424 0.072777
0.497174 0.134376 0.085388
0.482532 0.165805 0.087644
0.538326 0.172324 0.043102
0.483737 0.152173 0.086127
0.546547 0.154949 0.032753
0.471199 0.192019 0.059731
0.559635 0.088187 0.020904
0.553890 0.150041 0.054831
0.563862 0.112784 0.037745
0.514201 0.176835 0.024732
0.531758 0.159181 0.020076
0.467386 0.128181 0.044451
0.554660 0.046201 0.028107
0.476259 0.145037 0.077151
0.485329 0.197193 0.044461
0.512403 0.191136 0.077949
0.564053 0.086928 0.029852
0.549419 0.135967 0.022831
0.498999 0.072106 0.025225
0.488370 0.099968 0.053223
0.473402 0.149186 0.076076
0.513348 0.038578 0.024080
0.474339 0.164697 0.081093
0.499089 0.141819 0.008843
0.546753 0.049063 0.014287
0.538988 0.033264 0.023930
0.496735 0.144884 0.089389
0.467969 0.127120 0.035318
0.518902 0.089932 0.067872
0.536281 0.176214 0.049375
0.498369 0.081020 0.017688
0.530492 0.171418 0.029001
0.545397 0.113811 0.012047
0.468610 0.145735 0.067780
0.552909 0.137891 0.029311
0.564518 0.116962 0.056350
0.524957 0.178851 0.077893
0.498837 0.122127 0.079464
0.544273 0.123794 0.080695
0.504112 0.060366 0.023302
0.539936 0.117227 0.080693
0.518084 0.092434 0.069275
0.540529 0.139910 0.083085
0.544932 0.142299 0.020980
0.531550 0.153535 0.086264
0.535422 0.059548 0.006470
0.472584 0.193742 0.061483
0.511583 0.106411 0.005530
0.476041 0.136092 0.071522
0.475028 0.126456 0.062411
0.543704 0.036505 0.032351
0.505680 0.081159 0.054152
0.497911 0.073206 0.030283
0.474041 0.116280 0.047695
0.467856 0.186316 0.062069
0.555231 0.140791 0.037168
0.521094 0.191020 0.055262
0.526854 0.181928 0.038698
0.518239 0.193319 0.060587
0.460951 0.154540 0.049184
0.528391 0.049789 0.007511
0.477151 0.109090 0.028148
0.527661 0.168115 0.023613
0.547329 0.080515 0.064016
0.549783 0.135068 0.022824
0.477388 0.164573 0.023090
0.535698 0.142597 0.014227
0.552003 0.152994 0.045395
0.558032 0.139442 0.047693
0.548753 0.042165 0.035941
0.481382 0.101367 0.041035
0.558268 0.056488 0.025701
0.555711 0.141954 0.062898
0.480745 0.191133 0.078305
0.524587 0.116781 0.005721
0.524386 0.167535 0.021134
0.509495 0.067753 0.011467
0.521538 0.145265 0.009951
0.482659 0.100309 0.042898
0.562728 0.123072 0.059364
0.566677 0.092299 0.045293
0.552995 0.047190 0.037600
0.484472 0.180055 0.028132
0.470100 0.146597 0.070552
0.472284 0.140333 0.021782
0.559639 0.084670 0.059241
0.464797 0.154249 0.064936
0.539116 0.096527 0.006990
0.465867 0.136721 0.032667
0.463458 0.174490 0.061149
0.522643 0.044038 0.009650
0.498814 0.203077 0.062548
0.518700 0.176404 0.084958
0.551309 0.051464 0.043395
0.542224 0.097742 0.073720
0.489558 0.148957 0.088135
0.502023 0.151488 0.091890
0.556164 0.143367 0.044718
0.513300 0.072853 0.053479
0.527346 0.185522 0.052853
0.514286 0.152968 0.011055
0.566236 0.103776 0.054595
0.468002 0.126817 0.035781
0.522121 0.189294 0.049234
0.466906 0.184780 0.051930
0.465111 0.142145 0.031914
0.481630 0.104173 0.047104
0.487288 0.091572 0.038065
0.529698 0.177404 0.035229
0.554253 0.108289 0.072679
0.519695 0.062510 0.050077
0.522915 0.088422 0.068315
0.542350 0.160252 0.073382
0.554187 0.123642 0.022812
0.481298 0.101939 0.042101
0.538514 0.080527 0.006209
0.486145 0.188235 0.033996
0.511042 0.197962 0.063742
0.503882 0.076973 0.013424
0.558956 0.111387 0.024401
0.537334 0.080922 0.005905
0.474002 0.194845 0.055915
0.490978 0.200043 0.073628
0.516045 0.163919 0.090713
0.488606 0.171581 0.021270
0.555399 0.107068 0.018526
0.475767 0.117833 0.054083
0.513025 0.063433 0.046463
0.467603 0.185500 0.050470
0.536620 0.048218 0.046541
0.466368 0.180065 0.066049
0.555764 0.145333 0.047512
0.542394 0.106393 0.076836
0.560749 0.076477 0.053286
0.547941 0.091043 0.010619
0.487568 0.110582 0.063156
0.546437 0.158598 0.037223
0.483497 0.201849 0.057568
0.492014 0.137414 0.009831
0.554129 0.145244 0.063716
0.532970 0.171608 0.075278
0.550223 0.145353 0.071438
0.503933 0.177926 0.023464
0.519633 0.187853 0.040304
0.476268 0.155541 0.081394
0.553130 0.045583 0.025156
0.475132 0.132706 0.019602
0.537653 0.032565 0.029095
0.563038 0.110836 0.033334
0.495943 0.083494 0.019429
0.531787 0.094477 0.005174
0.551446 0.152924 0.061574
0.468716 0.125052 0.035356
0.555090 0.147444 0.053840
0.517218 0.193325 0.052153
0.480572 0.105222 0.024448
0.483996 0.202133 0.058542
0.529916 0.148986 0.087758
0.474346 0.113934 0.030012
0.475192 0.196358 0.063342
0.516765 0.142001 0.090244
0.532662 0.179677 0.061692
0.534275 0.155151 0.019296
0.530399 0.036763 0.012854
0.552342 0.075037 0.058726
0.513574 0.188985 0.037165
0.493764 0.106873 0.010916
0.506891 0.055946 0.019512
0.553086 0.126519 0.022775
0.525685 0.056842 0.049053
0.526512 0.186272 0.052839
0.529841 0.081726 0.004801
0.531717 0.119319 0.082914
0.493009 0.138031 0.009616
0.488583 0.135543 0.010821
0.464022 0.179337 0.053941
0.543010 0.060670 0.053351
0.501246 0.071456 0.019766
0.522069 0.097290 0.073714
0.511914 0.156183 0.092238
0.519833 0.125964 0.085932
0.493431 0.157945 0.091390
0.492462 0.084226 0.025804
0.566012 0.081054 0.042445
0.542488 0.057657 0.051580
0.485430 0.183843 0.030537
0.530120 0.031386 0.031164
0.526202 0.158573 0.087639
0.542196 0.145186 0.019863
0.521694 0.040657 0.011234
0.557396 0.081057 0.018029
0.507300 0.058266 0.017326
0.483327 0.108776 0.018079
0.469797 0.149701 0.071674
0.528582 0.176697 0.032868
0.492310 0.164665 0.016503
0.488218 0.109021 0.013711
0.511751 0.171738 0.090451
0.498045 0.138554 0.087533
0.551963 0.121517 0.076278
0.511236 0.155615 0.092315
0.546240 0.161844 0.062554
0.500080 0.138588 0.088123
0.527757 0.147452 0.088625
0.470956 0.191663 0.060704
0.481941 0.172611 0.086703
0.530231 0.051045 0.047177
0.550963 0.115750 0.016526
0.519245 0.046445 0.040475
0.514959 0.142038 0.008223
0.535718 0.089392 0.005711
0.533043 0.051731 0.048120
0.494767 0.203674 0.062407
0.495538 0.089416 0.016309
0.512818 0.116886 0.081929
0.493119 0.086891 0.021043
0.514923 0.180604 0.028358
0.538236 0.127194 0.010994
0.541464 0.047504 0.011243
0.509377 0.051070 0.017648
0.520968 0.105954 0.078147
0.518403 0.048857 0.009893
0.502144 0.085821 0.055036
0.476067 0.129993 0.067007
0.551244 0.133217 0.075279
0.492835 0.184237 0.028815
0.561731 0.109257 0.028879
0.518403 0.093308 0.069996
0.465785 0.147678 0.063757
0.516021 0.116273 0.005376
0.500719 0.132645 0.085926
0.541158 0.149950 0.080608
0.548821 0.080731 0.010786
0.513282 0.045426 0.014932
0.548324 0.047728 0.016520
0.545602 0.161921 0.064559
0.541311 0.156879 0.077267
0.545098 0.110473 0.011261
0.503121 0.174476 0.020778
0.526342 0.185784 0.048624
0.528900 0.142527 0.011205
0.549553 0.076009 0.011296
0.554769 0.087073 0.015448
0.540489 0.034317 0.022824
0.507367 0.055109 0.019055
0.540293 0.040845 0.040845
0.556467 0.143766 0.048255
0.528295 0.077854 0.004796
0.534016 0.046196 0.008971
0.463991 0.165956 0.065499
0.471716 0.117720 0.035706
0.485159 0.188694 0.082479
0.477752 0.146352 0.079228
0.551317 0.112680 0.075413
0.492708 0.188520 0.032634
0.479655 0.158269 0.084972
0.505989 0.109550 0.006334
0.512698 0.146057 0.091202
0.535811 0.110631 0.007239
0.547241 0.083667 0.065766
0.465725 0.157437 0.031314
0.507109 0.065539 0.042334
0.549450 0.142736 0.073801
0.508528 0.154076 0.010914
0.562882 0.104688 0.029907
0.529895 0.172772 0.029779
0.500995 0.191175 0.035511
0.510931 0.193330 0.042560
0.553794 0.136498 0.029924
0.539253 0.125461 0.011110
0.503536 0.201526 0.057795
0.550626 0.121612 0.018051
0.495982 0.096319 0.058717
0.492786 0.082372 0.029742
0.527347 0.158710 0.087047
0.498198 0.145439 0.089909
0.534859 0.102806 0.076934
0.481162 0.125586 0.015162
0.499491 0.091713 0.057912
0.492506 0.175152 0.090481
0.483679 0.096829 0.037738
0.533556 0.061773 0.054081
0.482803 0.110987 0.017624
0.499242 0.165766 0.015599
0.560048 0.075599 0.053482
0.494355 0.189877 0.033800
0.514693 0.191767 0.074757
0.561919 0.090888 0.060089
0.483796 0.182117 0.084958
0.552583 0.114369 0.075045
0.541838 0.168022 0.063334
0.462306 0.173439 0.056100
0.504334 0.092092 0.008976
0.490156 0.200335 0.047768
0.540867 0.169896 0.061679
0.514416 0.175894 0.023999
0.504208 0.124209 0.083155
0.560937 0.131002 0.049113
0.471287 0.186460 0.071559
0.506709 0.173714 0.091311
0.535963 0.100960 0.076080
0.496162 0.179822 0.024829
0.551658 0.094603 0.069252
0.541383 0.066388 0.007470
0.490557 0.086631 0.027370
0.559233 0.124405 0.068100
0.479823 0.128223 0.015890
0.561293 0.108740 0.066476
0.507587 0.148694 0.009411
0.513865 0.144121 0.090815
0.493170 0.082355 0.027307
0.554024 0.146006 0.063102
0.514254 0.076203 0.056397
0.533894 0.110376 0.079743
0.560655 0.113511 0.028479
0.535888 0.152642 0.083933
0.507101 0.062783 0.040068
0.525000 0.030591 0.025382
0.501814 0.120495 0.006770
0.501812 0.066521 0.023276
0.530479 0.182430 0.059174
0.524945 0.163980 0.019055
0.503022 0.194266 0.079760
0.478424 0.198984 0.063252
0.548566 0.054643 0.013679
0.547641 0.144862 0.025790
0.497978 0.164709 0.092672
0.549212 0.071699 0.011215
0.560711 0.128934 0.061388
0.473904 0.194150 0.066714
0.513738 0.079796 0.058608
0.517228 0.061320 0.008173
0.505386 0.200898 0.059085
0.512819 0.072723 0.008342
0.552727 0.112709 0.074629
0.536989 0.141083 0.085133
0.532730 0.179331 0.046279
0.556477 0.130035 0.070166
0.537726 0.169299 0.035870
0.528766 0.063965 0.005493
0.476645 0.138843 0.073987
0.559810 0.119666 0.068427
0.512635 0.062985 0.010319
0.533873 0.099803 0.075837
0.490065 0.196391 0.041823
0.507669 0.184133 0.029596
0.460912 0.156622 0.051748
0.468036 0.150339 0.069281
0.493076 0.085944 0.042929
0.552317 0.147535 0.065977
0.478977 0.199351 0.063243
0.537285 0.107050 0.007311
0.479569 0.149894 0.082370
0.465946 0.181291 0.046528
0.496461 0.138379 0.086912
0.540761 0.114734 0.079794
0.520274 0.080581 0.005234
0.481558 0.183768 0.032082
0.485643 0.093256 0.032766
0.478073 0.127008 0.017595
0.522341 0.080691 0.004961
0.533991 0.154727 0.018864
0.493759 0.098618 0.058554
0.562230 0.123400 0.061302
0.504092 0.180283 0.089450
0.539569 0.145483 0.017881
0.550903 0.142692 0.029320
0.468538 0.186210 0.065506
0.483094 0.189470 0.036373
0.563181 0.063418 0.037389
0.477510 0.173918 0.083316
0.539866 0.052192 0.048665
0.489821 0.089908 0.023855
0.469977 0.144231 0.024099
0.559969 0.086601 0.059980
0.558969 0.132580 0.063403
0.527082 0.113145 0.081344
0.504030 0.123957 0.082970
0.566455 0.091516 0.049873
0.555104 0.102407 0.017301
0.505785 0.104914 0.072188
0.509320 0.168261 0.017389
0.555659 0.118160 0.022248
0.495218 0.197481 0.077502
0.537107 0.097386 0.074506
0.536110 0.102478 0.076654
0.563752 0.100816 0.031133
0.518628 0.191972 0.067317
0.497862 0.084759 0.049056
0.540846 0.065887 0.056939
0.485478 0.114988 0.064938
0.529213 0.127946 0.085787
0.476221 0.121113 0.021172
0.480407 0.187553 0.035863
0.544774 0.079133 0.064053
0.464779 0.152767 0.031796
0.522907 0.176339 0.027741
0.492082 0.108256 0.065552
0.565756 0.111305 0.052231
0.562965 0.121187 0.042791
0.509104 0.094834 0.006687
0.544935 0.155301 0.073523
0.563683 0.073292 0.030271
0.536952 0.118883 0.008752
0.475160 0.161693 0.081621
0.535467 0.148641 0.085152
0.517981 0.036359 0.016745
0.465402 0.134956 0.035975
0.529131 0.182477 0.065515
0.535486 0.174194 0.067697
0.504759 0.156487 0.011611
0.513073 0.109473 0.078269
0.552424 0.081128 0.062173
0.543921 0.130198 0.015202
0.531610 0.083731 0.004937
0.541061 0.124643 0.011891
0.536447 0.169654 0.072547
0.493221 0.179977 0.025409
0.560166 0.119498 0.067892
0.541280 0.143523 0.018256
0.475285 0.110765 0.038953
0.514517 0.084555 0.062266
0.542028 0.090696 0.070743
0.499080 0.153632 0.091879
0.556662 0.048812 0.033068
0.463875 0.139733 0.049717
0.557370 0.124260 0.070903
0.561783 0.060561 0.039021
0.478277 0.188609 0.038234
0.522819 0.038092 0.012312
0.563726 0.111789 0.036394
0.512057 0.059083 0.042624
0.518252 0.180026 0.029089
0.502793 0.073871 0.015911
0.553697 0.098980 0.070005
0.501498 0.191464 0.035944
0.482229 0.167801 0.021967
0.480052 0.106797 0.023908
0.494656 0.110877 0.009605
0.565315 0.103439 0.038177
0.555457 0.135941 0.068571
0.468946 0.134428 0.059562
0.496623 0.178072 0.023461
0.508448 0.146590 0.091364
0.551251 0.055402 0.046495
0.521748 0.176492 0.027252
0.463408 0.146283 0.056419
0.554510 0.097999 0.069164
0.560380 0.118266 0.030576
0.500750 0.068431 0.033744
0.497829 0.199306 0.046436
0.545249 0.086556 0.067911
0.533973 0.068810 0.005470
0.564086 0.110013 0.061713
0.554252 0.129103 0.073344
0.474973 0.160822 0.081296
0.481912 0.107015 0.051611
0.487502 0.173339 0.089294
0.469181 0.171646 0.032968
0.515246 0.169900 0.089611
0.539135 0.078269 0.064591
0.511444 0.091186 0.006373
0.509049 0.049163 0.019778
0.550866 0.139445 0.073367
0.494093 0.203737 0.058481
0.522901 0.040522 0.039415
0.534613 0.134238 0.011033
0.493165 0.081592 0.031754
0.487751 0.174639 0.023375
0.494215 0.174464 0.091002
0.481076 0.110333 0.054280
0.518702 0.160774 0.090270
0.558200 0.085930 0.061149
0.563215 0.083973 0.027496
0.528832 0.087464 0.069306
0.509773 0.058985 0.040275
0.464995 0.167041 0.036296
0.563454 0.096420 0.029186
0.536711 0.075195 0.005750
0.471862 0.186819 0.072188
0.503890 0.185601 0.086780
0.561281 0.078262 0.053769
0.557199 0.121868 0.071541
0.544319 0.166541 0.054173
0.533766 0.037919 0.039717
0.473245 0.159951 0.024079
0.555174 0.146453 0.057486
0.514117 0.046334 0.036189
0.550553 0.117876 0.076819
0.468829 0.177679 0.037166
0.560543 0.105768 0.025150
0.476842 0.157909 0.020855
0.562117 0.094635 0.025706
0.469126 0.125025 0.046706
0.554043 0.058972 0.017817
0.559173 0.125394 0.067818
0.500079 0.160469 0.092771
0.523321 0.046858 0.042730
0.535175 0.032948 0.020286
0.548334 0.039915 0.023342
0.530140 0.158007 0.085768
0.462099 0.153422 0.038930
0.463978 0.179073 0.051919
0.504371 0.196899 0.075664
0.520188 0.171351 0.022091
0.497308 0.144758 0.009604
0.471955 0.162882 0.026282
0.505385 0.093452 0.063903
0.485224 0.157556 0.016343
0.465280 0.146228 0.061679
0.470242 0.138409 0.024339
0.549201 0.130693 0.020102
0.531415 0.135235 0.010022
0.532544 0.121182 0.007640
0.494057 0.201680 0.050371
0.503870 0.124480 0.083174
0.493578 0.140905 0.009830
0.514601 0.118615 0.082955
0.508911 0.050589 0.018911
0.510280 0.149786 0.091861
0.514754 0.093808 0.005450
0.548632 0.069036 0.056826
0.465396 0.140451 0.031891
0.494781 0.145470 0.010242
0.515496 0.103068 0.075295
0.463428 0.144876 0.035532
0.490325 0.200576 0.048189
0.471321 0.191708 0.064027
0.555878 0.057582 0.044712
0.529757 0.162874 0.021194
0.489170 0.197860 0.044034
0.560312 0.130636 0.060867
0.537317 0.175351 0.055324
0.506237 0.053985 0.024504
0.514903 0.169796 0.089784
0.517995 0.034149 0.028346
0.511027 0.072066 0.009408
0.561246 0.067943 0.046911
0.487731 0.138118 0.011363
0.527832 0.179028 0.074156
0.526026 0.031607 0.019626
0.511761 0.144046 0.008446
0.558521 0.129813 0.066729
0.462905 0.162950 0.062583
0.505560 0.055504 0.027275
0.503342 0.148071 0.091368
0.545083 0.111776 0.077766
0.549539 0.040749 0.024357
0.559207 0.062495 0.045264
0.541802 0.165893 0.067668
0.511589 0.129535 0.086775
0.557073 0.141035 0.044801
0.472417 0.187671 0.072346
0.529364 0.056752 0.006338
0.565247 0.089572 0.034469
0.527603 0.080669 0.064641
0.464687 0.165998 0.036356
0.463683 0.143774 0.054811
0.496350 0.144595 0.089189
0.507895 0.098887 0.006660
0.474252 0.164394 0.025095
0.485115 0.144940 0.013304
0.515007 0.195358 0.064269
0.485541 0.141812 0.082798
0.540307 0.144825 0.082601
0.512418 0.117869 0.082300
0.534450 0.097707 0.005794
0.549035 0.140903 0.075054
0.550501 0.067373 0.012523
0.556060 0.051744 0.025009
0.546896 0.098759 0.010673
0.489021 0.148166 0.012379
0.462084 0.145847 0.043427
0.463252 0.147028 0.056547
0.562218 0.114529 0.033103
0.490990 0.092230 0.019763
0.538973 0.106980 0.077797
0.544521 0.136415 0.080580
0.490589 0.130611 0.079757
0.513384 0.196027 0.054078
0.473918 0.117179 0.048885
0.540692 0.041355 0.013700
0.472651 0.116836 0.043612
0.524765 0.037146 0.012497
0.494603 0.119757 0.075627
0.491697 0.171994 0.020477
0.506312 0.121856 0.006194
0.565661 0.111726 0.049510
0.525028 0.036062 0.037121
0.529074 0.183288 0.048362
0.533335 0.032308 0.020225
0.542498 0.168371 0.059138
0.540071 0.033501 0.025013
0.505613 0.153358 0.092389
0.538933 0.172340 0.045365
0.511522 0.154955 0.011411
0.465068 0.136623 0.035477
0.546301 0.131223 0.017471
0.521173 0.182102 0.078919
0.535734 0.053392 0.049385
0.494750 0.106318 0.010542
0.502823 0.195388 0.078495
0.482512 0.188547 0.035755
0.554037 0.093024 0.015165
0.552120 0.048930 0.020616
0.489287 0.163183 0.016867
0.528024 0.066230 0.005321
0.528005 0.171828 0.080371
0.468454 0.185172 0.046569
0.556976 0.137773 0.063822
0.498765 0.112416 0.007879
0.473303 0.114353 0.036764
0.511868 0.196115 0.050835
0.543689 0.104346 0.075796
0.481836 0.199202 0.050756
0.557279 0.050821 0.028704
0.548966 0.117686 0.077622
0.527956 0.068678 0.005169
0.559541 0.082765 0.058246
0.496498 0.138840 0.008916
0.559543 0.111559 0.025452
0.483108 0.098020 0.038922
0.493496 0.085708 0.043413
0.554039 0.133483 0.071978
0.469669 0.158129 0.026631
0.560359 0.128393 0.063202
0.538959 0.087202 0.069554
0.537509 0.108735 0.007573
0.471782 0.129174 0.024486
0.476965 0.149261 0.018530
0.483661 0.195694 0.043254
0.510828 0.043947 0.027926
0.517076 0.067027 0.007386
0.471662 0.120531 0.047766
0.524366 0.040920 0.010407
0.482854 0.135011 0.013524
0.552412 0.043497 0.026422
0.494713 0.086086 0.046047
0.560450 0.132832 0.050589
0.485480 0.120304 0.069399
0.492917 0.164031 0.091724
0.462410 0.146140 0.039425
0.551466 0.147968 0.067491
0.558169 0.067112 0.049732
0.533851 0.064511 0.055824
0.504776 0.151072 0.010065
0.564787 0.115616 0.046980
0.555136 0.066221 0.017031
0.473250 0.162756 0.025175
0.492590 0.099207 0.014294
0.464874 0.134780 0.043450
0.543075 0.034858 0.028024
0.566067 0.089669 0.038883
0.499323 0.119421 0.078072
0.525637 0.043669 0.042060
0.563567 0.078977 0.028732
0.474352 0.167148 0.026247
0.553445 0.151076 0.049741
0.504761 0.151282 0.010119
0.510428 0.093314 0.006456
0.488942 0.095313 0.048463
0.503399 0.104247 0.007418
0.512369 0.186075 0.082893
0.465090 0.157934 0.032531
0.564991 0.075592 0.035020
0.470098 0.122597 0.032902
0.564212 0.078491 0.049274
0.473677 0.153561 0.021777
0.491799 0.110709 0.067301
0.480936 0.108439 0.021201
0.489699 0.176982 0.089240
0.498635 0.156460 0.092216
0.539765 0.162777 0.030756
0.473535 0.135089 0.067699
0.543327 0.105335 0.076235
0.483818 0.179999 0.028361
0.552614 0.152454 0.056444
0.530646 0.178380 0.070454
0.500180 0.165074 0.015182
0.497765 0.073520 0.029565
0.523877 0.184076 0.073362
0.558872 0.135401 0.060181
0.493325 0.130128 0.008899
0.540438 0.082059 0.006811
0.514148 0.143002 0.008361
0.541021 0.138152 0.015806
0.468588 0.188017 0.060444
0.542087 0.141852 0.018136
0.472055 0.135005 0.065511
0.484451 0.141335 0.081853
0.471717 0.172357 0.077777
0.492908 0.109515 0.067264
0.545812 0.143926 0.077744
0.487264 0.181444 0.028091
0.516669 0.126355 0.006037
0.464549 0.142081 0.056083
0.485088 0.186226 0.083777
0.533109 0.051942 0.048248
0.536677 0.144113 0.085084
0.505403 0.161454 0.013486
0.483486 0.113021 0.016182
0.546378 0.039567 0.034749
0.482559 0.101085 0.044118
0.564110 0.072012 0.032199
0.522904 0.117340 0.005627
0.528817 0.126573 0.085471
0.542160 0.114839 0.010418
0.527520 0.180771 0.037534
0.542532 0.159993 0.073342
0.528177 0.151538 0.014249
0.560595 0.121087 0.066792
0.547855 0.158007 0.040052
0.525688 0.157144 0.088204
0.506340 0.112445 0.006153
0.543913 0.132073 0.081370
0.563442 0.064267 0.037129
0.492337 0.203829 0.060207
0.542070 0.058590 0.008662
0.497876 0.171966 0.092015
0.486862 0.174884 0.023849
0.483491 0.156172 0.016649
0.541574 0.086214 0.068645
0.499088 0.117410 0.007387
0.493629 0.137260 0.009372
0.539919 0.047592 0.010469
0.489010 0.112655 0.012155
0.471620 0.173875 0.077374
0.552391 0.093108 0.013809
0.548535 0.038724 0.028867
0.468440 0.181460 0.069942
0.461105 0.153399 0.045403
0.556492 0.076289 0.017220
0.461167 0.167792 0.049365
0.501846 0.118694 0.006768
0.556508 0.057019 0.022197
0.549314 0.146273 0.072343
0.565515 0.099922 0.037701
0.542406 0.168471 0.047046
0.490007 0.110800 0.065798
0.508347 0.154604 0.092492
0.545730 0.037109 0.023974
0.466360 0.134017 0.051931
0.478131 0.176774 0.083090
0.563703 0.104438 0.032228
0.512464 0.102899 0.074052
0.506416 0.098957 0.068463
0.540249 0.080385 0.006731
0.473568 0.172515 0.029515
0.497295 0.091603 0.013718
0.485182 0.146302 0.013506
0.509890 0.194646 0.075223
0.519489 0.090443 0.068455
0.484748 0.140026 0.081363
0.536462 0.094296 0.073226
0.566097 0.108114 0.047872
0.480747 0.122442 0.016040
0.482236 0.116982 0.016059
0.564559 0.071664 0.034444
0.505042 0.105740 0.072347
0.520332 0.069948 0.006067
0.538363 0.084446 0.006224
0.511085 0.043121 0.021222
0.563981 0.077159 0.048870
0.521589 0.118007 0.083181
0.546004 0.114054 0.078061
0.512878 0.196576 0.055395
0.505374 0.199531 0.052131
0.508985 0.154211 0.092426
0.523883 0.030863 0.026587
0.565469 0.109905 0.043853
0.546681 0.140629 0.077759
0.518791 0.107458 0.005012
0.489534 0.181406 0.087722
0.541502 0.047700 0.045602
0.462939 0.176024 0.050437
0.532197 0.138533 0.011215
0.468278 0.167995 0.032128
0.461845 0.148242 0.050036
0.515316 0.084947 0.062897
0.491461 0.196883 0.042263
0.484552 0.200673 0.051349
0.523082 0.076911 0.060663
0.559594 0.133975 0.058889
0.501260 0.179282 0.024267
0.469531 0.174178 0.074578
0.509025 0.189288 0.082192
0.556264 0.140444 0.062962
0.530840 0.125187 0.084773
0.538969 0.138067 0.084148
0.543104 0.164579 0.039164
0.521783 0.177439 0.081994
0.497741 0.199142 0.046112
0.537685 0.128114 0.083886
0.548561 0.155521 0.037903
0.559423 0.124674 0.032958
0.483249 0.185923 0.082958
0.534023 0.103982 0.077472
0.495255 0.117272 0.074423
0.495057 0.141740 0.087760
0.554958 0.056299 0.020211
0.547034 0.144908 0.076015
0.538458 0.171786 0.042123
0.514920 0.171988 0.089067
0.533802 0.132100 0.010157
0.477949 0.164783 0.022843
0.534558 0.129450 0.085062
0.493907 0.103578 0.063235
0.534562 0.078261 0.064522
0.524694 0.050990 0.045394
0.507171 0.087125 0.060170
0.461363 0.155621 0.042393
0.475908 0.167312 0.025269
0.523386 0.184749 0.039082
0.478419 0.192134 0.042358
0.504039 0.069708 0.041999
0.474415 0.120865 0.023856
0.469980 0.158209 0.074896
0.530850 0.179573 0.041316
0.537734 0.174764 0.050862
0.535928 0.034944 0.017116
0.463000 0.175190 0.047818
0.476740 0.117431 0.022039
0.520098 0.185965 0.037495
0.505154 0.157617 0.011990
