ply
format ascii 1.0
element vertex 1024
property float x
property float y
property float z
end_header
0.563647 0.037447 0.085063
0.595121 -0.033526 0.050300
0.596137 -0.038334 0.048678
0.548035 0.096090 0.034244
0.548355 -0.034397 0.004380
0.594927 0.019572 0.047120
0.558321 0.091244 0.034971
0.506732 0.021827 0.037526
0.601214 -0.031611 0.024360
0.586543 0.014717 0.024026
0.513047 0.053233 0.019430
0.514073 0.089115 0.049751
0.534356 -0.032239 0.015962
0.532162 -0.004276 0.000888
0.521576 0.043264 0.008407
0.577008 0.016287 0.013956
0.596972 -0.000956 0.043051
0.541676 0.091745 0.026334
0.564166 0.073667 0.080087
0.543446 0.056641 0.007606
0.526889 -0.006620 0.004124
0.589448 -0.057746 0.011767
0.548116 0.100861 0.060839
0.571310 -0.044287 0.052836
0.606698 -0.049149 0.034479
0.563406 0.008881 0.077952
0.548771 0.073679 0.083589
0.524488 0.045072 0.079443
0.536800 -0.001307 0.070023
0.540348 0.068416 0.084150
0.579987 0.006646 0.014353
0.546150 0.042360 0.004313
0.546694 -0.042536 0.009874
0.554912 -0.053080 0.033464
0.513269 0.034224 0.067241
0.523376 -0.009540 0.051722
0.574123 0.005331 0.009509
0.541007 0.067619 0.011132
0.532143 0.061854 0.083029
0.555520 -0.040125 0.004846
0.520145 0.086321 0.029522
0.505315 0.051336 0.050639
0.531221 0.022336 0.078256
0.523848 0.080187 0.021810
0.543654 0.093712 0.028988
0.533403 0.058540 0.008603
0.541296 -0.030557 0.005477
0.526741 0.013172 0.071947
0.561479 0.091780 0.040924
0.605237 -0.045656 0.038129
0.606171 -0.043443 0.035569
0.515713 0.059231 0.018886
0.511868 0.013232 0.052472
0.572577 -0.001999 0.072128
0.522417 0.070866 0.018088
0.526724 -0.002633 0.062350
0.520415 0.078599 0.072560
0.572036 0.078998 0.069699
0.529030 0.039605 0.081508
0.581027 0.040063 0.076881
0.506410 0.025046 0.044495
0.521357 -0.013803 0.019779
0.540579 -0.025500 0.003479
0.574051 0.078813 0.043026
0.506722 0.063939 0.040462
0.552448 0.091692 0.030208
0.549818 0.100653 0.046642
0.531359 0.093730 0.029600
0.523349 0.089357 0.029389
0.505330 0.044380 0.034254
0.569408 -0.062883 0.018131
0.505355 0.041089 0.033386
0.521996 0.021437 0.005375
0.573719 0.029720 0.014648
0.565847 -0.044247 0.005202
0.548465 0.084930 0.079371
0.595430 -0.000042 0.052690
0.559862 -0.038012 0.054851
0.534327 0.099780 0.037971
0.511243 0.033389 0.017752
0.548047 -0.037460 0.049480
0.558772 0.048165 0.009247
0.554737 -0.035482 0.054958
0.549378 -0.031339 0.003056
0.598371 -0.040107 0.016078
0.555870 0.011030 0.000814
0.581592 -0.027576 0.008614
0.562374 0.088928 0.036753
0.529104 0.003944 0.001162
0.539315 -0.033254 0.046167
0.544029 -0.037909 0.008334
0.542276 0.065376 0.010383
0.520836 0.042738 0.076979
0.527119 0.027065 0.003083
0.550803 0.092472 0.072931
0.539165 -0.040347 0.027773
0.530300 0.069950 0.081007
0.520520 0.037864 0.008177
0.554025 0.086164 0.024987
0.566990 -0.014011 0.002552
0.535570 0.101870 0.062488
0.536482 0.020784 0.079809
0.577648 0.073268 0.065965
0.578700 0.040548 0.078720
0.593706 0.029575 0.052297
0.534805 0.064730 0.083558
0.505316 0.037366 0.033478
0.516211 0.018850 0.010908
0.580324 -0.020925 0.062556
0.544057 0.038186 0.086071
0.531445 0.049023 0.083286
0.511595 0.065269 0.027436
0.568633 0.075272 0.029060
0.515127 0.074225 0.068301
0.587219 0.030560 0.031410
0.564651 0.015894 0.004936
0.535388 0.085029 0.020323
0.590307 0.045525 0.052862
0.581616 0.062520 0.069713
0.542565 0.032353 0.084696
0.522425 0.033940 0.076732
0.576566 0.054569 0.078993
0.554046 -0.008312 0.070718
0.525678 0.021307 0.074748
0.515602 0.017493 0.063270
0.582772 -0.017596 0.062593
0.578955 0.029353 0.019431
0.538236 -0.022082 0.003103
0.540212 0.047692 0.086298
0.583308 -0.010221 0.064601
0.556365 0.098119 0.054968
0.590695 0.033066 0.065100
0.555562 -0.014674 0.067795
0.553205 0.006782 -0.000202
0.521711 0.044767 0.077681
0.532930 0.072396 0.013712
0.557783 0.079136 0.021731
0.563574 -0.018743 0.066245
0.519866 0.055948 0.076266
0.559239 -0.002236 0.000432
0.552223 0.093744 0.033077
0.539845 0.096600 0.070536
0.515827 0.029754 0.011809
0.587869 -0.001362 0.020413
0.566445 0.085941 0.038587
0.591153 -0.025424 0.015694
0.567648 -0.062367 0.021197
0.541959 -0.026495 0.003353
0.599875 -0.057223 0.016690
0.547413 0.041497 0.004328
0.532080 0.097868 0.068068
0.516424 0.088102 0.062096
0.531804 0.100637 0.063666
0.575081 0.079998 0.059502
0.545267 0.085601 0.079125
0.510581 0.009051 0.037664
0.569763 0.025156 0.010188
0.590864 -0.065385 0.021358
0.534510 0.008424 0.074048
0.581870 -0.039593 0.054701
0.585256 0.032990 0.073081
0.538838 0.032469 0.083873
0.526326 0.075789 0.077650
0.580844 0.070316 0.059954
0.556233 -0.055268 0.028994
0.561468 0.013042 0.002941
0.530320 0.024143 0.078464
0.517159 0.077341 0.026292
0.542934 -0.044506 0.026778
0.568484 0.061015 0.082274
0.580407 0.061342 0.072610
0.506000 0.060833 0.048660
0.598510 -0.024218 0.024857
0.550343 0.077662 0.017348
0.532601 0.074493 0.080890
0.565669 0.034564 0.084295
0.542104 -0.025343 0.056524
0.543145 0.080560 0.081274
0.561119 -0.009815 0.070308
0.514657 0.086859 0.059301
0.562587 -0.027483 0.001764
0.555628 0.048757 0.086760
0.531224 0.070821 0.081210
0.518910 0.051034 0.012509
0.579373 -0.023002 0.008067
0.575784 0.001603 0.072491
0.581429 -0.049414 0.007213
0.531920 0.076986 0.016052
0.578610 0.015869 0.075988
0.603052 -0.041398 0.020448
0.514209 0.070077 0.068664
0.546800 0.003020 -0.001113
0.534788 0.038986 0.003073
0.563172 -0.004120 0.072718
0.581875 0.069061 0.055784
0.568948 0.075018 0.076360
0.572071 0.032250 0.082005
0.532030 -0.027953 0.013487
0.572543 0.040685 0.016914
0.566098 0.010934 0.004966
0.561377 0.056263 0.013271
0.553787 0.087589 0.026243
0.505925 0.041854 0.053756
0.561160 0.076593 0.022460
0.510086 0.020445 0.054715
0.546975 0.100070 0.063560
0.540531 -0.039311 0.038251
0.507103 0.022682 0.031230
0.522055 -0.016759 0.030732
0.522419 0.050200 0.078211
0.519313 0.025976 0.071497
0.589052 0.050164 0.055678
0.570036 -0.063156 0.018242
0.571503 0.071680 0.029964
0.532733 0.089222 0.075354
0.514736 0.084838 0.036009
0.537734 -0.038680 0.028610
0.519461 0.001027 0.056137
0.598354 -0.015462 0.044716
0.589576 0.022502 0.032272
0.571243 0.075718 0.033153
0.607447 -0.047624 0.030080
0.561001 0.088414 0.033894
0.555870 0.026667 0.084066
0.574654 -0.062885 0.033743
0.590376 -0.065555 0.021554
0.555285 0.065720 0.013517
0.589303 0.045056 0.063342
0.571401 0.005072 0.007505
0.505126 0.048507 0.050046
0.593468 -0.012127 0.054799
0.512786 0.039289 0.068157
0.536243 -0.017232 0.059032
0.577205 0.072240 0.040640
0.515477 0.003334 0.050083
0.518852 -0.005938 0.015347
0.512284 0.069201 0.028391
0.567575 0.044048 0.013809
0.530549 0.020792 0.001280
0.601478 -0.027445 0.040933
0.537991 0.018521 0.000104
0.570513 0.007916 0.007348
0.523666 0.035330 0.005831
0.519167 0.007164 0.061225
0.522445 0.051330 0.010176
0.577291 -0.052677 0.047464
0.544814 0.101303 0.062232
0.567597 -0.006765 0.071200
0.577174 0.062972 0.031905
0.583920 0.052674 0.036935
0.584601 -0.062130 0.013900
0.587329 0.000062 0.020204
0.598508 -0.011850 0.040855
0.591016 0.039501 0.046795
0.553086 0.098898 0.060328
0.511810 0.007585 0.043447
0.508084 0.069954 0.054022
0.509187 0.053024 0.064140
0.508905 0.075506 0.050814
0.578036 0.074477 0.062465
0.588809 -0.055269 0.044934
0.593080 0.024059 0.060963
0.517083 0.036124 0.072569
0.554652 -0.018937 0.000114
0.519722 0.000186 0.055729
0.559080 0.061024 0.085078
0.526350 0.009469 0.069831
0.506864 0.021645 0.041239
0.510339 0.009738 0.032787
0.577122 -0.059309 0.011347
0.594346 0.021951 0.045550
0.560919 -0.058910 0.023088
0.510535 0.019512 0.020649
0.539818 0.102400 0.044060
0.550965 -0.006479 0.071261
0.520050 0.036418 0.075453
0.592792 -0.030397 0.052741
0.535973 0.017257 0.078356
0.593966 0.021322 0.043166
0.516520 0.000708 0.015280
0.532267 -0.029493 0.015965
0.570683 -0.057345 0.010516
0.543985 0.070330 0.084162
0.575479 0.073257 0.038064
0.577921 0.046069 0.079020
0.542397 -0.024870 0.002613
0.575053 0.079116 0.047214
0.551801 -0.028265 0.059111
0.585131 0.051846 0.069674
0.563792 0.092527 0.058130
0.596856 -0.055240 0.042500
0.518329 0.093969 0.057646
0.518684 0.074029 0.022842
0.569370 -0.050829 0.007277
0.548117 0.000369 -0.001143
0.558496 0.071999 0.017981
0.547048 0.068599 0.012213
0.509446 0.012233 0.037338
0.586364 -0.010313 0.015852
0.506502 0.061554 0.052583
0.537012 0.027192 0.082010
0.525548 -0.017006 0.011800
0.589459 0.045027 0.062810
0.508367 0.065502 0.058547
0.554848 0.093853 0.069131
0.582426 0.055774 0.072469
0.592395 0.026486 0.041033
0.595664 0.010448 0.043184
0.509718 0.046720 0.064898
0.532158 0.000772 0.000344
0.587631 -0.022664 0.013552
0.569140 0.001991 0.005512
0.509883 0.044461 0.021255
0.523203 -0.010340 0.050531
0.594056 0.022874 0.044818
0.562045 -0.039621 0.054307
0.537627 0.077800 0.081354
0.511752 0.084149 0.051530
0.591600 -0.019911 0.055734
0.526890 -0.020948 0.043506
0.562741 -0.038826 0.055031
0.543057 0.098846 0.067243
0.526309 0.101022 0.048704
0.528363 0.069181 0.013961
0.545929 0.059019 0.086225
0.532386 -0.024649 0.048188
0.588656 0.042475 0.041157
0.592379 -0.019939 0.018884
0.553868 0.093334 0.070512
0.582966 -0.043663 0.007189
0.558049 0.097044 0.054938
0.508543 0.015081 0.035634
0.542681 0.007784 -0.000922
0.546559 -0.033918 0.004762
0.548128 -0.035402 0.051581
0.583663 0.034855 0.027331
0.507915 0.025067 0.052026
0.531250 0.099321 0.065728
0.564156 0.027871 0.083491
0.509776 0.023076 0.021499
0.510373 0.058507 0.026054
0.512749 0.028713 0.015643
0.529898 0.056058 0.082450
0.511282 0.061903 0.066706
0.565057 0.080996 0.029874
0.571647 -0.064056 0.021075
0.580334 0.038133 0.077523
0.591823 -0.063035 0.017025
0.523928 -0.019636 0.034218
0.593869 -0.008270 0.054755
0.558872 -0.026490 0.061952
0.507232 0.029049 0.026848
0.589973 0.043196 0.062377
0.507744 0.019744 0.030883
0.509772 0.072346 0.058652
0.592756 0.017801 0.062008
0.530674 0.099678 0.064823
0.526504 0.049664 0.007658
0.592333 0.029858 0.061747
0.541138 0.102546 0.060800
0.541168 0.053041 0.006433
0.505792 0.058393 0.041179
0.519782 0.021390 0.070104
0.595126 -0.063246 0.035000
0.554059 -0.027913 0.001594
0.515414 0.064650 0.071525
0.581394 0.005739 0.071244
0.602000 -0.033781 0.042034
0.522321 -0.007711 0.051873
0.586350 -0.030428 0.010881
0.506705 0.062539 0.053082
0.568195 -0.034624 0.058287
0.543212 0.025503 0.001026
0.562993 0.027667 0.083639
0.568009 0.028869 0.082847
0.560440 0.092469 0.066163
0.570257 -0.035341 0.003798
0.597009 -0.019570 0.048788
0.564361 0.011128 0.004031
0.536344 0.066643 0.010947
0.548552 0.038081 0.003813
0.549920 0.077680 0.017219
0.596135 -0.003021 0.050215
0.539675 -0.038357 0.014716
0.572521 -0.037972 0.004459
0.540898 0.073552 0.083093
0.598495 -0.058814 0.016744
0.523599 0.058449 0.012140
0.519582 0.010222 0.063973
0.599659 -0.056415 0.040133
0.546676 -0.044404 0.038898
0.600276 -0.033327 0.044708
0.588450 0.015991 0.068251
0.573817 0.076120 0.038237
0.511051 0.045790 0.067061
0.547247 0.049974 0.087074
0.584457 0.011546 0.070963
0.526997 0.076970 0.018099
0.558122 0.059693 0.012594
0.525876 0.012998 0.002403
0.537228 0.066647 0.010856
0.505907 0.038668 0.030503
0.556485 0.058858 0.011539
0.529144 0.050146 0.006908
0.547378 0.100381 0.062626
0.550110 0.092323 0.029654
0.586299 -0.037866 0.009309
0.530618 -0.016939 0.054229
0.597858 -0.038047 0.016598
0.543167 0.017823 0.080503
0.558855 -0.032019 0.058631
0.583645 -0.038509 0.007963
0.521172 0.096555 0.059053
0.590599 -0.005228 0.059757
0.559677 0.033735 0.006045
0.594022 -0.003596 0.055256
0.519522 0.054077 0.076102
0.533760 -0.004273 0.066607
0.579818 -0.062428 0.037321
0.603019 -0.039428 0.041322
0.559916 0.019834 0.003413
0.597273 -0.049385 0.045109
0.587280 0.005702 0.021996
0.580906 0.056640 0.033789
0.519316 0.021245 0.007631
0.534803 0.068999 0.082819
0.525959 -0.022005 0.038001
0.569722 0.008679 0.006927
0.578288 0.073394 0.045684
0.558064 -0.002283 0.073656
0.559620 0.053324 0.011238
0.517060 0.041006 0.011440
0.553721 -0.043121 0.047547
0.603388 -0.046775 0.040728
0.574207 -0.063709 0.030853
0.506352 0.039959 0.028900
0.512737 0.044358 0.016850
0.538522 -0.019781 0.058635
0.532666 0.052873 0.083853
0.507168 0.060424 0.056736
0.531801 0.011822 0.074315
0.556018 -0.046646 0.045225
0.545105 -0.039836 0.044037
0.588552 -0.066123 0.022521
0.602137 -0.034838 0.042021
0.584595 -0.053426 0.008718
0.508937 0.013912 0.034227
0.571783 -0.036521 0.057330
0.586533 -0.060263 0.040866
0.568545 0.088106 0.051066
0.592066 0.036503 0.058674
0.537779 0.100087 0.038285
0.569503 0.072709 0.028171
0.531786 0.006707 0.000222
0.532263 0.073792 0.080943
0.560683 0.082648 0.026733
0.570107 -0.001109 0.073069
0.541908 0.058576 0.008085
0.545813 -0.016340 0.064754
0.552785 -0.015880 -0.000317
0.572614 0.066011 0.078258
0.595810 -0.017017 0.024898
0.514941 0.028327 0.012800
0.540898 0.031082 0.084051
0.527826 -0.025423 0.035157
0.512427 0.040921 0.068096
0.524056 0.072388 0.077109
0.514819 0.071568 0.068922
0.515620 0.002131 0.048805
0.534010 -0.006010 0.065621
0.515568 0.088174 0.060112
0.527298 -0.011925 0.055024
0.585731 0.018157 0.024040
0.596980 -0.002773 0.045941
0.522612 0.057655 0.012418
0.553783 0.065540 0.012860
0.550839 0.009428 -0.000287
0.579932 0.027810 0.077391
0.585767 0.012607 0.022204
0.540161 0.089984 0.024370
0.595318 0.016015 0.046294
0.577070 -0.029038 0.006034
0.587520 0.017646 0.069581
0.541090 0.046544 0.086441
0.547649 -0.034068 0.004461
0.530122 0.074363 0.079941
0.512559 0.082615 0.038491
0.536791 -0.021340 0.003451
0.542853 0.097270 0.034093
0.529755 0.007044 0.000815
0.505620 0.045812 0.033154
0.565382 0.090185 0.062592
0.582050 -0.011407 0.064957
0.526968 0.090256 0.072223
0.505258 0.046943 0.035559
0.522828 0.049091 0.078479
0.562023 0.044202 0.009814
0.513176 0.002785 0.027757
0.550212 0.101307 0.050958
0.529780 0.081522 0.019361
0.551097 0.007136 -0.000466
0.534889 0.062278 0.083951
0.542589 -0.009018 -0.000741
0.568388 -0.050664 0.047412
0.596166 0.000423 0.050165
0.518413 0.007435 0.008839
0.579378 0.030736 0.078025
0.526350 -0.005520 0.004206
0.544938 0.027120 0.083743
0.542168 0.056391 0.007438
0.596704 -0.004072 0.048017
0.509399 0.023403 0.022347
0.583543 -0.007174 0.014168
0.546965 0.016566 0.000128
0.524219 -0.018574 0.040150
0.519570 0.047282 0.010804
0.597515 -0.019968 0.025958
0.603079 -0.059117 0.023004
0.566735 0.009138 0.077657
0.599546 -0.021828 0.043743
0.505860 0.060433 0.044990
0.521791 0.032672 0.075912
0.520246 0.093015 0.037973
0.536976 0.102590 0.060957
0.569818 -0.060196 0.035785
0.515423 0.009617 0.057101
0.542182 0.080541 0.017261
0.558918 -0.049549 0.043862
0.514528 0.006867 0.016073
0.543482 0.103178 0.057335
0.581744 -0.003366 0.013593
0.590614 -0.040665 0.051375
0.514475 0.087282 0.058243
0.587149 -0.030083 0.056425
0.530657 0.005606 0.000562
0.525740 0.039013 0.005345
0.506061 0.051301 0.054866
0.517148 0.013854 0.009708
0.508298 0.036844 0.059331
0.579877 -0.046318 0.051664
0.574998 0.065680 0.030507
0.520846 0.003903 0.006715
0.593222 -0.036011 0.051253
0.553460 0.007357 -0.000104
0.529489 0.084884 0.076184
0.523108 0.061114 0.078159
0.576778 0.077108 0.060911
0.574841 0.076483 0.041075
0.594476 0.005425 0.035298
0.509798 0.026696 0.020761
0.536314 0.102543 0.060948
0.546829 -0.019657 0.063032
0.565880 0.075609 0.026126
0.557778 0.089520 0.072996
0.559488 0.060165 0.013509
0.538865 0.015902 -0.000190
0.576470 -0.029984 0.060024
0.544000 0.076310 0.082704
0.595978 0.010206 0.048970
0.581494 0.031590 0.076529
0.574768 -0.031163 0.059761
0.520269 0.021054 0.070416
0.586091 0.020937 0.025587
0.516701 0.002070 0.013789
0.527859 0.086795 0.024048
0.521497 0.011001 0.066551
0.514136 0.007845 0.052304
0.552586 0.099966 0.057027
0.539274 0.081403 0.080467
0.552714 -0.051536 0.013757
0.552848 0.094189 0.034326
0.577954 -0.041692 0.005832
0.594774 0.001598 0.054674
0.577354 0.051124 0.078932
0.540952 -0.023355 0.002546
0.513669 0.011300 0.016016
0.550662 0.022982 0.001474
0.562318 0.044039 0.009938
0.532888 -0.027903 0.011639
0.535472 -0.028332 0.047715
0.572623 0.024812 0.012405
0.531570 0.043562 0.083054
0.525386 -0.015285 0.048707
0.524484 0.098586 0.043201
0.552382 0.003278 -0.000621
0.550050 0.008384 -0.000482
0.529490 -0.028104 0.032457
0.509370 0.077311 0.044197
0.591364 0.004661 0.028117
0.568763 -0.028868 0.002999
0.582619 0.039915 0.027845
0.539912 0.034265 0.002164
0.586532 0.030011 0.071723
0.542576 0.081297 0.080956
0.557518 -0.018495 0.000267
0.576210 0.063434 0.076423
0.515802 0.046391 0.073034
0.581489 0.031783 0.023165
0.521352 -0.012449 0.016713
0.517602 -0.008080 0.029418
0.576614 -0.013098 0.066719
0.510855 0.039593 0.018692
0.546344 -0.047957 0.023505
0.539864 -0.010449 0.066016
0.562180 0.086066 0.032140
0.522335 0.045216 0.008406
0.605183 -0.054985 0.034649
0.586552 0.052312 0.066204
0.506854 0.064009 0.039675
0.506857 0.055607 0.033104
0.542409 0.035171 0.085275
0.564023 0.026723 0.006637
0.550254 -0.022118 0.000637
0.527393 -0.003411 0.062393
0.565569 -0.034115 0.058407
0.533072 -0.007238 0.064152
0.508830 0.054003 0.026893
0.537120 0.064262 0.084264
0.520670 0.003351 0.007042
0.521334 0.008836 0.065068
0.593458 0.031046 0.052356
0.578197 0.001195 0.011790
0.552591 -0.005833 -0.000915
0.548072 0.071733 0.013759
0.566821 -0.060214 0.014186
0.584749 0.062609 0.055971
0.519959 0.009594 0.006766
0.555552 -0.052071 0.011651
0.543602 0.084264 0.079766
0.600325 -0.058375 0.037960
0.522779 -0.017986 0.031628
0.595828 -0.024187 0.021045
0.517232 0.052159 0.074361
0.594338 -0.020412 0.052693
0.538297 -0.006703 -0.000406
0.523479 0.072508 0.076691
0.553283 0.060154 0.085948
0.592210 0.018965 0.063188
0.578254 0.007508 0.073602
0.526601 -0.023991 0.026653
0.514365 0.017896 0.013499
0.583897 0.060410 0.043921
0.535601 0.060180 0.084438
0.544950 0.061362 0.009251
0.566991 -0.046635 0.005905
0.516631 0.046921 0.073834
0.581074 0.070470 0.052401
0.538258 -0.008216 -0.000214
0.521520 -0.014126 0.040025
0.599147 -0.015266 0.035309
0.521526 0.084720 0.071025
0.552586 -0.011789 -0.000692
0.572796 -0.045756 0.052023
0.523395 -0.008258 0.008191
0.519457 0.015820 0.007115
0.562862 0.085408 0.032173
0.590404 0.030335 0.037921
0.545241 0.090926 0.026116
0.561196 0.074914 0.080891
0.525354 0.073373 0.017278
0.562510 -0.015769 0.000970
0.576989 -0.017109 0.065091
0.604426 -0.039658 0.038824
0.515830 0.025023 0.011650
0.521695 0.095236 0.062776
0.598582 -0.044723 0.014485
0.532333 0.002729 0.070024
0.597142 -0.002646 0.043759
0.544725 0.062587 0.085646
0.539223 0.088787 0.023207
0.589024 0.034327 0.036923
0.528179 0.065296 0.012543
0.542755 -0.022342 0.001728
0.540218 -0.041355 0.029899
0.565029 -0.001504 0.002719
0.597713 -0.024038 0.023721
0.567298 0.075421 0.077381
0.532422 -0.031916 0.032726
0.566730 -0.042612 0.053308
0.549533 0.101523 0.050369
0.524794 0.089497 0.028378
0.545045 -0.032732 0.004819
0.521549 0.008275 0.005392
0.504625 0.039351 0.040192
0.591560 -0.052409 0.010420
0.565175 0.060461 0.083650
0.508255 0.020606 0.027239
0.602020 -0.037199 0.021759
0.529211 0.011431 0.001002
0.557764 0.081239 0.079353
0.529055 -0.025473 0.040426
0.563594 0.055613 0.084868
0.534596 -0.033983 0.035570
0.589583 0.047966 0.052078
0.562807 -0.058310 0.032157
0.517860 0.008044 0.009458
0.543103 0.076424 0.015115
0.594360 -0.038998 0.013643
0.593616 -0.065293 0.025719
0.578917 -0.066239 0.021965
0.520838 0.055056 0.012578
0.577882 0.068523 0.070963
0.560650 0.091412 0.067895
0.517600 0.092330 0.042223
0.521041 0.041854 0.077056
0.555482 0.030067 0.084894
0.564392 0.064222 0.083053
0.579992 0.013247 0.015886
0.557200 0.048761 0.086575
0.579587 0.071726 0.047168
0.580694 0.046958 0.076586
0.522872 -0.003798 0.056776
0.534266 0.004747 0.072129
0.541961 -0.006887 0.068994
0.523038 0.090215 0.069332
0.562125 0.044588 0.009983
0.560787 0.029486 0.084314
0.557202 0.034433 0.005265
0.603673 -0.038954 0.040142
0.541544 0.062840 0.009453
0.572773 -0.017478 0.065972
0.560674 -0.030967 0.002156
0.583234 0.054406 0.071815
0.557046 0.032242 0.085242
0.566032 0.019536 0.006397
0.582068 0.060234 0.070636
0.526684 0.090520 0.071886
0.547037 0.101681 0.059564
0.562008 -0.048422 0.007053
0.518637 0.030187 0.072330
0.529286 0.087395 0.074957
0.513810 0.008063 0.017248
0.504789 0.049954 0.044130
0.603679 -0.032606 0.037034
0.525689 0.073565 0.017176
0.606437 -0.051434 0.023456
0.588962 -0.029092 0.055710
0.551417 -0.043057 0.007328
0.567109 0.031402 0.083499
0.509925 0.066095 0.031046
0.601687 -0.061504 0.028255
0.544474 0.021103 0.081860
0.515688 0.011054 0.012172
0.571260 0.085284 0.052904
0.603269 -0.029932 0.035265
0.548091 0.065221 0.011123
0.537260 0.010533 -0.000561
0.577446 -0.065862 0.021031
0.556369 -0.046526 0.007416
0.506917 0.046237 0.028522
0.552898 0.045518 0.006500
0.510147 0.010117 0.036199
0.548571 0.101891 0.050382
0.583798 -0.051386 0.048195
0.535142 -0.035423 0.025088
0.570182 -0.007705 0.004824
0.568178 0.074878 0.077041
0.582399 0.067830 0.052883
0.555767 0.065639 0.013695
0.575100 -0.009571 0.068498
0.561659 0.063507 0.084045
0.565005 0.038534 0.084864
0.510195 0.080355 0.049087
0.566075 0.066786 0.021301
0.520847 0.038723 0.008064
0.559391 0.034816 0.006166
0.554786 -0.025391 0.061835
0.516379 0.027809 0.011138
0.560527 -0.052746 0.040817
0.565567 -0.061365 0.022613
0.544249 -0.029333 0.054540
0.559950 0.038265 0.085803
0.582482 0.065149 0.064252
0.580742 0.071140 0.052592
0.522326 -0.016669 0.035949
0.592461 0.000794 0.058857
0.545027 0.010506 -0.000671
0.522653 0.029551 0.005785
0.568932 0.054727 0.018730
0.511147 0.077220 0.058896
0.590557 0.040732 0.046078
0.584163 -0.065276 0.033144
0.591808 0.038855 0.051022
0.599358 -0.060034 0.036945
0.572402 0.043001 0.017531
0.543233 0.057262 0.086266
0.562345 0.007375 0.077466
0.521190 -0.013301 0.019328
0.599634 -0.050068 0.014402
0.506528 0.057037 0.055364
0.595464 -0.064762 0.026034
0.504916 0.043843 0.036867
0.589365 -0.065504 0.020380
0.543059 0.068171 0.011478
0.505418 0.042531 0.051571
0.537987 0.030278 0.083124
0.585804 0.053457 0.067329
0.524865 -0.002990 0.060091
0.513292 0.074040 0.029622
0.580491 -0.038252 0.006704
0.580954 0.004638 0.071122
0.519728 0.093360 0.039558
0.540303 0.080796 0.080848
0.542057 -0.035340 0.046591
0.570437 -0.063135 0.026600
0.550544 0.050746 0.087022
0.579084 -0.044380 0.052816
0.514136 0.063642 0.022876
0.553421 0.090911 0.073669
0.512077 0.016262 0.018006
0.574072 0.005577 0.074607
0.592856 0.033711 0.056114
0.512317 0.076683 0.062237
0.542911 0.005162 -0.001055
0.534229 0.095348 0.071342
0.565138 -0.061058 0.018649
0.530579 0.012524 0.000633
0.577646 -0.042675 0.053837
0.543645 -0.026605 0.002857
0.559739 0.026013 0.083631
0.526313 -0.020684 0.042469
0.595036 0.017696 0.045804
0.594285 0.005241 0.034669
0.516963 0.018438 0.009947
0.569101 0.062265 0.081661
0.515124 0.007479 0.014347
0.557163 -0.007148 -0.000273
0.545622 -0.018470 0.063334
0.585107 0.039630 0.072778
0.568789 0.048387 0.083860
0.534978 0.088544 0.076347
0.606141 -0.040734 0.029197
0.587258 -0.036882 0.054141
0.590307 0.043854 0.048865
0.597387 -0.058063 0.040262
0.572853 0.032836 0.081749
0.573479 -0.064582 0.019391
0.593071 0.006003 0.032118
0.512434 0.005003 0.027209
0.579342 0.045653 0.025725
0.546612 0.082424 0.019210
0.582074 0.063410 0.067860
0.510197 0.028140 0.019780
0.554343 -0.040708 0.005317
0.575153 -0.026490 0.005362
0.545710 0.030640 0.084741
0.519527 -0.011181 0.023206
0.557525 -0.054120 0.035139
0.563451 0.062931 0.083659
0.586977 0.002443 0.065810
0.587024 0.055780 0.059576
0.586135 -0.064864 0.017364
0.534401 -0.033854 0.020946
0.568850 0.041248 0.013971
0.594476 -0.042828 0.012503
0.542978 -0.044544 0.026929
0.559891 0.065913 0.083960
0.506860 0.021412 0.036281
0.545594 0.030821 0.084771
0.576494 -0.015004 0.066038
0.591996 0.016785 0.034744
0.575387 -0.002966 0.070905
0.517815 0.083453 0.029791
0.572806 0.067250 0.077510
0.543869 -0.044948 0.019713
0.590393 0.039611 0.063344
0.542616 -0.036167 0.008158
0.568747 0.054678 0.083339
0.580204 0.034450 0.022539
0.590528 0.018447 0.065963
0.541278 0.092276 0.026873
0.546697 0.074130 0.014576
0.510698 0.028841 0.061071
0.579798 0.061950 0.035642
0.542592 0.006256 -0.001003
0.544536 0.070752 0.084110
0.506630 0.025808 0.030975
0.508117 0.062454 0.033393
0.540773 0.045353 0.086323
0.598437 -0.011864 0.041649
0.509985 0.071498 0.034591
0.512049 0.011929 0.019931
0.567568 0.021574 0.081401
0.559581 -0.039326 0.053800
0.543220 0.019013 0.080935
0.524834 0.004089 0.065433
0.551480 0.098984 0.062195
0.521715 0.007155 0.064370
0.581039 0.061738 0.037966
0.567238 0.066629 0.022269
0.558430 0.093820 0.040275
0.580055 0.032978 0.021856
0.517068 0.032912 0.010647
0.540926 0.069762 0.083953
0.551395 0.004800 0.076460
0.582736 0.066715 0.050913
0.539331 0.098951 0.036265
0.583463 -0.038339 0.007905
0.524140 0.041311 0.006543
0.538854 0.039166 0.085181
0.585749 0.018075 0.071414
0.580598 -0.060371 0.012125
0.593564 0.022467 0.042373
0.546772 -0.048248 0.021209
0.551958 -0.005200 0.071988
0.541065 0.033370 0.002066
0.538193 -0.015443 0.061713
0.509373 0.051323 0.064599
0.509897 0.044160 0.021151
0.526854 0.019952 0.074965
0.519368 0.003756 0.008478
0.507131 0.025118 0.048904
0.524874 0.057968 0.011264
0.568064 0.000670 0.074163
0.525778 0.027156 0.003701
0.551991 -0.051192 0.014221
0.523018 0.097030 0.061724
0.572593 -0.056043 0.043400
0.537840 0.085450 0.020446
0.545278 0.063459 0.085542
0.559416 0.048867 0.086269
0.555701 -0.009688 -0.000499
0.570773 0.008722 0.076732
0.562973 0.026672 0.083421
0.580993 -0.061858 0.038455
0.581623 0.013000 0.073436
0.557584 0.094772 0.041199
0.543320 -0.034975 0.048273
0.579445 -0.064752 0.016533
0.555530 0.098614 0.051392
0.578637 0.071914 0.065412
0.550307 -0.047645 0.038176
0.569778 0.083832 0.066936
0.567808 0.007843 0.077012
0.562014 -0.059115 0.026884
0.512901 0.030264 0.015397
0.528592 -0.026805 0.025782
0.505014 0.038622 0.047775
0.581579 0.034836 0.024394
0.540132 0.067597 0.011104
0.582687 -0.066517 0.021093
0.586251 0.058169 0.051305
0.550615 0.095772 0.035376
0.527312 -0.025025 0.032769
0.568547 0.020535 0.008253
0.575784 0.018596 0.013471
0.560753 -0.040445 0.053330
0.557214 0.071592 0.083136
0.587892 -0.005788 0.062391
0.564120 0.039553 0.085147
0.514605 0.087503 0.040362
0.570621 0.005370 0.007007
0.567804 0.065322 0.022167
0.554787 0.000877 -0.000397
0.523060 -0.016824 0.019404
0.582172 0.026197 0.075600
0.584324 0.021516 0.073257
0.546613 -0.047749 0.018953
0.572707 0.025876 0.012752
0.582906 -0.037186 0.055497
0.559773 -0.036753 0.055721
0.606489 -0.044422 0.034850
0.543614 -0.037162 0.008110
0.552034 0.030260 0.002999
0.535138 0.011772 -0.000262
0.511204 0.078468 0.058042
0.515370 0.083247 0.064001
0.539867 0.066938 0.010854
0.603789 -0.057779 0.022314
0.522494 -0.016985 0.023809
0.518391 0.030104 0.009237
0.561250 -0.010215 0.070129
0.538721 0.094832 0.029845
0.579421 -0.047130 0.006557
0.563344 0.089167 0.068420
0.531626 0.007182 0.072019
0.564144 0.072452 0.080590
0.581163 0.069898 0.059234
0.577320 0.001312 0.011151
0.528079 0.084659 0.075595
0.531176 0.095160 0.070612
0.576086 -0.009641 0.008258
0.512355 0.009951 0.020394
0.531183 0.058844 0.082917
0.559074 0.094900 0.044366
0.518509 0.087260 0.032442
0.511019 0.018167 0.019911
0.540313 0.030966 0.001666
0.526019 0.035351 0.004637
0.506892 0.031996 0.053283
0.515631 0.071758 0.025051
0.521698 0.084509 0.071281
0.533110 0.028887 0.001688
0.508104 0.022018 0.049765
0.518353 -0.008005 0.040409
0.540979 0.099385 0.037379
0.550780 0.010959 -0.000131
0.573411 0.040349 0.017559
0.558544 0.063695 0.014309
0.563696 -0.059651 0.028821
0.515514 0.032173 0.012222
0.506155 0.040968 0.054408
0.524343 0.074793 0.018591
0.534286 0.001273 0.070268
0.558509 0.060755 0.085226
0.534764 0.032072 0.001934
0.582914 0.026440 0.023105
0.566138 -0.013291 0.002238
0.590732 -0.035647 0.012353
0.582464 0.006130 0.016522
0.577098 0.072017 0.068830
0.558565 0.064741 0.084484
0.510211 0.057100 0.065711
0.541309 0.088506 0.077277
0.595702 -0.012521 0.027486
0.588095 0.032014 0.069705
0.568459 0.083474 0.038310
0.507438 0.050313 0.059901
0.504849 0.047337 0.047814
0.591824 -0.065692 0.029070
0.563824 0.087385 0.070458
0.588360 0.027498 0.069505
0.512085 0.059069 0.068435
0.541404 0.035922 0.085232
