ply
format ascii 1.0
element vertex 1024
property float x
property float y
property float z
end_header
0.585705 0.045756 0.031008
0.597752 -0.038241 0.025032
0.598881 -0.043243 0.025729
0.511476 0.070349 0.018743
0.546619 -0.050575 0.064143
0.570498 0.002885 0.005151
0.517140 0.064056 0.011119
0.537242 0.023430 0.084822
0.576647 -0.052042 0.016215
0.550960 -0.010957 0.012490
0.509198 0.037458 0.065576
0.518494 0.082084 0.054176
0.551568 -0.038944 0.077372
0.525336 -0.023797 0.067552
0.506834 0.021309 0.060357
0.539131 -0.012438 0.019747
0.577103 -0.016344 0.010511
0.505070 0.064389 0.025474
0.564924 0.072151 0.016576
0.505961 0.025756 0.035111
0.527706 -0.022553 0.073602
0.574872 -0.076561 0.035597
0.531736 0.088213 0.019435
0.598350 -0.039142 0.051262
0.594783 -0.062299 0.018644
0.592829 0.019064 0.041178
0.563663 0.078165 0.031119
0.566733 0.059492 0.063787
0.583568 0.013853 0.068775
0.564263 0.076495 0.040908
0.544733 -0.020795 0.020621
0.510516 0.011789 0.037613
0.554560 -0.053779 0.069230
0.581581 -0.052028 0.067821
0.558378 0.047341 0.077014
0.568257 0.001180 0.082483
0.539649 -0.022831 0.026061
0.503200 0.037115 0.033615
0.564103 0.072834 0.050818
0.551617 -0.056874 0.059704
0.504376 0.067514 0.047675
0.534293 0.054498 0.076404
0.578071 0.038742 0.065917
0.501714 0.057504 0.045802
0.506941 0.066840 0.023170
0.503179 0.030521 0.043772
0.543842 -0.044999 0.069337
0.575755 0.029240 0.072859
0.522780 0.066779 0.008572
0.595851 -0.057166 0.019043
0.592925 -0.056987 0.017112
0.506698 0.041280 0.060830
0.555227 0.023017 0.084706
0.595448 0.004753 0.036202
0.502486 0.048419 0.050235
0.574950 0.011451 0.077838
0.544330 0.083952 0.054415
0.555848 0.068835 0.006333
0.572242 0.054955 0.061825
0.582346 0.038851 0.013205
0.541548 0.029790 0.084587
0.542720 -0.018576 0.082879
0.539625 -0.041789 0.067926
0.533980 0.054056 0.001991
0.520271 0.058891 0.069443
0.511308 0.063485 0.015919
0.520318 0.080089 0.016584
0.504087 0.070496 0.034573
0.503738 0.069024 0.043575
0.523684 0.040240 0.077412
0.577133 -0.071930 0.056620
0.524478 0.037125 0.078530
0.514468 0.002019 0.067800
0.532612 -0.000369 0.017851
0.556644 -0.062791 0.051737
0.554824 0.085078 0.026813
0.584392 -0.010102 0.012517
0.594022 -0.029937 0.059690
0.509168 0.078986 0.030382
0.516453 0.021080 0.074464
0.586004 -0.029141 0.069879
0.515451 0.015662 0.024271
0.591542 -0.026461 0.063490
0.544371 -0.049088 0.061934
0.572804 -0.062490 0.021209
0.524690 -0.017909 0.039962
0.556131 -0.051814 0.031324
0.520822 0.062038 0.008409
0.520935 -0.016209 0.067343
0.578878 -0.025148 0.076059
0.550394 -0.050147 0.069822
0.503951 0.034571 0.033207
0.564733 0.057296 0.067791
0.511336 0.003958 0.060756
0.546547 0.087119 0.021232
0.566592 -0.040532 0.077079
0.558155 0.078782 0.049314
0.508844 0.017124 0.063319
0.509887 0.055852 0.016021
0.540759 -0.040153 0.039178
0.529230 0.093282 0.030801
0.581538 0.036893 0.061785
0.556879 0.060735 0.002926
0.583037 0.040841 0.015349
0.569913 0.014003 0.003051
0.563949 0.074710 0.047340
0.526264 0.034187 0.079960
0.518750 0.004418 0.074633
0.598228 -0.017630 0.035177
0.580857 0.052168 0.048915
0.570054 0.062827 0.056261
0.509998 0.051769 0.063203
0.522348 0.045291 0.006976
0.541310 0.079608 0.060517
0.550061 0.005516 0.006677
0.528322 -0.014184 0.030439
0.501379 0.057504 0.033204
0.562095 0.028062 0.000309
0.566089 0.052989 0.003620
0.581982 0.047148 0.052331
0.569022 0.049654 0.069574
0.576210 0.052851 0.012128
0.592105 0.003926 0.055526
0.574071 0.037557 0.071082
0.563392 0.031143 0.080706
0.597392 -0.015591 0.031682
0.538249 0.000448 0.013611
0.537088 -0.038603 0.068782
0.575607 0.060980 0.048950
0.595827 -0.008737 0.028635
0.530304 0.080680 0.012279
0.578281 0.024388 0.005757
0.592991 -0.003150 0.056213
0.525064 -0.021146 0.043906
0.564628 0.059065 0.066296
0.500962 0.044503 0.039541
0.511413 0.047460 0.014855
0.595753 -0.009406 0.050182
0.557767 0.067819 0.063703
0.531414 -0.029701 0.041751
0.512720 0.066714 0.015638
0.539624 0.092135 0.029585
0.514370 0.013778 0.071016
0.555700 -0.026170 0.016903
0.524862 0.059504 0.005937
0.563726 -0.048922 0.022372
0.579001 -0.069420 0.058346
0.540355 -0.043029 0.067010
0.581636 -0.076354 0.026247
0.511273 0.010761 0.036770
0.534832 0.093948 0.036046
0.530021 0.087154 0.053563
0.529764 0.093927 0.034849
0.547616 0.063433 0.002174
0.553433 0.086351 0.029492
0.544311 0.012177 0.086034
0.529875 -0.005333 0.022776
0.586879 -0.078030 0.038050
0.581845 0.024431 0.067654
0.600644 -0.037227 0.039945
0.583562 0.030009 0.011569
0.580215 0.047812 0.055651
0.551539 0.082783 0.050489
0.554044 0.054321 0.000500
0.579181 -0.056507 0.066989
0.527085 -0.016675 0.034248
0.577167 0.040550 0.066096
0.504981 0.059384 0.053465
0.568704 -0.045424 0.075051
0.573791 0.061954 0.017506
0.568747 0.053897 0.005452
0.528425 0.060915 0.072048
0.572913 -0.045097 0.016008
0.506361 0.045965 0.021853
0.556587 0.081757 0.045488
0.586941 0.042483 0.030139
0.584727 -0.014062 0.071531
0.556993 0.084000 0.033532
0.594388 0.000591 0.049515
0.527754 0.085154 0.055389
0.545112 -0.050229 0.048180
0.579722 0.057921 0.034365
0.558177 0.079341 0.048156
0.505977 0.030451 0.060319
0.552951 -0.047822 0.031618
0.594967 0.006980 0.031936
0.564989 -0.070093 0.039466
0.500541 0.049707 0.038990
0.592103 0.019552 0.024353
0.578368 -0.062484 0.017784
0.543281 0.076708 0.062943
0.524281 -0.022929 0.051132
0.507921 0.011483 0.049240
0.594353 0.005895 0.045731
0.551387 0.050831 -0.000384
0.562463 0.069980 0.011301
0.587828 0.037683 0.024871
0.546864 -0.036172 0.077688
0.529140 0.009973 0.015073
0.531034 -0.018552 0.030951
0.515819 0.023605 0.019239
0.510224 0.057727 0.015831
0.541468 0.048345 0.079667
0.514126 0.044886 0.012753
0.553302 0.030490 0.083882
0.534085 0.089321 0.021043
0.575329 -0.034534 0.076434
0.531637 0.020694 0.083559
0.553518 -0.015360 0.084382
0.562760 0.063529 0.063671
0.567431 0.041316 0.074910
0.561986 0.033622 0.000011
0.577524 -0.072260 0.056152
0.525554 0.042102 0.005749
0.545150 0.090658 0.039356
0.509055 0.071205 0.053841
0.566137 -0.038362 0.077859
0.566032 0.013076 0.082587
0.585584 -0.027518 0.014793
0.555153 -0.001152 0.007582
0.526309 0.047107 0.004792
0.590572 -0.063597 0.016965
0.518271 0.060485 0.009594
0.587715 0.038647 0.042103
0.591742 -0.065102 0.053270
0.586989 -0.077931 0.038582
0.509994 0.032994 0.021367
0.570880 0.033488 0.002412
0.537333 -0.023363 0.028479
0.535047 0.051958 0.077574
0.591215 -0.018189 0.019026
0.556680 0.052033 0.075663
0.581495 -0.004625 0.074164
0.535863 0.046653 0.001297
0.558768 0.012811 0.084829
0.534664 -0.013908 0.081841
0.509177 0.055253 0.061195
0.523608 0.012382 0.018113
0.513650 -0.002971 0.059752
0.588780 -0.040007 0.016005
0.515742 -0.007428 0.053613
0.535645 -0.020916 0.028226
0.508895 0.012996 0.061132
0.567411 0.020785 0.081062
0.504839 0.028503 0.056722
0.599327 -0.050349 0.048348
0.531804 0.090196 0.022453
0.595503 0.001770 0.042485
0.532764 0.034586 0.003939
0.543609 0.027130 0.002023
0.577370 -0.077657 0.041908
0.554717 -0.024988 0.016852
0.580700 -0.026689 0.012937
0.559951 0.019815 0.001315
0.533570 0.085022 0.015528
0.550204 0.013719 0.085998
0.529308 0.070528 0.067244
0.545965 0.061942 0.073492
0.524262 0.073083 0.064113
0.553472 0.059755 0.001784
0.601539 -0.056879 0.038437
0.579600 0.014307 0.006510
0.563040 0.050656 0.073296
0.537603 -0.042078 0.052169
0.566147 0.012113 0.082621
0.573582 0.065980 0.026453
0.575572 0.025247 0.074395
0.540496 0.025209 0.085122
0.539812 0.010221 0.085536
0.571868 -0.074716 0.047519
0.567915 0.004128 0.004652
0.577160 -0.063823 0.063453
0.525111 0.011628 0.080557
0.514598 0.082830 0.024920
0.590874 0.006519 0.057740
0.566149 0.051615 0.070723
0.597731 -0.033804 0.026252
0.581800 0.033423 0.063428
0.566090 0.002465 0.005009
0.530901 -0.007963 0.081515
0.549731 -0.036168 0.078280
0.568500 -0.071836 0.052654
0.564384 0.077062 0.036839
0.532748 0.046577 0.002266
0.580528 0.045655 0.014043
0.539100 -0.042229 0.065930
0.537646 0.056241 0.001354
0.590911 -0.017664 0.063913
0.571946 0.043425 0.004344
0.537585 0.075843 0.007804
0.601673 -0.060312 0.030765
0.524078 0.089015 0.049196
0.504016 0.054484 0.052960
0.562398 -0.067945 0.051132
0.525841 -0.025434 0.050900
0.511739 0.039541 0.016494
0.505311 0.036846 0.027776
0.542257 0.014874 0.085868
0.555573 -0.035379 0.021187
0.531540 0.063432 0.071692
0.580580 0.043072 0.059122
0.538612 -0.026499 0.079439
0.570487 0.033143 0.002228
0.535259 0.069257 0.069071
0.543809 0.085133 0.016620
0.571751 0.048794 0.005647
0.561476 0.005921 0.004335
0.571591 -0.006738 0.007489
0.549660 0.057124 0.075420
0.522545 -0.020019 0.065626
0.559681 -0.046881 0.024393
0.536456 -0.026285 0.031523
0.513923 0.032212 0.071935
0.567574 -0.000047 0.082826
0.566792 0.004563 0.004506
0.594902 -0.032108 0.058221
0.556827 0.083309 0.039661
0.521654 0.079652 0.058337
0.595088 -0.023459 0.023737
0.567553 -0.013292 0.082697
0.595337 -0.031274 0.057352
0.536686 0.091338 0.025468
0.515458 0.087818 0.038349
0.501408 0.043278 0.044979
0.571879 0.068519 0.039450
0.574715 -0.015283 0.079448
0.553175 0.019870 0.001849
0.564221 -0.043152 0.019505
0.544946 0.085709 0.017850
0.562734 -0.065891 0.035905
0.531236 0.079344 0.011120
0.539257 0.016511 0.085479
0.521117 -0.017880 0.053180
0.546229 -0.049503 0.065660
0.586848 -0.026396 0.069239
0.543663 0.007780 0.007972
0.548304 0.033377 0.083910
0.531960 0.094106 0.036048
0.588939 0.037078 0.033950
0.523975 0.015151 0.080014
0.511621 0.045924 0.066715
0.517244 0.015795 0.074612
0.565677 0.068467 0.054991
0.544602 0.069881 0.068499
0.519414 0.051295 0.008226
0.580771 -0.071924 0.055271
0.583589 0.037824 0.014625
0.582400 -0.078684 0.035876
0.558300 -0.016342 0.084056
0.589507 -0.015215 0.017217
0.594423 -0.016642 0.056996
0.525034 0.023471 0.080652
0.571108 0.031301 0.002394
0.532876 0.017972 0.084027
0.532572 0.074443 0.065238
0.583284 0.009908 0.009238
0.530874 0.094071 0.036360
0.504593 0.024736 0.053354
0.577381 0.019592 0.005117
0.529017 0.091432 0.025247
0.506010 0.022853 0.038442
0.523183 0.055056 0.072433
0.568502 0.036761 0.076050
0.598567 -0.070253 0.034623
0.542835 -0.048364 0.056198
0.548530 0.073524 0.064123
0.593539 0.008139 0.025098
0.592777 -0.044668 0.017985
0.567252 0.003017 0.082791
0.560662 -0.054197 0.028209
0.531562 0.064434 0.071185
0.597636 -0.027643 0.051064
0.514723 -0.002728 0.046284
0.588840 0.037305 0.035114
0.588989 0.036501 0.029960
0.543473 0.080942 0.011688
0.552554 -0.057551 0.044217
0.590549 -0.028312 0.017952
0.529681 -0.018422 0.032393
0.502219 0.037490 0.038265
0.512727 0.007431 0.036940
0.506128 0.046026 0.022225
0.583872 -0.013997 0.012738
0.554795 -0.045963 0.074619
0.554946 -0.059932 0.043170
0.561150 0.079924 0.038388
0.582039 -0.077234 0.028118
0.503525 0.034961 0.053196
0.568431 0.024585 0.079804
0.600984 -0.063265 0.028387
0.579907 -0.039951 0.072717
0.594352 -0.042425 0.019664
0.588210 0.012909 0.014483
0.531118 0.049422 0.002751
0.552280 0.057157 0.074741
0.577133 0.061329 0.041679
0.591459 0.011839 0.020083
0.500930 0.052104 0.043737
0.512774 0.026888 0.020903
0.516918 -0.007392 0.067073
0.502382 0.037206 0.037439
0.523315 0.033504 0.078645
0.511821 0.026100 0.022624
0.504460 0.024017 0.050665
0.533263 0.088970 0.020466
0.509910 0.064332 0.017790
0.562757 -0.061002 0.030874
0.575769 -0.005407 0.078789
0.572152 -0.060417 0.020966
0.585318 0.033072 0.056781
0.594169 -0.022843 0.058751
0.561192 -0.061515 0.033434
0.524849 0.091073 0.045743
0.591429 -0.009242 0.019582
0.519660 0.002108 0.028499
0.587813 -0.011228 0.015385
0.558398 0.066319 0.064702
0.581224 0.010480 0.072359
0.595962 -0.064238 0.048674
0.595063 -0.049865 0.019078
0.523923 -0.010539 0.033199
0.601284 -0.054333 0.028450
0.553612 -0.019487 0.014970
0.538299 0.029475 0.003029
0.515728 0.003779 0.070561
0.561354 0.077757 0.045683
0.563141 -0.016799 0.083424
0.534721 -0.020311 0.028632
0.539883 0.049953 0.000350
0.592899 0.009248 0.049853
0.514980 0.020639 0.021760
0.509200 0.022311 0.065656
0.588539 -0.036251 0.066562
0.598055 -0.056195 0.021414
0.589562 -0.067172 0.053712
0.521488 0.033577 0.077601
0.511035 0.029033 0.068917
0.582960 -0.007502 0.072971
0.569088 0.065896 0.053755
0.535748 0.064535 0.071894
0.579759 0.028039 0.068916
0.588836 -0.040935 0.065530
0.581704 -0.033135 0.072959
0.587569 -0.077385 0.040570
0.593291 -0.045563 0.018251
0.568977 -0.073384 0.038179
0.538716 0.014720 0.085415
0.598686 -0.030644 0.048366
0.599790 -0.062435 0.042007
0.534966 0.067271 0.004386
0.571646 0.023392 0.002597
0.510235 0.078469 0.027111
0.523020 0.042524 0.007041
0.519600 -0.015204 0.063749
0.556863 0.081312 0.046065
0.514805 0.052147 0.011349
0.595155 0.006634 0.038242
0.505051 0.027982 0.035857
0.588528 -0.003467 0.065543
0.535317 -0.039341 0.052714
0.569225 0.062742 0.011449
0.568884 -0.038549 0.015825
0.515623 0.013392 0.072460
0.581569 0.046233 0.054282
0.562830 -0.021557 0.082700
0.555777 0.053412 0.075381
0.552032 0.080371 0.053798
0.542977 0.077879 0.061849
0.558285 0.011130 0.085022
0.581263 0.008494 0.072680
0.528080 0.086396 0.054137
0.573217 -0.000054 0.080064
0.549161 -0.007961 0.011961
0.580382 -0.016283 0.011457
0.503855 0.034735 0.054429
0.509112 0.032906 0.022758
0.523124 -0.018422 0.045098
0.588135 0.029550 0.018825
0.550185 -0.013409 0.013817
0.503811 0.062342 0.027340
0.571550 -0.000521 0.006034
0.553393 -0.053134 0.035796
0.588314 0.015195 0.014853
0.576499 0.059894 0.048580
0.546343 -0.050077 0.064681
0.555168 0.081820 0.047734
0.511580 0.071314 0.056916
0.536645 -0.037432 0.069873
0.509387 0.072617 0.023074
0.519389 -0.014071 0.065555
0.522174 0.040734 0.076506
0.542866 0.075884 0.007634
0.596332 -0.009165 0.030271
0.540455 0.091393 0.043995
0.523582 0.043012 0.076649
0.563610 0.062667 0.063731
0.518648 0.011894 0.022799
0.539555 0.001201 0.085023
0.523766 0.082789 0.016390
0.500653 0.055685 0.039595
0.524102 -0.020432 0.045695
0.565436 0.072921 0.048213
0.529002 -0.031288 0.059534
0.595919 -0.046353 0.055814
0.582248 -0.011259 0.011423
0.522877 -0.006459 0.076649
0.587168 0.032391 0.018307
0.527120 -0.021478 0.073699
0.584244 0.041790 0.051996
0.505585 0.025811 0.036368
0.582659 -0.016158 0.012394
0.524436 0.015964 0.080322
0.551930 -0.032980 0.022462
0.519119 -0.011410 0.046058
0.562895 -0.012432 0.083960
0.506452 0.026351 0.060943
0.571607 -0.040826 0.015450
0.588714 -0.075409 0.024598
0.593372 0.018217 0.037981
0.588029 -0.033479 0.015968
0.525476 0.058692 0.071976
0.568742 0.048372 0.070553
0.508443 0.077340 0.045900
0.527990 0.092673 0.029089
0.590901 -0.060554 0.056929
0.561775 0.021592 0.083212
0.502726 0.050439 0.028308
0.589819 -0.044775 0.063803
0.528181 -0.002047 0.081138
0.526441 0.089479 0.022517
0.549195 -0.029733 0.022652
0.600723 -0.042205 0.031953
0.526616 0.084985 0.055299
0.599151 -0.030083 0.031697
0.520086 -0.015606 0.065234
0.507351 0.015145 0.057801
0.538080 0.056501 0.076132
0.520300 -0.000490 0.075512
0.549135 0.046615 0.079873
0.600641 -0.043708 0.043996
0.529739 0.036615 0.004806
0.523382 -0.011081 0.075514
0.599185 -0.039226 0.027802
0.524951 -0.020700 0.043465
0.546967 0.088479 0.044045
0.557864 0.072103 0.058969
0.550603 0.061392 0.001818
0.533624 0.050937 0.001943
0.566932 -0.014626 0.009701
0.521686 0.017670 0.078576
0.527824 0.092810 0.029716
0.588885 -0.007321 0.065675
0.518964 0.044756 0.009112
0.549872 0.082895 0.015897
0.513701 0.027383 0.019553
0.516942 -0.009928 0.053753
0.599222 -0.025222 0.041864
0.560396 0.081102 0.034461
0.576671 -0.003963 0.007842
0.586089 0.031717 0.015893
0.599078 -0.025851 0.043849
0.569053 0.036525 0.075755
0.549282 -0.005002 0.010742
0.529063 -0.007702 0.080699
0.501648 0.062924 0.039854
0.570770 0.026058 0.077993
0.558193 0.017978 0.084600
0.530154 0.084274 0.015277
0.554864 0.085297 0.036715
0.563638 -0.060599 0.067392
0.513739 0.067563 0.015015
0.559308 -0.063668 0.039669
0.585129 -0.007557 0.012702
0.577965 0.049832 0.012677
0.537949 -0.040655 0.066694
0.525851 0.001723 0.080277
0.518303 -0.006531 0.040387
0.518909 0.011749 0.022599
0.545516 -0.037340 0.076701
0.576861 -0.019330 0.077924
0.532687 -0.005210 0.020475
0.572414 0.058273 0.058155
0.568915 -0.005580 0.082476
0.511440 0.083443 0.040414
0.526104 -0.023967 0.045929
0.523226 -0.019153 0.046196
0.562245 -0.025591 0.081903
0.517972 0.070916 0.062379
0.560374 -0.018194 0.012172
0.548482 -0.052359 0.043112
0.541474 0.012407 0.007103
0.510735 0.005819 0.046179
0.584141 0.026549 0.011370
0.556229 0.084579 0.033753
0.538312 -0.042415 0.049373
0.569851 0.058728 0.008913
0.558341 0.059514 0.070702
0.540971 0.003693 0.010724
0.539506 -0.019104 0.082086
0.547184 -0.007865 0.085138
0.597113 -0.008129 0.036087
0.514275 0.026677 0.072604
0.568469 -0.050851 0.072874
0.585246 0.003549 0.068965
0.518198 0.057350 0.009212
0.506138 0.022675 0.058929
0.597208 -0.066500 0.022231
0.569192 0.041585 0.002526
0.519611 0.058496 0.069219
0.517948 0.048261 0.071715
0.581127 0.049765 0.051483
0.524586 -0.004397 0.027152
0.538311 -0.043177 0.057463
0.575528 0.010667 0.077514
0.596784 -0.026461 0.053311
0.580334 0.006982 0.073863
0.513987 0.043157 0.069896
0.565395 0.074082 0.045445
0.523864 -0.011305 0.075913
0.570474 0.023576 0.078806
0.569216 0.015285 0.002739
0.544597 -0.026055 0.024057
0.530120 -0.031515 0.049098
0.505449 0.039909 0.025813
0.571865 -0.071166 0.057638
0.555309 0.044959 -0.000619
0.520554 -0.006232 0.074220
0.562885 -0.062908 0.064770
0.554135 0.086063 0.031588
0.600238 -0.066170 0.028294
0.555039 -0.016071 0.084255
0.568948 -0.046362 0.018108
0.557188 0.064473 0.067363
0.593502 -0.026207 0.021105
0.527042 -0.028089 0.062667
0.551466 0.080403 0.054247
0.573132 0.067302 0.032211
0.583593 0.011615 0.009421
0.593853 0.011655 0.027565
0.554659 -0.024565 0.082485
0.520871 0.005517 0.076940
0.545924 0.037054 -0.000166
0.567010 0.071297 0.048382
0.505580 0.030020 0.032123
0.558653 -0.064652 0.051637
0.558998 0.060139 0.069817
0.547663 0.050394 -0.000492
0.527893 -0.029196 0.063285
0.559997 -0.008189 0.084784
0.577773 -0.032542 0.013088
0.540512 0.087770 0.050964
0.533058 -0.036191 0.051340
0.598749 -0.041156 0.050359
0.530939 -0.020781 0.077827
0.517836 -0.000899 0.072401
0.518717 0.056654 0.008830
0.556529 0.007915 0.004442
0.506239 0.062653 0.022467
0.564213 0.074381 0.018931
0.501448 0.049218 0.046513
0.539012 -0.041196 0.043818
0.597694 -0.012319 0.037079
0.593445 -0.051750 0.017625
0.516421 0.009885 0.072759
0.528742 0.091836 0.046106
0.573650 -0.067105 0.022579
0.580484 0.018307 0.071398
0.578527 -0.017376 0.011051
0.569413 0.071410 0.039179
0.503126 0.061017 0.028540
0.553466 0.010973 0.004137
0.501955 0.039451 0.046458
0.537284 -0.040758 0.064574
0.569140 -0.040505 0.076685
0.534589 -0.029465 0.036351
0.571654 -0.045337 0.016568
0.562687 0.071290 0.012773
0.565034 -0.029309 0.080640
0.596722 -0.036308 0.054913
0.522983 0.082835 0.016880
0.503216 0.068213 0.042093
0.545316 -0.048110 0.066622
0.520438 -0.008449 0.073112
0.530824 0.039517 0.080502
0.571848 -0.073546 0.031534
0.574303 0.063128 0.020898
0.529543 0.016604 0.082886
0.577254 -0.058133 0.017301
0.517372 -0.010294 0.064443
0.559057 0.079588 0.019598
0.567635 -0.019146 0.082088
0.577138 0.060293 0.024279
0.568983 -0.030059 0.079674
0.560108 0.029808 -0.000006
0.585051 -0.059060 0.062353
0.522967 -0.005492 0.076992
0.503069 0.045743 0.028785
0.569141 -0.061801 0.024266
0.591268 -0.076394 0.035892
0.584518 -0.075173 0.049455
0.504705 0.033205 0.057049
0.563351 0.059491 0.004954
0.545480 0.080950 0.012053
0.511622 0.079746 0.049004
0.565262 0.056571 0.067939
0.586738 0.041927 0.041275
0.571849 0.066052 0.020164
0.542980 -0.014673 0.018307
0.579993 0.057403 0.032894
0.542260 0.049044 -0.000086
0.578822 0.044337 0.010919
0.569732 0.008608 0.081295
0.581857 0.020523 0.069064
0.586688 0.007423 0.065988
0.536960 0.090893 0.047362
0.518640 0.012266 0.022578
0.587967 0.039721 0.036538
0.518002 0.002927 0.030450
0.594027 -0.050284 0.018185
0.504137 0.032236 0.034737
0.597454 -0.011013 0.041193
0.546528 -0.052311 0.051281
0.572052 0.047129 0.005347
0.586455 0.043440 0.039055
0.528251 -0.010853 0.027948
0.568047 0.051514 0.004142
0.539971 0.091503 0.044127
0.529987 0.088491 0.020005
0.559085 -0.064140 0.057012
0.566004 0.045329 0.074047
0.544717 0.089907 0.043181
0.528424 -0.000271 0.081470
0.529296 0.050090 0.076781
0.588475 -0.046815 0.015521
0.501366 0.049228 0.046123
0.586466 -0.069890 0.018681
0.598585 -0.030152 0.029586
0.553943 -0.056817 0.064820
0.588123 0.039128 0.029911
0.512207 0.054791 0.064782
0.593867 -0.074182 0.027273
0.585306 0.036077 0.054484
0.523273 -0.001050 0.078137
0.538562 0.065236 0.003105
0.585635 -0.045486 0.014735
0.506237 0.033269 0.027966
0.518669 -0.014013 0.057197
0.583154 -0.074966 0.050584
0.556974 -0.060900 0.061547
0.518424 0.038280 0.074707
0.512749 0.013666 0.030417
0.542464 0.012379 0.085898
0.522561 0.083398 0.017632
0.601127 -0.050679 0.041930
0.560953 -0.036900 0.078704
0.540638 -0.034738 0.034102
0.562890 0.070435 0.012130
0.549650 0.048166 -0.000687
0.510313 0.032893 0.020970
0.596571 -0.003941 0.036343
0.572269 0.066738 0.023049
0.585406 0.046159 0.029329
0.520918 0.075728 0.060952
0.519021 0.035051 0.011753
0.508441 0.017668 0.062686
0.519184 0.003120 0.028372
0.592699 -0.014717 0.060348
0.514853 0.011708 0.071166
0.589166 -0.049391 0.063216
0.579164 -0.067305 0.060030
0.585482 -0.018901 0.070846
0.584940 0.047802 0.034187
0.560504 0.051988 0.001320
0.547423 0.051124 -0.000417
0.557953 -0.012606 0.084596
0.588398 -0.005371 0.015536
0.520713 -0.016189 0.050026
0.511248 0.008592 0.064214
0.523201 0.023213 0.013357
0.530903 0.078126 0.062178
0.558652 0.020553 0.001213
0.594941 -0.069910 0.045322
0.564033 0.021315 0.001229
0.599883 -0.067782 0.029706
0.528553 0.012202 0.014401
0.571987 0.067853 0.042596
0.592825 0.017881 0.042672
0.542062 -0.018365 0.082804
0.576335 -0.071736 0.023588
0.535980 0.061256 0.073614
0.591795 -0.076299 0.034018
0.526024 0.041299 0.078244
0.585699 -0.078238 0.039385
0.503798 0.037189 0.031548
0.539173 0.047873 0.079673
0.580362 0.045882 0.057180
0.569408 0.043303 0.002899
0.572701 0.010472 0.079471
0.508257 0.059528 0.058581
0.559149 -0.061122 0.036130
0.593824 0.007307 0.025903
0.509479 0.078595 0.046401
0.555748 0.084732 0.036028
0.580950 -0.027344 0.074344
0.584677 -0.067938 0.056573
0.577634 0.061033 0.038343
0.600502 -0.041325 0.044117
0.507597 0.047365 0.061026
0.548607 0.085546 0.019466
0.524804 0.007199 0.080091
0.594450 0.011760 0.032241
0.570991 0.019579 0.002662
0.534290 0.079142 0.061617
0.522277 -0.020124 0.053930
0.539346 0.093068 0.035312
0.575560 -0.069035 0.059933
0.516930 -0.009977 0.062738
0.600183 -0.039025 0.044909
0.540449 -0.043834 0.065447
0.588708 0.036847 0.038732
0.566398 -0.013471 0.083033
0.570283 0.000651 0.005623
0.566434 -0.015055 0.009886
0.518335 0.003378 0.074000
0.572866 0.062470 0.016412
0.526605 -0.002627 0.080196
0.532519 -0.033468 0.045427
0.588262 -0.005880 0.066377
0.580200 0.035235 0.009207
0.581044 0.052542 0.022074
0.546916 0.090030 0.037631
0.586288 -0.058163 0.015522
0.600393 -0.036794 0.033908
0.559494 0.024605 0.000548
0.601233 -0.063911 0.031110
0.587555 0.037809 0.023907
0.580094 -0.073731 0.053614
0.563597 -0.015461 0.010479
0.537866 0.002897 0.084830
0.536139 0.016792 0.007790
0.504712 0.051790 0.023704
0.564240 0.052603 0.002689
0.520302 0.018207 0.077577
0.551962 -0.056778 0.061053
0.551125 -0.050920 0.036554
0.583671 0.044944 0.050069
0.543901 -0.014162 0.083920
0.584188 -0.052686 0.065957
0.572699 0.065586 0.021571
0.592003 0.001109 0.020651
0.562127 0.040750 0.000166
0.581975 -0.078443 0.041840
0.556531 -0.037624 0.078408
0.525387 0.009868 0.017992
0.569979 -0.065518 0.025476
0.568861 -0.045387 0.075039
0.570603 0.069106 0.023778
0.536419 0.022404 0.084738
0.583582 0.045137 0.050112
0.597386 -0.009991 0.036843
0.560540 -0.005104 0.007711
0.595630 0.002571 0.033851
0.505290 0.065976 0.050920
0.568074 0.063292 0.010740
0.563202 -0.049763 0.073676
0.573694 0.028812 0.003432
0.549055 -0.048456 0.070462
0.577688 0.057343 0.019722
0.538860 0.005857 0.010858
0.585714 0.013118 0.011433
0.505170 0.065209 0.025696
0.504656 0.042642 0.026268
0.554955 0.040442 0.080801
0.537106 0.035028 0.002254
0.521729 -0.019129 0.053823
0.564296 0.077225 0.036169
0.529849 0.023204 0.082808
0.515374 0.053586 0.068031
0.576862 0.058958 0.049304
0.581357 -0.026262 0.013083
0.512719 0.060997 0.063056
0.528421 0.004735 0.081913
0.591017 0.029983 0.032942
0.593666 -0.031474 0.060337
0.585147 0.034244 0.056331
0.573931 0.019002 0.077377
0.534666 0.086510 0.017158
0.570766 0.021751 0.079014
0.539505 0.035750 0.001409
0.520228 0.035123 0.010831
0.520456 0.068901 0.010566
0.538923 0.004351 0.011479
0.512271 0.015373 0.068584
0.563633 0.077319 0.039855
0.590170 0.018231 0.053643
0.548595 0.046137 -0.000772
0.509480 0.076068 0.025907
0.561015 -0.061360 0.033533
0.506864 0.018060 0.058538
0.578231 0.053891 0.053269
0.589178 0.016986 0.016504
0.573966 -0.076098 0.044780
0.564782 0.003077 0.004879
0.566782 -0.052413 0.072368
0.591168 0.007665 0.056417
0.511381 0.004735 0.045438
0.583465 -0.002295 0.071955
0.547188 0.060765 0.073996
0.513978 0.031911 0.072024
0.575201 0.036263 0.070520
0.524532 -0.009870 0.077102
0.545433 0.031981 0.084316
0.503355 0.033767 0.052114
0.594698 0.009195 0.039571
0.511449 0.004719 0.062020
0.563673 -0.059882 0.067976
0.527388 0.092367 0.044117
0.596167 -0.053937 0.053550
0.501958 0.057246 0.030795
0.569075 0.071909 0.038334
0.580292 0.056729 0.030779
0.533102 -0.035238 0.047700
0.593888 0.016304 0.034320
0.589111 0.036394 0.035481
0.596977 -0.063497 0.047485
0.592099 0.015080 0.022395
0.520565 0.070384 0.011082
0.582545 -0.026502 0.073204
0.579393 -0.076987 0.047896
0.526829 0.079414 0.012524
0.557307 0.059086 0.002465
0.581787 -0.043921 0.070502
0.550667 0.071877 0.006354
0.593720 0.016544 0.037410
0.580757 -0.062278 0.062881
0.516361 0.016873 0.073871
0.555768 -0.027828 0.081611
0.537666 0.042829 0.081139
0.540623 0.006776 0.009622
0.502947 0.037318 0.034429
0.584942 -0.076875 0.045995
0.553833 0.038514 -0.000800
0.513284 0.069995 0.016587
0.560491 -0.022359 0.082798
0.530044 -0.009747 0.025433
0.537321 -0.010505 0.019971
0.594105 -0.032940 0.059627
0.566553 0.073967 0.024057
0.593170 -0.007571 0.022542
0.584933 0.047367 0.029795
0.511461 0.075686 0.053388
0.536563 -0.023175 0.029041
0.520900 0.033863 0.010785
0.528060 -0.026431 0.044623
0.544264 -0.021666 0.082395
0.587981 0.026701 0.017185
0.588754 0.021114 0.016716
0.564605 -0.053160 0.072113
0.532511 -0.004193 0.020035
0.600487 -0.035147 0.038169
0.594150 -0.028440 0.059386
0.592857 -0.058241 0.017114
0.549747 -0.049553 0.069906
0.516604 -0.000236 0.036557
0.517769 -0.012286 0.058724
0.529621 0.078665 0.061579
0.533582 0.084536 0.056525
0.502968 0.036728 0.034895
0.587709 -0.074887 0.023378
0.547901 -0.019318 0.083399
0.512739 0.012010 0.068272
0.594457 0.000139 0.049526
0.505798 0.069526 0.027389
0.562832 -0.068059 0.040407
0.547696 0.078692 0.010452
0.579917 0.023138 0.070585
0.565903 0.071444 0.017096
0.553717 0.053519 0.000292
0.543765 -0.026061 0.024762
0.546188 0.088366 0.045373
0.537982 0.093354 0.038131
0.546044 -0.036076 0.029701
0.529809 0.003303 0.082411
0.565136 0.070610 0.052813
0.523586 0.071757 0.009962
0.505958 0.070254 0.049116
0.525242 0.010024 0.080541
0.511948 0.002792 0.046989
0.508521 0.011747 0.058838
0.545886 0.039897 0.082396
0.506094 0.054645 0.056835
0.540873 0.087689 0.050909
0.510957 0.003072 0.054414
0.547857 0.029678 0.084654
0.556628 -0.002202 0.085468
0.510671 0.076562 0.024331
0.522532 -0.017092 0.044597
0.530077 0.009809 0.014459
0.512488 0.030901 0.019188
0.583099 -0.062141 0.061713
0.513516 0.016029 0.070445
0.542491 0.047913 0.079846
0.501624 0.051327 0.047044
0.581895 0.016737 0.070160
0.573674 0.065994 0.027095
0.510145 0.005320 0.051726
0.543778 -0.001025 0.011391
0.539929 -0.039510 0.039667
0.565513 -0.058805 0.026246
0.547479 -0.020734 0.018733
0.559723 0.061389 0.004174
0.571223 0.068798 0.025488
0.545688 0.065778 0.071180
0.549449 0.088783 0.031888
0.568963 -0.033533 0.014499
0.581941 0.026674 0.008989
0.526318 0.056827 0.004970
0.543161 0.057993 0.075710
0.533629 0.049912 0.078051
0.593791 -0.074463 0.038015
0.550370 0.078204 0.010866
0.583930 0.022861 0.010405
0.547590 0.068295 0.068978
0.580468 0.050618 0.052127
