ply
format ascii 1.0
element vertex 1024
property float x
property float y
property float z
end_header
0.582142 0.038793 0.008345
0.561007 -0.043594 0.006911
0.560589 -0.048713 0.007550
0.524280 0.088298 0.029942
0.534283 -0.040042 0.066656
0.543065 0.005641 -0.002223
0.523100 0.080953 0.021311
0.561329 0.031098 0.080806
0.535052 -0.048627 0.010740
0.526146 -0.001043 0.014990
0.534013 0.055202 0.075660
0.550945 0.094508 0.056265
0.548544 -0.031743 0.074565
0.527608 -0.007842 0.076674
0.524195 0.041250 0.074040
0.519559 0.001182 0.027091
0.544584 -0.014996 0.001510
0.520341 0.084490 0.039525
0.567156 0.071641 0.002577
0.512815 0.047386 0.051887
0.532858 -0.007898 0.080700
0.534766 -0.072245 0.031287
0.546993 0.097964 0.018952
0.573821 -0.046381 0.029654
0.547498 -0.064662 0.005448
0.583909 0.010674 0.016879
0.575143 0.076743 0.015204
0.587132 0.056042 0.044410
0.587953 0.007172 0.045964
0.579786 0.074324 0.023664
0.521732 -0.008635 0.026151
0.513053 0.032572 0.053497
0.542100 -0.046123 0.067710
0.563905 -0.053737 0.053507
0.582676 0.046683 0.061292
0.577917 -0.000300 0.066613
0.519552 -0.009142 0.033538
0.513647 0.059071 0.050603
0.583206 0.070297 0.032814
0.534095 -0.047372 0.061125
0.531512 0.086185 0.058903
0.565250 0.061753 0.071336
0.590425 0.032558 0.043254
0.525113 0.077861 0.059654
0.521566 0.086290 0.036350
0.516321 0.052234 0.060234
0.536393 -0.034205 0.071879
0.588721 0.024006 0.051489
0.527353 0.081720 0.016112
0.550268 -0.060252 0.004712
0.547027 -0.058946 0.004387
0.530977 0.059958 0.072263
0.575712 0.024498 0.072249
0.578861 -0.003297 0.012908
0.524843 0.068797 0.064189
0.584532 0.007306 0.058229
0.572622 0.087304 0.044049
0.553762 0.072354 -0.001710
0.589139 0.050020 0.040604
0.568544 0.034671 -0.004845
0.566828 0.035576 0.077847
0.550820 -0.009984 0.081262
0.533367 -0.029649 0.072277
0.529017 0.066374 0.006503
0.551999 0.071175 0.071385
0.520495 0.082119 0.028327
0.533656 0.094499 0.022775
0.525963 0.089943 0.047252
0.529524 0.088091 0.055451
0.552380 0.052011 0.078842
0.548267 -0.070084 0.048067
0.552523 0.048746 0.079795
0.527532 0.020063 0.079114
0.517389 0.014858 0.027154
0.532359 -0.054121 0.052454
0.568212 0.086555 0.014839
0.553540 -0.011808 -0.000888
0.577442 -0.036827 0.038026
0.530896 0.096410 0.040229
0.538708 0.036775 0.081848
0.576116 -0.033983 0.050631
0.511920 0.035374 0.039068
0.578422 -0.032967 0.042126
0.531893 -0.037725 0.065621
0.530856 -0.057407 0.018101
0.515764 -0.000281 0.052203
0.525776 -0.042318 0.033618
0.524106 0.077971 0.017431
0.526473 0.000796 0.077715
0.574649 -0.028190 0.058950
0.540220 -0.041323 0.069786
0.513210 0.056457 0.050178
0.586707 0.054413 0.049103
0.522249 0.023427 0.074220
0.559498 0.091698 0.013644
0.560050 -0.038407 0.067385
0.579646 0.078021 0.033640
0.525855 0.036442 0.076151
0.516846 0.075459 0.029950
0.520989 -0.026607 0.046432
0.552127 0.102822 0.029497
0.590628 0.029902 0.038214
0.550255 0.064642 -0.004259
0.570800 0.036153 -0.003523
0.545288 0.016388 -0.005036
0.582033 0.072337 0.029635
0.553679 0.045284 0.080533
0.535093 0.020375 0.082790
0.573154 -0.025140 0.013225
0.588975 0.045286 0.025563
0.587312 0.058512 0.035887
0.538293 0.068475 0.071593
0.519066 0.061864 0.017347
0.571664 0.083879 0.051300
0.528113 0.015071 0.008475
0.515365 0.002579 0.041742
0.518775 0.078810 0.048802
0.542322 0.032431 -0.005324
0.555469 0.054161 -0.007132
0.589857 0.039972 0.028583
0.588492 0.045659 0.049496
0.567723 0.049967 -0.004466
0.585181 -0.004194 0.031470
0.589274 0.032490 0.049793
0.583114 0.029544 0.063977
0.571473 -0.022711 0.010336
0.520189 0.013954 0.020691
0.532786 -0.025847 0.073864
0.587677 0.055347 0.027081
0.571024 -0.015553 0.007639
0.539873 0.091883 0.014225
0.556838 0.023034 -0.007800
0.583869 -0.011169 0.032450
0.516886 -0.003702 0.055838
0.586492 0.056204 0.047646
0.517152 0.066367 0.056006
0.514721 0.067155 0.029157
0.581117 -0.017580 0.026580
0.582603 0.066942 0.047636
0.518141 -0.013763 0.051918
0.522581 0.084671 0.027050
0.559582 0.098234 0.023650
0.532924 0.030890 0.080643
0.527037 -0.017213 0.018323
0.525344 0.074365 0.013646
0.528585 -0.041646 0.021878
0.551449 -0.068496 0.048409
0.533104 -0.031002 0.071272
0.535815 -0.073772 0.019894
0.512917 0.031404 0.052519
0.559414 0.101161 0.031358
0.561683 0.095307 0.049708
0.554723 0.102974 0.032710
0.543285 0.070422 -0.000842
0.568799 0.088051 0.017695
0.563888 0.018041 0.079794
0.515886 0.010833 0.033312
0.545189 -0.077935 0.027919
0.589545 0.017743 0.044604
0.570869 -0.044633 0.018462
0.565792 0.026083 -0.005852
0.590245 0.040985 0.032245
0.576185 0.083976 0.037342
0.544649 0.059781 -0.004316
0.560065 -0.057044 0.054420
0.515366 0.000423 0.045937
0.590381 0.034551 0.043634
0.532077 0.077983 0.064594
0.559153 -0.043581 0.065167
0.571389 0.058968 0.000349
0.558809 0.053971 -0.006891
0.560537 0.070077 0.069579
0.534243 -0.040822 0.011541
0.513497 0.067040 0.037830
0.577525 0.081601 0.030701
0.581634 0.035360 0.007371
0.580907 -0.019537 0.050976
0.572846 0.084352 0.019807
0.583024 -0.007708 0.025514
0.560058 0.094099 0.052601
0.525490 -0.038139 0.053380
0.582968 0.052027 0.012735
0.579292 0.078613 0.032554
0.526533 0.050105 0.073380
0.524672 -0.037501 0.034928
0.577160 -0.000764 0.009156
0.530778 -0.063029 0.038610
0.518281 0.071421 0.055136
0.575381 0.012495 0.002463
0.533719 -0.059100 0.012477
0.573461 0.080322 0.052816
0.519137 -0.005578 0.062724
0.516446 0.032413 0.064920
0.582943 -0.002480 0.021625
0.540905 0.057491 -0.003438
0.561897 0.070810 -0.000624
0.578215 0.030909 0.002890
0.545808 -0.027542 0.076752
0.516688 0.025923 0.025200
0.516352 -0.002481 0.041401
0.512445 0.043014 0.033599
0.517652 0.077111 0.029413
0.570583 0.053296 0.071490
0.515049 0.063946 0.026329
0.576248 0.032213 0.071596
0.550041 0.098082 0.019122
0.568821 -0.035772 0.062015
0.555265 0.030560 0.082661
0.561368 -0.010808 0.077107
0.585203 0.061202 0.045731
0.586991 0.038052 0.055854
0.543945 0.037693 -0.006161
0.548249 -0.070498 0.047510
0.520010 0.057852 0.015119
0.568273 0.094293 0.029744
0.539505 0.087613 0.061663
0.560781 -0.036270 0.068037
0.580132 0.011597 0.066412
0.549792 -0.028671 0.002505
0.530452 0.007008 0.007611
0.521831 0.062338 0.013360
0.542844 -0.064309 0.006117
0.522092 0.077321 0.019847
0.586742 0.030710 0.017895
0.560772 -0.068526 0.037462
0.545568 -0.077916 0.028322
0.511881 0.053674 0.037153
0.552265 0.034332 -0.008252
0.518662 -0.008999 0.036806
0.565577 0.059037 0.072289
0.559507 -0.022168 0.002489
0.582215 0.051751 0.060384
0.582703 -0.009761 0.053739
0.527740 0.058839 0.005841
0.575237 0.013713 0.071835
0.545348 -0.002760 0.083636
0.537823 0.072154 0.069833
0.514471 0.029889 0.030199
0.521329 0.016208 0.073030
0.548799 -0.041546 0.003463
0.518581 0.011719 0.067180
0.517988 -0.006108 0.037106
0.523466 0.032706 0.074682
0.583087 0.018435 0.063557
0.523229 0.048914 0.070995
0.569471 -0.057015 0.027910
0.549163 0.099597 0.021333
0.580936 -0.006524 0.018710
0.522474 0.048443 0.010978
0.527853 0.037840 0.005018
0.539464 -0.074553 0.035744
0.526611 -0.015764 0.018610
0.545216 -0.026084 0.003098
0.538318 0.025388 -0.002500
0.545534 0.094602 0.015031
0.569161 0.017448 0.076803
0.562147 0.079087 0.063878
0.575791 0.064876 0.062434
0.557402 0.083431 0.063239
0.546617 0.064979 -0.003537
0.564313 -0.063236 0.018940
0.554907 0.013092 -0.006627
0.585770 0.048419 0.055464
0.524045 -0.028177 0.059495
0.579920 0.010654 0.066496
0.576870 0.062216 0.007813
0.587980 0.020230 0.053369
0.564705 0.031617 0.079330
0.559349 0.017798 0.081707
0.538688 -0.070268 0.042917
0.541146 0.007730 -0.001578
0.554284 -0.062958 0.053111
0.545507 0.024530 0.084147
0.533948 0.098490 0.032454
0.586115 -0.001488 0.033694
0.587371 0.048412 0.051637
0.563057 -0.039515 0.007486
0.590475 0.026455 0.039917
0.539284 0.006782 -0.000216
0.544124 0.004128 0.084458
0.548418 -0.028569 0.075913
0.539391 -0.066748 0.048672
0.578113 0.075082 0.019987
0.525656 0.059782 0.008169
0.569744 0.041612 -0.004022
0.531833 -0.029747 0.070830
0.532411 0.067193 0.003966
0.581049 -0.024543 0.041801
0.557374 0.043136 -0.008190
0.542006 0.085133 0.007419
0.559581 -0.065987 0.012559
0.555384 0.099393 0.048490
0.529417 0.073764 0.065163
0.535012 -0.060895 0.049787
0.519453 -0.008447 0.062067
0.513133 0.059521 0.031329
0.512457 0.058475 0.044533
0.563043 0.021286 0.080316
0.525925 -0.026072 0.023168
0.563730 0.071379 0.067511
0.590631 0.036193 0.035641
0.543191 -0.015751 0.081091
0.551742 0.034157 -0.008188
0.567426 0.075717 0.062805
0.554395 0.091091 0.011132
0.559635 0.048142 -0.007565
0.536373 0.011656 0.000986
0.541866 -0.003899 0.000390
0.578107 0.058960 0.062915
0.525679 -0.003213 0.075884
0.526961 -0.038470 0.025325
0.518442 -0.011632 0.040210
0.539154 0.048236 0.079576
0.577119 -0.001235 0.067374
0.540311 0.008535 -0.001224
0.576724 -0.039066 0.036571
0.575432 0.083356 0.025321
0.554698 0.090863 0.058682
0.563155 -0.028752 0.005369
0.572621 -0.013616 0.068767
0.576936 -0.038378 0.035511
0.554952 0.098777 0.021531
0.542776 0.101973 0.043221
0.519723 0.064707 0.060685
0.582596 0.064322 0.019690
0.576198 -0.017741 0.062766
0.533102 0.027748 0.001163
0.529531 -0.036227 0.018486
0.556101 0.091156 0.011605
0.528637 -0.058080 0.036089
0.539625 0.090386 0.012923
0.560970 0.023881 0.081209
0.519242 0.000107 0.065440
0.535055 -0.039004 0.068045
0.577408 -0.031663 0.049363
0.524307 0.019317 0.012376
0.573174 0.036642 0.073657
0.557140 0.102302 0.032699
0.583285 0.029357 0.010367
0.545499 0.028256 0.083811
0.539349 0.062211 0.074555
0.537658 0.031545 0.082200
0.585035 0.065389 0.036210
0.574931 0.073108 0.057818
0.519292 0.068415 0.019148
0.550568 -0.071248 0.045168
0.569893 0.033186 -0.004076
0.540294 -0.076854 0.028211
0.564759 -0.013359 0.074672
0.558242 -0.018674 0.001379
0.580905 -0.024344 0.033981
0.549441 0.035635 0.082928
0.551711 0.032208 -0.008129
0.555587 0.027552 0.082792
0.565132 0.081755 0.060140
0.557738 0.007520 -0.005488
0.556399 0.102624 0.033490
0.520151 0.045697 0.068592
0.554200 0.018899 -0.007392
0.548662 0.101532 0.024953
0.513491 0.044431 0.055102
0.554520 0.066381 0.073055
0.586888 0.033343 0.056857
0.555606 -0.074472 0.018521
0.528128 -0.036137 0.061252
0.577222 0.075448 0.051725
0.573097 0.001267 0.003724
0.551437 -0.047422 0.003830
0.577863 0.001747 0.067150
0.527153 -0.045910 0.029022
0.563838 0.072342 0.066945
0.576983 -0.035358 0.028520
0.515794 0.016956 0.060725
0.583841 0.029527 0.011406
0.581212 0.029065 0.006922
0.550350 0.087612 0.007454
0.527171 -0.047304 0.047224
0.555072 -0.031341 0.003007
0.515993 -0.001987 0.043287
0.515216 0.059453 0.055088
0.513066 0.027773 0.052356
0.513508 0.067152 0.038259
0.551925 -0.015289 -0.000009
0.547492 -0.039246 0.071425
0.527811 -0.050291 0.045447
0.577193 0.078777 0.022547
0.536749 -0.074859 0.021438
0.522620 0.055646 0.067805
0.584576 0.021723 0.061546
0.556893 -0.068355 0.011140
0.568935 -0.042179 0.057214
0.554270 -0.045979 0.004299
0.565257 0.008278 -0.003572
0.525517 0.062976 0.009043
0.579914 0.058130 0.061080
0.585528 0.055627 0.019966
0.570230 0.005782 -0.000093
0.521681 0.073215 0.058830
0.511873 0.047029 0.036122
0.526028 0.010455 0.078383
0.514856 0.059186 0.054322
0.550428 0.045753 0.080855
0.511667 0.046508 0.038165
0.518509 0.045247 0.066387
0.548979 0.098076 0.019046
0.520545 0.083271 0.030528
0.527863 -0.053180 0.031129
0.580029 -0.008819 0.060576
0.530902 -0.055226 0.017963
0.590008 0.025349 0.032484
0.579476 -0.030176 0.036334
0.527657 -0.053288 0.034165
0.555034 0.101281 0.044876
0.562932 -0.013905 0.001864
0.512845 0.020952 0.042303
0.557318 -0.014236 0.000128
0.583095 0.065254 0.048380
0.586654 0.004589 0.050584
0.562267 -0.068872 0.031354
0.552082 -0.053150 0.004291
0.514345 0.007329 0.045822
0.560146 -0.060104 0.010045
0.526644 -0.010108 0.016867
0.524817 0.041805 0.008143
0.530470 0.021091 0.080733
0.580149 0.076196 0.029070
0.568226 -0.015420 0.071883
0.517637 -0.005249 0.037830
0.531642 0.060601 0.002741
0.584868 0.000888 0.025536
0.511989 0.040361 0.036533
0.529000 0.041019 0.077439
0.574201 -0.041294 0.047336
0.553521 -0.060264 0.005633
0.558528 -0.069738 0.039113
0.548469 0.046522 0.080798
0.534299 0.046460 0.078664
0.582357 -0.012882 0.052329
0.586347 0.061884 0.033807
0.567606 0.070942 0.065574
0.589666 0.021758 0.046286
0.572382 -0.045713 0.046823
0.572782 -0.036437 0.055806
0.547177 -0.077738 0.029723
0.551684 -0.048455 0.003920
0.532292 -0.067403 0.035971
0.559904 0.022397 0.081611
0.575534 -0.038351 0.026004
0.562761 -0.068067 0.023514
0.535378 0.078242 0.006637
0.549607 0.024605 -0.007313
0.530013 0.095773 0.036924
0.518719 0.059037 0.017399
0.523995 0.002436 0.075092
0.577879 0.081051 0.031126
0.517345 0.070600 0.023961
0.580233 -0.001571 0.014617
0.513179 0.049734 0.052718
0.584639 -0.010539 0.042750
0.523368 -0.024861 0.060743
0.565035 0.061686 -0.002874
0.533074 -0.033288 0.012546
0.534506 0.029998 0.081356
0.590156 0.039129 0.030587
0.566038 -0.019718 0.071934
0.581807 0.053373 0.060409
0.577373 0.081329 0.040273
0.573080 0.081596 0.051872
0.574377 0.012293 0.072422
0.586177 0.002695 0.051071
0.560133 0.095231 0.051213
0.580360 -0.003011 0.062293
0.525433 0.002419 0.015040
0.547717 -0.016136 0.000780
0.523406 0.055238 0.068752
0.511806 0.053806 0.038795
0.516797 -0.000560 0.057489
0.572839 0.023592 -0.001621
0.525339 -0.003158 0.016793
0.519536 0.082886 0.041982
0.543206 0.002030 -0.001564
0.525270 -0.042903 0.038970
0.566282 0.010357 -0.003556
0.587859 0.054047 0.026459
0.534484 -0.039515 0.067201
0.577478 0.082002 0.033328
0.543067 0.086638 0.063144
0.533342 -0.024669 0.074895
0.525429 0.090857 0.034457
0.525071 0.003450 0.076642
0.550885 0.053056 0.078708
0.546218 0.083356 0.004769
0.572078 -0.016236 0.008878
0.566946 0.096298 0.035934
0.552855 0.054691 0.077910
0.585634 0.060097 0.045480
0.512545 0.030838 0.036695
0.555884 0.009479 0.082398
0.537258 0.095846 0.020671
0.520657 0.076936 0.054937
0.517206 -0.002819 0.057776
0.583062 0.070090 0.029897
0.524220 -0.015591 0.068779
0.571637 -0.052591 0.035595
0.550889 -0.012077 -0.000699
0.535780 0.008633 0.083828
0.572753 0.026619 -0.001937
0.532788 -0.006697 0.080940
0.589742 0.034198 0.027827
0.513134 0.047484 0.053158
0.550056 -0.016869 0.000508
0.546293 0.028837 0.083770
0.524387 -0.022651 0.025733
0.516352 0.007324 0.059430
0.569741 -0.011284 0.071974
0.525850 0.046063 0.074164
0.534341 -0.036336 0.011188
0.541073 -0.075226 0.015000
0.582527 0.009904 0.013924
0.550350 -0.035174 0.003048
0.557370 0.069021 0.071161
0.588309 0.044490 0.050629
0.537231 0.094092 0.054320
0.550094 0.102795 0.028656
0.563369 -0.064220 0.040545
0.579824 0.020998 0.068009
0.515152 0.072057 0.044685
0.571067 -0.049533 0.045282
0.543712 0.010630 0.084747
0.544608 0.100776 0.024005
0.523345 -0.018678 0.026825
0.565424 -0.048791 0.012002
0.559036 0.094339 0.053079
0.568071 -0.036884 0.011154
0.524970 0.001793 0.076205
0.521328 0.035471 0.072258
0.568857 0.062335 0.069083
0.535135 0.015186 0.083380
0.576319 0.049011 0.068241
0.570656 -0.050966 0.022735
0.521118 0.051330 0.012936
0.534101 0.004208 0.083120
0.563173 -0.045196 0.008765
0.516732 -0.003216 0.055456
0.571277 0.091315 0.033229
0.581832 0.071231 0.042969
0.544854 0.067502 -0.002335
0.527665 0.063581 0.006980
0.536523 -0.009817 0.005416
0.543793 0.031500 0.083352
0.550306 0.102939 0.029268
0.583706 -0.014279 0.043131
0.517174 0.062392 0.020874
0.558214 0.086948 0.007887
0.512140 0.047261 0.034448
0.518788 0.008955 0.067017
0.574646 -0.033032 0.019456
0.575084 0.080400 0.019337
0.547079 -0.003082 -0.002016
0.570492 0.026522 -0.003460
0.575276 -0.033702 0.021330
0.587114 0.032951 0.056366
0.525931 0.005227 0.013584
0.542329 0.005061 0.084584
0.524003 0.083351 0.053876
0.586091 0.022412 0.058692
0.576384 0.018763 0.071324
0.542395 0.095099 0.016511
0.573086 0.086091 0.023449
0.546297 -0.055525 0.062582
0.523390 0.085155 0.025928
0.528414 -0.055064 0.040747
0.555075 -0.009694 -0.001362
0.568402 0.046499 -0.004476
0.531794 -0.027927 0.071865
0.542667 0.015022 0.084670
0.514587 0.012548 0.054309
0.512612 0.030625 0.036413
0.543851 -0.028103 0.076658
0.575852 -0.022171 0.060877
0.517098 0.010128 0.029958
0.588618 0.053308 0.036941
0.576192 -0.006855 0.067058
0.539055 0.099131 0.047419
0.517762 -0.006836 0.057433
0.517164 -0.001353 0.058483
0.563834 -0.023238 0.071970
0.550746 0.083693 0.064942
0.531208 -0.011052 0.011079
0.525071 -0.040962 0.047597
0.523658 0.024462 0.012128
0.515364 0.026341 0.061554
0.565010 0.022657 -0.005909
0.572526 0.085143 0.020297
0.523161 -0.028553 0.056754
0.562981 0.057881 -0.004933
0.583668 0.058506 0.054419
0.522087 0.016241 0.016515
0.547657 -0.009314 0.082147
0.559098 -0.001652 0.079916
0.575858 -0.015922 0.013475
0.537915 0.042890 0.080620
0.556104 -0.048435 0.063989
0.585967 -0.003065 0.046500
0.520802 0.074438 0.019902
0.523400 0.042864 0.072967
0.549789 -0.069669 0.007910
0.553653 0.042487 -0.008269
0.551225 0.071049 0.071547
0.547664 0.061879 0.075670
0.589629 0.042773 0.027951
0.514019 0.013249 0.039531
0.526801 -0.029801 0.063911
0.584582 0.006393 0.057761
0.577769 -0.034106 0.030753
0.585490 0.001524 0.052715
0.541875 0.058593 0.076529
0.582082 0.071374 0.027366
0.534608 0.003805 0.083266
0.585415 0.020137 0.059823
0.545001 0.017849 -0.005125
0.521522 -0.013739 0.029811
0.520025 -0.015499 0.059156
0.512645 0.061424 0.042405
0.544743 -0.067615 0.051361
0.542013 0.050655 -0.004835
0.532803 0.009810 0.082779
0.543653 -0.057252 0.060907
0.570282 0.087399 0.019227
0.555275 -0.070810 0.011739
0.562302 -0.011991 0.076358
0.531619 -0.040773 0.015393
0.582780 0.063768 0.051486
0.559686 -0.030602 0.004130
0.525207 -0.012127 0.072083
0.577141 0.081525 0.040930
0.579720 0.063228 0.012909
0.558646 0.008999 -0.005667
0.575712 0.004286 0.005335
0.558309 -0.019692 0.075949
0.538290 0.020517 0.083679
0.531987 0.046473 0.000890
0.583878 0.068014 0.029484
0.512491 0.051706 0.048975
0.533319 -0.056551 0.051627
0.583982 0.058923 0.053264
0.537690 0.058378 -0.001723
0.525825 -0.013498 0.072346
0.569205 -0.006364 0.073586
0.540964 -0.030559 0.005274
0.569140 0.092426 0.042408
0.521925 -0.021041 0.060255
0.573038 -0.048344 0.028903
0.538103 -0.007638 0.082664
0.531503 0.015862 0.081872
0.520806 0.073632 0.019401
0.533080 0.015226 0.003194
0.519261 0.082660 0.036541
0.568458 0.073818 0.004720
0.522476 0.070150 0.061337
0.521459 -0.027286 0.051431
0.575408 -0.020110 0.014540
0.549443 -0.054258 0.003999
0.534127 0.026420 0.081636
0.558618 0.100624 0.043267
0.530662 -0.062110 0.019420
0.588202 0.012235 0.049211
0.545654 -0.016491 0.001426
0.581431 0.067898 0.020292
0.519117 0.081803 0.043505
0.531470 0.019169 0.004029
0.519601 0.060837 0.062151
0.530200 -0.027653 0.070338
0.561934 -0.039236 0.065834
0.518193 -0.014283 0.045672
0.533412 -0.040648 0.012653
0.563224 0.071861 0.000408
0.564246 -0.027599 0.069967
0.575205 -0.043407 0.033294
0.536875 0.096127 0.021464
0.528117 0.087610 0.054493
0.535243 -0.037447 0.069160
0.531436 0.007848 0.082115
0.559414 0.048660 0.078249
0.531365 -0.068108 0.028824
0.573829 0.059665 0.002939
0.551880 0.027500 0.083525
0.534035 -0.054610 0.012091
0.524162 0.007756 0.076197
0.566337 0.080430 0.007153
0.570441 -0.019083 0.068856
0.576808 0.055808 0.004873
0.566731 -0.029603 0.067341
0.541142 0.034774 -0.004857
0.561739 -0.061158 0.047882
0.536340 0.009484 0.083977
0.514093 0.067511 0.045470
0.529590 -0.055698 0.022427
0.548253 -0.077780 0.023774
0.549721 -0.075200 0.038681
0.524847 0.053339 0.070813
0.556061 0.061105 -0.005407
0.552155 0.086901 0.006823
0.542105 0.095040 0.055258
0.586965 0.053541 0.049064
0.586646 0.034172 0.017263
0.572462 0.063300 0.003128
0.521240 -0.002145 0.024266
0.582307 0.051544 0.011379
0.533056 0.058956 0.001338
0.566417 0.041176 -0.005797
0.581018 0.006221 0.064038
0.588930 0.013988 0.046272
0.586994 0.000260 0.042779
0.565569 0.096817 0.040586
0.512557 0.031204 0.036463
0.584625 0.031996 0.012790
0.512714 0.022162 0.044699
0.550673 -0.053124 0.004048
0.513319 0.054106 0.051691
0.577630 -0.019078 0.018101
0.527436 -0.040783 0.055655
0.559179 0.046500 -0.007781
0.585852 0.035834 0.015286
0.515219 0.005886 0.039223
0.556816 0.052068 -0.007435
0.566654 0.096561 0.036266
0.545943 0.098792 0.020245
0.536427 -0.056577 0.056063
0.586757 0.042359 0.055320
0.569513 0.093487 0.033377
0.544661 0.012187 0.084721
0.559911 0.059330 0.074526
0.546048 -0.047780 0.003952
0.522224 0.070214 0.061034
0.538243 -0.068892 0.010269
0.566574 -0.036614 0.009584
0.538463 -0.048462 0.064490
0.581362 0.031826 0.006992
0.541851 0.070436 0.071588
0.546947 -0.076038 0.014763
0.589894 0.028318 0.030144
0.538622 0.013460 0.084331
0.536997 0.075179 0.004047
0.543811 -0.045502 0.004458
0.512105 0.054795 0.044665
0.520483 0.004306 0.069671
0.549228 -0.074609 0.040289
0.537981 -0.053114 0.060658
0.546161 0.052175 0.079187
0.512023 0.034033 0.045941
0.562393 0.018877 0.080526
0.537082 0.096750 0.022257
0.567729 -0.057521 0.021488
0.557474 -0.033164 0.071061
0.520254 -0.021161 0.041442
0.562795 0.071033 -0.000153
0.538463 0.055618 -0.002581
0.511914 0.053496 0.036666
0.576939 -0.011832 0.013482
0.574420 0.063605 0.005373
0.581226 0.039385 0.006975
0.554052 0.087272 0.061758
0.515254 0.053114 0.024251
0.525406 0.037132 0.075727
0.512737 0.022072 0.042302
0.581765 -0.022167 0.037508
0.532697 0.028775 0.080780
0.568714 -0.053588 0.045600
0.553098 -0.066684 0.049565
0.579575 -0.024282 0.050566
0.583736 0.040762 0.011255
0.549501 0.055309 -0.006389
0.537775 0.059140 -0.001626
0.565984 -0.009779 0.074887
0.559819 -0.008966 -0.000677
0.517960 0.002038 0.062684
0.525388 0.027566 0.076760
0.515464 0.040482 0.025013
0.563534 0.085982 0.057839
0.537462 0.026534 -0.002059
0.557934 -0.073606 0.029547
0.542085 0.025385 -0.004675
0.555130 -0.072289 0.013323
0.516632 0.028256 0.024638
0.583976 0.063452 0.022463
0.584230 0.009469 0.018320
0.550321 -0.009554 0.081482
0.531780 -0.067440 0.019555
0.567528 0.067679 0.067338
0.547809 -0.077749 0.021876
0.555031 0.052138 0.078344
0.544806 -0.077810 0.029667
0.513161 0.059070 0.048506
0.568569 0.053647 0.072635
0.590457 0.039027 0.033730
0.554580 0.043996 -0.008239
0.583168 0.007059 0.060830
0.537244 0.076646 0.067501
0.527431 -0.052391 0.037442
0.573438 0.000336 0.004387
0.538731 0.094875 0.054126
0.573283 0.085302 0.022495
0.574769 -0.030848 0.056719
0.555690 -0.068955 0.044009
0.584230 0.055398 0.016847
0.571397 -0.048696 0.022638
0.533829 0.065329 0.071323
0.559792 0.089630 0.011304
0.543555 0.020522 0.084384
0.578482 0.003868 0.009127
0.547835 0.021259 -0.006516
0.566349 0.085798 0.055633
0.519796 -0.002445 0.065801
0.562425 0.098824 0.028682
0.549554 -0.067050 0.051379
0.523088 0.008318 0.074880
0.572287 -0.046484 0.023221
0.532159 -0.031684 0.069952
0.585323 0.028905 0.014682
0.571787 -0.013406 0.069626
0.542372 0.003593 -0.001457
0.536066 -0.010059 0.005862
0.534105 0.019586 0.082551
0.570285 0.059844 -0.000228
0.541788 0.010695 0.084734
0.519550 -0.017914 0.055034
0.584019 -0.012761 0.043877
0.563673 0.032294 -0.006916
0.576327 0.047348 0.001976
0.568664 0.093209 0.027472
0.540490 -0.057645 0.006268
0.567904 -0.043741 0.013256
0.539176 0.030080 -0.003495
0.558191 -0.069226 0.013475
0.577571 0.031185 0.002162
0.548618 -0.072595 0.044243
0.533917 -0.009496 0.007767
0.554989 0.011663 0.082837
0.521128 0.030366 0.014757
0.514995 0.072939 0.039570
0.553394 0.054501 -0.007029
0.542368 0.032548 0.083073
0.535056 -0.047490 0.062130
0.524535 -0.040096 0.040454
0.589402 0.037475 0.026057
0.553750 -0.006330 0.081115
0.564900 -0.055132 0.050719
0.573673 0.062476 0.004008
0.567365 -0.004487 0.001357
0.546512 0.044305 -0.006897
0.542902 -0.076877 0.033596
0.553505 -0.032293 0.072975
0.515016 0.026930 0.029537
0.529612 -0.059547 0.023507
0.559287 -0.043600 0.065078
0.574211 0.066350 0.006530
0.560279 0.030428 0.081238
0.589414 0.037683 0.026116
0.575821 -0.017809 0.014216
0.533562 0.001438 0.005624
0.577148 -0.005247 0.011014
0.533302 0.084214 0.061480
0.563944 0.062646 -0.003012
0.552584 -0.045648 0.067057
0.553477 0.028915 -0.008163
0.540007 -0.039319 0.070788
0.574076 0.053158 0.000964
0.521163 0.018987 0.017386
0.561835 0.009539 -0.005081
0.520803 0.085208 0.039579
0.513133 0.064227 0.042870
0.579424 0.041159 0.066999
0.525330 0.047466 0.007402
0.519632 -0.001317 0.065854
0.577774 0.075310 0.019424
0.554292 0.033576 0.082567
0.545581 0.067997 0.073065
0.588190 0.052997 0.027026
0.545962 -0.025921 0.002867
0.543506 0.076182 0.069136
0.546542 0.016844 0.084545
0.582117 0.022065 0.009306
0.576953 -0.038185 0.038933
0.590043 0.026535 0.032039
0.586002 0.014756 0.057456
0.547703 0.095507 0.015769
0.585142 0.018315 0.060073
0.527108 0.047368 0.005449
0.515812 0.052825 0.022866
0.527138 0.084378 0.018714
0.521010 0.017514 0.018069
0.530583 0.033269 0.079330
0.579043 0.075383 0.022948
0.587478 0.009988 0.029124
0.536890 0.054090 -0.001928
0.528021 0.093867 0.036500
0.527613 -0.053088 0.034317
0.522260 0.038319 0.072803
0.589518 0.047519 0.030415
0.568375 0.011626 -0.002723
0.538609 -0.072106 0.039687
0.538365 0.007815 0.000219
0.553972 -0.049280 0.064520
0.586098 -0.000429 0.032269
0.515169 0.025153 0.060724
0.584014 -0.008115 0.050614
0.576632 0.063317 0.062429
0.539142 0.047930 0.079662
0.589489 0.030926 0.048914
0.536202 0.004838 0.083827
0.570577 0.036302 0.075527
0.521564 0.054659 0.067074
0.581357 0.000897 0.015705
0.523203 0.024017 0.075184
0.546845 -0.054905 0.062995
0.556740 0.101722 0.042109
0.568218 -0.059625 0.034355
0.517999 0.078528 0.046453
0.580916 0.068538 0.019658
0.581306 0.050951 0.009466
0.520527 -0.019922 0.056945
0.580544 0.008178 0.010697
0.583933 0.028557 0.011702
0.562765 -0.068451 0.029751
0.572944 0.008441 0.001259
0.527969 0.085694 0.018946
0.575794 -0.030536 0.054873
0.544211 -0.075022 0.039945
0.536753 0.091884 0.016225
0.549829 0.062981 -0.004679
0.568067 -0.046398 0.054837
0.550588 0.076992 0.000415
0.581976 0.008256 0.013450
0.557439 -0.062719 0.050736
0.536945 0.032908 0.081847
0.557698 -0.023072 0.075029
0.566370 0.049352 0.075197
0.522303 0.019319 0.015369
0.513901 0.059295 0.051411
0.547830 -0.076710 0.035648
0.538579 0.045145 -0.003568
0.524589 0.087484 0.027243
0.563922 -0.019666 0.073217
0.515830 0.006467 0.036052
0.518845 0.003602 0.027925
0.576478 -0.039662 0.038270
0.572684 0.072281 0.008141
0.566325 -0.013139 0.003439
0.581470 0.040649 0.007469
0.542731 0.091004 0.059623
0.518371 -0.008594 0.037641
0.515914 0.051417 0.022650
0.517897 -0.009732 0.055645
0.550807 -0.013378 0.080457
0.570975 0.021087 -0.002659
0.569511 0.015622 -0.002804
0.551835 -0.049209 0.065411
0.517083 0.011169 0.029542
0.570581 -0.042515 0.016749
0.577900 -0.035450 0.037531
0.546555 -0.060096 0.004563
0.539935 -0.040548 0.070098
0.513467 0.019282 0.051054
0.521065 0.006133 0.071236
0.562388 0.086969 0.057861
0.565122 0.091428 0.050908
0.513946 0.058704 0.051874
0.539845 -0.074309 0.014350
0.555021 -0.012504 0.079350
0.529691 0.029980 0.079216
0.582934 -0.008155 0.025542
0.523567 0.088919 0.040275
0.530161 -0.060442 0.040222
0.552427 0.084127 0.004631
0.588963 0.017006 0.048223
0.567964 0.070606 0.002649
0.544016 0.059157 -0.004252
0.521185 -0.013503 0.030822
0.571247 0.091391 0.034771
0.562773 0.099378 0.031758
0.522069 -0.023992 0.035191
0.547430 0.014991 0.084485
0.584262 0.067726 0.034320
0.530336 0.086009 0.016383
0.534402 0.088107 0.059104
0.545070 0.022985 0.084252
0.515726 0.023035 0.062030
0.521642 0.031818 0.072995
0.572660 0.043680 0.072741
0.533021 0.072940 0.067549
0.569379 0.092230 0.042197
0.518593 0.023148 0.068956
0.571935 0.033285 0.074936
0.568801 0.000359 0.075100
0.528391 0.094021 0.034504
0.516520 0.000923 0.057181
0.517096 0.025486 0.024239
0.512155 0.050998 0.034306
0.558821 -0.063323 0.048593
0.532708 0.033329 0.080293
0.571355 0.052526 0.071212
0.523578 0.072029 0.061480
0.588226 0.010359 0.047639
0.577259 0.062156 0.008328
0.517390 0.025711 0.066737
0.523109 0.010810 0.016304
0.520767 -0.025750 0.047179
0.528603 -0.051770 0.025534
0.523069 -0.009402 0.023196
0.553379 0.064188 -0.004588
0.575434 0.065734 0.007767
0.575733 0.068715 0.060111
0.567536 0.091546 0.021397
0.534173 -0.028533 0.010784
0.562123 0.023693 -0.006964
0.525166 0.071420 0.012414
0.573269 0.062002 0.066143
0.563975 0.057581 0.073608
0.551964 -0.076985 0.024219
0.554631 0.082718 0.003784
0.563144 0.019343 -0.006236
0.577054 0.070559 0.057003
0.589689 0.043757 0.028729
