ply
format ascii 1.0
element vertex 1024
property float x
property float y
property float z
end_header
0.481206 0.145213 0.017600
0.509256 0.064935 0.019820
0.511703 0.060420 0.019177
0.481522 0.183203 0.087041
0.562763 0.082240 0.053492
0.482272 0.101898 0.046932
0.476130 0.173276 0.085560
0.550825 0.158203 0.044571
0.513871 0.055295 0.044303
0.500218 0.097631 0.063871
0.536429 0.171488 0.075714
0.504564 0.204526 0.065667
0.567530 0.096012 0.042429
0.560152 0.113202 0.068199
0.539709 0.155875 0.081971
0.510472 0.102209 0.072159
0.493312 0.084890 0.041369
0.491711 0.182103 0.091145
0.463415 0.169242 0.038648
0.516511 0.150945 0.091740
0.564078 0.115842 0.063575
0.541592 0.040966 0.041806
0.468456 0.193755 0.065875
0.531825 0.073455 0.009465
0.515163 0.042025 0.028108
0.499449 0.123157 0.010719
0.473550 0.180205 0.033514
0.508638 0.174546 0.020784
0.527917 0.131060 0.009445
0.482445 0.182093 0.029478
0.513239 0.093535 0.067789
0.523415 0.138155 0.088448
0.566195 0.079032 0.044710
0.556408 0.072609 0.020254
0.527627 0.170822 0.025026
0.549556 0.128969 0.019949
0.520234 0.095097 0.070656
0.511082 0.161282 0.093349
0.492532 0.182461 0.026355
0.560280 0.073644 0.051417
0.509466 0.193107 0.082971
0.530958 0.183635 0.046391
0.516219 0.153706 0.012305
0.513005 0.184253 0.087430
0.488137 0.182934 0.089981
0.522619 0.159090 0.090389
0.565561 0.089852 0.053342
0.526949 0.148398 0.013045
0.471140 0.173220 0.080999
0.512955 0.046445 0.026307
0.512079 0.046715 0.029695
0.531442 0.173866 0.079300
0.545700 0.152819 0.028188
0.500691 0.107892 0.012076
0.520521 0.177554 0.086234
0.539181 0.134583 0.014228
0.496473 0.199129 0.041657
0.458761 0.165094 0.051274
0.507350 0.168273 0.017073
0.470020 0.133556 0.028319
0.546605 0.162589 0.039881
0.565902 0.118585 0.045787
0.564180 0.093366 0.057319
0.467838 0.156414 0.074892
0.527171 0.188906 0.061298
0.482157 0.176117 0.089162
0.472875 0.188649 0.078480
0.497085 0.191102 0.087803
0.505498 0.193145 0.084910
0.541107 0.174239 0.057598
0.556830 0.052068 0.031173
0.543188 0.171650 0.056855
0.552252 0.139282 0.074684
0.505481 0.114072 0.077270
0.554617 0.064105 0.050599
0.469425 0.187247 0.042337
0.490188 0.089157 0.033114
0.536245 0.085895 0.009037
0.488341 0.195741 0.083621
0.549044 0.158114 0.067848
0.546901 0.092506 0.012425
0.508929 0.135413 0.088467
0.538685 0.091050 0.009416
0.560883 0.083387 0.056194
0.523794 0.048862 0.047303
0.534263 0.108644 0.078460
0.532585 0.066637 0.057356
0.473635 0.169481 0.083476
0.557939 0.121099 0.071317
0.552488 0.100267 0.016093
0.566322 0.083631 0.047828
0.511626 0.158661 0.093149
0.513587 0.174593 0.021389
0.546311 0.139327 0.079965
0.466176 0.189335 0.051766
0.563623 0.090337 0.028980
0.490379 0.188858 0.031596
0.543475 0.152664 0.079556
0.485984 0.169750 0.091425
0.538643 0.084111 0.066943
0.476656 0.203072 0.063207
0.512502 0.149607 0.010934
0.459093 0.156366 0.052679
0.470779 0.135912 0.026613
0.475804 0.111199 0.046807
0.488795 0.182917 0.027566
0.545171 0.169057 0.055062
0.555788 0.142705 0.067861
0.508774 0.086823 0.012846
0.495071 0.158740 0.014428
0.499810 0.173874 0.020152
0.527935 0.183149 0.074005
0.479275 0.153631 0.084812
0.504441 0.198304 0.042684
0.488342 0.110444 0.064738
0.523473 0.107511 0.078246
0.502368 0.179789 0.092503
0.469600 0.124886 0.053168
0.460395 0.147173 0.044992
0.499845 0.155195 0.012761
0.517197 0.167247 0.017785
0.464775 0.147328 0.032516
0.518485 0.115068 0.007936
0.522295 0.155625 0.014172
0.536384 0.156350 0.021156
0.505148 0.087606 0.014668
0.499879 0.111707 0.073601
0.564254 0.097213 0.058904
0.492778 0.168050 0.018071
0.500016 0.093039 0.016358
0.466058 0.184856 0.070882
0.471158 0.119109 0.036756
0.521900 0.108772 0.007790
0.538927 0.107084 0.077048
0.511572 0.175656 0.021820
0.513558 0.170621 0.092190
0.488209 0.161435 0.091567
0.518689 0.100257 0.008360
0.507532 0.184409 0.027942
0.538983 0.096932 0.073165
0.480101 0.178499 0.087552
0.473110 0.198736 0.054293
0.549893 0.150942 0.072018
0.509239 0.084372 0.059850
0.471464 0.165213 0.081041
0.521498 0.063873 0.053405
0.556666 0.054410 0.028480
0.563729 0.091728 0.057159
0.531576 0.035898 0.039119
0.522925 0.136725 0.088208
0.479212 0.204013 0.056002
0.498493 0.205630 0.054672
0.479669 0.204963 0.061102
0.459957 0.161058 0.061099
0.471556 0.189735 0.042431
0.554719 0.146668 0.039108
0.512634 0.112190 0.078564
0.540846 0.037225 0.030068
0.522847 0.140549 0.010064
0.520682 0.070431 0.011395
0.472130 0.124755 0.028981
0.502896 0.157476 0.013038
0.491550 0.194675 0.036689
0.460643 0.150562 0.057036
0.558347 0.068983 0.023354
0.528163 0.107013 0.078265
0.515845 0.155631 0.012830
0.517769 0.187795 0.081291
0.563416 0.084664 0.028453
0.466087 0.158047 0.031506
0.460790 0.147909 0.041744
0.526148 0.189395 0.052576
0.511747 0.062436 0.046893
0.496286 0.164033 0.093745
0.486275 0.190557 0.034090
0.481535 0.141643 0.017225
0.542102 0.106882 0.010996
0.474992 0.188118 0.037948
0.514157 0.109294 0.008555
0.501578 0.205137 0.056320
0.549447 0.077192 0.060868
0.480494 0.158914 0.020220
0.489141 0.188931 0.031941
0.535938 0.164238 0.081573
0.532016 0.071177 0.059636
0.496225 0.108464 0.013839
0.544929 0.050857 0.048552
0.510941 0.175172 0.092103
0.485110 0.117706 0.017686
0.519263 0.046090 0.043499
0.507202 0.196054 0.040340
0.546088 0.108327 0.075265
0.534206 0.142805 0.086467
0.508629 0.112657 0.009324
0.462181 0.147869 0.060262
0.460580 0.166082 0.043183
0.478882 0.135219 0.019034
0.567953 0.099895 0.046257
0.499609 0.123236 0.080148
0.525029 0.103057 0.076140
0.501071 0.140563 0.088994
0.484907 0.171258 0.090943
0.534345 0.177352 0.039387
0.486755 0.157633 0.090213
0.542297 0.159707 0.029286
0.468663 0.194673 0.062969
0.557928 0.093028 0.020433
0.552565 0.156860 0.050544
0.562654 0.119006 0.034902
0.507929 0.179197 0.023940
0.525840 0.162194 0.018316
0.466953 0.129759 0.052653
0.556462 0.051496 0.031035
0.478692 0.149461 0.082756
0.480480 0.199427 0.045725
0.511755 0.197329 0.075867
0.563473 0.092677 0.028818
0.545101 0.140214 0.020390
0.499378 0.074144 0.033441
0.490546 0.103426 0.060602
0.475475 0.153362 0.081770
0.515517 0.041427 0.032772
0.476060 0.169233 0.085567
0.493178 0.142342 0.012491
0.546769 0.052894 0.018160
0.541224 0.037475 0.029752
0.500477 0.151303 0.092298
0.466482 0.128049 0.043612
0.523196 0.096138 0.071933
0.532845 0.181588 0.045589
0.497286 0.082423 0.025457
0.524921 0.174980 0.026479
0.541166 0.117131 0.011726
0.469929 0.149051 0.074397
0.549230 0.142798 0.026233
0.565315 0.124594 0.052950
0.524942 0.185753 0.075062
0.502750 0.128009 0.083752
0.547807 0.132154 0.079132
0.504931 0.062579 0.031689
0.543915 0.125387 0.080122
0.522402 0.098691 0.073255
0.543397 0.148185 0.080877
0.540041 0.146144 0.018695
0.534052 0.161518 0.084232
0.533946 0.062152 0.011140
0.470143 0.196593 0.064412
0.507330 0.107493 0.010038
0.478340 0.140120 0.077818
0.476819 0.129789 0.069582
0.546723 0.041581 0.037273
0.508965 0.085678 0.060615
0.498849 0.075561 0.038510
0.474674 0.118501 0.055832
0.465987 0.188994 0.066090
0.552310 0.146397 0.033520
0.517607 0.195973 0.052325
0.521852 0.185981 0.035822
0.515286 0.198511 0.057800
0.459533 0.156022 0.056361
0.527708 0.052142 0.013718
0.475814 0.110041 0.036581
0.521663 0.171139 0.021728
0.551465 0.087969 0.065172
0.545516 0.139337 0.020399
0.472016 0.164925 0.027785
0.530052 0.145448 0.013154
0.549364 0.158995 0.041242
0.556450 0.145990 0.043675
0.551815 0.047752 0.039806
0.482052 0.103539 0.049325
0.559110 0.061750 0.027501
0.555851 0.149507 0.058846
0.480438 0.195686 0.080209
0.519597 0.118519 0.007886
0.518152 0.170203 0.019726
0.508366 0.069332 0.018797
0.515339 0.147039 0.010526
0.483610 0.102692 0.051080
0.563533 0.130810 0.055743
0.567624 0.099321 0.043406
0.555910 0.053104 0.040573
0.478696 0.181092 0.030833
0.471690 0.150195 0.076895
0.468293 0.140419 0.028777
0.562823 0.092397 0.058614
0.465281 0.157115 0.071486
0.535392 0.099210 0.008683
0.463486 0.137300 0.040603
0.462247 0.176917 0.066536
0.522629 0.046273 0.016948
0.495681 0.207351 0.061527
0.519755 0.183516 0.083008
0.554683 0.057705 0.046230
0.546531 0.105581 0.074252
0.492964 0.154887 0.091685
0.505613 0.158346 0.093659
0.553996 0.149577 0.040700
0.516943 0.077757 0.059551
0.523845 0.190646 0.049527
0.507815 0.154410 0.012010
0.567615 0.111423 0.051889
0.466590 0.127783 0.044087
0.517995 0.193856 0.046347
0.463905 0.186655 0.056280
0.462312 0.142605 0.039585
0.482864 0.106801 0.055110
0.488144 0.093873 0.046305
0.524526 0.181367 0.032337
0.557672 0.116640 0.070991
0.523500 0.067540 0.056080
0.527318 0.094879 0.071968
0.542766 0.167810 0.069665
0.550581 0.128190 0.020605
0.482064 0.104183 0.050352
0.535685 0.083187 0.009071
0.480565 0.189765 0.035872
0.508255 0.202991 0.061515
0.502477 0.078364 0.020816
0.556253 0.116356 0.022408
0.534455 0.083495 0.008892
0.470801 0.197350 0.058647
0.489457 0.204746 0.073686
0.518596 0.171374 0.089885
0.482476 0.172358 0.024095
0.552279 0.111428 0.017334
0.477067 0.120617 0.061831
0.516395 0.067837 0.053281
0.464373 0.187299 0.054698
0.540715 0.053934 0.051416
0.465384 0.182989 0.070641
0.553819 0.151723 0.043382
0.546547 0.114438 0.076729
0.563700 0.083851 0.053135
0.544914 0.094485 0.011534
0.490310 0.114698 0.069815
0.542508 0.163670 0.033477
0.479977 0.204948 0.058613
0.486561 0.137657 0.014660
0.554180 0.152762 0.059632
0.533006 0.178767 0.071955
0.551245 0.153243 0.067759
0.497536 0.179648 0.023905
0.514530 0.191621 0.037921
0.478571 0.160239 0.086242
0.554625 0.050578 0.028349
0.471318 0.132811 0.026776
0.540575 0.037095 0.035080
0.561420 0.116692 0.030772
0.494942 0.084889 0.027318
0.528036 0.096646 0.007948
0.550789 0.160108 0.057330
0.467354 0.126032 0.043696
0.553793 0.154263 0.049588
0.513245 0.197830 0.049582
0.478990 0.106092 0.032750
0.480572 0.205330 0.059494
0.532896 0.157014 0.086225
0.472964 0.114857 0.038451
0.472792 0.199475 0.065746
0.520600 0.149551 0.090815
0.530548 0.185768 0.058001
0.528487 0.158254 0.017499
0.531150 0.039677 0.019635
0.556124 0.082382 0.059677
0.508076 0.192195 0.035500
0.490306 0.107417 0.017583
0.507494 0.058040 0.027887
0.549308 0.130994 0.020513
0.529658 0.062135 0.054695
0.522970 0.191349 0.049567
0.526848 0.083818 0.008689
0.535915 0.127203 0.083213
0.487482 0.138308 0.014280
0.483398 0.135687 0.016199
0.461628 0.181233 0.059003
0.547109 0.067181 0.056507
0.500978 0.073206 0.027799
0.526593 0.104069 0.076817
0.515165 0.163568 0.092439
0.524101 0.133420 0.087248
0.496644 0.164286 0.093809
0.492226 0.085912 0.034017
0.567310 0.087874 0.041432
0.546562 0.064021 0.055023
0.479704 0.185095 0.032836
0.533438 0.035680 0.038157
0.528612 0.166356 0.085925
0.537016 0.148791 0.017738
0.522090 0.042974 0.018866
0.555798 0.085594 0.018354
0.507490 0.060208 0.025515
0.480724 0.109299 0.025858
0.471335 0.153354 0.077833
0.523175 0.180426 0.030190
0.485990 0.165309 0.019379
0.485021 0.109474 0.020903
0.513828 0.178915 0.089637
0.501939 0.144930 0.090725
0.555027 0.129962 0.073946
0.514538 0.162972 0.092640
0.545202 0.168790 0.058351
0.504024 0.145115 0.091050
0.530957 0.155438 0.087458
0.468562 0.194379 0.063987
0.483787 0.177934 0.089625
0.534290 0.056461 0.052658
0.547106 0.119691 0.015325
0.522873 0.050800 0.047721
0.508809 0.143349 0.009864
0.532308 0.091830 0.008329
0.537148 0.057363 0.053191
0.491619 0.207721 0.061857
0.493797 0.090531 0.023880
0.517224 0.123711 0.084785
0.492133 0.088245 0.029041
0.508854 0.183260 0.027182
0.533120 0.130001 0.010679
0.541254 0.050835 0.015919
0.510030 0.053175 0.026059
0.525509 0.112971 0.080756
0.518162 0.050866 0.017397
0.505283 0.090200 0.061620
0.478191 0.133710 0.073760
0.553473 0.141499 0.072254
0.486806 0.185748 0.030172
0.559679 0.114717 0.026634
0.522753 0.099633 0.073869
0.466520 0.150535 0.070640
0.511101 0.117535 0.008658
0.504755 0.139066 0.089198
0.543101 0.158030 0.077666
0.546441 0.084275 0.012288
0.513914 0.047557 0.023262
0.548680 0.051815 0.020261
0.544809 0.168983 0.060411
0.542418 0.164687 0.073870
0.540980 0.113733 0.011211
0.496616 0.175968 0.021583
0.522318 0.190538 0.045450
0.522953 0.144794 0.011025
0.547519 0.079650 0.013020
0.552511 0.091254 0.015723
0.542513 0.038519 0.028397
0.507962 0.057197 0.027432
0.544113 0.046359 0.045815
0.554702 0.150255 0.044136
0.525554 0.079880 0.009141
0.533679 0.048970 0.014697
0.463830 0.168773 0.071352
0.470821 0.118914 0.044161
0.485470 0.193802 0.083949
0.480343 0.151004 0.084534
0.554825 0.121063 0.073770
0.486881 0.190293 0.033677
0.482195 0.163402 0.089172
0.501694 0.110384 0.011326
0.516439 0.153448 0.092001
0.531280 0.113099 0.008391
0.551398 0.091234 0.066702
0.461905 0.157821 0.037878
0.509902 0.069314 0.049797
0.550929 0.150773 0.070373
0.502026 0.155200 0.012521
0.561227 0.110305 0.027816
0.524341 0.176356 0.027233
0.495279 0.193589 0.035301
0.505848 0.196786 0.040879
0.550268 0.141504 0.026823
0.534248 0.128338 0.010783
0.499875 0.205700 0.056333
0.546597 0.125624 0.016480
0.498982 0.100606 0.065327
0.493142 0.084378 0.037999
0.529665 0.166509 0.085185
0.501955 0.151972 0.092591
0.539316 0.110477 0.078018
0.477188 0.125707 0.022105
0.502643 0.096143 0.064401
0.494558 0.181304 0.091861
0.484205 0.098894 0.046080
0.537764 0.067836 0.058346
0.480013 0.111439 0.025324
0.492679 0.166703 0.017537
0.563084 0.082955 0.053477
0.488572 0.191818 0.034532
0.513597 0.197839 0.072376
0.564801 0.098773 0.058744
0.484827 0.187366 0.087020
0.555931 0.122783 0.073131
0.540556 0.174769 0.059259
0.460555 0.175432 0.061755
0.501451 0.093110 0.015332
0.485471 0.203057 0.048176
0.539277 0.176459 0.057617
0.508111 0.178216 0.023251
0.508393 0.130642 0.086588
0.560021 0.137844 0.045286
0.470534 0.190029 0.075041
0.508817 0.180682 0.090989
0.540418 0.108633 0.077160
0.489888 0.181228 0.026107
0.555526 0.102618 0.068854
0.539551 0.069352 0.010915
0.490382 0.088324 0.035644
0.561054 0.132608 0.064740
0.475789 0.128316 0.022816
0.563861 0.116995 0.063935
0.501242 0.149678 0.011517
0.517667 0.151553 0.091602
0.493227 0.084199 0.035541
0.553955 0.153469 0.058986
0.518038 0.081362 0.062093
0.538236 0.118175 0.080407
0.558303 0.118866 0.026086
0.538120 0.160682 0.081439
0.509787 0.066399 0.047742
0.527710 0.034185 0.033133
0.496937 0.121096 0.011542
0.502270 0.068585 0.031536
0.527910 0.188206 0.055597
0.518671 0.166537 0.017839
0.502491 0.200088 0.078629
0.475821 0.202254 0.065071
0.548147 0.058500 0.016951
0.543152 0.149199 0.022940
0.500888 0.171356 0.094047
0.547436 0.075334 0.013275
0.561420 0.136693 0.057604
0.472063 0.197461 0.069395
0.517575 0.085078 0.064102
0.516021 0.063086 0.014998
0.501904 0.205268 0.057419
0.510972 0.074222 0.014948
0.556125 0.121107 0.072814
0.540069 0.149320 0.083270
0.528758 0.184272 0.042761
0.558229 0.138224 0.066750
0.533055 0.173766 0.032510
0.526961 0.066127 0.010713
0.479070 0.143076 0.079996
0.561957 0.127943 0.065312
0.511630 0.064663 0.017588
0.538390 0.107353 0.077260
0.484899 0.198680 0.042571
0.501602 0.186484 0.029083
0.459679 0.158286 0.058764
0.469260 0.153718 0.075644
0.494817 0.088938 0.050771
0.552520 0.155117 0.061943
0.476344 0.202648 0.064968
0.532969 0.109616 0.008519
0.482308 0.154862 0.087175
0.462510 0.182725 0.051291
0.500304 0.144626 0.090321
0.544777 0.122880 0.079296
0.517494 0.082207 0.010400
0.476062 0.184932 0.034858
0.485764 0.095067 0.041154
0.474338 0.127141 0.024806
0.519501 0.082405 0.009863
0.528180 0.157784 0.017137
0.496618 0.102765 0.065291
0.563256 0.131255 0.057702
0.505593 0.186946 0.089032
0.534154 0.148800 0.016087
0.546948 0.147474 0.026170
0.467089 0.189181 0.069413
0.477755 0.191012 0.038525
0.564975 0.069784 0.037980
0.478905 0.178748 0.086743
0.543945 0.058222 0.052840
0.489023 0.091285 0.032035
0.466050 0.144353 0.031096
0.563121 0.094393 0.059173
0.559717 0.140383 0.059571
0.531512 0.120694 0.082662
0.508209 0.130368 0.086444
0.568010 0.098872 0.048019
0.552125 0.106680 0.016475
0.509806 0.110690 0.076842
0.502727 0.169852 0.017869
0.552307 0.122766 0.020233
0.494287 0.202709 0.077160
0.541580 0.105017 0.075699
0.540541 0.110195 0.077605
0.562476 0.106587 0.029182
0.516574 0.197694 0.064503
0.500377 0.088469 0.056313
0.545081 0.072531 0.059977
0.488185 0.119108 0.071543
0.533254 0.135877 0.085788
0.473302 0.121442 0.028979
0.475150 0.188924 0.038489
0.549025 0.086461 0.065624
0.461313 0.153156 0.038790
0.516951 0.179387 0.025855
0.495216 0.112799 0.071775
0.566387 0.118717 0.049100
0.561863 0.127704 0.039439
0.505729 0.095920 0.012280
0.545649 0.163027 0.069815
0.563996 0.079110 0.030203
0.532086 0.121490 0.009185
0.477123 0.166323 0.086190
0.538098 0.156768 0.082969
0.519349 0.038912 0.025079
0.463537 0.135766 0.044055
0.527344 0.188657 0.062039
0.534416 0.180906 0.063960
0.498229 0.157454 0.013523
0.517486 0.116069 0.081633
0.556250 0.088709 0.062665
0.539080 0.133607 0.013923
0.528494 0.085919 0.008465
0.536184 0.127677 0.011384
0.536238 0.176800 0.068946
0.487035 0.181272 0.027041
0.562255 0.127754 0.064749
0.536015 0.146966 0.016376
0.475180 0.112420 0.047396
0.518500 0.090133 0.067302
0.546408 0.098332 0.071808
0.502565 0.160325 0.093874
0.558890 0.054573 0.035515
0.463406 0.141472 0.057525
0.559559 0.132575 0.067758
0.563965 0.066988 0.039965
0.473264 0.190041 0.041033
0.523494 0.040561 0.019965
0.562416 0.117906 0.033649
0.515236 0.063166 0.049898
0.512277 0.182914 0.027525
0.501892 0.075404 0.023625
0.557368 0.107141 0.069046
0.495811 0.193935 0.035646
0.476476 0.168310 0.025845
0.478312 0.107593 0.032174
0.490784 0.111353 0.015901
0.564721 0.109809 0.035779
0.556660 0.143931 0.064900
0.469956 0.137193 0.066988
0.490285 0.179408 0.024813
0.512216 0.153767 0.092661
0.554761 0.061856 0.049040
0.515734 0.179442 0.025506
0.463357 0.148471 0.063772
0.558131 0.106144 0.068178
0.557994 0.123744 0.027874
0.502377 0.071215 0.041901
0.492973 0.202337 0.045961
0.549508 0.094167 0.068880
0.531818 0.071224 0.009705
0.565969 0.118053 0.058783
0.556470 0.137416 0.070239
0.476951 0.165422 0.085950
0.483519 0.109983 0.059343
0.489568 0.179146 0.091439
0.464655 0.172276 0.038116
0.517302 0.177206 0.088489
0.543557 0.085344 0.066926
0.508233 0.092388 0.011921
0.510082 0.051419 0.028338
0.552482 0.147538 0.069988
0.490469 0.207455 0.058052
0.526730 0.045015 0.046614
0.529102 0.136828 0.010696
0.493810 0.083772 0.039995
0.481698 0.175516 0.026079
0.496357 0.180747 0.092208
0.482812 0.113443 0.061865
0.521367 0.168350 0.089325
0.561552 0.093719 0.060598
0.562537 0.089514 0.026792
0.533360 0.094311 0.072268
0.512694 0.062773 0.047867
0.461198 0.167718 0.042250
0.562214 0.102048 0.027591
0.534171 0.077748 0.009205
0.471159 0.190463 0.075567
0.504740 0.192031 0.086055
0.564177 0.085692 0.053426
0.559614 0.130231 0.068574
0.541987 0.172738 0.049980
0.537690 0.043017 0.045720
0.468318 0.160178 0.029599
0.554382 0.153554 0.053252
0.517277 0.050097 0.044134
0.553920 0.126302 0.074905
0.464446 0.178579 0.041907
0.558263 0.110901 0.023329
0.471613 0.158092 0.026094
0.560575 0.099940 0.024436
0.469146 0.126877 0.054879
0.553811 0.063409 0.020063
0.560899 0.133568 0.064402
0.503242 0.167252 0.094168
0.527160 0.051594 0.049412
0.537023 0.036686 0.026648
0.550002 0.044546 0.027541
0.532319 0.165859 0.083615
0.459489 0.154201 0.046145
0.461355 0.180817 0.057025
0.503166 0.202474 0.074227
0.513876 0.173853 0.020943
0.491325 0.145232 0.013271
0.467128 0.163194 0.031743
0.509105 0.098634 0.069470
0.479388 0.157845 0.020596
0.465856 0.148910 0.068746
0.466700 0.138588 0.031695
0.544877 0.134745 0.018074
0.525749 0.137576 0.010031
0.527443 0.123464 0.008483
0.489570 0.204797 0.050170
0.508043 0.130895 0.086630
0.487894 0.141215 0.014225
0.519008 0.125603 0.085459
0.509751 0.052767 0.027401
0.513895 0.157084 0.092705
0.511238 0.095104 0.010414
0.552587 0.076068 0.058670
0.462695 0.140931 0.039641
0.488856 0.145855 0.014172
0.519919 0.109596 0.078818
0.460916 0.145507 0.043193
0.485676 0.203338 0.048556
0.469326 0.194692 0.067226
0.558993 0.064137 0.046543
0.523767 0.165849 0.019424
0.484192 0.200261 0.044773
0.560858 0.138327 0.057023
0.534650 0.181228 0.051404
0.507576 0.056427 0.033043
0.516989 0.177097 0.088711
0.520913 0.037580 0.036709
0.509367 0.073553 0.016274
0.563941 0.074902 0.047342
0.482461 0.138247 0.016668
0.527323 0.185801 0.070989
0.527962 0.034820 0.027238
0.505545 0.145198 0.010351
0.559849 0.137853 0.063106
0.462584 0.165504 0.068807
0.507149 0.058111 0.035768
0.507067 0.154974 0.093208
0.548993 0.120011 0.076945
0.551268 0.045516 0.028337
0.562055 0.069246 0.046338
0.541180 0.172971 0.063698
0.515818 0.136606 0.088879
0.555050 0.147309 0.040825
0.471676 0.191353 0.075595
0.528100 0.059039 0.011962
0.565056 0.095718 0.033057
0.531991 0.087130 0.068266
0.460964 0.166669 0.042418
0.463588 0.145867 0.062316
0.500089 0.150981 0.092168
0.504278 0.099891 0.012131
0.469165 0.164732 0.030177
0.479687 0.145048 0.018456
0.512407 0.200647 0.061713
0.488774 0.147161 0.087394
0.542816 0.153031 0.080093
0.516811 0.124697 0.085136
0.530551 0.100050 0.008008
0.550784 0.149020 0.071789
0.549139 0.071193 0.014700
0.557131 0.056857 0.027416
0.543410 0.102118 0.011197
0.483244 0.148397 0.016830
0.460489 0.146995 0.051111
0.463173 0.149215 0.063868
0.560352 0.120309 0.030396
0.489539 0.093353 0.027681
0.543239 0.114915 0.078071
0.547263 0.144727 0.078131
0.494093 0.136045 0.084507
0.509516 0.200464 0.051786
0.474641 0.119479 0.056964
0.541167 0.044855 0.018865
0.472765 0.118676 0.051928
0.525503 0.039735 0.019966
0.498234 0.125139 0.080649
0.485416 0.172873 0.022893
0.501238 0.122645 0.010312
0.565936 0.118928 0.046390
0.528832 0.040514 0.044377
0.525146 0.188176 0.045016
0.535232 0.035947 0.026862
0.540676 0.174836 0.055000
0.542415 0.037849 0.030671
0.509116 0.160434 0.093574
0.535221 0.177569 0.041549
0.504998 0.156270 0.012577
0.463043 0.137370 0.043491
0.541651 0.134924 0.015800
0.521118 0.188868 0.076334
0.539865 0.059254 0.053991
0.491272 0.106889 0.017126
0.502071 0.201100 0.077326
0.477160 0.190016 0.038049
0.551385 0.097119 0.015131
0.552865 0.053518 0.023755
0.483131 0.163701 0.020220
0.526066 0.068331 0.010482
0.528696 0.179105 0.077606
0.464761 0.186726 0.050753
0.557473 0.145480 0.059884
0.494550 0.112973 0.013572
0.472729 0.115724 0.045236
0.507613 0.200229 0.048762
0.547829 0.112391 0.075675
0.477664 0.201715 0.052259
0.558846 0.056278 0.030982
0.552458 0.126089 0.075914
0.525829 0.070754 0.010174
0.562721 0.090421 0.057770
0.490803 0.139245 0.013092
0.556952 0.116637 0.023362
0.483710 0.100139 0.047243
0.495306 0.088761 0.051214
0.555823 0.141664 0.068617
0.465198 0.158367 0.032699
0.561327 0.136272 0.059480
0.543438 0.094602 0.071255
0.533120 0.111325 0.008636
0.468812 0.129484 0.032272
0.471984 0.149313 0.024363
0.478773 0.197756 0.044842
0.513159 0.046929 0.036532
0.515422 0.068703 0.013852
0.472064 0.122615 0.055914
0.524620 0.043315 0.017692
0.478085 0.135058 0.019632
0.554197 0.048558 0.029833
0.496810 0.089399 0.053642
0.559606 0.139752 0.046685
0.488404 0.124737 0.075598
0.495801 0.170344 0.093792
0.460305 0.147004 0.047089
0.551834 0.155617 0.063520
0.561288 0.074123 0.050578
0.538101 0.070709 0.059847
0.498390 0.151948 0.012358
0.564522 0.122566 0.043733
0.554351 0.070627 0.018656
0.468284 0.163053 0.030493
0.490027 0.099975 0.021594
0.463936 0.136123 0.051531
0.545675 0.039584 0.033181
0.566400 0.096189 0.037317
0.503229 0.125236 0.082497
0.529569 0.048491 0.048673
0.563345 0.084650 0.028309
0.469235 0.167565 0.031118
0.551440 0.157487 0.045491
0.498369 0.152159 0.012399
0.507105 0.094460 0.011988
0.490820 0.098465 0.056134
0.499587 0.105048 0.013084
0.512637 0.192658 0.081107
0.461394 0.158373 0.039129
0.565730 0.081826 0.034583
0.468575 0.123476 0.041259
0.566517 0.085739 0.048591
0.468858 0.153666 0.027700
0.494999 0.115357 0.073375
0.478757 0.109072 0.029273
0.491513 0.182885 0.090862
0.501991 0.163142 0.094072
0.534853 0.166996 0.027633
0.475454 0.138703 0.074418
0.547463 0.113389 0.076088
0.478079 0.181019 0.031146
0.551349 0.159317 0.052137
0.529699 0.185027 0.067014
0.493599 0.166031 0.017052
0.498597 0.075812 0.037796
0.522998 0.190560 0.070360
0.559054 0.142945 0.056202
0.488195 0.130401 0.014066
0.537570 0.084859 0.009320
0.507964 0.144277 0.010037
0.535791 0.141421 0.014348
0.466410 0.190605 0.064275
0.536904 0.145336 0.016269
0.473725 0.138377 0.072446
0.487608 0.146557 0.086628
0.472586 0.176473 0.082096
0.496166 0.114224 0.073280
0.547733 0.152062 0.074653
0.481371 0.182619 0.030346
0.511203 0.127659 0.008548
0.464705 0.144322 0.063581
0.485710 0.191438 0.085410
0.537216 0.057586 0.053295
0.539567 0.152316 0.083057
0.498790 0.162575 0.014961
0.480388 0.113393 0.023673
0.549476 0.044950 0.039101
0.483611 0.103551 0.052248
0.564734 0.078003 0.032144
0.517885 0.118979 0.007967
0.532908 0.134466 0.085618
0.537697 0.117862 0.010451
0.522441 0.184777 0.034665
0.542958 0.167559 0.069621
0.522053 0.153958 0.013518
0.562448 0.129277 0.063499
0.544294 0.163368 0.036137
0.528259 0.164948 0.086646
0.501841 0.113272 0.010907
0.547023 0.140430 0.079284
0.565150 0.070624 0.037633
0.488934 0.207584 0.059976
0.540857 0.061713 0.012537
0.500261 0.178528 0.092918
0.480859 0.175748 0.026643
0.477794 0.156398 0.021210
0.545978 0.093687 0.070092
0.494502 0.117926 0.012705
0.488114 0.137554 0.014013
0.539624 0.050783 0.015341
0.485393 0.113018 0.019016
0.472348 0.177950 0.081607
0.549584 0.097015 0.013991
0.550948 0.043785 0.033065
0.467824 0.184779 0.074138
0.459294 0.154612 0.052678
0.555097 0.080739 0.017989
0.458953 0.169244 0.055616
0.497079 0.119304 0.011658
0.556907 0.061923 0.024219
0.550399 0.154179 0.068707
0.565078 0.106281 0.035521
0.539105 0.174025 0.043036
0.493034 0.115241 0.072107
0.511760 0.161826 0.093247
0.547673 0.041662 0.028685
0.466489 0.136076 0.059790
0.479316 0.181608 0.086247
0.562338 0.110273 0.030027
0.516774 0.109174 0.077982
0.510344 0.104512 0.073480
0.537476 0.083175 0.009378
0.468527 0.173114 0.034087
0.495086 0.092608 0.020946
0.479693 0.146423 0.018556
0.508718 0.200489 0.073247
0.523817 0.096721 0.072402
0.487923 0.145233 0.086194
0.540975 0.101810 0.074724
0.566390 0.115232 0.044959
0.477078 0.122620 0.023239
0.478891 0.117262 0.023440
0.565473 0.077848 0.034334
0.509038 0.111485 0.077037
0.518307 0.071684 0.011938
0.535296 0.087083 0.008839
0.512647 0.045618 0.029920
0.566321 0.084370 0.048311
0.525996 0.125383 0.084843
0.549801 0.122350 0.076967
0.509141 0.201082 0.053117
0.501128 0.203385 0.050631
0.512408 0.161464 0.093128
0.526734 0.034487 0.034448
0.565168 0.116680 0.040939
0.548799 0.148826 0.074782
0.514343 0.108876 0.008546
0.490892 0.187168 0.089080
0.545469 0.053605 0.049906
0.460332 0.177615 0.055895
0.526467 0.140991 0.010890
0.463883 0.168530 0.037646
0.460910 0.149862 0.057519
0.519344 0.090612 0.067799
0.486306 0.199276 0.042797
0.480336 0.203367 0.052404
0.527260 0.082851 0.065153
0.559700 0.141467 0.054930
0.494902 0.180917 0.024945
0.469920 0.177932 0.079083
0.509040 0.195629 0.080617
0.556498 0.148038 0.058942
0.534912 0.133139 0.084767
0.542096 0.146347 0.082251
0.539075 0.169596 0.035411
0.522385 0.184487 0.079616
0.492857 0.202145 0.045662
0.541404 0.136349 0.082828
0.544885 0.160769 0.034090
0.556941 0.130253 0.029918
0.483807 0.190978 0.084851
0.538481 0.111644 0.078576
0.498886 0.122608 0.079544
0.498810 0.147962 0.091110
0.555174 0.060975 0.022498
0.548672 0.152975 0.072722
0.534390 0.176750 0.038438
0.516784 0.179228 0.087851
0.528323 0.134591 0.010077
0.472529 0.165145 0.027456
0.538368 0.137603 0.084295
0.497030 0.108063 0.069568
0.539019 0.085090 0.067435
0.528591 0.055981 0.051595
0.510809 0.092148 0.065979
0.459046 0.156613 0.049515
0.470648 0.167738 0.029942
0.518290 0.188637 0.036448
0.473690 0.193867 0.044857
0.506563 0.073279 0.049570
0.471855 0.121301 0.031880
0.471386 0.162077 0.080422
0.526276 0.184042 0.038069
0.534555 0.180331 0.046976
0.537260 0.038476 0.023280
0.460124 0.176591 0.053352
0.474149 0.117868 0.030021
0.514765 0.189556 0.035209
0.498596 0.158629 0.013771
