ply
format ascii 1.0
element vertex 1024
property float x
property float y
property float z
end_header
0.514398 -0.011226 0.071882
0.515842 0.072069 0.054673
0.516416 0.077212 0.054651
0.551055 -0.057425 0.019089
0.580417 0.070876 0.043492
0.512860 0.023633 0.032892
0.542775 -0.050181 0.016125
0.589500 -0.001259 0.070069
0.525821 0.078446 0.030727
0.533520 0.031442 0.021085
0.591969 -0.024066 0.041304
0.570139 -0.064492 0.051156
0.584793 0.062019 0.058893
0.592704 0.039225 0.038113
0.592422 -0.009676 0.032011
0.546933 0.029755 0.017618
0.515501 0.044230 0.036191
0.561200 -0.053262 0.017823
0.513469 -0.043387 0.054512
0.573957 -0.015622 0.015231
0.595304 0.039091 0.044195
0.545106 0.102401 0.036585
0.535077 -0.068392 0.037917
0.534620 0.074610 0.072842
0.517153 0.093751 0.042158
0.521410 0.016914 0.076939
0.523873 -0.048659 0.065154
0.548595 -0.028075 0.084912
0.548479 0.020713 0.088227
0.530848 -0.046328 0.071853
0.545200 0.039435 0.019917
0.575028 -0.000813 0.016508
0.579329 0.076581 0.051583
0.559961 0.082859 0.069490
0.565775 -0.018217 0.085200
0.570742 0.029028 0.083968
0.552879 0.040177 0.019664
0.572847 -0.027355 0.015206
0.538748 -0.042317 0.077610
0.574893 0.078110 0.042256
0.577256 -0.055173 0.033369
0.580249 -0.032230 0.070172
0.545980 -0.004807 0.088837
0.579324 -0.046530 0.027728
0.557874 -0.055174 0.018141
0.581315 -0.020493 0.020483
0.585123 0.065034 0.046575
0.554129 0.003959 0.089606
0.536710 -0.051247 0.018916
0.515883 0.089198 0.044463
0.516408 0.088048 0.041189
0.589567 -0.028724 0.037315
0.577466 0.004471 0.082150
0.518407 0.031046 0.071679
0.583520 -0.037387 0.028988
0.561207 0.020961 0.087955
0.552740 -0.058582 0.069415
0.512649 -0.043510 0.040456
0.544237 -0.022227 0.086171
0.504864 -0.006665 0.055628
0.585405 -0.006055 0.074459
0.591347 0.040294 0.061807
0.586389 0.060641 0.043547
0.526546 -0.036170 0.018811
0.583846 -0.040983 0.056950
0.550248 -0.051095 0.015295
0.541976 -0.064205 0.026112
0.567453 -0.058852 0.024944
0.574459 -0.057037 0.030505
0.590418 -0.021735 0.060008
0.558083 0.099864 0.053721
0.591210 -0.018465 0.060525
0.595896 0.011405 0.037426
0.547927 0.016207 0.014937
0.566729 0.084786 0.038719
0.525516 -0.058121 0.057928
0.511057 0.040561 0.044122
0.542111 0.065034 0.078007
0.559619 -0.065675 0.027690
0.596266 -0.005791 0.048189
0.554730 0.062478 0.079729
0.561413 -0.003804 0.011706
0.545953 0.061202 0.079805
0.580072 0.068664 0.040820
0.533732 0.087549 0.028879
0.572150 0.031838 0.020245
0.550454 0.073000 0.027156
0.538681 -0.047320 0.016265
0.594244 0.030673 0.036895
0.563318 0.056910 0.080122
0.581943 0.071916 0.050069
0.572468 -0.024731 0.014792
0.553198 -0.026347 0.085736
0.592559 0.008222 0.030951
0.526663 -0.062846 0.048973
0.574801 0.067981 0.068535
0.540652 -0.049840 0.074033
0.593916 -0.004920 0.034351
0.552528 -0.044236 0.012457
0.564505 0.057770 0.025019
0.544163 -0.073316 0.045290
0.540971 -0.002252 0.087898
0.510822 -0.035679 0.036766
0.505629 -0.008233 0.058075
0.509897 0.012742 0.033876
0.536018 -0.044351 0.075597
0.591539 -0.015052 0.061978
0.597596 0.010782 0.045641
0.519490 0.053148 0.067189
0.529573 -0.017752 0.082485
0.540367 -0.030698 0.082862
0.587357 -0.037604 0.043856
0.539379 -0.030987 0.012071
0.559900 -0.054989 0.070438
0.527191 0.015140 0.020668
0.562200 0.028821 0.017137
0.570408 -0.047352 0.018859
0.510817 -0.003138 0.030233
0.506447 -0.025520 0.041556
0.532126 -0.012436 0.084321
0.552884 -0.017687 0.087944
0.505878 -0.021893 0.054259
0.534796 0.031950 0.082442
0.552595 -0.004569 0.089350
0.567770 -0.001078 0.087039
0.517178 0.050755 0.064739
0.540949 0.016859 0.016081
0.588180 0.056900 0.043212
0.531656 -0.027708 0.081166
0.514884 0.043583 0.063322
0.532082 -0.062048 0.030119
0.504558 0.005485 0.044075
0.535867 0.038997 0.081721
0.575294 0.035261 0.022383
0.551892 -0.028150 0.085088
0.577425 -0.034721 0.019620
0.552045 -0.035851 0.010567
0.530676 0.045435 0.077881
0.553155 -0.038680 0.080853
0.570896 0.045178 0.023064
0.548569 -0.053768 0.016885
0.536523 -0.069204 0.051253
0.596358 0.000352 0.042550
0.536058 0.047603 0.023482
0.534605 -0.043846 0.016681
0.538409 0.071987 0.026930
0.557675 0.098126 0.056816
0.585441 0.061987 0.043102
0.533768 0.103677 0.034838
0.574079 0.000343 0.016184
0.544114 -0.071985 0.052877
0.561157 -0.065935 0.059885
0.546637 -0.073540 0.048594
0.516023 -0.041046 0.030617
0.528181 -0.059594 0.059140
0.587509 0.011635 0.072864
0.554146 0.020407 0.015187
0.539103 0.107509 0.046083
0.547074 0.010054 0.088968
0.524561 0.072817 0.067130
0.504320 0.002031 0.053091
0.535606 -0.013404 0.085561
0.545266 -0.055552 0.071342
0.512012 -0.030548 0.031539
0.561699 0.086368 0.066145
0.566201 0.031047 0.018273
0.546417 -0.006789 0.088802
0.582391 -0.046912 0.035688
0.572724 0.073153 0.067343
0.509897 -0.030979 0.058609
0.505849 -0.025491 0.044856
0.579954 -0.040339 0.064812
0.527022 0.070706 0.029803
0.560744 -0.035526 0.011542
0.538434 -0.053361 0.071095
0.513480 -0.007789 0.071299
0.554299 0.047821 0.083820
0.529119 -0.056064 0.063741
0.529459 0.035463 0.079030
0.564326 -0.064598 0.059083
0.569787 0.069183 0.031603
0.518829 -0.024407 0.073193
0.539705 -0.050433 0.073395
0.591461 -0.018646 0.033722
0.552136 0.068267 0.026202
0.515266 0.028537 0.068991
0.553452 0.093522 0.034140
0.576449 -0.039839 0.020276
0.509609 0.015269 0.065028
0.527529 0.089000 0.030327
0.560820 -0.051500 0.072709
0.581353 0.037142 0.026353
0.585247 -0.000625 0.022634
0.525863 0.030179 0.077758
0.513721 -0.028061 0.028235
0.511645 -0.042351 0.048665
0.509856 -0.003253 0.067071
0.587709 0.057998 0.056605
0.546529 0.005158 0.013290
0.561479 0.033820 0.018228
0.556209 -0.011554 0.010522
0.551857 -0.045934 0.013032
0.578834 -0.024046 0.075741
0.549131 -0.032712 0.010323
0.576925 -0.003271 0.082170
0.534491 -0.068658 0.040903
0.567507 0.064822 0.075575
0.592781 -0.000390 0.064685
0.584692 0.040523 0.071018
0.550501 -0.033110 0.083147
0.559191 -0.009906 0.088402
0.509758 -0.008487 0.031365
0.557537 0.100269 0.053583
0.536871 -0.027065 0.012607
0.540163 -0.065594 0.061349
0.577995 -0.056947 0.041727
0.575314 0.065822 0.069311
0.570345 0.017035 0.085543
0.514780 0.057646 0.042074
0.525542 0.023061 0.023068
0.534848 -0.031666 0.013736
0.518962 0.093640 0.037805
0.541500 -0.046529 0.014944
0.522275 -0.003218 0.079057
0.544766 0.097505 0.063121
0.539399 0.107478 0.046549
0.560099 -0.022111 0.010393
0.505579 -0.005579 0.039044
0.556268 0.040134 0.019607
0.581012 -0.029518 0.070844
0.512551 0.050670 0.051187
0.565157 -0.023271 0.084307
0.556815 0.038017 0.085817
0.526002 -0.028595 0.017740
0.576869 0.015258 0.082059
0.595209 0.033392 0.056786
0.585875 -0.041285 0.042803
0.552034 0.001393 0.012213
0.591425 0.015456 0.030081
0.515579 0.070568 0.041914
0.586308 0.019974 0.026166
0.556809 0.037287 0.018904
0.592975 -0.001096 0.031838
0.567048 0.010010 0.087394
0.589933 -0.017334 0.029985
0.533698 0.085415 0.068664
0.536895 -0.070089 0.040536
0.523419 0.034267 0.075269
0.531977 -0.017863 0.014374
0.524567 -0.007644 0.018563
0.548195 0.104550 0.042338
0.536483 0.046182 0.023077
0.516560 0.055299 0.037681
0.514338 0.004143 0.027366
0.531542 -0.065030 0.035678
0.583291 0.011915 0.077250
0.574295 -0.049515 0.064560
0.569111 -0.036024 0.078026
0.574975 -0.053629 0.059620
0.512431 -0.035823 0.033410
0.526105 0.091727 0.061717
0.505883 0.015529 0.042932
0.559417 -0.020205 0.086671
0.576356 0.059412 0.031288
0.570451 0.017989 0.085399
0.515865 -0.034365 0.065624
0.556023 0.007800 0.089521
0.587251 -0.001971 0.072946
0.590476 0.012135 0.068958
0.555459 0.100433 0.043181
0.514019 0.021652 0.031104
0.561688 0.092537 0.060484
0.596457 0.006141 0.055874
0.551395 -0.068039 0.028623
0.536798 0.029240 0.083780
0.555314 -0.020343 0.087270
0.516010 0.067904 0.056622
0.542558 0.001227 0.088323
0.515771 0.022715 0.029681
0.596508 0.026588 0.055505
0.586221 0.058879 0.058967
0.560961 0.096982 0.045136
0.527722 -0.047065 0.069288
0.528800 -0.029392 0.016260
0.505566 -0.013642 0.056690
0.585364 0.060790 0.041708
0.523274 -0.037201 0.021429
0.545233 0.052654 0.081898
0.504632 -0.014623 0.043619
0.524767 -0.055531 0.030788
0.521015 0.094599 0.055675
0.561653 -0.069725 0.053308
0.583476 -0.042557 0.033440
0.563293 0.091374 0.040919
0.580555 0.039980 0.026620
0.554319 -0.028112 0.009903
0.567244 -0.026806 0.012573
0.588317 0.008445 0.072034
0.540768 0.056589 0.023995
0.577199 -0.041834 0.067331
0.538661 -0.008579 0.086988
0.592900 0.046428 0.054634
0.505765 -0.005377 0.038562
0.571854 -0.046431 0.069549
0.525474 -0.062030 0.043438
0.504823 -0.019723 0.045743
0.517797 0.018012 0.026950
0.515410 0.033264 0.032798
0.568833 -0.030223 0.080645
0.592550 0.034685 0.035847
0.542242 0.068956 0.026075
0.559544 0.042834 0.020355
0.594288 -0.017298 0.047556
0.571649 0.030014 0.083426
0.514592 0.020896 0.030348
0.540815 0.067281 0.077049
0.533791 -0.055103 0.067656
0.571446 -0.060996 0.055547
0.514248 0.057115 0.055721
0.573750 0.042625 0.079960
0.539756 0.066566 0.076961
0.535631 -0.069553 0.046224
0.559742 -0.071767 0.039687
0.581273 -0.033110 0.023342
0.526014 -0.036546 0.074022
0.566934 0.046464 0.082111
0.519244 0.002108 0.023125
0.535048 0.066470 0.026766
0.525512 -0.062172 0.045203
0.551683 0.088642 0.031226
0.530839 -0.060564 0.029621
0.589770 0.005972 0.070136
0.584122 0.031507 0.026881
0.581601 0.069826 0.044538
0.553250 0.060076 0.080563
0.532033 0.011156 0.017767
0.579809 -0.007506 0.079514
0.546010 -0.072989 0.050959
0.515800 -0.001826 0.073902
0.596242 0.002414 0.055620
0.589783 -0.031350 0.045887
0.596715 -0.000510 0.047489
0.541442 -0.037448 0.080438
0.565092 -0.044283 0.075687
0.541257 -0.037509 0.012451
0.554673 0.100862 0.055279
0.505232 -0.005235 0.057189
0.540626 0.106677 0.041371
0.581421 0.042860 0.073807
0.511891 0.047224 0.049536
0.537700 0.052328 0.079809
0.594626 -0.005165 0.058893
0.505773 -0.003428 0.038631
0.592741 0.002600 0.065160
0.570015 -0.052392 0.066404
0.506124 0.020973 0.046198
0.546967 -0.073260 0.050424
0.588274 -0.014010 0.026551
0.505485 0.009752 0.041805
0.540581 -0.071935 0.040866
0.576818 -0.012649 0.016812
0.584700 -0.036290 0.060013
0.560052 -0.005181 0.088757
0.527525 0.103372 0.053679
0.576818 0.067189 0.036023
0.558693 -0.046838 0.076290
0.511069 0.026616 0.063621
0.515112 0.076312 0.044815
0.571334 0.026996 0.083960
0.545559 0.076439 0.027504
0.576652 -0.042811 0.067253
0.533060 0.063426 0.075139
0.580897 0.014770 0.021637
0.516673 -0.002005 0.074691
0.512967 -0.001490 0.071054
0.522810 -0.058419 0.038763
0.563144 0.078145 0.032102
0.513884 0.060059 0.047425
0.563408 0.033376 0.018328
0.576814 -0.027737 0.017822
0.573780 0.003959 0.016447
0.561160 -0.035632 0.011654
0.512206 0.044133 0.042930
0.581794 0.069510 0.057423
0.561177 0.081065 0.032410
0.530536 -0.050665 0.068872
0.535001 0.104742 0.036172
0.587190 -0.024082 0.028310
0.564828 0.006618 0.088192
0.520236 0.097073 0.052825
0.562643 0.071132 0.074772
0.514908 0.074739 0.047610
0.506144 0.019877 0.053917
0.529773 -0.032560 0.016203
0.566586 -0.029515 0.081974
0.525305 -0.028004 0.077309
0.508211 0.022183 0.059702
0.579239 -0.041735 0.024405
0.558910 -0.015492 0.010420
0.595280 0.021061 0.036209
0.576153 -0.027465 0.017294
0.592668 -0.015354 0.058891
0.560925 -0.014926 0.010751
0.586531 -0.013518 0.024433
0.534680 -0.068600 0.039857
0.552400 -0.052210 0.015839
0.547213 0.083701 0.029032
0.564126 0.037327 0.084886
0.533651 0.085366 0.028793
0.535443 0.002226 0.086074
0.540164 0.058263 0.079264
0.550201 0.083871 0.029591
0.558294 -0.071655 0.051989
0.511339 0.042238 0.053986
0.563900 0.010608 0.014035
0.511037 0.042816 0.048137
0.553705 -0.037006 0.081588
0.553200 0.023437 0.088230
0.538470 0.097672 0.063066
0.515233 0.082008 0.045804
0.566542 0.024199 0.016955
0.518610 0.088652 0.055340
0.534951 0.040502 0.022429
0.528460 -0.011399 0.016227
0.596767 0.010260 0.040626
0.536049 -0.048121 0.073465
0.577803 0.044698 0.076560
0.557622 0.036458 0.018706
0.522086 -0.030600 0.020670
0.529274 0.026788 0.080444
0.559086 -0.008831 0.010926
0.594519 -0.009624 0.037514
0.551800 0.069817 0.077378
0.515971 0.089064 0.047840
0.546885 0.098855 0.061412
0.593119 -0.016026 0.056948
0.594553 -0.015299 0.042709
0.555444 0.041126 0.085268
0.538689 -0.034054 0.081264
0.574352 -0.041623 0.070620
0.548790 0.006068 0.089327
0.551625 0.074311 0.075683
0.560495 0.065183 0.077895
0.540364 0.107244 0.048446
0.515109 0.077333 0.045121
0.550395 0.097769 0.035142
0.590380 0.007514 0.069270
0.530896 0.066444 0.073243
0.530778 0.096708 0.061562
0.525448 -0.048335 0.024481
0.506863 0.004282 0.037130
0.556618 -0.065053 0.026043
0.539432 -0.028146 0.011871
0.592363 0.029113 0.033774
0.538742 -0.052821 0.071566
0.546463 -0.039511 0.011666
0.519772 0.029284 0.073355
0.574740 -0.017971 0.015687
0.545671 0.038509 0.084996
0.577828 0.056155 0.030797
0.508425 -0.033435 0.051541
0.528504 0.063258 0.028592
0.596632 0.001176 0.044297
0.533968 -0.011575 0.085145
0.578268 0.049099 0.074643
0.565329 -0.024870 0.083848
0.547735 -0.052916 0.073336
0.560037 -0.052770 0.072049
0.577609 0.016728 0.081435
0.553734 0.025360 0.087972
0.562995 -0.065756 0.058762
0.565876 0.031540 0.085379
0.533845 0.028021 0.020257
0.513986 0.045201 0.039091
0.587901 -0.023697 0.029323
0.561712 -0.022210 0.010723
0.577006 0.032157 0.022569
0.506603 0.004242 0.061069
0.535404 0.033625 0.020844
0.563732 -0.051578 0.017724
0.513358 0.027242 0.033350
0.555746 0.073702 0.028020
0.505966 0.017750 0.054822
0.530971 -0.026429 0.081245
0.580910 0.070350 0.043798
0.541001 -0.053714 0.071684
0.578520 -0.056124 0.045585
0.589075 0.055714 0.043955
0.555219 -0.059959 0.021210
0.593628 0.028074 0.035157
0.590688 -0.022706 0.058482
0.521108 -0.054011 0.034284
0.515805 0.044234 0.064680
0.546544 -0.067423 0.061515
0.589476 -0.024451 0.060119
0.550119 -0.032032 0.083550
0.558829 0.000653 0.011920
0.591761 0.020627 0.066140
0.539087 -0.065765 0.029015
0.575830 -0.045468 0.022285
0.577117 0.034398 0.023135
0.535952 -0.042154 0.076755
0.585670 0.046995 0.033213
0.540734 0.081022 0.072475
0.511887 0.040965 0.041616
0.598091 0.022491 0.047077
0.506407 0.001218 0.060776
0.595589 0.037898 0.044134
0.531254 -0.006677 0.084274
0.575111 -0.015714 0.015850
0.513123 0.045812 0.041318
0.596023 0.001794 0.056353
0.543732 0.053293 0.022995
0.579226 0.024339 0.022276
0.577637 0.040494 0.077868
0.592272 -0.014562 0.033433
0.526787 0.066215 0.029614
0.527686 0.104784 0.038774
0.518868 0.017700 0.074902
0.514979 0.064121 0.043034
0.582238 -0.039101 0.062186
0.553992 -0.016491 0.088099
0.571633 -0.063431 0.037421
0.543849 -0.073202 0.043115
0.547235 0.093130 0.066211
0.572241 0.007689 0.085230
0.567120 -0.040500 0.014626
0.550346 0.078164 0.074195
0.597078 0.020120 0.054894
0.540642 -0.070995 0.036741
0.545162 0.049396 0.022084
0.519530 0.077127 0.060439
0.565048 -0.064779 0.058202
0.518399 0.065091 0.062270
0.593181 0.029726 0.035022
0.591236 -0.003794 0.029046
0.577192 -0.033029 0.073077
0.598006 0.015972 0.046055
0.574145 -0.020108 0.080672
0.528569 0.079226 0.068262
0.534293 -0.020645 0.013421
0.597692 0.026982 0.045469
0.517056 0.073593 0.057300
0.574976 0.034778 0.022117
0.542709 -0.062708 0.065251
0.548950 -0.043006 0.078761
0.514104 -0.038234 0.031892
0.527262 -0.033306 0.017743
0.521427 0.039525 0.029134
0.596313 -0.000749 0.053713
0.544393 -0.073346 0.043467
0.546162 0.042296 0.084351
0.543277 -0.031359 0.011092
0.521266 -0.058138 0.046509
0.557230 -0.015765 0.010253
0.586018 0.022721 0.026445
0.524927 0.061063 0.070525
0.527996 -0.052237 0.065964
0.511815 0.032148 0.037209
0.505487 0.001401 0.058213
0.526567 0.061733 0.071629
0.559509 -0.004809 0.088871
0.532393 0.025168 0.020254
0.597101 0.025747 0.053758
0.574161 -0.052057 0.024979
0.561708 0.005806 0.088919
0.576237 0.010149 0.082822
0.533766 -0.065346 0.032986
0.532638 -0.057750 0.064802
0.573052 0.085673 0.054782
0.547296 -0.054311 0.017368
0.556337 0.085722 0.032035
0.510280 0.038366 0.045398
0.505600 -0.018463 0.055066
0.586428 0.058992 0.041847
0.597390 0.015785 0.053671
0.574853 0.019121 0.019069
0.558533 0.000858 0.011924
0.588085 0.058654 0.054712
0.565062 0.050872 0.081502
0.550578 0.020993 0.015559
0.540914 -0.025548 0.084614
0.571410 0.035667 0.082696
0.564645 -0.068673 0.037252
0.576531 0.038375 0.023764
0.577856 0.032947 0.023206
0.578746 0.052725 0.072673
0.578278 -0.053532 0.053591
0.528189 0.041119 0.025450
0.564208 0.071923 0.029885
0.532103 0.006046 0.016853
0.582079 0.005434 0.021016
0.504359 0.005489 0.052470
0.529695 -0.056830 0.063519
0.573909 0.059783 0.029768
0.506828 -0.029568 0.049209
0.559216 -0.030192 0.083937
0.536501 0.014409 0.016781
0.593006 0.039797 0.058937
0.588239 0.031540 0.069120
0.519332 0.043813 0.069465
0.595450 -0.011879 0.046849
0.572196 0.078132 0.064311
0.549191 0.031043 0.086885
0.541788 -0.043585 0.013836
0.591626 -0.011266 0.030905
0.518826 0.098680 0.045205
0.505456 -0.013791 0.040027
0.584190 -0.040815 0.056247
0.588797 -0.031411 0.054225
0.531651 -0.015233 0.083820
0.560701 0.018195 0.014819
0.579905 0.060973 0.035122
0.560715 0.021862 0.087928
0.535065 0.062176 0.076399
0.555462 0.026592 0.087766
0.590965 -0.027827 0.048980
0.533780 -0.043431 0.075123
0.597696 0.027361 0.046015
0.562905 0.008130 0.088645
0.509925 0.011295 0.033511
0.548649 0.044605 0.020846
0.577389 0.046944 0.026760
0.565223 -0.029797 0.012098
0.562217 0.097630 0.051021
0.511897 -0.021312 0.029258
0.597845 0.021445 0.043885
0.572033 0.087499 0.051883
0.529279 -0.058990 0.060983
0.521145 0.099614 0.051514
0.583701 0.041645 0.071788
0.531404 0.070854 0.028218
0.556748 -0.035453 0.082120
0.513852 0.059112 0.052136
0.588726 0.043543 0.034837
0.548433 -0.053089 0.073266
0.520126 -0.035429 0.069603
0.505770 0.019448 0.046968
0.512070 0.023499 0.066420
0.584069 0.049526 0.068159
0.597671 0.010497 0.048949
0.519798 -0.016541 0.021161
0.535291 -0.040128 0.077533
0.571342 -0.019971 0.014005
0.565620 0.087151 0.039548
0.558032 -0.030644 0.083936
0.516203 -0.028757 0.025510
0.588789 0.044886 0.035560
0.579473 0.035636 0.077534
0.519589 0.060016 0.034302
0.552159 -0.063553 0.065414
0.577823 0.052403 0.029114
0.534030 0.076596 0.071983
0.595917 0.038605 0.049747
0.597463 0.015451 0.042137
0.541279 -0.042789 0.013751
0.520853 0.014648 0.024155
0.558524 -0.051432 0.016117
0.515285 -0.045588 0.056210
0.581382 -0.038671 0.025930
0.569211 0.058510 0.026744
0.520353 0.048036 0.069477
0.515571 0.083240 0.043226
0.596893 0.004773 0.044156
0.555831 -0.071204 0.055087
0.534921 0.092278 0.029224
0.551709 0.015701 0.089053
0.515111 0.045669 0.037270
0.526989 -0.040050 0.072888
0.565279 -0.050449 0.017744
0.522174 0.010805 0.022633
0.582611 -0.029214 0.023758
0.585352 0.058770 0.039913
0.572808 0.068689 0.070009
0.564818 0.045587 0.021586
0.528310 0.070593 0.029267
0.512347 -0.043449 0.050160
0.576578 0.057025 0.072765
0.537890 0.071635 0.074955
0.539958 -0.066013 0.028829
0.573866 -0.056504 0.028927
0.582680 0.068281 0.044929
0.597483 0.023461 0.042483
0.588007 -0.018747 0.066813
0.543682 0.098395 0.032501
0.511823 -0.031752 0.061583
0.594365 0.002848 0.061757
0.527206 0.084494 0.030340
0.593547 0.023810 0.033978
0.518358 -0.052044 0.054472
0.574217 0.048194 0.078112
0.512847 -0.028014 0.065115
0.573362 0.058857 0.074605
0.511629 -0.005411 0.029105
0.554833 0.090280 0.066321
0.598121 0.021616 0.047619
0.568009 -0.035894 0.013994
0.538285 0.085979 0.028653
0.534335 0.107130 0.048012
0.548485 0.104739 0.053021
0.589485 -0.021836 0.031312
0.508173 -0.032454 0.042254
0.521733 -0.057809 0.040384
0.571364 -0.064603 0.042328
0.553071 -0.025490 0.086014
0.521787 -0.006681 0.078656
0.512449 -0.035310 0.060148
0.543685 0.032946 0.018689
0.517666 -0.023916 0.072237
0.520330 -0.029052 0.021761
0.504657 -0.013072 0.053050
0.567671 0.022318 0.086045
0.548733 0.013863 0.088951
0.545430 0.027608 0.086810
0.551405 -0.067793 0.061314
0.558612 0.000283 0.011858
0.517892 -0.004485 0.075685
0.566288 0.009447 0.014450
0.515347 0.082047 0.044379
0.573838 -0.022362 0.015375
0.523282 0.046956 0.072466
0.571432 0.071766 0.034167
0.504679 -0.018064 0.045320
0.520117 -0.008335 0.077325
0.559893 0.025482 0.016225
0.505759 -0.023502 0.042876
0.546945 -0.067665 0.061303
0.536613 -0.069144 0.037185
0.569147 0.087100 0.043659
0.558857 -0.014205 0.087855
0.543351 -0.064787 0.063486
0.596864 0.018518 0.055737
0.584588 -0.029491 0.065903
0.516553 0.076939 0.039646
0.581153 -0.038727 0.025609
0.523987 0.098517 0.034584
0.517257 0.064868 0.060419
0.577041 0.079040 0.047366
0.513077 -0.004254 0.071096
0.586529 -0.039738 0.047213
0.525981 0.105299 0.044434
0.533290 -0.000774 0.085253
0.598016 0.017539 0.049741
0.522450 -0.045401 0.025539
0.517662 0.074783 0.037508
0.567352 -0.023111 0.012426
0.588036 0.027325 0.028948
0.550181 0.104200 0.052917
0.573314 0.083644 0.046152
0.592293 -0.021585 0.054068
0.568006 -0.002351 0.013571
0.588612 0.010887 0.071563
0.540693 -0.066632 0.029200
0.527894 0.085896 0.065406
0.579150 0.062936 0.066726
0.560012 0.052281 0.022830
0.511885 -0.042611 0.049641
0.515101 -0.026054 0.026166
0.559614 -0.021942 0.010312
0.519190 0.039676 0.070334
0.514148 -0.035673 0.062587
0.513314 -0.011796 0.070630
0.574481 -0.057325 0.055843
0.546753 -0.021941 0.010478
0.593637 -0.005594 0.033781
0.563958 0.009495 0.013881
0.540967 0.050172 0.081421
0.596485 0.002477 0.042457
0.551118 0.082336 0.072174
0.558438 0.096255 0.058619
0.554094 0.052618 0.082636
0.516878 -0.013222 0.074061
0.508675 -0.026358 0.035916
0.516298 -0.029520 0.025584
0.581430 0.039228 0.074889
0.509792 0.037416 0.050127
0.581826 0.029595 0.024871
0.594364 0.003977 0.034439
0.547073 -0.009324 0.011423
0.568304 -0.056574 0.064102
0.515010 0.003048 0.026598
0.537655 0.102582 0.058631
0.511300 0.003921 0.030472
0.522673 0.101126 0.051832
0.546066 0.002821 0.012994
0.528334 -0.035699 0.076085
0.522691 0.018126 0.077660
0.591697 0.039893 0.061360
0.534621 0.097548 0.030572
0.575985 -0.038330 0.071125
0.532608 0.107089 0.047110
0.589283 -0.022001 0.062443
0.540894 0.107433 0.046141
0.570935 -0.027366 0.014215
0.580451 -0.024278 0.074061
0.536935 -0.011433 0.086220
0.505300 -0.015344 0.040866
0.564057 0.021320 0.087292
0.583890 -0.045782 0.041469
0.553457 0.083044 0.030147
0.511599 0.027540 0.064156
0.571097 -0.064291 0.038790
0.531642 -0.056988 0.064790
0.561051 0.059519 0.079801
0.552351 0.098298 0.059848
0.522598 -0.027765 0.075287
0.528358 0.076921 0.068855
0.588107 -0.034246 0.039607
0.524264 -0.060836 0.048767
0.597053 0.010244 0.054219
0.515046 0.023845 0.070060
0.507976 0.007725 0.035760
0.565466 -0.056568 0.066286
0.584261 0.034034 0.027617
0.540711 -0.069847 0.055229
0.561061 0.096827 0.055655
0.592553 0.023280 0.032588
0.528767 0.074678 0.069764
0.584377 0.062693 0.041889
0.519462 -0.001400 0.076966
0.574795 0.042472 0.079358
0.513713 0.025725 0.032502
0.521964 0.039796 0.028812
0.597586 0.011614 0.044660
0.509637 -0.031809 0.057359
0.597543 0.020151 0.053026
0.573445 0.049308 0.025382
0.546851 0.040777 0.084773
0.503993 -0.004085 0.050504
0.509914 -0.019591 0.064299
0.537834 -0.064570 0.061211
0.519883 0.087105 0.035274
0.520278 0.071984 0.062929
0.513298 -0.000603 0.027745
0.522152 0.097918 0.054698
0.509318 -0.003510 0.066256
0.554221 0.102288 0.053221
0.524357 0.039374 0.027181
0.592471 0.018497 0.065286
0.535446 0.000321 0.014800
0.562230 -0.041461 0.013166
0.507070 -0.025755 0.039559
0.596425 -0.001730 0.052220
0.575626 0.078198 0.043441
0.557447 0.070961 0.027555
0.529719 -0.009964 0.083362
0.590586 0.036497 0.064447
0.556975 0.084154 0.069822
0.512978 -0.034533 0.061575
0.510026 0.032605 0.057738
0.508603 -0.015230 0.033378
0.545197 0.106663 0.045233
0.582010 0.062296 0.063323
0.551172 0.004310 0.012705
0.539214 0.089841 0.029110
0.572604 0.073164 0.067451
0.515400 -0.038384 0.062552
0.590159 -0.000531 0.069189
0.529779 -0.010171 0.083380
0.520004 0.045712 0.069696
0.522687 0.028436 0.025828
0.516938 0.033046 0.069636
0.579253 -0.053249 0.035828
0.508589 -0.034342 0.050410
0.576118 0.075576 0.061546
0.505208 -0.000228 0.040475
0.583024 0.069943 0.050025
0.509660 -0.025300 0.061616
0.537653 0.011728 0.015983
0.505564 0.018761 0.050176
0.561159 -0.054001 0.018251
0.565634 -0.032611 0.012563
0.571946 -0.012441 0.083711
0.527780 -0.017091 0.016292
0.584385 0.032917 0.027422
0.527267 -0.047285 0.068810
0.593017 -0.003356 0.063588
0.586967 -0.037462 0.051295
0.531408 -0.025388 0.081752
0.516157 0.055095 0.038338
0.583912 -0.045600 0.047954
0.596363 0.013772 0.057311
0.514849 0.005496 0.072827
0.543072 0.066430 0.077818
0.535037 0.001033 0.085946
0.560311 0.013435 0.088861
0.531747 -0.066029 0.037921
0.563161 0.009968 0.088523
0.525446 -0.017115 0.017532
0.545266 -0.021704 0.010687
0.539360 -0.053846 0.019238
0.538309 0.013218 0.016069
0.595734 -0.001931 0.039855
0.530369 -0.047360 0.070910
0.532367 0.017633 0.083463
0.516078 -0.024439 0.024873
0.556644 -0.063058 0.024093
0.550365 0.083677 0.029577
0.591617 -0.006675 0.029960
0.534203 -0.019924 0.084118
0.506292 0.016394 0.056999
0.552297 0.102216 0.042382
0.516450 0.021736 0.028856
0.573212 0.079090 0.062417
0.535452 0.028159 0.083364
0.581288 0.006616 0.020673
0.553513 0.036255 0.086237
0.568854 -0.034510 0.078907
0.594366 -0.016989 0.047578
0.551646 -0.003033 0.089407
0.597876 0.026260 0.047650
0.582252 -0.007005 0.077479
0.586715 -0.023056 0.027149
0.520620 0.026783 0.074605
0.593275 0.007602 0.032088
0.573334 0.085034 0.055388
0.555205 -0.072228 0.052934
0.540174 0.088194 0.069166
0.568316 -0.047073 0.017537
0.526520 -0.040674 0.072205
0.516043 -0.023307 0.070820
0.574996 0.051298 0.026889
0.516181 0.019466 0.072257
0.516909 -0.001035 0.074896
0.536807 0.097199 0.063131
0.508927 0.019417 0.062548
0.539418 -0.055197 0.020042
0.559019 0.059125 0.080320
0.551077 0.104855 0.047995
0.534790 -0.061860 0.027596
0.510473 -0.034006 0.036322
0.560433 0.075348 0.073527
0.515626 -0.047947 0.037709
0.518496 0.019364 0.074323
0.558615 0.092101 0.062937
0.596589 -0.001842 0.046652
0.583230 0.052915 0.067487
0.583351 -0.019835 0.072757
0.535427 0.011305 0.016571
0.573572 -0.027577 0.015643
0.545971 0.106288 0.050504
0.513812 -0.015619 0.026491
0.548341 -0.056674 0.018753
0.580035 0.049175 0.072912
0.556687 0.024817 0.016004
0.547987 0.027388 0.017029
0.542504 0.067918 0.077259
0.517509 -0.044204 0.061215
0.512048 0.041333 0.057627
0.513768 -0.013061 0.070933
0.575320 -0.060528 0.044194
0.557160 0.039759 0.019515
0.544991 -0.020306 0.010794
0.574683 0.041230 0.023576
0.590473 0.043670 0.061743
0.505986 0.006818 0.059117
0.506049 0.012346 0.057903
0.574605 0.079141 0.060568
0.550208 0.019947 0.015394
0.523035 0.070687 0.066334
0.541559 0.063628 0.078267
0.516662 0.089223 0.040826
0.582339 0.071162 0.049837
0.572173 0.012396 0.016882
0.589460 0.025499 0.029820
0.568637 -0.057503 0.062955
0.561356 -0.062211 0.063680
0.573993 -0.026982 0.015827
0.527387 0.103918 0.037384
0.588384 0.042569 0.065508
0.595749 0.001396 0.039107
0.529495 0.035915 0.078970
0.561257 -0.057831 0.020937
0.555241 0.090996 0.033830
0.519461 -0.055091 0.040224
0.550702 0.010882 0.089336
0.513308 -0.042392 0.055358
0.512212 -0.029892 0.030970
0.549718 0.044404 0.020760
0.544212 -0.062756 0.065602
0.543620 -0.070364 0.056305
0.553427 0.054910 0.023158
0.596032 0.015577 0.058235
0.539871 -0.039776 0.079119
0.536360 -0.055673 0.021683
0.576793 -0.057231 0.036132
0.596622 0.007707 0.055545
0.582354 0.008726 0.021630
0.591767 -0.000149 0.029693
0.579253 -0.014525 0.078482
0.584872 -0.041872 0.037556
0.551891 -0.063373 0.065601
0.588357 0.008590 0.026118
0.581257 -0.004070 0.078779
0.581235 0.028968 0.077225
0.554624 -0.063265 0.023949
0.576820 0.030685 0.022160
0.545485 0.005558 0.013465
0.557196 -0.019501 0.010068
0.556180 0.092599 0.063769
0.596144 -0.002080 0.042147
0.578352 -0.023321 0.076453
0.581302 -0.040598 0.026950
0.550126 0.017546 0.088768
0.516266 -0.034315 0.066132
0.586580 0.006052 0.024291
0.535887 0.019779 0.017955
0.565309 0.056938 0.024952
0.541652 0.082160 0.028297
0.541985 0.040084 0.020511
0.509718 -0.035386 0.039727
0.516277 -0.037808 0.064070
0.566987 -0.039895 0.077225
0.532181 -0.062958 0.058684
0.526664 0.058424 0.029009
0.504081 0.004579 0.049368
0.533370 -0.040917 0.016332
0.573244 -0.032966 0.076632
0.582643 -0.027962 0.069685
0.533872 0.106161 0.051679
0.518056 -0.053808 0.042208
0.504407 0.008886 0.050728
0.563704 -0.041856 0.077651
0.532418 -0.016205 0.084029
