ply
format ascii 1.0
element vertex 1024
property float x
property float y
property float z
end_header
0.581117 0.024413 0.080536
0.603986 -0.047786 0.041798
0.604696 -0.052661 0.040213
0.547886 0.078956 0.033782
0.545562 -0.053195 0.012580
0.600203 0.004940 0.035880
0.558132 0.074482 0.031584
0.513277 0.003880 0.053719
0.601788 -0.047463 0.015177
0.585436 -0.001728 0.016783
0.512218 0.034155 0.032838
0.520650 0.072035 0.059330
0.535666 -0.050675 0.027762
0.527603 -0.023883 0.012556
0.517468 0.023718 0.020303
0.573221 -0.001136 0.010056
0.601927 -0.015746 0.032529
0.539645 0.073892 0.028462
0.578302 0.060208 0.073632
0.537365 0.037662 0.012081
0.523689 -0.026159 0.017380
0.588057 -0.074738 0.008281
0.555826 0.085530 0.058757
0.582642 -0.059061 0.052119
0.610955 -0.064097 0.024083
0.580138 -0.004566 0.075445
0.564724 0.059996 0.081685
0.541780 0.030454 0.086795
0.552920 -0.016067 0.076650
0.557143 0.054532 0.085097
0.576654 -0.010634 0.010056
0.539641 0.023278 0.008918
0.546058 -0.060987 0.018763
0.561581 -0.069644 0.039239
0.527930 0.018467 0.079252
0.534986 -0.025930 0.063843
0.569667 -0.012452 0.007328
0.535574 0.048776 0.015568
0.549322 0.047665 0.086917
0.552803 -0.058660 0.011142
0.520404 0.068052 0.038403
0.514461 0.034159 0.064968
0.548949 0.007904 0.084867
0.521882 0.061521 0.030281
0.542237 0.076094 0.030266
0.528021 0.039321 0.016006
0.538991 -0.049503 0.015576
0.543221 -0.001801 0.080759
0.562923 0.075518 0.036240
0.610503 -0.060409 0.027805
0.610503 -0.058348 0.024963
0.514291 0.040179 0.031168
0.523140 -0.003517 0.066820
0.587628 -0.015537 0.067702
0.519849 0.051929 0.027704
0.541065 -0.018216 0.072527
0.534148 0.063295 0.079639
0.582360 0.065053 0.061049
0.547000 0.025280 0.087667
0.595029 0.026986 0.067280
0.514934 0.007557 0.060259
0.523549 -0.032421 0.034352
0.537450 -0.044619 0.013617
0.576164 0.063109 0.035100
0.512075 0.046075 0.054165
0.551074 0.074427 0.028837
0.553132 0.084405 0.044759
0.530727 0.075784 0.034622
0.523260 0.071168 0.037124
0.509830 0.026105 0.049784
0.571186 -0.080030 0.020767
0.509753 0.022764 0.049135
0.518026 0.001758 0.018508
0.569638 0.012207 0.010975
0.562938 -0.062435 0.008539
0.562590 0.070918 0.077144
0.603349 -0.014223 0.042109
0.572055 -0.053011 0.057199
0.535800 0.082477 0.041326
0.510974 0.014197 0.032903
0.559154 -0.053183 0.055693
0.552863 0.029782 0.009406
0.567088 -0.050635 0.058733
0.545981 -0.050205 0.010838
0.596983 -0.056586 0.008654
0.549374 -0.007912 0.004355
0.578128 -0.045103 0.006017
0.562644 0.072416 0.032161
0.524371 -0.015760 0.013298
0.549631 -0.049477 0.054992
0.542825 -0.056558 0.017860
0.536664 0.046526 0.014591
0.537672 0.027848 0.085705
0.521922 0.007368 0.014444
0.562480 0.078070 0.069888
0.544238 -0.057810 0.037958
0.546552 0.055545 0.085111
0.516661 0.018285 0.020709
0.551257 0.068606 0.023701
0.561721 -0.032429 0.003986
0.544344 0.086271 0.064121
0.554503 0.006620 0.084814
0.586845 0.059253 0.056098
0.593351 0.027526 0.069715
0.600122 0.015232 0.040615
0.551873 0.050649 0.086441
0.509928 0.019057 0.049442
0.514336 -0.000619 0.025685
0.593019 -0.034830 0.057284
0.562754 0.024629 0.087467
0.549372 0.034866 0.088091
0.512678 0.046659 0.040219
0.566932 0.058462 0.023692
0.528038 0.058485 0.077460
0.587543 0.014594 0.022709
0.558740 -0.002515 0.005303
0.532166 0.066595 0.025056
0.596271 0.031074 0.041308
0.592293 0.048910 0.059038
0.561205 0.018673 0.086944
0.539544 0.019106 0.085474
0.590710 0.041462 0.069849
0.569884 -0.022486 0.072404
0.542659 0.006471 0.083294
0.529769 0.001582 0.075695
0.595194 -0.031434 0.056382
0.576093 0.012325 0.013932
0.534937 -0.041306 0.013788
0.558694 0.034008 0.088334
0.595949 -0.023926 0.057714
0.562020 0.082644 0.050800
0.600984 0.019496 0.053509
0.570751 -0.028985 0.069516
0.546739 -0.012297 0.004444
0.538617 0.029946 0.085991
0.528441 0.053472 0.020233
0.554189 0.061489 0.019846
0.578101 -0.032907 0.065811
0.535878 0.040944 0.084590
0.553119 -0.021066 0.003696
0.551631 0.076663 0.031518
0.551122 0.081693 0.070748
0.513705 0.010305 0.026052
0.586394 -0.017969 0.013840
0.567224 0.069686 0.032820
0.589273 -0.042187 0.009688
0.570420 -0.079359 0.024192
0.538773 -0.045578 0.013128
0.599448 -0.073567 0.009728
0.540890 0.022456 0.008592
0.542922 0.082556 0.070717
0.526695 0.071938 0.070394
0.541182 0.085009 0.066465
0.582102 0.065446 0.050370
0.559440 0.071474 0.077856
0.517614 -0.008735 0.053379
0.564743 0.007232 0.008207
0.592702 -0.081659 0.017384
0.551486 -0.006158 0.080635
0.593022 -0.053935 0.050387
0.598244 0.019801 0.062766
0.557403 0.018621 0.087300
0.541461 0.061019 0.082817
0.588201 0.055995 0.049570
0.561585 -0.072092 0.034709
0.555246 -0.005592 0.004544
0.548066 0.009692 0.085241
0.517025 0.058788 0.036752
0.547727 -0.061911 0.036087
0.583701 0.047870 0.075088
0.592084 0.047896 0.062228
0.514039 0.043515 0.062348
0.599001 -0.040138 0.016068
0.545850 0.059496 0.018047
0.548480 0.060136 0.084040
0.582950 0.021546 0.079346
0.555046 -0.040798 0.063534
0.558326 0.066530 0.080830
0.576561 -0.023800 0.069927
0.524225 0.070455 0.068350
0.557961 -0.046050 0.005340
0.573446 0.035565 0.083980
0.547450 0.056455 0.084972
0.515796 0.031666 0.024585
0.575625 -0.040647 0.005924
0.590610 -0.011824 0.066862
0.578629 -0.066981 0.005953
0.527965 0.058179 0.022510
0.593656 0.002726 0.068522
0.602830 -0.057434 0.011441
0.527481 0.054345 0.078318
0.540556 -0.016304 0.005754
0.528624 0.019486 0.011416
0.578966 -0.017895 0.071269
0.587974 0.054490 0.045361
0.581649 0.061444 0.068547
0.588457 0.019275 0.075334
0.532487 -0.046639 0.025886
0.568667 0.023261 0.012879
0.560372 -0.007416 0.005164
0.556164 0.038211 0.011978
0.551343 0.070106 0.024888
0.516460 0.024935 0.068270
0.557749 0.059104 0.019643
0.521771 0.003775 0.069097
0.555609 0.084892 0.061737
0.548677 -0.056021 0.047436
0.511671 0.004315 0.047576
0.527695 -0.034600 0.044709
0.539183 0.035422 0.085974
0.535383 0.010713 0.081899
0.595705 0.035854 0.044109
0.571831 -0.080275 0.020695
0.570116 0.055028 0.023869
0.546190 0.074451 0.077919
0.517308 0.066853 0.046310
0.543050 -0.056133 0.039100
0.532084 -0.015209 0.068650
0.604466 -0.030057 0.034495
0.590446 0.006689 0.023253
0.570639 0.059264 0.026754
0.610252 -0.062854 0.019589
0.560494 0.071668 0.029896
0.573950 0.013361 0.082577
0.580930 -0.078810 0.033989
0.592306 -0.081830 0.017730
0.549976 0.047475 0.013556
0.598531 0.031291 0.051598
0.566480 -0.012929 0.006274
0.514240 0.031292 0.064620
0.602724 -0.026190 0.045389
0.527499 0.023565 0.079988
0.549833 -0.032715 0.067265
0.578763 0.056487 0.032231
0.526335 -0.013442 0.063993
0.519428 -0.024956 0.030473
0.513430 0.050667 0.040696
0.562829 0.026253 0.011267
0.524947 0.001093 0.012027
0.606880 -0.042170 0.030609
0.531780 -0.001029 0.008752
0.565447 -0.010131 0.006239
0.519065 0.015694 0.017655
0.533049 -0.008751 0.073233
0.518433 0.031908 0.021267
0.587112 -0.067615 0.045646
0.553087 0.085967 0.061070
0.582843 -0.020503 0.068616
0.576532 0.046648 0.024457
0.584992 0.036924 0.027739
0.584312 -0.079110 0.012040
0.585745 -0.016580 0.013727
0.603258 -0.026713 0.030578
0.595397 0.024674 0.035660
0.560495 0.083688 0.056856
0.520617 -0.009766 0.058578
0.517202 0.053039 0.066295
0.522171 0.036879 0.076512
0.516732 0.058382 0.062686
0.586088 0.060231 0.052585
0.597425 -0.070025 0.039850
0.602439 0.010304 0.049348
0.533086 0.020840 0.083037
0.549486 -0.037879 0.005733
0.532249 -0.016068 0.068229
0.575610 0.047788 0.080639
0.542388 -0.005649 0.079075
0.514543 0.003956 0.057216
0.515864 -0.008389 0.048782
0.576281 -0.076696 0.011754
0.599054 0.007188 0.034433
0.564424 -0.075986 0.027862
0.511871 0.000535 0.036646
0.542747 0.085670 0.045278
0.567027 -0.020715 0.073764
0.536772 0.021419 0.084850
0.602359 -0.044570 0.044659
0.553751 0.002989 0.083786
0.597998 0.006387 0.032320
0.516861 -0.018402 0.030755
0.533544 -0.047999 0.028253
0.569806 -0.074989 0.012832
0.560511 0.056551 0.083885
0.576286 0.057273 0.030257
0.592428 0.033028 0.069932
0.538885 -0.043994 0.012200
0.578377 0.063727 0.038754
0.565202 -0.043243 0.063178
0.596153 0.038368 0.058516
0.570325 0.077507 0.051835
0.604337 -0.069920 0.035066
0.526861 0.077543 0.065254
0.517588 0.055295 0.033190
0.567247 -0.068751 0.009795
0.541931 -0.018910 0.005469
0.554079 0.054138 0.016461
0.541601 0.050009 0.014685
0.516277 -0.005618 0.053242
0.584016 -0.027252 0.010468
0.515675 0.044517 0.065882
0.555360 0.013176 0.086385
0.525265 -0.036032 0.025663
0.598519 0.031231 0.051046
0.519070 0.048917 0.070755
0.565102 0.079309 0.064959
0.594237 0.042394 0.061784
0.595598 0.011344 0.030489
0.600157 -0.004404 0.032422
0.523219 0.030661 0.077421
0.527183 -0.018887 0.011759
0.585133 -0.039687 0.008580
0.563874 -0.016205 0.005247
0.510199 0.025437 0.036032
0.534499 -0.026814 0.062808
0.598510 0.008050 0.033776
0.574046 -0.054587 0.056101
0.553238 0.063617 0.082754
0.519230 0.067135 0.062010
0.601618 -0.033945 0.047284
0.536392 -0.037761 0.055593
0.574890 -0.053724 0.056531
0.553064 0.083805 0.066507
0.531379 0.084207 0.053915
0.524331 0.050146 0.022051
0.563549 0.045470 0.085879
0.543229 -0.040967 0.058560
0.591287 0.027185 0.030864
0.591138 -0.036463 0.012037
0.564616 0.078857 0.066600
0.579799 -0.061202 0.005138
0.563667 0.081620 0.050314
0.514758 -0.002922 0.051741
0.536461 -0.011664 0.006936
0.543946 -0.052746 0.013467
0.559769 -0.050984 0.057549
0.582706 0.018492 0.019686
0.518658 0.008136 0.066951
0.541348 0.083820 0.068667
0.581597 0.014772 0.079420
0.511231 0.004124 0.037488
0.511430 0.039785 0.039658
0.511996 0.009436 0.030698
0.547298 0.041778 0.087379
0.524505 0.045972 0.077812
0.563495 0.064118 0.025244
0.574270 -0.080932 0.022942
0.594660 0.025085 0.068211
0.592178 -0.079582 0.012842
0.530681 -0.037175 0.047606
0.602901 -0.022334 0.045008
0.572705 -0.041067 0.063608
0.510143 0.010369 0.043018
0.598966 0.029390 0.050579
0.512320 0.001380 0.047213
0.520099 0.055791 0.070042
0.602759 0.004125 0.050789
0.540507 0.084097 0.067965
0.521610 0.030198 0.017720
0.601680 0.016118 0.050000
0.549093 0.086997 0.060770
0.535019 0.033923 0.011867
0.511685 0.040566 0.055441
0.535633 0.006059 0.080687
0.600805 -0.078467 0.028917
0.549818 -0.046747 0.007821
0.529767 0.049165 0.080969
0.595362 -0.007615 0.063724
0.608026 -0.048397 0.031848
0.533938 -0.024128 0.064209
0.583486 -0.047650 0.006869
0.515972 0.045539 0.066238
0.580861 -0.049147 0.057716
0.536680 0.006155 0.007635
0.580546 0.014543 0.079929
0.585016 0.015839 0.077570
0.569586 0.077895 0.060499
0.566265 -0.053516 0.005355
0.604631 -0.033916 0.039005
0.558426 -0.007339 0.004798
0.531131 0.047650 0.016878
0.541986 0.019048 0.007943
0.545407 0.059492 0.018054
0.603414 -0.017341 0.039707
0.540649 -0.056700 0.025285
0.568750 -0.056028 0.005434
0.557089 0.059598 0.083638
0.598231 -0.075192 0.010292
0.519777 0.039176 0.022382
0.534129 -0.005502 0.075546
0.606341 -0.071169 0.032021
0.554972 -0.060871 0.046447
0.607177 -0.047814 0.034892
0.600654 0.002616 0.058143
0.574617 0.060090 0.030771
0.525193 0.029921 0.079118
0.565510 0.036548 0.086784
0.597902 -0.001751 0.062193
0.523906 0.058154 0.025968
0.552692 0.041487 0.012144
0.521230 -0.006743 0.014963
0.531944 0.047674 0.016520
0.509520 0.020171 0.046362
0.550855 0.040534 0.011690
0.523869 0.030707 0.016171
0.555692 0.085151 0.060708
0.548650 0.074948 0.028993
0.583327 -0.055176 0.005806
0.543005 -0.032919 0.064413
0.596551 -0.054511 0.009192
0.561220 0.003916 0.083585
0.571952 -0.046807 0.060765
0.580425 -0.055989 0.005377
0.529866 0.080303 0.065574
0.601163 -0.019058 0.050596
0.553463 0.015201 0.006890
0.602967 -0.017635 0.045177
0.535592 0.039057 0.084645
0.549136 -0.019350 0.074502
0.586909 -0.077954 0.035777
0.609058 -0.054047 0.031173
0.553578 0.001166 0.005090
0.605238 -0.063891 0.037089
0.585965 -0.010835 0.015131
0.580970 0.040574 0.025454
0.516173 0.001640 0.021485
0.551434 0.054855 0.085503
0.533882 -0.039218 0.050709
0.564528 -0.009423 0.006040
0.581271 0.058014 0.036626
0.574302 -0.016152 0.073626
0.554019 0.035088 0.010750
0.514208 0.021538 0.024696
0.564244 -0.058789 0.052430
0.609592 -0.061403 0.030904
0.579666 -0.079842 0.031426
0.509391 0.021362 0.044630
0.511577 0.025119 0.030977
0.552006 -0.035215 0.066330
0.550515 0.038780 0.088039
0.517630 0.043694 0.069685
0.548822 -0.002832 0.081530
0.565896 -0.062393 0.049715
0.554816 -0.056012 0.051558
0.590894 -0.082385 0.019240
0.608204 -0.049448 0.031852
0.582297 -0.070784 0.006634
0.514762 -0.004171 0.050348
0.584076 -0.050997 0.055811
0.594270 -0.075351 0.036962
0.572914 0.072759 0.043911
0.600161 0.022527 0.046791
0.539163 0.082909 0.040547
0.567617 0.055872 0.022723
0.526499 -0.012988 0.011427
0.548209 0.059431 0.084233
0.558297 0.065420 0.023511
0.585520 -0.014659 0.069305
0.535951 0.039577 0.012900
0.560634 -0.031147 0.069713
0.547428 -0.034917 0.005726
0.586160 0.052703 0.069726
0.596089 -0.033036 0.016534
0.513235 0.008922 0.027345
0.559486 0.017311 0.086914
0.534962 -0.042764 0.047623
0.527058 0.025178 0.079949
0.539305 0.057522 0.083189
0.528066 0.055867 0.078293
0.526142 -0.014724 0.062802
0.549160 -0.021141 0.073586
0.525273 0.071849 0.068768
0.539841 -0.027965 0.065909
0.584497 0.001679 0.016855
0.602904 -0.017361 0.035373
0.518962 0.038374 0.022993
0.548356 0.047205 0.013402
0.544332 -0.009735 0.004942
0.594749 0.014769 0.068784
0.584247 -0.003980 0.015408
0.537693 0.071956 0.027158
0.600500 0.001349 0.035172
0.573114 -0.046874 0.005036
0.600093 0.004329 0.059600
0.559630 0.032899 0.088265
0.544898 -0.052883 0.012856
0.545839 0.059868 0.083907
0.516102 0.064741 0.049460
0.533633 -0.040586 0.014521
0.542853 0.079966 0.035164
0.524731 -0.012672 0.012595
0.509700 0.027467 0.048571
0.573312 0.075523 0.055716
0.594921 -0.025123 0.058505
0.539702 0.075095 0.076658
0.510032 0.028748 0.050903
0.539709 0.034346 0.086165
0.556323 0.025967 0.009167
0.517376 -0.015581 0.043520
0.554788 0.085364 0.048702
0.526712 0.062864 0.026058
0.544637 -0.012026 0.004820
0.552194 0.048233 0.086926
0.537260 -0.028409 0.008072
0.578528 -0.065878 0.048218
0.603257 -0.013910 0.039458
0.516367 -0.012077 0.023680
0.594271 0.017714 0.069393
0.523147 -0.025073 0.017562
0.563431 0.013461 0.085602
0.536110 0.037363 0.012327
0.603338 -0.018523 0.037504
0.511114 0.004496 0.038391
0.580665 -0.024321 0.009558
0.540420 -0.002706 0.006128
0.532712 -0.035703 0.053093
0.516091 0.027828 0.022972
0.598179 -0.035855 0.017182
0.604511 -0.074929 0.014848
0.583202 -0.004230 0.074128
0.605619 -0.036436 0.033559
0.512808 0.042861 0.058927
0.538753 0.017767 0.084960
0.522741 0.075307 0.046028
0.545179 0.086927 0.062194
0.576819 -0.076134 0.037264
0.528110 -0.006699 0.070328
0.537918 0.062115 0.020310
0.568383 -0.065294 0.047691
0.514902 -0.012266 0.031777
0.550236 0.087462 0.056722
0.578590 -0.020617 0.009352
0.600380 -0.054968 0.044601
0.523709 0.070799 0.067377
0.598098 -0.044175 0.049874
0.525583 -0.014097 0.012159
0.520707 0.019395 0.016351
0.516459 0.034435 0.068757
0.515109 -0.005655 0.024536
0.520663 0.020390 0.073118
0.590535 -0.060908 0.048487
0.573903 0.049187 0.023647
0.518209 -0.015671 0.021112
0.602593 -0.050257 0.043426
0.546984 -0.011709 0.004426
0.543572 0.070084 0.079946
0.539281 0.046322 0.085105
0.584288 0.062710 0.051349
0.576436 0.060677 0.033133
0.596875 -0.009986 0.025574
0.510847 0.007684 0.036578
0.544550 0.086860 0.062392
0.561241 -0.034542 0.067950
0.563404 0.058515 0.021731
0.569280 0.075341 0.067973
0.554247 0.042062 0.012567
0.532652 -0.003634 0.008350
0.589031 -0.044153 0.056567
0.559785 0.062415 0.082162
0.602230 -0.004241 0.037835
0.595785 0.018527 0.067274
0.587390 -0.045397 0.056905
0.536208 0.005761 0.080853
0.585173 0.004568 0.018059
0.516511 -0.017140 0.029207
0.526051 0.068384 0.030808
0.536697 -0.004492 0.077364
0.525514 -0.008832 0.066264
0.558961 0.084512 0.053813
0.554356 0.067199 0.081204
0.553413 -0.069516 0.021105
0.552584 0.077211 0.032488
0.574521 -0.059480 0.005277
0.603248 -0.012473 0.044104
0.591612 0.038046 0.069740
0.537415 -0.042532 0.012496
0.513848 -0.007876 0.031740
0.544028 0.003895 0.005915
0.556650 0.025822 0.009204
0.532738 -0.046690 0.023863
0.546203 -0.044579 0.057368
0.568156 0.007127 0.009455
0.549691 0.029408 0.088136
0.536265 -0.031804 0.060681
0.528089 0.081347 0.049383
0.546003 -0.015845 0.004494
0.543574 -0.010814 0.005057
0.535856 -0.045572 0.044696
0.515070 0.059744 0.056155
0.591765 -0.011332 0.019750
0.564280 -0.047161 0.004693
0.581618 0.023542 0.020213
0.533454 0.014870 0.009242
0.599192 0.016776 0.061249
0.557651 0.067226 0.080661
0.552238 -0.037342 0.004973
0.589149 0.050116 0.067023
0.531501 0.031071 0.083300
0.579521 0.015080 0.016567
0.522545 -0.031280 0.031365
0.522630 -0.026169 0.044344
0.590370 -0.026852 0.061942
0.510584 0.020437 0.033570
0.550144 -0.065473 0.032123
0.555067 -0.025365 0.072411
0.561197 0.069242 0.027998
0.518093 0.025687 0.019959
0.609855 -0.069950 0.025036
0.596426 0.038639 0.054758
0.511958 0.046095 0.053373
0.510376 0.037268 0.047598
0.561093 0.021518 0.087386
0.558125 0.008380 0.006509
0.545620 -0.041148 0.007757
0.541753 -0.018969 0.072406
0.578374 -0.048711 0.058608
0.547880 -0.022495 0.072547
0.510441 0.035305 0.041180
0.554313 0.050300 0.086428
0.518168 -0.016204 0.021507
0.536198 -0.006756 0.076126
0.599832 0.016695 0.040666
0.574441 -0.016298 0.008474
0.546564 -0.024945 0.004658
0.542891 0.053270 0.015666
0.567392 -0.077716 0.017665
0.591084 0.048155 0.045016
0.517098 -0.010018 0.021115
0.555498 -0.070108 0.018263
0.558118 0.070134 0.079050
0.606410 -0.073251 0.029862
0.528718 -0.035741 0.045406
0.595287 -0.040447 0.013267
0.532979 0.036957 0.083801
0.603320 -0.034570 0.043582
0.533165 -0.026207 0.009579
0.538623 0.057596 0.082963
0.570404 0.046805 0.083294
0.602542 0.005349 0.052013
0.593005 -0.005785 0.066830
0.531136 -0.041954 0.039840
0.513416 -0.001449 0.028767
0.586713 0.045115 0.033952
0.553123 0.046196 0.087287
0.539062 0.042527 0.012919
0.564359 -0.064734 0.008988
0.532506 0.031679 0.083776
0.586112 0.055640 0.042315
0.533261 -0.027705 0.009858
0.529887 -0.031357 0.053555
0.602346 -0.030479 0.025303
0.534435 0.069328 0.077499
0.546922 -0.030869 0.005203
0.583881 -0.060537 0.050972
0.521685 -0.027620 0.022408
0.516418 -0.003801 0.021254
0.561889 0.068609 0.027857
0.592566 0.014911 0.027929
0.543009 0.073167 0.027206
0.575659 0.061417 0.075238
0.522272 0.054462 0.025893
0.557065 -0.034426 0.003957
0.590429 -0.030952 0.060504
0.609647 -0.054404 0.028380
0.513894 0.005577 0.026164
0.531563 0.079258 0.069024
0.596927 -0.061291 0.007334
0.548472 -0.012177 0.077797
0.602387 -0.017378 0.033244
0.562051 0.048953 0.085499
0.536506 0.070655 0.026408
0.590751 0.018781 0.027182
0.523917 0.046170 0.020976
0.538830 -0.041523 0.011108
0.545937 -0.058637 0.039711
0.559287 -0.020005 0.004050
0.597888 -0.040060 0.015223
0.580370 0.061867 0.070001
0.538915 -0.049267 0.044264
0.578346 -0.057496 0.053880
0.553952 0.085519 0.048339
0.524320 0.071281 0.035712
0.542465 -0.051605 0.013921
0.518257 -0.011380 0.019395
0.511217 0.021474 0.055923
0.589390 -0.069445 0.006056
0.581000 0.047313 0.077443
0.511654 0.002007 0.043546
0.602040 -0.053189 0.012770
0.524053 -0.008301 0.012696
0.571614 0.067516 0.074478
0.537738 -0.042418 0.052254
0.580108 0.042513 0.079355
0.541952 -0.051069 0.046413
0.595222 0.033433 0.040648
0.568952 -0.074712 0.035864
0.515999 -0.011443 0.024403
0.538345 0.057891 0.018218
0.592371 -0.055767 0.007511
0.596643 -0.081187 0.020677
0.581565 -0.082829 0.021676
0.517452 0.035739 0.023834
0.588825 0.054869 0.061038
0.570365 0.076966 0.062139
0.521552 0.074834 0.050916
0.537933 0.026979 0.085766
0.573665 0.016796 0.083294
0.579888 0.050999 0.076906
0.576799 -0.003947 0.011143
0.574885 0.035604 0.083321
0.583042 0.056491 0.037730
0.594281 0.033832 0.066718
0.535761 -0.019875 0.068479
0.550851 -0.009963 0.079091
0.557793 -0.021547 0.074397
0.535085 0.074739 0.075120
0.556453 0.026366 0.009275
0.578564 0.016337 0.081146
0.550837 0.015770 0.006870
0.609296 -0.053635 0.029825
0.535811 0.043912 0.014074
0.586706 -0.031386 0.062656
0.556433 -0.049555 0.006493
0.594874 0.041010 0.060991
0.575151 0.019036 0.083023
0.560319 0.001258 0.006064
0.593117 0.046706 0.059904
0.539316 0.075327 0.076410
0.554371 0.086228 0.057832
0.560057 -0.066588 0.011709
0.534786 0.014950 0.082663
0.542881 0.072498 0.078703
0.514517 -0.011016 0.033047
0.512047 0.032321 0.059023
0.608041 -0.047516 0.026517
0.522549 0.054656 0.025683
0.607463 -0.067135 0.013818
0.599555 -0.043181 0.048583
0.549802 -0.061538 0.014923
0.584233 0.018382 0.078324
0.512148 0.047679 0.044116
0.604905 -0.076993 0.020398
0.562714 0.007319 0.084290
0.514610 -0.008323 0.027481
0.576196 0.070152 0.044981
0.606980 -0.044983 0.024813
0.542429 0.046598 0.013518
0.531278 -0.009061 0.008790
0.579863 -0.082561 0.021220
0.554710 -0.064842 0.013680
0.509502 0.027614 0.043748
0.546570 0.026779 0.008748
0.516702 -0.007785 0.052062
0.553024 0.085858 0.048626
0.593460 -0.066081 0.044270
0.539350 -0.053203 0.036368
0.565137 -0.025890 0.004813
0.581130 0.061329 0.069438
0.587650 0.053080 0.042513
0.550493 0.047421 0.013582
0.589297 -0.023260 0.063901
0.577625 0.050271 0.078728
0.582295 0.025524 0.079869
0.517193 0.063139 0.060379
0.562557 0.049393 0.017579
0.516895 0.019144 0.020453
0.553174 0.016279 0.007033
0.568729 -0.040102 0.064690
0.514122 0.008336 0.025353
0.569144 -0.068641 0.044482
0.568823 -0.078327 0.026120
0.556679 -0.044848 0.061213
0.577785 0.025167 0.082329
0.591324 0.051185 0.053438
0.585821 0.056312 0.042560
0.529538 -0.034147 0.049577
0.602362 -0.013059 0.048833
0.538633 -0.008862 0.006302
0.518373 0.009897 0.018245
0.565089 0.037278 0.014931
0.521240 0.060709 0.069580
0.594680 0.025840 0.035052
0.589912 -0.080948 0.030633
0.597469 0.024343 0.039470
0.605263 -0.075004 0.029286
0.568606 0.025608 0.013379
0.561084 0.043640 0.086843
0.579056 -0.006133 0.075393
0.523229 -0.031956 0.033948
0.598167 -0.066595 0.007229
0.516771 0.040203 0.068767
0.598471 -0.080580 0.020379
0.510258 0.025735 0.052424
0.590984 -0.081890 0.016922
0.537604 0.049412 0.015236
0.515279 0.025445 0.066312
0.556474 0.016359 0.086972
0.596000 0.039835 0.055993
0.538626 -0.018783 0.070971
0.514524 0.055607 0.041286
0.577028 -0.055913 0.005136
0.594960 -0.008735 0.063805
0.522714 0.075744 0.047674
0.555481 0.066651 0.081285
0.552472 -0.051446 0.054670
0.574757 -0.079673 0.028511
0.568592 0.037414 0.085680
0.590036 -0.058921 0.049718
0.513787 0.044803 0.035197
0.565273 0.076643 0.069873
0.512694 -0.002840 0.033842
0.589429 -0.007768 0.069177
0.600271 0.019592 0.044272
0.523397 0.060437 0.072425
0.536769 -0.014280 0.006884
0.546088 0.080331 0.073307
0.567192 -0.078303 0.022469
0.525188 -0.007195 0.011865
0.588894 -0.057194 0.051035
0.540232 -0.045671 0.012146
0.577531 0.012795 0.081012
0.535514 -0.037585 0.054771
0.599998 0.002984 0.034700
0.596510 -0.010219 0.025046
0.514779 -0.001072 0.024565
0.584040 0.049093 0.074247
0.514912 -0.011756 0.029920
0.551173 -0.026074 0.003936
0.560125 -0.033374 0.068541
0.597681 0.026397 0.062153
0.585100 0.035395 0.077205
0.548662 0.073909 0.078212
0.608400 -0.056082 0.018767
0.597843 -0.051108 0.048049
0.595137 0.029135 0.037603
0.604301 -0.072872 0.032933
0.589093 0.019865 0.074818
0.575526 -0.081515 0.020808
0.594541 -0.009669 0.022953
0.516393 -0.013429 0.043104
0.577570 0.029021 0.018885
0.542632 0.064260 0.020696
0.592121 0.049684 0.057087
0.510857 0.009069 0.035444
0.551855 -0.059245 0.011983
0.570960 -0.044437 0.004844
0.564295 0.017063 0.086117
0.522723 -0.029627 0.038024
0.564628 -0.070489 0.040086
0.579241 0.049724 0.077842
0.599181 -0.011105 0.057031
0.594685 0.041660 0.048123
0.586962 -0.081554 0.015013
0.537306 -0.051943 0.032573
0.564230 0.023510 0.011185
0.592324 -0.059661 0.006606
0.547816 -0.061938 0.036219
0.575799 0.052611 0.079055
0.513041 0.003386 0.052520
0.564184 0.017241 0.086171
0.590143 -0.028804 0.061439
0.593784 0.001229 0.025176
0.589975 -0.016500 0.065731
0.518411 0.065141 0.039534
0.586053 0.053893 0.068888
0.546487 -0.062805 0.029112
0.599838 0.025894 0.051569
0.541341 -0.054875 0.018031
0.584590 0.041632 0.076372
0.577976 0.017658 0.016218
0.601812 0.004972 0.055195
0.539404 0.074447 0.029066
0.541713 0.055675 0.016730
0.523872 0.012600 0.074480
0.580217 0.045963 0.027259
0.536427 -0.013196 0.006971
0.560999 0.056984 0.083644
0.510988 0.007400 0.047305
0.511324 0.044153 0.047104
0.559351 0.031694 0.088316
0.603433 -0.026675 0.031355
0.513017 0.053311 0.047164
0.513467 -0.007030 0.035922
0.584519 0.008453 0.076737
0.571534 -0.054401 0.056360
0.561343 0.005134 0.083913
0.539873 -0.011360 0.075662
0.559532 0.083852 0.059117
0.536430 -0.008469 0.075439
0.582115 0.045947 0.029098
0.563966 0.049338 0.018150
0.559724 0.077417 0.036446
0.577699 0.016138 0.015697
0.514375 0.013412 0.024391
0.557566 0.055878 0.084657
0.568461 -0.009099 0.077943
0.587426 0.051845 0.040600
0.540081 0.081685 0.038215
0.580226 -0.055829 0.005368
0.519436 0.021720 0.017853
0.557485 0.025389 0.088165
0.598944 0.004829 0.061862
0.579877 -0.077598 0.011486
0.597317 0.007463 0.031626
0.549867 -0.065907 0.029826
0.568130 -0.019359 0.074078
0.534565 0.014006 0.008845
0.552415 -0.030689 0.069114
0.522572 0.035221 0.076985
0.510195 0.025130 0.035946
0.543912 0.005170 0.083214
0.517347 -0.015742 0.023248
0.516959 0.007950 0.064223
0.520746 0.038675 0.021184
0.583822 -0.012872 0.070873
0.520830 0.007461 0.015438
0.552850 -0.069163 0.021749
0.532412 0.081015 0.067518
0.581572 -0.071389 0.043415
0.534514 0.067098 0.024396
0.562502 0.049832 0.085183
0.576894 0.035756 0.082344
0.549840 -0.028666 0.004312
0.586782 -0.004586 0.072033
0.580510 0.013535 0.079783
0.588345 -0.077273 0.036461
0.595887 -0.000219 0.065332
0.559153 0.078403 0.037531
0.554167 -0.050929 0.055859
0.580340 -0.081701 0.016271
0.560112 0.082868 0.047631
0.587684 0.057894 0.055343
0.558366 -0.064042 0.044827
0.579132 0.069617 0.058847
0.584091 -0.005533 0.073259
0.566632 -0.075898 0.031143
0.511989 0.010971 0.030331
0.532904 -0.044759 0.038558
0.513932 0.021276 0.063048
0.579830 0.018210 0.017536
0.534734 0.048725 0.015811
0.584900 -0.083052 0.019706
0.591313 0.043455 0.040369
0.550701 0.078794 0.034083
0.533726 -0.042546 0.045491
0.563227 0.002455 0.007000
0.571795 0.001096 0.009843
0.572560 -0.055514 0.055615
0.572720 0.058138 0.078778
0.599418 -0.019519 0.053961
0.581489 0.026532 0.080353
0.518376 0.069804 0.050337
0.565571 -0.012690 0.006024
0.564538 0.048045 0.017952
0.548478 -0.018152 0.004102
0.525205 -0.035407 0.033641
0.596414 0.013106 0.066485
0.597979 0.008343 0.063858
0.549004 -0.065568 0.027704
0.568289 0.008214 0.009699
0.594131 -0.051449 0.050691
0.572174 -0.051699 0.057982
0.610635 -0.059364 0.024237
0.542325 -0.055841 0.017734
0.545438 0.011298 0.006537
0.529289 -0.007869 0.009656
0.520972 0.061898 0.068682
0.526513 0.067195 0.072798
0.534439 0.048044 0.015692
0.604911 -0.073620 0.013901
0.526016 -0.035285 0.038009
0.515343 0.010556 0.022801
0.576651 -0.024207 0.069739
0.537750 0.077121 0.032532
0.576406 -0.064809 0.005819
0.573199 0.074844 0.061936
0.548186 -0.007621 0.079662
0.578494 0.059030 0.074184
0.588306 0.055539 0.048811
0.573406 -0.016251 0.008131
0.542063 0.069777 0.079831
0.542971 0.080001 0.073562
0.571894 -0.027409 0.006370
0.513998 -0.008962 0.036378
0.548524 0.044627 0.087273
0.561528 0.078791 0.040075
0.519690 0.069139 0.041627
0.512172 -0.000842 0.035871
0.533848 0.011559 0.008830
0.520938 0.015704 0.015797
0.517724 0.015101 0.068074
0.515469 0.053089 0.036353
0.534687 0.069141 0.077701
0.527106 0.009270 0.011178
0.518300 0.004947 0.064915
0.526687 -0.025322 0.054552
0.541966 0.082243 0.038743
0.544248 -0.008200 0.005023
0.569705 0.022996 0.013244
0.553417 0.045607 0.013420
0.568848 -0.076250 0.032497
0.513413 0.012736 0.026406
0.516921 0.024102 0.068869
0.521639 0.055937 0.027372
0.550476 -0.013554 0.077510
0.575124 0.047512 0.080970
0.528596 0.012513 0.010726
0.581122 0.009790 0.016370
0.560779 -0.031759 0.003909
0.588361 -0.052623 0.007213
0.579697 -0.010926 0.011385
0.587257 0.058184 0.059058
0.574755 0.051439 0.080026
0.523422 0.041083 0.077463
0.554969 0.074126 0.077153
0.596552 -0.028379 0.018776
0.599965 0.018683 0.058741
0.569177 0.067267 0.032076
0.519351 0.033835 0.073173
0.513356 0.029964 0.062650
0.595979 -0.081410 0.024433
0.574364 0.073221 0.063824
0.600380 0.014174 0.058721
0.525936 0.043288 0.079366
0.560086 0.022234 0.087611
