ply
format ascii 1.0
element vertex 1024
property float x
property float y
property float z
end_header
0.563398 0.037292 0.085110
0.595871 -0.033273 0.050436
0.596950 -0.038068 0.048812
0.547556 0.095878 0.034296
0.549463 -0.034534 0.004165
0.595147 0.019825 0.047366
0.557886 0.091138 0.035090
0.507007 0.021181 0.037114
0.602138 -0.031240 0.024547
0.586987 0.014934 0.024199
0.513129 0.052691 0.019131
0.513554 0.088516 0.049533
0.535355 -0.032547 0.015646
0.532982 -0.004576 0.000614
0.521844 0.042834 0.008152
0.577511 0.016426 0.014061
0.597437 -0.000670 0.043269
0.541302 0.091484 0.026330
0.563577 0.073526 0.080213
0.543579 0.056441 0.007543
0.527710 -0.006981 0.003805
0.590741 -0.057469 0.011812
0.547388 0.100593 0.060900
0.572156 -0.044288 0.052772
0.607729 -0.048741 0.034670
0.563510 0.008741 0.077937
0.548157 0.073370 0.083599
0.524205 0.044520 0.079211
0.537071 -0.001707 0.069788
0.539785 0.068018 0.084086
0.580588 0.006815 0.014460
0.546456 0.042196 0.004241
0.547846 -0.042702 0.009630
0.555996 -0.053210 0.033259
0.513192 0.033583 0.066903
0.523871 -0.010041 0.051369
0.574775 0.005449 0.009569
0.540999 0.067385 0.011073
0.531657 0.061374 0.082889
0.556683 -0.040188 0.004673
0.519806 0.085829 0.029344
0.505184 0.050646 0.050277
0.531184 0.021859 0.078027
0.523630 0.079751 0.021648
0.543239 0.093466 0.029002
0.533509 0.058233 0.008468
0.542355 -0.030770 0.005217
0.526847 0.012661 0.071666
0.560994 0.091695 0.041068
0.606205 -0.045272 0.038316
0.607135 -0.043044 0.035769
0.515737 0.058717 0.018619
0.512121 0.012608 0.052080
0.572837 -0.002031 0.072160
0.522325 0.070423 0.017896
0.527067 -0.003122 0.062037
0.519834 0.078017 0.072367
0.571468 0.078962 0.069895
0.528789 0.039097 0.081298
0.580812 0.040106 0.077063
0.506600 0.024382 0.044087
0.522136 -0.014256 0.019403
0.541601 -0.025717 0.003225
0.573685 0.078854 0.043238
0.506535 0.063284 0.040137
0.552045 0.091535 0.030284
0.549198 0.100433 0.046716
0.530941 0.093355 0.029522
0.522979 0.088899 0.029242
0.505394 0.043725 0.033878
0.570708 -0.062828 0.018015
0.505461 0.040437 0.033004
0.522515 0.021020 0.005078
0.574077 0.029822 0.014756
0.567049 -0.044202 0.005098
0.547765 0.084626 0.079402
0.595813 0.000206 0.052898
0.560628 -0.038138 0.054713
0.533783 0.099417 0.037927
0.511545 0.032832 0.017399
0.548849 -0.037697 0.049255
0.558980 0.048121 0.009281
0.555477 -0.035661 0.054787
0.550464 -0.031463 0.002855
0.599446 -0.039747 0.016226
0.556529 0.010976 0.000750
0.582594 -0.027375 0.008662
0.561949 0.088860 0.036897
0.529837 0.003611 0.000882
0.540098 -0.033575 0.045885
0.545144 -0.038099 0.008079
0.542297 0.065157 0.010329
0.520597 0.042153 0.076715
0.527596 0.026706 0.002836
0.550072 0.092206 0.072995
0.540160 -0.040630 0.027476
0.529745 0.069454 0.080871
0.520847 0.037424 0.007903
0.553718 0.086035 0.025064
0.567896 -0.013950 0.002519
0.534820 0.101467 0.062458
0.536449 0.020358 0.079617
0.577168 0.073298 0.066191
0.578466 0.040564 0.078886
0.593783 0.029804 0.052553
0.534286 0.064276 0.083444
0.505459 0.036714 0.033087
0.516716 0.018360 0.010561
0.580852 -0.020854 0.062607
0.543795 0.037825 0.085971
0.531092 0.048536 0.083115
0.511491 0.064693 0.027150
0.568408 0.075287 0.029223
0.514624 0.073598 0.068060
0.587443 0.030767 0.031621
0.565227 0.015923 0.004948
0.535130 0.084716 0.020258
0.590213 0.045717 0.053126
0.581219 0.062584 0.069946
0.542375 0.031979 0.084574
0.522279 0.033373 0.076462
0.576183 0.054561 0.079172
0.554384 -0.008533 0.070598
0.525678 0.020779 0.074476
0.515729 0.016885 0.062915
0.583265 -0.017500 0.062669
0.579281 0.029500 0.019577
0.539225 -0.022322 0.002837
0.539849 0.047290 0.086190
0.583709 -0.010124 0.064696
0.555709 0.097950 0.055086
0.590639 0.033236 0.065341
0.555989 -0.014873 0.067673
0.553916 0.006704 -0.000295
0.521445 0.044190 0.077428
0.532854 0.072072 0.013602
0.557574 0.079054 0.021822
0.564053 -0.018855 0.066175
0.519494 0.055354 0.076022
0.560039 -0.002253 0.000366
0.551777 0.093578 0.033156
0.539089 0.096224 0.070527
0.516212 0.029259 0.011482
0.588508 -0.001123 0.020563
0.566038 0.085913 0.038756
0.592079 -0.025139 0.015818
0.568920 -0.062337 0.021068
0.542992 -0.026697 0.003106
0.601125 -0.056848 0.016814
0.547728 0.041346 0.004263
0.531330 0.097417 0.068003
0.515822 0.087501 0.061893
0.531059 0.100192 0.063605
0.574579 0.080015 0.059723
0.544562 0.085264 0.079133
0.510989 0.008446 0.037254
0.570203 0.025226 0.010257
0.592165 -0.065114 0.021397
0.534650 0.007991 0.073816
0.582652 -0.039488 0.054725
0.585142 0.033087 0.073281
0.538652 0.032058 0.083722
0.525736 0.075259 0.077496
0.580439 0.070393 0.060198
0.557373 -0.055375 0.028795
0.562089 0.013042 0.002923
0.530263 0.023655 0.078233
0.516938 0.076826 0.026074
0.543980 -0.044747 0.026501
0.568010 0.060915 0.082405
0.580001 0.061388 0.072832
0.505785 0.060154 0.048323
0.599353 -0.023877 0.025039
0.550183 0.077511 0.017380
0.531999 0.074021 0.080780
0.565457 0.034432 0.084351
0.542727 -0.025658 0.056279
0.542477 0.080197 0.081256
0.561475 -0.009962 0.070238
0.514090 0.086246 0.059083
0.563641 -0.027466 0.001670
0.555250 0.048514 0.086770
0.530659 0.070334 0.081082
0.519066 0.050568 0.012249
0.580331 -0.022824 0.008108
0.576003 0.001604 0.072554
0.582669 -0.049211 0.007215
0.531778 0.076646 0.015944
0.578654 0.015891 0.076102
0.604108 -0.040998 0.020629
0.513746 0.069440 0.068407
0.547557 0.002876 -0.001262
0.535140 0.038706 0.002908
0.563451 -0.004251 0.072675
0.581514 0.069157 0.056034
0.568372 0.074935 0.076524
0.571899 0.032190 0.082104
0.533003 -0.028280 0.013162
0.572771 0.040769 0.017036
0.566726 0.010979 0.004978
0.561469 0.056238 0.013341
0.553456 0.087455 0.026321
0.505870 0.041165 0.053379
0.560971 0.076544 0.022571
0.510247 0.019797 0.054325
0.546235 0.099784 0.063611
0.541437 -0.039602 0.037966
0.507416 0.022054 0.030823
0.522783 -0.017228 0.030356
0.522093 0.049629 0.077974
0.519289 0.025388 0.071187
0.588889 0.050336 0.055942
0.571338 -0.063094 0.018130
0.571309 0.071724 0.030142
0.532019 0.088763 0.075275
0.514364 0.084276 0.035788
0.538706 -0.038979 0.028306
0.519814 0.000475 0.055777
0.598957 -0.015166 0.044914
0.589877 0.022732 0.032484
0.570983 0.075751 0.033337
0.608496 -0.047199 0.030280
0.560604 0.088339 0.034028
0.555742 0.026434 0.084031
0.575837 -0.062810 0.033666
0.591677 -0.065289 0.021589
0.555278 0.065630 0.013561
0.589136 0.045214 0.063597
0.572071 0.005167 0.007544
0.505029 0.047817 0.049677
0.593962 -0.011903 0.054967
0.512649 0.038640 0.067825
0.536763 -0.017614 0.058760
0.576925 0.072320 0.040862
0.515850 0.002754 0.049698
0.519583 -0.006408 0.014970
0.512133 0.068631 0.028119
0.567790 0.044087 0.013900
0.531105 0.020473 0.001045
0.602235 -0.027107 0.041130
0.538579 0.018282 -0.000079
0.571155 0.008001 0.007387
0.524036 0.034929 0.005575
0.519417 0.006598 0.060876
0.522615 0.050905 0.009944
0.578265 -0.052604 0.047427
0.544071 0.100998 0.062270
0.567914 -0.006846 0.071185
0.577056 0.063071 0.032107
0.583872 0.052833 0.037166
0.585924 -0.061908 0.013899
0.587954 0.000295 0.020352
0.599103 -0.011543 0.041062
0.591031 0.039714 0.047051
0.552382 0.098683 0.060423
0.512190 0.006980 0.043043
0.507733 0.069284 0.053720
0.508937 0.052345 0.063810
0.508520 0.074852 0.050529
0.577569 0.074519 0.062696
0.589827 -0.055070 0.044978
0.593149 0.024264 0.061203
0.516946 0.035511 0.072263
0.555629 -0.018999 -0.000022
0.520086 -0.000362 0.055369
0.558585 0.060820 0.085139
0.526511 0.008959 0.069540
0.507114 0.020993 0.040828
0.510776 0.009141 0.032377
0.578435 -0.059159 0.011296
0.594553 0.022202 0.045795
0.562141 -0.058955 0.022916
0.510961 0.018943 0.020261
0.539201 0.102081 0.044063
0.551280 -0.006734 0.071121
0.519888 0.035829 0.075170
0.593492 -0.030175 0.052867
0.535988 0.016829 0.078153
0.594198 0.021574 0.043407
0.517182 0.000214 0.014899
0.533238 -0.029823 0.015639
0.571982 -0.057261 0.010421
0.543402 0.069970 0.084129
0.575207 0.073325 0.038275
0.577627 0.046075 0.079191
0.543419 -0.025065 0.002373
0.574652 0.079159 0.047433
0.552434 -0.028484 0.058933
0.584845 0.051947 0.069911
0.563170 0.092429 0.058292
0.597891 -0.054952 0.042605
0.517699 0.093398 0.057470
0.518523 0.073537 0.022628
0.570625 -0.050752 0.007185
0.548902 0.000240 -0.001287
0.558389 0.071933 0.018063
0.547021 0.068426 0.012201
0.509822 0.011617 0.036927
0.587130 -0.010079 0.015972
0.506250 0.060872 0.052251
0.536896 0.026766 0.081835
0.526420 -0.017397 0.011450
0.589296 0.045189 0.063066
0.508029 0.064826 0.058237
0.554131 0.093637 0.069228
0.582079 0.055841 0.072695
0.592588 0.026726 0.041273
0.596008 0.010719 0.043416
0.509528 0.046046 0.064559
0.532929 0.000473 0.000080
0.588544 -0.022411 0.013655
0.569857 0.002067 0.005529
0.510044 0.043882 0.020914
0.523716 -0.010840 0.050175
0.594259 0.023123 0.045063
0.562832 -0.039722 0.054182
0.536987 0.077379 0.081289
0.511271 0.083522 0.051284
0.592169 -0.019708 0.055872
0.527566 -0.021394 0.043156
0.563515 -0.038922 0.054913
0.542303 0.098511 0.067262
0.525671 0.100552 0.048602
0.528318 0.068809 0.013810
0.545448 0.058676 0.086183
0.533065 -0.025047 0.047872
0.588682 0.042675 0.041403
0.593223 -0.019649 0.019029
0.553146 0.093105 0.070600
0.584146 -0.043445 0.007215
0.557405 0.096892 0.055067
0.508903 0.014459 0.035222
0.543388 0.007597 -0.001092
0.547659 -0.034075 0.004534
0.548892 -0.035642 0.051360
0.583873 0.035033 0.027524
0.508048 0.024403 0.051629
0.530502 0.098866 0.065660
0.564020 0.027726 0.083521
0.510158 0.022497 0.021113
0.510351 0.057922 0.025746
0.513115 0.028177 0.015291
0.529478 0.055556 0.082282
0.510920 0.061240 0.066410
0.564767 0.080972 0.030022
0.572937 -0.063985 0.020973
0.580133 0.038168 0.077696
0.593131 -0.062744 0.017077
0.524660 -0.020092 0.033849
0.594323 -0.008042 0.054934
0.559465 -0.026642 0.061831
0.507512 0.028431 0.026455
0.589832 0.043364 0.062633
0.508091 0.019123 0.030474
0.509361 0.071684 0.058367
0.592883 0.018000 0.062233
0.529930 0.099219 0.064752
0.526711 0.049287 0.007453
0.592336 0.030053 0.061994
0.540393 0.102204 0.060813
0.541347 0.052820 0.006345
0.505659 0.057728 0.040836
0.519818 0.020810 0.069788
0.596302 -0.062959 0.035075
0.555119 -0.027985 0.001436
0.514987 0.064020 0.071266
0.581579 0.005801 0.071358
0.602815 -0.033439 0.042222
0.522796 -0.008224 0.051517
0.587364 -0.030182 0.010959
0.506439 0.061858 0.052754
0.568900 -0.034670 0.058219
0.543719 0.025317 0.000896
0.562857 0.027509 0.083660
0.567866 0.028765 0.082908
0.559759 0.092318 0.066299
0.571377 -0.035248 0.003746
0.597626 -0.019296 0.048968
0.564994 0.011156 0.004031
0.536348 0.066361 0.010851
0.548906 0.037944 0.003749
0.549760 0.077525 0.017248
0.596568 -0.002759 0.050422
0.540747 -0.038606 0.014427
0.573663 -0.037857 0.004418
0.540289 0.073162 0.083043
0.599761 -0.058453 0.016855
0.523680 0.058032 0.011932
0.519780 0.009654 0.063633
0.600725 -0.056092 0.040256
0.547630 -0.044632 0.038648
0.601066 -0.033009 0.044883
0.588550 0.016132 0.068440
0.573515 0.076170 0.038441
0.510855 0.045125 0.066730
0.546855 0.049643 0.087023
0.584584 0.011640 0.071112
0.526840 0.076574 0.017954
0.558184 0.059635 0.012647
0.526505 0.012628 0.002117
0.537232 0.066374 0.010766
0.506059 0.038028 0.030120
0.556564 0.058786 0.011578
0.529351 0.049799 0.006724
0.546642 0.100101 0.062681
0.549705 0.092143 0.029714
0.587402 -0.037617 0.009371
0.531172 -0.017369 0.053916
0.598908 -0.037693 0.016747
0.543160 0.017466 0.080355
0.559531 -0.032163 0.058498
0.584765 -0.038285 0.008004
0.520505 0.096010 0.058904
0.590984 -0.005045 0.059918
0.560059 0.033708 0.006056
0.594423 -0.003368 0.055446
0.519170 0.053481 0.075852
0.534089 -0.004698 0.066343
0.580969 -0.062306 0.037283
0.603898 -0.039074 0.041506
0.560463 0.019816 0.003397
0.598228 -0.049099 0.045228
0.587833 0.005931 0.022156
0.580840 0.056774 0.034006
0.519820 0.020795 0.007313
0.534244 0.068546 0.082714
0.526687 -0.022448 0.037643
0.570358 0.008757 0.006962
0.577957 0.073474 0.045916
0.558317 -0.002469 0.073578
0.559759 0.053285 0.011289
0.517330 0.040524 0.011147
0.554596 -0.043294 0.047353
0.604348 -0.046416 0.040899
0.575420 -0.063632 0.030770
0.506503 0.039327 0.028523
0.512931 0.043819 0.016531
0.539071 -0.020138 0.058374
0.532268 0.052397 0.083698
0.506897 0.059740 0.056406
0.531904 0.011360 0.074069
0.556947 -0.046790 0.045041
0.545973 -0.040092 0.043786
0.589851 -0.065878 0.022542
0.602963 -0.034495 0.042207
0.585866 -0.053193 0.008735
0.509320 0.013297 0.033815
0.572514 -0.036528 0.057285
0.587635 -0.060079 0.040883
0.568021 0.088073 0.051255
0.592023 0.036702 0.058932
0.537228 0.099760 0.038268
0.569312 0.072736 0.028336
0.532497 0.006404 -0.000032
0.531669 0.073317 0.080829
0.560400 0.082585 0.026853
0.570351 -0.001168 0.073084
0.542017 0.058359 0.008014
0.546280 -0.016634 0.064555
0.553734 -0.015962 -0.000460
0.572118 0.065963 0.078431
0.596579 -0.016704 0.025075
0.515333 0.027820 0.012464
0.540726 0.030692 0.083913
0.528611 -0.025840 0.034805
0.512274 0.040268 0.067765
0.523506 0.071836 0.076931
0.514339 0.070936 0.068673
0.516016 0.001555 0.048419
0.534364 -0.006430 0.065356
0.514980 0.087569 0.059903
0.527794 -0.012391 0.054696
0.586139 0.018365 0.024214
0.597442 -0.002494 0.046155
0.522700 0.057227 0.012200
0.553783 0.065436 0.012892
0.551523 0.009325 -0.000392
0.579840 0.027842 0.077540
0.586247 0.012819 0.022366
0.539821 0.089712 0.024350
0.595582 0.016275 0.046534
0.578107 -0.028880 0.006045
0.587593 0.017775 0.069766
0.540738 0.046150 0.086337
0.548752 -0.034213 0.004241
0.529529 0.073868 0.079812
0.512192 0.082025 0.038248
0.537770 -0.021596 0.003177
0.542363 0.097004 0.034109
0.530458 0.006719 0.000546
0.505678 0.045163 0.032784
0.564751 0.090094 0.062761
0.582461 -0.011324 0.065041
0.526267 0.089744 0.072104
0.505286 0.046285 0.035188
0.522511 0.048523 0.078243
0.562267 0.044191 0.009864
0.513723 0.002229 0.027354
0.549553 0.101082 0.051037
0.529566 0.081153 0.019246
0.551807 0.007036 -0.000574
0.534392 0.061825 0.083833
0.543470 -0.009205 -0.000946
0.569342 -0.050684 0.047312
0.596563 0.000685 0.050379
0.519053 0.006974 0.008486
0.579252 0.030761 0.078176
0.527159 -0.005888 0.003885
0.544810 0.026773 0.083628
0.542304 0.056178 0.007364
0.597164 -0.003801 0.048227
0.509771 0.022818 0.021959
0.584290 -0.006966 0.014273
0.547572 0.016421 0.000008
0.524895 -0.019041 0.039786
0.519778 0.046827 0.010542
0.598306 -0.019640 0.026141
0.604300 -0.058722 0.023148
0.566838 0.009033 0.077667
0.600223 -0.021517 0.043937
0.505677 0.059760 0.044651
0.521664 0.032101 0.075635
0.519773 0.092505 0.037810
0.536230 0.102205 0.060938
0.570958 -0.060175 0.035677
0.515679 0.009021 0.056729
0.541993 0.080305 0.017237
0.559887 -0.049660 0.043694
0.515120 0.006350 0.015690
0.542756 0.102869 0.057367
0.582456 -0.003176 0.013692
0.591431 -0.040461 0.051462
0.513911 0.086669 0.058024
0.587818 -0.029927 0.056509
0.531377 0.005290 0.000297
0.526075 0.038634 0.005112
0.505898 0.050609 0.054510
0.517714 0.013377 0.009358
0.508253 0.036168 0.058961
0.580753 -0.046227 0.051659
0.574863 0.065759 0.030699
0.521538 0.003472 0.006373
0.593991 -0.035781 0.051370
0.554165 0.007281 -0.000194
0.528814 0.084390 0.076073
0.522667 0.060549 0.077950
0.576295 0.077139 0.061139
0.574513 0.076538 0.041287
0.594932 0.005701 0.035511
0.510148 0.026118 0.020382
0.535569 0.102151 0.060925
0.547344 -0.019937 0.062834
0.565674 0.075602 0.026270
0.557076 0.089327 0.073106
0.559538 0.060120 0.013573
0.539482 0.015673 -0.000372
0.577113 -0.029948 0.060028
0.543365 0.075953 0.082683
0.596282 0.010467 0.049203
0.581369 0.031640 0.076697
0.575425 -0.031143 0.059749
0.520306 0.020479 0.070103
0.586459 0.021145 0.025769
0.517360 0.001581 0.013412
0.527555 0.086395 0.023930
0.521667 0.010447 0.066227
0.514447 0.007245 0.051918
0.551895 0.099753 0.057120
0.538603 0.081002 0.080421
0.553930 -0.051647 0.013539
0.552387 0.094028 0.034410
0.579125 -0.041523 0.005824
0.595126 0.001835 0.054880
0.577008 0.051124 0.079109
0.541959 -0.023566 0.002299
0.514215 0.010773 0.015635
0.551191 0.022872 0.001395
0.562563 0.044032 0.009990
0.533875 -0.028217 0.011321
0.536192 -0.028697 0.047414
0.573049 0.024907 0.012495
0.531276 0.043077 0.082872
0.525964 -0.015758 0.048358
0.523914 0.098110 0.043081
0.553133 0.003192 -0.000728
0.550747 0.008272 -0.000596
0.530323 -0.028498 0.032112
0.509016 0.076675 0.043919
0.591882 0.004920 0.028305
0.569821 -0.028789 0.002948
0.582772 0.040081 0.028041
0.540319 0.034041 0.002028
0.586459 0.030124 0.071926
0.541902 0.080928 0.080935
0.558490 -0.018529 0.000154
0.575754 0.063427 0.076618
0.515555 0.045763 0.072740
0.581762 0.031948 0.023335
0.522141 -0.012895 0.016340
0.518250 -0.008593 0.029026
0.577031 -0.013075 0.066758
0.511085 0.039030 0.018349
0.547450 -0.048155 0.023246
0.540260 -0.010808 0.065785
0.561820 0.086007 0.032277
0.522583 0.044795 0.008160
0.606274 -0.054593 0.034817
0.586288 0.052436 0.066454
0.506673 0.063357 0.039351
0.506812 0.054970 0.032764
0.542185 0.034794 0.085157
0.564474 0.026741 0.006666
0.551261 -0.022228 0.000462
0.527744 -0.003893 0.062083
0.566267 -0.034189 0.058321
0.533450 -0.007665 0.063877
0.508849 0.053401 0.026564
0.536600 0.063831 0.084167
0.521366 0.002918 0.006697
0.521538 0.008285 0.064738
0.593519 0.031272 0.052614
0.578874 0.001352 0.011872
0.553439 -0.005916 -0.001039
0.548001 0.071567 0.013762
0.568123 -0.060178 0.014056
0.584454 0.062736 0.056228
0.520591 0.009154 0.006429
0.556789 -0.052148 0.011454
0.542906 0.083909 0.079759
0.601427 -0.058041 0.038085
0.523513 -0.018450 0.031254
0.596700 -0.023865 0.021207
0.516914 0.051542 0.074090
0.594933 -0.020174 0.052850
0.539152 -0.006936 -0.000639
0.522930 0.071950 0.076509
0.552792 0.059888 0.085963
0.592317 0.019156 0.063411
0.578403 0.007532 0.073696
0.527435 -0.024404 0.026296
0.514861 0.017382 0.013137
0.583715 0.060553 0.044168
0.535122 0.059733 0.084321
0.545021 0.061174 0.009209
0.568213 -0.046580 0.005804
0.516372 0.046299 0.073547
0.580724 0.070565 0.052648
0.539127 -0.008450 -0.000450
0.522151 -0.014621 0.039649
0.599819 -0.014941 0.035514
0.520893 0.084153 0.070853
0.553495 -0.011872 -0.000828
0.573664 -0.045740 0.051967
0.524202 -0.008664 0.007842
0.520021 0.015373 0.006787
0.562509 0.085356 0.032315
0.590581 0.030561 0.038155
0.544876 0.090703 0.026137
0.560587 0.074740 0.080996
0.525241 0.072963 0.017114
0.563447 -0.015752 0.000900
0.577459 -0.017078 0.065125
0.605326 -0.039284 0.039017
0.516265 0.024528 0.011314
0.521014 0.094688 0.062628
0.599717 -0.044357 0.014625
0.532562 0.002282 0.069764
0.597619 -0.002360 0.043975
0.544212 0.062232 0.085602
0.538904 0.088507 0.023178
0.589166 0.034540 0.037154
0.528186 0.064925 0.012383
0.543757 -0.022532 0.001496
0.541207 -0.041631 0.029608
0.565804 -0.001465 0.002698
0.598563 -0.023702 0.023898
0.566710 0.075319 0.077534
0.533293 -0.032280 0.032396
0.567555 -0.042662 0.053212
0.548876 0.101292 0.050443
0.524430 0.089055 0.028243
0.546132 -0.032905 0.004583
0.522205 0.007854 0.005064
0.504697 0.038676 0.039801
0.592807 -0.052108 0.010491
0.564697 0.060324 0.083756
0.508620 0.019998 0.026836
0.603022 -0.036814 0.021941
0.529867 0.011099 0.000738
0.557102 0.081032 0.079446
0.529801 -0.025889 0.040083
0.563157 0.055456 0.084952
0.535467 -0.034331 0.035251
0.589469 0.048152 0.052341
0.563955 -0.058355 0.032000
0.518489 0.007576 0.009102
0.542973 0.076203 0.015090
0.595442 -0.038675 0.013764
0.594882 -0.065002 0.025779
0.580223 -0.066093 0.021913
0.520952 0.054609 0.012341
0.577413 0.068546 0.071181
0.559967 0.091260 0.068031
0.517103 0.091784 0.042038
0.520810 0.041272 0.076792
0.555313 0.029828 0.084864
0.563880 0.064078 0.083160
0.580513 0.013412 0.016007
0.556823 0.048535 0.086596
0.579263 0.071817 0.047406
0.580409 0.046999 0.076780
0.523270 -0.004315 0.056431
0.534458 0.004316 0.071888
0.542298 -0.007231 0.068786
0.522359 0.089668 0.069184
0.562364 0.044578 0.010035
0.560628 0.029303 0.084322
0.557583 0.034383 0.005259
0.604555 -0.038591 0.040332
0.541599 0.062616 0.009388
0.573240 -0.017493 0.065973
0.561761 -0.030971 0.002041
0.582906 0.054483 0.072044
0.556851 0.032018 0.085228
0.566559 0.019576 0.006426
0.581688 0.060300 0.070868
0.525983 0.090005 0.071765
0.546310 0.101404 0.059620
0.563240 -0.048422 0.006911
0.518564 0.029591 0.072023
0.528594 0.086900 0.074849
0.514380 0.007535 0.016861
0.504721 0.049272 0.043762
0.604518 -0.032236 0.037237
0.525575 0.073158 0.017015
0.607575 -0.051005 0.023641
0.589626 -0.028916 0.055809
0.552593 -0.043168 0.007118
0.566935 0.031287 0.083558
0.509786 0.065495 0.030750
0.602894 -0.061135 0.028384
0.544422 0.020756 0.081728
0.516265 0.010557 0.011805
0.570752 0.085275 0.053108
0.604094 -0.029563 0.035471
0.548107 0.065062 0.011112
0.537936 0.010289 -0.000766
0.578755 -0.065729 0.020968
0.557580 -0.046585 0.007236
0.507005 0.045612 0.028162
0.553155 0.045420 0.006485
0.510555 0.009511 0.035788
0.547911 0.101650 0.050449
0.584752 -0.051246 0.048209
0.536106 -0.035742 0.024771
0.571006 -0.007617 0.004828
0.567598 0.074786 0.077199
0.582072 0.067938 0.053133
0.555759 0.065554 0.013743
0.575466 -0.009569 0.068533
0.561146 0.063332 0.084131
0.564747 0.038394 0.084922
0.509773 0.079718 0.048822
0.565998 0.066791 0.021429
0.521165 0.038287 0.007794
0.559761 0.034787 0.006177
0.555369 -0.025585 0.061685
0.516789 0.027320 0.010811
0.561552 -0.052833 0.040654
0.566818 -0.061360 0.022471
0.544928 -0.029621 0.054303
0.559688 0.038070 0.085823
0.582099 0.065234 0.064497
0.580383 0.071231 0.052837
0.523014 -0.017146 0.035575
0.592790 0.000998 0.059045
0.545703 0.010343 -0.000818
0.523084 0.029139 0.005510
0.568999 0.054768 0.018854
0.510683 0.076571 0.058631
0.590564 0.040942 0.046334
0.585375 -0.065100 0.033133
0.591797 0.039067 0.051284
0.600486 -0.059708 0.037058
0.572601 0.043082 0.017657
0.542771 0.056891 0.086200
0.562468 0.007224 0.077440
0.521967 -0.013755 0.018953
0.600826 -0.049691 0.014539
0.506302 0.056349 0.055023
0.596723 -0.064452 0.026109
0.504966 0.043178 0.036487
0.590674 -0.065246 0.020408
0.543042 0.067958 0.011435
0.505372 0.041841 0.051191
0.537830 0.029860 0.082963
0.585519 0.053571 0.067575
0.525229 -0.003493 0.059763
0.513081 0.073477 0.029368
0.581618 -0.038058 0.006722
0.581151 0.004696 0.071231
0.519240 0.092842 0.039391
0.539635 0.080404 0.080809
0.542859 -0.035634 0.046326
0.571676 -0.063088 0.026491
0.550144 0.050450 0.086998
0.579931 -0.044300 0.052810
0.514084 0.063103 0.022606
0.552701 0.090671 0.073750
0.512557 0.015714 0.017623
0.574234 0.005555 0.074666
0.592861 0.033924 0.056373
0.511834 0.076039 0.061980
0.543647 0.004978 -0.001229
0.533481 0.094913 0.071288
0.566415 -0.061049 0.018505
0.531226 0.012207 0.000382
0.578467 -0.042612 0.053824
0.544683 -0.026788 0.002623
0.559622 0.025821 0.083624
0.526994 -0.021133 0.042116
0.595285 0.017954 0.046046
0.594748 0.005516 0.034880
0.517479 0.017959 0.009606
0.568619 0.062173 0.081800
0.515722 0.006971 0.013969
0.558020 -0.007184 -0.000366
0.546122 -0.018763 0.063129
0.584926 0.039725 0.072990
0.568435 0.048288 0.083967
0.534264 0.088106 0.076284
0.607124 -0.040321 0.029402
0.588016 -0.036720 0.054211
0.590261 0.044055 0.049125
0.598469 -0.057765 0.040365
0.572677 0.032785 0.081855
0.574787 -0.064487 0.019301
0.593545 0.006271 0.032322
0.512962 0.004440 0.026805
0.579451 0.045789 0.025907
0.546388 0.082231 0.019223
0.581682 0.063482 0.068099
0.510539 0.027568 0.019408
0.555508 -0.040784 0.005133
0.576168 -0.026350 0.005364
0.545537 0.030299 0.084639
0.520254 -0.011660 0.022822
0.558607 -0.054226 0.034951
0.562948 0.062776 0.083756
0.587237 0.002575 0.065959
0.586773 0.055923 0.059837
0.587461 -0.064633 0.017369
0.535380 -0.034172 0.020627
0.569094 0.041300 0.014066
0.595607 -0.042501 0.012616
0.544023 -0.044785 0.026652
0.559355 0.065720 0.084037
0.507149 0.020771 0.035869
0.545418 0.030478 0.084668
0.576935 -0.014981 0.066073
0.592338 0.017035 0.034961
0.575666 -0.002965 0.070956
0.517504 0.082936 0.029590
0.572302 0.067205 0.077687
0.544973 -0.045164 0.019442
0.590283 0.039782 0.063596
0.543714 -0.036372 0.007896
0.568331 0.054579 0.083459
0.580454 0.034603 0.022705
0.590619 0.018615 0.066173
0.540894 0.092010 0.026867
0.546595 0.073948 0.014573
0.510723 0.028186 0.060703
0.579662 0.062069 0.035861
0.543315 0.006069 -0.001177
0.543949 0.070398 0.084082
0.506913 0.025175 0.030571
0.507999 0.061829 0.033076
0.540435 0.044956 0.086214
0.599026 -0.011560 0.041856
0.509763 0.070890 0.034306
0.512559 0.011377 0.019539
0.567513 0.021469 0.081444
0.560369 -0.039452 0.053658
0.543197 0.018655 0.080789
0.525084 0.003574 0.065120
0.550761 0.098748 0.062277
0.521941 0.006609 0.064040
0.580888 0.061865 0.038194
0.567154 0.066645 0.022405
0.557929 0.093704 0.040400
0.580325 0.033130 0.022018
0.517428 0.032432 0.010336
0.540351 0.069370 0.083895
0.551553 0.004538 0.076347
0.582437 0.066831 0.051164
0.538808 0.098644 0.036258
0.584583 -0.038117 0.007945
0.524442 0.040912 0.006303
0.538589 0.038752 0.085045
0.585803 0.018181 0.071586
0.581916 -0.060186 0.012098
0.593789 0.022717 0.042614
0.547898 -0.048436 0.020953
0.552254 -0.005446 0.071858
0.541482 0.033158 0.001937
0.538674 -0.015811 0.061459
0.509138 0.050646 0.064267
0.510061 0.043582 0.020810
0.526868 0.019436 0.074699
0.520049 0.003305 0.008124
0.507287 0.024452 0.048502
0.524967 0.057566 0.011064
0.568281 0.000587 0.074167
0.526250 0.026782 0.003444
0.553200 -0.051311 0.013998
0.522326 0.096498 0.061589
0.573632 -0.056010 0.043321
0.537576 0.085163 0.020399
0.544756 0.063110 0.085504
0.559040 0.048665 0.086307
0.556587 -0.009739 -0.000608
0.570886 0.008661 0.076772
0.562850 0.026514 0.083440
0.582130 -0.061726 0.038427
0.581716 0.013058 0.073567
0.557065 0.094645 0.041320
0.544105 -0.035259 0.048018
0.580776 -0.064589 0.016488
0.554895 0.098443 0.051505
0.578174 0.071956 0.065642
0.551299 -0.047833 0.037947
0.569181 0.083778 0.067125
0.567929 0.007750 0.077029
0.563210 -0.059156 0.026720
0.513254 0.029730 0.015049
0.529462 -0.027195 0.025434
0.505037 0.037935 0.047385
0.581811 0.034999 0.024571
0.540124 0.067354 0.011038
0.584002 -0.066330 0.021068
0.586038 0.058321 0.051565
0.550130 0.095585 0.035447
0.528111 -0.025443 0.032415
0.569050 0.020597 0.008304
0.576267 0.018723 0.013571
0.561556 -0.040558 0.053194
0.556624 0.071373 0.083204
0.588263 -0.005639 0.062531
0.563849 0.039402 0.085201
0.514172 0.086930 0.040145
0.571291 0.005457 0.007042
0.567735 0.065344 0.022304
0.555561 0.000815 -0.000490
0.523873 -0.017258 0.019035
0.582110 0.026256 0.075762
0.584328 0.021603 0.073426
0.547751 -0.047935 0.018697
0.573120 0.025971 0.012844
0.583657 -0.037072 0.055534
0.560520 -0.036881 0.055585
0.607468 -0.044018 0.035050
0.544723 -0.037357 0.007854
0.552476 0.030161 0.002946
0.535799 0.011505 -0.000481
0.510734 0.077822 0.057780
0.514805 0.082631 0.063780
0.539868 0.066693 0.010785
0.605002 -0.057375 0.022467
0.523276 -0.017435 0.023435
0.518791 0.029641 0.008930
0.561612 -0.010360 0.070059
0.538289 0.094533 0.029824
0.580642 -0.046946 0.006549
0.562680 0.089042 0.068571
0.531794 0.006723 0.071763
0.563564 0.072310 0.080713
0.580768 0.069980 0.059480
0.578001 0.001461 0.011228
0.527412 0.084151 0.075472
0.530436 0.094694 0.070535
0.576903 -0.009499 0.008302
0.512883 0.009401 0.020001
0.530730 0.058354 0.082764
0.558531 0.094781 0.044498
0.518138 0.086745 0.032254
0.511464 0.017604 0.019524
0.540759 0.030748 0.001527
0.526398 0.034977 0.004399
0.506943 0.031318 0.052893
0.515477 0.071229 0.024810
0.521065 0.083944 0.071110
0.533578 0.028593 0.001490
0.508286 0.021361 0.049364
0.518917 -0.008533 0.040023
0.540442 0.099093 0.037385
0.551447 0.010854 -0.000234
0.573637 0.040441 0.017686
0.558551 0.063637 0.014373
0.564883 -0.059679 0.028668
0.515870 0.031673 0.011899
0.506104 0.040279 0.054031
0.524205 0.074369 0.018422
0.534529 0.000846 0.070019
0.558016 0.060544 0.085281
0.535196 0.031795 0.001754
0.583242 0.026620 0.023275
0.567040 -0.013239 0.002200
0.591789 -0.035359 0.012453
0.583055 0.006321 0.016647
0.576609 0.072035 0.069050
0.558036 0.064533 0.084549
0.509906 0.056429 0.065398
0.540588 0.088132 0.077262
0.596404 -0.012215 0.027671
0.588016 0.032147 0.069924
0.568079 0.083467 0.038489
0.507248 0.049625 0.059553
0.504781 0.046648 0.047441
0.593070 -0.065427 0.029116
0.563164 0.087261 0.070609
0.588330 0.027635 0.069716
0.511739 0.058410 0.068139
0.541172 0.035535 0.085108
