ply
format ascii 1.0
element vertex 1024
property float x
property float y
property float z
end_header
0.561210 0.036164 -0.004822
0.539594 -0.045101 0.008026
0.539397 -0.050189 0.008953
0.526173 0.088572 0.043041
0.549644 -0.039861 0.072584
0.521427 0.004891 0.008481
0.520232 0.081238 0.036659
0.582690 0.029963 0.067587
0.519682 -0.048836 0.025440
0.516290 -0.000848 0.032311
0.557867 0.055338 0.077264
0.563056 0.093645 0.050552
0.566215 -0.032217 0.071257
0.550673 -0.007311 0.083589
0.548222 0.041871 0.081655
0.517396 0.001774 0.045975
0.523950 -0.015771 0.011455
0.527913 0.085024 0.053349
0.546733 0.069667 -0.002615
0.526897 0.048412 0.068992
0.557260 -0.007596 0.084136
0.529685 -0.072279 0.043618
0.539657 0.097047 0.021214
0.562568 -0.048362 0.020303
0.526667 -0.065493 0.014772
0.566261 0.008048 0.002292
0.560471 0.074454 0.003519
0.585582 0.053382 0.022246
0.585279 0.004542 0.024665
0.568861 0.071867 0.008196
0.518344 -0.008143 0.044321
0.527413 0.033615 0.070689
0.556551 -0.046310 0.069438
0.566885 -0.055071 0.045951
0.590632 0.044362 0.039144
0.587754 -0.002297 0.047688
0.520495 -0.008495 0.051726
0.527338 0.060034 0.067090
0.576539 0.067736 0.014166
0.546215 -0.047209 0.068270
0.547853 0.086297 0.063543
0.582003 0.060329 0.056530
0.586840 0.029759 0.020242
0.542574 0.078300 0.067900
0.527290 0.086740 0.049959
0.534543 0.053137 0.073958
0.554464 -0.034101 0.075648
0.589548 0.021354 0.028358
0.521017 0.081763 0.029964
0.528759 -0.061229 0.012515
0.525910 -0.059768 0.013953
0.553656 0.060214 0.075899
0.589886 0.022614 0.052828
0.559348 -0.005685 0.002129
0.544463 0.069290 0.072147
0.589054 0.004922 0.036821
0.574373 0.085312 0.028792
0.533190 0.071004 0.001002
0.584979 0.047245 0.018153
0.542492 0.032625 -0.008426
0.585873 0.034149 0.061984
0.572569 -0.010552 0.074962
0.552310 -0.029400 0.077473
0.516633 0.066292 0.021476
0.571256 0.070387 0.063436
0.521888 0.082575 0.043928
0.530398 0.094262 0.031750
0.537024 0.090245 0.056630
0.544385 0.088275 0.061655
0.574896 0.051275 0.070109
0.550193 -0.070670 0.050354
0.575409 0.048014 0.070937
0.552977 0.020580 0.084791
0.516121 0.015540 0.046764
0.539808 -0.053922 0.062135
0.554821 0.084590 0.006646
0.530291 -0.013039 0.004495
0.570502 -0.038942 0.025078
0.537605 0.096418 0.047853
0.564470 0.036744 0.080513
0.576322 -0.035955 0.036301
0.518751 0.036375 0.059083
0.573691 -0.035108 0.027872
0.547163 -0.037438 0.072933
0.519816 -0.057353 0.034175
0.527755 0.000661 0.069182
0.524520 -0.041934 0.049485
0.518863 0.078185 0.032948
0.550607 0.001379 0.084802
0.579813 -0.030044 0.043902
0.556277 -0.041410 0.072046
0.526643 0.057442 0.067053
0.587705 0.051807 0.026472
0.546016 0.024166 0.083427
0.547048 0.090144 0.010190
0.571739 -0.039481 0.059213
0.574286 0.075630 0.016540
0.550578 0.037002 0.082685
0.519453 0.076112 0.047477
0.528031 -0.025926 0.062344
0.549862 0.101717 0.027148
0.584181 0.027063 0.015980
0.528574 0.063457 0.001001
0.545158 0.034004 -0.008582
0.522173 0.015498 0.004571
0.573908 0.069810 0.012064
0.576650 0.044504 0.071042
0.561329 0.020547 0.083783
0.553907 -0.027221 0.006177
0.576517 0.042428 0.005750
0.581209 0.055785 0.014905
0.559757 0.068360 0.071108
0.513981 0.062344 0.036116
0.577368 0.081985 0.035514
0.515018 0.015108 0.025258
0.521862 0.003469 0.060513
0.531410 0.079487 0.062174
0.520128 0.031665 0.005422
0.531004 0.052715 -0.003900
0.578695 0.037096 0.007980
0.589089 0.042979 0.026117
0.542581 0.047946 -0.008151
0.574674 -0.006769 0.014343
0.589413 0.029790 0.026363
0.591811 0.027240 0.041710
0.551021 -0.024731 0.004580
0.514938 0.014459 0.039846
0.552823 -0.025564 0.079001
0.576627 0.052549 0.007406
0.549452 -0.017578 0.002327
0.530890 0.091290 0.021284
0.530624 0.021554 -0.004209
0.573842 -0.013665 0.016098
0.530539 -0.002787 0.071739
0.586803 0.053597 0.025307
0.533481 0.067185 0.069504
0.516928 0.067916 0.048225
0.568111 -0.019972 0.012857
0.583934 0.064511 0.027059
0.529092 -0.012922 0.068087
0.523044 0.085014 0.041645
0.552784 0.096733 0.018348
0.558739 0.031141 0.082816
0.518237 -0.017020 0.035147
0.517718 0.074499 0.029212
0.520546 -0.041476 0.038076
0.553110 -0.069237 0.048871
0.551493 -0.030745 0.076813
0.524338 -0.073928 0.033523
0.526725 0.032448 0.069977
0.556928 0.099714 0.024824
0.568552 0.093876 0.039208
0.553789 0.101763 0.028439
0.524789 0.069591 0.007457
0.556917 0.086074 0.008681
0.583801 0.016791 0.065769
0.518043 0.011633 0.052881
0.536400 -0.078492 0.035333
0.586276 0.015014 0.022324
0.554093 -0.046544 0.012436
0.539314 0.024175 -0.007511
0.581042 0.038113 0.010817
0.573608 0.081771 0.021334
0.523654 0.058874 0.004139
0.564030 -0.058180 0.048900
0.524054 0.001343 0.064108
0.587084 0.031754 0.020522
0.551103 0.078115 0.068283
0.569590 -0.044619 0.057998
0.548606 0.056788 -0.006372
0.533932 0.052363 -0.005497
0.577406 0.068861 0.057336
0.519729 -0.040996 0.026301
0.520593 0.067917 0.056180
0.571048 0.079290 0.015102
0.560127 0.032754 -0.005257
0.581074 -0.021759 0.033539
0.561321 0.082195 0.008387
0.569505 -0.010211 0.010615
0.568709 0.092767 0.042558
0.535141 -0.037618 0.066118
0.564778 0.049370 -0.002001
0.573423 0.076232 0.015799
0.550159 0.050597 0.079554
0.524483 -0.037061 0.051030
0.555982 -0.003096 -0.000187
0.530647 -0.062832 0.051637
0.534147 0.072172 0.068001
0.551360 0.010190 -0.005273
0.519111 -0.059220 0.027954
0.579565 0.078355 0.035930
0.536088 -0.004726 0.076371
0.536442 0.033364 0.078461
0.567527 -0.005012 0.007222
0.520899 0.056776 0.006974
0.540552 0.069072 -0.002435
0.554662 0.028446 -0.007033
0.565260 -0.027874 0.074441
0.514889 0.026613 0.045148
0.522316 -0.001636 0.059854
0.516516 0.043944 0.053958
0.519901 0.077719 0.046537
0.586249 0.051623 0.054045
0.515551 0.064677 0.045772
0.590272 0.030289 0.051743
0.542313 0.097018 0.019705
0.576295 -0.037312 0.049871
0.578582 0.029734 0.072443
0.579146 -0.011918 0.065792
0.584871 0.058639 0.024235
0.590986 0.035496 0.032515
0.521234 0.036835 0.003673
0.549860 -0.071086 0.049910
0.513417 0.058275 0.033861
0.563236 0.092412 0.018896
0.556114 0.087351 0.061496
0.572786 -0.037378 0.059297
0.589953 0.009475 0.045942
0.528348 -0.029677 0.009911
0.516212 0.006936 0.023524
0.514162 0.062656 0.031255
0.523134 -0.064909 0.017840
0.518456 0.077651 0.036089
0.569942 0.027929 0.000975
0.555009 -0.069793 0.034629
0.536937 -0.078489 0.035465
0.518367 0.054643 0.056911
0.526963 0.033060 -0.002476
0.521523 -0.008287 0.054950
0.582692 0.057606 0.057240
0.536742 -0.023656 0.004437
0.589943 0.049440 0.038469
0.584446 -0.012064 0.034579
0.514920 0.058825 0.021850
0.588858 0.011863 0.053080
0.569532 -0.003055 0.079686
0.558546 0.072046 0.069765
0.515884 0.030715 0.050423
0.544328 0.016994 0.083154
0.527551 -0.042481 0.011663
0.538684 0.012606 0.079866
0.521228 -0.005366 0.055474
0.547637 0.033377 0.082862
0.591144 0.016143 0.041726
0.546048 0.049554 0.079374
0.557572 -0.058782 0.021528
0.542830 0.098588 0.021990
0.564111 -0.008972 0.005986
0.512890 0.048731 0.029347
0.513782 0.037840 0.021766
0.535958 -0.074784 0.044898
0.518089 -0.015550 0.035572
0.524924 -0.026866 0.012801
0.518030 0.024844 0.010185
0.536182 0.093735 0.018814
0.586586 0.015922 0.060423
0.576008 0.077745 0.051386
0.586151 0.062876 0.043247
0.571840 0.082311 0.053276
0.525923 0.063975 0.003564
0.548148 -0.064802 0.016976
0.529265 0.011727 -0.001863
0.590139 0.045907 0.032517
0.537613 -0.027558 0.071723
0.589784 0.008544 0.046157
0.557373 0.059813 -0.003166
0.589803 0.017631 0.030459
0.584744 0.030308 0.064505
0.581016 0.016783 0.069839
0.539352 -0.070420 0.051211
0.520242 0.007076 0.009993
0.558245 -0.063814 0.051114
0.570965 0.024197 0.079160
0.536036 0.098297 0.039601
0.576765 -0.004097 0.015621
0.589410 0.045797 0.028435
0.541780 -0.041123 0.007271
0.584845 0.023639 0.017604
0.519381 0.006228 0.012176
0.569208 0.003890 0.080820
0.566959 -0.029032 0.072357
0.543192 -0.066901 0.055556
0.565494 0.072681 0.005985
0.514467 0.059883 0.024904
0.544206 0.039505 -0.008604
0.550234 -0.029433 0.077090
0.518140 0.066928 0.017482
0.576037 -0.026825 0.025910
0.531618 0.041604 -0.005467
0.528741 0.084401 0.014624
0.540615 -0.067361 0.014258
0.562757 0.098257 0.041461
0.549019 0.074034 0.070333
0.540337 -0.060834 0.058675
0.535890 -0.007611 0.075739
0.516484 0.060384 0.051152
0.523028 0.059457 0.062650
0.583495 0.020077 0.066561
0.519595 -0.025782 0.040102
0.579016 0.069992 0.053830
0.583026 0.033330 0.013615
0.565854 -0.015941 0.079127
0.526552 0.032910 -0.002135
0.579734 0.074115 0.047737
0.541380 0.089771 0.010857
0.534042 0.046497 -0.006324
0.517770 0.011246 0.014605
0.521477 -0.004562 0.011629
0.588134 0.056857 0.042588
0.548798 -0.002598 0.083820
0.521168 -0.038202 0.041751
0.523083 -0.010885 0.058015
0.564044 0.048155 0.077998
0.587462 -0.003187 0.048788
0.519763 0.007923 0.010717
0.569027 -0.041153 0.024315
0.566441 0.081111 0.011655
0.567380 0.089837 0.050671
0.541119 -0.030392 0.005095
0.583974 -0.015325 0.052786
0.568657 -0.040483 0.023287
0.547769 0.097487 0.019052
0.549411 0.101414 0.043767
0.538112 0.065432 0.072100
0.568694 0.061713 0.003655
0.583573 -0.019659 0.045939
0.515722 0.027479 0.016010
0.519707 -0.036131 0.034541
0.543071 0.089756 0.010330
0.527670 -0.057800 0.050518
0.529920 0.089799 0.020371
0.582335 0.022776 0.068350
0.537861 0.000964 0.078416
0.551083 -0.038853 0.073301
0.576807 -0.033710 0.034462
0.514093 0.019560 0.030459
0.588973 0.034876 0.054996
0.555787 0.100974 0.027145
0.562911 0.026697 -0.003440
0.570917 0.027917 0.078764
0.562013 0.062071 0.073226
0.563583 0.031575 0.081544
0.579730 0.062767 0.016188
0.583237 0.071110 0.039570
0.515393 0.068887 0.037299
0.550511 -0.071964 0.046710
0.543985 0.031081 -0.008462
0.532488 -0.077172 0.038190
0.580580 -0.014646 0.061993
0.535211 -0.020112 0.004077
0.571688 -0.026670 0.019408
0.574026 0.035089 0.075655
0.526485 0.030965 -0.002006
0.578810 0.026715 0.072475
0.576590 0.080240 0.046545
0.532051 0.006031 -0.002259
0.555605 0.101337 0.028200
0.542041 0.046475 0.079121
0.528475 0.017556 -0.002309
0.544443 0.100569 0.025242
0.529095 0.045448 0.071423
0.574097 0.065485 0.063629
0.591267 0.030804 0.033564
0.540188 -0.075603 0.021689
0.541695 -0.035696 0.071246
0.581949 0.073296 0.033135
0.549704 -0.000905 -0.002620
0.529745 -0.048477 0.010732
0.588077 -0.000247 0.048103
0.523053 -0.045618 0.044992
0.578837 0.070945 0.053264
0.565023 -0.037514 0.017289
0.533044 0.017931 0.075780
0.563947 0.026847 -0.002873
0.559294 0.026484 -0.005206
0.535861 0.086469 0.010063
0.532875 -0.046894 0.060327
0.532955 -0.032599 0.007563
0.523055 -0.001112 0.061617
0.531100 0.060368 0.070000
0.526626 0.028814 0.069875
0.520838 0.068032 0.056531
0.529281 -0.016431 0.006218
0.563350 -0.039681 0.069425
0.532337 -0.049919 0.058582
0.566246 0.076433 0.008517
0.525918 -0.075049 0.034350
0.544062 0.056287 0.076807
0.591429 0.019341 0.039126
0.537501 -0.069604 0.014594
0.573549 -0.043748 0.045978
0.532432 -0.047171 0.009549
0.539431 0.006433 -0.004738
0.514943 0.063086 0.025612
0.588627 0.055928 0.040095
0.570980 0.052888 0.002579
0.545398 0.003720 -0.004423
0.539072 0.073822 0.069211
0.517553 0.047999 0.056260
0.550958 0.011052 0.085296
0.530372 0.060114 0.069558
0.574111 0.045133 0.073056
0.518467 0.047502 0.058106
0.539451 0.046092 0.078169
0.541380 0.097063 0.020215
0.523165 0.083737 0.045714
0.524518 -0.052900 0.046611
0.585939 -0.010948 0.041743
0.519862 -0.055178 0.033965
0.580386 0.022510 0.011644
0.571543 -0.032409 0.022345
0.525984 -0.052979 0.049277
0.560575 0.100136 0.038552
0.539590 -0.015574 0.001796
0.520739 0.021947 0.061762
0.533923 -0.015642 0.003384
0.584686 0.062806 0.027472
0.586594 0.002055 0.029334
0.552942 -0.070251 0.028696
0.530321 -0.054226 0.010954
0.523393 0.008290 0.064343
0.539949 -0.061528 0.011651
0.517384 -0.009914 0.033908
0.513073 0.041968 0.025909
0.556360 0.021475 0.084531
0.572165 0.073753 0.012484
0.581904 -0.016892 0.057839
0.521358 -0.004486 0.056246
0.516584 0.060374 0.017078
0.571388 -0.001716 0.009362
0.517623 0.041336 0.056756
0.554089 0.041428 0.081922
0.572655 -0.043186 0.034799
0.531989 -0.061393 0.011531
0.553972 -0.070883 0.037269
0.572464 0.045997 0.074043
0.559407 0.046612 0.079912
0.583274 -0.015173 0.033681
0.579398 0.059188 0.013571
0.581205 0.069355 0.050119
0.587439 0.019029 0.023544
0.570684 -0.047513 0.035492
0.576233 -0.038210 0.042531
0.539054 -0.078380 0.035768
0.529962 -0.049520 0.010708
0.530326 -0.067291 0.048739
0.581603 0.021348 0.069312
0.562331 -0.040449 0.016053
0.549141 -0.069522 0.021813
0.522493 0.077837 0.017771
0.524874 0.023480 0.000060
0.535050 0.095804 0.045573
0.513611 0.059537 0.036437
0.547167 0.003121 0.083885
0.571554 0.078726 0.015285
0.516446 0.071195 0.042327
0.561489 -0.004016 0.002768
0.527741 0.050745 0.069419
0.580091 -0.013007 0.024320
0.537844 -0.024205 0.073032
0.541626 0.059792 -0.005733
0.519575 -0.033408 0.027538
0.560421 0.030178 0.082589
0.580000 0.036253 0.009529
0.579932 -0.021077 0.059203
0.589675 0.051080 0.038658
0.576094 0.079089 0.023239
0.578781 0.079639 0.035302
0.588400 0.010491 0.054084
0.586386 0.000191 0.030061
0.568063 0.093885 0.041314
0.587365 -0.005152 0.042822
0.515849 0.002645 0.032628
0.526142 -0.017068 0.009183
0.545219 0.055847 0.077191
0.519199 0.054788 0.058327
0.531475 0.000366 0.073076
0.547430 0.021371 -0.007685
0.516510 -0.002909 0.034331
0.528508 0.083477 0.055900
0.521767 0.001282 0.009073
0.526972 -0.042459 0.054276
0.540379 0.008460 -0.005344
0.576394 0.051238 0.006826
0.550128 -0.039342 0.072917
0.572446 0.079711 0.017323
0.559871 0.086212 0.060845
0.553893 -0.024408 0.079529
0.529680 0.091101 0.046134
0.548949 0.004091 0.084574
0.573607 0.052391 0.070771
0.530777 0.082403 0.010176
0.550983 -0.018303 0.002821
0.565550 0.094520 0.024753
0.574890 0.053923 0.068983
0.585055 0.057512 0.023826
0.517821 0.031799 0.056895
0.578169 0.008647 0.072559
0.532333 0.095418 0.027990
0.536242 0.077563 0.066373
0.531890 -0.001909 0.073167
0.574829 0.067518 0.011799
0.543261 -0.014936 0.079031
0.563719 -0.054419 0.026676
0.528158 -0.013177 0.006095
0.562028 0.008792 0.084659
0.547300 0.024397 -0.008001
0.557376 -0.006391 0.084337
0.577971 0.031330 0.007591
0.527856 0.048502 0.069884
0.527931 -0.017915 0.007713
0.571583 0.028458 0.078282
0.519821 -0.022274 0.042981
0.532449 0.008275 0.074697
0.583380 -0.012834 0.056966
0.549859 0.046599 0.080711
0.519789 -0.036522 0.025809
0.526048 -0.075669 0.026612
0.563471 0.007328 0.000580
0.528868 -0.036196 0.010273
0.575564 0.067972 0.060412
0.589505 0.041828 0.027205
0.550470 0.093885 0.056346
0.547698 0.101784 0.027540
0.559021 -0.065598 0.035678
0.590911 0.018891 0.047152
0.525884 0.072892 0.060888
0.568602 -0.051274 0.035030
0.569262 0.010406 0.081078
0.540497 0.100005 0.026661
0.519686 -0.018248 0.044336
0.545866 -0.050473 0.010082
0.568119 0.093060 0.043505
0.548076 -0.038716 0.007558
0.548565 0.002439 0.084314
0.544632 0.036228 0.081892
0.583834 0.060720 0.052667
0.561490 0.015366 0.084421
0.589145 0.047042 0.048349
0.555991 -0.052832 0.016345
0.512920 0.051694 0.031635
0.560068 0.004450 0.085113
0.542357 -0.046794 0.008464
0.530220 -0.002297 0.071486
0.567533 0.089314 0.020296
0.580920 0.068802 0.023416
0.525188 0.066588 0.005447
0.515652 0.063571 0.022697
0.519490 -0.010180 0.018932
0.569357 0.031238 0.079197
0.548214 0.101921 0.027935
0.579373 -0.016694 0.025264
0.514322 0.062986 0.040087
0.542674 0.085425 0.006196
0.516879 0.048207 0.054701
0.538665 0.009834 0.079705
0.558238 -0.035136 0.010860
0.562798 0.078137 0.006908
0.524582 -0.004016 0.006762
0.544572 0.024400 -0.008056
0.559757 -0.035824 0.012115
0.591175 0.030398 0.033041
0.515583 0.005415 0.031046
0.567803 0.004910 0.081867
0.538718 0.083800 0.063468
0.591181 0.019937 0.035885
0.589734 0.016848 0.051869
0.534366 0.094395 0.021739
0.563560 0.083945 0.011264
0.556945 -0.055938 0.063157
0.523134 0.085450 0.040248
0.530119 -0.054747 0.054458
0.531403 -0.011006 0.003199
0.543016 0.044448 -0.008415
0.550829 -0.027606 0.077923
0.568508 0.014843 0.081439
0.528389 0.013546 0.071179
0.517716 0.031581 0.056629
0.563545 -0.028340 0.075438
0.582093 -0.024078 0.044679
0.517218 0.010848 0.049430
0.582681 0.050531 0.015250
0.586301 -0.008757 0.049204
0.548453 0.098784 0.049398
0.532021 -0.005950 0.072706
0.532293 -0.000437 0.073738
0.577969 -0.024486 0.060536
0.567183 0.082908 0.058298
0.518047 -0.011117 0.026605
0.531550 -0.040455 0.061574
0.513608 0.024729 0.030438
0.533483 0.027331 0.076411
0.538498 0.020792 -0.007027
0.561347 0.083004 0.008946
0.535372 -0.027908 0.069909
0.538643 0.056078 -0.006232
0.588186 0.056078 0.032453
0.514356 0.016623 0.035237
0.570419 -0.009723 0.077395
0.579105 -0.002644 0.069089
0.556658 -0.018144 0.004632
0.563368 0.042883 0.079716
0.566209 -0.049326 0.058811
0.583518 -0.005582 0.026516
0.517294 0.074834 0.036924
0.547034 0.043515 0.081132
0.529736 -0.070590 0.015762
0.528426 0.041136 -0.003501
0.570688 0.070299 0.063994
0.569587 0.061341 0.069678
0.578265 0.039901 0.007483
0.519934 0.014177 0.059042
0.542258 -0.029286 0.073997
0.588809 0.004005 0.036429
0.566939 -0.036288 0.018701
0.586655 -0.000936 0.031852
0.565067 0.058347 0.073635
0.572685 0.068832 0.010160
0.560559 0.004024 0.084974
0.591140 0.017705 0.037274
0.521938 0.016971 0.004605
0.519958 -0.013206 0.047675
0.534529 -0.014702 0.073207
0.522145 0.062380 0.060666
0.549110 -0.068011 0.054951
0.520817 0.049884 0.005420
0.559004 0.010106 0.085349
0.553753 -0.057545 0.063234
0.558967 0.085361 0.009189
0.536374 -0.071972 0.016051
0.579481 -0.013150 0.064695
0.519614 -0.040794 0.030957
0.586049 0.061357 0.030300
0.537465 -0.032077 0.005988
0.546009 -0.011502 0.081164
0.576262 0.079299 0.023910
0.562564 0.060718 -0.000455
0.532772 0.007462 -0.002947
0.552885 0.001994 -0.002777
0.575617 -0.020649 0.066756
0.564501 0.020538 0.082797
0.515341 0.046234 0.015786
0.575213 0.065402 0.011077
0.525209 0.052724 0.066581
0.540075 -0.056400 0.060999
0.587840 0.056471 0.031299
0.519161 0.057830 0.010127
0.546619 -0.012900 0.081095
0.583988 -0.007884 0.058453
0.522365 -0.031114 0.017072
0.570753 0.090587 0.029131
0.536512 -0.020322 0.073280
0.561430 -0.050289 0.020158
0.562738 -0.007579 0.082942
0.557648 0.016208 0.085096
0.516997 0.074026 0.036527
0.516334 0.014987 0.018127
0.525321 0.083229 0.051482
0.549069 0.071791 -0.001587
0.540981 0.070738 0.070986
0.531107 -0.026594 0.066314
0.556701 -0.022298 0.005903
0.527905 -0.055206 0.012171
0.560120 0.026624 0.083143
0.562689 0.099295 0.035282
0.520191 -0.062032 0.035539
0.587437 0.009608 0.027099
0.524746 -0.017317 0.010853
0.568176 0.065347 0.004677
0.528940 0.082426 0.057441
0.515583 0.019009 0.019575
0.538659 0.061582 0.073522
0.548674 -0.027264 0.077493
0.572449 -0.040411 0.056916
0.525733 -0.013485 0.062825
0.519640 -0.040775 0.027680
0.542265 0.070063 -0.002319
0.577067 -0.028875 0.058770
0.565813 -0.045436 0.022520
0.532452 0.095723 0.028855
0.542667 0.087857 0.061627
0.551904 -0.037301 0.074088
0.557423 0.008209 0.085593
0.580355 0.047581 0.065913
0.525650 -0.067996 0.043255
0.552084 0.057382 -0.005537
0.576092 0.026849 0.075097
0.519335 -0.054753 0.027315
0.548105 0.008434 0.084554
0.548854 0.078515 0.001394
0.581987 -0.020678 0.054214
0.555489 0.053397 -0.005399
0.577656 -0.031014 0.055282
0.519478 0.034065 0.006377
0.561740 -0.062413 0.042629
0.562611 0.009616 0.084453
0.525248 0.068409 0.062265
0.521160 -0.055556 0.038442
0.536734 -0.078513 0.030186
0.546137 -0.075912 0.041841
0.547474 0.053893 0.078205
0.532696 0.059633 -0.002991
0.537008 0.085667 0.008580
0.555107 0.094600 0.054469
0.587868 0.050923 0.026327
0.569649 0.031387 0.000386
0.551174 0.061080 -0.004755
0.517153 -0.001649 0.042797
0.563470 0.048912 -0.002767
0.516950 0.058653 0.015187
0.540434 0.039220 -0.008284
0.589209 0.004048 0.043639
0.586522 0.011304 0.024179
0.582490 -0.002336 0.022727
0.566931 0.095135 0.029392
0.517718 0.032162 0.056682
0.565448 0.029284 -0.002212
0.521972 0.023177 0.063808
0.529007 -0.054133 0.011511
0.527465 0.055098 0.068341
0.560534 -0.021353 0.007662
0.537908 -0.040339 0.067062
0.533481 0.044878 -0.006207
0.567974 0.033073 -0.000900
0.520499 0.006763 0.058369
0.531892 0.050557 -0.004816
0.565494 0.094798 0.025181
0.539507 0.097933 0.022842
0.545087 -0.056549 0.063047
0.590663 0.039805 0.032055
0.566214 0.091570 0.021305
0.570103 0.011915 0.080494
0.579157 0.058190 0.062176
0.525271 -0.048571 0.013761
0.540609 0.070812 0.070866
0.521347 -0.069235 0.023963
0.545978 -0.038383 0.007040
0.551665 -0.048489 0.068772
0.559561 0.029235 -0.005316
0.562816 0.070145 0.069117
0.530822 -0.076768 0.023263
0.579134 0.025465 0.009643
0.564868 0.013478 0.083391
0.522335 0.074681 0.014816
0.523753 -0.046183 0.015323
0.522666 0.055799 0.063069
0.541352 0.005125 0.081168
0.546616 -0.075287 0.043441
0.549011 -0.053137 0.065960
0.569866 0.051745 0.073756
0.522510 0.035075 0.064847
0.582973 0.017704 0.067166
0.533079 0.096340 0.029390
0.552612 -0.059245 0.017087
0.571763 -0.034095 0.063528
0.524914 -0.020482 0.058374
0.541569 0.069254 -0.002532
0.519243 0.055029 0.009075
0.518125 0.054460 0.056489
0.557724 -0.014112 0.003923
0.554047 0.061304 -0.003936
0.559721 0.036791 -0.005498
0.568369 0.086301 0.053721
0.514191 0.053835 0.044260
0.549997 0.037710 0.082550
0.520689 0.023070 0.061784
0.574401 -0.024515 0.021838
0.558544 0.029041 0.083121
0.566646 -0.055208 0.036698
0.555188 -0.067500 0.048893
0.579556 -0.026435 0.034067
0.564198 0.038072 -0.003302
0.526438 0.054157 -0.000085
0.519314 0.058586 0.010138
0.581859 -0.011129 0.061397
0.535785 -0.010506 0.001186
0.535364 0.002938 0.076730
0.550183 0.028163 0.083733
0.514306 0.041213 0.045189
0.574161 0.084524 0.045340
0.517593 0.026033 0.010982
0.548148 -0.074779 0.029672
0.520016 0.024643 0.006320
0.537055 -0.073433 0.017508
0.514625 0.028943 0.044632
0.571322 0.060796 0.005268
0.567266 0.006838 0.003368
0.572286 -0.010097 0.075404
0.521003 -0.067410 0.035218
0.581973 0.066111 0.051748
0.535334 -0.078473 0.028831
0.576856 0.051270 0.068252
0.537030 -0.078337 0.037005
0.525794 0.060043 0.065590
0.585190 0.052079 0.056085
0.581950 0.036157 0.012012
0.529277 0.042598 -0.004026
0.589308 0.004759 0.039753
0.556966 0.076545 0.067975
0.527603 -0.052051 0.052126
0.550314 -0.001846 -0.002218
0.551654 0.094593 0.055347
0.563179 0.083141 0.010380
0.578607 -0.032719 0.042047
0.554271 -0.069930 0.042893
0.568191 0.052702 0.000666
0.556646 -0.050601 0.015791
0.555744 0.065433 0.073395
0.545951 0.088049 0.008130
0.569305 0.020291 0.080543
0.557250 0.001466 -0.001073
0.523693 0.020229 0.001795
0.575322 0.084189 0.041969
0.538425 -0.001609 0.078501
0.557919 0.097217 0.021021
0.553180 -0.067681 0.052346
0.546512 0.009039 0.084010
0.557792 -0.048432 0.015729
0.549959 -0.031389 0.076237
0.566943 0.026174 -0.000901
0.583747 -0.015069 0.053952
0.521183 0.002884 0.009564
0.519338 -0.010396 0.019561
0.560340 0.019806 0.084142
0.547399 0.057713 -0.006288
0.567641 0.010564 0.082106
0.531807 -0.017117 0.070076
0.580097 -0.015189 0.025673
0.537190 0.030475 -0.007457
0.553198 0.044951 -0.007305
0.562293 0.091296 0.016809
0.521489 -0.058137 0.019027
0.548817 -0.045543 0.009635
0.518388 0.029482 0.008735
0.539822 -0.070522 0.015883
0.553737 0.028749 -0.007306
0.548322 -0.073220 0.047030
0.518587 -0.009717 0.022307
0.577736 0.010875 0.073342
0.513128 0.030767 0.033827
0.523015 0.073747 0.056645
0.529330 0.053157 -0.002701
0.568049 0.032352 0.079699
0.547562 -0.047367 0.068600
0.527264 -0.039610 0.055832
0.576851 0.034608 0.006183
0.575088 -0.007046 0.073137
0.566158 -0.056530 0.043113
0.552637 0.060204 -0.004643
0.543392 -0.006387 -0.001327
0.523240 0.043310 0.001455
0.537594 -0.077286 0.041308
0.569500 -0.033019 0.067255
0.515872 0.027728 0.049666
0.521619 -0.059394 0.039461
0.569654 -0.044645 0.057851
0.554600 0.064063 -0.002938
0.582017 0.029348 0.068540
0.576900 0.034816 0.006219
0.556959 -0.020023 0.005334
0.517538 0.001208 0.020349
0.556810 -0.007561 0.001524
0.550678 0.084258 0.064804
0.540671 0.060803 -0.005289
0.565020 -0.046351 0.063204
0.527825 0.027590 -0.002885
0.556716 -0.039392 0.072939
0.550978 0.050858 -0.007123
0.514154 0.019416 0.036381
0.535787 0.007849 -0.004196
0.528357 0.085718 0.053121
0.522911 0.065158 0.060704
0.590785 0.039040 0.045876
0.513315 0.047593 0.024828
0.538359 -0.000474 0.078598
0.564912 0.072922 0.005688
0.577827 0.032794 0.072794
0.566656 0.067537 0.068420
0.576940 0.050177 0.007157
0.525431 -0.026741 0.012198
0.563093 0.075787 0.065979
0.571763 0.016472 0.079180
0.561082 0.019464 -0.003468
0.570531 -0.040268 0.026149
0.580219 0.023689 0.011213
0.590149 0.012286 0.035138
0.538437 0.094538 0.018232
0.590978 0.015900 0.037690
0.513746 0.047396 0.022228
0.513898 0.053510 0.042803
0.522345 0.084445 0.032183
0.514341 0.017958 0.037085
0.556152 0.033623 0.082902
0.567890 0.072955 0.007963
0.575865 0.007269 0.010677
0.518218 0.053584 0.010523
0.533076 0.093994 0.046354
0.526037 -0.052776 0.049423
0.545817 0.039031 0.081755
0.579685 0.044663 0.009463
0.542635 0.009630 -0.005817
0.537467 -0.072272 0.048598
0.518884 0.007308 0.013005
0.564675 -0.050063 0.060436
0.576019 -0.003048 0.014399
0.532825 0.026148 0.075855
0.583916 -0.010504 0.031192
0.586796 0.061278 0.042838
0.564069 0.047850 0.078087
0.589058 0.028211 0.025558
0.562239 0.004981 0.084551
0.587792 0.034676 0.057983
0.542742 0.055348 0.076796
0.563115 -0.001600 0.002996
0.547362 0.024715 0.083703
0.557653 -0.055343 0.063187
0.560526 0.100475 0.035289
0.559912 -0.061286 0.027706
0.529475 0.079228 0.060628
0.567424 0.066006 0.004402
0.561571 0.048355 -0.003816
0.533587 -0.019158 0.071219
0.559993 0.005680 -0.001006
0.564149 0.025875 -0.002643
0.552508 -0.069865 0.027066
0.548509 0.006252 -0.004838
0.523218 0.085721 0.031886
0.578479 -0.032470 0.039931
0.542202 -0.075456 0.045878
0.529353 0.091456 0.024652
0.527927 0.061815 0.000931
0.571375 -0.047935 0.044584
0.531849 0.075805 0.004356
0.562690 0.005706 0.000531
0.559617 -0.063745 0.047404
0.562844 0.032969 0.081590
0.574479 -0.024000 0.066421
0.584570 0.047913 0.059565
0.514032 0.019679 0.034059
0.527997 0.060250 0.067624
0.542851 -0.077347 0.040363
0.518412 0.044557 0.008516
0.524940 0.087727 0.040631
0.578852 -0.020914 0.061423
0.519317 0.007293 0.055355
0.517339 0.004232 0.046984
0.569718 -0.041725 0.025895
0.554413 0.070072 -0.000948
0.543322 -0.014965 0.001260
0.560241 0.038045 -0.005255
0.557845 0.090567 0.057928
0.521746 -0.007863 0.055796
0.513815 0.052097 0.042611
0.531057 -0.008860 0.071223
0.571996 -0.013947 0.074401
0.545207 0.018953 -0.007470
0.543695 0.013565 -0.006626
0.563366 -0.049882 0.062339
0.517019 0.011886 0.049055
0.553003 -0.044426 0.011084
0.570670 -0.037592 0.024371
0.525566 -0.060892 0.014393
0.556236 -0.040620 0.072438
0.525938 0.020304 0.068835
0.542756 0.006932 0.082110
0.573247 0.085567 0.045947
0.571945 0.089842 0.038481
0.528264 0.059661 0.068009
0.524699 -0.074698 0.026701
0.574968 -0.013287 0.071163
0.555218 0.030381 0.083394
0.569429 -0.010654 0.010701
0.531195 0.089295 0.052093
0.531100 -0.060207 0.053243
0.535945 0.082870 0.006678
0.587720 0.014329 0.025705
0.547412 0.068594 -0.002959
0.523133 0.058282 0.004555
0.520231 -0.012948 0.048699
0.568347 0.089402 0.021606
0.559898 0.097772 0.023400
0.522947 -0.023439 0.052228
0.572406 0.014578 0.078709
0.578145 0.065127 0.014943
0.523830 0.085903 0.028442
0.550461 0.088076 0.062088
0.570597 0.022676 0.079534
0.533921 0.024014 0.076720
0.545158 0.032569 0.082458
0.588309 0.041925 0.054280
0.553306 0.073051 0.070416
0.570832 0.090378 0.028832
0.540084 0.024033 0.080988
0.588499 0.031592 0.056848
0.584721 -0.001140 0.059730
0.532311 0.094118 0.044471
0.531132 0.001859 0.072919
0.514695 0.026150 0.044134
0.516955 0.051938 0.054455
0.559593 -0.064429 0.044874
0.558460 0.033586 0.082561
0.586717 0.050815 0.053419
0.542055 0.072561 0.070450
0.586535 0.007722 0.025824
0.557977 0.059737 -0.002941
0.537968 0.026637 0.079691
0.514896 0.011147 0.034680
0.528280 -0.025054 0.063065
0.522161 -0.051565 0.041463
0.517837 -0.008994 0.041139
0.531003 0.062848 -0.000951
0.556274 0.063396 -0.002541
0.584988 0.066698 0.041203
0.557993 0.089650 0.012366
0.519721 -0.028723 0.025312
0.535540 0.021960 -0.006385
0.516791 0.071559 0.028367
0.585934 0.060153 0.047820
0.582007 0.056239 0.059262
0.540121 -0.077898 0.028529
0.537284 0.081349 0.004820
0.536629 0.017570 -0.006187
0.584483 0.068455 0.037818
0.578775 0.040886 0.008073
