ply
format ascii 1.0
element vertex 1024
property float x
property float y
property float z
end_header
0.549949 0.072616 0.091359
0.579167 -0.000021 0.058096
0.580058 -0.004899 0.056615
0.533337 0.129637 0.039033
0.530777 -0.001823 0.013921
0.579596 0.052926 0.053005
0.543575 0.124665 0.039570
0.491153 0.056173 0.046461
0.584351 0.000874 0.031905
0.570322 0.047378 0.030413
0.497250 0.086814 0.027028
0.499862 0.123735 0.055974
0.517234 0.000959 0.025906
0.514888 0.028397 0.009916
0.505238 0.076329 0.016079
0.560454 0.048731 0.020636
0.581209 0.032238 0.049612
0.526640 0.125110 0.031516
0.550792 0.108623 0.085059
0.527249 0.089337 0.014020
0.509703 0.026250 0.013419
0.571780 -0.025513 0.020691
0.534440 0.135353 0.065418
0.555316 -0.010323 0.061862
0.589951 -0.016373 0.042452
0.549057 0.043822 0.085299
0.535534 0.108994 0.089101
0.510723 0.080628 0.086854
0.522045 0.033761 0.078691
0.527065 0.103882 0.090149
0.563312 0.039067 0.021277
0.529635 0.074908 0.011153
0.529201 -0.009735 0.019762
0.538113 -0.019552 0.043413
0.498924 0.069523 0.075458
0.507860 0.025084 0.061186
0.557260 0.037668 0.016693
0.525091 0.100469 0.017230
0.518734 0.097410 0.089557
0.537873 -0.007638 0.014341
0.505164 0.120130 0.035657
0.490618 0.086150 0.058539
0.517093 0.057765 0.086254
0.508502 0.113669 0.028047
0.528738 0.127140 0.034025
0.517276 0.091422 0.015302
0.523815 0.002161 0.015128
0.512263 0.048450 0.080444
0.546952 0.125366 0.045385
0.588671 -0.012730 0.046023
0.589544 -0.010624 0.043353
0.499978 0.092747 0.026172
0.496704 0.048040 0.061518
0.557862 0.032603 0.079553
0.506810 0.104243 0.024717
0.511682 0.032315 0.071432
0.506871 0.113945 0.078910
0.558357 0.113461 0.074212
0.515260 0.075170 0.088954
0.567059 0.074675 0.082477
0.491127 0.059644 0.053316
0.504636 0.019715 0.029510
0.523097 0.007153 0.012975
0.559410 0.112292 0.047510
0.491833 0.098358 0.047869
0.537542 0.125032 0.035005
0.535628 0.134613 0.051187
0.516475 0.127366 0.035070
0.508403 0.123110 0.035301
0.489948 0.078613 0.042426
0.551912 -0.030115 0.027942
0.489897 0.075293 0.041678
0.505247 0.054404 0.013825
0.557378 0.062229 0.020957
0.548148 -0.011901 0.014480
0.535232 0.120090 0.084491
0.580027 0.033518 0.059260
0.544036 -0.003808 0.064052
0.519825 0.133665 0.043106
0.495112 0.066952 0.026134
0.532045 -0.003269 0.059085
0.542505 0.080693 0.015424
0.538954 -0.001198 0.064248
0.531794 0.001170 0.012453
0.581096 -0.007868 0.024042
0.538787 0.043329 0.008449
0.564235 0.004641 0.016727
0.547656 0.122353 0.041291
0.511956 0.036666 0.010000
0.523259 0.000948 0.055933
0.526547 -0.005125 0.018150
0.526301 0.098182 0.016518
0.506954 0.078263 0.084607
0.510362 0.059869 0.011151
0.537443 0.127361 0.077703
0.522350 -0.006794 0.037825
0.516932 0.105455 0.087310
0.504101 0.070941 0.016081
0.538853 0.119298 0.029936
0.549614 0.018201 0.010698
0.521976 0.136610 0.067473
0.522385 0.056189 0.087676
0.563751 0.107517 0.070493
0.564806 0.075261 0.084379
0.578701 0.063125 0.057856
0.521453 0.100262 0.089887
0.489809 0.071577 0.041906
0.499629 0.052104 0.019649
0.564996 0.013232 0.070404
0.530420 0.073688 0.093031
0.517868 0.084608 0.090304
0.496253 0.099148 0.034638
0.553445 0.108338 0.033881
0.501374 0.109503 0.075003
0.571483 0.063462 0.037190
0.547777 0.048204 0.012079
0.520047 0.118279 0.025978
0.575545 0.079135 0.057963
0.567701 0.096850 0.074484
0.528800 0.067832 0.091922
0.508411 0.069439 0.084624
0.562878 0.089313 0.084219
0.539206 0.026525 0.079029
0.511414 0.056695 0.082984
0.500881 0.052627 0.072016
0.567490 0.016523 0.070234
0.562777 0.061954 0.025562
0.520790 0.010591 0.012558
0.526718 0.083253 0.093050
0.568200 0.023956 0.071953
0.542433 0.132279 0.059362
0.576199 0.067116 0.070623
0.540528 0.020040 0.076286
0.536029 0.039089 0.007682
0.507881 0.080302 0.085204
0.517179 0.105457 0.019919
0.542394 0.112102 0.026806
0.548422 0.015798 0.074602
0.506142 0.091452 0.083451
0.541956 0.030008 0.008429
0.537448 0.127188 0.037804
0.526463 0.131566 0.075550
0.499429 0.063038 0.020168
0.571295 0.031162 0.027340
0.551749 0.119373 0.043087
0.574073 0.006900 0.023382
0.550270 -0.029463 0.031047
0.524458 0.006133 0.012836
0.582383 -0.024973 0.025220
0.530886 0.074027 0.011155
0.518633 0.132863 0.073314
0.502639 0.123128 0.068256
0.518238 0.135477 0.068827
0.561048 0.114050 0.063885
0.532037 0.120800 0.084334
0.494828 0.043353 0.046925
0.553202 0.057568 0.016808
0.573433 -0.032825 0.030496
0.520036 0.043663 0.082440
0.566000 -0.005726 0.063181
0.571050 0.067408 0.078789
0.525047 0.067975 0.091228
0.512922 0.111231 0.083887
0.566688 0.104304 0.064483
0.539243 -0.021919 0.038982
0.544485 0.045331 0.010302
0.516226 0.059591 0.086429
0.501940 0.111087 0.032862
0.526023 -0.011042 0.036849
0.555009 0.095994 0.087548
0.566581 0.095795 0.077463
0.491363 0.095559 0.056194
0.581770 0.008320 0.032230
0.534782 0.110585 0.022744
0.519290 0.109956 0.086947
0.551903 0.069677 0.090624
0.526528 0.009180 0.065892
0.529925 0.115872 0.086738
0.546238 0.024901 0.078423
0.500757 0.121814 0.065573
0.545000 0.004778 0.010555
0.542154 0.084099 0.092927
0.517875 0.106319 0.087449
0.502829 0.084281 0.019987
0.562061 0.009225 0.016093
0.561129 0.036166 0.079671
0.563719 -0.017228 0.016125
0.516317 0.110142 0.022126
0.564276 0.050504 0.082547
0.585913 -0.009073 0.028288
0.500412 0.105385 0.075548
0.529544 0.035393 0.007135
0.518191 0.071664 0.010439
0.548455 0.030647 0.080552
0.567551 0.102885 0.060327
0.555455 0.109768 0.081118
0.558185 0.067186 0.088195
0.514880 0.005189 0.023361
0.556437 0.073284 0.022865
0.549156 0.043227 0.012238
0.545364 0.088889 0.019057
0.538680 0.120770 0.031147
0.491207 0.076777 0.061973
0.545759 0.109535 0.027506
0.495103 0.055355 0.063560
0.533387 0.134677 0.068205
0.524106 -0.005406 0.048204
0.491310 0.056797 0.040129
0.505686 0.017141 0.040531
0.508683 0.085740 0.085512
0.505002 0.061341 0.079793
0.574457 0.083890 0.060652
0.552540 -0.030393 0.028040
0.556296 0.104738 0.034812
0.519427 0.124474 0.080880
0.499971 0.118961 0.042381
0.520974 -0.005076 0.038651
0.504253 0.035860 0.065351
0.582448 0.017780 0.051751
0.573756 0.055405 0.038259
0.556207 0.108890 0.037860
0.590563 -0.015018 0.037977
0.546175 0.121759 0.038503
0.541993 0.061927 0.091028
0.557714 -0.029640 0.043349
0.572950 -0.032980 0.030715
0.539418 0.098441 0.019176
0.574912 0.079055 0.068482
0.554465 0.037380 0.014797
0.490368 0.083305 0.058056
0.577974 0.021548 0.061874
0.498545 0.074624 0.076206
0.520874 0.017464 0.068310
0.562385 0.105592 0.045253
0.500086 0.038009 0.059362
0.502084 0.027453 0.024888
0.497031 0.103102 0.035426
0.551408 0.076609 0.019817
0.513638 0.053484 0.009456
0.585268 0.005625 0.048297
0.521001 0.051060 0.008101
0.553611 0.040229 0.014570
0.507125 0.068278 0.013719
0.504227 0.042179 0.070221
0.506282 0.084439 0.017522
0.560984 -0.018989 0.056589
0.531196 0.135895 0.066910
0.552785 0.027883 0.078975
0.561911 0.096020 0.036865
0.568691 0.085807 0.042024
0.566952 -0.029744 0.023151
0.570767 0.032585 0.027098
0.582514 0.021250 0.047759
0.575953 0.072888 0.052096
0.539360 0.133298 0.064803
0.496243 0.042076 0.052710
0.493764 0.104832 0.061146
0.494994 0.088259 0.071825
0.494547 0.110253 0.057712
0.564029 0.108594 0.066939
0.572366 -0.021844 0.053749
0.578309 0.057932 0.066732
0.502953 0.071554 0.080575
0.537130 0.013379 0.008878
0.504487 0.035001 0.064965
0.545713 0.096245 0.090681
0.511746 0.044680 0.078479
0.491417 0.056121 0.050172
0.494420 0.043869 0.042038
0.559426 -0.026902 0.020764
0.578992 0.055256 0.051371
0.543662 -0.025840 0.033049
0.494317 0.053200 0.029555
0.525567 0.136417 0.048898
0.536172 0.028422 0.079613
0.506025 0.071906 0.083340
0.576971 0.003228 0.060504
0.521775 0.052621 0.086370
0.578518 0.054548 0.049026
0.499844 0.034128 0.024663
0.515184 0.003735 0.025883
0.552990 -0.024873 0.020091
0.530726 0.105740 0.089963
0.560581 0.106542 0.042704
0.564115 0.080800 0.084506
0.524892 0.007725 0.012022
0.560565 0.112730 0.051645
0.536269 0.006207 0.068238
0.571064 0.086129 0.074707
0.549891 0.126691 0.062460
0.580320 -0.022024 0.051032
0.504464 0.128804 0.063532
0.503293 0.107631 0.029483
0.551651 -0.018457 0.016666
0.530822 0.032724 0.007155
0.542873 0.104826 0.023294
0.531180 0.101396 0.018060
0.493726 0.046538 0.046525
0.569502 0.022077 0.023163
0.492015 0.096412 0.060069
0.523082 0.062663 0.089623
0.508494 0.016166 0.021509
0.575049 0.079005 0.067946
0.494148 0.100541 0.065816
0.541367 0.128544 0.073715
0.568516 0.090195 0.077453
0.576943 0.059656 0.046765
0.580064 0.043658 0.049379
0.495465 0.081980 0.072791
0.514934 0.033421 0.009190
0.570515 0.009635 0.021267
0.552091 0.034264 0.012999
0.494033 0.078162 0.029280
0.507633 0.024245 0.060032
0.578689 0.056156 0.050617
0.546175 -0.005467 0.063489
0.524375 0.113200 0.087114
0.497537 0.118872 0.058013
0.576034 0.013831 0.063156
0.510918 0.013338 0.053269
0.546908 -0.004658 0.064159
0.529587 0.133645 0.072066
0.512215 0.135411 0.054064
0.512579 0.102322 0.020446
0.532585 0.094482 0.092365
0.516527 0.009724 0.057885
0.573433 0.075695 0.046442
0.575489 0.012475 0.026326
0.540430 0.128090 0.075148
0.565334 -0.011506 0.015838
0.544101 0.131178 0.059312
0.492802 0.049337 0.044752
0.525502 0.040224 0.007300
0.529002 -0.001303 0.014349
0.532230 -0.001138 0.061106
0.567842 0.067662 0.033086
0.492901 0.059910 0.060783
0.517740 0.134244 0.070953
0.550269 0.062984 0.090117
0.493638 0.056803 0.030301
0.494889 0.092361 0.033547
0.496476 0.062181 0.024144
0.516390 0.091632 0.089269
0.497303 0.097192 0.073991
0.549981 0.114141 0.034613
0.554238 -0.031217 0.030845
0.566362 0.072780 0.083213
0.574268 -0.030646 0.026050
0.507643 0.014363 0.044051
0.578427 0.025394 0.061675
0.543461 0.007974 0.070762
0.491370 0.063001 0.035517
0.575521 0.077152 0.067562
0.491897 0.053839 0.039866
0.495650 0.107362 0.065623
0.577936 0.051721 0.068015
0.517137 0.134577 0.070057
0.510225 0.082623 0.014924
0.577672 0.063766 0.067333
0.527489 0.137141 0.065566
0.524880 0.085732 0.013060
0.490853 0.092856 0.048819
0.505358 0.056701 0.078552
0.578212 -0.030265 0.043892
0.536466 0.004471 0.010703
0.501643 0.100047 0.078559
0.566747 0.040170 0.078078
0.585742 -0.000675 0.049607
0.506836 0.026933 0.061309
0.569031 0.001800 0.018926
0.492250 0.097410 0.060524
0.552533 -0.000425 0.067066
0.526347 0.057991 0.008584
0.549109 0.062803 0.090314
0.554109 0.063899 0.089302
0.546829 0.126970 0.070603
0.552628 -0.003118 0.012600
0.581194 0.013841 0.056015
0.547389 0.043413 0.011358
0.520411 0.099558 0.017246
0.531958 0.070578 0.010723
0.534355 0.110605 0.022630
0.580601 0.030443 0.056871
0.522419 -0.005279 0.024694
0.554878 -0.005759 0.013275
0.527647 0.108968 0.088888
0.580984 -0.026539 0.025380
0.507604 0.091605 0.019185
0.504783 0.045326 0.072840
0.583020 -0.023325 0.048611
0.530199 -0.010565 0.048817
0.584121 -0.000100 0.052322
0.573833 0.050201 0.074468
0.558967 0.109434 0.042832
0.496862 0.081107 0.074938
0.533808 0.085454 0.093493
0.569879 0.045916 0.077478
0.511471 0.110274 0.024346
0.542135 0.092342 0.018372
0.508901 0.045807 0.011025
0.521291 0.099545 0.017123
0.490311 0.072763 0.038867
0.540450 0.091495 0.017406
0.512843 0.083039 0.014064
0.533760 0.134949 0.067246
0.535195 0.125678 0.034512
0.568820 -0.005688 0.017628
0.515084 0.017671 0.063702
0.580630 -0.005783 0.024505
0.529049 0.053155 0.088239
0.543249 0.002332 0.067646
0.566111 -0.006338 0.016400
0.507392 0.131395 0.064744
0.575381 0.028662 0.066677
0.543094 0.066146 0.012716
0.578662 0.030080 0.062001
0.505766 0.089582 0.083367
0.518844 0.030721 0.075494
0.563009 -0.029133 0.046722
0.586656 -0.006359 0.049065
0.543046 0.052158 0.010583
0.580912 -0.016086 0.053410
0.570861 0.038285 0.028686
0.565621 0.089703 0.038845
0.502647 0.054334 0.016181
0.521484 0.104501 0.088995
0.509775 0.012100 0.047843
0.552816 0.040988 0.014149
0.563664 0.106909 0.050210
0.543410 0.032594 0.081602
0.543495 0.085907 0.017195
0.500804 0.074250 0.019349
0.537567 -0.009080 0.057160
0.586902 -0.013728 0.048724
0.557153 -0.030559 0.040508
0.490716 0.073989 0.037203
0.496724 0.077858 0.024783
0.523101 0.014868 0.067925
0.519162 0.088457 0.090687
0.492815 0.095420 0.064233
0.517386 0.047110 0.082678
0.539730 -0.012720 0.054887
0.528877 -0.005793 0.053840
0.571154 -0.033486 0.031767
0.585863 -0.001734 0.049628
0.566881 -0.021231 0.017661
0.493129 0.048113 0.043375
0.556058 -0.002410 0.066052
0.569877 -0.026945 0.049947
0.554325 0.121950 0.055397
0.577387 0.070301 0.064032
0.523290 0.133931 0.043287
0.554248 0.105732 0.033055
0.514641 0.039353 0.008866
0.518945 0.109262 0.087037
0.545521 0.115746 0.031571
0.555439 0.033563 0.080547
0.525756 0.091310 0.014482
0.530654 0.018415 0.073654
0.535291 0.016445 0.008403
0.559062 0.100780 0.083210
0.579174 0.015558 0.032105
0.498559 0.061661 0.021242
0.527093 0.066564 0.091383
0.511492 0.008555 0.045060
0.498207 0.076258 0.076099
0.510587 0.107847 0.083550
0.501051 0.106875 0.075730
0.500167 0.036760 0.058125
0.519034 0.028947 0.074564
0.501713 0.123143 0.066303
0.511865 0.022760 0.064432
0.569558 0.050828 0.030331
0.581295 0.030525 0.052563
0.506617 0.090837 0.019526
0.537891 0.098260 0.018579
0.533698 0.041766 0.007586
0.565813 0.062466 0.083470
0.569452 0.045216 0.028697
0.525031 0.123303 0.029671
0.579908 0.049336 0.052294
0.559603 0.003156 0.014363
0.572975 0.051916 0.075769
0.527585 0.082097 0.093203
0.530078 -0.001481 0.014015
0.516777 0.109830 0.086092
0.497854 0.116862 0.045017
0.519369 0.011366 0.012930
0.528171 0.130889 0.039023
0.512637 0.039742 0.009518
0.490218 0.080001 0.041266
0.551608 0.124486 0.066944
0.566940 0.022802 0.072396
0.513569 0.125483 0.077920
0.489959 0.081222 0.043639
0.509086 0.084634 0.085805
0.545718 0.076704 0.016018
0.496978 0.036699 0.037166
0.536185 0.135414 0.055460
0.514360 0.114826 0.025342
0.533918 0.039465 0.007481
0.521517 0.097825 0.090366
0.525182 0.023442 0.008092
0.552114 -0.016845 0.056779
0.580677 0.033882 0.056695
0.501597 0.040591 0.017919
0.565323 0.065421 0.084016
0.509182 0.027360 0.013480
0.531064 0.062533 0.091076
0.525962 0.089100 0.013906
0.581076 0.029305 0.054695
0.493295 0.057165 0.031150
0.566667 0.025197 0.021466
0.529941 0.048971 0.007879
0.508162 0.015631 0.049927
0.503376 0.080461 0.018398
0.580874 0.012621 0.033210
0.585785 -0.026688 0.031481
0.552376 0.044017 0.084877
0.583516 0.011366 0.050968
0.491086 0.095029 0.052549
0.507729 0.068152 0.083873
0.505660 0.127118 0.043852
0.523336 0.137253 0.065867
0.552992 -0.026806 0.045461
0.500372 0.044539 0.066146
0.526664 0.113582 0.022841
0.542539 -0.015714 0.053528
0.497967 0.040341 0.025302
0.529715 0.137614 0.061998
0.564901 0.029008 0.020818
0.574603 -0.007048 0.059588
0.500543 0.122201 0.064507
0.571469 0.003759 0.064372
0.513509 0.038282 0.009286
0.509231 0.071909 0.013027
0.491514 0.086254 0.062735
0.500453 0.047055 0.018599
0.493710 0.071934 0.067639
0.563807 -0.012524 0.060461
0.559725 0.098708 0.035449
0.503903 0.036948 0.015840
0.577269 -0.002442 0.059206
0.536296 0.039663 0.007750
0.516156 0.120218 0.081982
0.509521 0.096633 0.085040
0.562753 0.111186 0.065336
0.560097 0.109883 0.045617
0.578525 0.038375 0.041727
0.493683 0.060393 0.029432
0.522674 0.137217 0.065884
0.531561 0.015023 0.072018
0.550594 0.108612 0.031036
0.544373 0.124309 0.077628
0.543540 0.092826 0.019220
0.521827 0.048419 0.007871
0.560929 0.004148 0.068340
0.530771 0.111663 0.088290
0.580583 0.043617 0.055154
0.567395 0.066189 0.082416
0.559202 0.002986 0.068180
0.505851 0.056370 0.078859
0.570013 0.053656 0.031763
0.499990 0.035433 0.023118
0.512682 0.120291 0.029900
0.506799 0.046167 0.075319
0.498889 0.042616 0.061465
0.538757 0.134255 0.061485
0.526039 0.116745 0.086038
0.535231 -0.018680 0.023753
0.538123 0.127668 0.039013
0.560305 -0.009509 0.014589
0.579466 0.035237 0.061205
0.563616 0.085856 0.084255
0.523466 0.009257 0.011952
0.497168 0.044780 0.025115
0.533772 0.055374 0.008860
0.546016 0.076542 0.016138
0.515672 0.005160 0.021483
0.519542 0.005980 0.057437
0.556135 0.057261 0.018934
0.517909 0.079141 0.090265
0.509681 0.019205 0.058312
0.510161 0.132808 0.048721
0.535143 0.035584 0.007420
0.532889 0.040727 0.007456
0.513021 0.005754 0.042402
0.494799 0.111813 0.051021
0.575146 0.037402 0.034692
0.551196 0.003344 0.011620
0.566887 0.072752 0.033453
0.523212 0.066836 0.009521
0.572235 0.064363 0.077495
0.529354 0.116606 0.086414
0.540006 0.013782 0.008914
0.562553 0.098085 0.081344
0.501833 0.081849 0.080714
0.565477 0.064477 0.029114
0.504541 0.020958 0.026399
0.501310 0.025834 0.039062
0.561548 0.021258 0.074410
0.494844 0.073191 0.026863
0.529265 -0.014659 0.033584
0.524836 0.024437 0.074912
0.547258 0.119332 0.036794
0.506024 0.078268 0.015979
0.588363 -0.022175 0.042887
0.572367 0.086450 0.071175
0.491938 0.098398 0.047076
0.491588 0.089768 0.040818
0.528703 0.070671 0.092404
0.547361 0.059095 0.013408
0.532710 0.010285 0.009671
0.512342 0.031529 0.071479
0.549921 0.000127 0.067261
0.518027 0.027681 0.073174
0.493315 0.087914 0.034602
0.523785 0.099784 0.090528
0.503731 0.036412 0.016192
0.506554 0.043954 0.073922
0.578475 0.064600 0.057871
0.561355 0.033555 0.018977
0.535215 0.026467 0.007449
0.532302 0.104567 0.019455
0.549222 -0.027550 0.023997
0.570340 0.096401 0.060646
0.503097 0.042651 0.015716
0.537984 -0.019333 0.021569
0.530378 0.119513 0.085081
0.583580 -0.025371 0.046489
0.506425 0.015936 0.041445
0.578953 0.008256 0.028516
0.503388 0.087638 0.081779
0.578653 0.013180 0.060039
0.520938 0.025832 0.008495
0.509997 0.107961 0.083149
0.539940 0.095495 0.091786
0.577450 0.052934 0.069170
0.563719 0.042069 0.080479
0.509982 0.009700 0.036559
0.497864 0.051272 0.022337
0.569026 0.093787 0.048721
0.522217 0.095735 0.090903
0.528876 0.094090 0.015439
0.549283 -0.014279 0.015228
0.502696 0.082394 0.081463
0.566649 0.104184 0.056926
0.520885 0.024327 0.008743
0.505522 0.020112 0.049736
0.582906 0.017628 0.042321
0.508011 0.119990 0.077116
0.535135 0.020523 0.007888
0.556752 -0.011843 0.061050
0.506334 0.024811 0.017664
0.502694 0.048892 0.015856
0.547931 0.118665 0.036827
0.574896 0.063422 0.043588
0.530182 0.124229 0.031201
0.547869 0.109943 0.085921
0.509750 0.106676 0.023714
0.545057 0.016455 0.009341
0.561807 0.017186 0.072916
0.587969 -0.006699 0.046528
0.499360 0.058305 0.020181
0.508030 0.130202 0.068491
0.581185 -0.012541 0.022611
0.517637 0.037861 0.078704
0.581381 0.030572 0.050374
0.531411 0.098045 0.091699
0.524035 0.122079 0.028586
0.573535 0.067395 0.042495
0.512291 0.098392 0.019177
0.525253 0.010213 0.011034
0.523465 -0.007741 0.039948
0.547834 0.030734 0.010482
0.580935 0.008471 0.031117
0.553848 0.110232 0.082182
0.515907 0.001910 0.042705
0.550780 -0.008563 0.062434
0.535488 0.135619 0.054887
0.509812 0.123192 0.034236
0.527508 -0.000093 0.014417
0.504618 0.041259 0.014335
0.489387 0.073810 0.048564
0.573916 -0.020260 0.019077
0.551744 0.095540 0.089060
0.492289 0.054562 0.036178
0.584986 -0.004815 0.029482
0.512161 0.044140 0.009565
0.544473 0.116260 0.084278
0.512908 0.008674 0.050280
0.550141 0.090762 0.090508
0.518153 -0.000087 0.045543
0.574827 0.081557 0.057117
0.545883 -0.024945 0.042017
0.501075 0.041230 0.018535
0.527451 0.109378 0.020815
0.577016 -0.006787 0.021712
0.576341 -0.032619 0.034751
0.561505 -0.033476 0.031556
0.504814 0.088273 0.019843
0.564098 0.102950 0.075648
0.547087 0.125974 0.072364
0.503160 0.126626 0.048214
0.507148 0.077379 0.084709
0.541682 0.065359 0.091746
0.550993 0.099289 0.088355
0.563463 0.045717 0.022568
0.543719 0.084073 0.092686
0.564992 0.105275 0.051707
0.566812 0.081559 0.081945
0.507617 0.031010 0.066043
0.519672 0.039924 0.080665
0.527088 0.028070 0.077682
0.509537 0.125398 0.075173
0.545832 0.077094 0.016170
0.546955 0.064678 0.091000
0.540603 0.066854 0.011999
0.587273 -0.005937 0.047846
0.525501 0.095626 0.015707
0.557621 0.016913 0.073958
0.543054 0.001339 0.011140
0.569281 0.088793 0.076820
0.543287 0.067522 0.091960
0.549260 0.051875 0.013357
0.568154 0.094592 0.075473
0.513277 0.125739 0.077584
0.533327 0.136143 0.064154
0.544320 -0.015949 0.016616
0.504415 0.065589 0.080496
0.515943 0.122686 0.080672
0.497307 0.041588 0.026457
0.489839 0.084544 0.052107
0.587256 0.000295 0.044512
0.510083 0.106858 0.023594
0.589264 -0.019046 0.031535
0.573269 0.004696 0.063557
0.533822 -0.010417 0.017071
0.553268 0.066468 0.089893
0.494726 0.100128 0.038273
0.584549 -0.028865 0.036861
0.530449 0.056461 0.089429
0.499044 0.044367 0.021213
0.557066 0.119154 0.057239
0.586819 0.002910 0.042663
0.532136 0.097966 0.017057
0.520135 0.043066 0.007752
0.560007 -0.033110 0.030661
0.538725 -0.013955 0.017110
0.491354 0.080241 0.036578
0.536500 0.078039 0.012984
0.494356 0.044373 0.045439
0.534534 0.136003 0.054921
0.567530 -0.017771 0.057042
0.518302 -0.001908 0.035108
0.552973 0.024534 0.012626
0.554707 0.109664 0.081830
0.567953 0.101544 0.057456
0.539904 0.098359 0.019340
0.560148 0.024868 0.076112
0.548287 0.098650 0.089469
0.551314 0.073675 0.091072
0.495841 0.115018 0.055765
0.550494 0.099620 0.026530
0.504435 0.071790 0.015926
0.542828 0.067235 0.012808
0.539390 0.009130 0.070750
0.499929 0.061062 0.019549
0.543992 -0.019042 0.050545
0.548256 -0.028381 0.032499
0.528544 0.005090 0.063979
0.546293 0.073516 0.092199
0.568408 0.099269 0.068904
0.566333 0.104866 0.057104
0.506146 0.017413 0.045729
0.577293 0.034618 0.065494
0.527892 0.042917 0.007368
0.506030 0.062517 0.013918
0.553089 0.087435 0.024298
0.497100 0.112220 0.065641
0.575485 0.074100 0.051353
0.567162 -0.032194 0.042500
0.576887 0.072382 0.056314
0.582555 -0.027051 0.045569
0.556351 0.075622 0.023402
0.529869 0.092769 0.092564
0.547959 0.042315 0.084906
0.504460 0.020203 0.029048
0.582160 -0.017901 0.022684
0.492079 0.091996 0.063009
0.578207 -0.032105 0.034981
0.489620 0.078176 0.045070
0.571899 -0.032957 0.029577
0.527161 0.101002 0.017483
0.490632 0.077383 0.059785
0.524139 0.065772 0.090590
0.571675 0.087646 0.072284
0.509739 0.031905 0.069254
0.498149 0.107966 0.036444
0.562918 -0.006078 0.015246
0.566288 0.039073 0.078011
0.505205 0.127528 0.045440
0.527072 0.116136 0.086405
0.525985 -0.001163 0.056336
0.553241 -0.030080 0.036373
0.537111 0.086174 0.093297
0.563083 -0.010534 0.061570
0.498606 0.097322 0.030053
0.540064 0.125788 0.078405
0.495717 0.049834 0.026979
0.559549 0.040239 0.081701
0.578045 0.067408 0.061549
0.498383 0.111785 0.068956
0.525690 0.037596 0.007253
0.520864 0.130430 0.076598
0.547689 -0.028208 0.028544
0.513530 0.045199 0.009109
0.561706 -0.008772 0.062579
0.526123 0.005980 0.012285
0.545835 0.061199 0.090481
0.510308 0.013574 0.052245
0.579631 0.051004 0.051755
0.578309 0.038171 0.041112
0.500340 0.051647 0.018679
0.555621 0.097211 0.086869
0.498508 0.040881 0.023535
0.539789 0.025107 0.007976
0.530382 0.016238 0.072320
0.570982 0.074034 0.078251
0.555196 0.083427 0.089579
0.521697 0.123798 0.081817
0.589322 -0.008144 0.036892
0.571402 -0.003119 0.062332
0.575379 0.077323 0.054031
0.580732 -0.024933 0.048880
0.558965 0.067751 0.087890
0.556002 -0.031829 0.029117
0.577014 0.038860 0.038579
0.496248 0.038906 0.036565
0.563616 0.078460 0.031244
0.531187 0.115467 0.024563
0.568105 0.097666 0.072585
0.494067 0.061795 0.028387
0.536706 -0.008186 0.014874
0.557699 0.005708 0.013668
0.531920 0.066075 0.091918
0.502968 0.022485 0.032902
0.540770 -0.020571 0.045031
0.550057 0.098034 0.089040
0.572085 0.036598 0.072572
0.572648 0.089672 0.064413
0.568572 -0.032375 0.026656
0.517435 -0.000477 0.030940
0.552649 0.073797 0.020036
0.577037 -0.010656 0.020708
0.526072 -0.011076 0.036999
0.546552 0.101078 0.089359
0.491232 0.055712 0.045228
0.531807 0.066258 0.091946
0.561377 0.019330 0.073803
0.576184 0.049744 0.040849
0.560612 0.031551 0.078266
0.502805 0.117309 0.036112
0.559243 0.101988 0.082411
0.526698 -0.011750 0.029775
0.575926 0.073598 0.068643
0.525152 -0.003369 0.017962
0.555223 0.089696 0.088832
0.564208 0.067139 0.028437
0.575861 0.052542 0.072020
0.526268 0.125666 0.032049
0.530990 0.107012 0.020233
0.496059 0.063962 0.069582
0.564654 0.095092 0.040542
0.525388 0.038695 0.007277
0.531280 0.106152 0.089877
0.490872 0.059918 0.039778
0.492953 0.096600 0.040813
0.527247 0.080908 0.093140
0.582472 0.021266 0.048555
0.494987 0.105653 0.041616
0.495698 0.045574 0.029060
0.553516 0.056566 0.088137
0.543700 -0.005154 0.063060
0.529134 0.054358 0.088625
0.509998 0.039171 0.074335
0.537824 0.133475 0.066721
0.506885 0.042243 0.073273
0.565974 0.094944 0.042827
0.551688 0.099480 0.027461
0.543910 0.127427 0.044770
0.564014 0.065645 0.027814
0.500671 0.066134 0.018850
0.527654 0.105211 0.089883
0.536945 0.039873 0.084382
0.568204 0.100354 0.055517
0.524753 0.132700 0.041256
0.565930 -0.006167 0.016342
0.507707 0.074272 0.014197
0.525203 0.074714 0.092291
0.571276 0.052437 0.077647
0.562913 -0.027989 0.021457
0.578104 0.055670 0.048207
0.529606 -0.015038 0.031287
0.537208 0.029712 0.080258
0.524348 0.065921 0.009415
0.522943 0.019317 0.070854
0.495174 0.086574 0.072338
0.494038 0.077857 0.029186
0.512579 0.055331 0.083208
0.502487 0.036887 0.017657
0.492007 0.059862 0.057692
0.508840 0.091075 0.018282
0.553462 0.035411 0.081648
0.509046 0.060002 0.011812
0.534530 -0.018309 0.024230
0.509339 0.131937 0.067329
0.556097 -0.022426 0.052818
0.522507 0.118668 0.025998
0.531972 0.098904 0.091545
0.545923 0.084135 0.092299
0.538285 0.022583 0.007894
0.556372 0.043507 0.083826
0.549067 0.061801 0.090132
0.564233 -0.028541 0.047793
0.567156 0.047500 0.079996
0.543111 0.128424 0.045689
0.527312 -0.000757 0.057957
0.561858 -0.032192 0.026059
0.541477 0.132658 0.055802
0.564700 0.106129 0.069954
0.533756 -0.013883 0.048085
0.556069 0.118227 0.071358
0.553408 0.042684 0.084243
0.544890 -0.025926 0.036809
0.496641 0.063721 0.023837
0.511902 0.006827 0.035720
0.490038 0.073347 0.056150
0.565654 0.067570 0.030227
0.524215 0.100459 0.017234
0.565237 -0.033842 0.030562
0.571612 0.091775 0.056094
0.535952 0.129321 0.040084
0.510898 0.008875 0.042679
0.551854 0.052900 0.015086
0.559246 0.051040 0.020111
0.544838 -0.006307 0.062589
0.543926 0.106765 0.088425
0.572763 0.028237 0.069424
0.550454 0.074716 0.091349
0.500033 0.121782 0.046637
0.553671 0.037671 0.014318
0.552232 0.098162 0.027387
0.537521 0.033157 0.007646
0.506283 0.016657 0.029184
0.567964 0.060756 0.081660
0.569966 0.055962 0.079413
0.529373 -0.014618 0.029021
0.556246 0.058335 0.019238
0.567097 -0.003308 0.063852
0.543996 -0.002517 0.064878
0.589821 -0.011633 0.042659
0.526134 -0.004381 0.017915
0.535300 0.062681 0.010071
0.518043 0.044346 0.008081
0.497144 0.113437 0.064741
0.501587 0.118361 0.070372
0.523932 0.099796 0.017018
0.586488 -0.025386 0.030719
0.505873 0.016661 0.033609
0.501904 0.063257 0.017496
0.546357 0.024493 0.078254
0.523856 0.128365 0.035014
0.561721 -0.014939 0.015458
0.549766 0.123708 0.072874
0.517064 0.042394 0.080560
0.550771 0.107427 0.085606
0.566975 0.103856 0.063768
0.560458 0.033663 0.018366
0.514723 0.119994 0.081451
0.517784 0.130262 0.075985
0.558968 0.022633 0.015917
0.495993 0.043609 0.029583
0.517729 0.094413 0.089588
0.544715 0.128642 0.048795
0.503647 0.121197 0.038597
0.494754 0.051822 0.028850
0.523549 0.063517 0.009129
0.509433 0.068220 0.012442
0.492020 0.066895 0.061825
0.500290 0.105486 0.031879
0.508189 0.119786 0.077374
0.516324 0.061548 0.009481
0.492967 0.056780 0.058629
0.502456 0.026291 0.050010
0.526445 0.133149 0.042294
0.533666 0.043301 0.007687
0.557323 0.072958 0.023490
0.542674 0.096396 0.019924
0.546633 -0.026417 0.038703
0.499164 0.065475 0.020505
0.491449 0.075911 0.062649
0.508806 0.108156 0.025010
0.519577 0.036386 0.078931
0.545144 0.095990 0.090858
0.518029 0.064715 0.009552
0.566825 0.059114 0.029197
0.548762 0.018922 0.010389
0.573390 -0.003429 0.020431
0.565858 0.038591 0.023374
0.563287 0.106377 0.073419
0.545229 0.099947 0.089972
0.496131 0.092373 0.073210
0.528057 0.123697 0.082523
0.579221 0.020144 0.034531
0.573752 0.066268 0.075352
0.553717 0.116866 0.042828
0.493057 0.085426 0.067751
0.489996 0.082060 0.055879
0.574665 -0.032871 0.038176
0.550294 0.121993 0.074957
0.573948 0.061745 0.075306
0.498128 0.094409 0.075793
0.527708 0.071436 0.092369
