ply
format ascii 1.0
element vertex 1024
property float x
property float y
property float z
end_header
0.580240 0.024194 0.080926
0.604922 -0.047610 0.042570
0.605749 -0.052473 0.041006
0.546152 0.077864 0.033779
0.546826 -0.054370 0.012982
0.600040 0.005004 0.036459
0.556506 0.073607 0.031664
0.513040 0.002118 0.053725
0.602896 -0.047415 0.015934
0.585549 -0.002040 0.017287
0.511467 0.032299 0.032742
0.518901 0.070434 0.059168
0.536776 -0.052018 0.028090
0.528238 -0.025454 0.012747
0.517025 0.021940 0.020274
0.573370 -0.001733 0.010477
0.602233 -0.015650 0.033186
0.538058 0.072607 0.028421
0.576698 0.059899 0.073889
0.536671 0.036287 0.012140
0.524342 -0.027799 0.017552
0.589804 -0.075002 0.009034
0.553780 0.084684 0.058786
0.583759 -0.059312 0.052785
0.612360 -0.063820 0.024954
0.579921 -0.004814 0.075921
0.563074 0.059418 0.081853
0.540740 0.029403 0.086905
0.552951 -0.016897 0.076981
0.555590 0.053802 0.085233
0.577007 -0.011154 0.010530
0.539279 0.021945 0.009038
0.547449 -0.062131 0.019194
0.563018 -0.070388 0.039800
0.527203 0.017096 0.079308
0.535320 -0.027185 0.064087
0.570079 -0.013132 0.007761
0.534617 0.047370 0.015580
0.547907 0.046773 0.087022
0.554193 -0.059681 0.011610
0.518881 0.066383 0.038253
0.513494 0.032450 0.064885
0.548407 0.007007 0.085096
0.520554 0.059860 0.030162
0.540589 0.074870 0.030235
0.527267 0.037755 0.015998
0.540157 -0.050812 0.015923
0.542918 -0.002832 0.080981
0.561242 0.074760 0.036349
0.611805 -0.060131 0.028661
0.611779 -0.058080 0.025813
0.513421 0.038362 0.031066
0.522973 -0.005024 0.066915
0.587698 -0.015644 0.068263
0.518747 0.050218 0.027601
0.541173 -0.019315 0.072787
0.532449 0.062049 0.079594
0.580735 0.064792 0.061318
0.546065 0.024345 0.087828
0.594181 0.027028 0.067754
0.514574 0.005849 0.060265
0.524224 -0.034011 0.034542
0.538524 -0.045968 0.013938
0.574756 0.062636 0.035335
0.510924 0.044278 0.054029
0.549469 0.073390 0.028870
0.551205 0.083459 0.044774
0.529060 0.074324 0.034515
0.521678 0.069555 0.036983
0.509140 0.024251 0.049697
0.572969 -0.080619 0.021425
0.509140 0.020908 0.049058
0.518069 -0.000008 0.018553
0.569493 0.011533 0.011330
0.564424 -0.063244 0.009086
0.560735 0.070277 0.077264
0.603559 -0.014068 0.042770
0.573010 -0.053478 0.057775
0.533942 0.081145 0.041232
0.510655 0.012319 0.032862
0.560125 -0.053933 0.056184
0.552353 0.028736 0.009593
0.567982 -0.051205 0.059269
0.547192 -0.051377 0.011234
0.598333 -0.056660 0.009409
0.549713 -0.009040 0.004639
0.579253 -0.045596 0.006610
0.561058 0.071640 0.032278
0.524827 -0.017400 0.013441
0.550529 -0.050436 0.055408
0.544127 -0.057775 0.018255
0.535762 0.045141 0.014618
0.536696 0.026705 0.085796
0.521871 0.005673 0.014497
0.560519 0.077404 0.069984
0.545432 -0.058935 0.038366
0.544980 0.054585 0.085173
0.516334 0.016493 0.020692
0.549813 0.067559 0.023754
0.562590 -0.033286 0.004430
0.542249 0.085193 0.064071
0.553989 0.005843 0.085084
0.585377 0.059076 0.056416
0.592476 0.027539 0.070176
0.599706 0.015306 0.041161
0.550396 0.049810 0.086554
0.509392 0.017206 0.049378
0.514384 -0.002442 0.025713
0.593574 -0.034847 0.057942
0.561830 0.024035 0.087735
0.548226 0.033982 0.088237
0.511607 0.044833 0.040086
0.565703 0.057757 0.023881
0.526459 0.057101 0.077390
0.587263 0.014342 0.023174
0.558955 -0.003439 0.005633
0.530761 0.065140 0.024989
0.595508 0.031063 0.041778
0.591027 0.048862 0.059425
0.560414 0.018045 0.087220
0.538759 0.018005 0.085605
0.589533 0.041415 0.070248
0.570077 -0.022961 0.072869
0.542161 0.005434 0.083485
0.529430 0.000244 0.075817
0.595681 -0.031407 0.057043
0.575925 0.011799 0.014329
0.535939 -0.042710 0.014082
0.557563 0.033326 0.088545
0.596266 -0.023881 0.058357
0.560088 0.081909 0.050879
0.600388 0.019627 0.054048
0.571104 -0.029448 0.070007
0.547174 -0.013481 0.004724
0.537594 0.028824 0.086082
0.527353 0.051925 0.020183
0.552923 0.060495 0.019941
0.578562 -0.033221 0.066363
0.534627 0.039756 0.084628
0.553747 -0.022112 0.004047
0.549960 0.075645 0.031548
0.549080 0.080783 0.070757
0.513515 0.008467 0.026041
0.586878 -0.018265 0.014401
0.565691 0.069012 0.032976
0.590307 -0.042428 0.010345
0.572165 -0.079955 0.024842
0.539871 -0.046900 0.013461
0.601157 -0.073581 0.010552
0.540547 0.021150 0.008724
0.540863 0.081468 0.070669
0.524872 0.070501 0.070272
0.539099 0.083869 0.066398
0.580540 0.065147 0.050637
0.557569 0.070767 0.077953
0.517651 -0.010401 0.053454
0.564726 0.006444 0.008545
0.594537 -0.081793 0.018189
0.551276 -0.007009 0.080925
0.594037 -0.053969 0.051105
0.597581 0.019901 0.063285
0.556611 0.017911 0.087551
0.539787 0.059941 0.082828
0.586846 0.055828 0.049907
0.563105 -0.072849 0.035277
0.555533 -0.006593 0.004860
0.547484 0.008777 0.085458
0.515714 0.057042 0.036609
0.549021 -0.062966 0.036531
0.582353 0.047686 0.075421
0.590819 0.047854 0.062617
0.512888 0.041787 0.062233
0.599946 -0.040150 0.016783
0.544642 0.058317 0.018094
0.546815 0.059214 0.084100
0.582142 0.021365 0.079757
0.555698 -0.041616 0.063959
0.556542 0.065810 0.080935
0.576798 -0.024138 0.070440
0.522449 0.068959 0.068217
0.559116 -0.046981 0.005802
0.572307 0.035189 0.084284
0.545859 0.055514 0.085037
0.515153 0.029864 0.024520
0.576654 -0.041195 0.006486
0.590604 -0.011870 0.067430
0.580226 -0.067458 0.006619
0.526760 0.056627 0.022442
0.593325 0.002748 0.069064
0.604179 -0.057372 0.012237
0.525985 0.052953 0.078258
0.541070 -0.017617 0.006007
0.528329 0.017924 0.011476
0.579066 -0.018177 0.071780
0.586681 0.054306 0.045702
0.580051 0.061192 0.068823
0.587723 0.019201 0.075789
0.533524 -0.048058 0.026180
0.568271 0.022569 0.013192
0.560693 -0.008304 0.005519
0.555454 0.037241 0.012161
0.549858 0.069064 0.024937
0.515669 0.023281 0.068230
0.556535 0.058188 0.019769
0.521431 0.002244 0.069159
0.553557 0.084051 0.061766
0.549768 -0.057022 0.047867
0.511466 0.002499 0.047570
0.528347 -0.036069 0.044933
0.538042 0.034311 0.086051
0.534804 0.009513 0.082029
0.594820 0.035838 0.044561
0.573619 -0.080851 0.021357
0.568959 0.054393 0.024091
0.544257 0.073457 0.077919
0.515759 0.065141 0.046143
0.544200 -0.057281 0.039494
0.532155 -0.016515 0.068841
0.605068 -0.029897 0.035214
0.590333 0.006503 0.023763
0.569372 0.058648 0.026965
0.611662 -0.062606 0.020451
0.558940 0.070839 0.030000
0.573300 0.012996 0.082955
0.582595 -0.079148 0.034707
0.594142 -0.081971 0.018533
0.549057 0.046374 0.013668
0.597694 0.031360 0.052082
0.566911 -0.013680 0.006687
0.513338 0.029577 0.064545
0.603170 -0.026035 0.046084
0.526657 0.022186 0.080025
0.550287 -0.033636 0.067629
0.577516 0.056063 0.032504
0.526401 -0.014886 0.064141
0.519969 -0.026648 0.030612
0.512269 0.048857 0.040555
0.562380 0.025429 0.011531
0.525046 -0.000543 0.012121
0.607769 -0.041967 0.031383
0.531946 -0.002526 0.008897
0.565817 -0.010905 0.006637
0.518813 0.013945 0.017663
0.532949 -0.010023 0.073410
0.517807 0.030153 0.021219
0.588455 -0.067787 0.046369
0.551017 0.085069 0.061080
0.583016 -0.020709 0.069160
0.575551 0.046155 0.024748
0.584197 0.036627 0.028116
0.586130 -0.079443 0.012782
0.586200 -0.016891 0.014280
0.603814 -0.026591 0.031278
0.594810 0.024629 0.036146
0.558501 0.082937 0.056921
0.520640 -0.011351 0.058676
0.515818 0.051388 0.066171
0.521066 0.035371 0.076472
0.515256 0.056709 0.062541
0.584623 0.060027 0.052895
0.598857 -0.069991 0.040650
0.602069 0.010456 0.049925
0.532281 0.019591 0.083120
0.550464 -0.038994 0.006113
0.532341 -0.017371 0.068424
0.574228 0.047445 0.080918
0.542180 -0.006703 0.079304
0.514281 0.002232 0.057230
0.515925 -0.010108 0.048845
0.578050 -0.077203 0.012435
0.598853 0.007222 0.034998
0.566073 -0.076701 0.028461
0.511821 -0.001308 0.036654
0.540792 0.084500 0.045220
0.567174 -0.021247 0.074204
0.535941 0.020255 0.084955
0.603207 -0.044421 0.045410
0.553322 0.002193 0.084062
0.597829 0.006392 0.032880
0.517258 -0.020151 0.030856
0.534593 -0.049387 0.028559
0.571533 -0.075633 0.013465
0.558922 0.055889 0.084036
0.575036 0.056790 0.030511
0.591432 0.033020 0.070369
0.539954 -0.045317 0.012529
0.576930 0.063313 0.039002
0.565907 -0.043842 0.063678
0.595118 0.038405 0.058962
0.568495 0.076955 0.051985
0.605797 -0.069752 0.035910
0.524952 0.076093 0.065116
0.516377 0.053552 0.033062
0.568861 -0.069461 0.010391
0.542503 -0.020193 0.005739
0.552995 0.053133 0.016579
0.540622 0.048731 0.014734
0.516248 -0.007315 0.053298
0.584724 -0.027607 0.011043
0.514478 0.042834 0.065774
0.554693 0.012421 0.086640
0.526076 -0.037611 0.025877
0.597687 0.031298 0.051531
0.517745 0.047321 0.070656
0.563147 0.078685 0.065068
0.593093 0.042399 0.062204
0.595334 0.011290 0.031017
0.600220 -0.004349 0.033031
0.522243 0.029180 0.077407
0.527716 -0.020470 0.011931
0.586122 -0.040021 0.009203
0.564384 -0.017015 0.005654
0.509616 0.023549 0.035949
0.534859 -0.028083 0.063053
0.598295 0.008070 0.034334
0.575041 -0.055013 0.056696
0.551506 0.062793 0.082835
0.517569 0.065511 0.061855
0.602219 -0.033807 0.047996
0.537037 -0.039007 0.055885
0.575863 -0.054131 0.057129
0.551004 0.082924 0.066523
0.529401 0.082818 0.053786
0.523304 0.048516 0.021984
0.562185 0.044884 0.086085
0.543921 -0.042056 0.058907
0.590680 0.027035 0.031314
0.592033 -0.036658 0.012689
0.562659 0.078227 0.066708
0.581277 -0.061657 0.005793
0.561760 0.080919 0.050408
0.514681 -0.004656 0.051779
0.536867 -0.013062 0.007146
0.545195 -0.053953 0.013858
0.560680 -0.051716 0.058038
0.582363 0.018125 0.020107
0.518239 0.006529 0.066978
0.539276 0.082691 0.068605
0.580936 0.014563 0.079843
0.511098 0.002269 0.037480
0.510512 0.037932 0.039538
0.511793 0.007575 0.030678
0.546008 0.040845 0.087490
0.523195 0.044516 0.077758
0.562135 0.063341 0.025392
0.576057 -0.081448 0.023622
0.593847 0.025122 0.068689
0.593999 -0.079742 0.013638
0.531368 -0.038569 0.047858
0.603266 -0.022178 0.045692
0.573358 -0.041503 0.064150
0.509839 0.008505 0.042983
0.598177 0.029466 0.051073
0.512181 -0.000422 0.047220
0.518630 0.054213 0.069928
0.602513 0.004289 0.051388
0.538434 0.082948 0.067896
0.521044 0.028500 0.017699
0.601181 0.016254 0.050553
0.547004 0.086011 0.060749
0.534407 0.032497 0.011923
0.510644 0.038765 0.055320
0.535163 0.004862 0.080834
0.602491 -0.078391 0.029765
0.550974 -0.047846 0.008231
0.528365 0.047831 0.080939
0.595285 -0.007568 0.064311
0.609041 -0.048164 0.032649
0.534231 -0.025405 0.064440
0.584659 -0.048023 0.007505
0.514751 0.043864 0.066130
0.581726 -0.049423 0.058338
0.536697 0.004759 0.007791
0.579886 0.014313 0.080346
0.584343 0.015698 0.078013
0.567690 0.077354 0.060643
0.567579 -0.054265 0.005896
0.605286 -0.033738 0.039738
0.558747 -0.008270 0.005140
0.530191 0.046152 0.016865
0.541720 0.017765 0.008093
0.544200 0.058304 0.018098
0.603706 -0.017191 0.040379
0.541905 -0.057942 0.025666
0.570117 -0.056722 0.006000
0.555437 0.058861 0.083757
0.599972 -0.075229 0.011113
0.518985 0.037451 0.022320
0.533944 -0.006744 0.075720
0.607847 -0.070966 0.032883
0.556172 -0.061737 0.046935
0.608160 -0.047590 0.035685
0.600393 0.002758 0.058733
0.573303 0.059572 0.031006
0.524220 0.028488 0.079119
0.564332 0.036008 0.087032
0.597709 -0.001656 0.062778
0.522679 0.056525 0.025873
0.551911 0.040442 0.012293
0.521480 -0.008449 0.015057
0.531005 0.046192 0.016512
0.508982 0.018301 0.046291
0.550098 0.039448 0.011830
0.523302 0.029054 0.016163
0.553641 0.084309 0.060737
0.547034 0.073859 0.029009
0.584669 -0.055554 0.006465
0.543484 -0.033997 0.064733
0.597853 -0.054593 0.009937
0.560771 0.003282 0.083908
0.572749 -0.047266 0.061321
0.581788 -0.056431 0.006020
0.527894 0.078918 0.065447
0.601420 -0.018924 0.051257
0.553285 0.014163 0.007128
0.603230 -0.017478 0.045847
0.534382 0.037863 0.084686
0.549253 -0.020268 0.074819
0.588542 -0.078158 0.036531
0.610199 -0.053791 0.031999
0.553715 0.000129 0.005374
0.606554 -0.063698 0.037921
0.586287 -0.011138 0.015666
0.580112 0.040181 0.025794
0.516200 -0.000157 0.021519
0.549873 0.054003 0.085599
0.534592 -0.040533 0.050988
0.564885 -0.010218 0.006429
0.579962 0.057658 0.036911
0.574349 -0.016529 0.074100
0.553385 0.034070 0.010928
0.513784 0.019704 0.024653
0.565357 -0.059437 0.052973
0.610894 -0.061135 0.031757
0.581371 -0.080215 0.032139
0.508838 0.019484 0.044555
0.511034 0.023246 0.030905
0.552519 -0.036092 0.066717
0.549285 0.037920 0.088180
0.516425 0.042065 0.069593
0.548535 -0.003740 0.081792
0.567105 -0.063013 0.050280
0.555878 -0.056867 0.052029
0.592732 -0.082553 0.020036
0.609242 -0.049211 0.032657
0.583972 -0.071178 0.007336
0.514722 -0.005909 0.050390
0.584993 -0.051208 0.056461
0.595836 -0.075393 0.037757
0.571239 0.072241 0.044094
0.599546 0.022619 0.047315
0.537300 0.081648 0.040474
0.566450 0.055179 0.022925
0.526907 -0.014589 0.011576
0.546559 0.058504 0.084294
0.556921 0.064525 0.023621
0.585561 -0.014807 0.069848
0.535211 0.038173 0.012944
0.561035 -0.031828 0.070144
0.548343 -0.036077 0.006083
0.584742 0.052555 0.070060
0.596878 -0.033111 0.017208
0.513066 0.007078 0.027336
0.558725 0.016646 0.087183
0.535769 -0.044065 0.047921
0.526182 0.023788 0.079979
0.537705 0.056400 0.083197
0.526537 0.054487 0.078231
0.526244 -0.016176 0.062953
0.549321 -0.022061 0.073909
0.523463 0.070376 0.068637
0.540204 -0.029107 0.066192
0.584536 0.001346 0.017341
0.603226 -0.017235 0.036041
0.518184 0.036633 0.022928
0.547444 0.046069 0.013504
0.544708 -0.010971 0.005199
0.594155 0.014812 0.069296
0.584419 -0.004321 0.015910
0.536157 0.070626 0.027111
0.600420 0.001418 0.035765
0.574285 -0.047478 0.005601
0.599785 0.004463 0.060180
0.558523 0.032238 0.088485
0.546154 -0.054072 0.013253
0.544182 0.058888 0.083950
0.514578 0.063012 0.049291
0.534614 -0.042016 0.014804
0.541089 0.078769 0.035125
0.525124 -0.014307 0.012731
0.508989 0.025606 0.048478
0.571499 0.075049 0.055893
0.595258 -0.025097 0.059144
0.537766 0.073957 0.076612
0.509278 0.026901 0.050809
0.538589 0.033247 0.086249
0.555897 0.024995 0.009390
0.517627 -0.017281 0.043615
0.552814 0.084465 0.048725
0.525382 0.061294 0.025967
0.545063 -0.013254 0.005086
0.550766 0.047403 0.087049
0.538021 -0.029783 0.008341
0.579818 -0.066229 0.048878
0.603477 -0.013764 0.040118
0.516675 -0.013859 0.023758
0.593609 0.017748 0.069892
0.523775 -0.026724 0.017727
0.562761 0.012878 0.085909
0.535421 0.035961 0.012379
0.603671 -0.018381 0.038178
0.510967 0.002641 0.038381
0.581316 -0.024752 0.010102
0.540637 -0.004024 0.006337
0.533330 -0.037037 0.053354
0.515542 0.026028 0.022921
0.599024 -0.035882 0.017878
0.606215 -0.074817 0.015711
0.582986 -0.004416 0.074623
0.606365 -0.036252 0.034306
0.511695 0.041096 0.058806
0.538001 0.016648 0.085090
0.521010 0.073709 0.045871
0.543083 0.085861 0.062147
0.578405 -0.076552 0.037946
0.527987 -0.008087 0.070466
0.536640 0.060771 0.020295
0.569668 -0.065866 0.048283
0.515161 -0.014056 0.031846
0.548163 0.086489 0.056708
0.579163 -0.021095 0.009870
0.601453 -0.054859 0.045372
0.521932 0.069288 0.067240
0.598903 -0.044102 0.050595
0.526010 -0.015715 0.012305
0.520384 0.017677 0.016358
0.515460 0.032780 0.068687
0.515273 -0.007463 0.024585
0.519938 0.018843 0.073120
0.591714 -0.061000 0.049212
0.572873 0.048634 0.023912
0.518611 -0.017421 0.021213
0.603572 -0.050105 0.044197
0.547406 -0.012888 0.004707
0.541721 0.069041 0.079942
0.537910 0.045208 0.085148
0.582778 0.062463 0.051639
0.575094 0.060205 0.033378
0.597105 -0.010022 0.026180
0.510644 0.005817 0.036556
0.542454 0.085781 0.062341
0.561727 -0.035214 0.068396
0.562188 0.057727 0.021897
0.567389 0.074817 0.068123
0.553450 0.041052 0.012724
0.532876 -0.005113 0.008510
0.589794 -0.044256 0.057227
0.558081 0.061731 0.082290
0.602252 -0.004126 0.038457
0.595120 0.018587 0.067781
0.588178 -0.045535 0.057559
0.535743 0.004577 0.081004
0.585142 0.004252 0.018541
0.516892 -0.018902 0.029302
0.524570 0.066813 0.030694
0.536476 -0.005673 0.077551
0.525464 -0.010288 0.066391
0.556969 0.083720 0.053866
0.552556 0.066394 0.081281
0.554970 -0.070491 0.021611
0.550894 0.076217 0.032522
0.575962 -0.060049 0.005892
0.603406 -0.012314 0.044759
0.590509 0.038019 0.070157
0.538451 -0.043886 0.012810
0.514012 -0.009690 0.031787
0.544104 0.002653 0.006126
0.556226 0.024858 0.009429
0.533789 -0.048109 0.024160
0.546980 -0.045606 0.057747
0.568131 0.006416 0.009816
0.548663 0.028532 0.088301
0.536747 -0.033039 0.060953
0.526203 0.079874 0.049241
0.546514 -0.017044 0.004781
0.543973 -0.012065 0.005312
0.536742 -0.046861 0.045009
0.513609 0.058015 0.055996
0.592065 -0.011496 0.020326
0.565461 -0.047957 0.005201
0.581163 0.023151 0.020611
0.533273 0.013407 0.009349
0.598604 0.016892 0.061784
0.555854 0.066490 0.080759
0.553209 -0.038400 0.005370
0.587805 0.050025 0.067385
0.530474 0.029787 0.083340
0.579274 0.014635 0.016977
0.523215 -0.032901 0.031545
0.523103 -0.027750 0.044508
0.590723 -0.026914 0.062557
0.510125 0.018551 0.033506
0.551542 -0.066487 0.032594
0.555327 -0.026159 0.072787
0.559708 0.068423 0.028115
0.517610 0.023922 0.019929
0.611381 -0.069693 0.025917
0.595410 0.038670 0.055205
0.510812 0.044293 0.053236
0.509459 0.035417 0.047479
0.560237 0.020888 0.087652
0.558096 0.007444 0.006799
0.546656 -0.042340 0.008122
0.541878 -0.020053 0.072672
0.579224 -0.049037 0.059213
0.548079 -0.023445 0.072866
0.509610 0.033436 0.041068
0.552844 0.049514 0.086558
0.518580 -0.017953 0.021610
0.536035 -0.007952 0.076317
0.599383 0.016763 0.041205
0.574927 -0.016870 0.008951
0.547270 -0.026129 0.004977
0.541834 0.052022 0.015712
0.569146 -0.078397 0.018290
0.589929 0.048039 0.045398
0.517379 -0.011793 0.021192
0.557087 -0.071046 0.018785
0.556268 0.069403 0.079142
0.607976 -0.073053 0.030731
0.529389 -0.037185 0.045640
0.596258 -0.040548 0.013959
0.531821 0.035704 0.083832
0.603959 -0.034406 0.044307
0.533869 -0.027666 0.009813
0.537023 0.056458 0.082965
0.569027 0.046358 0.083542
0.602262 0.005513 0.052606
0.592869 -0.005781 0.067395
0.531978 -0.043361 0.040111
0.513462 -0.003282 0.028792
0.585699 0.044871 0.034314
0.551737 0.045387 0.087422
0.538257 0.041189 0.012975
0.565892 -0.065511 0.009552
0.531462 0.030417 0.083820
0.584815 0.055406 0.042640
0.533996 -0.029160 0.010098
0.530408 -0.032752 0.053783
0.603020 -0.030393 0.026010
0.532619 0.068080 0.077436
0.547752 -0.032042 0.005544
0.585037 -0.060765 0.051651
0.522336 -0.029288 0.022571
0.516564 -0.005592 0.021306
0.560414 0.067804 0.027980
0.592244 0.014783 0.028426
0.541445 0.071952 0.027189
0.574019 0.061056 0.075474
0.521126 0.052798 0.025799
0.557978 -0.035383 0.004376
0.590880 -0.031016 0.061133
0.610815 -0.054145 0.029211
0.513805 0.003744 0.026170
0.529590 0.077920 0.068911
0.598388 -0.061369 0.008103
0.548412 -0.013101 0.078087
0.602724 -0.017269 0.033909
0.560614 0.048331 0.085684
0.535003 0.069296 0.026357
0.590350 0.018611 0.027655
0.522983 0.044528 0.020920
0.539854 -0.042851 0.011429
0.547137 -0.059721 0.040133
0.559887 -0.020917 0.004439
0.598837 -0.040098 0.015931
0.578754 0.061592 0.070268
0.539884 -0.050491 0.044609
0.579418 -0.057836 0.054512
0.551977 0.084601 0.048355
0.522745 0.069687 0.035578
0.543686 -0.052843 0.014298
0.518579 -0.013135 0.019484
0.510586 0.019669 0.055859
0.591038 -0.069688 0.006800
0.579649 0.047077 0.077759
0.511526 0.000179 0.043548
0.603288 -0.053142 0.013547
0.524352 -0.009952 0.012813
0.569848 0.067063 0.074668
0.538505 -0.043644 0.052570
0.578847 0.042265 0.079681
0.542944 -0.052220 0.046784
0.594413 0.033397 0.041104
0.570519 -0.075305 0.036489
0.516289 -0.013232 0.024477
0.537173 0.056551 0.018220
0.593713 -0.055944 0.008232
0.598445 -0.081226 0.021507
0.583400 -0.083191 0.022411
0.516726 0.033969 0.023768
0.587418 0.054751 0.061383
0.568478 0.076447 0.062291
0.519799 0.073226 0.050752
0.536976 0.025842 0.085861
0.572936 0.016427 0.083658
0.578461 0.050737 0.077203
0.577000 -0.004463 0.011597
0.573749 0.035257 0.083634
0.581757 0.056177 0.038032
0.593289 0.033854 0.067166
0.535933 -0.021100 0.068709
0.550734 -0.010832 0.079390
0.557956 -0.022277 0.074779
0.533168 0.073496 0.075045
0.556017 0.025398 0.009497
0.577857 0.016067 0.081544
0.550647 0.014675 0.007088
0.610438 -0.053379 0.030651
0.534969 0.042508 0.014103
0.587152 -0.031525 0.063260
0.557656 -0.050515 0.006957
0.593765 0.041026 0.061420
0.574375 0.018697 0.083391
0.560446 0.000369 0.006392
0.591893 0.046679 0.060303
0.537376 0.074180 0.076361
0.552317 0.085348 0.057849
0.561613 -0.067449 0.012250
0.534110 0.013738 0.082776
0.540986 0.071435 0.078686
0.514740 -0.012810 0.033109
0.511160 0.030541 0.058930
0.609073 -0.047299 0.027315
0.521401 0.052998 0.025590
0.609004 -0.066964 0.014676
0.600348 -0.043081 0.049310
0.551229 -0.062612 0.015380
0.583500 0.018226 0.078753
0.511030 0.045853 0.043975
0.606616 -0.076855 0.021269
0.562185 0.006718 0.084612
0.514812 -0.010133 0.027535
0.574570 0.069709 0.045194
0.607969 -0.044794 0.025596
0.541531 0.045334 0.013582
0.531617 -0.010567 0.008958
0.581695 -0.082961 0.021943
0.556216 -0.065813 0.014180
0.508820 0.025734 0.043654
0.546131 0.025595 0.008903
0.516728 -0.009475 0.052127
0.551039 0.084921 0.048635
0.594778 -0.066121 0.045030
0.540457 -0.054440 0.036729
0.565858 -0.026672 0.005259
0.579529 0.061068 0.069711
0.586406 0.052881 0.042856
0.549574 0.046332 0.013697
0.589559 -0.023340 0.064497
0.576202 0.049965 0.079013
0.581398 0.025329 0.080263
0.515630 0.061467 0.060222
0.561567 0.048577 0.017768
0.516551 0.017356 0.020435
0.552972 0.015236 0.007265
0.569355 -0.040620 0.065203
0.513979 0.006505 0.025351
0.570522 -0.069206 0.045089
0.570533 -0.078951 0.026756
0.557434 -0.045637 0.061662
0.576880 0.024882 0.082694
0.590047 0.051099 0.053811
0.584508 0.056072 0.042881
0.530147 -0.035560 0.049812
0.602501 -0.012905 0.049484
0.538983 -0.010216 0.006518
0.518243 0.008136 0.018266
0.564377 0.036511 0.015175
0.519667 0.059154 0.069458
0.594073 0.025776 0.035529
0.591643 -0.081103 0.031417
0.596864 0.024354 0.039970
0.606871 -0.074832 0.030153
0.568156 0.024915 0.013684
0.559754 0.043003 0.087038
0.578873 -0.006404 0.075867
0.523896 -0.033554 0.034134
0.599743 -0.066645 0.008023
0.515648 0.038553 0.068681
0.600261 -0.080581 0.021219
0.509559 0.023899 0.052341
0.592828 -0.082062 0.017716
0.536635 0.048049 0.015259
0.514491 0.023760 0.066263
0.555734 0.015629 0.087224
0.594950 0.039861 0.056433
0.538757 -0.019939 0.071217
0.513252 0.053821 0.041137
0.578393 -0.056429 0.005756
0.594907 -0.008696 0.064392
0.520962 0.074151 0.047514
0.553692 0.065870 0.081370
0.553415 -0.052344 0.055111
0.576479 -0.080161 0.029191
0.567402 0.036937 0.085945
0.591164 -0.059020 0.050433
0.512790 0.042986 0.035077
0.563342 0.076037 0.069992
0.512735 -0.004674 0.033866
0.589320 -0.007833 0.069725
0.599736 0.019679 0.044806
0.521810 0.058937 0.072318
0.537232 -0.015672 0.007105
0.544060 0.079320 0.073287
0.568927 -0.078974 0.023094
0.525468 -0.008824 0.011986
0.589976 -0.057314 0.051736
0.541337 -0.046964 0.012489
0.576902 0.012504 0.081415
0.536161 -0.038853 0.055056
0.599886 0.003040 0.035285
0.596749 -0.010264 0.025650
0.514844 -0.002889 0.024598
0.582671 0.048913 0.074578
0.515173 -0.013552 0.029987
0.551908 -0.027160 0.004290
0.560582 -0.034068 0.068976
0.596880 0.026481 0.062647
0.584007 0.035250 0.077586
0.546738 0.072970 0.078229
0.609668 -0.055878 0.019596
0.598811 -0.051045 0.048791
0.594441 0.029089 0.038072
0.605839 -0.072710 0.033787
0.588350 0.019804 0.075275
0.577339 -0.082011 0.021499
0.594782 -0.009764 0.023541
0.516601 -0.015152 0.043186
0.577007 0.028538 0.019238
0.541304 0.063018 0.020706
0.590852 0.049627 0.057471
0.510631 0.007198 0.035418
0.553252 -0.060284 0.012447
0.572080 -0.045088 0.005387
0.563543 0.016500 0.086419
0.523313 -0.031225 0.038199
0.566076 -0.071164 0.040669
0.577835 0.049451 0.078139
0.599223 -0.010995 0.057654
0.593648 0.041633 0.048549
0.588812 -0.081819 0.015780
0.538412 -0.053237 0.032916
0.563841 0.022716 0.011468
0.593755 -0.059841 0.007339
0.549110 -0.062990 0.036664
0.574323 0.052266 0.079321
0.512823 0.001615 0.052526
0.563429 0.016676 0.086471
0.590542 -0.028872 0.062058
0.593775 0.001122 0.025725
0.590079 -0.016562 0.066310
0.516944 0.063432 0.039380
0.584615 0.053739 0.069217
0.547847 -0.063908 0.029551
0.599118 0.025993 0.052079
0.542606 -0.056124 0.018410
0.583368 0.041472 0.076730
0.577676 0.017178 0.016610
0.601519 0.005129 0.055785
0.537800 0.073158 0.029022
0.540597 0.054404 0.016761
0.523305 0.011128 0.074528
0.579231 0.045558 0.027576
0.536866 -0.014595 0.007186
0.559402 0.056333 0.083797
0.510719 0.005568 0.047285
0.510262 0.042319 0.046969
0.558270 0.031027 0.088538
0.603984 -0.026547 0.032056
0.511756 0.051511 0.047012
0.513586 -0.008840 0.035964
0.584011 0.008300 0.077200
0.572524 -0.054881 0.056937
0.560865 0.004503 0.084233
0.539812 -0.012476 0.075893
0.557518 0.083088 0.059176
0.536309 -0.009661 0.075638
0.581117 0.045589 0.029428
0.562972 0.048554 0.018349
0.558002 0.076589 0.036527
0.577435 0.015651 0.016092
0.514129 0.011583 0.024375
0.555987 0.055155 0.084791
0.568328 -0.009590 0.078356
0.586222 0.051635 0.040945
0.538260 0.080437 0.038152
0.581586 -0.056275 0.006009
0.519053 0.019978 0.017844
0.556542 0.024682 0.088395
0.598611 0.004945 0.062432
0.581667 -0.078028 0.012193
0.597129 0.007450 0.032179
0.551289 -0.066933 0.030297
0.568245 -0.019867 0.074521
0.534405 0.012565 0.008962
0.552812 -0.031550 0.069489
0.521500 0.033723 0.076953
0.509619 0.023242 0.035864
0.543442 0.004160 0.083418
0.517737 -0.017504 0.023344
0.516563 0.006299 0.064240
0.519974 0.036968 0.021130
0.583814 -0.013052 0.071399
0.520771 0.005745 0.015483
0.554395 -0.070149 0.022250
0.530411 0.079690 0.067406
0.583013 -0.071687 0.044113
0.533102 0.065691 0.024343
0.561049 0.049219 0.085368
0.575761 0.035449 0.082670
0.550628 -0.029780 0.004666
0.586586 -0.004701 0.072553
0.579873 0.013304 0.080204
0.589958 -0.077444 0.037224
0.595640 -0.000158 0.065899
0.557402 0.077566 0.037605
0.555090 -0.051787 0.056311
0.582186 -0.082106 0.016995
0.558198 0.082081 0.047697
0.586250 0.057734 0.055671
0.559645 -0.064839 0.045348
0.577423 0.069279 0.059081
0.583909 -0.005702 0.073764
0.568257 -0.076556 0.031757
0.511756 0.009108 0.030306
0.533815 -0.046131 0.038849
0.513257 0.019552 0.063003
0.579508 0.017774 0.017939
0.533777 0.047302 0.015818
0.586751 -0.083348 0.020464
0.590290 0.043331 0.040767
0.548967 0.077764 0.034100
0.534542 -0.043880 0.045780
0.563321 0.001632 0.007343
0.571898 0.000467 0.010247
0.573579 -0.055974 0.056203
0.571128 0.057725 0.079005
0.599663 -0.019411 0.054612
0.580567 0.026321 0.080739
0.516736 0.068126 0.050168
0.565998 -0.013461 0.006431
0.563573 0.047272 0.018159
0.549041 -0.019298 0.004413
0.525949 -0.036963 0.033852
0.595871 0.013178 0.067012
0.597557 0.008443 0.064412
0.550433 -0.066620 0.028168
0.568239 0.007507 0.010057
0.595089 -0.051458 0.051409
0.573094 -0.052161 0.058555
0.611937 -0.059095 0.025091
0.543612 -0.057070 0.018123
0.545349 0.010087 0.006734
0.529597 -0.009416 0.009807
0.519379 0.060334 0.068554
0.524777 0.065762 0.072690
0.533497 0.046614 0.015699
0.606592 -0.073502 0.014761
0.526728 -0.036810 0.038224
0.515169 0.008743 0.022801
0.576898 -0.024543 0.070254
0.536066 0.075807 0.032468
0.577958 -0.065334 0.006463
0.571358 0.074386 0.062113
0.548015 -0.008547 0.079935
0.576912 0.058727 0.074447
0.586967 0.055372 0.049151
0.573895 -0.016846 0.008600
0.540220 0.068701 0.079818
0.540949 0.078924 0.073522
0.572635 -0.028040 0.006866
0.514155 -0.010758 0.036430
0.547173 0.043719 0.087382
0.559752 0.078014 0.040164
0.518122 0.067463 0.041469
0.512157 -0.002681 0.035885
0.533740 0.010104 0.008949
0.520698 0.013989 0.015817
0.517148 0.013476 0.068073
0.514285 0.051310 0.036218
0.532874 0.067899 0.077641
0.527034 0.007676 0.011260
0.517964 0.003328 0.064950
0.527072 -0.026784 0.054739
0.540129 0.081038 0.038691
0.544590 -0.009437 0.005274
0.569312 0.022327 0.013564
0.552538 0.044581 0.013561
0.570471 -0.076855 0.033127
0.513168 0.010892 0.026386
0.516145 0.022460 0.068834
0.520452 0.054264 0.027269
0.550447 -0.014435 0.077817
0.573746 0.047160 0.081247
0.528456 0.010949 0.010808
0.580991 0.009381 0.016808
0.561634 -0.032636 0.004345
0.589638 -0.052888 0.007898
0.580046 -0.011376 0.011880
0.585792 0.058025 0.059382
0.573298 0.051075 0.080288
0.522219 0.039603 0.077418
0.553046 0.073320 0.077212
0.597225 -0.028438 0.019438
0.599353 0.018807 0.059275
0.567701 0.066633 0.032252
0.518335 0.032256 0.073123
0.512495 0.028225 0.062573
0.597760 -0.081452 0.025259
0.572546 0.072794 0.064015
0.599865 0.014309 0.059272
0.524673 0.041868 0.079330
0.559214 0.021583 0.087868
