ply
format ascii 1.0
element vertex 1024
property float x
property float y
property float z
end_header
0.557040 0.029887 -0.003159
0.535034 -0.049246 0.018981
0.534819 -0.054215 0.020410
0.526311 0.087446 0.041649
0.549664 -0.038070 0.081888
0.517773 0.000967 0.015802
0.519817 0.079674 0.036430
0.583430 0.030166 0.067880
0.516331 -0.050829 0.037990
0.514223 -0.002337 0.040372
0.559768 0.056922 0.076708
0.563708 0.092358 0.046103
0.566226 -0.030975 0.078699
0.551999 -0.004646 0.089576
0.550232 0.044167 0.083035
0.516326 0.001558 0.053608
0.520156 -0.019366 0.020595
0.528709 0.084864 0.052110
0.543309 0.063774 -0.003242
0.528184 0.049956 0.071276
0.558602 -0.005031 0.089699
0.527193 -0.072645 0.057641
0.538372 0.093472 0.018233
0.558755 -0.051846 0.029925
0.522276 -0.068590 0.028544
0.562111 0.002474 0.006299
0.557520 0.068807 0.001446
0.583528 0.049052 0.020383
0.582587 0.000690 0.027561
0.566173 0.066487 0.005771
0.516991 -0.008491 0.052868
0.528573 0.035382 0.074366
0.556226 -0.044949 0.078922
0.564744 -0.056162 0.055751
0.589598 0.041580 0.037696
0.586554 -0.003964 0.050917
0.519650 -0.008181 0.060108
0.528684 0.061329 0.068227
0.574180 0.062771 0.011579
0.545821 -0.045716 0.078553
0.549332 0.086646 0.060752
0.582473 0.059338 0.053992
0.584251 0.025323 0.020608
0.544239 0.079229 0.066215
0.527878 0.086262 0.048621
0.536237 0.054957 0.075227
0.554781 -0.032156 0.084041
0.587382 0.017675 0.029300
0.520140 0.079536 0.029678
0.524275 -0.064612 0.025745
0.521559 -0.062954 0.027225
0.555553 0.061742 0.075164
0.589452 0.021269 0.053451
0.554976 -0.011047 0.007944
0.546272 0.070626 0.071181
0.587209 0.002147 0.039337
0.573335 0.081715 0.024538
0.530076 0.065767 0.001140
0.582538 0.042566 0.016958
0.538059 0.026454 -0.005119
0.586281 0.033720 0.061693
0.573181 -0.009209 0.079836
0.552838 -0.027253 0.085543
0.514918 0.063427 0.023054
0.572403 0.070260 0.060601
0.522000 0.081663 0.043405
0.529829 0.091927 0.029596
0.538113 0.090164 0.054240
0.545774 0.088514 0.058921
0.576185 0.051797 0.068840
0.548145 -0.070874 0.062777
0.576701 0.048619 0.069944
0.554843 0.023170 0.087898
0.515337 0.015362 0.053139
0.538890 -0.052836 0.073551
0.552271 0.079326 0.003949
0.526039 -0.017463 0.012987
0.567158 -0.042199 0.033209
0.538180 0.095450 0.044885
0.566274 0.038578 0.081295
0.573798 -0.038285 0.043665
0.519167 0.037216 0.063163
0.570598 -0.038189 0.035393
0.547254 -0.035567 0.082167
0.516936 -0.058469 0.047484
0.528264 0.002437 0.076055
0.522954 -0.041765 0.060864
0.518142 0.076312 0.033136
0.552162 0.004119 0.089940
0.577909 -0.031754 0.050400
0.556216 -0.039817 0.081053
0.527945 0.058762 0.068489
0.585915 0.047841 0.024589
0.547863 0.026770 0.086668
0.544859 0.085373 0.007456
0.570772 -0.039488 0.067070
0.572230 0.070906 0.013320
0.552574 0.039365 0.084372
0.519712 0.075629 0.047724
0.527620 -0.024683 0.071835
0.549044 0.098452 0.022976
0.581256 0.022293 0.016819
0.525348 0.058363 0.002187
0.540731 0.027749 -0.005589
0.518419 0.011130 0.010837
0.571443 0.064694 0.009468
0.577887 0.045108 0.070306
0.563102 0.022846 0.086332
0.549477 -0.031963 0.014431
0.573151 0.036779 0.005687
0.578692 0.050841 0.013158
0.561437 0.069246 0.069199
0.513232 0.060965 0.038156
0.576737 0.078979 0.031332
0.512725 0.012894 0.031902
0.521826 0.004536 0.067575
0.532723 0.080121 0.061175
0.516707 0.027347 0.010247
0.527251 0.047148 -0.001798
0.575391 0.031637 0.008273
0.587125 0.038989 0.025001
0.538421 0.041724 -0.006342
0.571100 -0.011310 0.019134
0.587246 0.025881 0.026507
0.590670 0.024761 0.041831
0.546528 -0.029572 0.012798
0.513655 0.013649 0.046456
0.553521 -0.023300 0.086651
0.573543 0.047007 0.006339
0.544924 -0.022633 0.009972
0.529538 0.087954 0.019460
0.526334 0.016118 0.000954
0.570279 -0.017985 0.021605
0.531162 -0.000814 0.078740
0.584963 0.049531 0.023319
0.535098 0.068534 0.069509
0.517110 0.067604 0.049436
0.564232 -0.024439 0.019390
0.582405 0.060627 0.024191
0.529296 -0.011216 0.076199
0.523033 0.083844 0.040822
0.551259 0.092580 0.014525
0.560626 0.033356 0.084517
0.516096 -0.018203 0.044629
0.516677 0.072312 0.029863
0.518199 -0.042312 0.049761
0.550975 -0.069658 0.060967
0.551955 -0.028635 0.085074
0.521126 -0.075131 0.048142
0.527817 0.034169 0.073820
0.555895 0.096071 0.020383
0.568400 0.091371 0.034443
0.553051 0.098530 0.023987
0.522126 0.065175 0.008259
0.554529 0.080949 0.005683
0.584192 0.016858 0.067282
0.517618 0.012017 0.059463
0.533208 -0.079779 0.049562
0.583591 0.010863 0.024149
0.549781 -0.050596 0.022513
0.534814 0.018208 -0.003170
0.577947 0.032867 0.010830
0.571991 0.077493 0.017529
0.520584 0.054219 0.006085
0.562051 -0.058907 0.059176
0.524229 0.002714 0.071202
0.584547 0.027330 0.020674
0.552770 0.078883 0.066033
0.568459 -0.044668 0.066511
0.544701 0.050554 -0.005847
0.530054 0.046576 -0.003548
0.578086 0.068013 0.054274
0.516569 -0.042946 0.038079
0.521323 0.068283 0.057086
0.568960 0.074486 0.011757
0.555873 0.026476 -0.003184
0.578579 -0.024533 0.039218
0.558836 0.076958 0.005469
0.565627 -0.014973 0.016119
0.568772 0.090586 0.037866
0.534783 -0.036121 0.076236
0.561014 0.043216 -0.001886
0.571327 0.071454 0.012585
0.552162 0.052604 0.079968
0.523106 -0.036767 0.061926
0.551500 -0.008615 0.005622
0.528870 -0.062497 0.064618
0.535740 0.073336 0.067486
0.546754 0.004225 -0.000407
0.515766 -0.060907 0.041537
0.578897 0.075356 0.031949
0.536989 -0.002428 0.083150
0.538119 0.035669 0.081493
0.563502 -0.010079 0.012379
0.518000 0.052467 0.009292
0.537147 0.063343 -0.002586
0.550226 0.022147 -0.004157
0.565568 -0.026326 0.081502
0.514178 0.026255 0.050541
0.522148 -0.000617 0.067386
0.516704 0.044309 0.057490
0.520120 0.077127 0.046604
0.586389 0.050338 0.052083
0.515512 0.064177 0.047409
0.589888 0.028794 0.051601
0.540915 0.093236 0.016557
0.574698 -0.038332 0.057274
0.579668 0.030499 0.073003
0.579077 -0.011600 0.070416
0.583045 0.054490 0.021895
0.589341 0.032113 0.031953
0.517774 0.032299 0.007932
0.547776 -0.071323 0.062399
0.512444 0.056713 0.036351
0.561651 0.088089 0.014778
0.557445 0.087307 0.058054
0.571857 -0.037412 0.066879
0.588820 0.007532 0.047888
0.524205 -0.033455 0.020116
0.513659 0.004567 0.030895
0.513077 0.060805 0.033286
0.518976 -0.067632 0.031774
0.517947 0.076090 0.036334
0.566019 0.022045 0.002805
0.551863 -0.071622 0.046750
0.533753 -0.079775 0.049657
0.518934 0.055195 0.059255
0.522994 0.027818 0.001804
0.520903 -0.007689 0.063219
0.583165 0.056681 0.054916
0.532294 -0.028184 0.013524
0.588948 0.046585 0.036578
0.582176 -0.014864 0.039078
0.513111 0.056072 0.024270
0.588267 0.010619 0.054818
0.570606 -0.001224 0.084003
0.560197 0.072813 0.067589
0.515608 0.030820 0.055311
0.546042 0.019645 0.087210
0.523321 -0.046010 0.023157
0.540110 0.015095 0.084756
0.520695 -0.004724 0.063475
0.549592 0.035844 0.085100
0.589823 0.013735 0.042972
0.548032 0.051643 0.080170
0.553685 -0.061982 0.032496
0.541617 0.095006 0.018639
0.559943 -0.014059 0.011770
0.511444 0.046794 0.032834
0.511623 0.035208 0.026306
0.533498 -0.075161 0.058729
0.516002 -0.016696 0.044919
0.521039 -0.030301 0.022945
0.514835 0.021066 0.015783
0.534684 0.090026 0.016409
0.586582 0.015415 0.061868
0.576422 0.076315 0.047597
0.585722 0.060502 0.040273
0.572472 0.081137 0.049313
0.522892 0.059187 0.004863
0.543867 -0.068190 0.029203
0.524980 0.006595 0.004333
0.588668 0.042493 0.030999
0.537807 -0.025630 0.080654
0.588651 0.006630 0.048204
0.553720 0.053668 -0.003554
0.587721 0.014166 0.031731
0.585268 0.030166 0.064646
0.581699 0.017305 0.071513
0.537397 -0.070291 0.064341
0.516734 0.003314 0.017172
0.556343 -0.064166 0.062316
0.572450 0.025812 0.080731
0.536068 0.096565 0.036615
0.573319 -0.008577 0.020001
0.587654 0.042009 0.027006
0.537228 -0.045411 0.017695
0.581976 0.019026 0.018720
0.516013 0.002700 0.019480
0.570477 0.005803 0.084475
0.567097 -0.027718 0.079430
0.541589 -0.066462 0.068052
0.562673 0.067163 0.003726
0.512891 0.057429 0.027230
0.539870 0.033244 -0.006082
0.550740 -0.027274 0.085307
0.516152 0.063642 0.018924
0.572937 -0.030189 0.032479
0.527569 0.035926 -0.002315
0.526815 0.080508 0.013665
0.536121 -0.070822 0.027266
0.562849 0.096082 0.036647
0.550767 0.075068 0.068608
0.539060 -0.060059 0.070753
0.536699 -0.005354 0.082817
0.516748 0.060399 0.053106
0.524064 0.060429 0.064167
0.583997 0.020211 0.067769
0.517652 -0.026479 0.050311
0.579465 0.068765 0.050573
0.580043 0.028329 0.013940
0.566685 -0.014015 0.084953
0.522606 0.027712 0.002186
0.579822 0.072266 0.044074
0.539246 0.085197 0.008541
0.530008 0.040657 -0.003807
0.514660 0.007965 0.021513
0.517888 -0.008139 0.019845
0.587555 0.054403 0.040069
0.550223 0.000109 0.089474
0.519131 -0.038716 0.053049
0.522632 -0.010016 0.066409
0.565862 0.049702 0.077715
0.586325 -0.004737 0.052117
0.516321 0.004238 0.017841
0.565597 -0.044438 0.032767
0.564154 0.076074 0.008471
0.567966 0.088479 0.046297
0.536594 -0.034925 0.014535
0.582925 -0.016351 0.057505
0.565167 -0.043861 0.031707
0.546319 0.093514 0.015492
0.549752 0.099755 0.039538
0.539870 0.066931 0.071943
0.565520 0.055951 0.002262
0.581974 -0.021311 0.051156
0.512985 0.024300 0.021467
0.517203 -0.037313 0.045789
0.540895 0.085092 0.007904
0.525905 -0.057528 0.063219
0.528482 0.086405 0.018765
0.583010 0.023096 0.069362
0.538995 0.003390 0.084506
0.551166 -0.037031 0.082404
0.574190 -0.036238 0.041588
0.512240 0.017845 0.036696
0.588896 0.033701 0.054472
0.554941 0.097574 0.022643
0.558677 0.020560 -0.000980
0.572435 0.029477 0.079978
0.563732 0.063139 0.071761
0.565375 0.033553 0.082882
0.577422 0.057946 0.013853
0.582695 0.068411 0.036018
0.514831 0.067557 0.038597
0.548186 -0.072519 0.059263
0.539521 0.024880 -0.005105
0.529528 -0.078100 0.052537
0.580195 -0.014713 0.066812
0.530800 -0.024656 0.012925
0.568147 -0.030558 0.026303
0.575437 0.036243 0.075982
0.522516 0.025790 0.002508
0.579848 0.027493 0.073314
0.576705 0.078320 0.042508
0.527637 0.000824 0.004305
0.554839 0.098041 0.023667
0.543967 0.048649 0.080491
0.524258 0.012372 0.003377
0.543486 0.097252 0.021565
0.530498 0.047189 0.073829
0.575169 0.065335 0.061077
0.589616 0.027538 0.033433
0.536079 -0.078301 0.035476
0.541710 -0.033869 0.080695
0.580996 0.069998 0.029504
0.545104 -0.006522 0.003420
0.525345 -0.052117 0.022667
0.586939 -0.001892 0.051108
0.521115 -0.045828 0.056861
0.579262 0.069663 0.049932
0.561172 -0.041398 0.025709
0.534286 0.020133 0.080565
0.559753 0.020739 -0.000502
0.554941 0.020262 -0.002466
0.533630 0.081964 0.008450
0.531964 -0.045854 0.071544
0.528587 -0.036695 0.017756
0.523017 0.000056 0.069036
0.532645 0.061853 0.070827
0.527652 0.030545 0.074079
0.521594 0.068425 0.057406
0.525096 -0.020650 0.015096
0.563116 -0.038511 0.077801
0.531255 -0.049020 0.070142
0.563663 0.071123 0.005824
0.522741 -0.076204 0.048965
0.545982 0.058144 0.077101
0.589978 0.016662 0.040060
0.533001 -0.072950 0.028030
0.571581 -0.045047 0.054222
0.527964 -0.050993 0.021182
0.534832 0.000815 0.001302
0.513468 0.060673 0.027588
0.587856 0.053228 0.037651
0.567579 0.047012 0.001897
0.540760 -0.001993 0.001473
0.540764 0.074980 0.068191
0.517967 0.048541 0.059310
0.552706 0.013785 0.089464
0.531884 0.061574 0.070463
0.575507 0.045986 0.072417
0.519000 0.048201 0.061130
0.541310 0.048236 0.079760
0.540022 0.093351 0.017123
0.523418 0.082962 0.044978
0.522569 -0.052954 0.059078
0.584184 -0.013101 0.045980
0.517002 -0.056325 0.047060
0.577092 0.017434 0.013216
0.568113 -0.035984 0.029789
0.524217 -0.052810 0.061633
0.560501 0.097724 0.033725
0.535083 -0.020461 0.009921
0.521099 0.023069 0.067092
0.529541 -0.020244 0.011890
0.583156 0.058952 0.024716
0.584184 -0.001367 0.032349
0.549379 -0.072599 0.041045
0.525840 -0.057830 0.023408
0.523701 0.009665 0.070805
0.535371 -0.065253 0.024156
0.515276 -0.011231 0.042766
0.511275 0.039731 0.030066
0.558213 0.023957 0.087322
0.569799 0.068699 0.009621
0.581188 -0.017377 0.062816
0.520892 -0.003778 0.064147
0.514463 0.057117 0.019267
0.567558 -0.006684 0.013921
0.517962 0.041956 0.060447
0.556095 0.043616 0.082944
0.569916 -0.045539 0.043128
0.527425 -0.064945 0.024564
0.550996 -0.072429 0.049548
0.573947 0.046978 0.073425
0.561345 0.048458 0.080082
0.580892 -0.018017 0.038568
0.576849 0.054140 0.011626
0.581378 0.067723 0.046802
0.584903 0.014948 0.024890
0.567927 -0.049733 0.044372
0.574108 -0.039929 0.050078
0.535888 -0.079687 0.049803
0.525542 -0.053162 0.022730
0.528273 -0.067205 0.062197
0.582323 0.021784 0.070505
0.558352 -0.044375 0.024951
0.545118 -0.072446 0.034398
0.520694 0.074424 0.017853
0.520930 0.018578 0.005397
0.535461 0.094679 0.042854
0.512839 0.058211 0.038773
0.548695 0.005845 0.089093
0.569468 0.073930 0.011960
0.516271 0.070312 0.043294
0.557185 -0.009375 0.008271
0.529095 0.052299 0.071415
0.577098 -0.016686 0.029279
0.538185 -0.022173 0.081612
0.537834 0.053767 -0.005030
0.516626 -0.035272 0.038579
0.562272 0.032337 0.084270
0.576787 0.030916 0.009804
0.579248 -0.021366 0.064711
0.588721 0.048241 0.036625
0.574560 0.074949 0.019513
0.578093 0.076592 0.031254
0.587858 0.009361 0.055979
0.583997 -0.003148 0.033267
0.568059 0.091594 0.036566
0.585778 -0.007263 0.046390
0.513863 0.001180 0.040377
0.522163 -0.020926 0.018316
0.547157 0.057716 0.077446
0.519866 0.055457 0.060590
0.532242 0.002431 0.079696
0.542850 0.015211 -0.003623
0.514549 -0.004199 0.042564
0.529455 0.083556 0.054754
0.518094 -0.002575 0.016719
0.525726 -0.041884 0.065506
0.535768 0.002752 0.000438
0.573249 0.045652 0.005907
0.550178 -0.037532 0.082135
0.570517 0.075085 0.013826
0.561129 0.086024 0.057263
0.554644 -0.022124 0.086990
0.530067 0.090179 0.044235
0.550537 0.006835 0.089561
0.574964 0.053001 0.069477
0.528500 0.078047 0.009304
0.546474 -0.023343 0.010429
0.564404 0.090695 0.020231
0.576144 0.054324 0.067465
0.583181 0.053326 0.021586
0.518010 0.032474 0.061500
0.578915 0.009536 0.075199
0.531515 0.092671 0.025619
0.537804 0.078497 0.065202
0.532624 0.000166 0.079981
0.572306 0.062366 0.009366
0.544161 -0.012499 0.086297
0.560248 -0.057289 0.036764
0.524021 -0.017398 0.014735
0.563666 0.011217 0.088298
0.542749 0.018195 -0.004222
0.558752 -0.003815 0.089774
0.574547 0.025878 0.008497
0.529205 0.050109 0.072088
0.523830 -0.021952 0.016818
0.573075 0.029953 0.079401
0.518137 -0.022716 0.052812
0.533458 0.010434 0.080470
0.582667 -0.013457 0.061453
0.551877 0.048743 0.081526
0.516668 -0.038542 0.037151
0.522319 -0.077566 0.041333
0.559196 0.001658 0.004859
0.524641 -0.039919 0.021075
0.576449 0.067466 0.057541
0.587597 0.037939 0.026165
0.551564 0.093446 0.052688
0.546914 0.098606 0.023507
0.556007 -0.067441 0.047111
0.590016 0.016996 0.048108
0.527012 0.073563 0.060915
0.565755 -0.053471 0.044420
0.570657 0.012311 0.084093
0.539641 0.096919 0.023297
0.518164 -0.018577 0.053775
0.541345 -0.054540 0.021119
0.568255 0.090983 0.038817
0.543567 -0.043134 0.017318
0.550108 0.005174 0.089490
0.546575 0.038658 0.084064
0.584035 0.059314 0.049994
0.563221 0.017748 0.087459
0.588804 0.045166 0.046676
0.551844 -0.056522 0.026878
0.511683 0.049962 0.034815
0.561671 0.006985 0.089305
0.537793 -0.050953 0.019393
0.530835 -0.000343 0.078463
0.565984 0.085041 0.016178
0.579215 0.064618 0.020361
0.522334 0.061985 0.006528
0.513979 0.060860 0.024599
0.516324 -0.012981 0.027778
0.570965 0.032859 0.080191
0.547458 0.098768 0.023850
0.576387 -0.020248 0.030625
0.513860 0.061977 0.042013
0.540138 0.080395 0.004248
0.517189 0.048613 0.057789
0.540033 0.012321 0.084868
0.553994 -0.039491 0.019556
0.560139 0.072743 0.004295
0.520653 -0.008134 0.014748
0.540024 0.018256 -0.004091
0.555585 -0.040090 0.020766
0.589482 0.027086 0.032959
0.513533 0.003791 0.038554
0.569167 0.006952 0.085511
0.540174 0.084366 0.061541
0.589514 0.016949 0.036801
0.589138 0.015443 0.053071
0.533088 0.091006 0.019373
0.561300 0.078923 0.008002
0.556020 -0.055143 0.073596
0.523032 0.084143 0.039387
0.528674 -0.054169 0.066668
0.527092 -0.015590 0.011426
0.538779 0.038208 -0.006294
0.551423 -0.025390 0.085915
0.570003 0.016779 0.084071
0.529249 0.015436 0.076740
0.517883 0.032235 0.061264
0.563919 -0.026654 0.082654
0.580337 -0.025796 0.050436
0.516541 0.010923 0.056168
0.580098 0.045611 0.013912
0.585104 -0.010213 0.053151
0.549147 0.097701 0.045451
0.532656 -0.003902 0.079908
0.533090 0.001676 0.080377
0.577326 -0.024584 0.066501
0.568188 0.082322 0.054558
0.515406 -0.013144 0.035587
0.530837 -0.039297 0.072245
0.511840 0.022998 0.036205
0.534924 0.029537 0.080246
0.533978 0.014906 -0.002305
0.558915 0.077816 0.005944
0.535439 -0.026100 0.079039
0.534762 0.050092 -0.004960
0.586884 0.052654 0.030079
0.512788 0.015374 0.041708
0.571220 -0.008100 0.082317
0.579420 -0.002054 0.072789
0.552263 -0.023143 0.011825
0.565221 0.044636 0.079980
0.565065 -0.049195 0.068006
0.580792 -0.009166 0.030504
0.516800 0.073395 0.037517
0.549038 0.045780 0.082437
0.525322 -0.073639 0.029815
0.524515 0.035723 -0.000099
0.571875 0.070239 0.061203
0.571026 0.061896 0.067793
0.574974 0.034390 0.007535
0.519977 0.015096 0.065204
0.542571 -0.027239 0.082764
0.586922 0.001202 0.039054
0.563202 -0.040087 0.026861
0.584372 -0.004103 0.035136
0.566745 0.059401 0.072321
0.570074 0.063566 0.007757
0.562143 0.006536 0.089175
0.589533 0.014863 0.038400
0.518212 0.012605 0.010744
0.518753 -0.013246 0.056580
0.535048 -0.012622 0.081086
0.523093 0.063168 0.061973
0.547431 -0.067761 0.067156
0.517695 0.045462 0.008424
0.560720 0.012661 0.089061
0.552816 -0.056660 0.074045
0.556597 0.080240 0.006117
0.531940 -0.075141 0.029784
0.579313 -0.012939 0.069424
0.516783 -0.042295 0.042690
0.584690 0.057751 0.027573
0.532984 -0.036432 0.015835
0.547108 -0.008941 0.087894
0.574778 0.075219 0.020147
0.559103 0.054708 -0.001305
0.528332 0.002166 0.003433
0.548315 -0.003727 0.002766
0.575480 -0.020114 0.072464
0.566196 0.022670 0.085138
0.512899 0.042951 0.019445
0.572603 0.060182 0.008829
0.526404 0.054055 0.068578
0.539035 -0.055418 0.072646
0.586465 0.052943 0.028918
0.516505 0.053858 0.012437
0.547688 -0.010353 0.087920
0.583458 -0.008403 0.062407
0.518715 -0.034059 0.027774
0.569835 0.087081 0.024607
0.536938 -0.018254 0.081571
0.557578 -0.053752 0.030046
0.563983 -0.005256 0.088139
0.559451 0.018741 0.088309
0.516462 0.072559 0.037221
0.513536 0.012059 0.024745
0.525963 0.082959 0.050608
0.545746 0.065933 -0.002588
0.542741 0.072038 0.070124
0.530955 -0.025038 0.075632
0.552326 -0.027156 0.013489
0.523499 -0.058632 0.024875
0.561951 0.028861 0.085187
0.562367 0.096523 0.030416
0.517328 -0.063003 0.049268
0.584994 0.005914 0.029337
0.520883 -0.020981 0.020094
0.565135 0.059676 0.002958
0.529976 0.082648 0.056357
0.512955 0.016217 0.025841
0.540451 0.063224 0.073691
0.549248 -0.025041 0.085602
0.571304 -0.040651 0.064832
0.525568 -0.012203 0.071257
0.516580 -0.042591 0.039432
0.538880 0.064301 -0.002683
0.576231 -0.029100 0.065235
0.562195 -0.048798 0.031621
0.531699 0.093055 0.026440
0.544051 0.088136 0.059050
0.552065 -0.035430 0.082978
0.559129 0.010834 0.089595
0.581275 0.047592 0.064662
0.523214 -0.068324 0.057139
0.548239 0.051145 -0.005312
0.577323 0.027941 0.076089
0.516019 -0.056529 0.040452
0.549766 0.011174 0.089177
0.545851 0.072914 -0.000268
0.580954 -0.021495 0.059579
0.551578 0.047113 -0.005019
0.576539 -0.031577 0.061941
0.516165 0.029843 0.011006
0.559259 -0.063667 0.053518
0.564247 0.012004 0.087974
0.526400 0.069248 0.062762
0.518604 -0.056302 0.051454
0.533180 -0.080302 0.044432
0.543418 -0.076813 0.055111
0.549444 0.055817 0.078490
0.529117 0.054080 -0.001684
0.534658 0.080996 0.006977
0.556069 0.093869 0.050440
0.586053 0.046944 0.024520
0.565742 0.025437 0.001903
0.547447 0.054920 -0.004834
0.515804 -0.002148 0.050803
0.559649 0.042717 -0.002513
0.514667 0.055214 0.017532
0.536126 0.033079 -0.005479
0.587827 0.001927 0.046181
0.583905 0.007344 0.026334
0.579555 -0.006275 0.026495
0.566117 0.091720 0.024683
0.517899 0.032818 0.061260
0.561336 0.023192 -0.000185
0.522492 0.024462 0.068920
0.524570 -0.057653 0.024041
0.528816 0.056534 0.069940
0.556288 -0.026135 0.014883
0.537564 -0.038802 0.077251
0.529430 0.039070 -0.003494
0.564010 0.027030 0.000576
0.520371 0.007640 0.065219
0.528037 0.044892 -0.002558
0.564383 0.091015 0.020633
0.538351 0.094514 0.019774
0.544175 -0.055486 0.074353
0.589057 0.036365 0.031099
0.564776 0.087414 0.017049
0.571480 0.013737 0.083309
0.579994 0.057818 0.060000
0.521093 -0.051816 0.025988
0.542363 0.072108 0.070023
0.517551 -0.071309 0.038397
0.541444 -0.042803 0.016913
0.551270 -0.047068 0.078805
0.555246 0.022983 -0.002862
0.564378 0.070760 0.066840
0.526828 -0.079092 0.037790
0.575752 0.020212 0.011026
0.566488 0.015692 0.086390
0.520278 0.071004 0.015237
0.519728 -0.049254 0.027410
0.523672 0.056837 0.064964
0.542738 0.007714 0.086596
0.544018 -0.076048 0.056606
0.548349 -0.051902 0.076646
0.571430 0.052732 0.072758
0.523298 0.036388 0.068758
0.583480 0.017920 0.068636
0.532372 0.093706 0.026868
0.548419 -0.062753 0.028469
0.571187 -0.033715 0.070830
0.524324 -0.019574 0.067575
0.538158 0.063491 -0.002769
0.516466 0.050969 0.011660
0.518660 0.054978 0.058870
0.553343 -0.019224 0.010656
0.550373 0.055155 -0.004238
0.555518 0.030480 -0.003789
0.569107 0.085231 0.049602
0.513870 0.053275 0.047056
0.551997 0.040071 0.084208
0.521070 0.024191 0.067009
0.571059 -0.028243 0.028322
0.560418 0.031300 0.085037
0.563856 -0.057181 0.046593
0.553078 -0.067976 0.060677
0.577024 -0.029101 0.040301
0.560159 0.031862 -0.002038
0.522987 0.049055 0.002160
0.516671 0.054609 0.012364
0.581488 -0.011300 0.065791
0.531330 -0.015387 0.009081
0.536419 0.005250 0.082811
0.552107 0.030680 0.086299
0.513842 0.040801 0.049199
0.574269 0.082524 0.041059
0.514475 0.022336 0.016489
0.544590 -0.076900 0.042780
0.516542 0.020449 0.011830
0.532697 -0.076470 0.031327
0.513918 0.028529 0.049819
0.568240 0.055131 0.003774
0.563168 0.001350 0.007416
0.572937 -0.008707 0.080249
0.518026 -0.068404 0.049418
0.582204 0.064634 0.048683
0.531690 -0.080359 0.043177
0.578010 0.051568 0.066864
0.533956 -0.079479 0.051165
0.527038 0.061230 0.066841
0.585484 0.051012 0.054136
0.578905 0.031013 0.012146
0.525352 0.037108 -0.000820
0.587666 0.002260 0.042246
0.558570 0.077156 0.065481
0.526047 -0.051651 0.064262
0.545725 -0.007435 0.003869
0.552687 0.094027 0.051547
0.560845 0.078047 0.007229
0.576532 -0.034566 0.048900
0.551703 -0.070949 0.055020
0.564660 0.046709 0.000206
0.552495 -0.054370 0.026066
0.557546 0.066647 0.072028
0.543585 0.083116 0.005690
0.570826 0.022095 0.082597
0.552778 -0.004190 0.004211
0.519819 0.015537 0.007516
0.575185 0.081840 0.037666
0.539521 0.000824 0.084802
0.556576 0.093198 0.016782
0.551314 -0.067778 0.064261
0.548148 0.011761 0.088686
0.553669 -0.052244 0.025715
0.550374 -0.029295 0.084669
0.562867 0.020189 0.001318
0.582785 -0.015979 0.058654
0.517573 -0.000920 0.017090
0.516213 -0.013132 0.028435
0.562128 0.022166 0.086827
0.543519 0.051510 -0.005772
0.569115 0.012605 0.085209
0.532074 -0.015262 0.078398
0.577163 -0.018727 0.030835
0.532804 0.024531 -0.003586
0.549020 0.038579 -0.005934
0.560546 0.086800 0.012879
0.517531 -0.060742 0.032406
0.544339 -0.049746 0.019994
0.515167 0.025534 0.013868
0.535392 -0.073794 0.029242
0.549290 0.022443 -0.004394
0.546005 -0.073687 0.059852
0.515667 -0.012176 0.031146
0.578575 0.011839 0.075790
0.511699 0.029342 0.039015
0.523867 0.074073 0.056814
0.525672 0.047741 -0.000537
0.569714 0.034046 0.080670
0.547185 -0.045873 0.078804
0.526173 -0.038907 0.066753
0.573384 0.029031 0.006855
0.575624 -0.005953 0.077511
0.563797 -0.057869 0.053125
0.548900 0.054026 -0.004737
0.538809 -0.011707 0.005667
0.519726 0.038483 0.004963
0.534837 -0.078033 0.055297
0.569208 -0.032233 0.074580
0.515494 0.027775 0.054851
0.519070 -0.060035 0.052808
0.568511 -0.044709 0.066363
0.551041 0.057984 -0.003553
0.582815 0.029661 0.068931
0.573440 0.029240 0.006868
0.552581 -0.024952 0.012685
0.514664 -0.001468 0.028210
0.552372 -0.012913 0.007699
0.552204 0.084673 0.062010
0.536929 0.054838 -0.004623
0.564236 -0.045785 0.072159
0.523736 0.022316 0.001872
0.556750 -0.037733 0.081714
0.546916 0.044526 -0.006177
0.512713 0.018269 0.042586
0.531258 0.002361 0.001950
0.529147 0.085523 0.051787
0.523906 0.065918 0.061688
0.590134 0.036927 0.044888
0.511533 0.045219 0.028429
0.539480 0.001964 0.084793
0.562077 0.067388 0.003448
0.578990 0.033595 0.073105
0.568117 0.068009 0.066141
0.573799 0.044615 0.006302
0.521505 -0.030246 0.022300
0.564529 0.076067 0.063156
0.573119 0.018108 0.081448
0.556731 0.013402 -0.000180
0.567240 -0.043417 0.034400
0.576916 0.018570 0.012684
0.588306 0.009288 0.036874
0.536906 0.090718 0.015600
0.589371 0.013110 0.038999
0.511778 0.044763 0.025837
0.513471 0.052818 0.045661
0.521664 0.082387 0.031530
0.512924 0.016880 0.043414
0.558093 0.035894 0.084537
0.565206 0.067570 0.005500
0.572264 0.002280 0.014046
0.515522 0.049693 0.013309
0.533517 0.093000 0.043941
0.524284 -0.052595 0.061754
0.547794 0.041406 0.083575
0.576608 0.039286 0.008941
0.538004 0.003819 -0.000299
0.535303 -0.072341 0.062055
0.515594 0.003866 0.020233
0.563637 -0.049736 0.069797
0.572507 -0.007633 0.018736
0.534209 0.028322 0.079855
0.581435 -0.013625 0.035598
0.586311 0.058858 0.039978
0.565887 0.049406 0.077831
0.586810 0.024241 0.025886
0.563806 0.007410 0.088547
0.587924 0.033815 0.057538
0.544649 0.057239 0.077271
0.558863 -0.006986 0.008151
0.549234 0.027311 0.086797
0.556738 -0.054564 0.073520
0.560229 0.097749 0.030455
0.556410 -0.063935 0.038715
0.530680 0.079759 0.059797
0.564377 0.060324 0.002672
0.557672 0.042107 -0.003370
0.533895 -0.017225 0.079610
0.555589 -0.000054 0.003681
0.559953 0.019789 -0.000193
0.548838 -0.072362 0.039419
0.543876 0.000415 0.000602
0.522536 0.083607 0.031052
0.576261 -0.034518 0.046784
0.539783 -0.075881 0.059343
0.528243 0.088478 0.022892
0.524671 0.056738 0.002322
0.569245 -0.049297 0.053393
0.529054 0.070898 0.004094
0.558387 0.000057 0.005021
0.557453 -0.064485 0.058532
0.564665 0.034962 0.082842
0.574265 -0.023455 0.072534
0.585040 0.047215 0.058039
0.512432 0.018311 0.040263
0.529382 0.061580 0.068691
0.540013 -0.078307 0.054006
0.515426 0.040514 0.012181
0.524899 0.086403 0.039422
0.578329 -0.020965 0.066974
0.518989 0.007906 0.062254
0.516380 0.004102 0.054375
0.566387 -0.044871 0.034345
0.551093 0.064159 -0.002149
0.538778 -0.019993 0.009076
0.556074 0.031739 -0.003705
0.558976 0.090125 0.054081
0.521192 -0.007191 0.064002
0.513351 0.051395 0.045614
0.531542 -0.006919 0.078784
0.572514 -0.012627 0.079648
0.540609 0.012878 -0.003023
0.539070 0.007632 -0.001557
0.562467 -0.049344 0.071757
0.516332 0.011925 0.055708
0.548634 -0.048592 0.021039
0.567298 -0.040927 0.032364
0.521227 -0.064023 0.027795
0.556216 -0.038992 0.081369
0.526753 0.021993 0.073921
0.544235 0.009569 0.087260
0.573416 0.083641 0.041623
0.571666 0.087209 0.033883
0.529665 0.061024 0.069112
0.520996 -0.076560 0.041419
0.575263 -0.012350 0.076167
0.557142 0.032737 0.085404
0.565549 -0.015404 0.016253
0.531965 0.088917 0.050224
0.529477 -0.059741 0.065927
0.533418 0.078055 0.005433
0.585256 0.010472 0.027474
0.543944 0.062658 -0.003526
0.520084 0.053681 0.006591
0.519101 -0.012897 0.057554
0.566889 0.085235 0.017414
0.558726 0.093933 0.018956
0.521883 -0.023061 0.061894
0.573696 0.016163 0.081121
0.575793 0.060212 0.012495
0.522907 0.083444 0.027573
0.551861 0.088217 0.058957
0.572084 0.024343 0.081275
0.535328 0.026256 0.080846
0.547078 0.035058 0.084946
0.588301 0.040662 0.053120
0.555033 0.073997 0.068495
0.569889 0.086842 0.024325
0.541774 0.026541 0.084664
0.588499 0.030622 0.056664
0.584391 -0.001586 0.062968
0.532625 0.092960 0.042111
0.531913 0.003909 0.079419
0.513906 0.025701 0.049592
0.517309 0.052301 0.057175
0.557241 -0.065408 0.056089
0.560370 0.035771 0.084045
0.586800 0.049463 0.051508
0.543805 0.073775 0.069342
0.583974 0.003937 0.028316
0.554337 0.053600 -0.003365
0.539616 0.029057 0.083266
0.513197 0.009859 0.041652
0.527934 -0.023752 0.072449
0.519880 -0.052064 0.053997
0.516249 -0.009632 0.049825
0.527624 0.057514 0.000144
0.552727 0.057319 -0.003208
0.584483 0.064136 0.037951
0.555919 0.084836 0.008920
0.516694 -0.030827 0.035902
0.531092 0.016199 -0.001581
0.515644 0.069326 0.029373
0.585781 0.058236 0.045093
0.582600 0.055530 0.057102
0.536453 -0.079927 0.042495
0.534599 0.076332 0.003645
0.532119 0.011824 -0.001031
0.583771 0.065571 0.034453
0.575540 0.035415 0.007990
