ply
format ascii 1.0
element vertex 1024
property float x
property float y
property float z
end_header
0.558990 0.152039 0.083379
0.575337 0.078053 0.044712
0.575559 0.073144 0.043087
0.534895 0.210571 0.035851
0.518333 0.079823 0.012405
0.578045 0.130917 0.039465
0.544653 0.204951 0.034118
0.490756 0.139870 0.052732
0.574623 0.078901 0.018021
0.563647 0.126219 0.019519
0.494353 0.170271 0.032321
0.505707 0.206632 0.059830
0.507998 0.083333 0.027090
0.503938 0.111037 0.011924
0.499016 0.159418 0.019907
0.551964 0.128306 0.012175
0.577525 0.110206 0.035872
0.526417 0.206563 0.030027
0.560738 0.187986 0.076921
0.520814 0.171017 0.012961
0.499533 0.109187 0.016500
0.558198 0.053494 0.009975
0.542196 0.215917 0.061311
0.552303 0.069253 0.053722
0.581299 0.061218 0.027121
0.554916 0.123428 0.077771
0.546815 0.189285 0.084252
0.520345 0.162586 0.087677
0.526519 0.115184 0.077369
0.538478 0.184713 0.087175
0.554262 0.118472 0.012199
0.521566 0.156497 0.009687
0.517586 0.071965 0.018478
0.530874 0.061341 0.039592
0.505618 0.152381 0.079228
0.508271 0.107620 0.063486
0.547266 0.117512 0.009081
0.520146 0.182228 0.016531
0.529823 0.178792 0.088472
0.524955 0.073563 0.011258
0.506122 0.202918 0.038856
0.494854 0.169687 0.064520
0.524932 0.139371 0.085758
0.507262 0.196340 0.030717
0.529148 0.208427 0.032000
0.511530 0.173719 0.016420
0.512085 0.084230 0.015115
0.518341 0.130447 0.081200
0.549275 0.205371 0.039034
0.581081 0.064895 0.030873
0.581473 0.066971 0.028070
0.497201 0.176027 0.030859
0.498974 0.131237 0.066207
0.561481 0.111733 0.070252
0.504267 0.187079 0.027881
0.514732 0.114481 0.072600
0.516987 0.196166 0.080669
0.566002 0.192449 0.064647
0.524873 0.156827 0.088735
0.573798 0.153099 0.070909
0.492477 0.143261 0.059409
0.497754 0.102814 0.033337
0.511231 0.089281 0.013158
0.561023 0.191507 0.038382
0.494456 0.181909 0.053803
0.537794 0.205751 0.031006
0.540144 0.215258 0.047174
0.517463 0.209424 0.035744
0.509386 0.205689 0.037778
0.490138 0.162385 0.048986
0.540180 0.050089 0.021478
0.489707 0.159083 0.048279
0.497107 0.137563 0.017786
0.549915 0.141968 0.013124
0.534706 0.068653 0.009125
0.546215 0.200427 0.079785
0.578599 0.111455 0.045537
0.542236 0.076450 0.058341
0.522914 0.215408 0.042812
0.490791 0.150596 0.031995
0.529501 0.077807 0.056163
0.535410 0.161402 0.010969
0.537504 0.079376 0.059653
0.519190 0.082761 0.010736
0.569145 0.070470 0.011109
0.527829 0.124429 0.005129
0.551925 0.084109 0.007681
0.548857 0.202364 0.034896
0.501639 0.119475 0.012628
0.520526 0.082610 0.055027
0.514944 0.076752 0.017480
0.521018 0.179876 0.015576
0.516026 0.160490 0.086333
0.501844 0.142719 0.014022
0.547328 0.207616 0.072650
0.515121 0.075140 0.037602
0.528091 0.186960 0.086654
0.497562 0.154113 0.020182
0.537574 0.200001 0.025793
0.537238 0.098639 0.005004
0.530607 0.217944 0.066080
0.530294 0.137445 0.085973
0.570040 0.186214 0.059842
0.572066 0.153807 0.073261
0.578910 0.141099 0.044357
0.532727 0.181461 0.088179
0.489432 0.155378 0.048534
0.492786 0.135562 0.024721
0.565139 0.092048 0.059815
0.540431 0.154336 0.089346
0.528319 0.166064 0.089438
0.495870 0.182560 0.039919
0.551938 0.188090 0.026434
0.510483 0.192126 0.078098
0.567321 0.142121 0.025811
0.537697 0.128681 0.006652
0.518333 0.200227 0.026118
0.576899 0.157275 0.045106
0.574081 0.175274 0.062894
0.538230 0.148608 0.088646
0.516877 0.151592 0.086056
0.571063 0.167954 0.073484
0.542822 0.106864 0.073909
0.518611 0.138701 0.083836
0.505665 0.135433 0.075497
0.567740 0.095175 0.059083
0.556172 0.141298 0.016414
0.509116 0.092863 0.013252
0.537452 0.164117 0.090153
0.569293 0.102528 0.060575
0.548429 0.212406 0.053641
0.579570 0.145102 0.057347
0.543080 0.100338 0.070964
0.524701 0.120383 0.005009
0.517192 0.162460 0.086701
0.513368 0.187681 0.020894
0.539858 0.192628 0.021979
0.550112 0.095620 0.067583
0.515832 0.173717 0.085339
0.530047 0.110935 0.004452
0.538464 0.207878 0.033749
0.536440 0.212537 0.072976
0.493414 0.146481 0.025233
0.562864 0.110008 0.016365
0.553045 0.199109 0.035748
0.563120 0.085663 0.011974
0.539315 0.050811 0.024868
0.512458 0.088178 0.012723
0.569554 0.053307 0.012032
0.522726 0.155538 0.009414
0.528410 0.214355 0.072532
0.511097 0.205715 0.071190
0.527198 0.217037 0.068235
0.566365 0.192977 0.053978
0.543118 0.201341 0.080340
0.493606 0.126838 0.052413
0.544630 0.137628 0.010024
0.561510 0.045984 0.019194
0.526037 0.125152 0.081435
0.563287 0.073144 0.052616
0.576392 0.145632 0.066451
0.534434 0.148998 0.088802
0.523803 0.193016 0.084187
0.571355 0.182886 0.053342
0.530835 0.058956 0.035028
0.533914 0.126043 0.005662
0.524245 0.141247 0.086114
0.501780 0.194130 0.036880
0.518203 0.070677 0.035848
0.564578 0.175086 0.078455
0.573584 0.174260 0.066051
0.495667 0.179054 0.062034
0.572665 0.086492 0.018885
0.531453 0.191644 0.019717
0.530596 0.191304 0.085759
0.560538 0.148990 0.082239
0.526449 0.090508 0.063980
0.541278 0.196533 0.083171
0.549424 0.104802 0.071762
0.508585 0.204553 0.068997
0.531850 0.085539 0.005938
0.552497 0.163978 0.086600
0.529095 0.187760 0.086576
0.498054 0.167464 0.024225
0.549966 0.088829 0.007530
0.564916 0.115080 0.069628
0.549876 0.062325 0.007287
0.513323 0.192387 0.023220
0.569544 0.129156 0.071681
0.574696 0.068915 0.014182
0.509402 0.188072 0.078857
0.518032 0.117115 0.005931
0.510064 0.153998 0.011546
0.552425 0.110371 0.073323
0.571181 0.181460 0.049103
0.564474 0.188873 0.072038
0.565950 0.146130 0.078482
0.505416 0.087732 0.025117
0.550138 0.153039 0.015154
0.538752 0.123625 0.006518
0.539528 0.169359 0.013847
0.537769 0.201468 0.027007
0.495585 0.160259 0.067771
0.543122 0.189845 0.021923
0.498343 0.138616 0.068527
0.541746 0.215279 0.064264
0.519223 0.076300 0.047326
0.489544 0.140553 0.046521
0.501057 0.100058 0.043859
0.518393 0.167831 0.086803
0.511965 0.143781 0.082133
0.576744 0.162060 0.047952
0.540795 0.049771 0.021435
0.554685 0.184305 0.026722
0.530320 0.205850 0.079762
0.502487 0.202010 0.046570
0.514077 0.076932 0.038707
0.506383 0.118558 0.068310
0.578270 0.095677 0.037733
0.569250 0.133924 0.026377
0.555544 0.188421 0.029698
0.580988 0.062580 0.022617
0.546759 0.201896 0.032509
0.550485 0.141883 0.084863
0.549277 0.050025 0.035208
0.561079 0.045858 0.019516
0.534386 0.179269 0.015251
0.578613 0.157122 0.055502
0.544107 0.117423 0.007855
0.494321 0.166869 0.064114
0.576409 0.099611 0.048584
0.505745 0.157487 0.080024
0.522021 0.099109 0.067566
0.562983 0.184655 0.035545
0.501138 0.121035 0.063389
0.494745 0.110749 0.029371
0.497057 0.186447 0.040499
0.544782 0.156711 0.013289
0.504241 0.136156 0.011665
0.579462 0.083404 0.033782
0.510947 0.133282 0.008715
0.543410 0.120323 0.007812
0.499807 0.151289 0.017215
0.507847 0.124813 0.073041
0.500876 0.167428 0.021054
0.556086 0.060301 0.047352
0.539406 0.216648 0.063485
0.556109 0.107354 0.070833
0.560041 0.175225 0.027506
0.567122 0.164544 0.031065
0.553773 0.049552 0.013462
0.562388 0.111464 0.016241
0.577672 0.099179 0.033814
0.575589 0.151080 0.039317
0.546714 0.213559 0.059625
0.496185 0.125410 0.057743
0.499701 0.188101 0.066296
0.502199 0.171368 0.076493
0.500051 0.193499 0.062754
0.569592 0.187310 0.056312
0.566344 0.056757 0.042063
0.580165 0.135845 0.053117
0.510805 0.154094 0.083315
0.524376 0.094643 0.006022
0.506470 0.117691 0.067884
0.556245 0.175897 0.083575
0.517157 0.126739 0.079412
0.491833 0.139762 0.056291
0.492158 0.127433 0.047737
0.546105 0.052894 0.012798
0.577245 0.133299 0.037997
0.533564 0.054826 0.028276
0.489888 0.136886 0.035556
0.529964 0.217725 0.047173
0.540123 0.108945 0.075147
0.514431 0.154220 0.085327
0.573945 0.081408 0.047537
0.529180 0.133938 0.084848
0.576218 0.132648 0.035819
0.492947 0.117555 0.029626
0.506178 0.086234 0.027514
0.539824 0.055338 0.013565
0.542118 0.186336 0.086173
0.560724 0.185747 0.033457
0.571780 0.159377 0.073519
0.512803 0.089747 0.011828
0.563093 0.191825 0.042156
0.536256 0.086894 0.064114
0.576709 0.164358 0.062402
0.556012 0.206320 0.055023
0.573468 0.056099 0.037647
0.512191 0.211314 0.066159
0.502123 0.190632 0.033297
0.538176 0.061863 0.010501
0.519107 0.114369 0.005675
0.539074 0.185375 0.018475
0.526314 0.182755 0.015984
0.492651 0.130091 0.052257
0.559605 0.101102 0.012722
0.497217 0.179822 0.065664
0.531823 0.143840 0.087693
0.499501 0.099114 0.024692
0.578624 0.157069 0.054950
0.500834 0.183744 0.070779
0.550338 0.208590 0.067885
0.575102 0.168549 0.065631
0.574513 0.137870 0.033946
0.577097 0.121678 0.035858
0.502465 0.165061 0.077353
0.504147 0.116056 0.011188
0.559366 0.088642 0.010693
0.541197 0.114485 0.006640
0.491164 0.161817 0.035262
0.507740 0.106810 0.062413
0.576841 0.134225 0.037326
0.544085 0.074664 0.057323
0.535789 0.194216 0.084780
0.503584 0.201905 0.062352
0.574307 0.092020 0.050292
0.508730 0.095791 0.055129
0.544999 0.075417 0.057810
0.538840 0.214450 0.068877
0.518056 0.217517 0.055181
0.508807 0.184840 0.022441
0.543733 0.174956 0.088141
0.514977 0.091775 0.058395
0.572063 0.154103 0.034355
0.565511 0.091104 0.014510
0.549715 0.208181 0.069491
0.551754 0.067936 0.006628
0.549969 0.211201 0.053225
0.491539 0.132962 0.050723
0.514448 0.122191 0.006972
0.516735 0.080450 0.013215
0.530268 0.079900 0.058084
0.563140 0.146590 0.022604
0.495879 0.143333 0.066294
0.527106 0.215815 0.070424
0.558403 0.142420 0.082131
0.489626 0.140517 0.036422
0.493862 0.175885 0.039181
0.491368 0.145771 0.029769
0.527105 0.173178 0.088733
0.505503 0.180111 0.078060
0.549105 0.194094 0.027897
0.543017 0.048810 0.023795
0.573160 0.151244 0.071788
0.561476 0.048154 0.014666
0.503563 0.097122 0.046865
0.577054 0.103423 0.048276
0.543928 0.088171 0.064969
0.488979 0.146790 0.041989
0.578878 0.155194 0.054477
0.489865 0.137566 0.046145
0.502694 0.190457 0.070232
0.579685 0.129657 0.054472
0.526342 0.216196 0.069683
0.504018 0.165393 0.017650
0.580055 0.141701 0.053823
0.535581 0.218143 0.062993
0.518063 0.167581 0.012564
0.493358 0.176471 0.054967
0.511735 0.139142 0.080860
0.569299 0.048088 0.031184
0.523560 0.085776 0.007980
0.510924 0.182633 0.081538
0.570288 0.118734 0.066811
0.579806 0.077073 0.034977
0.507422 0.109529 0.063826
0.556896 0.080944 0.008768
0.497611 0.180798 0.066053
0.551391 0.079250 0.059379
0.516704 0.139853 0.007973
0.557306 0.142311 0.082581
0.562017 0.143098 0.080479
0.554859 0.206705 0.063642
0.539215 0.077152 0.006265
0.577742 0.091780 0.042183
0.536850 0.123933 0.006053
0.515538 0.181617 0.017590
0.523451 0.152032 0.008767
0.531013 0.191693 0.019701
0.578428 0.108375 0.043091
0.512370 0.076790 0.024779
0.541383 0.074366 0.006432
0.539093 0.189765 0.085797
0.568127 0.051831 0.012506
0.502995 0.174477 0.022355
0.509173 0.127889 0.075460
0.575473 0.054655 0.034691
0.524954 0.070756 0.046587
0.578870 0.077721 0.037982
0.577028 0.128331 0.061681
0.559369 0.188734 0.033930
0.504245 0.164078 0.079138
0.544590 0.165856 0.089002
0.573572 0.124275 0.065510
0.509109 0.192803 0.026461
0.536457 0.173018 0.013885
0.499485 0.128781 0.014275
0.516366 0.181550 0.017275
0.489323 0.156563 0.045455
0.534548 0.172291 0.013321
0.506401 0.165650 0.016229
0.541914 0.215537 0.063246
0.535442 0.206551 0.031045
0.555919 0.073499 0.007576
0.515379 0.099734 0.064359
0.568929 0.072576 0.011657
0.536706 0.133986 0.085052
0.542665 0.082588 0.061998
0.552969 0.073037 0.006984
0.515475 0.213700 0.066680
0.575412 0.106823 0.053818
0.534441 0.146877 0.008251
0.577658 0.108080 0.048525
0.515326 0.171876 0.085348
0.522498 0.112389 0.074974
0.555210 0.050157 0.037318
0.580208 0.071349 0.034265
0.533017 0.132945 0.006231
0.574956 0.061961 0.039813
0.563201 0.117130 0.017748
0.563681 0.168663 0.028634
0.495097 0.137632 0.020661
0.532832 0.185699 0.087287
0.506333 0.094687 0.050097
0.542592 0.121136 0.007576
0.565413 0.185834 0.040089
0.547876 0.112624 0.075462
0.537103 0.166522 0.012458
0.495294 0.157590 0.024089
0.534071 0.071676 0.053078
0.579895 0.063984 0.033905
0.548041 0.049175 0.032566
0.489427 0.157778 0.043739
0.492764 0.161392 0.030281
0.523934 0.096380 0.066705
0.529912 0.169818 0.089510
0.498855 0.178736 0.069550
0.523734 0.128758 0.082244
0.535436 0.067931 0.050394
0.525092 0.075548 0.051761
0.559532 0.045456 0.020942
0.579861 0.076009 0.034973
0.553035 0.058112 0.008095
0.491472 0.131735 0.049312
0.554466 0.077056 0.057615
0.562749 0.051867 0.038927
0.558451 0.201383 0.047168
0.579467 0.148276 0.050645
0.526342 0.215451 0.042217
0.552367 0.185447 0.025461
0.504173 0.121997 0.010917
0.530235 0.190634 0.085926
0.544194 0.196013 0.025918
0.559407 0.112836 0.071756
0.519592 0.173076 0.013737
0.532784 0.099375 0.070598
0.522681 0.097826 0.005956
0.567866 0.179652 0.073308
0.570579 0.093882 0.019315
0.492717 0.145150 0.026478
0.536368 0.147457 0.088504
0.507156 0.091070 0.047014
0.505498 0.159140 0.079989
0.521238 0.189793 0.084389
0.510161 0.189516 0.078887
0.500861 0.119796 0.062169
0.522362 0.110617 0.074031
0.509764 0.205810 0.069491
0.512738 0.105010 0.065768
0.563110 0.129711 0.019597
0.578153 0.108459 0.038736
0.502061 0.173770 0.022910
0.532756 0.179192 0.015009
0.522586 0.123203 0.005424
0.572016 0.140984 0.072197
0.562280 0.124135 0.018047
0.524326 0.204882 0.028593
0.577959 0.127323 0.038715
0.546798 0.082948 0.006411
0.576592 0.130083 0.063134
0.538254 0.162907 0.090114
0.517696 0.080209 0.012651
0.527952 0.191349 0.085484
0.500877 0.200021 0.049618
0.507867 0.093724 0.013928
0.529947 0.212150 0.036986
0.502394 0.122507 0.011996
0.490233 0.163765 0.047790
0.558535 0.203961 0.059022
0.568091 0.101452 0.061291
0.524029 0.207263 0.078175
0.490587 0.164975 0.050157
0.518779 0.166699 0.087004
0.538410 0.157210 0.010849
0.493101 0.120167 0.042444
0.541687 0.215975 0.051214
0.512435 0.197151 0.026774
0.522627 0.120894 0.005280
0.532737 0.179020 0.088641
0.513229 0.105456 0.007875
0.547637 0.063005 0.049501
0.578686 0.111804 0.042890
0.493573 0.123966 0.022638
0.571852 0.143958 0.072828
0.499111 0.110328 0.016671
0.539903 0.143185 0.087336
0.519521 0.170864 0.013137
0.578334 0.107233 0.040867
0.489505 0.140891 0.037324
0.556672 0.104415 0.011688
0.519461 0.130631 0.006519
0.505453 0.098291 0.052475
0.497986 0.163634 0.022567
0.572289 0.090831 0.020024
0.574142 0.051310 0.017387
0.558065 0.123416 0.076622
0.578721 0.089217 0.036755
0.494553 0.178584 0.058544
0.515964 0.150360 0.085481
0.508876 0.209771 0.046710
0.531615 0.218517 0.064210
0.545335 0.053131 0.038307
0.503344 0.127459 0.069917
0.523770 0.195152 0.021606
0.537673 0.064779 0.048456
0.491664 0.123868 0.030644
0.536986 0.218512 0.059019
0.555056 0.108338 0.011434
0.570774 0.071316 0.047206
0.508165 0.204965 0.068004
0.569485 0.082248 0.052528
0.503096 0.120996 0.011581
0.501937 0.154785 0.016060
0.496665 0.169688 0.068412
0.493028 0.130482 0.023532
0.498964 0.155205 0.072756
0.560110 0.066530 0.050477
0.557773 0.178063 0.026601
0.495119 0.120207 0.020111
0.573581 0.075746 0.046225
0.525013 0.120938 0.005014
0.527107 0.201800 0.081578
0.519806 0.178653 0.086118
0.568162 0.189995 0.055024
0.561115 0.189080 0.036393
0.573559 0.116588 0.028758
0.489709 0.144106 0.035552
0.530972 0.218522 0.064374
0.533085 0.095950 0.068814
0.548550 0.188576 0.024294
0.553857 0.204129 0.071047
0.538043 0.173402 0.014398
0.511530 0.130597 0.008317
0.560137 0.083264 0.058739
0.542174 0.192261 0.084510
0.578881 0.121542 0.041374
0.573562 0.144610 0.070804
0.558346 0.082217 0.058971
0.512262 0.138777 0.081051
0.564052 0.132489 0.020882
0.492830 0.118865 0.028082
0.512168 0.202662 0.031572
0.511739 0.128573 0.077426
0.500738 0.125686 0.065689
0.545451 0.214589 0.056521
0.537398 0.197659 0.083349
0.523760 0.062610 0.021061
0.539420 0.208301 0.034776
0.546712 0.070262 0.006520
0.578596 0.113184 0.047551
0.571565 0.164457 0.073367
0.511500 0.091368 0.012071
0.491132 0.128351 0.030623
0.523820 0.136765 0.006601
0.538716 0.157028 0.010900
0.505768 0.087673 0.023110
0.517569 0.087852 0.057301
0.547935 0.137111 0.011446
0.527997 0.160606 0.089411
0.509024 0.101669 0.060299
0.514703 0.215109 0.050437
0.523555 0.116945 0.004963
0.521702 0.122220 0.005481
0.507872 0.088206 0.044093
0.498911 0.195112 0.056169
0.568647 0.115910 0.022654
0.538022 0.083702 0.005604
0.562621 0.151726 0.023156
0.514433 0.148870 0.009552
0.577060 0.142533 0.064937
0.540698 0.197304 0.082978
0.527209 0.094861 0.005416
0.570675 0.176760 0.070722
0.510411 0.164438 0.083662
0.559751 0.143605 0.019268
0.497051 0.104095 0.030321
0.497035 0.109028 0.043368
0.563192 0.100234 0.064458
0.491095 0.156832 0.032743
0.520399 0.066896 0.031958
0.527792 0.105742 0.073097
0.547275 0.199424 0.030611
0.499884 0.161304 0.019629
0.579475 0.055524 0.027919
0.577213 0.164634 0.058668
0.494385 0.181950 0.053006
0.492097 0.173429 0.047013
0.538426 0.151442 0.089127
0.538291 0.139561 0.008002
0.520053 0.091829 0.007789
0.515333 0.113654 0.072502
0.548927 0.079966 0.060148
0.520992 0.109433 0.072905
0.492277 0.171536 0.040576
0.535107 0.180828 0.088287
0.494996 0.119679 0.020495
0.511047 0.126396 0.076126
0.578790 0.142586 0.044416
0.551492 0.113122 0.010412
0.523042 0.107841 0.005008
0.527921 0.185833 0.017083
0.536853 0.052863 0.018220
0.573546 0.174809 0.048817
0.494676 0.125951 0.020149
0.525912 0.061807 0.018322
0.541586 0.200154 0.081442
0.575415 0.052601 0.032505
0.501900 0.098798 0.044590
0.569096 0.086649 0.015890
0.512535 0.170105 0.084335
0.576121 0.091238 0.046674
0.509343 0.108108 0.009203
0.520582 0.189948 0.084128
0.550826 0.175504 0.085939
0.579547 0.130886 0.055702
0.567997 0.120796 0.069819
0.503873 0.092402 0.039057
0.491612 0.134815 0.027737
0.569450 0.172413 0.037492
0.533403 0.176883 0.089016
0.523019 0.175640 0.013966
0.535823 0.066198 0.009610
0.511453 0.164919 0.084199
0.569632 0.182851 0.045983
0.509249 0.106606 0.009462
0.503133 0.102933 0.052859
0.576612 0.095599 0.028438
0.518088 0.202145 0.078646
0.522678 0.101910 0.005474
0.553421 0.067653 0.052617
0.497105 0.107920 0.021392
0.494719 0.132203 0.020354
0.547895 0.198715 0.030496
0.572060 0.141794 0.031291
0.529737 0.205461 0.028936
0.558172 0.189480 0.078407
0.507062 0.189329 0.026240
0.532390 0.097202 0.004700
0.562850 0.096170 0.062959
0.580900 0.070953 0.031501
0.493044 0.141762 0.025278
0.516851 0.212428 0.070196
0.568612 0.065817 0.009711
0.522498 0.119556 0.078346
0.577753 0.108524 0.036583
0.542673 0.178593 0.087740
0.523037 0.203736 0.027760
0.570750 0.145857 0.030513
0.507991 0.180951 0.021282
0.513095 0.092218 0.010775
0.516616 0.074101 0.039427
0.536269 0.111262 0.005144
0.571615 0.086709 0.017985
0.563177 0.189428 0.073431
0.510499 0.084183 0.043760
0.548130 0.071293 0.055282
0.540895 0.216231 0.050810
0.510526 0.205692 0.036426
0.515374 0.081752 0.013609
0.495759 0.124480 0.018470
0.490645 0.157561 0.055112
0.560256 0.058617 0.007909
0.561708 0.174825 0.080657
0.489474 0.138303 0.042459
0.574335 0.073209 0.015537
0.502225 0.126926 0.012132
0.554911 0.196019 0.077537
0.509701 0.091042 0.051789
0.560161 0.170144 0.082442
0.513185 0.082016 0.046035
0.576169 0.159748 0.044432
0.537774 0.055479 0.036523
0.493243 0.124631 0.023352
0.523814 0.190928 0.019470
0.564728 0.071835 0.009741
0.565297 0.045958 0.022695
0.550099 0.046084 0.022881
0.500211 0.171322 0.023628
0.571228 0.181579 0.064807
0.555436 0.205675 0.065305
0.507379 0.209391 0.051521
0.516181 0.159595 0.086392
0.550564 0.145321 0.085619
0.561063 0.178622 0.080123
0.555126 0.125084 0.013401
0.553964 0.163855 0.086017
0.566932 0.184103 0.041259
0.573883 0.159991 0.070420
0.509496 0.113496 0.068254
0.525047 0.121464 0.079799
0.530834 0.109194 0.075284
0.519491 0.207465 0.076393
0.538579 0.157591 0.010970
0.555484 0.144312 0.083722
0.531904 0.147750 0.008103
0.580565 0.071744 0.032938
0.519894 0.177385 0.014972
0.558991 0.096153 0.064906
0.529864 0.082226 0.006954
0.575615 0.167107 0.064849
0.552313 0.147374 0.085463
0.539661 0.132236 0.007555
0.574595 0.172980 0.063765
0.523686 0.207541 0.077910
0.540884 0.216790 0.060323
0.531195 0.064834 0.012072
0.511824 0.148050 0.082934
0.526769 0.204290 0.080340
0.491360 0.125142 0.031912
0.492565 0.168205 0.058428
0.580210 0.078000 0.029669
0.507371 0.189492 0.026048
0.578033 0.058713 0.016639
0.571116 0.083077 0.051331
0.521440 0.071019 0.014830
0.561497 0.145708 0.081233
0.495255 0.183595 0.043798
0.573994 0.049157 0.022915
0.538546 0.137183 0.085889
0.492064 0.127861 0.026403
0.561345 0.198398 0.048365
0.579544 0.080658 0.027954
0.526800 0.179282 0.014805
0.509511 0.125364 0.008596
0.548466 0.046555 0.022340
0.525990 0.067174 0.013790
0.490312 0.163983 0.042966
0.528854 0.159164 0.009935
0.492883 0.127902 0.051065
0.539998 0.216674 0.051053
0.562634 0.061093 0.046334
0.510896 0.080303 0.035835
0.541344 0.104724 0.006115
0.563898 0.188810 0.072899
0.570848 0.180127 0.046219
0.534890 0.179154 0.015303
0.562441 0.103907 0.066416
0.558636 0.178146 0.081812
0.560323 0.153012 0.082792
0.501186 0.198192 0.060552
0.546871 0.179658 0.019955
0.497907 0.154941 0.019953
0.534273 0.147980 0.008396
0.540038 0.089584 0.065858
0.493635 0.144483 0.024525
0.538210 0.061398 0.045237
0.537747 0.052004 0.026728
0.527722 0.086318 0.061682
0.555677 0.153161 0.085007
0.573685 0.177704 0.057288
0.569408 0.183550 0.046224
0.502676 0.100244 0.048823
0.577395 0.112659 0.052218
0.516962 0.124725 0.006498
0.498415 0.145607 0.017674
0.548112 0.167358 0.017245
0.504423 0.195212 0.069911
0.575047 0.152327 0.038692
0.558115 0.046883 0.032290
0.577401 0.150469 0.043224
0.574105 0.051000 0.031841
0.550324 0.155372 0.015689
0.541024 0.173417 0.088945
0.553663 0.121999 0.077638
0.497512 0.103317 0.032924
0.569230 0.060406 0.009585
0.497646 0.175380 0.068532
0.567197 0.046349 0.022503
0.490378 0.161941 0.051638
0.559804 0.045961 0.018639
0.522251 0.182625 0.016315
0.494578 0.160924 0.065762
0.533267 0.146864 0.088390
0.576863 0.165859 0.059898
0.512331 0.114220 0.070910
0.498686 0.191218 0.041226
0.549622 0.073512 0.006567
0.569754 0.117669 0.066853
0.508812 0.210192 0.048359
0.538445 0.196981 0.083479
0.523132 0.080325 0.054821
0.543347 0.049947 0.029402
0.547807 0.166366 0.088074
0.559781 0.068550 0.051712
0.497023 0.180637 0.034931
0.549933 0.205872 0.072757
0.490461 0.133466 0.032745
0.564093 0.119223 0.071944
0.579369 0.145374 0.048088
0.506378 0.194660 0.072859
0.514451 0.119557 0.006894
0.531152 0.211748 0.075247
0.536329 0.052255 0.022997
0.503524 0.127899 0.011380
0.558779 0.070385 0.052995
0.513946 0.087925 0.011817
0.554055 0.140918 0.083477
0.507923 0.096076 0.054265
0.577678 0.129010 0.038245
0.573198 0.116405 0.028208
0.493233 0.135072 0.023619
0.565101 0.176270 0.077653
0.491833 0.124391 0.028799
0.527521 0.106187 0.004509
0.532083 0.097235 0.069366
0.576635 0.152255 0.065918
0.564398 0.162512 0.080438
0.532693 0.205020 0.080174
0.579983 0.069530 0.021810
0.568523 0.075411 0.050579
0.575747 0.155521 0.041316
0.573203 0.053194 0.035467
0.566677 0.146647 0.078010
0.544309 0.048105 0.021721
0.571421 0.117203 0.026024
0.492400 0.122423 0.042012
0.559317 0.157655 0.021709
0.528674 0.196725 0.022272
0.574105 0.176083 0.060950
0.489941 0.145492 0.034442
0.523901 0.073085 0.012039
0.544956 0.085623 0.006147
0.541151 0.146656 0.087955
0.497063 0.105647 0.037006
0.533751 0.060137 0.040582
0.560223 0.177422 0.081003
0.574028 0.114889 0.060270
0.576193 0.167905 0.052001
0.555957 0.046785 0.016529
0.509219 0.081832 0.031959
0.545857 0.153823 0.013235
0.564276 0.067983 0.008771
0.518282 0.070638 0.035984
0.557080 0.180680 0.082082
0.490529 0.139419 0.051514
0.541059 0.146845 0.088006
0.562767 0.098327 0.063912
0.571821 0.128092 0.028383
0.563803 0.110522 0.068390
0.503745 0.200248 0.039834
0.567944 0.180855 0.072485
0.517244 0.070004 0.028804
0.579283 0.151610 0.055454
0.513658 0.078595 0.017601
0.564664 0.168774 0.079682
0.558538 0.146350 0.018881
0.578609 0.130564 0.058836
0.526210 0.207135 0.030627
0.526976 0.188348 0.018124
0.501166 0.147078 0.074156
0.563466 0.174084 0.030485
0.514234 0.120673 0.006981
0.542665 0.186711 0.085964
0.489241 0.143699 0.046265
0.493866 0.180160 0.046681
0.537835 0.161742 0.090131
0.577809 0.099188 0.034600
0.496608 0.189055 0.046979
0.490629 0.129194 0.034793
0.560708 0.135830 0.079502
0.541601 0.075139 0.057454
0.536952 0.135177 0.085405
0.514180 0.121398 0.075780
0.545656 0.213813 0.061836
0.511115 0.124674 0.075425
0.565248 0.173828 0.032420
0.548230 0.179433 0.020598
0.546313 0.207629 0.039103
0.558114 0.144878 0.018322
0.494529 0.149505 0.023660
0.539078 0.186004 0.086779
0.542674 0.120270 0.079583
0.570585 0.178946 0.044277
0.527235 0.214151 0.039916
0.552791 0.073219 0.006967
0.500867 0.157228 0.017531
0.535258 0.155701 0.089781
0.575390 0.130691 0.065341
0.549580 0.051580 0.012702
0.575705 0.133803 0.035109
0.520196 0.066521 0.029643
0.541357 0.110158 0.075540
0.515456 0.147885 0.009199
0.524719 0.100798 0.069580
0.502378 0.169669 0.076959
0.491129 0.161514 0.035171
0.519706 0.137263 0.083800
0.494141 0.120216 0.022198
0.494319 0.143375 0.063479
0.503963 0.173878 0.021202
0.557847 0.114794 0.073262
0.500718 0.142928 0.014959
0.523208 0.063020 0.021680
0.517979 0.214088 0.068765
0.550272 0.057224 0.044774
0.520756 0.200458 0.025589
0.543240 0.179417 0.087462
0.556027 0.163780 0.085149
0.525876 0.103765 0.004773
0.561686 0.122664 0.074710
0.557161 0.141316 0.082417
0.556676 0.050658 0.038088
0.571585 0.126002 0.068565
0.545803 0.208664 0.040173
0.524809 0.080628 0.056106
0.549305 0.047403 0.017438
0.546733 0.212883 0.050381
0.570755 0.184774 0.059111
0.528038 0.067226 0.045094
0.563450 0.197382 0.062355
0.558841 0.122027 0.075778
0.535589 0.054621 0.031669
0.491560 0.147299 0.029427
0.505369 0.089422 0.037823
0.492932 0.156974 0.062365
0.560370 0.146668 0.020303
0.519294 0.182274 0.016729
0.553485 0.045491 0.021083
0.573474 0.170161 0.044112
0.537652 0.210078 0.036296
0.506070 0.091453 0.044824
0.542634 0.133075 0.008661
0.550821 0.130692 0.011924
0.542530 0.073921 0.056745
0.554685 0.186532 0.081735
0.573447 0.106537 0.057079
0.559615 0.154103 0.083249
0.503674 0.204774 0.050696
0.543247 0.117770 0.007562
0.548658 0.178083 0.020409
0.525762 0.114368 0.004663
0.499086 0.099661 0.032665
0.573597 0.139160 0.069960
0.574736 0.134274 0.067342
0.519494 0.066980 0.027485
0.548180 0.138173 0.011714
0.564660 0.075480 0.053019
0.542464 0.077732 0.059151
0.581524 0.065954 0.027335
0.514538 0.077523 0.017340
0.526047 0.143946 0.007416
0.507631 0.126772 0.009377
0.504344 0.196433 0.069019
0.510235 0.201002 0.073504
0.518928 0.181633 0.016584
0.574742 0.052572 0.016483
0.499671 0.099643 0.037070
0.495242 0.146570 0.022076
0.549476 0.104389 0.071572
0.524696 0.209950 0.034046
0.547932 0.064745 0.007072
0.558010 0.203237 0.065215
0.522646 0.124095 0.080267
0.560762 0.186788 0.077463
0.571447 0.182428 0.052582
0.550490 0.113293 0.010015
0.525581 0.201673 0.081380
0.528009 0.211784 0.075333
0.547784 0.102408 0.007997
0.490906 0.127208 0.035245
0.528659 0.175865 0.088737
0.548068 0.208746 0.042843
0.505367 0.204048 0.042056
0.490068 0.135491 0.034776
0.514460 0.145539 0.009107
0.501766 0.151098 0.015458
0.495704 0.150347 0.067480
0.499595 0.188657 0.036308
0.518305 0.201927 0.078858
0.507381 0.144032 0.011063
0.495262 0.140228 0.064190
0.500609 0.109291 0.053786
0.529141 0.214480 0.040551
0.522676 0.124737 0.005524
0.551117 0.152650 0.015568
0.537588 0.177012 0.015264
0.537672 0.053999 0.033130
0.493388 0.148926 0.025611
0.495914 0.159372 0.068379
0.506527 0.190853 0.027708
0.524341 0.117958 0.078141
0.555714 0.175676 0.083876
0.509260 0.147083 0.010742
0.560734 0.138166 0.019069
0.536387 0.099416 0.004889
0.561133 0.075431 0.009285
0.557174 0.117812 0.013680
0.570165 0.185074 0.062802
0.555856 0.179629 0.082978
0.503877 0.175386 0.077576
0.539030 0.204506 0.079449
0.571460 0.098429 0.021653
0.578184 0.144361 0.062504
0.554740 0.196486 0.035067
0.499227 0.168709 0.072962
0.493394 0.165674 0.062079
0.564411 0.045776 0.026408
0.558875 0.201469 0.067135
0.578072 0.139835 0.062432
0.506526 0.177262 0.079643
0.537500 0.152269 0.089311
