ply
format ascii 1.0
element vertex 1024
property float x
property float y
property float z
end_header
0.528446 0.066852 0.015140
0.515722 -0.017195 0.011899
0.515618 -0.022319 0.012620
0.462891 0.110928 0.020142
0.475007 -0.015229 0.063228
0.496245 0.029932 -0.003238
0.464513 0.103362 0.011779
0.491333 0.058403 0.080671
0.490172 -0.024632 0.009539
0.476298 0.021943 0.009627
0.464067 0.079685 0.068128
0.481655 0.120107 0.051861
0.486107 -0.005470 0.074014
0.463248 0.016343 0.070055
0.456225 0.064830 0.064737
0.466783 0.023726 0.019680
0.498637 0.009601 0.001564
0.457085 0.106921 0.028632
0.512459 0.098010 0.004628
0.450102 0.069476 0.040266
0.467339 0.016858 0.075229
0.486981 -0.047823 0.030324
0.486646 0.122546 0.014592
0.522789 -0.018360 0.037156
0.504911 -0.039483 0.008049
0.530571 0.039178 0.024953
0.516633 0.104064 0.018599
0.522919 0.085098 0.050632
0.527683 0.036566 0.054268
0.519265 0.102244 0.028019
0.469986 0.014149 0.019681
0.451257 0.054782 0.042470
0.482839 -0.020514 0.066379
0.508042 -0.026236 0.058178
0.515326 0.075638 0.066292
0.513613 0.028510 0.072158
0.466122 0.013558 0.026337
0.450178 0.081165 0.038760
0.520692 0.098716 0.037876
0.476829 -0.022635 0.058109
0.462987 0.110002 0.050052
0.494703 0.089131 0.071225
0.528471 0.062023 0.051234
0.457366 0.101116 0.049563
0.458883 0.108776 0.025779
0.451016 0.074777 0.049014
0.475249 -0.009131 0.068571
0.525576 0.053486 0.059145
0.469822 0.104447 0.007736
0.507373 -0.034841 0.007830
0.504206 -0.033857 0.006681
0.461542 0.084071 0.063913
0.507899 0.053072 0.076110
0.527910 0.024724 0.020435
0.456804 0.092145 0.054253
0.521371 0.036575 0.065327
0.506213 0.114813 0.045540
0.500510 0.097363 -0.002793
0.526322 0.079234 0.047663
0.518904 0.061225 -0.000772
0.496967 0.063339 0.078953
0.484731 0.016516 0.080196
0.471825 -0.004881 0.068046
0.475142 0.089173 -0.000573
0.481057 0.097238 0.067698
0.460180 0.104389 0.017906
0.473143 0.117881 0.015214
0.460141 0.113016 0.037267
0.461741 0.111650 0.046150
0.481310 0.078325 0.075778
0.495726 -0.044097 0.049771
0.481506 0.075106 0.076865
0.460094 0.044149 0.071299
0.463456 0.037130 0.018676
0.477872 -0.029663 0.049550
0.509156 0.113159 0.016182
0.507587 0.013593 0.001277
0.523390 -0.008365 0.045770
0.466044 0.119808 0.031394
0.468731 0.061900 0.075990
0.518777 -0.005452 0.057559
0.453438 0.057222 0.028095
0.522991 -0.004361 0.049830
0.472746 -0.013171 0.061555
0.485105 -0.033650 0.016009
0.457115 0.022324 0.043168
0.475065 -0.018862 0.029229
0.466698 0.100426 0.008378
0.461128 0.024848 0.070449
0.514812 0.000311 0.065041
0.480089 -0.015882 0.067747
0.450092 0.078514 0.038346
0.521507 0.083515 0.055143
0.455889 0.046909 0.065145
0.500575 0.117421 0.012715
0.499564 -0.011117 0.070096
0.516364 0.106075 0.037511
0.457740 0.060239 0.067374
0.456853 0.097438 0.018861
0.465915 -0.003472 0.039876
0.488595 0.128049 0.025865
0.530136 0.059315 0.046501
0.498432 0.089309 -0.005807
0.520628 0.062939 0.000997
0.498123 0.040794 -0.005854
0.520154 0.100581 0.034430
0.482750 0.071783 0.077997
0.466469 0.045246 0.076678
0.524266 0.002442 0.020226
0.530259 0.074257 0.033228
0.524955 0.087432 0.042313
0.468012 0.093239 0.064695
0.463286 0.083910 0.007715
0.503821 0.111434 0.052474
0.478355 0.038060 0.003149
0.459031 0.024958 0.032817
0.453812 0.101272 0.037473
0.493900 0.056472 -0.007483
0.505102 0.079330 -0.006919
0.530847 0.069103 0.036580
0.523914 0.074980 0.056302
0.516657 0.076377 -0.001207
0.529558 0.024746 0.039994
0.525769 0.061954 0.057299
0.516618 0.058667 0.069679
0.523133 0.004650 0.016923
0.467818 0.036391 0.013122
0.470537 -0.001126 0.069294
0.527740 0.084171 0.033988
0.522721 0.011686 0.013917
0.481467 0.115731 0.008530
0.509358 0.048471 -0.006005
0.528673 0.017695 0.040903
0.457616 0.019088 0.047099
0.521496 0.085253 0.053608
0.451593 0.088852 0.044557
0.455734 0.088955 0.017907
0.528020 0.010953 0.034800
0.516787 0.095566 0.052234
0.460681 0.009130 0.044000
0.462279 0.107107 0.017071
0.497630 0.124101 0.022179
0.463963 0.055467 0.073657
0.477784 0.005991 0.013713
0.469139 0.096893 0.005150
0.480586 -0.018118 0.018499
0.498573 -0.042205 0.050809
0.471937 -0.006269 0.067061
0.490912 -0.049431 0.019592
0.451469 0.053591 0.041534
0.495326 0.127126 0.029495
0.493555 0.121823 0.048067
0.490304 0.128502 0.029602
0.490353 0.094449 -0.004407
0.508893 0.114752 0.019034
0.495214 0.045637 0.080824
0.460859 0.033083 0.024442
0.498374 -0.052541 0.029803
0.528611 0.047217 0.052916
0.522517 -0.017090 0.025522
0.517258 0.052397 -0.002073
0.530236 0.070210 0.040184
0.511588 0.111732 0.040029
0.493466 0.083932 -0.007025
0.504405 -0.029881 0.058265
0.458199 0.022882 0.036969
0.528159 0.064009 0.051514
0.462873 0.101989 0.056031
0.499701 -0.016390 0.067933
0.518219 0.085767 0.003992
0.508285 0.079465 -0.005870
0.489841 0.096934 0.068054
0.488501 -0.016928 0.009811
0.452444 0.088868 0.026025
0.514716 0.109386 0.034008
0.528499 0.063370 0.014209
0.522033 0.009391 0.058480
0.512613 0.111493 0.022206
0.529243 0.020943 0.033837
0.491387 0.120513 0.050527
0.469590 -0.014401 0.048155
0.526993 0.080175 0.019072
0.516235 0.106613 0.036350
0.457855 0.073857 0.064312
0.473251 -0.014152 0.030042
0.526959 0.027019 0.016286
0.480520 -0.038911 0.036096
0.452446 0.093975 0.043786
0.525696 0.039932 0.008843
0.489393 -0.035153 0.011315
0.505503 0.108092 0.054519
0.458274 0.017551 0.054394
0.451757 0.055140 0.054371
0.529650 0.026074 0.029840
0.489840 0.081308 -0.006988
0.508237 0.096625 0.000287
0.526688 0.058538 0.009213
0.482557 -0.001515 0.075307
0.462271 0.048043 0.016175
0.460518 0.020011 0.032924
0.454600 0.064785 0.022617
0.457616 0.099150 0.018470
0.500569 0.081229 0.072997
0.457027 0.085747 0.015371
0.507890 0.060791 0.075302
0.489537 0.122958 0.015489
0.509111 -0.007742 0.066904
0.485073 0.057316 0.081025
0.496005 0.016638 0.078749
0.520274 0.090071 0.051242
0.521588 0.067372 0.062403
0.495203 0.061850 -0.008111
0.495881 -0.044519 0.049243
0.465099 0.079970 0.005942
0.504885 0.121114 0.030343
0.469904 0.112236 0.054603
0.499921 -0.008910 0.070821
0.514742 0.040559 0.072029
0.504640 -0.003493 0.004327
0.481542 0.030246 0.003195
0.466887 0.084581 0.004499
0.500222 -0.039567 0.007559
0.464220 0.099626 0.010259
0.531274 0.059408 0.025830
0.510253 -0.041522 0.042449
0.498640 -0.052479 0.030283
0.452238 0.075400 0.025505
0.504047 0.059269 -0.007995
0.464451 0.013670 0.029284
0.495028 0.086475 0.072335
0.513446 0.003911 0.006402
0.514651 0.080622 0.065100
0.522222 0.019339 0.061207
0.474741 0.081541 -0.001225
0.508502 0.042286 0.076020
0.478225 0.023220 0.080891
0.467660 0.096826 0.062729
0.458556 0.051861 0.020330
0.455934 0.039616 0.064054
0.504594 -0.016386 0.005525
0.455109 0.034787 0.057896
0.463470 0.016487 0.029299
0.456125 0.056268 0.065521
0.517684 0.047602 0.069704
0.455354 0.072315 0.061248
0.519961 -0.029390 0.034834
0.488014 0.124419 0.017361
0.528784 0.021808 0.026689
0.469327 0.070774 0.002894
0.476921 0.060639 -0.001166
0.490634 -0.049594 0.035873
0.477173 0.007397 0.013831
0.499847 -0.001347 0.003694
0.489971 0.049125 -0.005435
0.486495 0.118994 0.010571
0.501089 0.045503 0.079221
0.491986 0.105961 0.062559
0.506778 0.093102 0.065017
0.487173 0.109818 0.060620
0.494713 0.089307 -0.005999
0.517725 -0.036226 0.025137
0.508093 0.038411 -0.004942
0.519582 0.077565 0.061321
0.465814 -0.004523 0.053342
0.514601 0.039602 0.072096
0.521399 0.089649 0.012424
0.524738 0.049688 0.060938
0.494907 0.059219 0.080034
0.490386 0.044992 0.081591
0.487751 -0.045285 0.042471
0.494049 0.031838 -0.003159
0.499669 -0.036343 0.055833
0.475824 0.050403 0.080346
0.470705 0.122042 0.024511
0.529676 0.027566 0.042269
0.522063 0.077648 0.057998
0.517199 -0.012930 0.012791
0.529878 0.055898 0.048252
0.492002 0.030738 -0.002251
0.476229 0.029971 0.081120
0.485374 -0.002300 0.075165
0.486710 -0.041618 0.048081
0.518481 0.102776 0.024020
0.472076 0.082318 0.000491
0.519244 0.068263 0.000042
0.470706 -0.005150 0.066276
0.478966 0.090272 -0.002245
0.524856 0.004270 0.049817
0.508182 0.068523 -0.007048
0.485791 0.109105 0.002712
0.514960 -0.039525 0.017915
0.487406 0.125265 0.045203
0.460541 0.097544 0.056106
0.481688 -0.036195 0.047872
0.458995 0.014716 0.053946
0.454349 0.081242 0.019931
0.450564 0.080356 0.032610
0.493981 0.048794 0.080997
0.476316 -0.002852 0.018491
0.493313 0.098502 0.066768
0.530207 0.065534 0.043759
0.477920 0.010041 0.078415
0.503543 0.059046 -0.008052
0.497645 0.103096 0.062927
0.496316 0.116286 0.009071
0.509766 0.073732 -0.006094
0.488464 0.035330 -0.001982
0.495299 0.020365 -0.000617
0.509424 0.087445 0.066277
0.461166 0.020752 0.068640
0.477893 -0.015056 0.021323
0.463641 0.011084 0.032637
0.468696 0.073311 0.073442
0.512740 0.027516 0.072740
0.493084 0.032565 -0.003049
0.523251 -0.010687 0.044275
0.513852 0.110842 0.028216
0.485014 0.116879 0.055256
0.516852 -0.002244 0.010336
0.509159 0.014785 0.073493
0.523654 -0.009999 0.043271
0.493630 0.124161 0.018984
0.476289 0.126535 0.036946
0.453080 0.087525 0.049781
0.523840 0.092492 0.025240
0.514445 0.010923 0.068702
0.483829 0.051034 -0.003237
0.481845 -0.012691 0.015225
0.497842 0.116522 0.009939
0.478628 -0.034233 0.032939
0.481679 0.114196 0.007266
0.491530 0.051193 0.081260
0.457206 0.023264 0.056828
0.475321 -0.014099 0.064720
0.520127 -0.003040 0.056550
0.473348 0.041986 0.005843
0.504024 0.064938 0.076382
0.492700 0.128066 0.030202
0.529896 0.057605 0.017750
0.475566 0.054106 0.079871
0.468866 0.087155 0.068069
0.468096 0.056600 0.076284
0.522065 0.094064 0.041804
0.506342 0.101136 0.060008
0.462481 0.090482 0.009258
0.498760 -0.045083 0.047561
0.520151 0.059889 0.000358
0.493480 -0.051930 0.028860
0.500102 0.014384 0.077309
0.512186 0.007249 0.004883
0.526610 0.004324 0.042192
0.478931 0.061813 0.079676
0.503671 0.057103 -0.007925
0.485619 0.054356 0.081349
0.495544 0.108840 0.059550
0.511044 0.033156 -0.002933
0.491763 0.128328 0.030776
0.453255 0.068777 0.058302
0.507080 0.044109 -0.006084
0.486474 0.126357 0.020674
0.450232 0.066654 0.043663
0.483510 0.092735 0.070115
0.521663 0.062692 0.063538
0.510421 -0.048252 0.023071
0.470036 -0.012024 0.056347
0.509835 0.103584 0.054562
0.524181 0.028560 0.009957
0.507575 -0.021975 0.006750
0.513248 0.030551 0.072585
0.477837 -0.022380 0.025248
0.493470 0.099461 0.066207
0.525138 -0.007105 0.036384
0.453528 0.039624 0.050757
0.530164 0.057845 0.018885
0.528761 0.057058 0.013920
0.493618 0.112373 0.004665
0.473533 -0.023463 0.042956
0.509854 -0.005635 0.006195
0.459667 0.020500 0.034646
0.450564 0.081770 0.043473
0.451976 0.049989 0.041556
0.452340 0.088988 0.026438
0.506123 0.009989 0.001876
0.486526 -0.013091 0.071012
0.474851 -0.026404 0.041505
0.516638 0.106408 0.026133
0.491534 -0.050397 0.021358
0.454946 0.078903 0.057742
0.519320 0.050983 0.067985
0.512922 -0.042163 0.015984
0.510964 -0.014189 0.062530
0.510067 -0.020259 0.007833
0.517769 0.034664 0.000712
0.471445 0.085498 0.001179
0.511691 0.086762 0.064967
0.527378 0.084125 0.026561
0.521943 0.032715 0.005385
0.454667 0.096149 0.048119
0.453075 0.068768 0.024767
0.459676 0.034430 0.070607
0.450427 0.081457 0.042653
0.479490 0.071943 0.077505
0.452423 0.068263 0.026719
0.452248 0.068136 0.055784
0.488532 0.122849 0.015159
0.459588 0.105577 0.020006
0.478656 -0.029513 0.027750
0.517885 0.020134 0.067153
0.484989 -0.031477 0.015800
0.531341 0.054630 0.040976
0.525174 -0.001578 0.044359
0.477725 -0.029589 0.030647
0.487783 0.127050 0.041539
0.516171 0.012453 0.006297
0.454825 0.043011 0.032025
0.511203 0.011557 0.003271
0.517230 0.093945 0.053140
0.525530 0.033947 0.058536
0.513219 -0.041825 0.036901
0.508595 -0.027605 0.007580
0.456626 0.029656 0.036338
0.515596 -0.033657 0.015382
0.477128 0.013000 0.011925
0.472873 0.064345 0.000974
0.462444 0.045481 0.073538
0.518129 0.104231 0.033274
0.504314 0.012620 0.075524
0.462877 0.017320 0.029882
0.479110 0.083617 -0.003357
0.530253 0.029675 0.033964
0.453680 0.062150 0.025457
0.460055 0.065118 0.069202
0.518384 -0.012967 0.054190
0.510290 -0.034525 0.009509
0.507790 -0.042916 0.043555
0.477544 0.072520 0.076946
0.464389 0.071063 0.071455
0.522510 0.016176 0.059879
0.524230 0.090662 0.039930
0.497568 0.098407 0.065844
0.527960 0.051252 0.054417
0.517146 -0.017547 0.053428
0.514512 -0.008128 0.061867
0.499835 -0.052124 0.032024
0.507883 -0.022978 0.006938
0.483016 -0.043163 0.034077
0.490535 0.049620 0.081451
0.524619 -0.010265 0.033714
0.515540 -0.041107 0.029387
0.480194 0.101598 0.000625
0.502117 0.049349 -0.007342
0.466055 0.119034 0.028002
0.463189 0.081064 0.007793
0.459230 0.026199 0.067242
0.515002 0.108879 0.034527
0.459231 0.092550 0.013366
0.528664 0.026602 0.022355
0.450041 0.071862 0.041067
0.526845 0.018567 0.051050
0.464560 -0.001267 0.054257
0.512629 0.087808 -0.000776
0.486456 -0.009525 0.010205
0.465396 0.054744 0.074766
0.530722 0.068327 0.038628
0.502571 0.008133 0.075215
0.514107 0.082197 0.064962
0.512255 0.109261 0.043263
0.505252 0.109307 0.053461
0.507654 0.040801 0.076438
0.525119 0.032025 0.058967
0.491698 0.121623 0.049154
0.517269 0.025975 0.068668
0.475290 0.025320 0.009366
0.501943 0.008754 0.001658
0.455510 0.078589 0.058866
0.451754 0.075551 0.027075
0.456846 0.022234 0.048554
0.523251 0.050665 0.003830
0.475267 0.019790 0.011264
0.455851 0.105288 0.030883
0.496542 0.026363 -0.002422
0.473321 -0.019403 0.034319
0.518570 0.036831 0.000893
0.528183 0.082884 0.033481
0.475022 -0.014677 0.063783
0.513993 0.109825 0.036528
0.473069 0.111632 0.056938
0.470718 0.000117 0.070381
0.462669 0.113661 0.024697
0.459801 0.027337 0.068965
0.479806 0.079219 0.075245
0.490663 0.107697 0.001231
0.523497 0.011128 0.015400
0.501914 0.123085 0.035945
0.481757 0.081023 0.074883
0.520850 0.089008 0.051146
0.455025 0.052728 0.026125
0.487611 0.036391 0.081753
0.477014 0.119532 0.013991
0.454298 0.099690 0.043949
0.457373 0.020029 0.049020
0.521283 0.098448 0.035021
0.462595 0.008174 0.061888
0.519781 -0.024651 0.042633
0.505006 0.013074 0.000830
0.467925 0.033644 0.078315
0.522975 0.053664 0.003384
0.467105 0.018052 0.075398
0.531434 0.063333 0.036046
0.450090 0.069625 0.041571
0.504332 0.008245 0.001988
0.476291 0.054759 0.080001
0.473900 0.000448 0.020472
0.455241 0.030070 0.050017
0.505386 0.016883 0.075815
0.457365 0.069781 0.065066
0.488282 -0.012459 0.009316
0.497314 -0.050455 0.016175
0.530026 0.038231 0.021784
0.505626 -0.009902 0.005246
0.486490 0.095606 0.068864
0.523565 0.073819 0.057402
0.468926 0.118344 0.046678
0.486840 0.127813 0.024559
0.511624 -0.036936 0.045895
0.513217 0.049913 0.073131
0.451921 0.094135 0.032873
0.516592 -0.021501 0.051767
0.475182 0.036408 0.081044
0.482859 0.125200 0.018805
0.472273 0.004320 0.021121
0.519207 -0.021858 0.018108
0.490262 0.120662 0.050734
0.520910 -0.009768 0.017454
0.459957 0.025671 0.068582
0.454406 0.058774 0.062544
0.498685 0.090019 0.069888
0.466828 0.040096 0.077465
0.507283 0.077461 0.071402
0.521831 -0.023343 0.029864
0.467282 0.073550 0.004351
0.466870 0.029066 0.077398
0.517504 -0.018551 0.014283
0.457517 0.019550 0.046672
0.507199 0.118496 0.034565
0.516801 0.099683 0.047353
0.492493 0.091668 -0.005360
0.473968 0.086271 -0.000326
0.489439 0.014047 0.003198
0.473742 0.057163 0.078886
0.486883 0.127986 0.025198
0.526183 0.014762 0.051343
0.460550 0.084313 0.010656
0.501165 0.112474 0.007011
0.453720 0.068997 0.023199
0.455594 0.032053 0.057897
0.524888 -0.005166 0.026940
0.515241 0.107768 0.022448
0.500847 0.021639 -0.001723
0.521173 0.053325 0.001364
0.525098 -0.005741 0.028935
0.522037 0.062315 0.063131
0.475876 0.028138 0.007963
0.474382 0.030730 0.080772
0.457217 0.106377 0.043476
0.521419 0.051766 0.065556
0.509285 0.047414 0.075602
0.483058 0.119213 0.011228
0.511800 0.113308 0.025727
0.488981 -0.029554 0.062792
0.463291 0.107648 0.016159
0.477006 -0.031175 0.037283
0.508997 0.015837 0.001105
0.517623 0.072989 -0.000915
0.470253 -0.003324 0.067198
0.473800 0.040677 0.080543
0.454323 0.035015 0.044419
0.455177 0.052518 0.025876
0.480740 -0.002263 0.074766
0.514968 0.006450 0.066962
0.462911 0.032441 0.021512
0.526421 0.082396 0.043856
0.512422 0.021829 0.072432
0.471923 0.123419 0.040229
0.458351 0.016079 0.048981
0.457029 0.021497 0.049638
0.500748 0.004419 0.074856
0.480307 0.109468 0.060653
0.483033 0.012402 0.007453
0.470849 -0.017347 0.042559
0.472325 0.047040 0.005243
0.452074 0.048937 0.051086
0.516822 0.048912 -0.002182
0.512114 0.112258 0.022572
0.465663 -0.005028 0.050486
0.511488 0.083789 -0.003118
0.516910 0.087386 0.059401
0.470468 0.038780 0.009441
0.481402 0.016894 0.080264
0.492312 0.025580 0.080562
0.525995 0.011880 0.020758
0.467720 0.067889 0.074366
0.497476 -0.021533 0.066246
0.526546 0.026196 0.054712
0.463219 0.096634 0.010115
0.455576 0.066342 0.063441
0.506968 -0.044206 0.011187
0.504666 0.067518 -0.007998
0.480282 0.097040 0.067673
0.476652 0.087641 0.071172
0.530531 0.071859 0.035801
0.457321 0.035411 0.029926
0.467541 -0.005801 0.058354
0.521616 0.035663 0.064922
0.525240 -0.005747 0.038690
0.524158 0.030820 0.060441
0.471145 0.083829 0.070736
0.520841 0.099589 0.032280
0.467360 0.028716 0.077678
0.520692 0.049457 0.066579
0.497736 0.042220 -0.006067
0.469343 0.009110 0.023381
0.460887 0.007703 0.051541
0.451004 0.083274 0.030477
0.491298 -0.041923 0.052015
0.491859 0.074587 -0.007804
0.465202 0.034512 0.076532
0.486992 -0.031554 0.060598
0.510008 0.114271 0.020903
0.511431 -0.044751 0.016271
0.497196 0.015538 0.078295
0.485022 -0.017067 0.012910
0.516300 0.092488 0.056135
0.513969 -0.004438 0.008369
0.462433 0.011772 0.065193
0.511853 0.109444 0.043836
0.522817 0.091015 0.018014
0.511833 0.034712 -0.002945
0.526044 0.031842 0.012031
0.494125 0.007484 0.077239
0.469326 0.045709 0.078307
0.481153 0.069558 -0.004511
0.522356 0.096453 0.034900
0.450115 0.073696 0.037193
0.479217 -0.032003 0.049075
0.517458 0.087811 0.058341
0.486237 0.081911 -0.006137
0.463087 0.010471 0.065651
0.504037 0.021754 0.077054
0.495608 -0.006173 0.004954
0.502796 0.119550 0.042905
0.462946 0.002389 0.053284
0.522391 -0.020402 0.036316
0.471901 0.017654 0.078391
0.463629 0.040395 0.075099
0.463417 0.095824 0.009662
0.484427 0.038604 -0.000778
0.456934 0.104945 0.025550
0.513000 0.100338 0.006934
0.455095 0.093217 0.050862
0.465208 -0.004018 0.044863
0.525674 0.007686 0.021847
0.506217 -0.028967 0.006703
0.465280 0.051151 0.075087
0.491695 0.126714 0.040871
0.485014 -0.038327 0.017427
0.526680 0.041683 0.057276
0.499824 0.008214 0.001799
0.522250 0.095950 0.025401
0.455170 0.104195 0.032301
0.482318 0.042387 -0.000512
0.452949 0.083686 0.051326
0.469062 -0.003230 0.065321
0.501836 -0.011788 0.069080
0.462303 0.008513 0.037976
0.487411 -0.016816 0.010681
0.509173 0.097815 0.001567
0.502024 0.000084 0.073186
0.522971 -0.015208 0.040902
0.476426 0.119788 0.014656
0.460659 0.111021 0.044900
0.475091 -0.012513 0.065785
0.464218 0.032417 0.075636
0.488545 0.075655 0.077034
0.483929 -0.044072 0.026951
0.519881 0.086738 0.007065
0.481865 0.053961 0.081166
0.489393 -0.030661 0.010839
0.458648 0.031529 0.068144
0.509769 0.106755 0.008519
0.507519 0.009136 0.073269
0.522629 0.083217 0.009813
0.505243 -0.001714 0.071319
0.492439 0.058698 -0.007408
0.507985 -0.033923 0.052493
0.468353 0.034547 0.078561
0.451111 0.089522 0.033557
0.482673 -0.031998 0.019829
0.502331 -0.052162 0.026517
0.499878 -0.049205 0.041223
0.456566 0.076871 0.061287
0.504634 0.086327 -0.005377
0.495578 0.111828 0.004518
0.473318 0.119770 0.048728
0.521843 0.082671 0.055202
0.531027 0.062834 0.025057
0.518191 0.090227 0.006774
0.469393 0.020529 0.017479
0.526728 0.079610 0.017618
0.480964 0.082092 -0.004311
0.516504 0.067480 -0.002465
0.516656 0.035255 0.070154
0.527944 0.043449 0.054533
0.528150 0.029541 0.051221
0.499401 0.123547 0.040102
0.455060 0.053090 0.025888
0.530363 0.060400 0.020319
0.454005 0.044243 0.034269
0.507292 -0.027719 0.007003
0.450037 0.076209 0.039932
0.526858 0.008986 0.025796
0.471149 -0.016808 0.050936
0.509525 0.072050 -0.006348
0.530596 0.064379 0.022883
0.459211 0.028194 0.030208
0.506663 0.077371 -0.006805
0.501527 0.123324 0.036186
0.485242 0.123290 0.015560
0.481137 -0.031656 0.054128
0.521110 0.071627 0.061660
0.505267 0.120491 0.034196
0.475966 0.038048 0.081186
0.488984 0.086261 0.073124
0.502373 -0.022846 0.005581
0.454920 0.093251 0.050506
0.495174 -0.044501 0.010654
0.519823 -0.009669 0.015559
0.480322 -0.023244 0.062470
0.528644 0.059821 0.013915
0.471275 0.095531 0.065472
0.503116 -0.050703 0.017397
0.531539 0.057534 0.038562
0.470116 0.038729 0.079299
0.482664 0.098662 -0.001374
0.499887 -0.020785 0.005441
0.450520 0.076661 0.032799
0.456997 0.027633 0.061064
0.498956 -0.048637 0.042640
0.481207 -0.027985 0.058823
0.475206 0.077898 0.074602
0.451978 0.056011 0.034837
0.493517 0.046338 0.081139
0.476377 0.120441 0.015450
0.519893 -0.030168 0.028206
0.495712 -0.006085 0.072830
0.465938 0.001796 0.034645
0.508969 0.096941 0.000951
0.487439 0.079224 -0.006673
0.452406 0.075217 0.025048
0.526674 0.016054 0.020864
0.519506 0.090756 0.009412
0.527844 0.067331 0.013567
0.483958 0.113294 0.058224
0.458697 0.074951 0.013834
0.457348 0.060876 0.066827
0.454620 0.044116 0.031954
0.526385 0.006631 0.045733
0.463899 0.053343 0.073818
0.514604 -0.025758 0.051667
0.499722 -0.040224 0.052256
0.521269 0.004534 0.057949
0.529099 0.069014 0.018268
0.499056 0.079912 -0.007686
0.486228 0.082678 -0.006052
0.500913 0.018069 0.077672
0.513346 0.017028 0.002886
0.456470 0.025018 0.053769
0.457931 0.051371 0.068203
0.459839 0.062412 0.015122
0.494187 0.112855 0.056767
0.488935 0.050191 -0.005259
0.509898 -0.046982 0.034290
0.494140 0.049447 -0.006633
0.511036 -0.046211 0.017830
0.462146 0.050350 0.015524
0.524573 0.091806 0.028297
0.530636 0.038034 0.026475
0.484158 0.016899 0.080273
0.486535 -0.043522 0.018038
0.497352 0.095181 0.067664
0.502363 -0.052205 0.024569
0.483980 0.078698 0.075930
0.497566 -0.052424 0.031400
0.450221 0.081082 0.036609
0.498313 0.081404 0.073606
0.530253 0.068306 0.041752
0.505419 0.069109 -0.007805
0.519441 0.036242 0.067530
0.467272 0.101202 0.060151
0.476626 -0.028665 0.033735
0.524432 0.027677 0.010719
0.470351 0.119264 0.046821
0.512294 0.112526 0.024880
0.515710 -0.002360 0.063013
0.503785 -0.042328 0.047585
0.526906 0.083720 0.023231
0.522367 -0.021014 0.029859
0.464048 0.089674 0.063478
0.501615 0.115352 0.010600
0.474238 0.046231 0.080263
0.527830 0.031756 0.016394
0.500509 0.045862 -0.006865
0.497459 0.112906 0.055314
0.457880 0.020784 0.057412
0.499095 0.125045 0.027721
0.495889 -0.040898 0.053173
0.457883 0.031963 0.066585
0.522887 -0.018718 0.030552
0.471407 -0.007061 0.065580
0.530850 0.057422 0.022444
0.508125 0.014928 0.074117
0.495572 0.027840 -0.002582
0.488910 0.013770 0.003530
0.465644 0.044362 0.076239
0.517216 0.086523 0.003131
0.473321 0.036287 0.080564
0.461650 0.005186 0.047525
0.526169 0.016315 0.052081
0.514918 0.058357 -0.003863
0.523625 0.074702 0.007221
0.505914 0.120035 0.028278
0.497319 -0.033159 0.006874
0.520845 -0.016574 0.019723
0.490625 0.053860 -0.006377
0.513682 -0.042866 0.018596
0.526220 0.058739 0.008341
0.497223 -0.046625 0.046248
0.486319 0.014155 0.004836
0.486445 0.038486 0.081876
0.468714 0.052717 0.006947
0.452941 0.094912 0.027840
0.503043 0.079471 -0.007333
0.472342 0.058065 0.078229
0.477522 -0.022643 0.059321
0.472000 -0.016655 0.035470
0.531247 0.066532 0.034119
0.487272 0.020431 0.080618
0.509808 -0.027575 0.055770
0.519218 0.089538 0.007953
0.519737 0.022244 0.006505
0.497273 0.068665 -0.008465
0.494684 -0.051613 0.034713
0.491335 -0.005567 0.073693
0.459508 0.048957 0.019936
0.482773 -0.035809 0.021034
0.499853 -0.016397 0.067880
0.518777 0.093487 0.010375
0.490274 0.057643 0.080862
0.531226 0.066742 0.034171
0.525948 0.010010 0.021542
0.485526 0.024968 0.002239
0.526893 0.022587 0.018261
0.464261 0.108255 0.053061
0.511524 0.088657 -0.001211
0.493081 -0.019046 0.068260
0.505678 0.053995 -0.007402
0.479461 -0.013892 0.068588
0.521181 0.080252 0.005467
0.469118 0.041439 0.009954
0.514721 0.035565 -0.001628
0.457453 0.107680 0.028767
0.451111 0.086117 0.030935
0.511283 0.069923 0.071258
0.473045 0.070017 0.000155
0.457608 0.021892 0.057379
0.518271 0.102961 0.023383
0.483887 0.060224 0.080580
0.474732 0.093487 0.067902
0.528458 0.081880 0.034152
0.500609 -0.001118 0.003644
0.472960 0.101368 0.063268
0.477411 0.042860 0.081286
0.529676 0.050218 0.016727
0.522816 -0.009748 0.046585
0.531379 0.055806 0.040507
0.522317 0.044118 0.064638
0.488328 0.120116 0.011775
0.520530 0.047621 0.066827
0.475248 0.070057 -0.001305
0.459600 0.074694 0.012637
0.468741 0.107115 0.010101
0.468935 0.039970 0.010637
0.461812 0.057589 0.071724
0.518628 0.103214 0.027104
0.531087 0.039043 0.037714
0.485897 0.077563 -0.006359
0.464405 0.116939 0.027184
0.477627 -0.029392 0.030777
0.454920 0.061707 0.063186
0.529400 0.076612 0.037976
0.520275 0.038309 0.002156
0.488626 -0.047175 0.039392
0.490917 0.031685 -0.002092
0.495363 -0.022570 0.066279
0.529914 0.028595 0.040842
0.452195 0.047722 0.050281
0.524104 0.021051 0.058429
0.507731 0.091632 0.065277
0.468690 0.073007 0.073535
0.526330 0.060403 0.056560
0.468670 0.029907 0.078566
0.501089 0.064382 0.077581
0.454192 0.077807 0.056817
0.529264 0.029184 0.023584
0.456522 0.047603 0.066287
0.489355 -0.028877 0.063301
0.490067 0.127607 0.039251
0.517409 -0.032001 0.040883
0.453662 0.100878 0.035019
0.521851 0.096527 0.024637
0.526282 0.078891 0.015544
0.462305 0.003312 0.049693
0.529053 0.036269 0.018244
0.530267 0.056893 0.019232
0.514054 -0.041385 0.035450
0.523997 0.035644 0.007246
0.469371 0.108508 0.010475
0.517123 -0.001982 0.061458
0.494232 -0.049535 0.041111
0.477966 0.115466 0.009714
0.498272 0.087608 -0.006252
0.511082 -0.018511 0.060183
0.496513 0.101710 -0.001683
0.529757 0.036530 0.021256
0.503275 -0.035842 0.054284
0.467372 0.057882 0.075716
0.494061 0.004046 0.076333
0.495946 0.076961 0.075729
0.470682 0.041845 0.008260
0.450207 0.081425 0.039595
0.498927 -0.050940 0.037886
0.488725 0.068795 -0.007188
0.463921 0.110103 0.017632
0.500211 0.008003 0.075945
0.460524 0.028778 0.027258
0.465675 0.026081 0.020220
0.522651 -0.011275 0.045886
0.516381 0.099271 0.011333
0.518995 0.013567 0.008613
0.527846 0.068620 0.014054
0.473216 0.115887 0.053271
0.463930 0.014059 0.030008
0.459877 0.073298 0.012508
0.459175 0.013180 0.047395
0.485218 0.013123 0.079547
0.521927 0.047975 0.002472
0.521035 0.042393 0.002194
0.493076 -0.022689 0.066624
0.462905 0.033470 0.021063
0.522468 -0.015038 0.023708
0.523830 -0.006958 0.045346
0.503810 -0.035044 0.006782
0.479668 -0.015133 0.067951
0.453437 0.041554 0.040726
0.457014 0.029534 0.062649
0.492986 0.113728 0.056471
0.496928 0.118313 0.050215
0.450189 0.080849 0.040079
0.496205 -0.049671 0.015212
0.489480 0.014379 0.079458
0.461271 0.054228 0.071528
0.529190 0.020490 0.033860
0.459623 0.111651 0.029964
0.479300 -0.036368 0.037408
0.496623 0.109058 0.002567
0.527231 0.046487 0.056313
0.513315 0.097059 0.004934
0.492895 0.083250 -0.007091
0.468750 0.009329 0.024270
0.506788 0.118595 0.036050
0.498630 0.125680 0.030765
0.469470 -0.000952 0.029135
0.478447 0.041100 0.081516
0.521572 0.096284 0.039693
0.472254 0.109006 0.008550
0.465558 0.112195 0.050870
0.475514 0.048826 0.080403
0.452603 0.045689 0.051765
0.454855 0.055181 0.063479
0.503125 0.071879 0.075092
0.463512 0.097109 0.059323
0.503095 0.119374 0.042766
0.453669 0.046193 0.059169
0.502814 0.061500 0.077456
0.502679 0.028432 0.078158
0.465236 0.117095 0.025333
0.456522 0.023678 0.048130
0.462939 0.047631 0.015359
0.453437 0.072715 0.022917
0.505186 -0.036346 0.052563
0.463623 0.057869 0.073169
0.501450 0.080532 0.072945
0.455957 0.095194 0.051193
0.527254 0.039792 0.055832
0.521655 0.089635 0.013021
0.452821 0.048591 0.056626
0.471989 0.033469 0.009698
0.465441 -0.002627 0.040513
0.480611 -0.028132 0.022448
0.472067 0.013464 0.017170
0.501570 0.089151 -0.005353
0.519712 0.093012 0.011894
0.506948 0.096879 0.062599
0.506457 0.118170 0.022181
0.487524 -0.004716 0.008575
0.514199 0.049648 -0.003943
0.469530 0.093924 0.004029
0.503693 0.090062 0.068117
0.493289 0.084894 0.073284
0.505735 -0.051007 0.027814
0.499084 0.107853 0.002334
0.515395 0.045429 -0.002819
0.508818 0.098789 0.059832
0.530312 0.072856 0.036531
