ply
format ascii 1.0
element vertex 1024
property float x
property float y
property float z
end_header
0.488429 0.145880 0.011324
0.510897 0.063837 0.010671
0.513151 0.059223 0.010030
0.478637 0.177813 0.083085
0.558498 0.074252 0.054512
0.481738 0.100309 0.036147
0.473022 0.168472 0.079763
0.552796 0.151370 0.050945
0.510522 0.051871 0.034553
0.496112 0.093323 0.055429
0.533902 0.163041 0.080280
0.506313 0.199076 0.068107
0.565950 0.088507 0.045792
0.555133 0.103985 0.071433
0.535101 0.146760 0.085491
0.504982 0.096419 0.065750
0.492576 0.083052 0.030967
0.487853 0.175621 0.088752
0.468621 0.169323 0.031199
0.510289 0.142768 0.090624
0.559965 0.106704 0.067822
0.537360 0.035782 0.035495
0.470174 0.191036 0.061094
0.535404 0.071492 0.005198
0.513890 0.039941 0.017631
0.506282 0.123182 0.005605
0.480130 0.179893 0.028945
0.516529 0.172728 0.021942
0.534938 0.129029 0.009991
0.489694 0.181446 0.026693
0.507969 0.087959 0.061114
0.516908 0.129820 0.087362
0.563241 0.071542 0.046184
0.557591 0.067926 0.019913
0.534212 0.167264 0.029003
0.554209 0.124469 0.023802
0.514423 0.088752 0.065273
0.505275 0.153308 0.092254
0.500180 0.181324 0.025395
0.555924 0.066067 0.051233
0.507390 0.185920 0.084829
0.534443 0.177965 0.051743
0.524262 0.152163 0.012944
0.509558 0.176487 0.088966
0.484597 0.176810 0.087077
0.517006 0.150520 0.091121
0.561718 0.081621 0.055569
0.534361 0.146030 0.015004
0.468926 0.169167 0.074430
0.512298 0.044647 0.015907
0.510852 0.044697 0.019105
0.528506 0.165474 0.083167
0.550353 0.147767 0.033490
0.506370 0.107807 0.005696
0.516762 0.169372 0.088445
0.545361 0.131295 0.016947
0.502310 0.196318 0.042662
0.461566 0.164493 0.042387
0.515555 0.166900 0.017484
0.474856 0.134232 0.018806
0.549739 0.156433 0.046041
0.565075 0.110779 0.050953
0.559861 0.084883 0.059567
0.465783 0.153221 0.066276
0.528385 0.182241 0.066214
0.478470 0.170547 0.084600
0.471980 0.184581 0.073726
0.494253 0.184444 0.087253
0.503151 0.186091 0.086053
0.541874 0.166939 0.063579
0.554866 0.046571 0.028738
0.543899 0.164274 0.062961
0.547746 0.129948 0.078918
0.499866 0.108151 0.071034
0.549948 0.057076 0.048552
0.474923 0.186461 0.037560
0.491222 0.088213 0.022742
0.540550 0.083562 0.006721
0.486676 0.190052 0.082094
0.546909 0.149471 0.073457
0.550804 0.089058 0.012499
0.502514 0.128169 0.084636
0.543181 0.088473 0.008001
0.556239 0.075306 0.056948
0.519362 0.044491 0.038584
0.527612 0.100522 0.076620
0.527253 0.060663 0.051641
0.470719 0.165060 0.076931
0.552868 0.111737 0.074862
0.556096 0.096050 0.017793
0.563080 0.075842 0.049701
0.505692 0.150680 0.091902
0.521285 0.172356 0.023388
0.540976 0.129993 0.083082
0.470180 0.187990 0.046447
0.564166 0.084280 0.031394
0.497508 0.187403 0.030774
0.539042 0.143491 0.083464
0.481456 0.163747 0.086869
0.532525 0.076778 0.063744
0.479248 0.199908 0.060770
0.520614 0.148480 0.010572
0.461131 0.155677 0.042991
0.476042 0.136659 0.017489
0.475949 0.110042 0.035800
0.496320 0.181953 0.025985
0.546013 0.161700 0.061296
0.552631 0.133657 0.073160
0.512941 0.086206 0.005833
0.503404 0.158559 0.011878
0.507929 0.172768 0.019744
0.526543 0.175402 0.078257
0.475096 0.148778 0.077700
0.509907 0.194821 0.044957
0.485040 0.106865 0.055461
0.516984 0.100215 0.074453
0.497946 0.172417 0.091692
0.469527 0.123573 0.042276
0.463238 0.147087 0.034801
0.508183 0.154820 0.010725
0.525042 0.165089 0.019774
0.469763 0.147957 0.023333
0.525004 0.113964 0.005371
0.530012 0.153463 0.015999
0.542656 0.152554 0.025333
0.509102 0.087101 0.007073
0.494875 0.106523 0.066251
0.559878 0.088568 0.061499
0.501049 0.167676 0.015943
0.504078 0.092740 0.008366
0.466409 0.181952 0.064745
0.473632 0.119087 0.025900
0.528017 0.107466 0.005214
0.532353 0.098744 0.075887
0.519291 0.173526 0.023566
0.508459 0.162502 0.092431
0.483129 0.155307 0.086599
0.524264 0.099194 0.004412
0.514748 0.182014 0.029709
0.532504 0.088975 0.071123
0.476875 0.173201 0.082895
0.477093 0.196607 0.051009
0.546584 0.141932 0.077009
0.504913 0.079813 0.051771
0.468769 0.161183 0.073765
0.516901 0.059070 0.045602
0.555320 0.049136 0.026292
0.559351 0.083303 0.059177
0.527701 0.031714 0.030660
0.516386 0.128455 0.086907
0.483093 0.201255 0.054233
0.502366 0.201542 0.056389
0.482692 0.201739 0.059403
0.460760 0.159573 0.051842
0.477145 0.188767 0.038254
0.556916 0.140074 0.045159
0.506553 0.105643 0.073351
0.538491 0.033100 0.023500
0.530402 0.138783 0.010631
0.523939 0.069154 0.004892
0.476297 0.125274 0.018980
0.511264 0.156837 0.011736
0.498095 0.192672 0.036523
0.461542 0.149430 0.046976
0.558733 0.063921 0.022941
0.521559 0.099370 0.075228
0.523914 0.154060 0.013577
0.515535 0.180166 0.084100
0.563725 0.078702 0.030302
0.471859 0.158595 0.023587
0.464245 0.148060 0.031754
0.528956 0.183531 0.057532
0.508393 0.058909 0.037408
0.490830 0.157107 0.090366
0.493134 0.189188 0.032678
0.488610 0.142340 0.010672
0.547184 0.103821 0.011643
0.481222 0.187279 0.034294
0.520305 0.108495 0.004686
0.505074 0.200685 0.058488
0.543812 0.069608 0.058981
0.488065 0.159330 0.015074
0.496236 0.187539 0.030907
0.531956 0.155384 0.085251
0.526555 0.065027 0.054211
0.501702 0.108561 0.006713
0.540020 0.044801 0.043623
0.506169 0.167226 0.092330
0.490641 0.118249 0.009460
0.515424 0.042391 0.033813
0.512904 0.192576 0.042918
0.539778 0.099596 0.075485
0.528133 0.133805 0.087713
0.514935 0.112184 0.004813
0.462323 0.146371 0.050147
0.464846 0.166014 0.034859
0.485308 0.136002 0.011380
0.565913 0.092015 0.049988
0.494122 0.117454 0.073722
0.518626 0.095849 0.072230
0.495001 0.133826 0.084296
0.480571 0.165366 0.086356
0.538645 0.172055 0.044858
0.481719 0.151750 0.084660
0.547218 0.154773 0.034638
0.470947 0.192175 0.058367
0.560246 0.088090 0.022293
0.553366 0.149408 0.056973
0.563840 0.112347 0.039763
0.515544 0.177139 0.025357
0.533144 0.159382 0.021295
0.467302 0.128655 0.041781
0.554496 0.046042 0.028485
0.474644 0.144850 0.075187
0.485895 0.197461 0.043937
0.511147 0.190539 0.078657
0.564185 0.086630 0.031432
0.550412 0.135936 0.024541
0.499314 0.072585 0.023210
0.487529 0.100072 0.051116
0.471887 0.149047 0.074040
0.513374 0.038931 0.022208
0.472716 0.164458 0.079374
0.500929 0.142565 0.008094
0.547340 0.049226 0.014330
0.538934 0.033347 0.023279
0.494459 0.144267 0.088455
0.468344 0.127745 0.032672
0.517168 0.089460 0.067132
0.536319 0.175858 0.051086
0.499160 0.081634 0.015810
0.531539 0.171475 0.030359
0.546734 0.114013 0.013173
0.467495 0.145790 0.065449
0.553582 0.137710 0.031224
0.563578 0.116196 0.058448
0.523567 0.178124 0.079027
0.496847 0.121663 0.078248
0.542173 0.122824 0.081840
0.504404 0.060827 0.021344
0.537779 0.116305 0.081498
0.516302 0.091946 0.068535
0.538469 0.138935 0.084320
0.546089 0.142347 0.022575
0.529473 0.152599 0.087275
0.536530 0.059963 0.006129
0.472257 0.193853 0.060218
0.513230 0.107088 0.004799
0.474628 0.136006 0.069396
0.473992 0.126540 0.060076
0.543242 0.036392 0.031988
0.504584 0.081066 0.052598
0.497978 0.073609 0.028225
0.473665 0.116629 0.045151
0.467432 0.186470 0.060428
0.555525 0.140450 0.039241
0.520994 0.190722 0.056447
0.527510 0.181855 0.040042
0.517891 0.192959 0.061659
0.460890 0.154996 0.046644
0.529360 0.050264 0.006635
0.477706 0.109745 0.025664
0.528958 0.168297 0.024776
0.545661 0.079808 0.064573
0.550767 0.135033 0.024537
0.478746 0.165301 0.021611
0.537218 0.142859 0.015363
0.551997 0.152544 0.047507
0.557766 0.138890 0.049870
0.548155 0.041934 0.035933
0.481193 0.101756 0.038612
0.558324 0.056330 0.026450
0.554691 0.141164 0.064978
0.479514 0.190868 0.077388
0.526307 0.117314 0.005841
0.525809 0.167794 0.022122
0.510462 0.068358 0.009934
0.523323 0.145752 0.010414
0.482362 0.100652 0.040519
0.561695 0.122273 0.061474
0.566063 0.091706 0.047081
0.552355 0.046885 0.037896
0.485713 0.180617 0.027283
0.468849 0.146588 0.068310
0.473480 0.141142 0.019612
0.558242 0.083913 0.060511
0.463916 0.154392 0.062565
0.540553 0.096887 0.007494
0.466476 0.137412 0.030088
0.462972 0.174709 0.059075
0.523453 0.044539 0.008373
0.498487 0.202888 0.062793
0.516931 0.175623 0.085717
0.550414 0.051076 0.043671
0.540232 0.096919 0.074307
0.487397 0.148437 0.086907
0.499676 0.150770 0.091341
0.556093 0.142885 0.046873
0.512147 0.072692 0.052169
0.527308 0.185199 0.054266
0.516100 0.153511 0.011280
0.565255 0.103025 0.056550
0.468350 0.127434 0.033131
0.522313 0.189088 0.050450
0.466991 0.185119 0.050229
0.465813 0.142856 0.029393
0.481155 0.104454 0.044734
0.487148 0.091951 0.035776
0.530485 0.177362 0.036644
0.552402 0.107354 0.074072
0.518607 0.062342 0.048918
0.521137 0.087901 0.067753
0.540986 0.159420 0.075085
0.555054 0.123563 0.024548
0.481060 0.102310 0.039682
0.539836 0.080910 0.006400
0.487161 0.188676 0.033370
0.510586 0.197624 0.064523
0.504845 0.077602 0.011763
0.559615 0.111232 0.026162
0.538677 0.081322 0.006043
0.473970 0.195037 0.054751
0.490062 0.199747 0.073401
0.513862 0.163069 0.091106
0.490111 0.172219 0.020493
0.556323 0.107053 0.020036
0.475074 0.118053 0.051645
0.512142 0.063398 0.044983
0.467769 0.185856 0.048819
0.535551 0.047933 0.046001
0.465681 0.180168 0.064216
0.555569 0.144807 0.049677
0.540326 0.105512 0.077581
0.559576 0.075813 0.054476
0.549126 0.091247 0.011473
0.486321 0.110522 0.061182
0.546913 0.158346 0.039161
0.483436 0.201910 0.057013
0.493769 0.138219 0.008639
0.553100 0.144457 0.065772
0.531633 0.170842 0.076699
0.548803 0.144475 0.073284
0.505366 0.178361 0.023583
0.520274 0.187828 0.041381
0.474537 0.155278 0.079610
0.553114 0.045491 0.025449
0.476362 0.133524 0.017446
0.537329 0.032573 0.028357
0.563225 0.110484 0.035281
0.496671 0.084103 0.017468
0.533307 0.094947 0.005268
0.550606 0.152200 0.063632
0.469068 0.125669 0.032712
0.554590 0.146816 0.055999
0.517305 0.193121 0.053186
0.481276 0.105905 0.022076
0.483887 0.202172 0.058016
0.527719 0.148042 0.088603
0.474857 0.114586 0.027467
0.474791 0.196409 0.062255
0.514390 0.141156 0.090285
0.532104 0.179146 0.063260
0.535659 0.155338 0.020574
0.530962 0.037127 0.011841
0.550887 0.074369 0.059452
0.514397 0.189079 0.037955
0.495162 0.107647 0.009270
0.507331 0.056443 0.017623
0.553984 0.126452 0.024505
0.524587 0.056629 0.048101
0.526482 0.185959 0.054222
0.531259 0.082226 0.004570
0.529477 0.118445 0.083331
0.494780 0.138829 0.008487
0.490274 0.136368 0.009419
0.463954 0.179673 0.051992
0.541704 0.060198 0.053350
0.501832 0.072005 0.017863
0.520101 0.096682 0.073259
0.509581 0.155353 0.092280
0.517519 0.125164 0.085853
0.491185 0.157327 0.090515
0.492874 0.084762 0.023668
0.565435 0.080520 0.044003
0.541245 0.057221 0.051501
0.486582 0.184353 0.029801
0.529688 0.031439 0.030015
0.524110 0.157669 0.088463
0.543441 0.145281 0.021370
0.522391 0.041141 0.009846
0.558088 0.081035 0.019181
0.507875 0.058796 0.015503
0.484390 0.109538 0.015921
0.468518 0.149676 0.069469
0.529484 0.176707 0.034217
0.493988 0.165347 0.015801
0.489501 0.109806 0.011815
0.509663 0.170937 0.090763
0.495802 0.137956 0.086557
0.550059 0.120542 0.077783
0.508895 0.154790 0.092312
0.545444 0.161158 0.064502
0.497804 0.137958 0.087251
0.525504 0.146517 0.089330
0.470650 0.191806 0.059320
0.480095 0.172193 0.085506
0.529167 0.050816 0.046358
0.552080 0.115816 0.017965
0.518496 0.046451 0.039021
0.516810 0.142625 0.008294
0.537156 0.089812 0.005916
0.531933 0.051457 0.047456
0.494459 0.203530 0.062455
0.496486 0.090082 0.014437
0.510631 0.116231 0.081335
0.493802 0.087502 0.018995
0.516115 0.180837 0.029082
0.539768 0.127488 0.011992
0.542200 0.047775 0.010991
0.509862 0.051573 0.015803
0.518857 0.105280 0.077782
0.519253 0.049398 0.008484
0.501053 0.085750 0.053382
0.474828 0.129985 0.064781
0.549506 0.132263 0.076956
0.494069 0.184697 0.028469
0.562134 0.108996 0.030737
0.516592 0.092805 0.069287
0.464899 0.147832 0.061322
0.517766 0.116903 0.005048
0.498497 0.132048 0.084984
0.539324 0.149009 0.082057
0.549895 0.080925 0.011503
0.513846 0.045935 0.013192
0.548781 0.047836 0.016616
0.544704 0.161206 0.066473
0.539715 0.155992 0.078852
0.546444 0.110693 0.012313
0.504660 0.174966 0.020799
0.526525 0.185545 0.049996
0.530584 0.142914 0.011996
0.550553 0.076187 0.011965
0.555657 0.087122 0.016576
0.540501 0.034402 0.022271
0.507822 0.055608 0.017177
0.539441 0.040620 0.040371
0.556217 0.143220 0.050428
0.529678 0.078371 0.004416
0.534866 0.046587 0.008317
0.463197 0.166096 0.063294
0.471975 0.118300 0.033085
0.483684 0.188311 0.081739
0.476040 0.146112 0.077361
0.549371 0.111728 0.076729
0.493787 0.188915 0.032351
0.477762 0.157908 0.083406
0.507633 0.110272 0.005371
0.510319 0.145239 0.091106
0.537378 0.111019 0.007824
0.545514 0.082931 0.066373
0.466606 0.158149 0.029098
0.506468 0.065639 0.040594
0.547884 0.141825 0.075558
0.510368 0.154683 0.010864
0.563187 0.104398 0.031742
0.530916 0.172822 0.031130
0.501941 0.191431 0.035697
0.511521 0.193358 0.043284
0.554421 0.136298 0.031858
0.540761 0.125743 0.012129
0.503432 0.201369 0.058262
0.551723 0.121653 0.019575
0.494813 0.096249 0.056927
0.492977 0.082838 0.027584
0.525285 0.157804 0.087933
0.495899 0.144798 0.089060
0.532762 0.102005 0.077228
0.482542 0.126418 0.013196
0.498313 0.091619 0.056222
0.490476 0.174555 0.089866
0.483612 0.097251 0.035357
0.532236 0.061388 0.053614
0.483911 0.111762 0.015479
0.500968 0.166390 0.015274
0.558857 0.074939 0.054620
0.495386 0.190234 0.033625
0.513605 0.191201 0.075598
0.560535 0.090092 0.061585
0.482131 0.181707 0.084027
0.550672 0.113409 0.076456
0.541069 0.167368 0.065164
0.462072 0.173757 0.053956
0.505674 0.092790 0.007613
0.490575 0.200494 0.047542
0.540203 0.169280 0.063495
0.515787 0.176208 0.024619
0.502041 0.123624 0.082247
0.560512 0.130396 0.051287
0.470371 0.186413 0.070084
0.504603 0.172952 0.091398
0.533890 0.100163 0.076400
0.497554 0.180316 0.024582
0.549853 0.093757 0.070274
0.542498 0.066721 0.007555
0.490915 0.087160 0.025177
0.557768 0.123492 0.070042
0.481194 0.129056 0.013901
0.559756 0.107836 0.068248
0.509453 0.149338 0.009219
0.511485 0.143297 0.090745
0.493486 0.082858 0.025172
0.553035 0.145230 0.065167
0.512982 0.075981 0.055192
0.531728 0.109536 0.080118
0.561122 0.113267 0.030358
0.533915 0.151700 0.085155
0.506549 0.062922 0.038281
0.524865 0.030799 0.023964
0.503548 0.121252 0.005786
0.502168 0.067005 0.021309
0.530081 0.181966 0.060683
0.526440 0.164269 0.020012
0.501717 0.193738 0.080040
0.478049 0.199001 0.062377
0.549237 0.054795 0.013915
0.548570 0.144797 0.027562
0.495725 0.164018 0.092149
0.550175 0.071883 0.011790
0.559633 0.128120 0.063495
0.473309 0.194157 0.065516
0.512388 0.079541 0.057437
0.518290 0.061900 0.006927
0.505207 0.200700 0.059634
0.513990 0.073345 0.007072
0.550820 0.111755 0.076019
0.534841 0.140111 0.086204
0.532962 0.179065 0.047867
0.554964 0.129115 0.072063
0.538389 0.169161 0.037552
0.529977 0.064468 0.004890
0.475132 0.138708 0.071938
0.558281 0.118742 0.070314
0.513609 0.063577 0.008864
0.531804 0.099033 0.076028
0.490752 0.196654 0.041531
0.508842 0.184421 0.030008
0.460739 0.157033 0.049240
0.466889 0.150374 0.067001
0.492623 0.086179 0.040830
0.551197 0.146728 0.067977
0.478605 0.199363 0.062404
0.538812 0.107421 0.007908
0.477728 0.149580 0.080654
0.466276 0.181733 0.044723
0.494250 0.137809 0.085852
0.538625 0.113818 0.080598
0.521672 0.081176 0.004491
0.482635 0.184292 0.031144
0.485794 0.093744 0.030430
0.479346 0.127830 0.015492
0.523751 0.081269 0.004327
0.535393 0.154925 0.020121
0.492623 0.098573 0.056692
0.561102 0.122572 0.063389
0.502150 0.179580 0.089522
0.540923 0.145640 0.019261
0.551625 0.142532 0.031216
0.467936 0.186297 0.063894
0.484003 0.189903 0.035609
0.562696 0.063004 0.038496
0.475858 0.173605 0.081920
0.538722 0.051835 0.048360
0.490393 0.090505 0.021687
0.471095 0.145024 0.021876
0.558552 0.085828 0.061301
0.557827 0.131749 0.065483
0.524869 0.112349 0.081416
0.501871 0.123377 0.082049
0.565597 0.090846 0.051628
0.556046 0.102418 0.018715
0.503993 0.104505 0.071034
0.510964 0.168746 0.017623
0.556499 0.118076 0.023963
0.494071 0.197074 0.077441
0.535078 0.096605 0.074823
0.534022 0.101668 0.077007
0.563954 0.100496 0.032942
0.517919 0.191492 0.068376
0.497074 0.084837 0.047172
0.539409 0.065374 0.056915
0.484185 0.114918 0.062931
0.526913 0.127048 0.086224
0.477255 0.121895 0.018864
0.481328 0.188024 0.034928
0.543095 0.078453 0.064454
0.465590 0.153482 0.029447
0.524078 0.176498 0.028800
0.490683 0.108107 0.063764
0.564971 0.110598 0.054298
0.562767 0.120671 0.044904
0.510582 0.095520 0.005622
0.543512 0.154441 0.075271
0.563660 0.072994 0.031589
0.538520 0.119231 0.009540
0.473479 0.161437 0.079890
0.533394 0.147683 0.086279
0.518357 0.036789 0.015082
0.465824 0.135595 0.033335
0.528408 0.181918 0.066946
0.534561 0.173531 0.069305
0.506592 0.157122 0.011410
0.511002 0.108881 0.077561
0.550850 0.080398 0.063005
0.545258 0.130358 0.016539
0.533039 0.084209 0.004832
0.542517 0.124892 0.012987
0.535227 0.168898 0.074116
0.494589 0.180493 0.025012
0.558662 0.118579 0.069795
0.542593 0.143656 0.019689
0.475304 0.111253 0.036387
0.513024 0.084228 0.061214
0.540122 0.089928 0.071199
0.496758 0.152946 0.091217
0.556266 0.048545 0.033587
0.463638 0.140151 0.047064
0.555761 0.123318 0.072742
0.561188 0.060135 0.040003
0.479089 0.189062 0.037205
0.523433 0.038547 0.010935
0.563764 0.111377 0.038389
0.511330 0.059125 0.041022
0.519396 0.180211 0.029972
0.503600 0.074469 0.014136
0.551893 0.098099 0.071208
0.502424 0.191707 0.036160
0.483669 0.168496 0.020795
0.480800 0.107494 0.021538
0.496160 0.111663 0.008078
0.565178 0.102981 0.040102
0.554085 0.135057 0.070523
0.468142 0.134623 0.057060
0.498068 0.178585 0.023207
0.506072 0.145813 0.091059
0.550235 0.054961 0.046834
0.522947 0.176672 0.028255
0.462891 0.146589 0.053848
0.552739 0.097124 0.070393
0.560786 0.117988 0.032523
0.500588 0.068745 0.031741
0.498296 0.199406 0.046587
0.543443 0.085803 0.068464
0.535225 0.069257 0.005220
0.562803 0.109161 0.063658
0.552570 0.128151 0.075106
0.473300 0.160574 0.079540
0.481233 0.107215 0.049299
0.485523 0.172817 0.088392
0.470111 0.172290 0.031178
0.513179 0.169077 0.090071
0.537427 0.077640 0.064687
0.512899 0.091853 0.005363
0.509406 0.049634 0.017879
0.549288 0.138527 0.075138
0.493989 0.203669 0.058502
0.522143 0.040508 0.038045
0.536217 0.134568 0.011969
0.493244 0.082018 0.029599
0.489179 0.175249 0.022605
0.492150 0.173840 0.090462
0.480293 0.110495 0.051981
0.516506 0.159905 0.090744
0.556718 0.085155 0.062365
0.563440 0.083725 0.028984
0.526986 0.086862 0.069030
0.509170 0.059093 0.038558
0.465715 0.167673 0.034205
0.563714 0.096138 0.030905
0.538007 0.075606 0.005754
0.470917 0.186755 0.070748
0.502137 0.184944 0.086940
0.560101 0.077583 0.055018
0.555534 0.120917 0.073328
0.544003 0.166018 0.056118
0.532952 0.037784 0.038858
0.474513 0.160706 0.022303
0.554477 0.145762 0.059626
0.513594 0.046468 0.034476
0.548587 0.116907 0.078186
0.469602 0.178252 0.035459
0.561106 0.105585 0.026891
0.478251 0.158682 0.019233
0.562540 0.094428 0.027330
0.468893 0.125443 0.044066
0.554535 0.058994 0.018405
0.557732 0.124486 0.069775
0.497777 0.159755 0.092281
0.522453 0.046781 0.041490
0.535312 0.033134 0.019440
0.548363 0.039907 0.023290
0.528133 0.157093 0.086786
0.462554 0.154042 0.036445
0.464012 0.179445 0.049966
0.503301 0.196427 0.076066
0.521605 0.171637 0.022930
0.499140 0.145510 0.008815
0.473140 0.163613 0.024489
0.503908 0.093193 0.062538
0.486850 0.158318 0.015151
0.464488 0.146424 0.059196
0.471290 0.139197 0.022026
0.550283 0.130712 0.021711
0.533085 0.135617 0.010814
0.534198 0.121596 0.008243
0.494350 0.201752 0.050366
0.501705 0.123898 0.082253
0.495365 0.141693 0.008781
0.512376 0.117923 0.082482
0.509327 0.051075 0.017032
0.507907 0.148981 0.091706
0.516278 0.094455 0.004658
0.547221 0.068441 0.057257
0.466082 0.141160 0.029355
0.496590 0.146237 0.009335
0.513513 0.102503 0.074603
0.463972 0.145542 0.032968
0.490725 0.200726 0.047976
0.470844 0.191790 0.062657
0.554969 0.057121 0.045329
0.531124 0.163075 0.022375
0.489759 0.198095 0.043720
0.559279 0.129834 0.062985
0.537038 0.174882 0.057064
0.506402 0.054403 0.022539
0.512826 0.168973 0.090225
0.517752 0.034379 0.026628
0.512139 0.072689 0.008033
0.560317 0.067385 0.047985
0.489420 0.138943 0.009962
0.526633 0.178334 0.075446
0.526196 0.031903 0.018288
0.513626 0.144663 0.008387
0.557181 0.128930 0.068732
0.462234 0.163152 0.060274
0.505598 0.055882 0.025299
0.500987 0.147349 0.090827
0.543016 0.110850 0.078743
0.549522 0.040710 0.024380
0.558313 0.061988 0.046139
0.540789 0.165165 0.069452
0.509278 0.128808 0.086335
0.556974 0.140543 0.046961
0.471472 0.187598 0.070949
0.530459 0.057235 0.005636
0.565165 0.089181 0.036150
0.525932 0.080162 0.064188
0.465393 0.166633 0.034230
0.463223 0.144106 0.052212
0.494083 0.143986 0.088231
0.509415 0.099585 0.005605
0.475509 0.165121 0.023448
0.486775 0.145758 0.011887
0.514493 0.194969 0.065206
0.483591 0.141429 0.081245
0.538320 0.143860 0.083912
0.510222 0.117213 0.081702
0.535967 0.098138 0.006082
0.547387 0.139975 0.076754
0.551353 0.067522 0.013086
0.556108 0.051622 0.025561
0.548155 0.098972 0.011611
0.490754 0.148957 0.011221
0.462233 0.146392 0.040800
0.462736 0.147334 0.053981
0.562454 0.114189 0.035074
0.491793 0.092885 0.017702
0.536866 0.106120 0.078375
0.542551 0.135442 0.081961
0.488678 0.130228 0.078268
0.513404 0.195831 0.054959
0.473489 0.117509 0.046348
0.541242 0.041594 0.013296
0.472493 0.117270 0.041011
0.525358 0.037576 0.011203
0.492794 0.119405 0.074158
0.493243 0.172613 0.019867
0.508083 0.122574 0.005465
0.565021 0.111067 0.051583
0.524342 0.036066 0.035785
0.529242 0.183025 0.049830
0.533471 0.032515 0.019273
0.541947 0.167782 0.061015
0.539963 0.033553 0.024421
0.503254 0.152593 0.092057
0.539135 0.172025 0.047149
0.513340 0.155521 0.011530
0.465532 0.137274 0.032851
0.547528 0.131319 0.018945
0.519767 0.181397 0.079916
0.534571 0.053067 0.048887
0.496161 0.107088 0.008938
0.501594 0.194884 0.078786
0.483445 0.188997 0.034945
0.554998 0.093084 0.016361
0.552373 0.048926 0.020922
0.490936 0.163891 0.015982
0.529267 0.066743 0.004721
0.526415 0.171027 0.081534
0.468817 0.185587 0.044962
0.555865 0.136955 0.065891
0.500368 0.113188 0.006593
0.473472 0.114899 0.034163
0.512058 0.195991 0.051644
0.541653 0.103471 0.076573
0.482102 0.199399 0.050078
0.557127 0.050622 0.029297
0.546959 0.116720 0.078904
0.529231 0.069194 0.004609
0.558176 0.082027 0.059479
0.498308 0.139613 0.007981
0.560148 0.111380 0.027244
0.482992 0.098428 0.036531
0.493014 0.085929 0.041330
0.552471 0.132557 0.073808
0.470792 0.158880 0.024636
0.559184 0.127552 0.065279
0.537083 0.086488 0.069792
0.539038 0.109099 0.008211
0.472730 0.129945 0.022088
0.478409 0.150075 0.016764
0.484276 0.196001 0.042619
0.510712 0.044259 0.026014
0.518234 0.067622 0.006235
0.471327 0.120904 0.045175
0.525104 0.041390 0.009162
0.484409 0.135851 0.011815
0.552312 0.043391 0.026639
0.494098 0.086249 0.044030
0.559968 0.132206 0.052769
0.484010 0.120157 0.067481
0.490714 0.163411 0.090931
0.462767 0.146750 0.036825
0.550273 0.147144 0.069453
0.557091 0.066538 0.050629
0.532467 0.064092 0.055417
0.506635 0.151735 0.009771
0.564316 0.115009 0.049081
0.555738 0.066243 0.017805
0.474489 0.163492 0.023447
0.493741 0.099937 0.012448
0.464909 0.135297 0.040769
0.542821 0.034826 0.027606
0.565757 0.089194 0.040602
0.497378 0.118977 0.076836
0.524770 0.043579 0.040883
0.563680 0.078705 0.030147
0.475577 0.167853 0.024653
0.553194 0.150536 0.051886
0.506620 0.151943 0.009827
0.511901 0.093991 0.005432
0.488301 0.095495 0.046309
0.504939 0.104979 0.006225
0.510810 0.185394 0.083503
0.465914 0.158631 0.030289
0.564745 0.075198 0.036440
0.470551 0.123242 0.030289
0.563261 0.077859 0.050683
0.475000 0.154354 0.019914
0.490334 0.110532 0.065540
0.481838 0.109173 0.018910
0.487755 0.176437 0.088515
0.496324 0.155771 0.091581
0.540625 0.162707 0.032435
0.472313 0.135096 0.065432
0.541278 0.104456 0.077009
0.485047 0.180564 0.027477
0.552032 0.151807 0.058561
0.529627 0.177721 0.071883
0.501918 0.165694 0.014893
0.497871 0.073937 0.027506
0.522773 0.183438 0.074541
0.557923 0.134626 0.062311
0.495056 0.130937 0.007647
0.541741 0.082411 0.007127
0.516004 0.143595 0.008407
0.542408 0.138331 0.017134
0.468264 0.188191 0.058874
0.543390 0.141979 0.019581
0.470946 0.135065 0.063171
0.482546 0.140979 0.080236
0.470342 0.172201 0.076064
0.491432 0.109327 0.065538
0.544060 0.142986 0.079329
0.488516 0.181976 0.027410
0.518478 0.126965 0.005921
0.464006 0.142382 0.053497
0.483522 0.185822 0.082988
0.531994 0.051664 0.047592
0.534561 0.143144 0.086193
0.507187 0.162049 0.013404
0.484687 0.113813 0.014110
0.545819 0.039383 0.034574
0.482206 0.101408 0.041746
0.563975 0.071676 0.033514
0.524638 0.117892 0.005671
0.526520 0.125685 0.085864
0.543595 0.115103 0.011398
0.528223 0.180712 0.038893
0.541168 0.159161 0.075050
0.529793 0.151879 0.015158
0.559163 0.120182 0.068747
0.548178 0.157692 0.042047
0.523554 0.156236 0.088975
0.508021 0.113166 0.005259
0.541861 0.131093 0.082641
0.562978 0.063854 0.038265
0.492147 0.203750 0.060137
0.543046 0.058897 0.008642
0.495729 0.171286 0.091617
0.488268 0.175495 0.023037
0.485090 0.156947 0.015343
0.539732 0.085488 0.069001
0.500764 0.118186 0.006207
0.495405 0.138056 0.008262
0.540698 0.047893 0.010141
0.490408 0.113458 0.010366
0.470281 0.173727 0.075683
0.553425 0.093209 0.014924
0.548267 0.038619 0.028796
0.467562 0.181473 0.068234
0.461227 0.153919 0.042857
0.557180 0.076292 0.018241
0.461226 0.168239 0.047071
0.503562 0.119451 0.005753
0.556752 0.056939 0.022870
0.547858 0.145388 0.074157
0.565367 0.099470 0.039575
0.542479 0.168091 0.048937
0.488623 0.110668 0.063948
0.505991 0.153808 0.092322
0.545703 0.037118 0.023738
0.465949 0.134372 0.049300
0.476517 0.176458 0.081776
0.563884 0.104099 0.034098
0.510547 0.102387 0.073203
0.504757 0.098607 0.067242
0.541540 0.080740 0.007007
0.474678 0.173171 0.027971
0.498395 0.092295 0.011978
0.486844 0.147115 0.012116
0.508813 0.194123 0.075868
0.517728 0.089955 0.067754
0.482855 0.139677 0.079739
0.534470 0.093544 0.073457
0.565505 0.107480 0.049907
0.482052 0.123264 0.013995
0.483484 0.117789 0.013994
0.564304 0.071284 0.035773
0.503250 0.105336 0.071169
0.521583 0.070530 0.005137
0.539723 0.084830 0.006476
0.511306 0.043546 0.019319
0.563038 0.076537 0.050245
0.519337 0.117237 0.083055
0.543943 0.113113 0.079125
0.512836 0.196362 0.056258
0.505539 0.199453 0.052665
0.506628 0.153409 0.092282
0.523691 0.031061 0.025114
0.565103 0.109345 0.045893
0.544894 0.139680 0.079330
0.520465 0.108067 0.004670
0.487712 0.180887 0.087069
0.540470 0.047379 0.045305
0.463021 0.176433 0.048379
0.533837 0.138885 0.012104
0.469217 0.168664 0.030229
0.461677 0.148675 0.047429
0.513794 0.084600 0.061892
0.492129 0.197123 0.042051
0.484798 0.200830 0.050836
0.521586 0.076521 0.059917
0.558697 0.133215 0.061033
0.502669 0.179732 0.024272
0.468343 0.174100 0.072790
0.507537 0.188655 0.082688
0.555224 0.139648 0.065044
0.528563 0.124289 0.085247
0.536839 0.137091 0.085269
0.543544 0.164328 0.041033
0.520173 0.176676 0.082935
0.498223 0.199249 0.046256
0.535472 0.127158 0.084765
0.548970 0.155235 0.039894
0.559770 0.124364 0.034966
0.481725 0.185553 0.082070
0.531911 0.103180 0.077743
0.493483 0.116934 0.072945
0.492838 0.141170 0.086687
0.555300 0.056270 0.020794
0.545378 0.143985 0.077683
0.538822 0.171533 0.043878
0.512901 0.171177 0.089548
0.535431 0.132455 0.011015
0.479321 0.165509 0.021396
0.532303 0.128507 0.085802
0.492579 0.103450 0.061461
0.532864 0.077682 0.064384
0.523728 0.050852 0.044293
0.505822 0.086912 0.058790
0.461662 0.156190 0.039904
0.477183 0.168018 0.023759
0.524054 0.184706 0.040298
0.479053 0.192513 0.041392
0.503459 0.069845 0.040176
0.475310 0.121620 0.021447
0.468618 0.158124 0.072847
0.531343 0.179413 0.042819
0.537679 0.174366 0.052620
0.536246 0.035176 0.016349
0.463208 0.175643 0.045752
0.477693 0.118194 0.019691
0.520865 0.185985 0.038566
0.506977 0.158241 0.011828
