ply
format ascii 1.0
element vertex 1024
property float x
property float y
property float z
end_header
0.565821 0.038309 0.084593
0.594203 -0.034564 0.051124
0.595062 -0.039454 0.049663
0.547302 0.094740 0.032269
0.544402 -0.036975 0.008575
0.594272 0.018329 0.045491
0.557569 0.089808 0.032522
0.505651 0.021215 0.041809
0.598526 -0.033918 0.024770
0.584285 0.012521 0.023270
0.510997 0.051678 0.021881
0.514418 0.088899 0.050354
0.531248 -0.034117 0.020967
0.528281 -0.006851 0.004788
0.518663 0.041109 0.010782
0.574098 0.013743 0.013808
0.595849 -0.002387 0.042254
0.540379 0.090115 0.025021
0.566326 0.074253 0.077909
0.540547 0.054168 0.007875
0.523220 -0.008979 0.008480
0.585692 -0.060459 0.014237
0.549244 0.100727 0.058545
0.570525 -0.044907 0.055770
0.604530 -0.051038 0.035300
0.564837 0.009451 0.078855
0.551208 0.074614 0.082443
0.526440 0.046144 0.081293
0.537660 -0.000765 0.073235
0.542795 0.069484 0.083819
0.577011 0.004094 0.014452
0.542891 0.039719 0.005076
0.543047 -0.044832 0.014543
0.552763 -0.054380 0.037988
0.514316 0.034885 0.070401
0.522943 -0.009667 0.056291
0.570818 0.002629 0.010083
0.538454 0.065325 0.011041
0.534473 0.062979 0.083565
0.551530 -0.042763 0.008821
0.519068 0.085105 0.029912
0.505401 0.051311 0.053597
0.532871 0.023297 0.080715
0.522179 0.078579 0.022262
0.542551 0.092177 0.027439
0.530613 0.056233 0.009461
0.537469 -0.033003 0.009968
0.527888 0.013908 0.075159
0.561132 0.090579 0.038215
0.603354 -0.047364 0.038874
0.604131 -0.045283 0.036157
0.513675 0.057611 0.020877
0.511720 0.013255 0.056757
0.573490 -0.001796 0.072937
0.520413 0.069114 0.019084
0.527072 -0.002319 0.066334
0.522209 0.079366 0.073146
0.573515 0.079005 0.066772
0.531063 0.040723 0.083298
0.582625 0.040334 0.075137
0.505836 0.024756 0.048626
0.518706 -0.015368 0.024793
0.536663 -0.028035 0.007790
0.573701 0.077569 0.040062
0.506222 0.063415 0.042770
0.551389 0.090108 0.028152
0.549969 0.099846 0.044291
0.530327 0.092373 0.028883
0.522282 0.088093 0.029420
0.504232 0.043609 0.037591
0.566087 -0.065054 0.022180
0.504169 0.040282 0.036878
0.518678 0.019163 0.008749
0.570986 0.027232 0.014094
0.561819 -0.046989 0.008666
0.550715 0.085661 0.077734
0.594978 -0.001013 0.051922
0.559299 -0.038407 0.058262
0.533915 0.098764 0.036741
0.508904 0.031801 0.021257
0.547150 -0.037959 0.053685
0.555872 0.045590 0.008865
0.554217 -0.035813 0.058598
0.545360 -0.033994 0.007044
0.595047 -0.042751 0.017105
0.552065 0.008145 0.002391
0.577911 -0.030372 0.010220
0.561713 0.087527 0.034130
0.525323 0.001409 0.004885
0.538250 -0.033803 0.050780
0.540325 -0.040248 0.012973
0.539648 0.063035 0.010313
0.522608 0.043744 0.079195
0.523683 0.024617 0.005855
0.552676 0.092870 0.070806
0.536779 -0.041732 0.032790
0.532570 0.070995 0.081297
0.517545 0.035718 0.010876
0.552555 0.084327 0.023101
0.563052 -0.016923 0.004537
0.536849 0.101964 0.060994
0.538212 0.021754 0.081978
0.578807 0.073041 0.062938
0.580433 0.040932 0.077105
0.593498 0.028574 0.050265
0.537192 0.065844 0.083777
0.504102 0.036568 0.037146
0.513261 0.016903 0.014777
0.580393 -0.021235 0.063755
0.546354 0.039332 0.086892
0.533679 0.050183 0.084468
0.510205 0.064085 0.029396
0.567308 0.073457 0.026676
0.516603 0.074866 0.069465
0.585608 0.028677 0.029844
0.561151 0.013086 0.005676
0.533634 0.083207 0.019771
0.590289 0.044573 0.050315
0.582925 0.062429 0.066905
0.544719 0.033461 0.085896
0.524097 0.034925 0.079252
0.578450 0.054975 0.076868
0.554850 -0.007940 0.073084
0.527092 0.022176 0.077643
0.516221 0.017962 0.067066
0.582868 -0.017937 0.063470
0.576533 0.027022 0.018522
0.534331 -0.024609 0.007414
0.542619 0.048885 0.086936
0.583606 -0.010485 0.065090
0.557047 0.097618 0.052263
0.591401 0.032686 0.063067
0.556105 -0.014449 0.070365
0.549298 0.003888 0.001757
0.523547 0.045792 0.079741
0.530616 0.070314 0.013938
0.556018 0.077112 0.019929
0.563955 -0.018681 0.068466
0.521711 0.056918 0.077934
0.555281 -0.005165 0.002401
0.551379 0.092292 0.030932
0.541617 0.097017 0.068970
0.513039 0.027841 0.015192
0.585217 -0.003722 0.020330
0.565873 0.084578 0.035822
0.587953 -0.028013 0.016527
0.564546 -0.064376 0.025331
0.538022 -0.029052 0.007617
0.596435 -0.059838 0.018412
0.544144 0.038842 0.005045
0.533713 0.098265 0.066978
0.517598 0.088426 0.062545
0.533162 0.100832 0.062481
0.575866 0.079498 0.056357
0.547514 0.086359 0.077675
0.509386 0.008414 0.042281
0.566693 0.022516 0.010131
0.587691 -0.067666 0.024056
0.535739 0.009168 0.076948
0.581230 -0.040261 0.056693
0.586520 0.033043 0.071393
0.540945 0.033584 0.085323
0.528429 0.076722 0.077949
0.581558 0.069777 0.056868
0.553755 -0.056788 0.033545
0.557813 0.010184 0.004037
0.532003 0.025123 0.080900
0.515787 0.076024 0.027315
0.540434 -0.045977 0.031736
0.570669 0.061663 0.080385
0.581906 0.061400 0.069930
0.506034 0.060698 0.051134
0.595929 -0.026478 0.025104
0.548284 0.075528 0.016134
0.534898 0.075499 0.080812
0.567761 0.035369 0.083825
0.541812 -0.025460 0.060543
0.545499 0.081449 0.080196
0.561864 -0.009547 0.072265
0.515634 0.087078 0.059937
0.558484 -0.030362 0.004679
0.558040 0.049781 0.086301
0.533514 0.071863 0.081396
0.516354 0.049092 0.014687
0.575701 -0.025802 0.009612
0.576746 0.001779 0.072912
0.577455 -0.052248 0.009855
0.529810 0.075018 0.016124
0.579934 0.016156 0.075540
0.600004 -0.043896 0.021203
0.515674 0.070751 0.070082
0.542813 0.000166 0.001460
0.531441 0.036430 0.004769
0.564129 -0.003773 0.074262
0.582290 0.068319 0.052701
0.570854 0.075372 0.073806
0.573970 0.032874 0.081216
0.528797 -0.029921 0.018458
0.570067 0.038303 0.015921
0.562552 0.008116 0.005840
0.558819 0.053832 0.012320
0.552416 0.085811 0.024302
0.506136 0.041976 0.057104
0.559414 0.074564 0.020545
0.510160 0.020584 0.058777
0.548285 0.100076 0.061372
0.538867 -0.040232 0.043091
0.505599 0.021776 0.035470
0.520125 -0.017825 0.035799
0.524339 0.051235 0.079967
0.520562 0.026767 0.074617
0.589272 0.049351 0.052990
0.566719 -0.065328 0.022260
0.570201 0.069875 0.027550
0.534784 0.089956 0.074598
0.514102 0.083988 0.036813
0.535424 -0.040010 0.033643
0.519435 0.001139 0.060464
0.597210 -0.016818 0.044497
0.587945 0.020639 0.030919
0.570196 0.074058 0.030557
0.604991 -0.049727 0.030794
0.560144 0.086899 0.031399
0.557897 0.027590 0.084630
0.572388 -0.064403 0.037383
0.587215 -0.067821 0.024293
0.552844 0.063364 0.012538
0.590001 0.044598 0.060849
0.567963 0.002312 0.008283
0.505146 0.048461 0.053150
0.593055 -0.012963 0.054722
0.513943 0.039991 0.071110
0.536210 -0.017171 0.063062
0.576625 0.070856 0.037777
0.515067 0.003214 0.054593
0.515976 -0.007685 0.020179
0.510994 0.068049 0.030117
0.564928 0.041580 0.013006
0.526925 0.018226 0.004118
0.599960 -0.028999 0.041074
0.534248 0.015812 0.002547
0.567092 0.005156 0.008055
0.520501 0.033041 0.008442
0.519545 0.007507 0.065269
0.519723 0.049237 0.012109
0.576050 -0.053608 0.050402
0.546049 0.101273 0.060137
0.568415 -0.006538 0.072572
0.575913 0.061198 0.029506
0.582894 0.051060 0.034542
0.580962 -0.064681 0.016897
0.584676 -0.002303 0.020091
0.597132 -0.013388 0.040470
0.590528 0.038268 0.044501
0.554150 0.098683 0.057791
0.510994 0.007200 0.048030
0.508562 0.070029 0.055912
0.510201 0.053570 0.066710
0.509212 0.075418 0.052400
0.578965 0.074083 0.059366
0.587343 -0.056453 0.047220
0.593416 0.023470 0.059202
0.518502 0.036981 0.075363
0.550532 -0.021805 0.003175
0.519659 0.000277 0.060078
0.561479 0.061915 0.083817
0.527320 0.010117 0.073250
0.506035 0.021202 0.045510
0.508817 0.008879 0.037406
0.573351 -0.061889 0.014728
0.593606 0.020640 0.043853
0.557993 -0.060754 0.027511
0.508271 0.018082 0.024840
0.539833 0.101594 0.042315
0.551830 -0.006048 0.073749
0.521662 0.037371 0.078023
0.592075 -0.031299 0.053569
0.537572 0.018171 0.080729
0.593059 0.019907 0.041533
0.513705 -0.001021 0.019961
0.529188 -0.031348 0.020984
0.566889 -0.059887 0.014246
0.546442 0.071353 0.083495
0.574735 0.071774 0.035279
0.579727 0.046469 0.077199
0.538424 -0.027467 0.006774
0.574989 0.078052 0.044153
0.551636 -0.028377 0.062600
0.586332 0.051722 0.067126
0.564622 0.092087 0.055171
0.595205 -0.056634 0.044247
0.519247 0.094060 0.057707
0.517042 0.072538 0.023927
0.565416 -0.053511 0.010803
0.544101 -0.002499 0.001465
0.556409 0.069802 0.016476
0.544563 0.066281 0.011663
0.508259 0.011591 0.041886
0.583322 -0.012854 0.016305
0.506810 0.061593 0.054977
0.538948 0.028250 0.083836
0.522313 -0.018984 0.016706
0.590120 0.044543 0.060310
0.509114 0.065787 0.060610
0.556464 0.094026 0.066679
0.583860 0.055807 0.069912
0.591392 0.024986 0.039273
0.594656 0.009026 0.041944
0.510726 0.047302 0.067724
0.528285 -0.001834 0.004010
0.584317 -0.025312 0.014502
0.565543 -0.000829 0.006595
0.507887 0.043038 0.024323
0.522682 -0.010518 0.055153
0.593276 0.021532 0.043101
0.561425 -0.040066 0.057647
0.539974 0.078762 0.080780
0.512180 0.084049 0.052516
0.591186 -0.020673 0.056143
0.525784 -0.021482 0.048397
0.562176 -0.039247 0.058284
0.544617 0.099070 0.065365
0.526660 0.100596 0.047924
0.526047 0.067169 0.014646
0.548420 0.060126 0.085947
0.531554 -0.025031 0.052863
0.587815 0.041009 0.038904
0.589443 -0.022404 0.019367
0.555576 0.093583 0.068146
0.579039 -0.046523 0.009458
0.558716 0.096522 0.052169
0.507268 0.014368 0.040116
0.538760 0.004984 0.001708
0.542641 -0.036457 0.009055
0.547393 -0.035807 0.055677
0.581820 0.032823 0.025820
0.507852 0.025104 0.056028
0.532738 0.099619 0.064635
0.566135 0.028666 0.083439
0.507604 0.021690 0.025571
0.508831 0.057282 0.028417
0.510220 0.027015 0.019271
0.532142 0.057190 0.083411
0.512547 0.062532 0.068710
0.563849 0.079255 0.027463
0.568512 -0.066118 0.025016
0.581959 0.038444 0.075914
0.588372 -0.065529 0.019564
0.522206 -0.020562 0.039280
0.593487 -0.009117 0.054470
0.558901 -0.026560 0.064869
0.505485 0.027933 0.030796
0.590586 0.042688 0.059929
0.506188 0.018817 0.035217
0.510584 0.072611 0.060299
0.593108 0.017271 0.060558
0.532105 0.099941 0.063756
0.523586 0.047408 0.009401
0.592777 0.029308 0.059764
0.542295 0.102493 0.058902
0.538161 0.050546 0.007028
0.505294 0.057920 0.043808
0.520894 0.022117 0.073411
0.592895 -0.064954 0.037263
0.549961 -0.030696 0.005109
0.517023 0.065447 0.073105
0.582296 0.005786 0.071096
0.600499 -0.035283 0.042431
0.521917 -0.007820 0.056429
0.582787 -0.033175 0.012289
0.507056 0.062597 0.055415
0.567878 -0.034967 0.060963
0.539582 0.022766 0.002785
0.564983 0.028482 0.083675
0.569944 0.029585 0.082489
0.561827 0.092439 0.063406
0.566204 -0.038211 0.006553
0.596110 -0.020718 0.048838
0.560757 0.008287 0.005016
0.533781 0.064399 0.011219
0.545214 0.035393 0.004614
0.547852 0.075546 0.016034
0.595485 -0.004110 0.049547
0.536413 -0.040350 0.019649
0.568484 -0.040837 0.007180
0.543318 0.074559 0.082488
0.595048 -0.061408 0.018634
0.521073 0.056424 0.013656
0.520174 0.010682 0.067836
0.597829 -0.057951 0.041752
0.544996 -0.045365 0.043557
0.598966 -0.034686 0.045192
0.589223 0.015802 0.067156
0.573116 0.074662 0.035431
0.512196 0.046456 0.069832
0.549712 0.051114 0.087125
0.585385 0.011536 0.070337
0.525038 0.075156 0.018500
0.555556 0.057267 0.011707
0.522270 0.010550 0.005918
0.534656 0.064388 0.011068
0.504501 0.037725 0.034080
0.553843 0.056405 0.010805
0.526173 0.047823 0.008453
0.548626 0.100339 0.060399
0.549025 0.090741 0.027730
0.582561 -0.040676 0.011074
0.530273 -0.017030 0.058644
0.594589 -0.040662 0.017562
0.544902 0.018747 0.082354
0.558607 -0.032235 0.061818
0.579816 -0.041347 0.009942
0.522203 0.096672 0.058796
0.590595 -0.005809 0.059535
0.556426 0.031018 0.006286
0.593716 -0.004428 0.054741
0.521339 0.055046 0.077881
0.534368 -0.003848 0.070175
0.577788 -0.063844 0.040577
0.601416 -0.040969 0.041916
0.556359 0.017009 0.004295
0.595853 -0.050671 0.046544
0.584801 0.003413 0.021618
0.579708 0.054913 0.031426
0.516157 0.019107 0.011189
0.537178 0.070073 0.082841
0.524469 -0.022779 0.043024
0.566281 0.005908 0.007653
0.578060 0.072227 0.042676
0.559114 -0.001832 0.075457
0.556901 0.050824 0.010551
0.514345 0.039049 0.014216
0.552628 -0.043771 0.051638
0.601677 -0.048340 0.041642
0.571738 -0.065353 0.034571
0.504846 0.038935 0.032392
0.510432 0.042698 0.019745
0.538433 -0.019763 0.062630
0.534971 0.054039 0.084769
0.507748 0.060647 0.059123
0.533085 0.012607 0.077238
0.554729 -0.047427 0.049333
0.543822 -0.040546 0.048572
0.585457 -0.068321 0.025407
0.600625 -0.036341 0.042458
0.580680 -0.056225 0.011327
0.507554 0.013131 0.038741
0.571374 -0.036950 0.059855
0.584750 -0.061601 0.043553
0.568841 0.087289 0.048015
0.592361 0.035807 0.056409
0.537382 0.099044 0.036806
0.568093 0.070845 0.025851
0.527960 0.004093 0.003637
0.534559 0.074806 0.080920
0.559285 0.080814 0.024553
0.571098 -0.000833 0.074000
0.539063 0.056141 0.008365
0.546156 -0.016133 0.068073
0.548668 -0.018749 0.002729
0.574560 0.066419 0.075869
0.593304 -0.019251 0.024991
0.512209 0.026472 0.016307
0.543000 0.032181 0.085425
0.526107 -0.026346 0.040222
0.513595 0.041623 0.070998
0.526097 0.073328 0.077723
0.516314 0.072244 0.070228
0.515112 0.001952 0.053366
0.534534 -0.005631 0.069257
0.516609 0.088418 0.060622
0.527060 -0.011944 0.059427
0.583507 0.015968 0.023179
0.596038 -0.004070 0.045218
0.520101 0.055656 0.014036
0.551299 0.063172 0.011993
0.546956 0.006556 0.001710
0.581456 0.028131 0.076292
0.583368 0.010339 0.021605
0.538717 0.088284 0.023248
0.594574 0.014733 0.044806
0.573210 -0.031896 0.008024
0.588401 0.017528 0.068468
0.543495 0.047734 0.087073
0.543706 -0.036634 0.008688
0.532359 0.075356 0.080040
0.512079 0.081909 0.039538
0.532920 -0.023835 0.007825
0.542133 0.095975 0.032416
0.525977 0.004482 0.004350
0.504460 0.044986 0.036408
0.566492 0.089933 0.059619
0.582366 -0.011638 0.065586
0.528829 0.090915 0.071822
0.504274 0.046231 0.038777
0.524755 0.050134 0.080258
0.559118 0.041618 0.009394
0.511240 0.001668 0.032525
0.550663 0.100693 0.048535
0.527941 0.079728 0.019355
0.547181 0.004255 0.001621
0.537280 0.063411 0.084278
0.538528 -0.011789 0.002678
0.567182 -0.051491 0.050860
0.595543 -0.000673 0.049334
0.515214 0.005379 0.013099
0.580974 0.031090 0.076825
0.522698 -0.007871 0.008547
0.546974 0.028160 0.085029
0.539258 0.053926 0.007805
0.595892 -0.005269 0.047367
0.507288 0.022059 0.026427
0.580421 -0.009762 0.014671
0.543184 0.013752 0.002053
0.522911 -0.019233 0.045123
0.516862 0.045258 0.013119
0.595050 -0.022170 0.026069
0.600045 -0.061478 0.024575
0.568140 0.009654 0.078323
0.598275 -0.023236 0.043743
0.505640 0.060131 0.047505
0.523396 0.033629 0.078537
0.519806 0.092179 0.038015
0.538154 0.102595 0.059338
0.567727 -0.061563 0.039621
0.515550 0.009813 0.061298
0.540162 0.078500 0.016467
0.557502 -0.050425 0.047913
0.511828 0.005192 0.020599
0.544402 0.102937 0.055260
0.578621 -0.005963 0.014042
0.589716 -0.041591 0.052834
0.515383 0.087454 0.058875
0.586700 -0.030747 0.057609
0.526846 0.003023 0.004104
0.522570 0.036672 0.007645
0.506433 0.051461 0.057760
0.514069 0.011846 0.013751
0.508840 0.037199 0.062733
0.578974 -0.047094 0.054115
0.573671 0.063864 0.028135
0.517464 0.001724 0.010982
0.592351 -0.036980 0.052319
0.549565 0.004464 0.001811
0.531566 0.085701 0.075849
0.525120 0.062125 0.079359
0.577628 0.076654 0.057781
0.574334 0.075143 0.038173
0.592886 0.003661 0.034399
0.507608 0.025271 0.024666
0.537493 0.102556 0.059377
0.547022 -0.019538 0.066443
0.564365 0.073692 0.023924
0.559611 0.089840 0.070535
0.556986 0.057764 0.012504
0.535077 0.013172 0.002317
0.576294 -0.030353 0.061916
0.546411 0.077258 0.081761
0.595363 0.009046 0.047699
0.582990 0.031849 0.075150
0.574567 -0.031522 0.061824
0.521398 0.021790 0.073705
0.583997 0.018811 0.024566
0.513796 0.000269 0.018399
0.526393 0.085234 0.023911
0.522267 0.011555 0.070239
0.513922 0.007838 0.056687
0.553434 0.099604 0.054485
0.541589 0.082301 0.079615
0.549237 -0.053717 0.018424
0.552092 0.092787 0.032113
0.573964 -0.044556 0.008354
0.594474 0.000724 0.053867
0.579201 0.051521 0.076914
0.536991 -0.025940 0.006735
0.511006 0.009627 0.020393
0.547022 0.020177 0.002844
0.559420 0.041458 0.009506
0.529527 -0.029966 0.016556
0.534566 -0.028769 0.052354
0.569695 0.022240 0.012163
0.533739 0.044716 0.084482
0.524691 -0.015568 0.053418
0.524442 0.097933 0.042677
0.548418 0.000378 0.001559
0.546147 0.005513 0.001618
0.527558 -0.029169 0.037543
0.509240 0.076911 0.045689
0.589284 0.002606 0.027489
0.564717 -0.031764 0.005555
0.580859 0.037913 0.026167
0.536447 0.031610 0.003735
0.587673 0.029989 0.070092
0.544916 0.082177 0.079883
0.553406 -0.021392 0.003112
0.577998 0.063716 0.073917
0.517349 0.047273 0.075435
0.579339 0.029590 0.021959
0.518505 -0.014156 0.021674
0.515672 -0.009162 0.034387
0.577048 -0.013180 0.067790
0.508637 0.038046 0.021931
0.543580 -0.049617 0.028405
0.540360 -0.010118 0.069460
0.561179 0.084459 0.029680
0.519437 0.043050 0.010637
0.602978 -0.056841 0.035845
0.587517 0.052011 0.063550
0.506301 0.063447 0.041974
0.505778 0.054752 0.035818
0.544628 0.036304 0.086352
0.560739 0.023988 0.006909
0.546152 -0.024905 0.004143
0.527735 -0.003103 0.066367
0.565271 -0.034421 0.061237
0.533486 -0.006914 0.067914
0.507308 0.052841 0.029568
0.539545 0.065380 0.084346
0.517306 0.001190 0.011345
0.521984 0.009327 0.068873
0.593268 0.030048 0.050272
0.575001 -0.001446 0.012273
0.548524 -0.008739 0.001678
0.545719 0.069469 0.012989
0.563261 -0.062538 0.018300
0.585111 0.061848 0.052993
0.516633 0.007422 0.010827
0.551920 -0.054383 0.016158
0.545885 0.085074 0.078489
0.598327 -0.060016 0.039633
0.520898 -0.019019 0.036700
0.592993 -0.026589 0.021485
0.518918 0.053078 0.076391
0.593704 -0.021347 0.052950
0.534291 -0.009409 0.003196
0.525493 0.073435 0.077339
0.555748 0.061157 0.085118
0.592655 0.018494 0.061716
0.579340 0.007699 0.073576
0.524316 -0.025293 0.031763
0.511588 0.016092 0.017529
0.583418 0.059108 0.041145
0.538005 0.061329 0.084812
0.542202 0.058941 0.009192
0.562987 -0.049356 0.009401
0.518235 0.047829 0.076150
0.581272 0.069581 0.049318
0.534251 -0.010912 0.003460
0.520251 -0.014763 0.044974
0.597360 -0.017064 0.035059
0.523268 0.085396 0.071255
0.548480 -0.014678 0.002178
0.571939 -0.046430 0.054928
0.519997 -0.010386 0.012847
0.516213 0.013663 0.010918
0.561856 0.083795 0.029698
0.589228 0.028713 0.036127
0.543912 0.089243 0.024600
0.563429 0.075571 0.078853
0.523311 0.071546 0.017961
0.558458 -0.018698 0.003347
0.577274 -0.017266 0.066330
0.602647 -0.041331 0.039341
0.512987 0.023108 0.015255
0.522968 0.095520 0.062532
0.595107 -0.047437 0.015719
0.533240 0.003320 0.073351
0.596051 -0.004045 0.043027
0.547211 0.063677 0.085284
0.537691 0.087046 0.022208
0.587819 0.032670 0.035039
0.525732 0.063226 0.013427
0.538743 -0.024987 0.005749
0.537966 -0.042653 0.034885
0.561220 -0.004399 0.004253
0.595058 -0.026341 0.024017
0.569281 0.075842 0.074917
0.530467 -0.033000 0.037790
0.566003 -0.043156 0.056473
0.549947 0.100890 0.047984
0.523656 0.088168 0.028309
0.541145 -0.035252 0.009159
0.518114 0.006022 0.009411
0.503890 0.038868 0.043792
0.587754 -0.055216 0.012502
0.567457 0.061214 0.082007
0.506456 0.019505 0.031511
0.599102 -0.039630 0.022384
0.525487 0.008879 0.004369
0.559958 0.081860 0.077258
0.527693 -0.026169 0.045391
0.565919 0.056445 0.083555
0.532812 -0.034961 0.040573
0.589536 0.046984 0.049468
0.560503 -0.059761 0.036392
0.514710 0.006023 0.013725
0.540897 0.074277 0.014458
0.590889 -0.041706 0.014899
0.590735 -0.067407 0.028211
0.575806 -0.068346 0.025512
0.518318 0.053089 0.014438
0.579339 0.068528 0.068124
0.562145 0.091460 0.065168
0.517451 0.091722 0.042462
0.522809 0.042862 0.079299
0.557598 0.031029 0.085323
0.566670 0.064952 0.081289
0.577180 0.010758 0.015671
0.559596 0.049758 0.086009
0.579442 0.070613 0.044145
0.582335 0.047212 0.074544
0.522838 -0.003693 0.061094
0.535331 0.005410 0.075224
0.542689 -0.006450 0.072119
0.524710 0.090789 0.069209
0.559235 0.042010 0.009538
0.562846 0.030357 0.084412
0.553910 0.031710 0.005644
0.601991 -0.040558 0.040674
0.538832 0.060468 0.009555
0.573125 -0.017542 0.067510
0.556571 -0.033801 0.005362
0.584609 0.054401 0.069269
0.559202 0.033198 0.085463
0.562662 0.016774 0.006868
0.583418 0.060182 0.067901
0.528525 0.091167 0.071492
0.548088 0.101500 0.057310
0.558078 -0.051028 0.010967
0.519983 0.031021 0.075296
0.531302 0.088154 0.074522
0.511202 0.006449 0.021762
0.504418 0.049638 0.047210
0.601842 -0.034360 0.037280
0.523639 0.071729 0.017828
0.603496 -0.053824 0.024439
0.588469 -0.029812 0.056727
0.547580 -0.045527 0.011709
0.569113 0.032157 0.083081
0.508794 0.065097 0.033068
0.598994 -0.063605 0.030015
0.546327 0.022070 0.083465
0.512756 0.009180 0.016436
0.571650 0.084521 0.049794
0.601336 -0.031765 0.035420
0.545499 0.062844 0.010663
0.533401 0.007812 0.002307
0.574278 -0.067994 0.024663
0.552495 -0.049048 0.011623
0.505441 0.045182 0.031684
0.549801 0.042892 0.006650
0.508862 0.009416 0.040801
0.548993 0.101270 0.048045
0.582603 -0.052363 0.050628
0.532627 -0.036887 0.030158
0.566449 -0.010559 0.006290
0.570131 0.075274 0.074543
0.582603 0.066950 0.049831
0.553336 0.063286 0.012687
0.575691 -0.009557 0.069501
0.564004 0.064317 0.082497
0.567173 0.039369 0.084251
0.510425 0.080167 0.050365
0.564150 0.064655 0.019514
0.517871 0.036566 0.010701
0.556159 0.032107 0.006376
0.554826 -0.025418 0.064978
0.513526 0.025860 0.014577
0.558870 -0.053778 0.044918
0.562576 -0.063285 0.026837
0.543780 -0.029562 0.058607
0.562191 0.039205 0.085543
0.583439 0.064794 0.061281
0.580960 0.070263 0.049499
0.520753 -0.017499 0.040976
0.592445 0.000141 0.058231
0.541141 0.007686 0.001671
0.519434 0.027278 0.008735
0.566715 0.052456 0.017320
0.512016 0.077474 0.060221
0.590032 0.039471 0.043761
0.581813 -0.066934 0.036252
0.591601 0.037808 0.048691
0.597279 -0.061709 0.038764
0.569990 0.040646 0.016437
0.545718 0.058405 0.086252
0.563732 0.007937 0.078513
0.518514 -0.014885 0.024332
0.596103 -0.052793 0.015814
0.506986 0.057208 0.057958
0.592605 -0.066885 0.028375
0.503993 0.043198 0.040248
0.586127 -0.067812 0.023189
0.540530 0.065868 0.011221
0.505488 0.042558 0.054929
0.540025 0.031371 0.084737
0.586858 0.053216 0.064668
0.525060 -0.002757 0.064225
0.512127 0.072927 0.031050
0.576585 -0.041110 0.008890
0.581838 0.004686 0.071056
0.519401 0.092603 0.039613
0.542636 0.081699 0.079954
0.540996 -0.035901 0.051114
0.567691 -0.064929 0.030562
0.553004 0.051842 0.086814
0.578279 -0.045096 0.055227
0.512414 0.062220 0.024755
0.555324 0.091313 0.071437
0.509599 0.014694 0.022253
0.575219 0.005867 0.074953
0.592948 0.032891 0.053934
0.513408 0.077077 0.063497
0.538957 0.002356 0.001681
0.536058 0.095872 0.070213
0.561880 -0.063155 0.022901
0.526836 0.009937 0.003858
0.576929 -0.043328 0.056263
0.539669 -0.029205 0.007014
0.561722 0.026870 0.083965
0.525140 -0.021259 0.047391
0.594274 0.016394 0.044259
0.592651 0.003450 0.033794
0.513942 0.016439 0.013788
0.571254 0.062876 0.079674
0.512309 0.005716 0.018809
0.553117 -0.010078 0.002068
0.545849 -0.018324 0.066771
0.586410 0.039663 0.070791
0.570968 0.049119 0.082534
0.537086 0.089296 0.075468
0.603690 -0.042869 0.029681
0.586591 -0.037645 0.055642
0.590001 0.042720 0.046409
0.595557 -0.059563 0.042111
0.574737 0.033438 0.080881
0.570220 -0.066742 0.023238
0.591272 0.004109 0.031298
0.510483 0.003867 0.031926
0.577497 0.043588 0.024008
0.544731 0.080416 0.018020
0.583264 0.063227 0.064986
0.507952 0.026664 0.023594
0.550382 -0.043309 0.009397
0.571275 -0.029359 0.007366
0.547844 0.031714 0.085807
0.517140 -0.012569 0.028210
0.555474 -0.055374 0.039527
0.565761 0.063702 0.082017
0.587464 0.002176 0.065455
0.587566 0.055165 0.056751
0.582705 -0.067271 0.020373
0.531619 -0.035501 0.026006
0.566187 0.038775 0.013212
0.590892 -0.045586 0.013934
0.540488 -0.046009 0.031886
0.562257 0.066737 0.082420
0.505691 0.020742 0.040579
0.547732 0.031896 0.085837
0.576864 -0.015114 0.067209
0.590477 0.015012 0.033485
0.576201 -0.002852 0.071572
0.516735 0.082281 0.030472
0.574711 0.067619 0.075053
0.540880 -0.046754 0.024652
0.591039 0.039147 0.061032
0.538919 -0.038499 0.012813
0.570947 0.055379 0.081724
0.578038 0.032240 0.021297
0.591161 0.018125 0.064621
0.540023 0.090675 0.025560
0.544425 0.071918 0.013784
0.511280 0.029255 0.064678
0.578777 0.060316 0.033100
0.538652 0.003455 0.001704
0.546991 0.071765 0.083386
0.505138 0.024892 0.035102
0.507118 0.061589 0.035700
0.543159 0.046542 0.087032
0.597116 -0.013365 0.041267
0.509144 0.070656 0.036345
0.509663 0.010456 0.024376
0.569340 0.022238 0.081418
0.558935 -0.039764 0.057296
0.544994 0.019955 0.082725
0.525458 0.004560 0.069221
0.552676 0.098873 0.059756
0.522301 0.007611 0.068230
0.580171 0.060196 0.035342
0.565374 0.064529 0.020407
0.558064 0.092624 0.037680
0.577829 0.030740 0.020696
0.514226 0.030927 0.013803
0.543370 0.070813 0.083520
0.552716 0.005453 0.078374
0.582795 0.065742 0.047897
0.538783 0.097797 0.034741
0.579632 -0.041178 0.009889
0.521076 0.039041 0.008841
0.541111 0.040334 0.086313
0.586763 0.018062 0.070394
0.576863 -0.062956 0.015318
0.592614 0.021019 0.040716
0.543848 -0.050017 0.026101
0.552881 -0.004748 0.074346
0.537583 0.030698 0.003601
0.538354 -0.015285 0.065518
0.510403 0.051891 0.067234
0.507891 0.042733 0.024233
0.528268 0.020818 0.077843
0.516109 0.001676 0.012845
0.506857 0.025021 0.052968
0.522281 0.055888 0.012718
0.569151 0.001019 0.075147
0.522388 0.024752 0.006557
0.548551 -0.053343 0.018920
0.524232 0.097247 0.061310
0.571054 -0.057099 0.046828
0.536092 0.083603 0.019706
0.547764 0.064537 0.085103
0.561786 0.049823 0.085549
0.551620 -0.012607 0.002061
0.572101 0.009146 0.077147
0.564940 0.027479 0.083505
0.579044 -0.063237 0.041601
0.582740 0.013135 0.072926
0.557292 0.093627 0.038614
0.542374 -0.035474 0.052688
0.575975 -0.067117 0.019993
0.555974 0.097958 0.048732
0.579743 0.071651 0.062382
0.548540 -0.048679 0.042742
0.571118 0.083734 0.063946
0.569156 0.008317 0.077669
0.559344 -0.060798 0.031229
0.510369 0.028552 0.018943
0.526218 -0.028168 0.030891
0.504790 0.038483 0.051357
0.579540 0.032694 0.023034
0.537579 0.065312 0.011074
0.579505 -0.068709 0.024400
0.586251 0.057181 0.048448
0.549950 0.094444 0.033237
0.525434 -0.026053 0.037858
0.565306 0.017826 0.008501
0.572865 0.016042 0.013300
0.560062 -0.040918 0.056799
0.559581 0.072405 0.081515
0.588069 -0.006215 0.062371
0.566318 0.040410 0.084546
0.514292 0.086852 0.041036
0.567153 0.002596 0.007826
0.565921 0.063211 0.020328
0.550811 -0.002039 0.001732
0.520353 -0.018423 0.024444
0.583554 0.026410 0.074430
0.585498 0.021601 0.072167
0.543540 -0.049621 0.023840
0.569812 0.023317 0.012453
0.582340 -0.037833 0.057304
0.559281 -0.037109 0.059076
0.604390 -0.046297 0.035464
0.539902 -0.039508 0.012743
0.548562 0.027500 0.003932
0.531316 0.009089 0.002691
0.512026 0.078681 0.059308
0.516633 0.083677 0.064741
0.537291 0.064646 0.010874
0.600719 -0.060182 0.023777
0.520088 -0.018375 0.028880
0.515424 0.028041 0.012438
0.561979 -0.009956 0.072097
0.537698 0.093395 0.028576
0.575428 -0.049972 0.009231
0.564849 0.089209 0.065613
0.532711 0.007869 0.075179
0.566328 0.073062 0.078468
0.581823 0.069323 0.056149
0.574083 -0.001348 0.011691
0.530118 0.085466 0.075367
0.532961 0.095688 0.069701
0.572555 -0.012407 0.009402
0.509983 0.008497 0.024909
0.533481 0.059979 0.083659
0.558996 0.093882 0.041663
0.517644 0.086198 0.032889
0.508691 0.016698 0.024134
0.536784 0.028288 0.003366
0.522766 0.032978 0.007092
0.506980 0.032095 0.057028
0.514127 0.070409 0.026442
0.523455 0.085195 0.071508
0.529581 0.026299 0.003974
0.507858 0.021952 0.053905
0.517172 -0.008591 0.045286
0.540507 0.098262 0.035719
0.546922 0.008093 0.001797
0.570974 0.037986 0.016520
0.556131 0.061338 0.013200
0.561149 -0.061264 0.033071
0.512776 0.030281 0.015513
0.506403 0.041118 0.057780
0.522404 0.073037 0.019272
0.535192 0.001854 0.073529
0.560917 0.061660 0.084016
0.531276 0.029472 0.003957
0.580707 0.024232 0.022051
0.562187 -0.016208 0.004248
0.587212 -0.038374 0.013703
0.579626 0.003648 0.016470
0.578443 0.071930 0.065889
0.560958 0.065608 0.083087
0.511367 0.057702 0.068017
0.543465 0.089224 0.075966
0.593414 -0.014640 0.027368
0.589112 0.031878 0.067881
0.567841 0.082076 0.035524
0.508143 0.050689 0.062731
0.504707 0.047193 0.051000
0.589173 -0.067630 0.031691
0.565451 0.087517 0.067695
0.589323 0.027355 0.067875
0.513441 0.059770 0.070512
0.543629 0.037065 0.086342
