ply
format ascii 1.0
element vertex 1024
property float x
property float y
property float z
end_header
0.518560 -0.015377 0.048393
0.512186 0.069305 0.053350
0.512046 0.074287 0.054748
0.571302 -0.042423 -0.004066
0.577223 0.076142 0.057787
0.520404 0.028603 0.020107
0.562909 -0.035297 -0.006997
0.590337 0.000397 0.066896
0.525946 0.082736 0.034806
0.541802 0.040897 0.015841
0.601793 -0.013406 0.034774
0.584108 -0.056525 0.028791
0.579477 0.063767 0.071075
0.594550 0.048205 0.047739
0.602199 0.002970 0.029743
0.555745 0.041251 0.015329
0.519475 0.047649 0.028966
0.580827 -0.037312 -0.001823
0.525639 -0.041526 0.023837
0.588597 0.000457 0.008142
0.595827 0.046609 0.054031
0.540154 0.105568 0.050833
0.553415 -0.059310 0.007111
0.526266 0.068197 0.075479
0.513097 0.093620 0.047315
0.520475 0.010753 0.061817
0.534230 -0.048701 0.034971
0.551284 -0.032493 0.064495
0.543842 0.013366 0.079753
0.539282 -0.047769 0.043490
0.552271 0.049770 0.019493
0.587354 0.014387 0.013288
0.573716 0.079313 0.066553
0.550388 0.078955 0.080368
0.566526 -0.021812 0.071279
0.565160 0.024201 0.083080
0.559662 0.051135 0.021252
0.589124 -0.010870 0.004930
0.545196 -0.044899 0.051762
0.571143 0.082996 0.057129
0.593420 -0.042178 0.016090
0.585569 -0.030030 0.057084
0.544769 -0.011459 0.073370
0.595415 -0.032189 0.013435
0.577799 -0.039486 -0.002786
0.595301 -0.005091 0.013596
0.581939 0.070055 0.060336
0.551311 -0.002644 0.078202
0.556600 -0.037546 -0.006072
0.512009 0.088526 0.048044
0.513353 0.088360 0.044806
0.600928 -0.016963 0.029298
0.575394 0.001666 0.076834
0.516731 0.025514 0.059694
0.597974 -0.023449 0.017890
0.556196 0.014648 0.082563
0.562664 -0.057183 0.043308
0.527773 -0.037858 0.010411
0.546005 -0.027563 0.066109
0.512071 -0.007279 0.032016
0.586113 -0.005715 0.068857
0.588181 0.042639 0.069938
0.584391 0.066769 0.056695
0.544723 -0.023836 -0.004808
0.592985 -0.034527 0.043332
0.570445 -0.035376 -0.006241
0.561975 -0.051538 -0.001304
0.586169 -0.044145 0.004945
0.591557 -0.043394 0.012275
0.596098 -0.016410 0.052556
0.549521 0.099433 0.069357
0.596313 -0.013356 0.054044
0.601572 0.021963 0.040906
0.559108 0.029071 0.009665
0.563057 0.089743 0.053545
0.538608 -0.055670 0.026212
0.514026 0.041621 0.034452
0.533757 0.058173 0.079709
0.578940 -0.052036 0.003975
0.602042 0.002558 0.046813
0.545973 0.056212 0.083666
0.575567 0.011797 0.004820
0.537627 0.054299 0.081348
0.577744 0.074726 0.054645
0.532754 0.092573 0.037207
0.579346 0.044449 0.024265
0.551292 0.080369 0.035905
0.558524 -0.032904 -0.007117
0.597458 0.040457 0.044825
0.554969 0.051420 0.084672
0.577197 0.075454 0.064585
0.588485 -0.008269 0.005106
0.555337 -0.030712 0.066787
0.600115 0.020430 0.033244
0.542217 -0.057661 0.016893
0.566987 0.066081 0.079261
0.548806 -0.050987 0.046974
0.602514 0.007003 0.033479
0.572308 -0.027850 -0.006657
0.567421 0.067422 0.033414
0.561359 -0.065358 0.014952
0.539763 -0.009133 0.071944
0.525703 -0.029479 0.008468
0.512520 -0.009395 0.034103
0.518813 0.017666 0.017614
0.543246 -0.046505 0.048719
0.595866 -0.010457 0.056338
0.601602 0.019246 0.048868
0.515702 0.048016 0.061246
0.531954 -0.023380 0.060304
0.544095 -0.035074 0.059974
0.598640 -0.027436 0.032705
0.557845 -0.016043 -0.006817
0.568899 -0.053473 0.046855
0.537977 0.024900 0.009888
0.570762 0.041650 0.018246
0.588727 -0.031228 0.002797
0.522621 0.003509 0.010449
0.519088 -0.021384 0.014469
0.533322 -0.018592 0.063957
0.553396 -0.023037 0.070947
0.515411 -0.021427 0.027170
0.530255 0.024682 0.073894
0.551040 -0.010868 0.075472
0.565744 -0.005731 0.077753
0.514295 0.046216 0.057802
0.552022 0.028852 0.009256
0.586705 0.063410 0.055870
0.535600 -0.032406 0.057073
0.513344 0.039553 0.054141
0.551266 -0.051321 0.000663
0.512515 0.007510 0.024124
0.530483 0.031717 0.075229
0.581483 0.047386 0.027869
0.554452 -0.032363 0.065421
0.593648 -0.018792 0.008318
0.571090 -0.019330 -0.006454
0.525373 0.038545 0.072002
0.557986 -0.041203 0.059114
0.575731 0.056372 0.029944
0.568853 -0.038503 -0.005811
0.552163 -0.063630 0.019775
0.602463 0.009999 0.043071
0.541565 0.055928 0.022722
0.554016 -0.029998 -0.006821
0.539807 0.078542 0.032599
0.548720 0.096888 0.071733
0.583381 0.068109 0.056389
0.529359 0.106406 0.046836
0.586345 0.015512 0.013049
0.559560 -0.066163 0.022398
0.573793 -0.060982 0.034510
0.563102 -0.066289 0.018582
0.532745 -0.032545 0.002581
0.541139 -0.057211 0.027611
0.586073 0.011843 0.072269
0.564508 0.033503 0.012415
0.531675 0.107407 0.059612
0.543779 0.002837 0.077459
0.517949 0.067276 0.067294
0.510887 0.001711 0.031673
0.536569 -0.019595 0.065701
0.554612 -0.055375 0.044112
0.527240 -0.023037 0.005120
0.552286 0.083367 0.078511
0.574099 0.043777 0.020812
0.545469 -0.013316 0.072945
0.596789 -0.034502 0.021540
0.564518 0.071209 0.078941
0.519640 -0.031024 0.029937
0.517821 -0.022305 0.017435
0.587498 -0.036360 0.049958
0.528356 0.075660 0.032290
0.579271 -0.018622 -0.003405
0.547746 -0.053727 0.042813
0.517325 -0.011992 0.048486
0.546703 0.041006 0.083750
0.540614 -0.055015 0.033035
0.525314 0.028577 0.070307
0.576848 -0.059240 0.034838
0.569619 0.076964 0.043691
0.524376 -0.028035 0.047381
0.548102 -0.051453 0.046004
0.602135 -0.006172 0.028885
0.553763 0.076221 0.034226
0.514588 0.023604 0.055802
0.549955 0.098360 0.048291
0.593264 -0.023952 0.007427
0.511734 0.011537 0.047435
0.526247 0.093095 0.037465
0.568845 -0.050680 0.050075
0.586274 0.048564 0.033496
0.595959 0.013669 0.021500
0.522813 0.023586 0.066946
0.529242 -0.019618 0.003040
0.524942 -0.039071 0.018173
0.514072 -0.006762 0.044792
0.583323 0.060760 0.068611
0.559599 0.018822 0.005031
0.569156 0.046089 0.020347
0.571825 0.004295 0.000547
0.571770 -0.029687 -0.006699
0.581931 -0.023816 0.064023
0.567890 -0.016476 -0.006588
0.575920 -0.005803 0.074793
0.552265 -0.060427 0.009711
0.558893 0.060570 0.083363
0.594512 0.002954 0.062831
0.579793 0.039830 0.077077
0.554182 -0.036692 0.062032
0.558352 -0.015222 0.074806
0.522089 -0.002010 0.009928
0.548965 0.099817 0.069199
0.554771 -0.012621 -0.005927
0.553105 -0.062656 0.031017
0.592645 -0.046111 0.023671
0.567617 0.063838 0.079572
0.566083 0.012241 0.081474
0.515731 0.058846 0.037669
0.534804 0.031711 0.013730
0.553203 -0.017495 -0.006492
0.515766 0.094843 0.043626
0.561422 -0.031570 -0.007495
0.523614 -0.009063 0.058988
0.534993 0.093583 0.074455
0.531870 0.107273 0.060111
0.577058 -0.005495 -0.001290
0.516053 -0.001643 0.016879
0.562963 0.051368 0.021988
0.585800 -0.027555 0.058572
0.512633 0.049493 0.043962
0.566800 -0.026460 0.069034
0.550062 0.031252 0.083773
0.543387 -0.016321 -0.004052
0.573367 0.011987 0.079298
0.593901 0.037690 0.064412
0.597923 -0.030789 0.030448
0.565668 0.015927 0.004380
0.598212 0.027518 0.033964
0.514779 0.071340 0.040931
0.593450 0.032532 0.030206
0.564021 0.048872 0.020745
0.601603 0.011285 0.031851
0.563461 0.004747 0.080682
0.601251 -0.004007 0.025342
0.524768 0.079630 0.074033
0.554864 -0.061516 0.009576
0.520405 0.028000 0.065051
0.548411 -0.004655 -0.003127
0.538973 0.003431 0.001609
0.541662 0.106289 0.057502
0.542254 0.054709 0.022088
0.518686 0.057934 0.033377
0.525634 0.011542 0.010404
0.549997 -0.055743 0.005013
0.581040 0.010588 0.075462
0.583318 -0.045519 0.046097
0.573669 -0.036666 0.060886
0.585560 -0.048059 0.040591
0.527976 -0.028575 0.005660
0.517992 0.087006 0.067292
0.512668 0.017553 0.025869
0.560332 -0.024605 0.070664
0.577379 0.068183 0.042507
0.566085 0.013202 0.081602
0.524429 -0.035737 0.037089
0.552640 0.001206 0.079527
0.587658 -0.001245 0.068890
0.589688 0.013617 0.069424
0.549084 0.102664 0.058980
0.522167 0.027282 0.018207
0.552609 0.090831 0.074732
0.599010 0.011908 0.057052
0.571101 -0.055184 0.002320
0.532286 0.021869 0.074947
0.556252 -0.025214 0.070225
0.512512 0.064792 0.054181
0.540739 -0.005793 0.073586
0.524015 0.028824 0.017549
0.596352 0.031617 0.061819
0.581273 0.060845 0.070699
0.554479 0.099240 0.061254
0.536886 -0.048012 0.040160
0.546512 -0.016467 -0.004981
0.513481 -0.014206 0.031438
0.583759 0.067337 0.054763
0.541150 -0.025790 -0.003378
0.537660 0.045476 0.081011
0.515418 -0.011639 0.018697
0.543153 -0.045813 0.001191
0.513922 0.091026 0.061132
0.576153 -0.062777 0.027505
0.597713 -0.029628 0.020771
0.558376 0.095195 0.056445
0.585059 0.051150 0.034267
0.572377 -0.011555 -0.004611
0.584167 -0.010049 0.001272
0.587462 0.009073 0.070884
0.544797 0.064762 0.026557
0.584511 -0.038692 0.051301
0.538576 -0.015126 0.068965
0.590336 0.050602 0.065098
0.516305 -0.001303 0.016521
0.579498 -0.044114 0.050976
0.542101 -0.055454 0.011618
0.515858 -0.017096 0.019464
0.527183 0.025217 0.014289
0.521583 0.038057 0.023023
0.572067 -0.031843 0.064727
0.595488 0.044460 0.044442
0.544110 0.076161 0.031944
0.565614 0.054001 0.024137
0.601823 -0.008452 0.042881
0.566017 0.025363 0.083031
0.522982 0.026807 0.017444
0.532394 0.060491 0.079064
0.544198 -0.054809 0.038054
0.583988 -0.054276 0.034096
0.512460 0.054559 0.050228
0.567054 0.038564 0.083418
0.531483 0.059748 0.078553
0.552389 -0.062656 0.014754
0.577402 -0.061152 0.013751
0.596385 -0.017973 0.013124
0.532818 -0.039354 0.046827
0.559483 0.041136 0.084788
0.531543 0.011126 0.007070
0.537336 0.073041 0.030275
0.541792 -0.056070 0.013249
0.549510 0.094344 0.043920
0.549963 -0.049857 0.000273
0.589600 0.007331 0.068827
0.589615 0.043227 0.033239
0.578296 0.074939 0.058787
0.544693 0.053567 0.083500
0.543811 0.022243 0.007313
0.579841 -0.008917 0.071922
0.561929 -0.066456 0.020793
0.518220 -0.006810 0.052966
0.599361 0.008388 0.055833
0.599718 -0.021810 0.036745
0.601903 0.007847 0.047578
0.546557 -0.040799 0.056268
0.571384 -0.044250 0.055682
0.560475 -0.022257 -0.007644
0.545758 0.099704 0.070264
0.511910 -0.006308 0.033925
0.534241 0.108016 0.055339
0.575729 0.041058 0.079508
0.512805 0.046591 0.041395
0.530840 0.045161 0.077190
0.598150 0.000102 0.056635
0.516034 0.000547 0.017074
0.593968 0.005688 0.064013
0.579180 -0.049109 0.046101
0.511484 0.021896 0.030351
0.563005 -0.066497 0.020449
0.599902 -0.000007 0.022554
0.513302 0.012293 0.023275
0.558618 -0.063095 0.010296
0.590637 0.003092 0.011044
0.592540 -0.030802 0.047581
0.558469 -0.010724 0.076522
0.519448 0.100480 0.062982
0.575786 0.074378 0.049004
0.565408 -0.047353 0.054100
0.511895 0.022913 0.049289
0.512944 0.076017 0.044978
0.566013 0.022300 0.082706
0.546009 0.083198 0.035935
0.584130 -0.039649 0.050855
0.525802 0.056727 0.074478
0.589856 0.028370 0.023379
0.518927 -0.007132 0.053868
0.516021 -0.005924 0.049706
0.539998 -0.050915 0.007499
0.561860 0.084914 0.044828
0.513425 0.059626 0.043085
0.571065 0.045783 0.020785
0.592477 -0.011650 0.008227
0.585508 0.018884 0.014127
0.579665 -0.018723 -0.003229
0.514900 0.045459 0.034494
0.575856 0.071123 0.070856
0.559493 0.087480 0.045382
0.540188 -0.051136 0.039535
0.530131 0.107156 0.048646
0.599859 -0.010227 0.021438
0.561606 0.001108 0.080062
0.513421 0.094119 0.058888
0.553488 0.066469 0.083036
0.512381 0.073728 0.047162
0.510052 0.018734 0.037332
0.547898 -0.019415 -0.005595
0.569517 -0.031699 0.065622
0.530287 -0.032117 0.051877
0.510543 0.019518 0.043828
0.595369 -0.026689 0.011491
0.574999 0.000753 0.000107
0.599914 0.031508 0.042027
0.591909 -0.011296 0.007644
0.597640 -0.009815 0.053630
0.576806 0.001359 0.001034
0.598585 0.000912 0.020277
0.552657 -0.060072 0.008788
0.572569 -0.036430 -0.005500
0.546306 0.089868 0.039572
0.557431 0.031402 0.084451
0.532990 0.090497 0.036563
0.534176 -0.004762 0.070043
0.532531 0.051188 0.078741
0.549062 0.090106 0.040844
0.573435 -0.064523 0.024992
0.512027 0.040550 0.044200
0.575531 0.025166 0.011190
0.512867 0.042683 0.038780
0.558139 -0.039757 0.060351
0.548044 0.016336 0.081549
0.528882 0.093278 0.072959
0.512080 0.081216 0.047356
0.575635 0.037599 0.017946
0.512471 0.085233 0.058767
0.541677 0.049325 0.019701
0.543740 0.000767 -0.000603
0.601909 0.020056 0.043832
0.544231 -0.049534 0.045784
0.571402 0.041791 0.081698
0.564962 0.048194 0.020545
0.539259 -0.019344 -0.002725
0.526022 0.019859 0.069427
0.574159 0.007013 0.002284
0.603083 0.001673 0.035419
0.542622 0.063669 0.082597
0.511412 0.087480 0.051202
0.537216 0.095507 0.073686
0.598572 -0.009893 0.051743
0.602812 -0.005188 0.038890
0.548424 0.034278 0.083710
0.543257 -0.037982 0.057241
0.581043 -0.039607 0.053770
0.545909 -0.000952 0.077206
0.542192 0.068428 0.082085
0.551570 0.059747 0.083978
0.532443 0.106603 0.062063
0.512738 0.076912 0.045519
0.546208 0.101925 0.049571
0.590160 0.009094 0.068542
0.523687 0.059975 0.072939
0.521873 0.092180 0.069491
0.544141 -0.037135 -0.002776
0.516351 0.008433 0.017845
0.576289 -0.051217 0.001875
0.557552 -0.013260 -0.006283
0.596496 0.039672 0.041061
0.547873 -0.053315 0.043463
0.565953 -0.023565 -0.007653
0.517947 0.023469 0.061150
0.589581 -0.001860 0.008169
0.539368 0.031099 0.080495
0.579350 0.065307 0.041582
0.520012 -0.031555 0.022339
0.531056 0.068963 0.029644
0.602254 0.010331 0.044982
0.534819 -0.017852 0.065380
0.571652 0.046571 0.081105
0.567279 -0.027854 0.068244
0.556231 -0.053206 0.047224
0.568396 -0.051776 0.048955
0.574013 0.013624 0.079253
0.548353 0.018291 0.081912
0.575783 -0.060363 0.033933
0.559812 0.025851 0.083883
0.542754 0.037869 0.014286
0.517274 0.047671 0.031575
0.600285 -0.010082 0.022653
0.578566 -0.005558 -0.000624
0.583526 0.044489 0.027673
0.511144 0.001821 0.040257
0.543381 0.043199 0.016604
0.583070 -0.035478 -0.000898
0.520301 0.031976 0.021555
0.556144 0.081208 0.038141
0.509982 0.016433 0.037609
0.534746 -0.031254 0.057304
0.577708 0.075591 0.058060
0.550159 -0.054031 0.043884
0.592242 -0.046338 0.027624
0.587579 0.062138 0.056483
0.575242 -0.045116 -0.001724
0.597576 0.038394 0.042399
0.596808 -0.016903 0.050944
0.538677 -0.045592 0.003990
0.513865 0.039876 0.055796
0.559502 -0.063969 0.032221
0.595532 -0.019116 0.051760
0.553581 -0.035798 0.062589
0.572412 0.015815 0.005524
0.590361 0.022628 0.069199
0.558787 -0.054049 0.000352
0.593013 -0.029947 0.007763
0.583211 0.046490 0.028790
0.542642 -0.044721 0.050340
0.587694 0.056460 0.043415
0.531393 0.074911 0.078176
0.515294 0.042758 0.032395
0.600190 0.030118 0.053255
0.511426 -0.001013 0.039181
0.596278 0.045504 0.053744
0.531703 -0.013124 0.065143
0.589600 0.000287 0.008973
0.515894 0.047581 0.033616
0.599082 0.007576 0.056315
0.548325 0.062102 0.025495
0.586801 0.037243 0.025971
0.571543 0.037389 0.081838
0.602424 -0.002115 0.029824
0.528778 0.071388 0.030937
0.522500 0.105927 0.049374
0.518327 0.011870 0.059500
0.514843 0.064807 0.040233
0.590087 -0.034280 0.048339
0.554275 -0.021848 0.071653
0.588256 -0.051633 0.016508
0.561491 -0.064677 0.012863
0.537340 0.088730 0.076848
0.569257 0.003510 0.079295
0.585486 -0.023750 -0.000245
0.540737 0.072432 0.081347
0.597912 0.025627 0.059766
0.559405 -0.061060 0.006670
0.550430 0.058724 0.024004
0.513875 0.072857 0.060898
0.577755 -0.059117 0.034136
0.514039 0.060730 0.059348
0.596946 0.039980 0.042579
0.600864 0.009331 0.028146
0.582114 -0.031824 0.058892
0.601207 0.024140 0.050648
0.575830 -0.021747 0.068530
0.520725 0.073416 0.070901
0.551231 -0.006885 -0.004169
0.599525 0.034832 0.052771
0.512609 0.070140 0.056484
0.581296 0.046970 0.027424
0.554370 -0.060763 0.036002
0.554935 -0.045098 0.055078
0.530239 -0.030343 0.004028
0.545247 -0.020743 -0.004927
0.527319 0.045521 0.022563
0.600257 0.005883 0.053270
0.561965 -0.064870 0.013286
0.539463 0.034944 0.080950
0.561876 -0.015835 -0.006910
0.536859 -0.052884 0.014480
0.573443 0.000408 -0.000516
0.592738 0.035067 0.031086
0.519201 0.055105 0.067636
0.538544 -0.052040 0.035812
0.517338 0.035506 0.026039
0.511042 -0.000206 0.036603
0.520469 0.055570 0.069227
0.557869 -0.010439 0.076594
0.541737 0.035023 0.013229
0.597403 0.031334 0.060108
0.591735 -0.037129 0.008257
0.558545 -0.000108 0.079806
0.573292 0.006832 0.078590
0.552752 -0.055140 0.002931
0.544032 -0.056654 0.034441
0.565734 0.086677 0.070345
0.567593 -0.039253 -0.005793
0.554248 0.091678 0.045050
0.513307 0.039108 0.034919
0.514508 -0.018380 0.028718
0.585006 0.065656 0.054696
0.599057 0.021829 0.057609
0.583940 0.032785 0.020625
0.572097 0.015988 0.005508
0.583991 0.061936 0.067086
0.557195 0.045386 0.084873
0.560895 0.033692 0.012068
0.543560 -0.030574 0.063034
0.565167 0.030965 0.083699
0.582235 -0.057145 0.013393
0.581972 0.050087 0.030235
0.584109 0.045137 0.028669
0.572029 0.050622 0.080272
0.589996 -0.046064 0.035732
0.534416 0.048574 0.021096
0.564197 0.079637 0.041445
0.544764 0.017599 0.005196
0.592400 0.019679 0.020745
0.510582 0.005200 0.031962
0.541322 -0.055644 0.032771
0.575273 0.068769 0.040596
0.518422 -0.027331 0.020737
0.562064 -0.033447 0.065558
0.547901 0.025972 0.008253
0.590450 0.043074 0.067511
0.584846 0.032007 0.073890
0.516348 0.038430 0.061017
0.602358 -0.002975 0.043843
0.563956 0.076772 0.077211
0.543404 0.023692 0.081238
0.561529 -0.028422 -0.007734
0.601874 0.001687 0.028119
0.513415 0.097639 0.051801
0.516848 -0.009795 0.015725
0.593441 -0.034148 0.042794
0.597044 -0.024227 0.044328
0.533347 -0.021173 0.062677
0.571237 0.031982 0.013064
0.579810 0.068900 0.047335
0.555602 0.015482 0.082646
0.527653 0.055336 0.075823
0.549902 0.019661 0.082434
0.599742 -0.019190 0.040807
0.541051 -0.045664 0.047976
0.599364 0.035047 0.053378
0.559444 0.002287 0.080410
0.519112 0.016381 0.016918
0.554716 0.054735 0.022469
0.581015 0.057548 0.035388
0.582715 -0.012941 -0.000397
0.554389 0.098345 0.067238
0.526343 -0.013567 0.005254
0.600756 0.029970 0.049937
0.565099 0.089144 0.067838
0.541739 -0.057053 0.029752
0.514228 0.096984 0.058507
0.578521 0.040619 0.077846
0.532908 0.076569 0.031872
0.560765 -0.038182 0.061956
0.512547 0.057425 0.047266
0.590788 0.052939 0.044801
0.556946 -0.053299 0.047280
0.527877 -0.037522 0.041566
0.511188 0.020197 0.030610
0.512709 0.019235 0.051376
0.578556 0.049197 0.076490
0.601028 0.018073 0.051922
0.535026 -0.006173 0.000704
0.541565 -0.043042 0.051420
0.586910 -0.003576 0.005289
0.561489 0.091698 0.054652
0.560979 -0.033970 0.065165
0.532306 -0.019351 0.000893
0.590516 0.054034 0.045829
0.574052 0.032963 0.080746
0.521678 0.063612 0.032095
0.563607 -0.060898 0.038174
0.580205 0.062170 0.039063
0.525602 0.070292 0.075029
0.595337 0.044670 0.059269
0.601564 0.024672 0.046710
0.560946 -0.027674 -0.007735
0.531181 0.022990 0.011546
0.578338 -0.035294 -0.003600
0.527346 -0.043963 0.025310
0.596711 -0.024005 0.014193
0.571521 0.068018 0.036329
0.516760 0.042553 0.062323
0.512774 0.083130 0.045322
0.602047 0.013838 0.045808
0.570346 -0.065127 0.027432
0.533191 0.097102 0.038992
0.547483 0.008581 0.080041
0.518678 0.048703 0.030247
0.534474 -0.042328 0.045118
0.584411 -0.034283 -0.000233
0.533300 0.019823 0.009469
0.597065 -0.014250 0.014802
0.584394 0.065892 0.052571
0.564655 0.066205 0.080352
0.570093 0.056706 0.027224
0.529730 0.075796 0.032062
0.525462 -0.040479 0.019469
0.569324 0.054555 0.080920
0.529402 0.065016 0.077493
0.559703 -0.054170 0.000321
0.591237 -0.042496 0.010786
0.579471 0.073433 0.059024
0.600421 0.032259 0.049038
0.591945 -0.015592 0.059124
0.540166 0.102737 0.045662
0.520994 -0.032432 0.032992
0.596213 0.006981 0.061262
0.526545 0.088746 0.036278
0.598322 0.034623 0.040209
0.531562 -0.049443 0.022793
0.567131 0.044444 0.083181
0.520746 -0.029738 0.037483
0.565577 0.055562 0.082346
0.523951 0.001700 0.009014
0.545066 0.086546 0.078033
0.600226 0.029133 0.053552
0.585852 -0.019094 0.000520
0.537425 0.091476 0.037677
0.526707 0.106154 0.060204
0.539703 0.103567 0.067650
0.601155 -0.008721 0.025359
0.521560 -0.028091 0.013802
0.538536 -0.050856 0.008919
0.587139 -0.054121 0.020762
0.555039 -0.029976 0.067232
0.523697 -0.012311 0.057632
0.522383 -0.035403 0.030904
0.551941 0.043769 0.016363
0.523381 -0.027392 0.046332
0.537121 -0.018292 -0.001728
0.513277 -0.012732 0.027947
0.562669 0.016965 0.082632
0.544871 0.006620 0.078784
0.540244 0.020133 0.079423
0.564304 -0.063898 0.033087
0.572265 0.015461 0.005321
0.520240 -0.009689 0.054471
0.577916 0.024122 0.011853
0.512480 0.081653 0.046054
0.589369 -0.006053 0.006569
0.519125 0.040923 0.065552
0.570330 0.078864 0.047132
0.515580 -0.015400 0.019447
0.522579 -0.013659 0.055575
0.569170 0.038522 0.016012
0.517874 -0.019862 0.016049
0.559968 -0.064112 0.032057
0.555157 -0.059714 0.006598
0.564061 0.090792 0.059332
0.558727 -0.019219 0.073142
0.555641 -0.062225 0.033977
0.597747 0.023843 0.060108
0.590285 -0.025905 0.054782
0.515325 0.078143 0.040619
0.596564 -0.023989 0.013823
0.520638 0.100783 0.043003
0.513346 0.060936 0.057284
0.572038 0.082652 0.062666
0.516495 -0.008577 0.049082
0.597433 -0.030464 0.035130
0.519606 0.104741 0.054416
0.532669 -0.007577 0.068016
0.600239 0.024634 0.054504
0.540618 -0.034840 -0.001758
0.517136 0.076746 0.038335
0.583800 -0.006458 0.002081
0.593547 0.038950 0.035061
0.541442 0.103209 0.067819
0.568053 0.087114 0.061795
0.599125 -0.014497 0.047457
0.581369 0.013182 0.008490
0.587512 0.011565 0.071120
0.560422 -0.054808 0.000688
0.519754 0.080541 0.069724
0.572262 0.062072 0.077329
0.564268 0.062417 0.028929
0.525008 -0.039569 0.019082
0.530734 -0.017022 0.001923
0.576582 -0.005349 -0.001438
0.516594 0.034215 0.060768
0.523573 -0.036290 0.033506
0.517847 -0.015662 0.046819
0.586367 -0.050606 0.036006
0.564088 -0.006373 -0.004316
0.602453 0.006491 0.032710
0.575771 0.024146 0.010781
0.533964 0.042902 0.078937
0.602316 0.012071 0.043543
0.541335 0.077044 0.080672
0.549341 0.094658 0.073141
0.546097 0.045914 0.083786
0.520784 -0.017697 0.050527
0.522529 -0.020473 0.009488
0.532486 -0.020095 0.000794
0.576008 0.037280 0.079620
0.511984 0.036865 0.039008
0.588067 0.041769 0.030333
0.601718 0.015543 0.035887
0.562484 0.005490 -0.000206
0.578569 -0.052618 0.042493
0.526594 0.010755 0.009567
0.528342 0.099138 0.069826
0.522078 0.010248 0.012548
0.515435 0.098462 0.059542
0.559530 0.016627 0.004062
0.534522 -0.038929 0.049523
0.521402 0.011815 0.063099
0.588666 0.042403 0.069502
0.531903 0.101763 0.041501
0.582072 -0.036464 0.055452
0.525227 0.106229 0.058939
0.594530 -0.017419 0.054509
0.533409 0.107455 0.060070
0.587479 -0.010755 0.003545
0.583876 -0.023455 0.062768
0.537451 -0.017784 0.067125
0.516734 -0.011525 0.016089
0.559045 0.015390 0.082702
0.596889 -0.034887 0.027604
0.552214 0.089408 0.041928
0.512172 0.023693 0.050147
0.587571 -0.052873 0.017453
0.542966 -0.055996 0.034384
0.552484 0.053837 0.084486
0.542911 0.095817 0.073368
0.528050 -0.031541 0.049400
0.520711 0.071027 0.070833
0.599790 -0.022995 0.029729
0.539663 -0.055860 0.016636
0.599371 0.016341 0.056662
0.514791 0.018796 0.055584
0.517244 0.012195 0.017679
0.575366 -0.053426 0.043875
0.589252 0.045459 0.034594
0.555484 -0.065016 0.024336
0.552418 0.096218 0.071119
0.597720 0.034419 0.038536
0.521224 0.068660 0.071224
0.582505 0.069037 0.055175
0.521075 -0.006962 0.056814
0.568212 0.038661 0.083060
0.521027 0.030781 0.020463
0.527869 0.045911 0.022456
0.601682 0.020312 0.048152
0.519760 -0.031497 0.028495
0.598745 0.026203 0.058128
0.577157 0.059891 0.033753
0.540249 0.033425 0.081130
0.511939 -0.003469 0.027641
0.516927 -0.021662 0.038126
0.550739 -0.061814 0.030593
0.518073 0.089341 0.039835
0.514784 0.067301 0.062130
0.525195 0.006810 0.009330
0.514774 0.094563 0.061311
0.513755 -0.006825 0.043835
0.545552 0.101599 0.068581
0.530583 0.046135 0.021383
0.591516 0.020874 0.068034
0.549207 0.012927 0.002628
0.581182 -0.024644 -0.003010
0.520137 -0.021014 0.012681
0.600808 0.005360 0.051649
0.571596 0.082811 0.058436
0.558261 0.078837 0.037421
0.530853 -0.016143 0.063105
0.587413 0.038218 0.071291
0.547249 0.079878 0.080298
0.522494 -0.035008 0.032563
0.511289 0.030186 0.045012
0.521470 -0.009115 0.009864
0.537870 0.107294 0.060040
0.575825 0.062607 0.074648
0.564334 0.018523 0.005367
0.537705 0.095124 0.039290
0.564378 0.071181 0.079017
0.525162 -0.038784 0.033091
0.591058 0.001386 0.066407
0.530935 -0.016342 0.063083
0.516692 0.040239 0.061867
0.530734 0.035891 0.016989
0.515460 0.027878 0.057928
0.594582 -0.040854 0.019350
0.520529 -0.032103 0.021089
0.568677 0.075377 0.074902
0.514668 0.003067 0.019471
0.578522 0.073657 0.064306
0.518014 -0.026420 0.034122
0.549548 0.023708 0.007106
0.510418 0.018644 0.033403
0.580798 -0.038141 -0.001615
0.583400 -0.015735 -0.000565
0.572026 -0.015397 0.072778
0.543842 -0.004760 -0.002123
0.589565 0.044451 0.034162
0.536574 -0.048128 0.039549
0.595372 0.000429 0.061116
0.596702 -0.029366 0.039635
0.534922 -0.030361 0.058143
0.518186 0.057528 0.033848
0.595543 -0.036486 0.033746
0.597583 0.018824 0.060283
0.516525 0.000431 0.053558
0.534537 0.059636 0.080106
0.533972 -0.005902 0.069530
0.556164 0.007116 0.081325
0.549866 -0.057300 0.006919
0.559468 0.004102 0.080815
0.541327 -0.005300 -0.001515
0.562572 -0.006315 -0.004412
0.559455 -0.039923 -0.005793
0.549963 0.025162 0.007713
0.602728 0.008500 0.039823
0.539154 -0.048538 0.042234
0.529640 0.010490 0.070709
0.531728 -0.015045 0.001342
0.576447 -0.048768 0.000547
0.549250 0.089935 0.040822
0.601435 0.006348 0.028374
0.536396 -0.025558 0.062388
0.510032 0.014562 0.039392
0.545944 0.104352 0.057929
0.524977 0.028163 0.016690
0.565203 0.078287 0.075912
0.531216 0.020845 0.073969
0.591544 0.020846 0.020531
0.547015 0.029195 0.082949
0.573030 -0.035475 0.062030
0.601852 -0.008156 0.042997
0.549898 -0.009482 0.075685
0.599349 0.033558 0.054683
0.582562 -0.007694 0.070713
0.599499 -0.008962 0.020491
0.518849 0.020794 0.061901
0.600657 0.019580 0.034326
0.565968 0.085919 0.070821
0.570325 -0.065566 0.025008
0.530559 0.082651 0.076726
0.586937 -0.030758 0.001131
0.534247 -0.042775 0.044210
0.522019 -0.026543 0.044770
0.578077 0.061505 0.036031
0.516032 0.014083 0.056822
0.518981 -0.006240 0.054358
0.527322 0.092680 0.072510
0.511023 0.016142 0.045979
0.559528 -0.041435 -0.005361
0.550462 0.053162 0.084397
0.543240 0.105252 0.063571
0.554386 -0.050244 -0.001020
0.525228 -0.027780 0.008386
0.551031 0.070683 0.082397
0.531831 -0.041134 0.007427
0.517860 0.013596 0.059283
0.549183 0.089507 0.076202
0.602136 0.006789 0.046430
0.577422 0.052567 0.076507
0.586352 -0.018617 0.063336
0.547327 0.022972 0.007027
0.589767 -0.011147 0.005456
0.537579 0.105550 0.065080
0.527997 -0.007205 0.004528
0.568641 -0.041818 -0.004835
0.573712 0.047251 0.079915
0.566201 0.037701 0.014882
0.557210 0.039223 0.014433
0.533900 0.061172 0.079818
0.528275 -0.043837 0.030882
0.512082 0.038739 0.047562
0.518398 -0.016924 0.046895
0.590030 -0.050424 0.024464
0.563897 0.051101 0.022019
0.562093 -0.005026 -0.004028
0.579831 0.052734 0.030334
0.586887 0.045827 0.070515
0.510600 0.004778 0.038920
0.510160 0.010415 0.039175
0.566929 0.078948 0.074516
0.560714 0.032705 0.011566
0.516926 0.065335 0.065654
0.533359 0.056712 0.079471
0.513513 0.089605 0.044818
0.577731 0.074825 0.064272
0.582712 0.026732 0.016262
0.594995 0.037069 0.035761
0.579256 -0.053169 0.041261
0.572694 -0.058436 0.039050
0.590056 -0.010595 0.005877
0.522616 0.105454 0.047782
0.584233 0.043582 0.073284
0.602444 0.011896 0.039954
0.525299 0.029030 0.070372
0.580858 -0.042542 -0.000024
0.552096 0.096160 0.047793
0.535998 -0.048379 0.008911
0.547105 0.003806 0.078866
0.525172 -0.040816 0.024841
0.527462 -0.022237 0.004796
0.555797 0.054647 0.022590
0.555760 -0.060791 0.036674
0.558149 -0.065585 0.025904
0.557463 0.064346 0.028339
0.596824 0.020276 0.061524
0.545626 -0.042790 0.054078
0.556290 -0.042573 -0.004660
0.592678 -0.044943 0.018062
0.599025 0.013512 0.057172
0.592091 0.022688 0.022207
0.600747 0.012689 0.029788
0.580472 -0.015406 0.069071
0.598119 -0.029991 0.025137
0.563284 -0.060797 0.038331
0.596996 0.021787 0.027806
0.580928 -0.005311 0.072431
0.576731 0.026789 0.079208
0.574548 -0.049081 -0.000116
0.583631 0.043175 0.026877
0.558496 0.019078 0.005050
0.573958 -0.003125 -0.001628
0.546584 0.089571 0.076532
0.602670 0.007761 0.042035
0.581217 -0.023352 0.064758
0.596685 -0.026139 0.014651
0.545757 0.010307 0.079860
0.524706 -0.035797 0.037673
0.595997 0.019718 0.025037
0.546332 0.030752 0.010549
0.568326 0.066704 0.033333
0.541281 0.088168 0.037185
0.548946 0.049985 0.019454
0.523979 -0.030092 0.011062
0.525619 -0.038580 0.034868
0.572304 -0.040320 0.058667
0.545566 -0.060006 0.027287
0.529845 0.064074 0.028397
0.511079 0.005156 0.028757
0.552494 -0.027188 -0.006710
0.577544 -0.033038 0.061315
0.587409 -0.025622 0.058256
0.525631 0.104184 0.063297
0.534051 -0.047799 0.010763
0.510527 0.008937 0.031184
0.569302 -0.042567 0.057803
0.534179 -0.022104 0.062811
