ply
format ascii 1.0
element vertex 1024
property float x
property float y
property float z
end_header
0.564525 0.037976 0.084727
0.593098 -0.034787 0.051179
0.593943 -0.039666 0.049675
0.548612 0.095415 0.032641
0.544799 -0.035889 0.006880
0.594068 0.018177 0.046348
0.558798 0.090338 0.033179
0.505678 0.022341 0.039608
0.598354 -0.033816 0.025005
0.584794 0.012833 0.023707
0.512127 0.053014 0.020340
0.515037 0.089766 0.049473
0.531255 -0.033030 0.018845
0.529222 -0.005493 0.002984
0.520038 0.042503 0.009359
0.574964 0.014333 0.013913
0.595482 -0.002509 0.042858
0.541888 0.090991 0.025086
0.565743 0.074003 0.078605
0.542182 0.055300 0.007417
0.524008 -0.007604 0.006465
0.585547 -0.060020 0.013631
0.549707 0.100991 0.059057
0.569135 -0.044867 0.054837
0.603756 -0.051169 0.035480
0.563360 0.009222 0.078524
0.550480 0.074507 0.082612
0.525392 0.046402 0.080168
0.536265 -0.000535 0.071802
0.541957 0.069475 0.083616
0.577723 0.004637 0.014513
0.544431 0.040862 0.004485
0.543130 -0.043812 0.012678
0.551886 -0.053834 0.036302
0.513511 0.035471 0.068688
0.522036 -0.008985 0.054221
0.571669 0.003321 0.009909
0.540127 0.066438 0.010676
0.533564 0.063089 0.082972
0.551836 -0.041777 0.007288
0.520353 0.086206 0.029152
0.505412 0.052262 0.051832
0.531535 0.023479 0.079471
0.523645 0.079750 0.021518
0.544001 0.092988 0.027610
0.532227 0.057478 0.008685
0.537874 -0.031841 0.008089
0.526626 0.014241 0.073603
0.562168 0.090976 0.039005
0.602503 -0.047531 0.039066
0.603403 -0.045421 0.036409
0.514917 0.058924 0.019520
0.511110 0.014080 0.054638
0.572066 -0.002057 0.072744
0.521867 0.070358 0.018138
0.525906 -0.001843 0.064511
0.521893 0.079794 0.072378
0.573383 0.078817 0.067801
0.529870 0.040888 0.082251
0.581677 0.039906 0.075896
0.505669 0.025779 0.046480
0.518837 -0.014167 0.022511
0.537212 -0.026832 0.005959
0.574490 0.077769 0.041095
0.506775 0.064510 0.041224
0.552780 0.090787 0.028601
0.550922 0.100308 0.044825
0.531737 0.093332 0.028628
0.523623 0.089156 0.028818
0.504706 0.044812 0.035680
0.565616 -0.064459 0.020812
0.504624 0.041496 0.034916
0.519832 0.020591 0.006998
0.572022 0.027859 0.014293
0.562067 -0.046142 0.007431
0.550301 0.085627 0.078056
0.594289 -0.001264 0.052509
0.557916 -0.038251 0.057031
0.535131 0.099558 0.036702
0.509793 0.033179 0.019344
0.545942 -0.037568 0.052039
0.557348 0.046497 0.008815
0.552859 -0.035591 0.057228
0.545850 -0.032899 0.005428
0.595030 -0.042487 0.017091
0.553274 0.009207 0.001649
0.578313 -0.029773 0.009797
0.562852 0.087977 0.034898
0.526374 0.002805 0.003102
0.537207 -0.033248 0.048886
0.540526 -0.039169 0.011083
0.541316 0.064142 0.009956
0.521605 0.044085 0.077900
0.525009 0.026017 0.004363
0.552600 0.092909 0.071310
0.536265 -0.040892 0.030739
0.531848 0.071163 0.080760
0.518846 0.037127 0.009333
0.554047 0.085065 0.023507
0.563844 -0.016039 0.003800
0.537251 0.102362 0.061088
0.536807 0.021844 0.080897
0.578726 0.072838 0.064065
0.579426 0.040506 0.077795
0.593263 0.028361 0.051247
0.536311 0.065913 0.083322
0.504498 0.037780 0.035125
0.514178 0.018319 0.012798
0.579029 -0.021453 0.063517
0.545004 0.039235 0.086357
0.532568 0.050293 0.083654
0.511235 0.065321 0.028009
0.568519 0.073941 0.027433
0.516361 0.075427 0.068435
0.586099 0.028871 0.030565
0.562303 0.013974 0.005324
0.535241 0.084255 0.019499
0.590267 0.044401 0.051425
0.582560 0.062113 0.068013
0.543328 0.033401 0.085216
0.522973 0.035247 0.077876
0.577638 0.054577 0.077700
0.553352 -0.007944 0.072145
0.525854 0.022482 0.076182
0.515307 0.018574 0.065168
0.581556 -0.018186 0.063369
0.577407 0.027507 0.018909
0.534940 -0.023369 0.005553
0.541398 0.048836 0.086414
0.582336 -0.010769 0.065126
0.557684 0.097866 0.053005
0.590770 0.032314 0.064027
0.554616 -0.014429 0.069374
0.550475 0.004998 0.000854
0.522551 0.046112 0.078509
0.532260 0.071491 0.013371
0.557523 0.077850 0.020350
0.562471 -0.018742 0.067688
0.520928 0.057288 0.076807
0.556310 -0.004145 0.001570
0.552701 0.092931 0.031411
0.541668 0.097235 0.069151
0.514086 0.029252 0.013370
0.585612 -0.003377 0.020557
0.566910 0.084947 0.036689
0.588157 -0.027646 0.016486
0.563974 -0.063806 0.023917
0.538562 -0.027864 0.005818
0.596144 -0.059609 0.018188
0.545673 0.039969 0.004485
0.533857 0.098621 0.066902
0.517779 0.089071 0.061759
0.533499 0.101260 0.062427
0.576104 0.079430 0.057483
0.547113 0.086370 0.077896
0.509223 0.009483 0.040018
0.567810 0.023260 0.010111
0.587103 -0.067397 0.023404
0.534346 0.009368 0.075594
0.579862 -0.040384 0.056203
0.585604 0.032618 0.072182
0.539578 0.033585 0.084513
0.527904 0.076995 0.077355
0.581645 0.069625 0.058047
0.553002 -0.056190 0.031861
0.558987 0.011143 0.003525
0.530685 0.025313 0.079652
0.517046 0.077210 0.026305
0.539898 -0.045172 0.029750
0.569828 0.061320 0.081043
0.581422 0.061055 0.070985
0.506257 0.061675 0.049535
0.595846 -0.026346 0.025360
0.549906 0.076429 0.016263
0.534252 0.075641 0.080425
0.566451 0.035021 0.083983
0.540533 -0.025097 0.058893
0.544945 0.081452 0.080270
0.560369 -0.009636 0.071549
0.515890 0.087788 0.059065
0.559096 -0.029415 0.003580
0.556841 0.049529 0.086333
0.532799 0.072016 0.080905
0.517699 0.050460 0.013301
0.576187 -0.025165 0.009181
0.575369 0.001473 0.072887
0.577580 -0.051633 0.009087
0.531439 0.076174 0.015599
0.578653 0.015765 0.075841
0.599825 -0.043760 0.021342
0.515356 0.071316 0.068958
0.543955 0.001371 0.000273
0.532956 0.037737 0.003727
0.562639 -0.003923 0.073710
0.582505 0.068218 0.053886
0.570427 0.075120 0.074682
0.572715 0.032479 0.081556
0.528950 -0.028764 0.016315
0.571187 0.038913 0.016253
0.563632 0.008983 0.005461
0.560280 0.054647 0.012495
0.553885 0.086533 0.024725
0.505900 0.042868 0.055222
0.560861 0.075246 0.021046
0.509577 0.021400 0.056712
0.548640 0.100311 0.061837
0.538009 -0.039572 0.041128
0.505856 0.022995 0.033280
0.519834 -0.016804 0.033522
0.523407 0.051540 0.078845
0.519496 0.027207 0.072998
0.589220 0.049153 0.054134
0.566241 -0.064744 0.020910
0.571331 0.070308 0.028354
0.534549 0.090187 0.074429
0.515133 0.085057 0.035857
0.534904 -0.039165 0.031570
0.518528 0.001806 0.058430
0.596571 -0.016988 0.044929
0.588289 0.020787 0.031601
0.571276 0.074446 0.031421
0.604392 -0.049798 0.031014
0.561372 0.087411 0.032104
0.556463 0.027368 0.084324
0.571385 -0.064117 0.036235
0.586618 -0.067548 0.023622
0.554429 0.064256 0.012646
0.589608 0.044276 0.061941
0.568876 0.003070 0.008005
0.505135 0.049422 0.051334
0.592111 -0.013226 0.055059
0.513181 0.040571 0.069461
0.534956 -0.016769 0.061338
0.577403 0.071050 0.038813
0.514397 0.004026 0.052442
0.516373 -0.006381 0.017921
0.512051 0.069262 0.028817
0.566198 0.042303 0.013210
0.528225 0.019608 0.002645
0.599278 -0.029155 0.041422
0.535566 0.017117 0.001295
0.568051 0.005929 0.007789
0.521849 0.034446 0.006964
0.518553 0.008101 0.063331
0.521159 0.050596 0.010845
0.574729 -0.053565 0.049535
0.546465 0.101558 0.060544
0.566944 -0.006723 0.072130
0.576854 0.061524 0.030378
0.583519 0.051219 0.035502
0.580671 -0.064215 0.016059
0.585099 -0.001948 0.020321
0.596681 -0.013500 0.040954
0.590627 0.038179 0.045528
0.554609 0.098890 0.058444
0.510611 0.008163 0.045801
0.508738 0.070899 0.054538
0.509777 0.054263 0.065138
0.509584 0.076329 0.051132
0.579024 0.073929 0.060517
0.586089 -0.056519 0.046708
0.592798 0.023129 0.060097
0.517547 0.037436 0.073826
0.551316 -0.020727 0.001927
0.518754 0.000947 0.058040
0.560527 0.061649 0.084155
0.526076 0.010487 0.071618
0.505931 0.022269 0.043319
0.508832 0.010027 0.035133
0.573180 -0.061287 0.013668
0.593491 0.020521 0.044724
0.557397 -0.060126 0.025920
0.508852 0.019419 0.022696
0.540886 0.102224 0.042521
0.550336 -0.006020 0.072732
0.520616 0.037744 0.076600
0.590928 -0.031528 0.053597
0.536165 0.018289 0.079572
0.593016 0.019830 0.042374
0.514200 0.000317 0.017723
0.529233 -0.030233 0.018831
0.566765 -0.059189 0.012989
0.545637 0.071297 0.083447
0.575615 0.072031 0.036265
0.578790 0.046050 0.077948
0.539014 -0.026273 0.005014
0.575639 0.078175 0.045236
0.550239 -0.028180 0.061248
0.585815 0.051358 0.068192
0.565078 0.092189 0.056093
0.594047 -0.056765 0.044009
0.519672 0.094751 0.057067
0.518373 0.073757 0.022912
0.565500 -0.052744 0.009593
0.545206 -0.001312 0.000283
0.557938 0.070586 0.016804
0.546223 0.067299 0.011526
0.508153 0.012681 0.039632
0.583739 -0.012423 0.016331
0.506908 0.062502 0.053415
0.537564 0.028301 0.082877
0.522678 -0.017715 0.014502
0.589745 0.044228 0.061406
0.509068 0.066582 0.059187
0.556546 0.094072 0.067337
0.583301 0.055436 0.070951
0.591497 0.024964 0.040134
0.594452 0.008923 0.042677
0.510183 0.047975 0.066075
0.529321 -0.000465 0.002283
0.584632 -0.024866 0.014377
0.566475 -0.000013 0.006186
0.508818 0.044384 0.022542
0.521805 -0.009816 0.053062
0.593199 0.021428 0.043973
0.560039 -0.039929 0.056466
0.539368 0.078834 0.080619
0.512660 0.084916 0.051482
0.590090 -0.020929 0.056298
0.524997 -0.020722 0.046254
0.560779 -0.039131 0.057142
0.544821 0.099299 0.065684
0.527512 0.101327 0.047650
0.527627 0.068400 0.013872
0.547378 0.060009 0.085798
0.530558 -0.024415 0.050865
0.588149 0.041038 0.039882
0.589621 -0.022099 0.019462
0.555601 0.093621 0.068765
0.579253 -0.045926 0.008832
0.559341 0.096749 0.052953
0.507262 0.015497 0.037870
0.539960 0.006241 0.000452
0.543029 -0.035353 0.007306
0.546143 -0.035448 0.054070
0.582511 0.033127 0.026474
0.507428 0.025991 0.053953
0.532983 0.100022 0.064546
0.564752 0.028347 0.083439
0.508208 0.023025 0.023458
0.509806 0.058552 0.026880
0.511114 0.028405 0.017334
0.531163 0.057336 0.082650
0.512170 0.063162 0.067354
0.565111 0.079774 0.028185
0.567925 -0.065598 0.023715
0.580959 0.038015 0.076621
0.587971 -0.065204 0.018971
0.521755 -0.019620 0.037033
0.592602 -0.009383 0.054880
0.557442 -0.026497 0.063798
0.505989 0.029220 0.028699
0.590199 0.042372 0.061014
0.506414 0.020032 0.033004
0.510639 0.073388 0.059031
0.592359 0.016916 0.061348
0.532386 0.100365 0.063651
0.525090 0.048753 0.008247
0.592217 0.028966 0.060724
0.542774 0.102847 0.059196
0.539780 0.051724 0.006433
0.505738 0.059014 0.042145
0.519808 0.022571 0.071735
0.591874 -0.064950 0.036824
0.550559 -0.029637 0.003706
0.516527 0.065950 0.071946
0.581031 0.005429 0.071327
0.599686 -0.035465 0.042702
0.521031 -0.007127 0.054350
0.583076 -0.032673 0.011994
0.507152 0.063496 0.053876
0.566439 -0.034968 0.060083
0.540980 0.023992 0.001825
0.563589 0.028177 0.083631
0.568603 0.029228 0.082637
0.562000 0.092459 0.064230
0.566640 -0.037396 0.005605
0.595268 -0.020935 0.049170
0.561869 0.009191 0.004578
0.535439 0.065574 0.010676
0.546711 0.036511 0.004039
0.549479 0.076453 0.016148
0.594839 -0.004333 0.050106
0.536381 -0.039313 0.017616
0.568861 -0.040062 0.006272
0.542593 0.074561 0.082381
0.594729 -0.061162 0.018338
0.522549 0.057740 0.012546
0.519134 0.011230 0.065967
0.596740 -0.058081 0.041588
0.544049 -0.044794 0.041731
0.598065 -0.034887 0.045416
0.588225 0.015405 0.067783
0.574030 0.074938 0.036403
0.511566 0.047077 0.068220
0.548508 0.050964 0.086885
0.584221 0.011146 0.070763
0.526589 0.076343 0.017807
0.557087 0.058135 0.011820
0.523407 0.011971 0.004165
0.536319 0.065552 0.010556
0.505020 0.038976 0.032093
0.555396 0.057310 0.010845
0.527714 0.049146 0.007396
0.549019 0.100584 0.060881
0.550441 0.091459 0.028105
0.582793 -0.040152 0.010658
0.529180 -0.016482 0.056717
0.594584 -0.040399 0.017563
0.543439 0.018740 0.081462
0.557181 -0.032121 0.060653
0.580081 -0.040769 0.009421
0.522623 0.097307 0.058299
0.589577 -0.006110 0.059891
0.557798 0.031958 0.006037
0.592884 -0.004702 0.055230
0.520533 0.055422 0.076713
0.533042 -0.003528 0.068582
0.576677 -0.063680 0.039623
0.600544 -0.041155 0.042134
0.557616 0.017982 0.003835
0.594693 -0.050846 0.046418
0.585246 0.003744 0.021937
0.580495 0.055161 0.032335
0.517227 0.020535 0.009347
0.536386 0.070155 0.082451
0.523855 -0.021922 0.040819
0.567264 0.006698 0.007371
0.578683 0.072329 0.043780
0.557611 -0.001931 0.074758
0.558386 0.051692 0.010614
0.515575 0.040453 0.012609
0.551411 -0.043425 0.050098
0.600717 -0.048524 0.041758
0.570822 -0.065017 0.033388
0.505441 0.040206 0.030437
0.511518 0.044075 0.018051
0.537158 -0.019385 0.060946
0.533900 0.054127 0.084058
0.507688 0.061483 0.057576
0.531730 0.012839 0.075843
0.553543 -0.047075 0.047813
0.542762 -0.040034 0.046774
0.584815 -0.068041 0.024666
0.599797 -0.036525 0.042718
0.580698 -0.055675 0.010611
0.507580 0.014277 0.036487
0.569946 -0.036983 0.059068
0.583559 -0.061576 0.042875
0.569482 0.087438 0.049018
0.592006 0.035519 0.057455
0.538597 0.099789 0.036892
0.569297 0.071331 0.026597
0.529088 0.005471 0.001988
0.533899 0.074951 0.080511
0.560674 0.081439 0.025141
0.569651 -0.001077 0.073737
0.540708 0.057286 0.007885
0.544733 -0.015943 0.066710
0.549510 -0.017640 0.001462
0.573939 0.066087 0.076738
0.593323 -0.019082 0.025264
0.513200 0.027878 0.014434
0.541610 0.032153 0.084666
0.525543 -0.025471 0.038023
0.512859 0.042209 0.069361
0.525537 0.073637 0.076996
0.516010 0.072798 0.069149
0.514468 0.002782 0.051198
0.533217 -0.005299 0.067644
0.516858 0.089104 0.059803
0.526010 -0.011365 0.057465
0.584065 0.016291 0.023640
0.595544 -0.004237 0.045801
0.521553 0.056980 0.012881
0.552902 0.064094 0.012045
0.548172 0.007699 0.000765
0.580306 0.027706 0.076826
0.583906 0.010688 0.021978
0.540266 0.089210 0.023229
0.594346 0.014588 0.045621
0.573673 -0.031201 0.007415
0.587381 0.017123 0.069091
0.542252 0.047671 0.086564
0.544104 -0.035540 0.006974
0.531739 0.075545 0.079562
0.512988 0.082966 0.038478
0.533526 -0.022581 0.005926
0.543458 0.096719 0.032625
0.527086 0.005877 0.002637
0.504993 0.046202 0.034528
0.566762 0.089945 0.060571
0.581064 -0.011912 0.065561
0.528708 0.091269 0.071460
0.504741 0.047415 0.036906
0.523798 0.050429 0.079134
0.560520 0.042474 0.009398
0.511330 0.002856 0.030232
0.551477 0.101083 0.049103
0.529521 0.080861 0.018833
0.548369 0.005396 0.000649
0.536349 0.063472 0.083789
0.539472 -0.010541 0.001161
0.565880 -0.051332 0.049714
0.594950 -0.000894 0.049948
0.516035 0.006795 0.011016
0.579845 0.030663 0.077386
0.523498 -0.006489 0.006530
0.545541 0.028083 0.084349
0.540894 0.055077 0.007299
0.595307 -0.005465 0.047925
0.507867 0.023387 0.024308
0.580939 -0.009267 0.014643
0.544486 0.014940 0.001084
0.522271 -0.018386 0.042916
0.518211 0.046642 0.011694
0.594992 -0.022041 0.026359
0.599513 -0.061389 0.024449
0.566683 0.009386 0.078111
0.597578 -0.023409 0.044117
0.505984 0.061166 0.045886
0.522281 0.033971 0.077118
0.520899 0.093150 0.037381
0.538622 0.103000 0.059489
0.566687 -0.061246 0.038350
0.514731 0.010520 0.059258
0.541818 0.079507 0.016356
0.556325 -0.050090 0.046446
0.512384 0.006545 0.018389
0.545013 0.103315 0.055637
0.579213 -0.005435 0.014009
0.588460 -0.041775 0.052625
0.515682 0.088183 0.058000
0.585422 -0.030961 0.057454
0.527944 0.004409 0.002400
0.523993 0.038059 0.006295
0.506299 0.052337 0.056031
0.514953 0.013267 0.011724
0.508340 0.037972 0.060870
0.577607 -0.047147 0.053445
0.574698 0.064241 0.028969
0.518309 0.003140 0.008924
0.591173 -0.037194 0.052272
0.550747 0.005570 0.000926
0.531232 0.085959 0.075502
0.524354 0.062426 0.078429
0.577778 0.076542 0.058924
0.575157 0.075362 0.039192
0.592879 0.003693 0.034996
0.508291 0.026619 0.022607
0.537959 0.102969 0.059503
0.545610 -0.019335 0.065060
0.565677 0.074257 0.024583
0.559500 0.089788 0.071236
0.558495 0.058601 0.012673
0.536367 0.014469 0.001055
0.574877 -0.030486 0.061399
0.545746 0.077227 0.081803
0.594957 0.008849 0.048454
0.581928 0.031418 0.075794
0.573139 -0.031629 0.061229
0.520297 0.022233 0.072041
0.584544 0.019107 0.025087
0.514363 0.001628 0.016185
0.527886 0.086321 0.023414
0.521152 0.012039 0.068454
0.513241 0.008635 0.054564
0.554022 0.099869 0.055129
0.541070 0.082367 0.079565
0.549061 -0.052837 0.016639
0.553378 0.093398 0.032624
0.574247 -0.043873 0.007580
0.593740 0.000451 0.054461
0.578341 0.051113 0.077720
0.537604 -0.024726 0.004947
0.511630 0.010993 0.018221
0.548379 0.021300 0.002106
0.560815 0.042308 0.009517
0.529746 -0.028792 0.014439
0.533537 -0.028186 0.050406
0.570734 0.022913 0.012243
0.532555 0.044826 0.083588
0.523806 -0.014867 0.051322
0.525444 0.098771 0.042289
0.549555 0.001504 0.000573
0.547352 0.006669 0.000629
0.527050 -0.028274 0.035354
0.509868 0.077919 0.044449
0.589508 0.002789 0.027949
0.565275 -0.030915 0.004652
0.581606 0.038225 0.026863
0.537932 0.032864 0.002798
0.586762 0.029568 0.070876
0.544383 0.082193 0.079948
0.554196 -0.020353 0.001971
0.577408 0.063366 0.074867
0.516529 0.047741 0.074012
0.580124 0.029985 0.022480
0.518762 -0.012907 0.019406
0.515549 -0.008061 0.032085
0.575652 -0.013412 0.067554
0.509586 0.039417 0.020102
0.543111 -0.048805 0.026476
0.538972 -0.009869 0.067984
0.562434 0.084982 0.030386
0.520843 0.044435 0.009271
0.602108 -0.056957 0.035883
0.587129 0.051683 0.064665
0.506883 0.064553 0.040432
0.506462 0.055957 0.034131
0.543258 0.036238 0.085712
0.561993 0.024862 0.006705
0.546863 -0.023780 0.002694
0.526558 -0.002635 0.064556
0.563831 -0.034391 0.060274
0.532200 -0.006548 0.066246
0.508185 0.054116 0.027911
0.538637 0.065408 0.083966
0.518131 0.002603 0.009273
0.520888 0.009835 0.067046
0.593052 0.029838 0.051268
0.575717 -0.000843 0.012182
0.549536 -0.007614 0.000557
0.547374 0.070452 0.012939
0.562962 -0.061848 0.016873
0.585228 0.061705 0.054180
0.517560 0.008851 0.008826
0.551812 -0.053507 0.014459
0.545439 0.085096 0.078632
0.597285 -0.060122 0.039458
0.520559 -0.018022 0.034432
0.593038 -0.026364 0.021639
0.518140 0.053510 0.075110
0.592710 -0.021591 0.053185
0.535250 -0.008110 0.001565
0.524948 0.073758 0.076594
0.554744 0.060951 0.085242
0.591882 0.018128 0.062508
0.578016 0.007346 0.073730
0.524065 -0.024269 0.029523
0.512398 0.017491 0.015477
0.583917 0.059162 0.042239
0.537027 0.061373 0.084317
0.543853 0.060030 0.008863
0.563177 -0.048536 0.008170
0.517397 0.048274 0.074766
0.581624 0.069543 0.050489
0.535181 -0.009616 0.001806
0.519678 -0.013877 0.042741
0.597051 -0.017099 0.035500
0.523098 0.085836 0.070616
0.549396 -0.013558 0.000966
0.570558 -0.046398 0.054021
0.520614 -0.009030 0.010694
0.517220 0.015095 0.008996
0.563101 0.084308 0.030417
0.589496 0.028765 0.036971
0.545422 0.090077 0.024776
0.562832 0.075348 0.079467
0.524834 0.072766 0.017154
0.559272 -0.017732 0.002423
0.575874 -0.017479 0.066041
0.601861 -0.041496 0.039599
0.513970 0.024520 0.013359
0.523240 0.096089 0.062041
0.595077 -0.047153 0.015637
0.531899 0.003608 0.071824
0.595635 -0.004181 0.043612
0.546241 0.063586 0.085147
0.539260 0.088001 0.022135
0.588178 0.032758 0.035894
0.527303 0.064480 0.012582
0.539402 -0.023784 0.004038
0.537365 -0.041860 0.032859
0.562190 -0.003488 0.003641
0.595016 -0.026181 0.024246
0.568823 0.075595 0.075744
0.529897 -0.032148 0.035645
0.564615 -0.043065 0.055406
0.550784 0.101298 0.048530
0.525035 0.089229 0.027757
0.541546 -0.034129 0.007376
0.519071 0.007451 0.007442
0.504082 0.039985 0.041793
0.587739 -0.054782 0.012049
0.566555 0.060891 0.082544
0.506823 0.020770 0.029320
0.598938 -0.039499 0.022555
0.526654 0.010279 0.002704
0.559503 0.081707 0.077847
0.526948 -0.025391 0.043247
0.564901 0.056123 0.083965
0.532116 -0.034181 0.038479
0.589575 0.046834 0.050589
0.559605 -0.059298 0.034898
0.515518 0.007436 0.011633
0.542567 0.075304 0.014311
0.590967 -0.041353 0.014757
0.590002 -0.067240 0.027667
0.575167 -0.067933 0.024432
0.519724 0.054432 0.013180
0.579015 0.068243 0.069198
0.562243 0.091451 0.065987
0.518383 0.092661 0.041735
0.521790 0.043199 0.077998
0.556185 0.030800 0.085058
0.565843 0.064651 0.081856
0.577938 0.011279 0.015838
0.558406 0.049488 0.086095
0.579991 0.070676 0.045272
0.581499 0.046796 0.075397
0.521842 -0.003081 0.059106
0.533949 0.005641 0.073800
0.541254 -0.006272 0.070777
0.524683 0.091238 0.068704
0.560637 0.042862 0.009551
0.561452 0.030070 0.084321
0.555316 0.032695 0.005318
0.601169 -0.040734 0.040919
0.540493 0.061598 0.009131
0.571683 -0.017716 0.067071
0.557114 -0.032836 0.004144
0.584053 0.054029 0.070314
0.557812 0.032945 0.085286
0.563820 0.017623 0.006623
0.582988 0.059845 0.068992
0.528419 0.091530 0.071124
0.548606 0.101798 0.057794
0.558194 -0.050162 0.009538
0.518950 0.031458 0.073721
0.531048 0.088435 0.074204
0.511734 0.007793 0.019548
0.504633 0.050696 0.045390
0.601222 -0.034485 0.037616
0.525169 0.072945 0.017035
0.603068 -0.053782 0.024549
0.587233 -0.030038 0.056648
0.547751 -0.044528 0.009995
0.567787 0.031802 0.083238
0.509709 0.066298 0.031645
0.598243 -0.063579 0.029816
0.544869 0.022026 0.082671
0.513511 0.010580 0.014322
0.572190 0.084606 0.050853
0.600816 -0.031857 0.035778
0.547148 0.063865 0.010508
0.534622 0.009134 0.000906
0.573674 -0.067548 0.023536
0.552618 -0.048115 0.010028
0.506143 0.046454 0.029844
0.551323 0.043916 0.006348
0.508765 0.010515 0.038536
0.549833 0.101690 0.048563
0.581286 -0.052414 0.050009
0.532273 -0.035952 0.028036
0.567261 -0.009749 0.005767
0.569677 0.075020 0.075391
0.582900 0.066887 0.051009
0.554914 0.064169 0.012811
0.574283 -0.009797 0.069270
0.563128 0.064034 0.082960
0.565902 0.039022 0.084448
0.510930 0.081090 0.049212
0.565498 0.065289 0.020033
0.519189 0.037974 0.009182
0.557543 0.033050 0.006134
0.553382 -0.025300 0.063781
0.514568 0.027273 0.012742
0.557752 -0.053417 0.043451
0.561967 -0.062710 0.025369
0.542513 -0.029198 0.056965
0.560876 0.038908 0.085562
0.583304 0.064552 0.062447
0.581314 0.070227 0.050669
0.520284 -0.016562 0.038722
0.591552 -0.000167 0.058742
0.542377 0.008909 0.000540
0.520697 0.028695 0.007133
0.567977 0.053089 0.017747
0.512138 0.078232 0.059077
0.590173 0.039399 0.044790
0.580809 -0.066762 0.035396
0.591545 0.037643 0.049746
0.596245 -0.061788 0.038527
0.571123 0.041249 0.016802
0.544645 0.058322 0.085982
0.562248 0.007728 0.078121
0.518667 -0.013675 0.022051
0.595997 -0.052522 0.015687
0.506921 0.058072 0.056334
0.591873 -0.066746 0.027904
0.504368 0.044365 0.038322
0.585570 -0.067508 0.022481
0.542203 0.066949 0.010937
0.505336 0.043490 0.053034
0.538650 0.031394 0.083862
0.586447 0.052880 0.065778
0.523964 -0.002222 0.062327
0.513216 0.074109 0.029862
0.576893 -0.040472 0.008260
0.580560 0.004336 0.071254
0.520444 0.093556 0.038971
0.542096 0.081746 0.079931
0.539911 -0.035388 0.049285
0.566925 -0.064479 0.029246
0.551819 0.051651 0.086700
0.576900 -0.045155 0.054562
0.513582 0.063493 0.023420
0.555203 0.091307 0.072010
0.510226 0.016052 0.020106
0.573825 0.005552 0.074934
0.592641 0.032632 0.054959
0.513407 0.077768 0.062393
0.540123 0.003611 0.000393
0.536055 0.096149 0.070180
0.561411 -0.062513 0.021414
0.528035 0.011326 0.002257
0.575538 -0.043384 0.055577
0.540227 -0.028031 0.005271
0.560299 0.026605 0.083783
0.524391 -0.020475 0.045229
0.594087 0.016261 0.045088
0.592662 0.003495 0.034380
0.514886 0.017860 0.011826
0.570454 0.062534 0.080371
0.512935 0.007088 0.016625
0.554094 -0.009022 0.001088
0.544442 -0.018110 0.065365
0.585604 0.039247 0.071676
0.569884 0.048742 0.083012
0.536810 0.089483 0.075369
0.603222 -0.042907 0.029959
0.585291 -0.037827 0.055381
0.590092 0.042610 0.047484
0.594435 -0.059668 0.041844
0.573501 0.033038 0.081255
0.569686 -0.066220 0.021989
0.591381 0.004209 0.031847
0.510624 0.005073 0.029640
0.578397 0.043976 0.024674
0.546355 0.081337 0.018097
0.582977 0.062934 0.066119
0.508691 0.028022 0.021569
0.550662 -0.042316 0.007815
0.571796 -0.028627 0.006728
0.546430 0.031613 0.085211
0.517188 -0.011397 0.025913
0.554528 -0.054888 0.037921
0.564893 0.063402 0.082533
0.586346 0.001830 0.065817
0.587460 0.054935 0.057920
0.582256 -0.066879 0.019555
0.531430 -0.034492 0.023873
0.567411 0.039478 0.013417
0.590952 -0.045218 0.013734
0.539946 -0.045206 0.029900
0.561417 0.066480 0.082858
0.505754 0.021886 0.038374
0.546319 0.031797 0.085239
0.575463 -0.015335 0.066937
0.590654 0.015089 0.034168
0.574809 -0.003130 0.071459
0.517965 0.083407 0.029587
0.574134 0.067297 0.075946
0.540583 -0.045852 0.022675
0.590566 0.038809 0.062078
0.539149 -0.037398 0.010900
0.569975 0.055014 0.082296
0.578882 0.032663 0.021813
0.590283 0.017737 0.065352
0.541521 0.091549 0.025621
0.546085 0.072907 0.013725
0.510604 0.029968 0.062779
0.579578 0.060551 0.034056
0.539832 0.004713 0.000421
0.546196 0.071703 0.083364
0.505450 0.026122 0.032943
0.507895 0.062776 0.034163
0.541903 0.046485 0.086494
0.596638 -0.013488 0.041750
0.510018 0.071803 0.035015
0.510158 0.011782 0.022166
0.567940 0.021906 0.081435
0.557568 -0.039588 0.056032
0.543535 0.019941 0.081854
0.524283 0.005015 0.067443
0.553069 0.099072 0.060358
0.521204 0.008124 0.066389
0.580891 0.060379 0.036343
0.566688 0.065133 0.020966
0.559148 0.093071 0.038393
0.578675 0.031175 0.021183
0.515362 0.032341 0.012069
0.542560 0.070799 0.083357
0.551212 0.005399 0.077558
0.583144 0.065704 0.049065
0.540053 0.098553 0.034859
0.579902 -0.040596 0.009364
0.522490 0.040431 0.007473
0.539799 0.040316 0.085610
0.585683 0.017651 0.070967
0.576654 -0.062411 0.014364
0.592614 0.020960 0.041560
0.543454 -0.049176 0.024177
0.551383 -0.004744 0.073385
0.539059 0.031937 0.002690
0.537037 -0.014949 0.063897
0.509938 0.052574 0.065643
0.508821 0.044079 0.022447
0.527004 0.021106 0.076402
0.516889 0.003083 0.010738
0.506540 0.025966 0.050859
0.523781 0.057201 0.011643
0.567690 0.000785 0.074842
0.523692 0.026160 0.005022
0.548362 -0.052462 0.017116
0.524569 0.097816 0.060890
0.569817 -0.056934 0.045736
0.537705 0.084618 0.019527
0.546811 0.064441 0.084998
0.560612 0.049529 0.085713
0.552565 -0.011530 0.000990
0.570676 0.008841 0.077066
0.563539 0.027176 0.083445
0.577904 -0.063105 0.040700
0.581508 0.012744 0.073282
0.558357 0.094071 0.039315
0.541238 -0.035003 0.050912
0.575546 -0.066626 0.018942
0.556741 0.098272 0.049445
0.579663 0.071443 0.063522
0.547574 -0.048145 0.040991
0.571149 0.083620 0.064964
0.567702 0.008046 0.077472
0.558615 -0.060243 0.029683
0.511296 0.029944 0.017034
0.525958 -0.027157 0.028675
0.504710 0.039478 0.049379
0.580328 0.033071 0.023609
0.539252 0.066436 0.010678
0.578897 -0.068332 0.023445
0.586465 0.057089 0.049608
0.551221 0.095068 0.033697
0.524958 -0.025133 0.035642
0.566419 0.018614 0.008364
0.573780 0.016656 0.013397
0.558696 -0.040750 0.055558
0.558851 0.072197 0.081945
0.586948 -0.006522 0.062629
0.565052 0.040071 0.084729
0.515212 0.087856 0.040127
0.568086 0.003372 0.007525
0.567220 0.063809 0.020886
0.551908 -0.000948 0.000792
0.520454 -0.017239 0.022174
0.582445 0.025983 0.075013
0.584404 0.021181 0.072747
0.543231 -0.048742 0.021913
0.570855 0.023984 0.012553
0.580981 -0.037980 0.056889
0.557886 -0.036964 0.057864
0.603673 -0.046429 0.035711
0.540121 -0.038420 0.010849
0.549976 0.028584 0.003356
0.532542 0.010433 0.001235
0.512196 0.079452 0.058183
0.516674 0.084304 0.063849
0.538963 0.065777 0.010458
0.600232 -0.060090 0.023695
0.520033 -0.017253 0.026599
0.516569 0.029459 0.010704
0.560484 -0.010044 0.071378
0.539128 0.094257 0.028594
0.575607 -0.049321 0.008427
0.564898 0.089156 0.066492
0.531366 0.008137 0.073701
0.565709 0.072805 0.079147
0.581930 0.069177 0.057330
0.574822 -0.000724 0.011570
0.529799 0.085751 0.074966
0.532976 0.096015 0.069558
0.573229 -0.011726 0.009063
0.510433 0.009812 0.022681
0.532529 0.060102 0.082986
0.559956 0.094258 0.042425
0.518840 0.087275 0.032093
0.509278 0.018040 0.021985
0.538237 0.029542 0.002390
0.524160 0.034371 0.005693
0.506614 0.032978 0.055026
0.515343 0.071631 0.025290
0.523273 0.085629 0.070873
0.530991 0.027645 0.002715
0.507467 0.022871 0.051784
0.516672 -0.007670 0.043038
0.541747 0.098979 0.035904
0.548155 0.009234 0.000874
0.572068 0.038575 0.016879
0.557662 0.062175 0.013393
0.560348 -0.060761 0.031579
0.513845 0.031689 0.013717
0.506131 0.041996 0.055894
0.523902 0.074249 0.018455
0.533823 0.002113 0.072048
0.559955 0.061399 0.084329
0.532727 0.030794 0.002806
0.581417 0.024609 0.022540
0.562999 -0.015308 0.003492
0.587379 -0.037953 0.013483
0.580259 0.004125 0.016614
0.578244 0.071689 0.066984
0.560082 0.065358 0.083462
0.510951 0.058359 0.066546
0.543166 0.089316 0.076089
0.593410 -0.014508 0.027713
0.588303 0.031468 0.068746
0.568854 0.082422 0.036423
0.507822 0.051469 0.061046
0.504756 0.048192 0.049150
0.588316 -0.067493 0.031086
0.565404 0.087426 0.068568
0.588453 0.026944 0.068678
0.512963 0.060362 0.069143
0.542271 0.037013 0.085678
