ply
format ascii 1.0
element vertex 1024
property float x
property float y
property float z
end_header
0.488288 0.146242 0.011490
0.510762 0.064217 0.009686
0.513012 0.059612 0.008971
0.479158 0.177344 0.083702
0.558767 0.074141 0.053200
0.481835 0.100386 0.035849
0.473514 0.168041 0.080325
0.553019 0.151293 0.050573
0.510611 0.051978 0.033431
0.496389 0.093183 0.054915
0.534397 0.162621 0.080214
0.506690 0.198786 0.068713
0.566135 0.088497 0.044576
0.555555 0.103677 0.070491
0.535647 0.146282 0.085227
0.505354 0.096162 0.065188
0.492628 0.083193 0.030370
0.488427 0.175090 0.089258
0.468662 0.169449 0.031817
0.510884 0.142224 0.090543
0.560353 0.106438 0.066868
0.537460 0.035887 0.033939
0.470489 0.190817 0.061944
0.535217 0.071942 0.004074
0.513824 0.040243 0.016343
0.506091 0.123616 0.005346
0.480147 0.180047 0.029578
0.516481 0.172973 0.022155
0.534785 0.129419 0.009532
0.489691 0.181629 0.027255
0.508299 0.087757 0.060427
0.517475 0.129316 0.087072
0.563433 0.071528 0.044798
0.557540 0.068213 0.018540
0.534230 0.167433 0.028989
0.554185 0.124706 0.023110
0.514792 0.088504 0.064535
0.505884 0.152743 0.092341
0.500164 0.181524 0.025859
0.556165 0.065993 0.049851
0.507925 0.185439 0.085272
0.534670 0.177872 0.051847
0.524134 0.152515 0.012850
0.510133 0.175959 0.089280
0.485156 0.176297 0.087626
0.517604 0.149972 0.091067
0.561996 0.081498 0.054312
0.534253 0.146361 0.014746
0.469369 0.168797 0.075039
0.512216 0.044969 0.014687
0.510800 0.044982 0.017899
0.529027 0.165020 0.083179
0.550415 0.147891 0.033101
0.506182 0.108241 0.005259
0.517333 0.168853 0.088610
0.545272 0.131608 0.016417
0.502452 0.196320 0.043276
0.461712 0.164488 0.043014
0.515467 0.167196 0.017640
0.474788 0.134504 0.018964
0.549916 0.156412 0.045755
0.565305 0.110709 0.050000
0.560176 0.084713 0.058364
0.466153 0.152944 0.066731
0.528746 0.181980 0.066421
0.479006 0.170062 0.085135
0.472413 0.184218 0.074484
0.494811 0.183932 0.087801
0.503697 0.185595 0.086537
0.542213 0.166713 0.063486
0.554901 0.046757 0.027144
0.544232 0.164056 0.062818
0.548234 0.129549 0.078343
0.500286 0.107832 0.070654
0.550165 0.057032 0.047123
0.475020 0.186514 0.038315
0.491197 0.088448 0.022218
0.540375 0.083995 0.005687
0.487185 0.189596 0.082777
0.547342 0.149134 0.073115
0.550681 0.089427 0.011433
0.503056 0.127693 0.084461
0.543017 0.088891 0.007000
0.556530 0.075166 0.055669
0.519490 0.044555 0.037295
0.528084 0.100146 0.075894
0.527499 0.060578 0.050463
0.471186 0.164661 0.077475
0.553320 0.111388 0.074031
0.556021 0.096359 0.016758
0.563305 0.075788 0.048365
0.506298 0.150120 0.091955
0.521251 0.172586 0.023552
0.541502 0.129544 0.082570
0.470359 0.187940 0.047264
0.564219 0.084435 0.030147
0.497541 0.187541 0.031331
0.539570 0.143038 0.083125
0.482014 0.163237 0.087298
0.532880 0.076554 0.062701
0.479558 0.199695 0.061638
0.520464 0.148859 0.010470
0.461284 0.155666 0.043520
0.475961 0.136947 0.017664
0.476042 0.110121 0.035668
0.496309 0.182146 0.026492
0.546332 0.161502 0.061105
0.553064 0.133325 0.072583
0.512758 0.086641 0.005087
0.503266 0.158917 0.012051
0.507861 0.173036 0.020038
0.527018 0.175003 0.078402
0.475572 0.148373 0.078017
0.510070 0.194798 0.045483
0.485316 0.106721 0.055206
0.517436 0.099861 0.073822
0.498548 0.171855 0.092066
0.469678 0.123575 0.042358
0.463316 0.147171 0.035213
0.508034 0.155193 0.010811
0.524975 0.165362 0.019820
0.469735 0.148175 0.023696
0.524812 0.114406 0.004832
0.529912 0.153782 0.015866
0.542642 0.152769 0.025071
0.508930 0.087521 0.006372
0.495251 0.106258 0.065899
0.560209 0.088376 0.060338
0.500948 0.167986 0.016243
0.503918 0.093143 0.007777
0.466760 0.181691 0.065525
0.473632 0.119278 0.025895
0.527824 0.107910 0.004572
0.532818 0.098378 0.075097
0.519259 0.173754 0.023762
0.509068 0.161936 0.092594
0.483687 0.154801 0.086915
0.524065 0.099648 0.003710
0.514771 0.182168 0.030045
0.532926 0.088664 0.070219
0.477395 0.172735 0.083475
0.477313 0.196506 0.051860
0.547051 0.141555 0.076583
0.505158 0.079718 0.051021
0.469207 0.160821 0.074283
0.517091 0.059051 0.044503
0.555331 0.049350 0.024724
0.559662 0.083137 0.057960
0.527757 0.031871 0.029147
0.516949 0.127957 0.086606
0.483342 0.201118 0.055081
0.502634 0.201385 0.057062
0.482989 0.201543 0.060260
0.460995 0.159460 0.052418
0.477248 0.188813 0.039016
0.557087 0.140065 0.044619
0.506994 0.105299 0.072880
0.538480 0.033342 0.021904
0.530254 0.139165 0.010326
0.523750 0.069604 0.003848
0.476232 0.125546 0.019021
0.511125 0.157199 0.011817
0.498181 0.192743 0.037135
0.461733 0.149374 0.047429
0.558711 0.064173 0.021511
0.522018 0.099009 0.074545
0.523792 0.154405 0.013508
0.516063 0.179696 0.084401
0.563769 0.078870 0.028995
0.471831 0.158810 0.024053
0.464295 0.148180 0.032168
0.529237 0.183370 0.057750
0.508508 0.058982 0.036387
0.491421 0.156560 0.090631
0.493184 0.189302 0.033296
0.488464 0.142709 0.010796
0.547051 0.104197 0.010780
0.481288 0.187372 0.035001
0.520108 0.108944 0.004128
0.505362 0.200505 0.059125
0.544124 0.069442 0.057751
0.487957 0.159647 0.015399
0.496270 0.187674 0.031478
0.532499 0.154907 0.085114
0.526824 0.064911 0.053090
0.501524 0.108981 0.006328
0.540194 0.044812 0.042145
0.506777 0.166660 0.092569
0.490487 0.118634 0.009289
0.515508 0.042508 0.032537
0.513048 0.192578 0.043391
0.540238 0.099237 0.074636
0.528702 0.133300 0.087364
0.514738 0.112629 0.004346
0.462544 0.146279 0.050557
0.464922 0.166097 0.035473
0.485169 0.136362 0.011462
0.566137 0.091957 0.048811
0.494565 0.117101 0.073502
0.519058 0.095522 0.071534
0.495540 0.133351 0.084255
0.481124 0.164861 0.086811
0.538809 0.172043 0.044856
0.482259 0.151266 0.084949
0.547290 0.154882 0.034358
0.471236 0.191988 0.059223
0.560214 0.088349 0.021127
0.553646 0.149262 0.056572
0.563966 0.112404 0.038841
0.515527 0.177344 0.025630
0.533091 0.159640 0.021201
0.467448 0.128662 0.041942
0.554528 0.046231 0.026888
0.475097 0.144473 0.075463
0.486049 0.197444 0.044716
0.511624 0.190130 0.079119
0.564238 0.086785 0.030212
0.550393 0.136163 0.024016
0.499295 0.072817 0.022431
0.487766 0.099979 0.050760
0.472329 0.148683 0.074390
0.513351 0.039181 0.020912
0.473205 0.164032 0.079893
0.500758 0.142967 0.008107
0.547241 0.049575 0.012838
0.538921 0.033592 0.021682
0.495035 0.143743 0.088538
0.468406 0.127857 0.032814
0.517553 0.089192 0.066377
0.536540 0.175774 0.051149
0.499071 0.081951 0.015138
0.531569 0.171628 0.030418
0.546613 0.114371 0.012432
0.467858 0.145524 0.065803
0.553625 0.137861 0.030690
0.563876 0.116038 0.057570
0.524049 0.177714 0.079231
0.497332 0.121259 0.078051
0.542689 0.122391 0.081234
0.504370 0.061083 0.020383
0.538293 0.115875 0.080859
0.516701 0.091661 0.067817
0.539006 0.138472 0.083934
0.546050 0.142595 0.022164
0.530035 0.152098 0.087130
0.536353 0.060403 0.004861
0.472563 0.193645 0.061081
0.513034 0.107534 0.004290
0.475029 0.135696 0.069571
0.474308 0.126338 0.060149
0.543309 0.036538 0.030384
0.504837 0.080962 0.051865
0.498005 0.073784 0.027470
0.473844 0.116600 0.045114
0.467742 0.186258 0.061251
0.555642 0.140509 0.038719
0.521264 0.190571 0.056822
0.527628 0.181895 0.040256
0.518209 0.192747 0.062088
0.461077 0.154943 0.047167
0.529189 0.050696 0.005322
0.477705 0.109941 0.025514
0.528937 0.168513 0.024823
0.546024 0.079577 0.063443
0.550748 0.135261 0.023999
0.478698 0.165540 0.022090
0.537113 0.143188 0.015041
0.552188 0.152506 0.047156
0.557982 0.138828 0.049308
0.548258 0.042036 0.034347
0.481314 0.101804 0.038335
0.558335 0.056542 0.024936
0.555046 0.140927 0.064469
0.479980 0.190465 0.078148
0.526119 0.117751 0.005328
0.525763 0.168040 0.022193
0.510320 0.068747 0.009005
0.523173 0.146133 0.010255
0.482500 0.100679 0.040219
0.562021 0.122079 0.060683
0.566260 0.091681 0.045899
0.552474 0.046965 0.036328
0.485714 0.180791 0.027873
0.469238 0.146289 0.068660
0.473418 0.141405 0.019862
0.558565 0.083732 0.059312
0.464251 0.154158 0.063052
0.540383 0.097310 0.006614
0.466512 0.137552 0.030359
0.463271 0.174512 0.059804
0.523300 0.044950 0.007049
0.498815 0.202657 0.063516
0.517475 0.175135 0.085953
0.550587 0.051089 0.042169
0.540682 0.096574 0.073422
0.487958 0.147929 0.087104
0.500277 0.150215 0.091451
0.556280 0.142857 0.046373
0.512397 0.072596 0.051270
0.527558 0.185075 0.054519
0.515956 0.153880 0.011278
0.565538 0.102890 0.055505
0.468416 0.127540 0.033269
0.522527 0.189006 0.050795
0.467207 0.185025 0.051042
0.465842 0.143004 0.029733
0.481332 0.104432 0.044489
0.487244 0.092034 0.035332
0.530572 0.177442 0.036779
0.552848 0.107014 0.073195
0.518828 0.062285 0.047839
0.521529 0.087626 0.066943
0.541434 0.159062 0.074912
0.555037 0.123792 0.023837
0.481190 0.102346 0.039413
0.539658 0.081346 0.005343
0.487218 0.188781 0.034038
0.510930 0.197376 0.065073
0.504719 0.077967 0.010992
0.559615 0.111444 0.025267
0.538496 0.081762 0.005001
0.474226 0.194892 0.055612
0.490489 0.199392 0.074165
0.514458 0.162519 0.091225
0.490051 0.172474 0.020946
0.556266 0.107335 0.019125
0.475313 0.117949 0.051612
0.512326 0.063384 0.043977
0.467971 0.185778 0.049633
0.535747 0.047915 0.044600
0.466027 0.179912 0.064982
0.555782 0.144746 0.049204
0.540806 0.105129 0.076794
0.559845 0.075702 0.053172
0.548993 0.091627 0.010448
0.486650 0.110312 0.060956
0.547027 0.158402 0.038924
0.483710 0.201741 0.057866
0.493605 0.138613 0.008669
0.553463 0.144210 0.065315
0.532093 0.170462 0.076745
0.549235 0.144140 0.072867
0.505334 0.178584 0.023964
0.520404 0.187850 0.041731
0.475030 0.154850 0.080007
0.553118 0.045714 0.023859
0.476280 0.133813 0.017582
0.537363 0.032759 0.026765
0.563310 0.110592 0.034344
0.496598 0.084401 0.016847
0.533117 0.095393 0.004433
0.550948 0.151977 0.063288
0.469130 0.125780 0.032824
0.554861 0.146682 0.055557
0.517544 0.193006 0.053623
0.481242 0.106143 0.021848
0.484171 0.201991 0.058867
0.528294 0.147526 0.088421
0.474872 0.114760 0.027398
0.475116 0.196178 0.063124
0.514982 0.140617 0.090148
0.532438 0.178920 0.063398
0.535600 0.155606 0.020410
0.530842 0.037501 0.010362
0.551202 0.074199 0.058211
0.514495 0.189139 0.038374
0.495008 0.108036 0.008935
0.507263 0.056743 0.016585
0.553966 0.126681 0.023838
0.524801 0.056584 0.046902
0.526732 0.185835 0.054491
0.531064 0.082681 0.003608
0.530008 0.117992 0.082793
0.494614 0.139226 0.008514
0.490117 0.136752 0.009459
0.464186 0.179558 0.052770
0.541965 0.060096 0.052033
0.501764 0.072300 0.017055
0.520542 0.096343 0.072559
0.510190 0.154789 0.092350
0.518073 0.124678 0.085503
0.491778 0.156778 0.090779
0.492858 0.084987 0.023090
0.565605 0.080531 0.042699
0.541489 0.057141 0.050154
0.486607 0.184499 0.030425
0.529738 0.031605 0.028480
0.524683 0.157152 0.088425
0.543392 0.145542 0.021018
0.522252 0.041536 0.008494
0.558028 0.081329 0.017954
0.507787 0.059120 0.014487
0.484298 0.109848 0.015707
0.468917 0.149363 0.069858
0.529549 0.176814 0.034354
0.493886 0.165657 0.016139
0.489371 0.110164 0.011557
0.510255 0.170390 0.091012
0.496361 0.137456 0.086556
0.550537 0.120158 0.077079
0.509504 0.154226 0.092382
0.545793 0.160923 0.064309
0.498370 0.137450 0.087231
0.526086 0.145992 0.089151
0.470949 0.191607 0.060174
0.480639 0.171698 0.086044
0.529365 0.050793 0.045050
0.552004 0.116120 0.017194
0.518627 0.046509 0.037762
0.516641 0.143029 0.008160
0.536972 0.090253 0.004986
0.532142 0.051421 0.046130
0.494783 0.203302 0.063223
0.496383 0.090414 0.013887
0.511145 0.115796 0.080947
0.493742 0.087781 0.018440
0.516132 0.181000 0.029391
0.539634 0.127856 0.011470
0.542070 0.048162 0.009531
0.509778 0.051895 0.014686
0.519340 0.104888 0.077193
0.519101 0.049807 0.007256
0.501312 0.085636 0.052736
0.475187 0.129729 0.064885
0.549975 0.131888 0.076392
0.494081 0.184860 0.029027
0.562177 0.109157 0.029793
0.516998 0.092511 0.068576
0.465224 0.147612 0.061724
0.517571 0.117347 0.004609
0.499042 0.131566 0.084890
0.539837 0.148571 0.081779
0.549764 0.081305 0.010352
0.513738 0.046289 0.011973
0.548703 0.048159 0.015094
0.545071 0.160948 0.066287
0.540198 0.155591 0.078651
0.546316 0.111061 0.011537
0.504602 0.175221 0.021148
0.526735 0.185470 0.050261
0.530448 0.143280 0.011737
0.550427 0.076563 0.010753
0.555572 0.087445 0.015442
0.540478 0.034659 0.020671
0.507750 0.055913 0.016125
0.539585 0.040669 0.038851
0.556437 0.143151 0.049930
0.529482 0.078827 0.003425
0.534712 0.047002 0.006911
0.463537 0.165852 0.063921
0.472041 0.118409 0.033086
0.484191 0.187859 0.082430
0.476514 0.145711 0.077638
0.549841 0.111356 0.075930
0.493835 0.189033 0.032961
0.478289 0.157437 0.083802
0.507442 0.110710 0.004950
0.510919 0.144689 0.091053
0.537208 0.111436 0.007136
0.545893 0.082679 0.065279
0.466630 0.158299 0.029606
0.506611 0.065674 0.039667
0.548338 0.141465 0.075119
0.510221 0.155055 0.010928
0.563239 0.104548 0.030735
0.530953 0.172966 0.031209
0.502019 0.191513 0.036260
0.511668 0.193356 0.043778
0.554470 0.136442 0.031299
0.540629 0.126110 0.011578
0.503718 0.201192 0.058922
0.551660 0.121939 0.018875
0.495104 0.096091 0.056459
0.492998 0.083018 0.026982
0.525853 0.157294 0.087886
0.496480 0.144268 0.089136
0.533239 0.101624 0.076472
0.482422 0.126758 0.013193
0.498598 0.091471 0.055668
0.491061 0.174013 0.090335
0.483703 0.097338 0.035006
0.532500 0.061281 0.052398
0.483815 0.112077 0.015295
0.500860 0.166708 0.015559
0.559128 0.074827 0.053312
0.495445 0.190338 0.034235
0.514053 0.190827 0.076045
0.560867 0.089899 0.060435
0.482660 0.181228 0.084657
0.551139 0.113041 0.075665
0.541423 0.167124 0.065083
0.462324 0.173620 0.054683
0.505506 0.093202 0.007010
0.490762 0.200436 0.048313
0.540541 0.169055 0.063445
0.515764 0.176422 0.024879
0.502562 0.123175 0.082024
0.560742 0.130319 0.050602
0.470770 0.186092 0.070878
0.505201 0.172395 0.091717
0.534359 0.099791 0.075611
0.497531 0.180525 0.025058
0.550266 0.093461 0.069264
0.542333 0.067146 0.006310
0.490912 0.087367 0.024644
0.558173 0.123199 0.069301
0.481080 0.129387 0.013941
0.560147 0.107565 0.067308
0.509291 0.149729 0.009231
0.512081 0.142752 0.090659
0.493484 0.083066 0.024565
0.553392 0.144990 0.064720
0.513259 0.075850 0.054322
0.532230 0.109121 0.079457
0.561160 0.113432 0.029473
0.534458 0.151225 0.084958
0.506672 0.062983 0.037323
0.524859 0.031032 0.022468
0.503359 0.121683 0.005529
0.502133 0.067261 0.020440
0.530391 0.181769 0.060872
0.526375 0.164540 0.020036
0.502206 0.193310 0.080626
0.478375 0.198770 0.063245
0.549132 0.055150 0.012469
0.548578 0.144988 0.027156
0.496332 0.163451 0.092448
0.550048 0.072261 0.010533
0.559977 0.127902 0.062791
0.473665 0.193888 0.066373
0.512686 0.079383 0.056613
0.518121 0.062326 0.005851
0.505506 0.200507 0.060270
0.513821 0.073767 0.006168
0.551283 0.111393 0.075207
0.535394 0.139624 0.085865
0.533154 0.179016 0.047998
0.555388 0.128797 0.071412
0.538486 0.169233 0.037520
0.529788 0.064920 0.003736
0.475556 0.138369 0.072139
0.558689 0.118446 0.069513
0.513458 0.063979 0.007850
0.532270 0.098665 0.075247
0.490884 0.196666 0.042257
0.508867 0.184571 0.030426
0.460950 0.156951 0.049788
0.467265 0.150089 0.067413
0.492766 0.086206 0.040268
0.551579 0.146455 0.067565
0.478930 0.199131 0.063271
0.538643 0.107838 0.007165
0.478231 0.149141 0.080955
0.466440 0.181702 0.045504
0.494803 0.137316 0.085864
0.539131 0.113399 0.079922
0.521477 0.081629 0.003605
0.482673 0.184422 0.031804
0.485840 0.093888 0.030020
0.479248 0.128142 0.015535
0.523554 0.081724 0.003423
0.535331 0.155197 0.019954
0.492912 0.098418 0.056271
0.561445 0.122356 0.062607
0.502729 0.179044 0.089940
0.540854 0.145925 0.018937
0.551667 0.142682 0.030755
0.468278 0.186046 0.064710
0.484081 0.189981 0.036320
0.562818 0.063079 0.037017
0.476369 0.173150 0.082514
0.538939 0.051790 0.046974
0.490358 0.090751 0.021197
0.471053 0.145260 0.022193
0.558882 0.085638 0.060120
0.558188 0.131508 0.064837
0.525383 0.111917 0.080851
0.502390 0.122931 0.081824
0.565836 0.090769 0.050441
0.555978 0.102715 0.017753
0.504413 0.104187 0.070574
0.510877 0.169039 0.017842
0.556477 0.118312 0.023176
0.494536 0.196674 0.078137
0.535534 0.096252 0.073983
0.534497 0.101290 0.076234
0.564019 0.100633 0.031883
0.518300 0.191203 0.068786
0.497276 0.084793 0.046553
0.539703 0.065231 0.055677
0.484529 0.114687 0.062776
0.527469 0.126560 0.085809
0.477188 0.122169 0.018858
0.481400 0.188109 0.035643
0.543456 0.078223 0.063332
0.465618 0.153628 0.029911
0.524093 0.176666 0.028985
0.491035 0.107869 0.063470
0.565232 0.110488 0.053344
0.562939 0.120668 0.044087
0.510396 0.095956 0.005004
0.543961 0.154082 0.075017
0.563716 0.073147 0.030217
0.538365 0.119629 0.008935
0.473974 0.161005 0.080367
0.533947 0.147195 0.086041
0.518268 0.037123 0.013717
0.465890 0.135698 0.033591
0.528777 0.181649 0.067150
0.534953 0.173236 0.069354
0.506449 0.157486 0.011537
0.511482 0.108490 0.077086
0.551198 0.080187 0.061834
0.545166 0.130676 0.015998
0.532846 0.084661 0.003876
0.542393 0.125250 0.012410
0.535663 0.168549 0.074105
0.494569 0.180696 0.025518
0.559066 0.118289 0.068989
0.542528 0.143936 0.019326
0.475402 0.111325 0.036275
0.513356 0.084026 0.060438
0.540544 0.089619 0.070236
0.497358 0.152390 0.091379
0.556345 0.048676 0.032002
0.463831 0.140095 0.047391
0.556192 0.122993 0.072017
0.561325 0.060192 0.038504
0.479182 0.189120 0.037952
0.523305 0.038929 0.009543
0.563877 0.111450 0.037457
0.511478 0.059157 0.039975
0.519422 0.180364 0.030244
0.503496 0.074807 0.013340
0.552314 0.097792 0.070229
0.502506 0.191784 0.036721
0.483613 0.168745 0.021265
0.480761 0.107738 0.021333
0.495994 0.112066 0.007780
0.565308 0.103035 0.039060
0.554493 0.134757 0.069949
0.468429 0.134454 0.057281
0.498032 0.178810 0.023659
0.506671 0.145263 0.091052
0.550436 0.054937 0.045378
0.522957 0.176846 0.028453
0.463146 0.146455 0.054255
0.553152 0.096827 0.069395
0.560844 0.118127 0.031694
0.500649 0.068880 0.030906
0.498474 0.199361 0.047274
0.543840 0.085527 0.067422
0.535038 0.069706 0.004072
0.563151 0.108944 0.062706
0.553021 0.127798 0.074466
0.473791 0.160146 0.080009
0.481452 0.107140 0.049084
0.486094 0.172290 0.088887
0.470151 0.172416 0.031816
0.513765 0.168538 0.090266
0.537791 0.077406 0.063608
0.512711 0.092293 0.004682
0.509342 0.049932 0.016744
0.549739 0.138172 0.074648
0.494277 0.203486 0.059276
0.522267 0.040579 0.036685
0.536082 0.134936 0.011562
0.493283 0.082175 0.028984
0.489138 0.175479 0.023102
0.492739 0.173291 0.090907
0.480536 0.110389 0.051812
0.517100 0.159360 0.090803
0.557059 0.084952 0.061194
0.563471 0.083908 0.027737
0.527389 0.086574 0.068153
0.509296 0.059153 0.037531
0.465784 0.167763 0.034831
0.563760 0.096298 0.029798
0.537824 0.076050 0.004653
0.471322 0.186426 0.071540
0.502692 0.184438 0.087420
0.560374 0.077466 0.053729
0.555971 0.120586 0.072578
0.544273 0.165878 0.055995
0.533083 0.037848 0.037366
0.474473 0.160937 0.022768
0.554782 0.145586 0.059173
0.513684 0.046576 0.033264
0.549070 0.116518 0.077454
0.469681 0.178329 0.036170
0.561114 0.105789 0.025917
0.478182 0.158949 0.019640
0.562553 0.094629 0.026215
0.469060 0.125424 0.044175
0.554472 0.059297 0.016958
0.558135 0.124196 0.069045
0.498386 0.159187 0.092511
0.522608 0.046812 0.040198
0.535263 0.033422 0.017874
0.548348 0.040154 0.021680
0.528690 0.156597 0.086705
0.462646 0.154107 0.036943
0.464226 0.179353 0.050741
0.503753 0.196045 0.076669
0.521566 0.171873 0.023083
0.498975 0.145903 0.008879
0.473119 0.163818 0.025000
0.504251 0.092973 0.061949
0.486743 0.158634 0.015475
0.464793 0.146229 0.059586
0.471250 0.139431 0.022274
0.550239 0.130972 0.021128
0.532939 0.135997 0.010448
0.534031 0.122007 0.007706
0.494562 0.201663 0.051115
0.502227 0.123449 0.082036
0.495201 0.142085 0.008835
0.512900 0.117475 0.082097
0.509254 0.051383 0.015914
0.508511 0.148424 0.091718
0.516082 0.094904 0.003976
0.547517 0.068296 0.055982
0.466111 0.141308 0.029673
0.496431 0.146623 0.009430
0.513966 0.102146 0.074031
0.464033 0.145648 0.033355
0.490916 0.200663 0.048748
0.471174 0.191553 0.063509
0.555156 0.057116 0.043854
0.531081 0.163320 0.022341
0.489911 0.198080 0.044471
0.559618 0.129622 0.062304
0.537316 0.174729 0.057107
0.506380 0.054647 0.021486
0.513413 0.168433 0.090421
0.517770 0.034580 0.025239
0.511979 0.073100 0.007139
0.560527 0.067350 0.046578
0.489268 0.139320 0.010039
0.527081 0.177967 0.075624
0.526138 0.032202 0.016792
0.513457 0.145065 0.008306
0.557573 0.128651 0.068059
0.462546 0.162943 0.060877
0.505601 0.056093 0.024270
0.501584 0.146800 0.090885
0.543505 0.110454 0.077992
0.549518 0.040945 0.022769
0.558506 0.061974 0.044688
0.541183 0.164871 0.069348
0.509836 0.128314 0.086104
0.557162 0.140514 0.046426
0.471879 0.187267 0.071746
0.530279 0.057680 0.004394
0.565261 0.089281 0.034949
0.526291 0.079930 0.063245
0.465463 0.166723 0.034847
0.463464 0.143991 0.052588
0.494657 0.143465 0.088315
0.509228 0.100021 0.005045
0.475479 0.165338 0.023955
0.486640 0.146112 0.012068
0.514844 0.194715 0.065689
0.484101 0.140985 0.081398
0.538852 0.143401 0.083584
0.510739 0.116773 0.081329
0.535784 0.098575 0.005258
0.547852 0.139601 0.076298
0.551238 0.067886 0.011767
0.556113 0.051844 0.024014
0.548022 0.099349 0.010683
0.490612 0.149320 0.011401
0.462367 0.146407 0.041213
0.462992 0.147198 0.054398
0.562536 0.114299 0.034186
0.491721 0.093177 0.017228
0.537353 0.105726 0.077628
0.543066 0.135007 0.081497
0.489162 0.129821 0.078246
0.513659 0.195694 0.055463
0.473679 0.117466 0.046324
0.541135 0.041954 0.011773
0.472633 0.117288 0.040994
0.525233 0.037956 0.009781
0.493241 0.119047 0.073973
0.493177 0.172875 0.020296
0.507891 0.123010 0.005182
0.565257 0.110989 0.050634
0.524445 0.036163 0.034353
0.529451 0.182952 0.050041
0.533421 0.032805 0.017717
0.542262 0.167585 0.060931
0.539960 0.033786 0.022816
0.503861 0.152030 0.092154
0.539320 0.171987 0.047142
0.513199 0.155886 0.011576
0.465594 0.137382 0.033129
0.547458 0.131610 0.018394
0.520256 0.180976 0.080192
0.534792 0.053015 0.047554
0.496005 0.107482 0.008587
0.502072 0.194470 0.079387
0.483517 0.189082 0.035651
0.554910 0.093409 0.015302
0.552334 0.049201 0.019379
0.490835 0.164198 0.016332
0.529076 0.067197 0.003599
0.526920 0.170590 0.081629
0.468983 0.185553 0.045764
0.556230 0.136708 0.065323
0.500188 0.113609 0.006274
0.473549 0.114995 0.034110
0.512283 0.195892 0.052163
0.542123 0.103099 0.075750
0.482313 0.199310 0.050915
0.557166 0.050802 0.027728
0.547448 0.116322 0.078184
0.529038 0.069649 0.003515
0.558490 0.081858 0.058258
0.498137 0.140016 0.007984
0.560158 0.111580 0.026346
0.483094 0.098501 0.036200
0.493162 0.085951 0.040762
0.552910 0.132218 0.073220
0.470774 0.159083 0.025115
0.559544 0.127313 0.064572
0.537493 0.086195 0.068818
0.538873 0.109513 0.007485
0.472693 0.130180 0.022216
0.478319 0.150371 0.017071
0.484418 0.195998 0.043397
0.510724 0.044464 0.024804
0.518058 0.068055 0.005226
0.471506 0.120873 0.045210
0.524959 0.041793 0.007787
0.484274 0.136206 0.011903
0.552328 0.043600 0.025032
0.494271 0.086240 0.043455
0.560211 0.132111 0.052109
0.484395 0.119873 0.067386
0.491310 0.162857 0.091269
0.462865 0.146812 0.037238
0.550669 0.146854 0.069054
0.557326 0.066472 0.049242
0.532748 0.063964 0.054230
0.506478 0.152119 0.009836
0.564528 0.114959 0.048184
0.555668 0.066554 0.016430
0.474459 0.163709 0.023945
0.493618 0.100290 0.012037
0.465045 0.135314 0.041029
0.542848 0.035022 0.025989
0.565895 0.089243 0.039396
0.497850 0.118589 0.076603
0.524919 0.043618 0.039532
0.563722 0.078875 0.028840
0.475557 0.168056 0.025190
0.553427 0.150448 0.051500
0.506463 0.152326 0.009895
0.511713 0.094429 0.004785
0.488494 0.095457 0.045894
0.504757 0.105406 0.005769
0.511332 0.184930 0.083908
0.465949 0.158768 0.030809
0.564846 0.075296 0.035082
0.470591 0.123382 0.030359
0.563494 0.077793 0.049369
0.474939 0.154612 0.020302
0.490703 0.110273 0.065276
0.481774 0.109448 0.018715
0.488327 0.175908 0.089031
0.496927 0.155212 0.091779
0.540675 0.162839 0.032308
0.472678 0.134832 0.065619
0.541752 0.104079 0.076202
0.485050 0.180737 0.028072
0.552327 0.151642 0.058200
0.530042 0.177395 0.072027
0.501807 0.166017 0.015161
0.497893 0.074120 0.026756
0.523212 0.183079 0.074813
0.558254 0.134421 0.061697
0.494883 0.131344 0.007581
0.541569 0.082840 0.006069
0.515835 0.143998 0.008292
0.542321 0.138641 0.016712
0.468559 0.187997 0.059709
0.543324 0.142260 0.019192
0.471290 0.134826 0.063370
0.483046 0.140547 0.080394
0.470800 0.171812 0.076694
0.491800 0.109068 0.065251
0.544549 0.142581 0.078938
0.488519 0.182150 0.027989
0.518289 0.127398 0.005591
0.464259 0.142252 0.053846
0.484041 0.185356 0.083652
0.532204 0.051627 0.046267
0.535114 0.142657 0.085892
0.507062 0.162391 0.013582
0.484578 0.114144 0.013943
0.545909 0.039499 0.032980
0.482356 0.101421 0.041456
0.564050 0.071808 0.032123
0.524448 0.118330 0.005180
0.527074 0.125201 0.085437
0.543458 0.115481 0.010699
0.528331 0.180765 0.039088
0.541615 0.158803 0.074873
0.529685 0.152207 0.015009
0.559557 0.119905 0.067955
0.548319 0.157715 0.041791
0.524131 0.155714 0.088926
0.507829 0.113605 0.004869
0.542383 0.130650 0.082134
0.563098 0.063932 0.036793
0.492450 0.203547 0.060929
0.542893 0.059310 0.007302
0.496330 0.170725 0.091999
0.488232 0.175720 0.023545
0.484985 0.157261 0.015667
0.540134 0.085204 0.067991
0.500580 0.118611 0.005941
0.495237 0.138455 0.008274
0.540560 0.048289 0.008695
0.490264 0.113833 0.010142
0.470735 0.173342 0.076332
0.553324 0.093551 0.013881
0.548304 0.038803 0.027172
0.467945 0.181172 0.068998
0.461379 0.153910 0.043365
0.557112 0.076597 0.016968
0.461415 0.168181 0.047744
0.503374 0.119883 0.005476
0.556731 0.057192 0.021378
0.548298 0.145044 0.073760
0.565493 0.099531 0.038490
0.542682 0.168034 0.048853
0.488977 0.110427 0.063703
0.506601 0.153242 0.092408
0.545693 0.037360 0.022120
0.466164 0.134291 0.049539
0.477027 0.176004 0.082398
0.563958 0.104222 0.033081
0.510987 0.102046 0.072657
0.505143 0.098333 0.066707
0.541368 0.081170 0.005932
0.474688 0.173336 0.028577
0.498269 0.092655 0.011436
0.486711 0.147467 0.012312
0.509263 0.193745 0.076393
0.518120 0.089679 0.066999
0.483351 0.139250 0.079879
0.534913 0.093207 0.072588
0.565725 0.107421 0.048912
0.481940 0.123594 0.013961
0.483373 0.118120 0.013883
0.564399 0.071390 0.034374
0.503672 0.105016 0.070726
0.521396 0.070976 0.004130
0.539545 0.085265 0.005465
0.511256 0.043829 0.018096
0.563267 0.076475 0.048917
0.519866 0.116784 0.082597
0.544435 0.112712 0.078392
0.513103 0.196210 0.056773
0.505773 0.199340 0.053284
0.507237 0.152844 0.092358
0.523695 0.031281 0.023632
0.565286 0.109333 0.044924
0.545384 0.139276 0.078893
0.520268 0.108516 0.004105
0.488269 0.180375 0.087637
0.540659 0.047370 0.043852
0.463221 0.176359 0.049129
0.533703 0.139250 0.011769
0.469249 0.168801 0.030834
0.461873 0.148614 0.047872
0.514132 0.084391 0.061113
0.492265 0.197129 0.042769
0.485015 0.200733 0.051664
0.521906 0.076338 0.058973
0.559017 0.133025 0.060396
0.502642 0.179946 0.024694
0.468769 0.173748 0.073461
0.508052 0.188199 0.083161
0.555580 0.139410 0.064513
0.529111 0.123813 0.084784
0.537385 0.136616 0.084877
0.543674 0.164362 0.040897
0.520691 0.176220 0.083153
0.498398 0.199208 0.046942
0.536015 0.126690 0.084271
0.549090 0.155284 0.039603
0.559849 0.124475 0.034220
0.482235 0.185096 0.082747
0.532392 0.102793 0.077008
0.493919 0.116590 0.072726
0.493398 0.140667 0.086750
0.555259 0.056547 0.019309
0.545852 0.143599 0.077292
0.538978 0.171532 0.043868
0.513482 0.170645 0.089770
0.535288 0.132834 0.010591
0.479272 0.165751 0.021872
0.532855 0.128026 0.085353
0.492911 0.103239 0.061096
0.533226 0.077451 0.063348
0.523908 0.050850 0.043036
0.506131 0.086736 0.058112
0.461786 0.156214 0.040434
0.477155 0.168232 0.024283
0.524175 0.184742 0.040577
0.479185 0.192523 0.042179
0.503598 0.069884 0.039326
0.475268 0.121863 0.021455
0.469048 0.157772 0.073331
0.531488 0.179421 0.042969
0.537915 0.174265 0.052652
0.536169 0.035500 0.014798
0.463384 0.175600 0.046491
0.477635 0.118458 0.019638
0.520969 0.186039 0.038889
0.506839 0.158601 0.011965
