ply
format ascii 1.0
element vertex 1024
property float x
property float y
property float z
end_header
0.491795 0.098348 0.087686
0.515525 0.026032 0.049693
0.516113 0.021183 0.047980
0.472989 0.157745 0.038863
0.463618 0.027437 0.009692
0.517443 0.079084 0.046349
0.483050 0.152420 0.038375
0.428937 0.085501 0.047350
0.518557 0.027701 0.023204
0.506141 0.074669 0.024441
0.434511 0.116607 0.028505
0.440836 0.152349 0.058343
0.451220 0.030232 0.022855
0.448554 0.058293 0.008040
0.441184 0.106265 0.016582
0.495555 0.076702 0.015576
0.518023 0.058490 0.042146
0.465535 0.153718 0.031787
0.493415 0.134512 0.082540
0.463405 0.118601 0.013121
0.443602 0.056194 0.011892
0.504159 0.002169 0.012210
0.476473 0.162463 0.065239
0.491710 0.016398 0.055098
0.524383 0.009907 0.032664
0.489367 0.069837 0.080767
0.478566 0.135242 0.087856
0.452647 0.107816 0.086753
0.461555 0.060925 0.076114
0.470033 0.130380 0.089440
0.498105 0.066931 0.015653
0.465023 0.104214 0.009585
0.462246 0.019376 0.015378
0.472720 0.008418 0.037859
0.439554 0.097528 0.076022
0.445669 0.053363 0.059580
0.491649 0.065901 0.011549
0.461922 0.129675 0.016869
0.461454 0.124213 0.089333
0.470511 0.021378 0.009322
0.444309 0.149307 0.037545
0.430484 0.115023 0.060421
0.458115 0.084790 0.084861
0.446772 0.143018 0.029471
0.467905 0.155585 0.034178
0.453653 0.120968 0.015302
0.456928 0.031604 0.011610
0.452489 0.075857 0.079169
0.486919 0.152797 0.043907
0.523534 0.013459 0.036449
0.524259 0.015630 0.033787
0.437372 0.122473 0.027622
0.435415 0.076650 0.061609
0.497256 0.058547 0.073933
0.444471 0.133781 0.025983
0.450584 0.060087 0.069705
0.449357 0.141509 0.080273
0.500228 0.139484 0.071265
0.457142 0.102138 0.088282
0.508177 0.100157 0.077475
0.429603 0.088721 0.054295
0.439649 0.049253 0.028124
0.456216 0.036692 0.009692
0.499030 0.139249 0.044543
0.431254 0.127562 0.050099
0.476678 0.153151 0.034346
0.476454 0.162199 0.050941
0.455786 0.156180 0.036254
0.447612 0.152189 0.037018
0.428214 0.108101 0.044179
0.484804 -0.002030 0.020943
0.427981 0.104814 0.043328
0.440215 0.084448 0.013607
0.493006 0.090274 0.016602
0.480601 0.016775 0.008457
0.478286 0.146502 0.083660
0.517688 0.059460 0.051896
0.480892 0.023201 0.058441
0.460014 0.162069 0.044186
0.431591 0.096872 0.027133
0.468558 0.024317 0.054518
0.478403 0.109410 0.012953
0.475941 0.025969 0.059149
0.464618 0.030446 0.008244
0.514350 0.019362 0.015354
0.472775 0.072466 0.005074
0.497405 0.032681 0.009898
0.487174 0.149912 0.039670
0.445940 0.066647 0.008645
0.459700 0.028935 0.052255
0.459636 0.024127 0.014148
0.462986 0.127376 0.015983
0.448621 0.105660 0.084752
0.445286 0.089833 0.010697
0.480189 0.153936 0.076957
0.457020 0.021887 0.034039
0.459764 0.132390 0.087514
0.439857 0.100921 0.016501
0.477358 0.147564 0.028997
0.482836 0.046928 0.005570
0.464274 0.164058 0.068372
0.463446 0.082990 0.085781
0.505079 0.133503 0.066910
0.506111 0.100748 0.079578
0.517321 0.089125 0.051595
0.464292 0.126960 0.089528
0.427779 0.101097 0.043438
0.435018 0.082126 0.019802
0.502906 0.039294 0.063579
0.472523 0.100006 0.091023
0.460191 0.111429 0.089723
0.434592 0.128684 0.036579
0.491821 0.135990 0.031338
0.443399 0.137396 0.076694
0.508438 0.090449 0.031629
0.482204 0.076906 0.008098
0.458265 0.147315 0.026597
0.514765 0.105217 0.052499
0.508957 0.122574 0.070199
0.470606 0.094252 0.089860
0.449755 0.096798 0.084353
0.504685 0.114853 0.080048
0.478413 0.053115 0.074772
0.452151 0.084029 0.082044
0.440608 0.080713 0.071867
0.505495 0.042504 0.063310
0.498753 0.089653 0.020727
0.454008 0.040217 0.009584
0.469183 0.109682 0.091671
0.506612 0.049842 0.065210
0.483822 0.159346 0.058436
0.516028 0.092733 0.064652
0.479270 0.046693 0.071713
0.469811 0.068351 0.004400
0.449668 0.107645 0.085337
0.454445 0.134822 0.020376
0.480366 0.140373 0.025343
0.486839 0.042255 0.069234
0.448194 0.118902 0.084108
0.475448 0.059057 0.004345
0.476894 0.155207 0.037214
0.469229 0.158579 0.075872
0.435256 0.093036 0.020699
0.506271 0.058551 0.020759
0.491290 0.146735 0.041016
0.507835 0.034369 0.015777
0.483449 -0.001437 0.024195
0.457523 0.035633 0.009405
0.515112 0.002193 0.015850
0.466237 0.103292 0.009453
0.461292 0.160215 0.074344
0.444594 0.151206 0.070323
0.460623 0.163002 0.069995
0.502076 0.140357 0.060773
0.475116 0.147323 0.083795
0.432173 0.072559 0.047077
0.488336 0.085908 0.012665
0.506351 -0.005544 0.021593
0.460222 0.070746 0.080346
0.502625 0.020587 0.055669
0.511585 0.092899 0.073226
0.466816 0.094544 0.089487
0.455696 0.138416 0.084632
0.507391 0.130414 0.060572
0.473393 0.006178 0.033272
0.478675 0.074210 0.006509
0.457332 0.086637 0.085168
0.440540 0.140483 0.034731
0.460445 0.017557 0.032617
0.497364 0.121667 0.084245
0.508049 0.121449 0.073225
0.431372 0.124481 0.058337
0.516282 0.035212 0.023991
0.472396 0.139257 0.021886
0.462245 0.136820 0.087104
0.493574 0.095374 0.086693
0.464075 0.036688 0.062173
0.473033 0.142384 0.086202
0.485308 0.051282 0.073526
0.442450 0.150053 0.067765
0.477744 0.033679 0.005367
0.484576 0.110019 0.090284
0.460746 0.133217 0.087601
0.439395 0.114146 0.020942
0.495354 0.037355 0.009602
0.500648 0.061994 0.073896
0.496052 0.010877 0.008614
0.453938 0.139451 0.022802
0.504538 0.076105 0.076973
0.519454 0.017845 0.019139
0.442337 0.133295 0.077181
0.463174 0.064895 0.004276
0.453449 0.101380 0.009725
0.487900 0.056870 0.075651
0.507856 0.129119 0.056314
0.497775 0.135642 0.078263
0.499541 0.092766 0.083664
0.448819 0.034627 0.020658
0.492625 0.101278 0.018950
0.483411 0.071883 0.007975
0.481846 0.117370 0.016604
0.477339 0.148997 0.030266
0.431016 0.105518 0.063480
0.483683 0.137672 0.025673
0.434254 0.083935 0.064021
0.475629 0.161722 0.068080
0.459676 0.022840 0.044275
0.428593 0.086349 0.041052
0.441512 0.046249 0.038927
0.450689 0.113038 0.085757
0.445669 0.088997 0.079558
0.514075 0.109905 0.055426
0.485427 -0.002332 0.020979
0.494607 0.132266 0.031907
0.462405 0.151536 0.081534
0.439650 0.148069 0.044638
0.455780 0.023618 0.035034
0.442811 0.064095 0.064389
0.518911 0.043932 0.043691
0.510500 0.082288 0.032235
0.494920 0.136306 0.035088
0.524672 0.011402 0.028201
0.485447 0.149469 0.036998
0.483458 0.087947 0.087667
0.491872 -0.002305 0.035816
0.505882 -0.005691 0.021847
0.476279 0.127103 0.017539
0.515000 0.104778 0.063025
0.488698 0.065774 0.009885
0.430093 0.112207 0.059866
0.515428 0.047477 0.054273
0.439422 0.102608 0.076969
0.458943 0.045062 0.065331
0.501564 0.132539 0.041824
0.438243 0.066597 0.058845
0.437005 0.057234 0.023992
0.435575 0.132578 0.037429
0.487485 0.104876 0.016447
0.448178 0.083408 0.008522
0.520996 0.031822 0.039610
0.455311 0.080791 0.006475
0.487932 0.068656 0.009825
0.442577 0.098247 0.013806
0.443415 0.070231 0.069452
0.442636 0.114279 0.018202
0.496606 0.007744 0.049083
0.473385 0.163058 0.067015
0.491982 0.054022 0.073625
0.500054 0.123298 0.033191
0.506863 0.112685 0.037421
0.499401 -0.001986 0.014924
0.505776 0.059999 0.020610
0.518772 0.047540 0.039825
0.514461 0.099176 0.046414
0.481248 0.160269 0.064146
0.434014 0.071026 0.052678
0.434507 0.133484 0.063376
0.436016 0.116504 0.073357
0.435199 0.138997 0.060071
0.505101 0.134698 0.063383
0.507604 0.004618 0.045206
0.517476 0.083631 0.060295
0.444062 0.099238 0.080849
0.470078 0.042592 0.004643
0.442981 0.063243 0.063956
0.488374 0.122114 0.088153
0.451675 0.072180 0.077129
0.429504 0.085307 0.051022
0.431382 0.073265 0.042262
0.491811 0.001189 0.013271
0.516791 0.081491 0.044850
0.477164 0.002329 0.026863
0.430584 0.083039 0.030149
0.466310 0.164418 0.049565
0.475509 0.055090 0.075671
0.447362 0.099387 0.083357
0.513654 0.029262 0.052383
0.462602 0.079493 0.084412
0.516100 0.080884 0.042530
0.434996 0.063983 0.024178
0.449278 0.033074 0.023097
0.485418 0.003454 0.013208
0.473731 0.132121 0.089010
0.499592 0.133640 0.039468
0.505634 0.106299 0.079947
0.457945 0.037238 0.008612
0.500538 0.139498 0.048580
0.473864 0.033309 0.063595
0.511937 0.111746 0.069783
0.491304 0.153405 0.060710
0.515295 0.004272 0.041828
0.446227 0.156985 0.065654
0.441484 0.137109 0.031136
0.484034 0.010031 0.010123
0.464352 0.062186 0.004100
0.480291 0.133216 0.021563
0.468089 0.130369 0.017217
0.431157 0.075791 0.046878
0.503812 0.049688 0.016447
0.432373 0.125171 0.062169
0.464535 0.089362 0.087877
0.442702 0.045870 0.019714
0.515090 0.104743 0.062479
0.435120 0.129016 0.067852
0.483811 0.155132 0.072695
0.509773 0.115792 0.072866
0.514529 0.086120 0.040580
0.517276 0.069943 0.042389
0.436338 0.110181 0.074071
0.448722 0.063336 0.007480
0.504215 0.037295 0.014060
0.486073 0.062806 0.008189
0.431180 0.107990 0.030729
0.445318 0.052574 0.058421
0.516460 0.082428 0.044154
0.482916 0.021492 0.057646
0.467440 0.139886 0.086952
0.438513 0.147495 0.060407
0.513322 0.039787 0.055455
0.447638 0.041816 0.051048
0.483731 0.022252 0.058279
0.472126 0.160677 0.072209
0.453403 0.163670 0.055795
0.449794 0.131825 0.021182
0.475375 0.120728 0.090871
0.453474 0.037853 0.055055
0.511586 0.102268 0.041087
0.509689 0.039785 0.018776
0.482980 0.154658 0.074185
0.497844 0.016549 0.008384
0.485439 0.158193 0.058209
0.430191 0.078681 0.045282
0.459336 0.069848 0.004939
0.461905 0.028000 0.010284
0.468986 0.026366 0.056586
0.504625 0.094914 0.027987
0.431996 0.088658 0.061592
0.460258 0.161710 0.072114
0.491663 0.088762 0.086102
0.430100 0.086633 0.031069
0.432898 0.121989 0.035380
0.432613 0.092134 0.024878
0.458887 0.118531 0.089049
0.438817 0.125271 0.075618
0.488641 0.141874 0.032551
0.487321 -0.003313 0.023602
0.507475 0.098261 0.078204
0.506894 -0.003234 0.017168
0.443652 0.043282 0.042176
0.516001 0.051311 0.054165
0.481299 0.034744 0.065564
0.428496 0.092710 0.036660
0.515462 0.102890 0.061995
0.429050 0.083384 0.040642
0.436847 0.135786 0.067761
0.516986 0.077393 0.061397
0.459595 0.162095 0.071283
0.446282 0.112428 0.015223
0.517102 0.089457 0.061140
0.469627 0.164474 0.066028
0.460837 0.115114 0.012243
0.430158 0.122066 0.050945
0.445753 0.084397 0.078137
0.512308 -0.003630 0.034619
0.469246 0.033651 0.006219
0.443620 0.127813 0.079899
0.506257 0.065864 0.071971
0.521348 0.025467 0.040666
0.444727 0.055239 0.059849
0.502261 0.029605 0.011592
0.432680 0.126144 0.062637
0.489726 0.026187 0.060844
0.460926 0.087519 0.006739
0.490518 0.088612 0.086389
0.495454 0.089578 0.084999
0.488937 0.153491 0.069086
0.485225 0.025466 0.006502
0.517872 0.039885 0.047911
0.481585 0.072160 0.007253
0.457231 0.128920 0.017247
0.467145 0.099827 0.008818
0.471961 0.139295 0.021808
0.517952 0.056455 0.049367
0.456059 0.023873 0.021006
0.487426 0.022729 0.006898
0.470693 0.135486 0.088304
0.513675 0.000668 0.016075
0.444349 0.121332 0.019986
0.444298 0.073261 0.072119
0.517737 0.002971 0.039147
0.465609 0.017463 0.044203
0.519979 0.025997 0.043524
0.513378 0.075777 0.068116
0.498099 0.136578 0.039827
0.437875 0.109186 0.076062
0.476360 0.111629 0.091592
0.509534 0.071520 0.071303
0.449300 0.139663 0.025423
0.478699 0.120950 0.016308
0.443312 0.075841 0.010226
0.458096 0.128882 0.017050
0.428071 0.102375 0.040409
0.476910 0.120196 0.015459
0.448834 0.112787 0.014162
0.475932 0.162015 0.067103
0.474323 0.153892 0.034073
0.501674 0.022180 0.010067
0.452804 0.045627 0.061234
0.514000 0.021443 0.015924
0.470020 0.079717 0.085682
0.480626 0.029229 0.062291
0.498851 0.021665 0.009050
0.449336 0.159432 0.066702
0.513499 0.054495 0.059510
0.478240 0.094958 0.009723
0.516432 0.055971 0.054626
0.447745 0.117050 0.083994
0.457994 0.058110 0.073097
0.497442 -0.002097 0.038749
0.522008 0.019779 0.039860
0.477511 0.081066 0.007136
0.516296 0.010097 0.044345
0.506207 0.065632 0.022373
0.503684 0.116793 0.034641
0.437818 0.084379 0.016168
0.464402 0.131225 0.088778
0.446006 0.040814 0.045699
0.487133 0.069456 0.009498
0.503295 0.133632 0.046698
0.483032 0.058944 0.077184
0.479723 0.114520 0.014807
0.436963 0.104218 0.020142
0.473690 0.018399 0.051943
0.521959 0.012424 0.039255
0.491045 -0.003102 0.033003
0.428381 0.103646 0.038759
0.433479 0.107760 0.026016
0.461036 0.042409 0.064675
0.461650 0.115216 0.090124
0.433477 0.124004 0.066217
0.457727 0.074268 0.080920
0.475525 0.014774 0.049378
0.464879 0.022091 0.049475
0.504162 -0.006174 0.023027
0.521433 0.024404 0.040640
0.499184 0.006718 0.009745
0.430359 0.077498 0.043842
0.493080 0.024125 0.059473
0.504627 -0.000257 0.041458
0.494966 0.148778 0.053147
0.516782 0.096113 0.058095
0.463489 0.162214 0.044085
0.492458 0.133391 0.030362
0.448617 0.069282 0.007380
0.461884 0.136136 0.087200
0.484005 0.143736 0.029949
0.494960 0.059551 0.075158
0.462028 0.120605 0.013772
0.469159 0.045493 0.069865
0.468319 0.045733 0.004426
0.501215 0.126470 0.079745
0.513948 0.042532 0.024325
0.434429 0.091650 0.021795
0.468816 0.093061 0.089423
0.447358 0.037316 0.042665
0.439135 0.104256 0.076945
0.453221 0.135126 0.084380
0.443043 0.134755 0.077358
0.438177 0.065391 0.057564
0.458043 0.056366 0.072096
0.443512 0.151322 0.068456
0.449842 0.050791 0.062400
0.505499 0.078143 0.024538
0.518291 0.056670 0.045021
0.443366 0.120585 0.020383
0.474702 0.126994 0.017067
0.467579 0.071105 0.004589
0.506576 0.087968 0.078162
0.505055 0.072600 0.022733
0.463715 0.152033 0.030025
0.517566 0.075514 0.045496
0.492544 0.031437 0.007882
0.512692 0.077472 0.069541
0.470017 0.108494 0.091713
0.462943 0.027799 0.009856
0.459667 0.136809 0.086458
0.437683 0.145947 0.047371
0.452652 0.041026 0.010100
0.467888 0.159168 0.039328
0.446690 0.069714 0.008210
0.428438 0.109520 0.043047
0.493304 0.150984 0.064959
0.505352 0.048716 0.065719
0.456363 0.152846 0.079110
0.428420 0.110663 0.045473
0.451074 0.111910 0.085979
0.481508 0.105297 0.013143
0.433268 0.066194 0.036957
0.477391 0.162826 0.055177
0.452424 0.144077 0.026325
0.467706 0.068804 0.004389
0.464307 0.124506 0.089919
0.458478 0.053069 0.005196
0.487865 0.010174 0.050087
0.518138 0.059894 0.049300
0.436419 0.070624 0.017530
0.506241 0.090916 0.078846
0.443129 0.057318 0.012033
0.472600 0.088914 0.088651
0.462106 0.118411 0.013107
0.518204 0.055381 0.047121
0.429842 0.086976 0.031955
0.500961 0.052959 0.015099
0.464121 0.078417 0.005435
0.444699 0.044318 0.048027
0.439670 0.110370 0.019185
0.515626 0.039502 0.025186
0.518955 0.000140 0.021743
0.492645 0.069937 0.080076
0.519679 0.037518 0.042608
0.430776 0.124093 0.054712
0.448968 0.095563 0.083619
0.445732 0.155974 0.045897
0.465520 0.164713 0.066680
0.487446 0.000605 0.038410
0.439324 0.072864 0.065795
0.464426 0.142517 0.022762
0.478102 0.011739 0.047690
0.433404 0.070228 0.025179
0.471566 0.165001 0.062304
0.499287 0.056848 0.014728
0.510849 0.019111 0.051327
0.442163 0.150485 0.066734
0.508513 0.029835 0.056713
0.447486 0.068235 0.007857
0.444749 0.101828 0.013061
0.431727 0.114946 0.064529
0.435569 0.077094 0.018518
0.433801 0.100393 0.068752
0.499971 0.013968 0.052919
0.497857 0.126107 0.032053
0.438412 0.066985 0.015145
0.513639 0.023636 0.050876
0.470103 0.068913 0.004465
0.459084 0.147354 0.082763
0.451877 0.123907 0.085579
0.503791 0.137387 0.061981
0.499470 0.136888 0.042521
0.514920 0.064995 0.034722
0.430203 0.090249 0.030319
0.464860 0.164698 0.066751
0.469806 0.042135 0.068048
0.488756 0.136461 0.028753
0.486975 0.150660 0.076200
0.480185 0.121357 0.017051
0.456020 0.078135 0.006089
0.498358 0.030430 0.061561
0.473852 0.138096 0.087536
0.518268 0.069676 0.048096
0.508200 0.091672 0.077104
0.496582 0.029333 0.061508
0.446258 0.084038 0.078391
0.506171 0.080900 0.026020
0.435061 0.065338 0.022671
0.451326 0.149427 0.031187
0.446541 0.073944 0.074446
0.437391 0.071162 0.061193
0.480407 0.161365 0.060924
0.469137 0.143410 0.085859
0.468258 0.010097 0.018549
0.477683 0.155620 0.038377
0.492804 0.018756 0.007627
0.517352 0.061125 0.053938
0.505298 0.111375 0.079907
0.456575 0.038818 0.008712
0.432753 0.074696 0.025207
0.468249 0.084649 0.006304
0.481809 0.105121 0.013232
0.449451 0.034640 0.018721
0.456305 0.034030 0.054231
0.491421 0.085426 0.014527
0.460031 0.105969 0.089499
0.447033 0.047535 0.056369
0.450821 0.161332 0.050559
0.468781 0.064890 0.004097
0.466724 0.070099 0.004493
0.448560 0.034564 0.039796
0.434954 0.140789 0.053438
0.510939 0.064390 0.027966
0.483951 0.032003 0.005861
0.503888 0.100016 0.028602
0.458200 0.096424 0.008229
0.512548 0.089866 0.071737
0.472465 0.143147 0.085951
0.472960 0.042898 0.004451
0.504441 0.123730 0.077504
0.443329 0.109553 0.081423
0.501827 0.091955 0.024122
0.439342 0.050611 0.025075
0.437347 0.055130 0.038120
0.500093 0.047280 0.068124
0.431609 0.103086 0.028088
0.463273 0.013955 0.028974
0.463686 0.051656 0.071806
0.486296 0.147071 0.035124
0.442028 0.108180 0.016482
0.522627 0.004149 0.033038
0.512955 0.112150 0.066167
0.431294 0.127627 0.049302
0.430117 0.119246 0.042811
0.470652 0.097073 0.090443
0.482293 0.087749 0.009819
0.465630 0.039620 0.005700
0.451216 0.059279 0.069670
0.487159 0.026819 0.061275
0.456879 0.055185 0.070754
0.431257 0.117562 0.036415
0.466651 0.126382 0.089955
0.438251 0.066442 0.015492
0.446102 0.071793 0.073002
0.517151 0.090606 0.051677
0.495768 0.061574 0.013343
0.468526 0.055779 0.003816
0.469436 0.133448 0.018618
0.481892 0.000764 0.017325
0.510426 0.122538 0.056182
0.437805 0.072712 0.015279
0.470796 0.009432 0.016122
0.473479 0.146065 0.084635
0.518046 0.000986 0.036919
0.442280 0.044988 0.039735
0.513168 0.035376 0.020526
0.445176 0.115245 0.082547
0.515649 0.039163 0.052110
0.454370 0.055583 0.006032
0.452604 0.135274 0.084033
0.482688 0.121516 0.089712
0.516641 0.078579 0.062628
0.503507 0.067774 0.074680
0.445194 0.038818 0.034363
0.433452 0.081257 0.022599
0.508038 0.120402 0.044328
0.464973 0.122376 0.090325
0.465314 0.123243 0.014556
0.481708 0.014334 0.009028
0.444271 0.110042 0.082115
0.506724 0.130569 0.053045
0.454283 0.054072 0.006234
0.442216 0.048888 0.048207
0.518583 0.044106 0.034256
0.450563 0.147573 0.078592
0.468268 0.049830 0.004062
0.493018 0.014861 0.054119
0.440546 0.054716 0.016354
0.437641 0.078954 0.015661
0.486946 0.146381 0.035079
0.512364 0.090064 0.037713
0.469005 0.152732 0.031148
0.490623 0.135896 0.083688
0.447404 0.136149 0.024819
0.478122 0.045385 0.004542
0.500081 0.043258 0.066479
0.523095 0.019487 0.037212
0.435018 0.088310 0.020560
0.450238 0.158084 0.070341
0.514152 0.014743 0.013766
0.457315 0.065166 0.076633
0.518196 0.056793 0.042835
0.474279 0.124349 0.090425
0.462590 0.150883 0.028986
0.511062 0.094118 0.036871
0.449261 0.127956 0.019812
0.458313 0.039747 0.007680
0.458272 0.020828 0.036028
0.481498 0.059513 0.005921
0.515364 0.035431 0.022958
0.496279 0.136121 0.079472
0.451321 0.030618 0.039728
0.487303 0.018286 0.056107
0.476657 0.163075 0.054672
0.448931 0.152262 0.035842
0.460466 0.029255 0.010517
0.439156 0.071321 0.013730
0.427989 0.103101 0.050179
0.506342 0.007403 0.010599
0.494221 0.121267 0.086009
0.429162 0.084228 0.036960
0.518784 0.022085 0.020548
0.446378 0.074121 0.008443
0.487333 0.142378 0.082546
0.449204 0.037200 0.047750
0.492572 0.116496 0.087427
0.453720 0.028446 0.042300
0.514068 0.107691 0.051797
0.480149 0.002824 0.035638
0.435973 0.071258 0.018208
0.464891 0.138365 0.020539
0.510133 0.020662 0.013411
0.509605 -0.005589 0.025594
0.494535 -0.005836 0.023626
0.441504 0.118072 0.020764
0.505685 0.128744 0.071863
0.489303 0.152423 0.070785
0.443584 0.155408 0.050435
0.448792 0.104767 0.084808
0.483332 0.091360 0.088523
0.493550 0.125062 0.085495
0.498603 0.073521 0.017148
0.486114 0.109950 0.089912
0.504682 0.131903 0.048023
0.508135 0.107061 0.077195
0.446043 0.059114 0.064635
0.459578 0.067088 0.078484
0.466290 0.055110 0.074498
0.452118 0.152994 0.076710
0.481648 0.105678 0.013297
0.488497 0.090531 0.087315
0.475726 0.095774 0.009241
0.522538 0.020224 0.038608
0.462031 0.124879 0.015157
0.495988 0.043087 0.067858
0.475730 0.030288 0.005999
0.510432 0.114389 0.072125
0.485027 0.093459 0.088673
0.483919 0.080476 0.009369
0.509408 0.120267 0.071071
0.456053 0.153123 0.078808
0.475289 0.163334 0.064099
0.476819 0.012781 0.010771
0.445296 0.093235 0.080449
0.458854 0.149874 0.081559
0.432888 0.071454 0.026426
0.429119 0.113678 0.054027
0.522470 0.026570 0.035497
0.447733 0.136325 0.024677
0.522700 0.007655 0.021761
0.510272 0.030741 0.055782
0.466601 0.018638 0.012287
0.494758 0.092150 0.085743
0.433407 0.129582 0.040359
0.518090 -0.002188 0.027133
0.471632 0.082930 0.086860
0.434285 0.074361 0.021150
0.497746 0.145828 0.054658
0.521977 0.029263 0.033779
0.468834 0.126947 0.016023
0.454132 0.072848 0.005934
0.492982 -0.005389 0.022873
0.471360 0.014940 0.011797
0.429190 0.109891 0.038292
0.472125 0.107047 0.010938
0.431617 0.073646 0.045671
0.475723 0.163488 0.054799
0.503207 0.008727 0.049026
0.452941 0.027000 0.031834
0.486570 0.053072 0.007420
0.497085 0.135538 0.079031
0.507971 0.127869 0.053375
0.476774 0.126999 0.017659
0.498969 0.050871 0.070057
0.490924 0.124474 0.086810
0.493170 0.099370 0.087321
0.436499 0.143783 0.058183
0.487960 0.127646 0.023975
0.440208 0.101764 0.016346
0.478023 0.096052 0.009873
0.477285 0.036035 0.065932
0.435632 0.091067 0.019975
0.479183 0.008475 0.044486
0.481602 -0.000341 0.025846
0.465778 0.032605 0.059963
0.488256 0.099338 0.088859
0.509287 0.125168 0.064664
0.506449 0.131254 0.053271
0.442409 0.046317 0.044074
0.515520 0.060424 0.058371
0.461819 0.072456 0.004897
0.441296 0.092521 0.013904
0.489920 0.115471 0.021128
0.438468 0.140590 0.067820
0.513978 0.100429 0.045753
0.501119 -0.005140 0.034095
0.515721 0.098487 0.050519
0.516888 -0.000625 0.036032
0.492668 0.103597 0.019570
0.472624 0.119099 0.091240
0.488186 0.068383 0.080418
0.439453 0.049763 0.027695
0.514935 0.009355 0.013579
0.432519 0.120653 0.064945
0.511501 -0.005146 0.025684
0.428090 0.107580 0.046826
0.504741 -0.005591 0.020801
0.464025 0.130130 0.016965
0.430285 0.106221 0.061369
0.465780 0.092397 0.088855
0.512400 0.113328 0.067369
0.448453 0.059822 0.067685
0.436948 0.137362 0.038512
0.495584 0.022072 0.008176
0.505754 0.064785 0.071907
0.445424 0.156341 0.047531
0.470174 0.142754 0.086118
0.462373 0.026721 0.052357
0.486825 -0.002344 0.029229
0.479659 0.112245 0.091143
0.499413 0.015939 0.054150
0.436491 0.126947 0.031754
0.482801 0.152253 0.077383
0.431645 0.079724 0.027353
0.499389 0.066040 0.076186
0.517128 0.093291 0.055470
0.440003 0.139993 0.070999
0.459425 0.067218 0.004789
0.463697 0.157592 0.077347
0.480717 -0.000007 0.021960
0.447742 0.075149 0.007910
0.498189 0.017709 0.055329
0.459130 0.035445 0.008712
0.487213 0.087113 0.086776
0.446953 0.042109 0.050087
0.517306 0.077208 0.045037
0.514646 0.064821 0.034121
0.435629 0.081682 0.018760
0.497962 0.122887 0.083558
0.433817 0.070813 0.023392
0.473075 0.054250 0.003912
0.468700 0.043377 0.068487
0.511712 0.099539 0.072916
0.497264 0.109036 0.085834
0.464719 0.150751 0.082255
0.523594 0.018348 0.027453
0.508029 0.023042 0.054459
0.514209 0.103555 0.048537
0.515422 0.001431 0.039553
0.500313 0.093315 0.083314
0.488912 -0.003920 0.021714
0.513173 0.065644 0.031730
0.432571 0.068445 0.036493
0.500654 0.105906 0.026865
0.469141 0.144187 0.024161
0.509232 0.123444 0.068302
0.430550 0.091674 0.029293
0.469372 0.020850 0.009932
0.490682 0.034074 0.007434
0.473649 0.092393 0.089536
0.438368 0.051953 0.031735
0.475462 0.007254 0.039213
0.492629 0.123816 0.086214
0.510990 0.062318 0.065922
0.512793 0.115604 0.059516
0.501208 -0.004794 0.018191
0.451785 0.028609 0.027804
0.488638 0.102019 0.016466
0.509932 0.016833 0.012281
0.460504 0.017517 0.032762
0.489274 0.126961 0.086926
0.428897 0.085083 0.046100
0.473546 0.092578 0.089579
0.499803 0.045382 0.067470
0.512927 0.076459 0.034422
0.499851 0.057451 0.072386
0.441895 0.146551 0.038102
0.501373 0.127700 0.078974
0.460507 0.017084 0.025492
0.515826 0.099288 0.062919
0.458295 0.025933 0.014136
0.497456 0.115323 0.085296
0.500602 0.094680 0.023644
0.515280 0.078136 0.065587
0.465229 0.154266 0.032368
0.468283 0.135906 0.019583
0.436014 0.092282 0.070225
0.503056 0.122147 0.036592
0.459166 0.068326 0.004875
0.474291 0.132516 0.088891
0.428241 0.089494 0.040843
0.431724 0.126025 0.042920
0.469632 0.107319 0.091638
0.518797 0.047528 0.040622
0.434143 0.134970 0.043850
0.431644 0.075394 0.029286
0.494502 0.082315 0.083644
0.480426 0.021903 0.057437
0.470180 0.080902 0.086100
0.449393 0.066885 0.072965
0.479882 0.160427 0.066191
0.446317 0.070096 0.072270
0.504554 0.121873 0.038752
0.489221 0.127434 0.024797
0.483913 0.154979 0.043618
0.500304 0.093217 0.022989
0.436496 0.096134 0.019385
0.470646 0.131697 0.089169
0.477086 0.066328 0.080737
0.508018 0.126743 0.051384
0.464734 0.161009 0.041898
0.498672 0.021843 0.009013
0.443413 0.104197 0.014433
0.467303 0.101231 0.090758
0.511174 0.077981 0.071571
0.495301 -0.000037 0.013633
0.515660 0.082048 0.041787
0.463409 0.013649 0.026645
0.476640 0.056320 0.076269
0.459290 0.095476 0.007997
0.461281 0.046752 0.067753
0.436176 0.114796 0.073796
0.431167 0.107689 0.030626
0.453280 0.082620 0.082124
0.437150 0.066905 0.017072
0.430848 0.088751 0.058586
0.445486 0.120794 0.018966
0.493149 0.061422 0.076482
0.444034 0.089986 0.011471
0.467612 0.010473 0.019095
0.451509 0.159815 0.069131
0.491303 0.004610 0.045623
0.460731 0.147620 0.026424
0.474856 0.125194 0.090253
0.488279 0.109952 0.089343
0.471479 0.051782 0.003872
0.496519 0.069333 0.078676
0.490426 0.087619 0.086178
0.498770 -0.001585 0.039733
0.507087 0.073101 0.074091
0.483229 0.155968 0.044633
0.463843 0.027024 0.053874
0.494479 -0.004367 0.018164
0.482590 0.159885 0.054983
0.505929 0.132105 0.066248
0.468971 0.014056 0.043065
0.497885 0.144424 0.068772
0.493572 0.068594 0.079313
0.478694 0.002067 0.030501
0.432807 0.093677 0.024609
0.446933 0.035915 0.033271
0.429247 0.102342 0.057665
0.502206 0.094998 0.025319
0.461051 0.129694 0.016946
0.498157 -0.006290 0.022311
0.511150 0.118040 0.051387
0.475669 0.157305 0.039680
0.446581 0.037742 0.040354
0.486682 0.081352 0.010908
0.494392 0.079067 0.015231
0.481480 0.020731 0.056834
0.486787 0.132761 0.086405
0.511102 0.054058 0.062451
0.492374 0.100429 0.087704
0.440165 0.150730 0.048965
0.487878 0.066109 0.009483
0.489709 0.126101 0.024633
0.471081 0.062378 0.004042
0.441152 0.046156 0.027560
0.508508 0.086254 0.076122
0.510143 0.081482 0.073557
0.463006 0.014158 0.024422
0.491596 0.086484 0.014856
0.503861 0.022941 0.056327
0.480967 0.024461 0.059310
0.524442 0.014638 0.033039
0.459232 0.024892 0.013973
0.470134 0.091852 0.007626
0.452121 0.074185 0.006479
0.438481 0.141836 0.066960
0.443549 0.146403 0.072360
0.460727 0.129049 0.016733
0.519640 0.001444 0.020969
0.441109 0.046014 0.032002
0.437508 0.093269 0.017838
0.485398 0.050876 0.073334
0.463168 0.156934 0.035613
0.494090 0.013254 0.008193
0.491932 0.150053 0.070993
0.457061 0.069645 0.078681
0.493396 0.133298 0.083047
0.507602 0.129982 0.059821
0.494827 0.061734 0.012814
0.457605 0.147197 0.082347
0.460573 0.157548 0.076988
0.492743 0.050855 0.010131
0.431910 0.073403 0.029717
0.460348 0.121252 0.089348
0.485091 0.156020 0.047599
0.443079 0.150317 0.040636
0.430912 0.081674 0.029364
0.458384 0.093111 0.007700
0.444769 0.098159 0.012339
0.431457 0.095626 0.062935
0.438614 0.134980 0.033704
0.450754 0.147354 0.078827
0.451146 0.091373 0.008590
0.431770 0.085608 0.059337
0.439408 0.055152 0.048943
0.466522 0.161363 0.042806
0.467611 0.072637 0.004744
0.493547 0.100900 0.019487
0.479510 0.124925 0.017944
0.480568 0.001449 0.032226
0.435108 0.095466 0.021138
0.431281 0.104620 0.064105
0.446624 0.137612 0.026238
0.459213 0.063620 0.076647
0.487812 0.121871 0.088368
0.452964 0.094476 0.008623
0.502982 0.086550 0.023914
0.481988 0.047687 0.005357
0.506538 0.024182 0.012551
0.500797 0.066295 0.017512
0.504817 0.132274 0.069825
0.487967 0.125852 0.087610
0.437411 0.120525 0.074778
0.471107 0.150414 0.082421
0.514361 0.047023 0.026890
0.513951 0.091796 0.069539
0.493139 0.144175 0.040510
0.433648 0.113886 0.069367
0.429497 0.111055 0.057688
0.508210 -0.005909 0.029136
0.492568 0.148247 0.072966
0.513978 0.087274 0.069326
0.439687 0.122399 0.077250
0.469685 0.097871 0.090516
