ply
format ascii 1.0
element vertex 1024
property float x
property float y
property float z
end_header
0.584301 0.042110 0.027705
0.587950 -0.042841 0.025204
0.588629 -0.047895 0.026086
0.512244 0.073291 0.017665
0.537885 -0.048420 0.067141
0.563795 -0.000142 0.004642
0.516893 0.066152 0.010101
0.536668 0.026970 0.084669
0.565209 -0.054879 0.018023
0.543414 -0.011679 0.013512
0.509169 0.042830 0.066069
0.522108 0.085801 0.052142
0.544576 -0.036768 0.079562
0.519455 -0.019567 0.070232
0.505014 0.026779 0.061740
0.531873 -0.011682 0.021361
0.568790 -0.019676 0.010607
0.505641 0.068282 0.024957
0.565444 0.069765 0.012988
0.503314 0.030199 0.036376
0.522232 -0.018301 0.076101
0.562066 -0.078249 0.038614
0.534127 0.089102 0.016583
0.589765 -0.042664 0.051393
0.582380 -0.066747 0.020113
0.589338 0.015313 0.038803
0.565490 0.076493 0.027271
0.568386 0.059036 0.060619
0.581008 0.012227 0.067010
0.566415 0.075197 0.037090
0.536687 -0.020501 0.022378
0.506632 0.015974 0.039332
0.545726 -0.052162 0.072009
0.572687 -0.053123 0.069293
0.559577 0.048341 0.074777
0.565258 0.001715 0.081988
0.531710 -0.021794 0.028134
0.501580 0.041698 0.034467
0.566400 0.071999 0.047161
0.542030 -0.055363 0.062785
0.506356 0.072414 0.046992
0.536286 0.057786 0.074920
0.577780 0.037388 0.063219
0.502659 0.062640 0.045721
0.507621 0.070437 0.022456
0.501435 0.035581 0.044918
0.535915 -0.042380 0.072184
0.574915 0.028466 0.070706
0.522633 0.068198 0.007174
0.583952 -0.061729 0.020217
0.580964 -0.061349 0.018415
0.506813 0.046670 0.061265
0.554502 0.024796 0.083756
0.590326 0.000614 0.034402
0.502780 0.053723 0.050544
0.572663 0.011072 0.076559
0.547984 0.085142 0.051117
0.555594 0.066913 0.003338
0.573331 0.053902 0.058627
0.579414 0.034806 0.010423
0.541545 0.032862 0.083935
0.538001 -0.015415 0.084487
0.531960 -0.038837 0.070815
0.532224 0.054169 0.000705
0.522419 0.063225 0.068402
0.511280 0.066361 0.015182
0.521858 0.082018 0.014645
0.505701 0.074842 0.033789
0.505661 0.073801 0.042858
0.524426 0.044690 0.077089
0.565805 -0.072959 0.059267
0.524974 0.041563 0.078317
0.511131 0.007175 0.069740
0.526452 0.000873 0.019190
0.546066 -0.062080 0.054890
0.557150 0.084046 0.023045
0.576734 -0.014096 0.011979
0.586762 -0.032726 0.059559
0.511355 0.082606 0.028972
0.515258 0.026220 0.075390
0.579375 -0.030712 0.070053
0.511243 0.018767 0.025611
0.584819 -0.028863 0.063298
0.535681 -0.046816 0.064968
0.560638 -0.064677 0.023679
0.518001 -0.014838 0.042450
0.545587 -0.051996 0.034020
0.520225 0.063669 0.007326
0.515795 -0.011601 0.069861
0.572980 -0.025778 0.076352
0.541962 -0.048118 0.072615
0.502063 0.039077 0.034147
0.566387 0.057221 0.064810
0.507852 0.009105 0.062762
0.548838 0.086644 0.017755
0.559346 -0.039829 0.078662
0.560980 0.078430 0.045647
0.506760 0.022549 0.064803
0.509143 0.058915 0.015713
0.531811 -0.038560 0.042000
0.532688 0.094877 0.027796
0.580844 0.035033 0.059028
0.555675 0.058612 0.000279
0.580398 0.036810 0.012436
0.564172 0.010878 0.002042
0.566253 0.073730 0.043608
0.526539 0.038529 0.079803
0.515958 0.009436 0.076249
0.590899 -0.021957 0.034322
0.580986 0.049732 0.045487
0.571631 0.061702 0.052799
0.511214 0.056878 0.062983
0.520070 0.046807 0.006626
0.544871 0.081381 0.057551
0.543804 0.004537 0.006967
0.521494 -0.011900 0.032605
0.501699 0.062130 0.033166
0.557607 0.025503 -0.001010
0.564125 0.050040 0.000923
0.581795 0.044778 0.049084
0.570009 0.049280 0.066759
0.574598 0.049279 0.008959
0.587886 0.000951 0.053875
0.573947 0.036823 0.068612
0.563197 0.031905 0.079006
0.590088 -0.019998 0.030774
0.531923 0.000952 0.014664
0.529785 -0.035384 0.071631
0.576611 0.059008 0.045340
0.589036 -0.013162 0.027478
0.531627 0.081444 0.009866
0.573618 0.020502 0.003866
0.588125 -0.006141 0.054859
0.518260 -0.017924 0.046523
0.566377 0.058926 0.063238
0.500357 0.049518 0.040129
0.509799 0.050372 0.014881
0.589973 -0.012891 0.049014
0.560263 0.068188 0.060545
0.523648 -0.027143 0.044492
0.512979 0.069421 0.014684
0.542850 0.092668 0.026165
0.512318 0.019015 0.072393
0.546891 -0.027078 0.018426
0.523876 0.060648 0.004796
0.552968 -0.050249 0.024605
0.567987 -0.070572 0.060785
0.532521 -0.040181 0.069927
0.568345 -0.079108 0.028967
0.507244 0.014841 0.038506
0.538582 0.095217 0.032743
0.534023 0.089688 0.050765
0.533481 0.095641 0.031780
0.546686 0.062168 -0.000179
0.556021 0.085563 0.025721
0.542680 0.015143 0.086094
0.523502 -0.003582 0.024465
0.573985 -0.080778 0.040586
0.580250 0.022865 0.065464
0.591665 -0.041473 0.039904
0.579696 0.025825 0.009158
0.580267 0.045754 0.052446
0.554844 0.083106 0.046928
0.552122 0.052407 -0.001707
0.569831 -0.057378 0.068785
0.520216 -0.014093 0.036581
0.577063 0.039282 0.063353
0.506468 0.064521 0.053130
0.560877 -0.044986 0.076776
0.573332 0.058799 0.014000
0.566946 0.050762 0.002587
0.530849 0.064552 0.070535
0.562151 -0.047618 0.017655
0.504982 0.049681 0.022164
0.559515 0.081376 0.041758
0.585173 0.038698 0.026938
0.579629 -0.015522 0.071039
0.559538 0.083052 0.029703
0.589537 -0.002847 0.047933
0.531668 0.088000 0.052785
0.535624 -0.048616 0.051265
0.579682 0.054936 0.030746
0.560998 0.078934 0.044463
0.505035 0.035951 0.061305
0.542822 -0.047703 0.034268
0.589848 0.002691 0.030061
0.553052 -0.070686 0.042615
0.500408 0.054710 0.039350
0.587825 0.015144 0.022024
0.566000 -0.065362 0.020009
0.546674 0.078409 0.060020
0.517672 -0.019308 0.053854
0.504602 0.016424 0.051066
0.589821 0.002267 0.043906
0.549103 0.049158 -0.002302
0.562527 0.067619 0.007941
0.585334 0.033612 0.021870
0.540180 -0.033539 0.079958
0.523850 0.011376 0.016082
0.523798 -0.016487 0.033201
0.512117 0.026412 0.020193
0.509647 0.060739 0.015418
0.542994 0.051107 0.078144
0.512145 0.047457 0.012783
0.553262 0.032379 0.082665
0.536649 0.090043 0.018028
0.568573 -0.034747 0.077335
0.530770 0.024744 0.083794
0.549118 -0.013208 0.085342
0.564816 0.063433 0.060491
0.567896 0.041375 0.072554
0.558015 0.031029 -0.001568
0.566139 -0.073346 0.058798
0.522892 0.043270 0.005408
0.548691 0.091080 0.035735
0.511668 0.075892 0.052756
0.559140 -0.037593 0.079358
0.564189 0.013764 0.081626
0.576367 -0.031431 0.015028
0.548275 -0.002552 0.007956
0.524074 0.048131 0.004179
0.577986 -0.067697 0.018690
0.517601 0.062425 0.008698
0.586172 0.035324 0.039024
0.580814 -0.067744 0.054935
0.574131 -0.080667 0.041108
0.507330 0.036408 0.022134
0.566964 0.030130 0.000430
0.529477 -0.021992 0.030677
0.536851 0.055237 0.076175
0.583069 -0.022523 0.018551
0.558270 0.053114 0.073282
0.577449 -0.005710 0.073363
0.533354 0.046595 0.000280
0.557054 0.014308 0.084205
0.530387 -0.010031 0.083594
0.510631 0.060337 0.060849
0.518732 0.014443 0.019251
0.509440 0.001947 0.061985
0.578411 -0.044108 0.016688
0.510787 -0.002955 0.055978
0.528020 -0.019405 0.030385
0.506307 0.018346 0.062817
0.566220 0.021228 0.079673
0.503538 0.033971 0.057861
0.589520 -0.054028 0.048975
0.534535 0.091197 0.019496
0.590409 -0.002087 0.040812
0.529251 0.035014 0.003633
0.539224 0.026458 0.001584
0.564760 -0.079311 0.044850
0.546025 -0.025809 0.018364
0.571498 -0.030210 0.013358
0.554737 0.017557 0.000485
0.535452 0.085582 0.012753
0.548684 0.016098 0.085717
0.532406 0.073817 0.065242
0.548456 0.063921 0.071130
0.527478 0.076715 0.062225
0.552138 0.057921 -0.000659
0.590601 -0.061165 0.039297
0.574004 0.010383 0.005039
0.564343 0.051021 0.070697
0.529137 -0.039606 0.055198
0.564212 0.012797 0.081699
0.573954 0.063207 0.022745
0.574429 0.024580 0.072437
0.540088 0.028434 0.084736
0.537996 0.013616 0.085895
0.559850 -0.075607 0.050559
0.561321 0.001325 0.004201
0.566947 -0.064607 0.065698
0.523266 0.016238 0.081528
0.516849 0.085662 0.023091
0.587021 0.003745 0.056017
0.567398 0.051560 0.067942
0.588414 -0.038375 0.026210
0.580855 0.031628 0.060821
0.559366 -0.000135 0.004719
0.527197 -0.003766 0.083156
0.543060 -0.033789 0.080418
0.557033 -0.072193 0.055698
0.566387 0.075573 0.032998
0.530298 0.046866 0.001392
0.578299 0.041785 0.011017
0.531296 -0.039309 0.068867
0.536046 0.055956 -0.000201
0.585053 -0.020037 0.063329
0.569070 0.039989 0.001835
0.538181 0.075730 0.005302
0.590023 -0.064922 0.031799
0.528074 0.091931 0.046588
0.505015 0.059721 0.052904
0.551263 -0.067794 0.054271
0.518971 -0.021962 0.053671
0.509448 0.042537 0.016879
0.503362 0.040972 0.028558
0.540887 0.018018 0.085893
0.546098 -0.036037 0.023147
0.534168 0.066735 0.069917
0.580350 0.041155 0.056119
0.532989 -0.023040 0.081618
0.566531 0.029817 0.000281
0.538292 0.072050 0.066855
0.545696 0.084738 0.013372
0.569455 0.045403 0.002888
0.555076 0.003723 0.004092
0.564079 -0.009717 0.007384
0.551766 0.058852 0.073115
0.516945 -0.015621 0.068256
0.549243 -0.047737 0.026707
0.528477 -0.024681 0.033894
0.513682 0.037426 0.072450
0.564479 0.000576 0.082420
0.560239 0.001860 0.004086
0.587357 -0.035034 0.058157
0.559611 0.082645 0.035859
0.525225 0.083253 0.056266
0.586650 -0.027939 0.023327
0.563185 -0.012597 0.082925
0.587826 -0.034285 0.057230
0.539648 0.091985 0.022228
0.518850 0.091116 0.036214
0.500954 0.048491 0.045593
0.573152 0.066459 0.035671
0.569954 -0.015416 0.079452
0.548033 0.018296 0.001323
0.553869 -0.044684 0.021446
0.546942 0.085253 0.014521
0.551034 -0.066440 0.038963
0.532368 0.079974 0.008732
0.538042 0.019922 0.085563
0.515110 -0.013891 0.055800
0.537675 -0.047250 0.068621
0.580445 -0.028092 0.069245
0.537725 0.007469 0.008441
0.548571 0.035740 0.082782
0.535742 0.095655 0.032868
0.586833 0.033293 0.030908
0.522446 0.019828 0.080869
0.512444 0.051059 0.066692
0.515547 0.020894 0.075754
0.567756 0.067683 0.051462
0.547612 0.071732 0.065830
0.517790 0.053117 0.007719
0.569355 -0.073368 0.057756
0.580622 0.033725 0.011832
0.569362 -0.081084 0.038651
0.553762 -0.014665 0.084846
0.581564 -0.019477 0.016681
0.588298 -0.019663 0.056219
0.524327 0.028025 0.081060
0.566980 0.027932 0.000506
0.531765 0.021936 0.084335
0.535925 0.077304 0.062905
0.577382 0.005766 0.007803
0.534675 0.095740 0.033231
0.502765 0.030105 0.054690
0.572233 0.015795 0.003497
0.532022 0.092819 0.022352
0.503251 0.027451 0.039836
0.525097 0.059255 0.071436
0.568583 0.036791 0.073860
0.586178 -0.074336 0.036264
0.533938 -0.046194 0.059280
0.551647 0.074781 0.061111
0.588199 0.003688 0.023248
0.582038 -0.049048 0.018705
0.564449 0.003653 0.082254
0.549709 -0.054943 0.030820
0.534261 0.067707 0.069363
0.590145 -0.031170 0.050679
0.509858 0.001503 0.048486
0.586814 0.033579 0.032063
0.586628 0.032543 0.026952
0.544716 0.080391 0.008667
0.542125 -0.056795 0.047322
0.581385 -0.032570 0.017992
0.522537 -0.016163 0.034695
0.500873 0.042367 0.039134
0.508379 0.011396 0.038768
0.504775 0.049781 0.022543
0.575855 -0.017909 0.012410
0.546976 -0.044182 0.077002
0.544223 -0.059441 0.046281
0.563522 0.078802 0.034554
0.568754 -0.079941 0.030858
0.502673 0.040368 0.054093
0.567535 0.024853 0.078190
0.588938 -0.067893 0.029599
0.572421 -0.040741 0.073677
0.583902 -0.046900 0.020201
0.582827 0.008495 0.012670
0.528973 0.049874 0.001814
0.554339 0.058599 0.072318
0.577798 0.058892 0.038000
0.586234 0.007355 0.018161
0.501260 0.057259 0.043955
0.509487 0.030045 0.021835
0.512631 -0.002454 0.069353
0.500966 0.042033 0.038316
0.523476 0.038082 0.078658
0.508550 0.029430 0.023634
0.502430 0.029286 0.052048
0.535770 0.089750 0.017506
0.510064 0.067420 0.017072
0.551273 -0.061799 0.033709
0.571913 -0.005729 0.078275
0.560176 -0.062563 0.023368
0.583988 0.030648 0.054045
0.587540 -0.025728 0.058277
0.549796 -0.062045 0.036359
0.528866 0.093753 0.043010
0.584164 -0.013625 0.018669
0.514342 0.005062 0.030285
0.580170 -0.015427 0.014740
0.560797 0.066678 0.061585
0.578534 0.009257 0.070853
0.584863 -0.067495 0.050116
0.583868 -0.054392 0.019940
0.517606 -0.007728 0.035384
0.590093 -0.059039 0.029221
0.545358 -0.020313 0.016273
0.534220 0.029352 0.002718
0.512690 0.008921 0.072355
0.563882 0.076942 0.041928
0.558501 -0.015621 0.084018
0.527179 -0.018696 0.030804
0.537619 0.049442 -0.001005
0.588901 0.005920 0.047925
0.511125 0.023653 0.022888
0.507727 0.027773 0.066872
0.581050 -0.038171 0.066967
0.586354 -0.060878 0.022437
0.578471 -0.069569 0.055574
0.521615 0.038288 0.077695
0.510356 0.034418 0.069722
0.578572 -0.008765 0.072243
0.570839 0.064740 0.050196
0.538467 0.067429 0.069875
0.578585 0.026710 0.066646
0.580846 -0.042902 0.066148
0.574872 -0.034129 0.073512
0.574858 -0.080096 0.043039
0.582477 -0.049977 0.018989
0.556638 -0.074402 0.041307
0.537330 0.018192 0.085610
0.590767 -0.034372 0.048082
0.588509 -0.066364 0.043204
0.534587 0.067315 0.002419
0.566770 0.020024 0.001062
0.512204 0.081847 0.025684
0.520477 0.043992 0.006792
0.514384 -0.010626 0.066287
0.559776 0.080932 0.042343
0.513445 0.054549 0.011004
0.590316 0.002600 0.036361
0.502659 0.032532 0.037056
0.584123 -0.005618 0.064386
0.527153 -0.036638 0.055714
0.568566 0.059767 0.008127
0.558762 -0.040722 0.017343
0.513599 0.018570 0.073795
0.581394 0.043993 0.051093
0.557700 -0.020352 0.083536
0.557490 0.054561 0.072976
0.555269 0.080802 0.050323
0.546429 0.079557 0.058887
0.556422 0.012692 0.084500
0.578398 0.007292 0.071266
0.532048 0.089149 0.051462
0.569950 -0.000102 0.079409
0.541886 -0.008547 0.012924
0.572103 -0.019896 0.011399
0.503041 0.040164 0.055319
0.506514 0.036467 0.023566
0.516651 -0.014974 0.047670
0.584560 0.025235 0.016211
0.542475 -0.013984 0.014989
0.504286 0.066450 0.026974
0.564559 -0.003594 0.005637
0.542962 -0.052848 0.038670
0.583167 0.010773 0.012925
0.577375 0.057825 0.044982
0.537685 -0.047874 0.067666
0.558223 0.081675 0.044061
0.514342 0.075886 0.055704
0.529510 -0.034129 0.072684
0.510600 0.075937 0.021973
0.514373 -0.009401 0.068045
0.522927 0.045290 0.076230
0.543426 0.075247 0.004890
0.589578 -0.013566 0.029108
0.544324 0.092470 0.040541
0.524552 0.047423 0.076199
0.565582 0.062495 0.060554
0.513988 0.014645 0.024177
0.536852 0.004651 0.085825
0.525534 0.084357 0.014165
0.501121 0.060668 0.039663
0.517461 -0.017043 0.048318
0.567604 0.071844 0.044497
0.521985 -0.027719 0.062422
0.586886 -0.049401 0.056389
0.574437 -0.015084 0.011041
0.519122 -0.001696 0.078592
0.583844 0.028132 0.015603
0.521757 -0.017171 0.076173
0.583515 0.039215 0.048903
0.503007 0.030344 0.037645
0.574426 -0.019954 0.012225
0.522998 0.020604 0.081117
0.542770 -0.033241 0.024470
0.513387 -0.007570 0.048476
0.558700 -0.011232 0.084355
0.505146 0.031856 0.062101
0.561233 -0.043268 0.016954
0.575389 -0.078931 0.026955
0.589638 0.014280 0.035629
0.578287 -0.037546 0.016373
0.527700 0.062627 0.070702
0.569657 0.048074 0.067810
0.511250 0.081709 0.044567
0.531311 0.094319 0.026173
0.580595 -0.062981 0.058408
0.560801 0.022675 0.082036
0.502118 0.054763 0.028557
0.581371 -0.046891 0.064563
0.525040 0.002366 0.082621
0.529139 0.091011 0.019838
0.540370 -0.029736 0.024628
0.590869 -0.046775 0.032164
0.530517 0.087939 0.052755
0.590452 -0.034579 0.031401
0.514904 -0.011010 0.067766
0.504812 0.020490 0.059460
0.540229 0.059395 0.074382
0.517074 0.004442 0.077291
0.550461 0.048646 0.078084
0.591245 -0.047742 0.044256
0.526481 0.037364 0.004539
0.519125 -0.006389 0.077658
0.589418 -0.043841 0.027949
0.518169 -0.017488 0.046067
0.550522 0.088938 0.040434
0.560534 0.072234 0.055613
0.549443 0.059831 -0.000573
0.531570 0.051101 0.000821
0.558802 -0.017009 0.010179
0.520341 0.022495 0.079419
0.531190 0.094498 0.026800
0.584116 -0.009479 0.064685
0.516762 0.046698 0.008936
0.551474 0.081889 0.012482
0.510389 0.030388 0.020423
0.511749 -0.005552 0.056182
0.591494 -0.029315 0.041310
0.562690 0.079878 0.030613
0.569411 -0.007439 0.007373
0.582587 0.027463 0.013276
0.591390 -0.029840 0.043328
0.569093 0.036489 0.073552
0.542227 -0.005670 0.011560
0.525355 -0.003362 0.082412
0.502815 0.067780 0.039531
0.569911 0.026010 0.076207
0.556964 0.019492 0.083756
0.531972 0.085161 0.012694
0.557703 0.084687 0.032914
0.554008 -0.059910 0.070088
0.514042 0.070139 0.013975
0.548028 -0.063733 0.042768
0.577719 -0.011630 0.012009
0.576081 0.046130 0.009571
0.530341 -0.037599 0.069607
0.523041 0.006305 0.081688
0.512760 -0.002883 0.042621
0.514223 0.014466 0.023972
0.538679 -0.034611 0.079090
0.571624 -0.019716 0.078027
0.526194 -0.003834 0.022036
0.573636 0.057025 0.054799
0.565266 -0.005072 0.082274
0.514540 0.087248 0.038665
0.519125 -0.020743 0.048629
0.516737 -0.015664 0.048796
0.556693 -0.024340 0.082960
0.520931 0.075101 0.060884
0.552065 -0.019809 0.013113
0.538518 -0.051281 0.046156
0.535948 0.012247 0.007452
0.506706 0.010385 0.048155
0.579930 0.022320 0.009097
0.558844 0.083711 0.029930
0.529670 -0.040131 0.052391
0.568677 0.055606 0.005759
0.560390 0.060176 0.067899
0.534796 0.003788 0.011505
0.534716 -0.015660 0.083866
0.543575 -0.005104 0.086026
0.590743 -0.012362 0.034827
0.513536 0.031918 0.073366
0.560016 -0.050453 0.074874
0.581701 0.001826 0.067615
0.517209 0.059299 0.008470
0.504382 0.028144 0.060282
0.584567 -0.071005 0.023782
0.566066 0.038350 0.000234
0.521714 0.062887 0.068228
0.519206 0.052980 0.071282
0.581153 0.047427 0.048152
0.518551 -0.001946 0.029028
0.529999 -0.040539 0.060500
0.573146 0.010222 0.076247
0.589523 -0.029815 0.052903
0.577390 0.005931 0.072561
0.514690 0.048214 0.069890
0.567536 0.072882 0.041681
0.519603 -0.006642 0.078045
0.569420 0.023607 0.077150
0.563586 0.012208 0.001701
0.536221 -0.025570 0.026064
0.522555 -0.028504 0.051969
0.503695 0.043920 0.026446
0.560691 -0.071641 0.060486
0.552430 0.042927 -0.002434
0.516713 -0.001347 0.076264
0.552908 -0.062245 0.067616
0.556797 0.085298 0.027794
0.587914 -0.070712 0.029679
0.550556 -0.014069 0.085180
0.558193 -0.048397 0.019991
0.559551 0.065076 0.064383
0.584679 -0.030630 0.020904
0.520498 -0.024212 0.065485
0.554731 0.080908 0.050795
0.573921 0.064815 0.028449
0.577861 0.007441 0.007891
0.588970 0.007260 0.025527
0.549278 -0.022553 0.083837
0.518287 0.010421 0.078402
0.542366 0.036004 -0.001179
0.569022 0.070082 0.044672
0.503194 0.034347 0.033209
0.547880 -0.064131 0.054787
0.561058 0.060695 0.066956
0.545354 0.049084 -0.002220
0.521269 -0.025369 0.066116
0.556265 -0.006694 0.085107
0.568037 -0.035736 0.013921
0.544382 0.089162 0.047666
0.525139 -0.033344 0.054296
0.589924 -0.044745 0.050570
0.525826 -0.016673 0.080085
0.514430 0.004142 0.074317
0.517639 0.058540 0.008098
0.550353 0.006193 0.004328
0.506487 0.066312 0.021986
0.565069 0.072153 0.015264
0.501639 0.054458 0.046839
0.530205 -0.039226 0.046758
0.590970 -0.016542 0.035990
0.582008 -0.056171 0.018654
0.514072 0.015018 0.074224
0.532827 0.094146 0.043159
0.561106 -0.069288 0.025229
0.578498 0.017071 0.069555
0.570134 -0.020819 0.011131
0.570963 0.069563 0.035374
0.503538 0.065251 0.028266
0.547585 0.009521 0.004017
0.501206 0.044695 0.047227
0.529564 -0.037727 0.067527
0.561862 -0.040068 0.078152
0.526558 -0.027452 0.038949
0.560903 -0.047710 0.018282
0.562948 0.068963 0.009336
0.559048 -0.028365 0.081751
0.588599 -0.039531 0.054974
0.524785 0.084500 0.014688
0.504991 0.072982 0.041441
0.536949 -0.045734 0.069556
0.516331 -0.003588 0.075269
0.531610 0.043406 0.079882
0.559146 -0.075131 0.034553
0.574122 0.060062 0.017306
0.528264 0.020852 0.083413
0.565284 -0.060948 0.019370
0.512674 -0.005496 0.066847
0.560473 0.077862 0.015916
0.562677 -0.018452 0.082592
0.576838 0.057112 0.020686
0.562854 -0.029537 0.080643
0.555782 0.027420 -0.001317
0.575193 -0.060691 0.064014
0.519320 -0.000728 0.078885
0.502034 0.050081 0.029241
0.557215 -0.063501 0.026864
0.578398 -0.079674 0.038155
0.572480 -0.077215 0.051938
0.503871 0.038673 0.057968
0.562091 0.056829 0.002068
0.546730 0.080218 0.008939
0.514795 0.083925 0.047405
0.566851 0.056454 0.064968
0.585473 0.038645 0.038086
0.571925 0.063178 0.016546
0.535414 -0.014342 0.019857
0.579829 0.054330 0.029291
0.539874 0.048287 -0.001505
0.576321 0.040507 0.008040
0.567375 0.008905 0.080381
0.579959 0.019039 0.067057
0.583356 0.005409 0.064394
0.540969 0.092460 0.044084
0.514005 0.015006 0.023938
0.586248 0.036128 0.033408
0.512870 0.006122 0.032268
0.582753 -0.054745 0.019116
0.502101 0.036803 0.035776
0.591061 -0.015043 0.040043
0.536987 -0.050691 0.054394
0.569579 0.043705 0.002655
0.585225 0.040082 0.035811
0.521617 -0.008689 0.029964
0.565957 0.048404 0.001425
0.543860 0.092633 0.040689
0.532444 0.089574 0.017217
0.548626 -0.063432 0.060107
0.566819 0.045468 0.071565
0.548378 0.090541 0.039606
0.525468 0.004123 0.082856
0.530915 0.053907 0.075735
0.577433 -0.050868 0.016544
0.501538 0.054460 0.046453
0.573388 -0.073479 0.020890
0.589778 -0.034684 0.029324
0.544603 -0.055313 0.067782
0.586016 0.035237 0.026817
0.513777 0.059735 0.064314
0.580763 -0.078100 0.029331
0.584148 0.033538 0.051610
0.520107 0.003708 0.079801
0.537904 0.064886 0.001074
0.574698 -0.049303 0.015826
0.503950 0.037333 0.028876
0.513247 -0.009634 0.059735
0.571199 -0.076827 0.053116
0.547063 -0.059809 0.064574
0.518875 0.043139 0.074723
0.508672 0.017311 0.031961
0.540856 0.015519 0.086033
0.524456 0.085134 0.015430
0.590958 -0.054809 0.042505
0.554168 -0.035596 0.080366
0.531955 -0.033383 0.036681
0.563037 0.068066 0.008727
0.547106 0.046665 -0.002398
0.507618 0.036259 0.021727
0.590618 -0.008135 0.034907
0.572552 0.063943 0.019373
0.583958 0.042468 0.026025
0.524249 0.079536 0.059097
0.516022 0.037157 0.012032
0.506381 0.023102 0.064165
0.513960 0.006109 0.030132
0.586935 -0.017435 0.059550
0.512608 0.016916 0.072619
0.580250 -0.051442 0.064227
0.568436 -0.068412 0.062357
0.579883 -0.020437 0.070552
0.583894 0.044357 0.030814
0.558363 0.049492 -0.001071
0.545189 0.049837 -0.002168
0.553801 -0.010894 0.085223
0.581319 -0.009654 0.014585
0.514713 -0.012305 0.052590
0.508379 0.013870 0.065995
0.519126 0.025046 0.014007
0.534465 0.080997 0.059752
0.553511 0.018412 0.000406
0.583139 -0.073179 0.047089
0.558934 0.018645 0.000142
0.587477 -0.072219 0.031181
0.523446 0.013620 0.015332
0.573353 0.065922 0.038837
0.589295 0.014202 0.040350
0.537364 -0.015144 0.084431
0.563384 -0.074112 0.026335
0.538470 0.064220 0.071738
0.578837 -0.079712 0.036257
0.526895 0.045550 0.077762
0.572858 -0.080811 0.041981
0.502079 0.041624 0.032374
0.540668 0.050862 0.078278
0.580305 0.043887 0.054057
0.566463 0.040054 0.000514
0.570414 0.010389 0.078338
0.509994 0.064564 0.058080
0.547937 -0.061338 0.039123
0.588443 0.002868 0.024078
0.512425 0.082877 0.044960
0.558494 0.084009 0.032215
0.574745 -0.028238 0.074652
0.573684 -0.069730 0.058687
0.578103 0.058406 0.034662
0.591340 -0.045354 0.044270
0.508297 0.052641 0.061129
0.550647 0.084802 0.015974
0.522514 0.011844 0.081288
0.589806 0.007507 0.030161
0.565757 0.016300 0.001338
0.537902 0.081652 0.058989
0.516087 -0.016203 0.056603
0.542949 0.093869 0.031848
0.564683 -0.069784 0.062506
0.512180 -0.005212 0.065151
0.591282 -0.043001 0.044964
0.532460 -0.041058 0.068401
0.586819 0.033292 0.035701
0.562037 -0.012648 0.083321
0.563392 -0.002322 0.005228
0.558276 -0.017379 0.010407
0.515414 0.008415 0.075686
0.572407 0.059355 0.012927
0.523371 0.001902 0.081780
0.524570 -0.030838 0.048290
0.583668 -0.007955 0.065345
0.576735 0.031248 0.006704
0.579870 0.048928 0.018679
0.550300 0.090209 0.033963
0.574174 -0.061938 0.017186
0.591156 -0.041278 0.033871
0.554702 0.022331 -0.000488
0.589259 -0.068442 0.032336
0.585026 0.033722 0.020914
0.568426 -0.075169 0.056219
0.555446 -0.017480 0.011147
0.535325 0.006494 0.085629
0.531097 0.017158 0.008172
0.503992 0.055713 0.023808
0.562204 0.049797 0.000096
0.518965 0.023121 0.078458
0.542449 -0.055242 0.064111
0.540957 -0.050392 0.039424
0.583151 0.042324 0.046856
0.539649 -0.011096 0.085261
0.575123 -0.054113 0.067345
0.572796 0.062692 0.017933
0.585777 -0.003343 0.019215
0.558844 0.038109 -0.001760
0.569259 -0.080546 0.044610
0.549687 -0.035897 0.080306
0.520254 0.011765 0.019170
0.557753 -0.067227 0.028210
0.561036 -0.044965 0.076755
0.571158 0.066492 0.020062
0.535747 0.026027 0.084672
0.583082 0.042526 0.046894
0.590875 -0.014208 0.035657
0.553259 -0.007002 0.008029
0.590181 -0.001675 0.032152
0.507279 0.070935 0.050262
0.567439 0.060397 0.007445
0.554924 -0.048822 0.075861
0.569366 0.025249 0.001543
0.540824 -0.046278 0.073234
0.576876 0.053929 0.016255
0.532910 0.006151 0.011631
0.580213 0.008815 0.009730
0.505830 0.069097 0.025134
0.503189 0.046734 0.026806
0.555703 0.041979 0.079041
0.533527 0.034956 0.001733
0.515632 -0.015165 0.056474
0.566282 0.075715 0.032325
0.529196 0.027381 0.083006
0.516973 0.058368 0.067469
0.577683 0.056890 0.045733
0.572200 -0.029843 0.013454
0.514794 0.065782 0.062272
0.525966 0.009119 0.083060
0.588170 0.025992 0.030147
0.586293 -0.034191 0.060295
0.583907 0.031811 0.053547
0.572348 0.018659 0.075785
0.536765 0.087024 0.014258
0.569546 0.021773 0.077431
0.535938 0.035403 0.000747
0.517183 0.037070 0.011054
0.520625 0.070622 0.009167
0.532860 0.004674 0.012320
0.510262 0.020700 0.069985
0.565815 0.076032 0.036029
0.587237 0.015283 0.051402
0.545860 0.044748 -0.002338
0.511164 0.079482 0.024631
0.549640 -0.061869 0.036458
0.504643 0.023468 0.060078
0.578757 0.051890 0.049869
0.584280 0.012541 0.014448
0.561667 -0.077304 0.047796
0.558118 0.000595 0.004620
0.558165 -0.051863 0.074519
0.587357 0.004799 0.054629
0.507208 0.009213 0.047438
0.579520 -0.003681 0.070958
0.549585 0.062652 0.071633
0.513712 0.037126 0.072551
0.574920 0.035402 0.068061
0.520464 -0.005229 0.079132
0.545603 0.034650 0.083384
0.502337 0.039151 0.053078
0.590173 0.005249 0.037585
0.508100 0.009906 0.063981
0.554141 -0.059175 0.070635
0.531432 0.094722 0.041210
0.586295 -0.057063 0.054481
0.502130 0.061713 0.030749
0.570632 0.070056 0.034523
0.579957 0.053540 0.027199
0.525093 -0.032557 0.050616
0.589785 0.012170 0.032043
0.587014 0.032662 0.032461
0.585884 -0.066909 0.048848
0.587296 0.010614 0.020284
0.520901 0.072107 0.009607
0.576354 -0.027606 0.073401
0.567133 -0.078585 0.050701
0.528064 0.080536 0.010329
0.555920 0.056910 -0.000122
0.573800 -0.044968 0.071571
0.550735 0.070445 0.003450
0.589795 0.012558 0.035124
0.570642 -0.063448 0.064889
0.514736 0.022020 0.075003
0.550025 -0.025944 0.083069
0.538760 0.046058 0.080049
0.534689 0.006839 0.010274
0.501389 0.041960 0.035280
0.572566 -0.079097 0.048547
0.550337 0.036655 -0.002240
0.513900 0.072670 0.015449
0.555303 -0.020917 0.083779
0.523380 -0.007873 0.027319
0.530270 -0.009574 0.021575
0.586555 -0.035722 0.059636
0.567610 0.071733 0.020293
0.586202 -0.012006 0.021464
0.583626 0.043736 0.026453
0.514466 0.080092 0.051980
0.528757 -0.021706 0.031265
0.517728 0.035750 0.011037
0.520769 -0.023440 0.047355
0.539216 -0.018659 0.084081
0.584053 0.022347 0.014719
0.584264 0.016696 0.014482
0.555916 -0.052404 0.074400
0.526095 -0.002825 0.021556
0.591619 -0.039466 0.038040
0.587018 -0.031263 0.059179
0.580776 -0.062589 0.018480
0.541380 -0.047460 0.072701
0.511482 0.003377 0.038576
0.512593 -0.007762 0.061217
0.533213 0.081632 0.059187
0.537460 0.086864 0.053683
0.501376 0.041391 0.035773
0.574379 -0.078366 0.025758
0.543107 -0.016636 0.084805
0.510391 0.017297 0.069814
0.589564 -0.003303 0.047963
0.506951 0.073401 0.026590
0.551149 -0.068411 0.043555
0.548637 0.077688 0.007348
0.578357 0.021894 0.068538
0.566376 0.068988 0.013497
0.551710 0.051632 -0.001862
0.535428 -0.025464 0.026805
0.549803 0.088960 0.041801
0.541761 0.094409 0.034709
0.536982 -0.035432 0.032108
0.527234 0.007581 0.083561
0.567313 0.069773 0.049211
0.523980 0.073129 0.008286
0.508263 0.075045 0.048227
0.523242 0.014630 0.081583
0.507663 0.007292 0.049052
0.505702 0.017042 0.060604
0.546715 0.042393 0.081070
0.507290 0.059846 0.056668
0.544730 0.089044 0.047598
0.507074 0.007988 0.056493
0.547809 0.032137 0.083721
0.553523 -0.000383 0.085656
0.512316 0.079788 0.022981
0.516165 -0.013615 0.047134
0.524735 0.011095 0.015435
0.509501 0.033990 0.019946
0.572925 -0.063590 0.063611
0.511656 0.021311 0.071754
0.543979 0.050586 0.078297
0.502041 0.056561 0.047260
0.579690 0.015318 0.068330
0.574080 0.063241 0.023381
0.506348 0.010187 0.053741
0.537168 -0.001149 0.012268
0.531072 -0.037818 0.042494
0.553993 -0.060082 0.028861
0.539329 -0.020790 0.020367
0.558627 0.059038 0.001363
0.571831 0.066199 0.021755
0.548433 0.067662 0.068652
0.552413 0.088473 0.028177
0.559253 -0.035799 0.015777
0.577637 0.022557 0.006815
0.525020 0.057802 0.003893
0.545402 0.060363 0.073658
0.535270 0.053362 0.076813
0.581196 -0.077908 0.040067
0.551270 0.076960 0.007664
0.579320 0.018632 0.008320
0.550454 0.069884 0.066248
0.580612 0.048367 0.048784
