ply
format ascii 1.0
element vertex 1024
property float x
property float y
property float z
end_header
0.557213 0.152103 0.084194
0.574016 0.077599 0.046737
0.574231 0.072675 0.045157
0.535949 0.210624 0.035321
0.518407 0.079960 0.012119
0.577723 0.130377 0.041241
0.545684 0.204848 0.034025
0.490110 0.140704 0.050872
0.574402 0.078257 0.020034
0.564081 0.125740 0.020757
0.494987 0.170895 0.030416
0.505753 0.207292 0.058115
0.507536 0.083730 0.026346
0.504511 0.111376 0.010836
0.499990 0.159882 0.018278
0.552738 0.127942 0.012928
0.577041 0.109650 0.037772
0.527656 0.206696 0.029183
0.559758 0.187972 0.077566
0.522223 0.171109 0.012148
0.499896 0.109625 0.015241
0.557941 0.053033 0.011500
0.542285 0.216053 0.061020
0.550506 0.069204 0.054860
0.580437 0.060547 0.029520
0.552945 0.123514 0.078622
0.545570 0.189529 0.084313
0.518587 0.163245 0.086839
0.524468 0.115683 0.077118
0.537053 0.185101 0.086925
0.554887 0.118076 0.013114
0.522891 0.156556 0.009007
0.517297 0.072159 0.018211
0.529554 0.061501 0.039921
0.504066 0.153194 0.077866
0.506689 0.108283 0.062554
0.548011 0.117196 0.009719
0.521577 0.182355 0.015610
0.528265 0.179317 0.087908
0.524976 0.073595 0.011286
0.506965 0.203414 0.037201
0.494169 0.170545 0.062612
0.522901 0.139952 0.085268
0.508338 0.196760 0.029161
0.530331 0.208535 0.031253
0.512847 0.173972 0.015207
0.512121 0.084477 0.014541
0.516369 0.131091 0.080506
0.550108 0.205238 0.039123
0.580122 0.064255 0.033235
0.580659 0.066303 0.030436
0.497978 0.176597 0.029032
0.497643 0.132052 0.064730
0.559636 0.111668 0.071457
0.505323 0.187522 0.026269
0.512876 0.115116 0.071877
0.516017 0.196818 0.079469
0.565584 0.192265 0.065486
0.522982 0.157429 0.088120
0.572530 0.152853 0.072331
0.491608 0.144119 0.057590
0.497339 0.103404 0.032035
0.511423 0.089525 0.012516
0.561664 0.191199 0.039047
0.494389 0.182690 0.051804
0.538970 0.205725 0.030631
0.540801 0.215318 0.046816
0.518520 0.209730 0.034510
0.510312 0.206130 0.036239
0.489980 0.163196 0.046949
0.539421 0.049978 0.022281
0.489530 0.159896 0.046248
0.497843 0.138042 0.016232
0.550857 0.141640 0.013698
0.534732 0.068527 0.009587
0.545318 0.200645 0.079748
0.577739 0.110954 0.047464
0.540367 0.076582 0.059014
0.523767 0.215687 0.041753
0.491149 0.151272 0.030081
0.527754 0.078108 0.056309
0.536742 0.161267 0.010820
0.535630 0.079587 0.060112
0.519375 0.082872 0.010467
0.569084 0.069856 0.012962
0.528856 0.124366 0.004930
0.552224 0.083719 0.008740
0.549813 0.202206 0.034992
0.502311 0.119852 0.011388
0.518905 0.083033 0.054775
0.514769 0.076976 0.017073
0.522452 0.179984 0.014708
0.514296 0.161203 0.085333
0.502805 0.143100 0.012629
0.546828 0.207763 0.072616
0.514103 0.075512 0.037195
0.526731 0.187495 0.085964
0.498446 0.154601 0.018530
0.538876 0.199940 0.025453
0.537877 0.098441 0.005367
0.530544 0.218285 0.065298
0.528221 0.137950 0.085715
0.569721 0.185935 0.060893
0.570715 0.153604 0.074607
0.578540 0.140581 0.046094
0.531218 0.181941 0.087716
0.489189 0.156198 0.046517
0.493214 0.136156 0.022998
0.563422 0.091854 0.061314
0.538463 0.154716 0.089383
0.526534 0.166620 0.088900
0.496377 0.183217 0.037985
0.553023 0.187826 0.026762
0.509565 0.192854 0.076661
0.567732 0.141634 0.027084
0.538715 0.128485 0.006825
0.519644 0.200450 0.024991
0.576741 0.156791 0.046649
0.573470 0.174961 0.064182
0.536207 0.149016 0.088633
0.515024 0.152292 0.085153
0.569915 0.167766 0.074691
0.540772 0.107100 0.074383
0.516655 0.139360 0.083094
0.504012 0.136220 0.074257
0.566097 0.094937 0.060668
0.556964 0.140903 0.017246
0.509359 0.093139 0.012499
0.535599 0.164545 0.090000
0.567697 0.102278 0.062171
0.548773 0.212393 0.053635
0.578730 0.144671 0.059072
0.541053 0.100549 0.071497
0.525675 0.120365 0.004710
0.515475 0.163158 0.085736
0.514710 0.187939 0.019655
0.541204 0.192507 0.021787
0.548145 0.095703 0.068438
0.514339 0.174423 0.084242
0.530898 0.110836 0.004437
0.539559 0.207863 0.033384
0.536010 0.212844 0.072463
0.493983 0.147068 0.023460
0.563185 0.109519 0.017685
0.553914 0.198897 0.036037
0.563257 0.085141 0.013476
0.538430 0.050738 0.025628
0.512650 0.088401 0.012140
0.569200 0.052696 0.014020
0.524047 0.155578 0.008788
0.528032 0.214776 0.071679
0.510662 0.206381 0.069692
0.527037 0.217444 0.067318
0.566388 0.192708 0.054837
0.542215 0.201608 0.080170
0.492776 0.127630 0.050760
0.545638 0.137355 0.010415
0.560763 0.045545 0.020897
0.523970 0.125687 0.081092
0.561583 0.072926 0.054177
0.575192 0.145316 0.068036
0.532414 0.149462 0.088632
0.522637 0.193595 0.083283
0.571249 0.182540 0.054475
0.529666 0.059082 0.035377
0.534937 0.125896 0.005699
0.522228 0.141841 0.085583
0.502577 0.194676 0.035111
0.517187 0.070992 0.035600
0.563340 0.175029 0.079344
0.572830 0.173978 0.067324
0.495221 0.179881 0.060097
0.572523 0.085883 0.020765
0.532884 0.191629 0.019190
0.529334 0.191796 0.085143
0.558761 0.149023 0.083139
0.524576 0.090911 0.063908
0.540189 0.196848 0.082957
0.547425 0.104925 0.072522
0.508224 0.205239 0.067406
0.532260 0.085429 0.006170
0.550773 0.164160 0.087065
0.527749 0.188280 0.085922
0.498973 0.167973 0.022498
0.550343 0.088466 0.008477
0.563143 0.114959 0.070951
0.549868 0.061965 0.008413
0.514639 0.192663 0.021945
0.567892 0.128981 0.073095
0.574482 0.068242 0.016270
0.508393 0.188823 0.077404
0.518926 0.117202 0.005381
0.511286 0.154239 0.010412
0.550443 0.110462 0.074166
0.571227 0.181086 0.050243
0.563703 0.188767 0.072833
0.564278 0.146057 0.079626
0.505103 0.088151 0.024238
0.551162 0.152721 0.015659
0.539699 0.123413 0.006769
0.540858 0.169185 0.013808
0.539044 0.201413 0.026664
0.494626 0.161132 0.065955
0.544426 0.189676 0.021883
0.497028 0.139457 0.066973
0.541706 0.215444 0.063957
0.517823 0.076685 0.047070
0.489162 0.141357 0.044613
0.500168 0.100680 0.042702
0.516750 0.168512 0.085850
0.510160 0.144524 0.081087
0.576542 0.161599 0.049453
0.540033 0.049651 0.022265
0.555700 0.184004 0.027188
0.529520 0.206299 0.079039
0.503007 0.202617 0.044767
0.513041 0.077328 0.038244
0.504770 0.119283 0.067221
0.577493 0.095125 0.039763
0.569514 0.133414 0.027785
0.556498 0.188129 0.030168
0.580331 0.061880 0.024998
0.547807 0.201751 0.032525
0.548505 0.142084 0.085399
0.547950 0.049885 0.036370
0.560317 0.045427 0.021202
0.535811 0.179178 0.014933
0.578029 0.156689 0.057107
0.544903 0.117144 0.008365
0.493610 0.167732 0.062204
0.575251 0.099167 0.050501
0.504236 0.158303 0.078631
0.520134 0.099602 0.067250
0.563636 0.184299 0.036339
0.499767 0.121799 0.062074
0.494612 0.111353 0.027895
0.497597 0.187090 0.038586
0.545942 0.156457 0.013552
0.505199 0.136486 0.010416
0.578661 0.082807 0.035948
0.511975 0.133492 0.007763
0.544252 0.120053 0.008275
0.500769 0.151722 0.015677
0.506134 0.125551 0.071966
0.501921 0.167873 0.019444
0.554411 0.060150 0.048711
0.539421 0.216841 0.063073
0.554179 0.107372 0.071849
0.560884 0.174852 0.028253
0.567654 0.164096 0.032171
0.553320 0.049183 0.014830
0.562737 0.110982 0.017532
0.577107 0.098606 0.035798
0.575576 0.150572 0.040854
0.546833 0.213617 0.059536
0.495114 0.126204 0.056201
0.499213 0.188899 0.064457
0.501044 0.172208 0.074863
0.499787 0.194264 0.060896
0.569433 0.187012 0.057340
0.564822 0.056417 0.043870
0.579359 0.135376 0.054934
0.509107 0.154862 0.082149
0.524926 0.094641 0.005886
0.504861 0.118411 0.066805
0.554819 0.175999 0.084114
0.515204 0.127388 0.078697
0.491039 0.140606 0.054473
0.491528 0.128210 0.046025
0.545735 0.052631 0.013830
0.577019 0.132759 0.039726
0.532606 0.054862 0.028770
0.489897 0.137604 0.033697
0.530668 0.217934 0.046382
0.538057 0.109229 0.075496
0.512649 0.154949 0.084307
0.572561 0.080995 0.049479
0.527102 0.134451 0.084570
0.576072 0.132107 0.037512
0.492906 0.118186 0.028029
0.505745 0.086660 0.026675
0.539466 0.055172 0.014324
0.540755 0.186663 0.086061
0.561480 0.185407 0.034154
0.570502 0.159179 0.074814
0.513054 0.089959 0.011248
0.563584 0.191515 0.042900
0.534314 0.087154 0.064466
0.575953 0.164005 0.063874
0.556201 0.206208 0.055367
0.572109 0.055622 0.039753
0.512043 0.211926 0.064670
0.503014 0.191147 0.031568
0.538042 0.061697 0.011150
0.519970 0.114439 0.005189
0.540455 0.185240 0.018303
0.527770 0.182788 0.015312
0.491876 0.130895 0.050542
0.559945 0.100635 0.013974
0.496633 0.180652 0.063782
0.529774 0.144335 0.087452
0.499381 0.099615 0.023494
0.578061 0.156633 0.056556
0.500098 0.184559 0.069013
0.550043 0.208657 0.067970
0.574279 0.168242 0.067005
0.574523 0.137339 0.035535
0.576785 0.121126 0.037662
0.501181 0.165905 0.075777
0.504824 0.116386 0.010074
0.559602 0.088165 0.012023
0.542001 0.114240 0.007054
0.491555 0.162511 0.033283
0.506191 0.107472 0.061466
0.576657 0.133686 0.039032
0.542229 0.074761 0.058085
0.534606 0.194624 0.084356
0.503459 0.202615 0.060581
0.572968 0.091621 0.052174
0.507312 0.096385 0.054304
0.543134 0.075504 0.058604
0.538603 0.214691 0.068452
0.518442 0.217959 0.053899
0.510048 0.185177 0.021035
0.542118 0.175276 0.088172
0.513361 0.092304 0.057850
0.572301 0.153609 0.035731
0.565624 0.090566 0.016071
0.549349 0.208269 0.069553
0.551854 0.067542 0.007792
0.550310 0.211163 0.053290
0.490871 0.133770 0.048945
0.515379 0.122338 0.006241
0.516788 0.080616 0.012858
0.528472 0.080204 0.058245
0.563752 0.146139 0.023678
0.494727 0.144192 0.064608
0.526837 0.216240 0.069509
0.556534 0.142485 0.082990
0.489655 0.141245 0.034526
0.494301 0.176567 0.037212
0.491744 0.146422 0.027913
0.525456 0.173746 0.088096
0.504412 0.180914 0.076503
0.550223 0.193881 0.028067
0.542142 0.048675 0.024720
0.571830 0.151015 0.073197
0.560946 0.047681 0.016357
0.502506 0.097730 0.045828
0.575964 0.102967 0.050193
0.541963 0.088326 0.065625
0.488875 0.147568 0.040019
0.578306 0.154751 0.056107
0.489454 0.138363 0.044270
0.502078 0.191240 0.068496
0.578732 0.129205 0.056311
0.526110 0.216626 0.068736
0.505168 0.165766 0.016186
0.579307 0.141238 0.055594
0.535642 0.218387 0.062415
0.519440 0.167711 0.011663
0.493164 0.177278 0.052959
0.509914 0.139879 0.079838
0.568088 0.047625 0.033180
0.523899 0.085802 0.007870
0.509724 0.183382 0.080183
0.568678 0.118514 0.068331
0.578863 0.076481 0.037199
0.505856 0.110206 0.062846
0.557099 0.080490 0.010052
0.497026 0.181626 0.064179
0.549513 0.079256 0.060406
0.517855 0.139972 0.007211
0.555418 0.142395 0.083395
0.560223 0.143097 0.081482
0.554704 0.206674 0.063929
0.539480 0.076937 0.006854
0.576727 0.091269 0.044214
0.537823 0.123745 0.006224
0.516922 0.181820 0.016484
0.524745 0.152057 0.008196
0.532446 0.191683 0.019155
0.577623 0.107859 0.045035
0.511902 0.077107 0.024260
0.541598 0.074121 0.007129
0.537799 0.190133 0.085539
0.567733 0.051244 0.014445
0.504090 0.174899 0.020783
0.507405 0.128625 0.074415
0.574211 0.054127 0.036891
0.523496 0.071053 0.046605
0.577814 0.077165 0.040159
0.575764 0.127972 0.063414
0.560151 0.188418 0.034551
0.502872 0.164908 0.077640
0.542804 0.166171 0.089129
0.572095 0.123996 0.067127
0.510304 0.193165 0.025008
0.537843 0.172888 0.013696
0.500231 0.129200 0.012881
0.517760 0.181738 0.016203
0.489223 0.157360 0.043429
0.535948 0.172185 0.013059
0.507610 0.165978 0.014862
0.541919 0.215691 0.062944
0.536631 0.206560 0.030568
0.556060 0.073051 0.008872
0.513638 0.100301 0.063771
0.568878 0.071968 0.013487
0.534613 0.134391 0.085081
0.540738 0.082740 0.062644
0.553130 0.072628 0.008163
0.515339 0.214267 0.065309
0.574149 0.106432 0.055640
0.535669 0.146738 0.008164
0.576627 0.107617 0.050435
0.513806 0.172590 0.084242
0.520507 0.112929 0.074580
0.553793 0.049945 0.038720
0.579208 0.070746 0.036544
0.534121 0.132813 0.006183
0.573595 0.061477 0.041937
0.563571 0.116646 0.019031
0.564377 0.168246 0.029573
0.495719 0.138162 0.019021
0.531422 0.186170 0.086800
0.505106 0.095279 0.049186
0.543456 0.120876 0.008000
0.565896 0.185475 0.040971
0.545845 0.112797 0.076102
0.538450 0.166373 0.012341
0.496074 0.158140 0.022317
0.532353 0.071889 0.053456
0.578800 0.063384 0.036222
0.546809 0.049032 0.033686
0.489415 0.158562 0.041710
0.493351 0.162025 0.028374
0.522040 0.096839 0.066487
0.528178 0.170350 0.089011
0.498096 0.179572 0.067739
0.521690 0.129332 0.081782
0.533770 0.068104 0.050856
0.523494 0.075881 0.051747
0.558708 0.045059 0.022567
0.578901 0.075416 0.037205
0.552928 0.057712 0.009379
0.490843 0.132534 0.047541
0.552625 0.077004 0.058784
0.561285 0.051557 0.040624
0.558885 0.201177 0.047653
0.578948 0.147797 0.052350
0.527217 0.215676 0.041298
0.553452 0.185170 0.025825
0.504950 0.122324 0.009763
0.528957 0.191132 0.085300
0.545426 0.195857 0.025875
0.557519 0.112812 0.072868
0.521001 0.173192 0.012859
0.530768 0.099734 0.070717
0.523282 0.097848 0.005729
0.566903 0.179507 0.074304
0.570532 0.093305 0.021058
0.493216 0.145757 0.024684
0.534335 0.147891 0.088423
0.506000 0.091628 0.046165
0.504015 0.159960 0.078575
0.520019 0.190411 0.083402
0.509172 0.190255 0.077455
0.499522 0.120555 0.060852
0.520383 0.111152 0.073644
0.509400 0.206483 0.067939
0.511020 0.105625 0.065035
0.563593 0.129241 0.020788
0.577526 0.107915 0.040672
0.503123 0.174210 0.021304
0.534192 0.179124 0.014625
0.523587 0.123220 0.005018
0.570517 0.140775 0.073629
0.562744 0.123666 0.019244
0.525600 0.205035 0.027676
0.577614 0.126778 0.040513
0.547136 0.082624 0.007270
0.575296 0.129742 0.064837
0.536385 0.163323 0.090003
0.517767 0.080356 0.012336
0.526705 0.191877 0.084760
0.501244 0.200675 0.047760
0.508096 0.094023 0.013118
0.530983 0.212283 0.036241
0.503136 0.122867 0.010766
0.490145 0.164566 0.045748
0.558524 0.203843 0.059482
0.566451 0.101225 0.062845
0.523320 0.207792 0.077187
0.490420 0.165788 0.048119
0.517111 0.167376 0.086074
0.539682 0.157031 0.010851
0.492578 0.120892 0.040825
0.542189 0.216043 0.050910
0.513679 0.197465 0.025427
0.523600 0.120909 0.004893
0.531173 0.179503 0.088194
0.513874 0.105630 0.007208
0.545923 0.062993 0.050495
0.577939 0.111282 0.044821
0.493912 0.124535 0.021029
0.570372 0.143756 0.074233
0.499485 0.110773 0.015387
0.537851 0.143559 0.087430
0.520922 0.170976 0.012272
0.577601 0.106702 0.042817
0.489502 0.141627 0.035420
0.557106 0.103982 0.012798
0.520531 0.130700 0.005934
0.504184 0.098913 0.051501
0.498915 0.164133 0.020865
0.572166 0.090235 0.021858
0.573536 0.050672 0.019571
0.556137 0.123447 0.077602
0.577888 0.088652 0.038849
0.494244 0.179400 0.056567
0.514117 0.151069 0.084549
0.509499 0.210285 0.045114
0.531636 0.218829 0.063467
0.543932 0.053071 0.039285
0.501801 0.128239 0.068642
0.525184 0.195263 0.020739
0.536037 0.064905 0.049032
0.491678 0.124524 0.028951
0.537212 0.218706 0.058499
0.555561 0.107927 0.012451
0.569255 0.070948 0.049089
0.507851 0.205649 0.066394
0.567914 0.081937 0.054279
0.503832 0.121344 0.010391
0.502996 0.155179 0.014585
0.495819 0.170549 0.066574
0.493428 0.131065 0.021855
0.497724 0.156066 0.071108
0.558397 0.066343 0.051955
0.558697 0.177716 0.027236
0.495503 0.120735 0.018593
0.572165 0.075329 0.048193
0.525995 0.120916 0.004724
0.526175 0.202310 0.080751
0.518352 0.179307 0.085149
0.568097 0.189708 0.055976
0.561801 0.188756 0.037080
0.573463 0.116035 0.030459
0.489827 0.144826 0.033635
0.530987 0.218845 0.063604
0.531089 0.096292 0.068971
0.549733 0.188345 0.024482
0.553364 0.204169 0.071305
0.539413 0.173253 0.014270
0.512534 0.130795 0.007407
0.558337 0.083136 0.060095
0.540967 0.192574 0.084361
0.578341 0.121005 0.043247
0.572173 0.144368 0.072276
0.556523 0.082118 0.060262
0.510426 0.139508 0.080052
0.564523 0.132013 0.022092
0.492872 0.119486 0.026473
0.513299 0.203016 0.030172
0.509900 0.129286 0.076479
0.499344 0.126472 0.064323
0.545713 0.214642 0.056375
0.536323 0.198032 0.082968
0.523221 0.062734 0.021107
0.540479 0.208280 0.034446
0.546857 0.069941 0.007463
0.577680 0.112699 0.049465
0.570369 0.164261 0.074619
0.511766 0.091601 0.011427
0.491214 0.129015 0.028877
0.524974 0.136770 0.006152
0.539983 0.156845 0.010915
0.505535 0.088072 0.022248
0.515936 0.088335 0.056890
0.548874 0.136800 0.011974
0.526132 0.161167 0.088897
0.507483 0.102298 0.059442
0.515249 0.215565 0.049039
0.524481 0.116944 0.004641
0.522687 0.122249 0.005047
0.506791 0.088732 0.043295
0.498941 0.195845 0.054259
0.568795 0.115383 0.024164
0.538413 0.083499 0.006101
0.563288 0.151286 0.024174
0.515657 0.149033 0.008633
0.575876 0.142196 0.066571
0.539630 0.197627 0.082736
0.527783 0.094814 0.005395
0.569771 0.176555 0.071855
0.508853 0.165213 0.082409
0.560458 0.143179 0.020228
0.496778 0.104673 0.028984
0.496304 0.109704 0.041985
0.561410 0.100102 0.065818
0.491515 0.157508 0.030797
0.519483 0.067150 0.031829
0.525773 0.106191 0.072966
0.548364 0.199258 0.030667
0.500896 0.161753 0.018022
0.578498 0.054887 0.030282
0.576612 0.164245 0.060161
0.494351 0.182727 0.051005
0.492183 0.174195 0.044982
0.536426 0.151850 0.089102
0.539416 0.139365 0.008123
0.520492 0.091904 0.007494
0.513468 0.114280 0.071809
0.547031 0.080013 0.061069
0.519042 0.109980 0.072471
0.492597 0.172252 0.038571
0.533582 0.181275 0.087925
0.495357 0.120211 0.018975
0.509229 0.127110 0.075167
0.578439 0.142070 0.046138
0.552112 0.112754 0.011252
0.523831 0.107850 0.004727
0.529376 0.185850 0.016454
0.536272 0.052776 0.018871
0.573502 0.174398 0.050099
0.495145 0.126484 0.018573
0.525469 0.061879 0.018464
0.540622 0.200452 0.081217
0.574211 0.052058 0.034719
0.500963 0.099413 0.043475
0.569082 0.086069 0.017626
0.511033 0.170852 0.083129
0.574916 0.090785 0.048639
0.509978 0.108348 0.008358
0.519376 0.190574 0.083114
0.549302 0.175703 0.086257
0.578562 0.130445 0.057526
0.566298 0.120632 0.071229
0.503064 0.092947 0.038072
0.491907 0.135449 0.025969
0.569836 0.171978 0.038633
0.531791 0.177360 0.088611
0.524454 0.175707 0.013210
0.535792 0.066060 0.010134
0.509880 0.165682 0.082985
0.569827 0.182476 0.047052
0.509851 0.106850 0.008623
0.501919 0.103591 0.051759
0.576214 0.095002 0.030409
0.517290 0.202764 0.077450
0.523360 0.101928 0.005219
0.551644 0.067580 0.053813
0.497252 0.108431 0.020039
0.495272 0.132737 0.018736
0.548977 0.198539 0.030582
0.572238 0.141278 0.032754
0.531001 0.205538 0.028236
0.557156 0.189514 0.078935
0.508216 0.189720 0.024728
0.533024 0.097073 0.004875
0.561068 0.096032 0.064334
0.580006 0.070319 0.033813
0.493541 0.142356 0.023522
0.516551 0.213001 0.068886
0.568540 0.065201 0.011576
0.520477 0.120121 0.077900
0.577215 0.107970 0.038504
0.541130 0.178925 0.087703
0.524329 0.203902 0.026800
0.571022 0.145355 0.031896
0.509222 0.181291 0.019870
0.513426 0.092418 0.010192
0.515506 0.074465 0.039087
0.537090 0.111077 0.005380
0.571515 0.086108 0.019821
0.562358 0.189352 0.074168
0.509369 0.084668 0.043098
0.546304 0.071316 0.056234
0.541418 0.216307 0.050472
0.511506 0.206106 0.034934
0.515431 0.081941 0.013188
0.496274 0.124985 0.016950
0.490165 0.158412 0.053124
0.560158 0.058110 0.009484
0.560379 0.174826 0.081428
0.489224 0.139079 0.040567
0.574130 0.072552 0.017580
0.503028 0.127289 0.010865
0.554031 0.196093 0.077888
0.508347 0.091598 0.051040
0.558691 0.170182 0.083181
0.511928 0.082479 0.045495
0.576076 0.159268 0.045928
0.536486 0.055516 0.037177
0.493564 0.125210 0.021724
0.525252 0.191023 0.018637
0.564748 0.071275 0.011406
0.564403 0.045490 0.024550
0.549214 0.045839 0.024115
0.501210 0.171795 0.021963
0.570636 0.181321 0.065935
0.555198 0.205648 0.065621
0.507803 0.209963 0.049862
0.514435 0.160307 0.085405
0.548604 0.145526 0.086135
0.559813 0.178628 0.080842
0.555799 0.124684 0.014304
0.552260 0.164011 0.086543
0.567340 0.183731 0.042214
0.572738 0.159739 0.071799
0.507807 0.114176 0.067328
0.522992 0.122001 0.079442
0.528774 0.109614 0.075252
0.518862 0.208047 0.075220
0.539852 0.157410 0.010976
0.553581 0.144431 0.084447
0.533153 0.147647 0.007907
0.579624 0.071125 0.035230
0.521317 0.177505 0.014076
0.557133 0.096086 0.066122
0.530186 0.082153 0.007126
0.574802 0.166787 0.066255
0.550388 0.147552 0.086036
0.540693 0.132017 0.007783
0.573914 0.172667 0.065090
0.522992 0.208072 0.076907
0.541028 0.216937 0.059973
0.531047 0.064782 0.012415
0.510051 0.148801 0.081852
0.525925 0.204796 0.079482
0.491341 0.125812 0.030197
0.492107 0.169050 0.056442
0.579496 0.077362 0.031906
0.508535 0.189876 0.024548
0.577564 0.058012 0.018932
0.569604 0.082733 0.053143
0.521282 0.071129 0.014729
0.559710 0.145720 0.082196
0.495620 0.184290 0.041829
0.573131 0.048563 0.025103
0.536465 0.137567 0.085970
0.492310 0.128480 0.024702
0.561683 0.198159 0.048987
0.578940 0.080016 0.030147
0.528251 0.179300 0.014178
0.510428 0.125595 0.007640
0.547612 0.046330 0.023505
0.525812 0.067211 0.013903
0.490424 0.164746 0.040930
0.530202 0.159117 0.009534
0.492125 0.128693 0.049376
0.540519 0.216765 0.050676
0.561006 0.060839 0.047956
0.510030 0.080724 0.035222
0.542024 0.104473 0.006602
0.563091 0.188719 0.073670
0.570991 0.179736 0.047356
0.536312 0.179057 0.015006
0.560634 0.103800 0.067718
0.557313 0.178200 0.082435
0.558584 0.153052 0.083655
0.501081 0.198924 0.058710
0.548099 0.179421 0.020139
0.498814 0.155423 0.018309
0.535512 0.147845 0.008294
0.538062 0.089803 0.066345
0.494203 0.145063 0.022775
0.536654 0.061493 0.045861
0.536806 0.051967 0.027413
0.525878 0.086686 0.061692
0.553854 0.153286 0.085678
0.573339 0.177354 0.058549
0.569604 0.183179 0.047279
0.501587 0.100879 0.047726
0.576282 0.112226 0.054083
0.517948 0.124832 0.005852
0.499274 0.146065 0.016117
0.549266 0.167083 0.017567
0.503889 0.195967 0.068213
0.575079 0.151822 0.040199
0.556852 0.046591 0.033837
0.577218 0.149964 0.044836
0.572906 0.050471 0.034014
0.551361 0.155055 0.016185
0.539356 0.173783 0.088875
0.551677 0.122102 0.078447
0.497121 0.103908 0.031609
0.569082 0.059780 0.011512
0.496880 0.176226 0.066696
0.566315 0.045852 0.024433
0.490106 0.162769 0.049612
0.559081 0.045543 0.020274
0.523695 0.182720 0.015478
0.493712 0.161797 0.063902
0.531233 0.147343 0.088187
0.576231 0.165485 0.061368
0.510542 0.114878 0.070092
0.499266 0.191842 0.039346
0.549811 0.073149 0.007607
0.568128 0.117457 0.068358
0.509375 0.210719 0.046756
0.537354 0.197340 0.083146
0.521483 0.080709 0.054691
0.542261 0.049850 0.030328
0.546063 0.166627 0.088330
0.558048 0.068376 0.053161
0.497704 0.181240 0.033062
0.549399 0.205982 0.072841
0.490534 0.134155 0.030935
0.562288 0.119131 0.073204
0.578911 0.144877 0.049811
0.505715 0.195408 0.071243
0.515346 0.119703 0.006181
0.530622 0.212150 0.074522
0.535544 0.052211 0.023626
0.504371 0.128238 0.010159
0.557022 0.070236 0.054390
0.514170 0.088120 0.011296
0.552113 0.141057 0.084168
0.506546 0.096676 0.053406
0.577377 0.128466 0.040020
0.573123 0.115853 0.029896
0.493698 0.135651 0.021918
0.563913 0.176199 0.078556
0.491930 0.125032 0.027110
0.528301 0.106126 0.004423
0.530085 0.097595 0.069472
0.575555 0.151930 0.067467
0.562892 0.162474 0.081405
0.531861 0.205437 0.079553
0.579463 0.068838 0.024103
0.566930 0.075100 0.052340
0.575718 0.155024 0.042827
0.571890 0.052705 0.037584
0.565031 0.146559 0.079180
0.543507 0.047936 0.022706
0.571449 0.116661 0.027635
0.491929 0.123155 0.040349
0.560134 0.157252 0.022552
0.530080 0.196769 0.021595
0.573585 0.175755 0.062235
0.490124 0.146200 0.032526
0.523885 0.073138 0.012027
0.545347 0.085323 0.006913
0.539125 0.147016 0.088075
0.496541 0.106275 0.035653
0.532370 0.060262 0.041036
0.558920 0.177447 0.081696
0.572624 0.114566 0.061974
0.575914 0.167481 0.053436
0.555336 0.046407 0.018002
0.508536 0.082248 0.031270
0.546975 0.153554 0.013563
0.564278 0.067423 0.010444
0.517260 0.070953 0.035739
0.555785 0.180759 0.082624
0.489926 0.140247 0.049649
0.539034 0.147207 0.088121
0.560978 0.098198 0.065268
0.571914 0.127560 0.029933
0.562013 0.110409 0.069700
0.504512 0.200787 0.038100
0.567032 0.180703 0.073476
0.516505 0.070281 0.028527
0.578617 0.151168 0.057124
0.513507 0.078839 0.017128
0.563281 0.168726 0.080617
0.559302 0.145938 0.019773
0.577492 0.130161 0.060621
0.527433 0.207276 0.029770
0.528427 0.188387 0.017438
0.499745 0.147919 0.072653
0.564166 0.173684 0.031376
0.515142 0.120823 0.006251
0.541315 0.187029 0.085872
0.488916 0.144506 0.044323
0.494064 0.180898 0.044676
0.535948 0.162165 0.090010
0.577212 0.098619 0.036589
0.496924 0.189753 0.045025
0.490554 0.129896 0.033017
0.558846 0.135842 0.080502
0.539750 0.075274 0.058111
0.534862 0.135581 0.085436
0.512298 0.122064 0.074984
0.545689 0.213902 0.061700
0.509299 0.125382 0.074482
0.565864 0.173416 0.033384
0.549428 0.179181 0.020839
0.547179 0.207539 0.039056
0.558879 0.144469 0.019207
0.495207 0.150064 0.021913
0.537687 0.186380 0.086545
0.540593 0.120548 0.079955
0.570790 0.178544 0.045414
0.528183 0.214346 0.039045
0.552956 0.072812 0.008138
0.501903 0.157648 0.015995
0.533297 0.156159 0.089597
0.574014 0.130384 0.066988
0.549192 0.051266 0.013886
0.575606 0.133264 0.036773
0.519369 0.066761 0.029510
0.539292 0.110427 0.075931
0.516678 0.148030 0.008330
0.522772 0.101267 0.069361
0.501179 0.170510 0.075348
0.491520 0.162207 0.033192
0.517729 0.137907 0.083113
0.494442 0.120774 0.020638
0.493284 0.144236 0.061731
0.505094 0.174278 0.019674
0.555928 0.114804 0.074296
0.501646 0.143333 0.013518
0.522650 0.063157 0.021701
0.517761 0.214634 0.067492
0.548662 0.057139 0.045920
0.522089 0.200641 0.024560
0.541720 0.179738 0.087443
0.554355 0.163900 0.085761
0.526611 0.103731 0.004636
0.559821 0.122627 0.075845
0.555266 0.141401 0.083233
0.555234 0.050430 0.039545
0.570011 0.125774 0.070086
0.546642 0.208590 0.040097
0.523110 0.080997 0.056041
0.548662 0.047128 0.018635
0.547218 0.212871 0.050305
0.570442 0.184480 0.060202
0.526584 0.067467 0.045263
0.563201 0.197217 0.063058
0.556927 0.122040 0.076801
0.534487 0.054653 0.032244
0.491972 0.147945 0.027569
0.504564 0.089937 0.036920
0.492147 0.157846 0.060468
0.561079 0.146240 0.021266
0.520719 0.182415 0.015773
0.552661 0.045184 0.022461
0.573552 0.169717 0.045427
0.538677 0.210093 0.035881
0.505009 0.092010 0.043930
0.543631 0.132821 0.009004
0.551643 0.130343 0.012614
0.540688 0.074037 0.057450
0.553494 0.186643 0.082138
0.572049 0.106199 0.058821
0.557874 0.154156 0.084076
0.504066 0.205395 0.048918
0.544061 0.117501 0.008036
0.549842 0.177823 0.020677
0.526660 0.114333 0.004449
0.498650 0.100228 0.031439
0.572161 0.138912 0.071472
0.573332 0.133990 0.068936
0.518762 0.067214 0.027321
0.549124 0.137860 0.012245
0.562973 0.075245 0.054619
0.540581 0.077866 0.059824
0.580725 0.065280 0.029711
0.514381 0.077752 0.016910
0.527273 0.143923 0.007008
0.508539 0.127036 0.008333
0.503865 0.197182 0.067311
0.509636 0.201699 0.072001
0.520350 0.181778 0.015618
0.574191 0.051919 0.018683
0.499054 0.100234 0.035865
0.495939 0.147108 0.020380
0.547479 0.104510 0.072337
0.525823 0.210138 0.033105
0.547971 0.064411 0.008103
0.557736 0.203173 0.065653
0.520613 0.124671 0.079794
0.559742 0.186777 0.078116
0.571365 0.182075 0.053723
0.551130 0.112937 0.010813
0.524656 0.202204 0.080491
0.527479 0.212232 0.074479
0.548347 0.102078 0.008761
0.490783 0.127910 0.033493
0.527048 0.176409 0.088145
0.548797 0.208658 0.042857
0.506099 0.204579 0.040360
0.490088 0.136201 0.032934
0.515652 0.145699 0.008213
0.502794 0.151490 0.014002
0.494609 0.151217 0.065737
0.500336 0.189232 0.034488
0.517495 0.202545 0.077673
0.508478 0.144310 0.009889
0.494150 0.141082 0.062502
0.499455 0.109993 0.052538
0.530067 0.214651 0.039754
0.523696 0.124752 0.005112
0.552117 0.152321 0.016116
0.538976 0.176875 0.015092
0.536500 0.054011 0.033794
0.493979 0.149516 0.023820
0.494916 0.160245 0.066582
0.507645 0.191262 0.026163
0.522302 0.118494 0.077781
0.554273 0.175789 0.084394
0.510414 0.147330 0.009624
0.561366 0.137725 0.020106
0.537042 0.099230 0.005212
0.561229 0.074919 0.010779
0.557726 0.117385 0.014716
0.569708 0.184817 0.063864
0.554510 0.179732 0.083476
0.502737 0.176209 0.075986
0.538214 0.204826 0.079091
0.571385 0.097856 0.023399
0.577124 0.143989 0.064173
0.555596 0.196244 0.035444
0.498179 0.169566 0.071232
0.492750 0.166536 0.060141
0.563364 0.045348 0.028225
0.558497 0.201407 0.067619
0.576948 0.139465 0.064128
0.505327 0.178061 0.078146
0.535505 0.152692 0.089243
