ply
format ascii 1.0
element vertex 1024
property float x
property float y
property float z
end_header
0.580536 0.024255 0.080702
0.604593 -0.047563 0.041975
0.605378 -0.052426 0.040386
0.546857 0.078434 0.033845
0.546419 -0.053697 0.012402
0.600142 0.005119 0.036125
0.557174 0.074102 0.031701
0.513135 0.002869 0.053448
0.602548 -0.047221 0.015342
0.585578 -0.001711 0.016930
0.511795 0.033164 0.032614
0.519565 0.071106 0.059220
0.536401 -0.051336 0.027530
0.528072 -0.024627 0.012323
0.517258 0.022821 0.020091
0.573397 -0.001270 0.010132
0.602161 -0.015536 0.032749
0.538715 0.073271 0.028468
0.577285 0.060022 0.073842
0.537015 0.037043 0.012011
0.524160 -0.026963 0.017120
0.589222 -0.074664 0.008318
0.554562 0.085069 0.058879
0.583341 -0.059140 0.052150
0.611883 -0.063748 0.024274
0.579973 -0.004725 0.075555
0.563663 0.059614 0.081815
0.541085 0.029760 0.086738
0.552904 -0.016590 0.076579
0.556136 0.054043 0.085173
0.576956 -0.010721 0.010136
0.539502 0.022696 0.008837
0.546983 -0.061493 0.018575
0.562499 -0.069980 0.039128
0.527441 0.017603 0.079092
0.535179 -0.026668 0.063649
0.570009 -0.012628 0.007363
0.535056 0.048126 0.015507
0.548396 0.047070 0.086934
0.553741 -0.059062 0.010998
0.519496 0.067158 0.038285
0.513848 0.033141 0.064756
0.548566 0.007311 0.084814
0.521108 0.060661 0.030161
0.541267 0.075504 0.030291
0.527627 0.038570 0.015884
0.539782 -0.050099 0.015366
0.542992 -0.002461 0.080655
0.561923 0.075193 0.036387
0.611360 -0.060073 0.027999
0.611349 -0.058007 0.025161
0.513798 0.039218 0.030966
0.523018 -0.004419 0.066594
0.587654 -0.015582 0.067838
0.519219 0.051047 0.027555
0.541103 -0.018889 0.072383
0.533059 0.062510 0.079594
0.581352 0.064943 0.061292
0.546369 0.024655 0.087632
0.594490 0.027037 0.067532
0.514704 0.006555 0.060005
0.524004 -0.033257 0.034080
0.538188 -0.045231 0.013406
0.575336 0.062963 0.035303
0.511368 0.045043 0.053960
0.550134 0.073958 0.028912
0.551965 0.083934 0.044863
0.529737 0.075033 0.034578
0.522318 0.070313 0.037028
0.509415 0.025053 0.049531
0.572350 -0.080203 0.020695
0.509386 0.021713 0.048876
0.518118 0.000874 0.018262
0.569631 0.012023 0.011053
0.563941 -0.062697 0.008448
0.561411 0.070515 0.077281
0.603507 -0.014012 0.042340
0.572645 -0.053241 0.057177
0.534680 0.081781 0.041324
0.510817 0.013191 0.032637
0.559756 -0.053582 0.055595
0.552632 0.029376 0.009415
0.567637 -0.050934 0.058686
0.546809 -0.050699 0.010668
0.597903 -0.056396 0.008775
0.549675 -0.008353 0.004278
0.578913 -0.045161 0.006046
0.561711 0.072095 0.032301
0.524727 -0.016549 0.013059
0.550188 -0.050002 0.054844
0.543697 -0.057105 0.017661
0.536182 0.045893 0.014533
0.537019 0.027102 0.085620
0.521964 0.006543 0.014231
0.561248 0.077678 0.070036
0.545008 -0.058375 0.037764
0.545532 0.054915 0.085126
0.516521 0.017377 0.020483
0.550425 0.068149 0.023767
0.562350 -0.032703 0.003940
0.543039 0.085647 0.064176
0.554137 0.006101 0.084791
0.585943 0.059212 0.056357
0.592791 0.027550 0.069958
0.599897 0.015400 0.040878
0.550910 0.050089 0.086479
0.509609 0.018008 0.049177
0.514419 -0.001565 0.025413
0.593363 -0.034782 0.057418
0.562131 0.024214 0.087524
0.548610 0.034271 0.088086
0.512045 0.045661 0.040019
0.566234 0.058215 0.023833
0.527027 0.057622 0.077371
0.587433 0.014627 0.022896
0.558964 -0.002833 0.005291
0.531355 0.065882 0.025005
0.595830 0.031188 0.041575
0.591511 0.048937 0.059312
0.560665 0.018239 0.086982
0.539009 0.018386 0.085384
0.589963 0.041449 0.070100
0.569977 -0.022775 0.072423
0.542305 0.005797 0.083201
0.529526 0.000751 0.075518
0.595498 -0.031356 0.056535
0.576066 0.012221 0.014048
0.535630 -0.041953 0.013568
0.557942 0.033537 0.088383
0.596146 -0.023841 0.057885
0.560840 0.082280 0.050953
0.600625 0.019652 0.053785
0.570948 -0.029256 0.069528
0.547099 -0.012772 0.004344
0.537934 0.029212 0.085915
0.527833 0.052719 0.020138
0.553474 0.061079 0.019917
0.578371 -0.033073 0.065860
0.535057 0.040175 0.084517
0.553600 -0.021454 0.003619
0.550646 0.076196 0.031600
0.549838 0.081148 0.070835
0.513640 0.009349 0.025795
0.586770 -0.017933 0.013964
0.566322 0.069425 0.032983
0.589996 -0.042102 0.009788
0.571555 -0.079549 0.024116
0.539527 -0.046172 0.012924
0.600588 -0.073345 0.009834
0.540763 0.021892 0.008518
0.541627 0.081902 0.070757
0.525546 0.071069 0.070319
0.539880 0.084339 0.066498
0.581152 0.065352 0.050613
0.558250 0.071028 0.077974
0.517641 -0.009686 0.053112
0.564819 0.006988 0.008248
0.593906 -0.081540 0.017436
0.551315 -0.006708 0.080572
0.593662 -0.053873 0.050488
0.597828 0.019904 0.063025
0.556862 0.018135 0.087315
0.540382 0.060326 0.082811
0.587380 0.055984 0.049832
0.562562 -0.072419 0.034593
0.555516 -0.005955 0.004506
0.547657 0.009087 0.085185
0.516250 0.057852 0.036598
0.548561 -0.062426 0.035907
0.582839 0.047754 0.075309
0.591296 0.047915 0.062499
0.513318 0.042495 0.062150
0.599658 -0.039936 0.016229
0.545174 0.058978 0.018066
0.547405 0.059534 0.084074
0.582414 0.021415 0.079518
0.555437 -0.041267 0.063433
0.557184 0.066064 0.080933
0.576686 -0.023995 0.069983
0.523108 0.069557 0.068259
0.558764 -0.046375 0.005248
0.572697 0.035298 0.084120
0.546419 0.055838 0.084993
0.515455 0.030739 0.024377
0.576351 -0.040738 0.005946
0.590591 -0.011828 0.067021
0.579705 -0.067030 0.005948
0.527281 0.057415 0.022421
0.593434 0.002759 0.068724
0.603745 -0.057171 0.011595
0.526519 0.053474 0.078218
0.540962 -0.016864 0.005611
0.528521 0.018754 0.011264
0.579004 -0.018061 0.071349
0.587199 0.054484 0.045620
0.580645 0.061312 0.068779
0.587974 0.019225 0.075534
0.533180 -0.047340 0.025642
0.568501 0.023059 0.012970
0.560662 -0.007711 0.005153
0.555805 0.037843 0.012021
0.550483 0.069648 0.024957
0.515950 0.023938 0.068054
0.557066 0.058742 0.019731
0.521538 0.002849 0.068875
0.554335 0.084423 0.061856
0.549366 -0.056544 0.047271
0.511559 0.003293 0.047296
0.528118 -0.035400 0.044457
0.538427 0.034695 0.085911
0.534981 0.009945 0.081770
0.595184 0.035955 0.044381
0.572999 -0.080440 0.020626
0.569461 0.054823 0.024024
0.544961 0.073828 0.077965
0.516369 0.065903 0.046171
0.543790 -0.056716 0.038902
0.532106 -0.015996 0.068458
0.604879 -0.029816 0.034705
0.590438 0.006760 0.023444
0.569912 0.059061 0.026918
0.611190 -0.062506 0.019778
0.559584 0.071322 0.030021
0.573505 0.013105 0.082681
0.581999 -0.078877 0.033976
0.593510 -0.081716 0.017779
0.549486 0.047021 0.013578
0.598027 0.031416 0.051879
0.566836 -0.013145 0.006289
0.513668 0.030271 0.064402
0.603022 -0.025992 0.045595
0.526938 0.022694 0.079835
0.550095 -0.033260 0.067147
0.578039 0.056382 0.032438
0.526362 -0.014296 0.063770
0.519807 -0.025841 0.030189
0.512741 0.049677 0.040507
0.562633 0.025976 0.011328
0.525086 0.000312 0.011821
0.607477 -0.041889 0.030813
0.531966 -0.001712 0.008583
0.565765 -0.010360 0.006254
0.518977 0.014823 0.017439
0.532958 -0.009533 0.073057
0.518108 0.031022 0.021075
0.587962 -0.067622 0.045689
0.551803 0.085465 0.061176
0.582931 -0.020612 0.068714
0.575986 0.046528 0.024635
0.584555 0.036912 0.027949
0.585514 -0.079093 0.012047
0.586104 -0.016552 0.013850
0.603650 -0.026481 0.030787
0.595075 0.024788 0.035912
0.559266 0.083292 0.057002
0.520627 -0.010687 0.058327
0.516330 0.052053 0.066132
0.521454 0.035943 0.076350
0.515810 0.057395 0.062529
0.585194 0.060187 0.052842
0.598341 -0.069884 0.039950
0.602227 0.010488 0.049615
0.532543 0.020038 0.082912
0.550180 -0.038318 0.005605
0.532285 -0.016851 0.068036
0.574717 0.047554 0.080812
0.542220 -0.006318 0.078960
0.514379 0.002955 0.056953
0.515914 -0.009356 0.048506
0.577453 -0.076785 0.011718
0.598972 0.007354 0.034676
0.565493 -0.076262 0.027756
0.511874 -0.000464 0.036361
0.541562 0.085059 0.045323
0.567089 -0.021044 0.073769
0.536210 0.020663 0.084748
0.602907 -0.044374 0.044832
0.553439 0.002462 0.083752
0.597940 0.006542 0.032555
0.517150 -0.019322 0.030467
0.534241 -0.048690 0.028013
0.570950 -0.075166 0.012761
0.559484 0.056110 0.083984
0.575563 0.057138 0.030451
0.591793 0.033039 0.070179
0.539622 -0.044585 0.011999
0.577518 0.063604 0.038971
0.565626 -0.043575 0.063133
0.595514 0.038449 0.058795
0.569207 0.077252 0.052028
0.605279 -0.069678 0.035207
0.525667 0.076686 0.065190
0.516881 0.054374 0.033034
0.568326 -0.068958 0.009719
0.542374 -0.019451 0.005330
0.553482 0.053732 0.016519
0.541071 0.049441 0.014662
0.516264 -0.006588 0.052972
0.584536 -0.027240 0.010562
0.514920 0.043512 0.065695
0.554897 0.012666 0.086378
0.525819 -0.036830 0.025395
0.598019 0.031357 0.051327
0.518227 0.047948 0.070596
0.563883 0.078961 0.065124
0.593525 0.042443 0.062059
0.595484 0.011470 0.030718
0.600242 -0.004219 0.032651
0.522579 0.029737 0.077254
0.527590 -0.019636 0.011532
0.585830 -0.039656 0.008660
0.564280 -0.016454 0.005242
0.509874 0.024414 0.035780
0.534710 -0.027557 0.062610
0.598421 0.008209 0.034016
0.574662 -0.054788 0.056089
0.552125 0.063080 0.082822
0.518195 0.066182 0.061883
0.602008 -0.033765 0.047471
0.536791 -0.038464 0.055387
0.575492 -0.053915 0.056525
0.551777 0.083294 0.066609
0.530163 0.083429 0.053890
0.523757 0.049335 0.021926
0.562657 0.045067 0.085977
0.543653 -0.041584 0.058389
0.590961 0.027252 0.031095
0.591771 -0.036358 0.012158
0.563393 0.078500 0.066762
0.580803 -0.061234 0.005149
0.562503 0.081279 0.050476
0.514718 -0.003909 0.051467
0.536799 -0.012280 0.006776
0.544793 -0.053271 0.013281
0.560330 -0.051378 0.057459
0.582562 0.018466 0.019851
0.518380 0.007172 0.066719
0.540049 0.083148 0.068700
0.581151 0.014623 0.079571
0.511181 0.003115 0.037205
0.510892 0.038771 0.039439
0.511915 0.008448 0.030429
0.546448 0.041156 0.087375
0.523659 0.045063 0.077679
0.562713 0.063821 0.025375
0.575433 -0.081068 0.022886
0.594141 0.025129 0.068458
0.593381 -0.079461 0.012895
0.531120 -0.037940 0.047367
0.603150 -0.022134 0.045223
0.573098 -0.041300 0.063611
0.509978 0.009335 0.042740
0.598493 0.029524 0.050859
0.512249 0.000368 0.046932
0.519168 0.054836 0.069900
0.602621 0.004311 0.051048
0.539208 0.083415 0.067993
0.521328 0.029360 0.017545
0.601387 0.016290 0.050273
0.547798 0.086443 0.060854
0.534720 0.033274 0.011777
0.511043 0.039527 0.055224
0.535301 0.005297 0.080552
0.601897 -0.078260 0.029022
0.550617 -0.047185 0.007680
0.528859 0.048320 0.080873
0.595305 -0.007550 0.063919
0.608699 -0.048102 0.032048
0.534105 -0.024880 0.064012
0.584299 -0.047637 0.006925
0.515201 0.044538 0.066055
0.581394 -0.049261 0.057753
0.536777 0.005538 0.007508
0.580100 0.014380 0.080074
0.584567 0.015739 0.077743
0.568411 0.077615 0.060689
0.567167 -0.053730 0.005300
0.605069 -0.033681 0.039210
0.558716 -0.007660 0.004776
0.530621 0.046939 0.016789
0.541908 0.018501 0.007869
0.544731 0.058968 0.018070
0.603627 -0.017125 0.039933
0.541479 -0.057290 0.025072
0.569685 -0.056208 0.005389
0.556024 0.059111 0.083722
0.599389 -0.074986 0.010388
0.519348 0.038305 0.022211
0.533981 -0.006274 0.075382
0.607317 -0.070895 0.032172
0.555731 -0.061308 0.046311
0.607825 -0.047536 0.035088
0.600494 0.002761 0.058387
0.573854 0.059932 0.030961
0.524552 0.029020 0.078962
0.564732 0.036170 0.086878
0.597776 -0.001650 0.062413
0.523203 0.057330 0.025854
0.552289 0.041072 0.012172
0.521456 -0.007578 0.014722
0.531435 0.046974 0.016436
0.509204 0.019121 0.046097
0.550467 0.040095 0.011706
0.523590 0.029902 0.016010
0.554421 0.084685 0.060828
0.547702 0.074446 0.029055
0.584247 -0.055163 0.005848
0.543287 -0.033550 0.064255
0.597440 -0.054328 0.009314
0.560897 0.003490 0.083597
0.572438 -0.047045 0.060754
0.581358 -0.056013 0.005401
0.528634 0.079485 0.065533
0.601336 -0.018892 0.050805
0.553441 0.014808 0.006877
0.603153 -0.017434 0.045400
0.534796 0.038284 0.084566
0.549177 -0.019919 0.074403
0.587955 -0.077945 0.035801
0.609810 -0.053736 0.031370
0.553754 0.000780 0.005054
0.606088 -0.063641 0.037246
0.586239 -0.010807 0.015265
0.580498 0.040512 0.025648
0.516250 0.000725 0.021228
0.550421 0.054290 0.085545
0.534330 -0.039946 0.050485
0.564838 -0.009664 0.006050
0.580501 0.057934 0.036851
0.574303 -0.016385 0.073681
0.553710 0.034694 0.010774
0.514001 0.020590 0.024462
0.564939 -0.059113 0.052352
0.610444 -0.061085 0.031091
0.580764 -0.079921 0.031404
0.509070 0.020314 0.044367
0.511286 0.024124 0.030733
0.552306 -0.035730 0.066221
0.549702 0.038200 0.088048
0.516863 0.042708 0.069508
0.548601 -0.003420 0.081457
0.566655 -0.062690 0.049641
0.555481 -0.056460 0.051429
0.592096 -0.082293 0.019281
0.608892 -0.049151 0.032051
0.583420 -0.070785 0.006644
0.514747 -0.005156 0.050072
0.584645 -0.051064 0.055864
0.595273 -0.075246 0.037034
0.571905 0.072554 0.044112
0.599802 0.022684 0.047067
0.538042 0.082259 0.040566
0.566958 0.055636 0.022864
0.526829 -0.013746 0.011206
0.547143 0.058825 0.084264
0.557507 0.065057 0.023613
0.585526 -0.014735 0.069429
0.535571 0.038938 0.012825
0.560859 -0.031553 0.069662
0.548082 -0.035384 0.005591
0.585265 0.052629 0.069970
0.596649 -0.032874 0.016690
0.513180 0.007958 0.027083
0.558964 0.016854 0.086939
0.535475 -0.043472 0.047400
0.526476 0.024301 0.079796
0.538272 0.056800 0.083164
0.527084 0.055004 0.078199
0.526193 -0.015578 0.062576
0.549230 -0.021708 0.073484
0.524134 0.070964 0.068685
0.540048 -0.028641 0.065740
0.584594 0.001683 0.017002
0.603143 -0.017143 0.035596
0.518540 0.037491 0.022815
0.547870 0.046730 0.013414
0.544655 -0.010244 0.004833
0.594364 0.014815 0.069014
0.584428 -0.003976 0.015544
0.536797 0.071312 0.027150
0.600491 0.001533 0.035413
0.573929 -0.046996 0.005032
0.599901 0.004464 0.059844
0.558893 0.032440 0.088318
0.545750 -0.053394 0.012675
0.544769 0.059231 0.083925
0.515174 0.063769 0.049310
0.534312 -0.041252 0.014295
0.541803 0.079375 0.035199
0.525050 -0.013455 0.012364
0.509274 0.026415 0.048319
0.572197 0.075301 0.055924
0.595128 -0.025053 0.058667
0.538472 0.074388 0.076666
0.509576 0.027696 0.050656
0.538966 0.033625 0.086103
0.556144 0.025607 0.009190
0.517552 -0.016517 0.043240
0.553585 0.084907 0.048818
0.525945 0.062076 0.025969
0.544991 -0.012530 0.004709
0.551261 0.047677 0.086962
0.537815 -0.029016 0.007888
0.579340 -0.066005 0.048213
0.603426 -0.013695 0.039690
0.516613 -0.012991 0.023400
0.593843 0.017752 0.069625
0.523602 -0.025885 0.017301
0.562968 0.013059 0.085644
0.535763 0.036727 0.012250
0.603580 -0.018304 0.037727
0.511054 0.003484 0.038109
0.581151 -0.024352 0.009638
0.540643 -0.003269 0.006008
0.533099 -0.036451 0.052869
0.515810 0.026908 0.022759
0.598773 -0.035666 0.017346
0.605639 -0.074648 0.014982
0.583040 -0.004346 0.074257
0.606123 -0.036177 0.033765
0.512116 0.041831 0.058721
0.538239 0.017038 0.084864
0.521691 0.074429 0.045937
0.543877 0.086318 0.062255
0.577833 -0.076262 0.037231
0.528010 -0.007541 0.070127
0.537194 0.061487 0.020286
0.569193 -0.065554 0.047627
0.515104 -0.013215 0.031488
0.548958 0.086930 0.056814
0.579029 -0.020676 0.009426
0.601066 -0.054797 0.044745
0.522593 0.069896 0.067283
0.598610 -0.044045 0.050022
0.525924 -0.014868 0.011930
0.520577 0.018549 0.016152
0.515820 0.033436 0.068557
0.515265 -0.006588 0.024260
0.520186 0.019441 0.072919
0.591279 -0.060876 0.048562
0.573328 0.049033 0.023813
0.518518 -0.016556 0.020837
0.603223 -0.050055 0.043591
0.547336 -0.012181 0.004329
0.542390 0.069423 0.079968
0.538385 0.045597 0.085061
0.583368 0.062644 0.051600
0.575651 0.060539 0.033334
0.597074 -0.009832 0.025775
0.510755 0.006671 0.036300
0.543247 0.086242 0.062449
0.561521 -0.034936 0.067897
0.562717 0.058224 0.021851
0.568095 0.075044 0.068156
0.553834 0.041667 0.012605
0.532875 -0.004305 0.008182
0.589504 -0.044156 0.056661
0.558690 0.061966 0.082267
0.602280 -0.004039 0.038077
0.595359 0.018589 0.067517
0.587878 -0.045423 0.056988
0.535878 0.005006 0.080721
0.585224 0.004578 0.018215
0.516793 -0.018063 0.028920
0.525182 0.067578 0.030724
0.536524 -0.005233 0.077217
0.525465 -0.009702 0.066043
0.557738 0.084102 0.053952
0.553204 0.066680 0.081285
0.554437 -0.069927 0.020946
0.551585 0.076755 0.032576
0.575502 -0.059583 0.005261
0.603371 -0.012267 0.044337
0.590911 0.038046 0.069992
0.538131 -0.043144 0.012288
0.513991 -0.008839 0.031452
0.544164 0.003379 0.005827
0.556473 0.025467 0.009228
0.533444 -0.047383 0.023621
0.546681 -0.045154 0.057209
0.568225 0.006926 0.009515
0.549002 0.028818 0.088124
0.536555 -0.032519 0.060484
0.526938 0.080534 0.049333
0.546410 -0.016330 0.004383
0.543911 -0.011333 0.004941
0.536423 -0.046262 0.044474
0.514168 0.058747 0.055991
0.592018 -0.011235 0.019918
0.565101 -0.047400 0.004637
0.581404 0.023499 0.020381
0.533425 0.014207 0.009111
0.598824 0.016894 0.061509
0.556501 0.066751 0.080761
0.552928 -0.037743 0.004863
0.588304 0.050087 0.067280
0.530820 0.030247 0.083184
0.579441 0.015017 0.016708
0.523002 -0.032124 0.031089
0.522942 -0.027036 0.044077
0.590581 -0.026849 0.062074
0.510340 0.019424 0.033312
0.551050 -0.065949 0.031951
0.555200 -0.025851 0.072337
0.560331 0.068909 0.028124
0.517858 0.024799 0.019755
0.610855 -0.069617 0.025209
0.595806 0.038730 0.055039
0.511255 0.045063 0.053167
0.509825 0.036226 0.047368
0.560512 0.021081 0.087428
0.558196 0.008051 0.006512
0.546345 -0.041642 0.007601
0.541802 -0.019633 0.072263
0.578897 -0.048859 0.058632
0.547975 -0.023077 0.072435
0.509954 0.034275 0.040947
0.553355 0.049772 0.086480
0.518483 -0.017090 0.021231
0.536063 -0.007501 0.075972
0.599586 0.016859 0.040929
0.574827 -0.016412 0.008531
0.547091 -0.025422 0.004535
0.542311 0.052718 0.015656
0.568544 -0.077934 0.017574
0.590395 0.048192 0.045282
0.517333 -0.010919 0.020844
0.556546 -0.070486 0.018115
0.556938 0.069669 0.079158
0.607426 -0.072972 0.030010
0.529151 -0.036529 0.045158
0.595966 -0.040290 0.013406
0.532216 0.036151 0.083703
0.603740 -0.034360 0.043778
0.533682 -0.026871 0.009374
0.537589 0.056865 0.082934
0.569509 0.046497 0.083435
0.602380 0.005530 0.052272
0.592906 -0.005757 0.067014
0.531685 -0.042698 0.039596
0.513492 -0.002413 0.028488
0.586130 0.045113 0.034187
0.552215 0.045651 0.087324
0.538642 0.041929 0.012868
0.565389 -0.064978 0.008902
0.531814 0.030867 0.083666
0.585340 0.055615 0.042564
0.533796 -0.028368 0.009651
0.530213 -0.032144 0.053322
0.602820 -0.030250 0.025501
0.533278 0.068550 0.077465
0.547525 -0.031342 0.005072
0.584606 -0.060598 0.051008
0.522146 -0.028460 0.022133
0.516569 -0.004711 0.020989
0.561031 0.068286 0.027986
0.592421 0.015001 0.028147
0.542097 0.072594 0.027230
0.574616 0.061192 0.075435
0.521618 0.053617 0.025763
0.557722 -0.034761 0.003880
0.590703 -0.030945 0.060630
0.610421 -0.054081 0.028579
0.513891 0.004623 0.025900
0.530324 0.078456 0.068991
0.597917 -0.061099 0.007446
0.548398 -0.012762 0.077706
0.602639 -0.017163 0.033464
0.561115 0.048530 0.085594
0.535632 0.069996 0.026390
0.590558 0.018848 0.027395
0.523403 0.045355 0.020842
0.539541 -0.042113 0.010911
0.546707 -0.059183 0.039526
0.559751 -0.020312 0.004011
0.598549 -0.039871 0.015378
0.579352 0.061715 0.070227
0.539534 -0.049915 0.044054
0.579014 -0.057636 0.053888
0.552749 0.085051 0.048449
0.523384 0.070443 0.035623
0.543293 -0.052151 0.013728
0.518520 -0.012262 0.019128
0.510827 0.020429 0.055670
0.590498 -0.069350 0.006109
0.580132 0.047157 0.077647
0.511597 0.000992 0.043262
0.602890 -0.052939 0.012927
0.524314 -0.009094 0.012468
0.570495 0.067238 0.074662
0.538219 -0.043097 0.052048
0.579292 0.042342 0.079546
0.542582 -0.051680 0.046218
0.594754 0.033534 0.040914
0.569957 -0.074943 0.035787
0.516233 -0.012364 0.024123
0.537689 0.057273 0.018189
0.593288 -0.055636 0.007606
0.597820 -0.081021 0.020753
0.582760 -0.082865 0.021660
0.517060 0.034835 0.023643
0.587952 0.054846 0.061302
0.569193 0.076694 0.062332
0.520480 0.073932 0.050817
0.537292 0.026236 0.085680
0.573170 0.016534 0.083402
0.578974 0.050829 0.077110
0.577005 -0.004035 0.011235
0.574139 0.035357 0.083469
0.582285 0.056433 0.037963
0.593654 0.033874 0.066978
0.535846 -0.020611 0.068300
0.550740 -0.010518 0.079019
0.557863 -0.022000 0.074346
0.533870 0.073973 0.075100
0.556268 0.026008 0.009299
0.578087 0.016144 0.081282
0.550808 0.015342 0.006842
0.610051 -0.053319 0.030023
0.535366 0.043269 0.014006
0.586973 -0.031433 0.062758
0.557276 -0.049902 0.006387
0.594186 0.041069 0.061266
0.574628 0.018794 0.083144
0.560487 0.000959 0.006068
0.592359 0.046743 0.060179
0.538085 0.074615 0.076416
0.553103 0.085749 0.057947
0.561097 -0.066894 0.011594
0.534323 0.014172 0.082538
0.541673 0.071829 0.078725
0.514695 -0.011972 0.032758
0.511494 0.031281 0.058794
0.608734 -0.047212 0.026719
0.521895 0.053815 0.025555
0.608493 -0.066814 0.013983
0.600061 -0.043030 0.048741
0.550756 -0.061987 0.014756
0.583745 0.018270 0.078497
0.511479 0.046666 0.043914
0.606027 -0.076717 0.020530
0.562340 0.006911 0.084317
0.514785 -0.009268 0.027197
0.575216 0.069989 0.045197
0.607649 -0.044690 0.025013
0.541951 0.046043 0.013494
0.531571 -0.009750 0.008604
0.581057 -0.082619 0.021194
0.555716 -0.065223 0.013536
0.509103 0.026568 0.043496
0.546384 0.026290 0.008714
0.516725 -0.008746 0.051791
0.551815 0.085378 0.048731
0.594297 -0.066001 0.044353
0.540068 -0.053831 0.036154
0.565674 -0.026120 0.004799
0.580122 0.061188 0.069667
0.586910 0.053075 0.042767
0.550003 0.046974 0.013607
0.589449 -0.023275 0.064032
0.576711 0.050067 0.078917
0.581703 0.025383 0.080043
0.516221 0.062162 0.060233
0.562016 0.049099 0.017679
0.516745 0.018240 0.020230
0.553138 0.015882 0.007020
0.569102 -0.040390 0.064671
0.514087 0.007386 0.025095
0.570017 -0.068885 0.044417
0.569933 -0.078541 0.026037
0.557138 -0.045290 0.061115
0.577184 0.024962 0.082476
0.590545 0.051209 0.053710
0.585038 0.056282 0.042809
0.529925 -0.034930 0.049337
0.602465 -0.012873 0.049061
0.538937 -0.009449 0.006160
0.518359 0.009017 0.018015
0.564725 0.037024 0.015024
0.520246 0.059770 0.069454
0.594347 0.025944 0.035301
0.591028 -0.080890 0.030670
0.597129 0.024477 0.039733
0.606307 -0.074740 0.029424
0.568406 0.025404 0.013474
0.560212 0.043202 0.086923
0.578912 -0.006307 0.075494
0.523679 -0.032796 0.033674
0.599229 -0.066386 0.007340
0.516056 0.039208 0.068580
0.599642 -0.080389 0.020467
0.509833 0.024684 0.052173
0.592194 -0.081792 0.016963
0.537079 0.048790 0.015188
0.514775 0.024436 0.066090
0.555965 0.015862 0.086978
0.595356 0.039918 0.056273
0.538682 -0.019485 0.070811
0.513765 0.054630 0.041112
0.577963 -0.055983 0.005140
0.594918 -0.008675 0.063995
0.521649 0.074863 0.047583
0.554335 0.066146 0.081371
0.553057 -0.051932 0.054535
0.575870 -0.079812 0.028460
0.567809 0.037079 0.085793
0.590746 -0.058897 0.049793
0.513209 0.043828 0.035000
0.564060 0.076288 0.070035
0.512758 -0.003823 0.033557
0.589342 -0.007792 0.069336
0.599966 0.019755 0.044543
0.522390 0.059522 0.072311
0.537142 -0.014893 0.006721
0.544808 0.079715 0.073362
0.568323 -0.078533 0.022376
0.525438 -0.007972 0.011646
0.589574 -0.057188 0.051106
0.540992 -0.046244 0.011950
0.577102 0.012590 0.081136
0.535916 -0.038299 0.054560
0.599971 0.003162 0.034941
0.596716 -0.010069 0.025244
0.514874 -0.002010 0.024295
0.583167 0.048983 0.074472
0.515118 -0.012702 0.029633
0.551720 -0.026488 0.003839
0.560387 -0.033784 0.068483
0.597180 0.026493 0.062421
0.584392 0.035295 0.077413
0.547438 0.073319 0.078271
0.609252 -0.055758 0.018957
0.598458 -0.050978 0.048184
0.594744 0.029241 0.037860
0.605294 -0.072627 0.033069
0.588606 0.019825 0.075023
0.576710 -0.081631 0.020759
0.594752 -0.009541 0.023140
0.516544 -0.014379 0.042821
0.577292 0.028926 0.019038
0.541876 0.063693 0.020704
0.591340 0.049713 0.057362
0.510753 0.008058 0.035168
0.552796 -0.059661 0.011832
0.571743 -0.044587 0.004832
0.563781 0.016672 0.086170
0.523119 -0.030481 0.037751
0.565551 -0.070785 0.039991
0.578339 0.049544 0.078040
0.599209 -0.010976 0.057242
0.594063 0.041740 0.048399
0.588179 -0.081507 0.015031
0.538030 -0.052592 0.032348
0.564071 0.023252 0.011250
0.593297 -0.059529 0.006694
0.548651 -0.062452 0.036039
0.574851 0.052382 0.079238
0.512912 0.002373 0.052247
0.563667 0.016848 0.086224
0.590383 -0.028802 0.061566
0.593837 0.001341 0.025378
0.590026 -0.016509 0.065879
0.517535 0.064218 0.039399
0.585147 0.053819 0.069133
0.547375 -0.063324 0.028923
0.599406 0.026038 0.051848
0.542189 -0.055443 0.017825
0.583804 0.041526 0.076588
0.577864 0.017574 0.016354
0.601637 0.005137 0.055450
0.538463 0.073821 0.029072
0.541095 0.055105 0.016718
0.523490 0.011692 0.074286
0.579663 0.045887 0.027457
0.536785 -0.013813 0.006808
0.559967 0.056550 0.083746
0.510837 0.006369 0.047027
0.510684 0.043124 0.046891
0.558630 0.031232 0.088365
0.603821 -0.026442 0.031565
0.512254 0.052303 0.046977
0.513575 -0.008006 0.035634
0.584172 0.008348 0.076895
0.572147 -0.054636 0.056333
0.561001 0.004708 0.083928
0.539801 -0.012055 0.075522
0.558287 0.083440 0.059258
0.536322 -0.009210 0.075284
0.581550 0.045893 0.029307
0.563422 0.049062 0.018258
0.558698 0.077048 0.036577
0.577610 0.016052 0.015829
0.514279 0.012468 0.024143
0.556544 0.055396 0.084738
0.568343 -0.009417 0.077976
0.586714 0.051840 0.040850
0.538991 0.081051 0.038237
0.581157 -0.055856 0.005391
0.519267 0.020854 0.017650
0.556849 0.024902 0.088192
0.598732 0.004944 0.062099
0.581062 -0.077638 0.011469
0.597248 0.007610 0.031859
0.550791 -0.066381 0.029652
0.568172 -0.019674 0.074092
0.534550 0.013358 0.008719
0.552639 -0.031204 0.069015
0.521874 0.034289 0.076823
0.509875 0.024107 0.035694
0.543575 0.004514 0.083126
0.517645 -0.016642 0.022968
0.516700 0.006969 0.063981
0.520331 0.037819 0.021018
0.583795 -0.012973 0.070990
0.520865 0.006619 0.015218
0.553865 -0.069583 0.021587
0.531158 0.080226 0.067493
0.582486 -0.071466 0.043419
0.533700 0.066416 0.024360
0.561556 0.049415 0.085282
0.576152 0.035537 0.082504
0.550418 -0.029099 0.004203
0.586637 -0.004651 0.072182
0.580079 0.013372 0.079926
0.589378 -0.077246 0.036495
0.595723 -0.000150 0.065543
0.558108 0.078025 0.037660
0.554738 -0.051394 0.055736
0.581551 -0.081744 0.016250
0.558948 0.082484 0.047774
0.586805 0.057866 0.055606
0.559177 -0.064430 0.044706
0.578076 0.069467 0.059079
0.583952 -0.005635 0.073390
0.567680 -0.076151 0.031051
0.511890 0.009984 0.030065
0.533498 -0.045478 0.038320
0.513503 0.020255 0.062811
0.579702 0.018149 0.017684
0.534216 0.048064 0.015745
0.586109 -0.083041 0.019710
0.590713 0.043503 0.040628
0.549672 0.078310 0.034163
0.534249 -0.043266 0.045261
0.563373 0.002194 0.007023
0.571943 0.000944 0.009914
0.573192 -0.055734 0.055593
0.571701 0.057868 0.078952
0.599577 -0.019381 0.054159
0.580881 0.026379 0.080524
0.517374 0.068861 0.050210
0.565925 -0.012917 0.006035
0.564012 0.047776 0.018061
0.548918 -0.018603 0.004002
0.525703 -0.036220 0.033373
0.596065 0.013178 0.066721
0.597709 0.008441 0.064096
0.549937 -0.066051 0.027525
0.568342 0.008014 0.009762
0.594735 -0.051373 0.050803
0.572741 -0.051928 0.057964
0.611499 -0.059020 0.024434
0.543188 -0.056395 0.017532
0.545471 0.010800 0.006470
0.529561 -0.008587 0.009460
0.519968 0.060957 0.068556
0.525413 0.066320 0.072714
0.533930 0.047379 0.015623
0.606027 -0.073332 0.014039
0.526487 -0.036095 0.037746
0.515294 0.009627 0.022555
0.576782 -0.024401 0.069794
0.536754 0.076467 0.032533
0.577455 -0.064887 0.005804
0.572056 0.074610 0.062142
0.548040 -0.008213 0.079577
0.577490 0.058845 0.074394
0.587496 0.055531 0.049073
0.573795 -0.016378 0.008181
0.540885 0.069096 0.079844
0.541694 0.079343 0.073597
0.572441 -0.027552 0.006393
0.514129 -0.009932 0.036089
0.547637 0.044021 0.087280
0.560463 0.078441 0.040219
0.518748 0.068229 0.041507
0.512198 -0.001835 0.035586
0.533865 0.010902 0.008695
0.520861 0.014862 0.015592
0.517347 0.014122 0.067848
0.514773 0.052134 0.036180
0.533531 0.068365 0.077669
0.527141 0.008519 0.010999
0.518077 0.003983 0.064675
0.526928 -0.026153 0.054310
0.540865 0.081634 0.038778
0.544550 -0.008710 0.004915
0.569541 0.022807 0.013340
0.552952 0.045199 0.013459
0.569893 -0.076475 0.032417
0.513314 0.011775 0.026152
0.516420 0.023110 0.068654
0.520957 0.055080 0.027241
0.550422 -0.014111 0.077429
0.574234 0.047271 0.081140
0.528590 0.011782 0.010562
0.581114 0.009749 0.016511
0.561400 -0.032044 0.003859
0.589238 -0.052545 0.007290
0.579994 -0.010975 0.011483
0.586351 0.058144 0.059318
0.573817 0.051194 0.080201
0.522642 0.040160 0.077316
0.553748 0.073621 0.077250
0.597036 -0.028216 0.018943
0.599587 0.018816 0.059008
0.568312 0.067033 0.032246
0.518694 0.032866 0.072989
0.512813 0.028936 0.062424
0.597137 -0.081260 0.024505
0.573232 0.072999 0.064034
0.600062 0.014313 0.058983
0.525116 0.042395 0.079237
0.559495 0.021784 0.087648
