ply
format ascii 1.0
element vertex 1024
property float x
property float y
property float z
end_header
0.582302 0.025001 0.079256
0.604351 -0.047446 0.040507
0.605052 -0.052333 0.038957
0.546380 0.078500 0.033291
0.544776 -0.053948 0.013957
0.599656 0.005146 0.034065
0.556575 0.074118 0.030704
0.513614 0.003299 0.055717
0.600986 -0.047514 0.014006
0.584151 -0.001959 0.015725
0.511265 0.033270 0.034506
0.520376 0.071608 0.060100
0.535523 -0.051337 0.029524
0.526469 -0.024854 0.014335
0.516091 0.022725 0.021891
0.571648 -0.001604 0.009534
0.601489 -0.015562 0.030915
0.537977 0.073266 0.028405
0.578742 0.060663 0.072010
0.535434 0.036790 0.012620
0.522799 -0.027109 0.019356
0.587306 -0.075042 0.008080
0.555323 0.085510 0.057805
0.583621 -0.058830 0.051903
0.610740 -0.063914 0.022719
0.581462 -0.004054 0.074595
0.565533 0.060400 0.080654
0.543204 0.030661 0.087157
0.554468 -0.015859 0.077146
0.558177 0.054894 0.084468
0.575196 -0.011059 0.009509
0.537749 0.022392 0.009550
0.545639 -0.061648 0.020215
0.562150 -0.069839 0.040102
0.529187 0.018408 0.080387
0.536115 -0.026109 0.065270
0.568118 -0.012998 0.007114
0.533659 0.047929 0.016035
0.550529 0.047960 0.086720
0.552015 -0.059346 0.012274
0.519264 0.067336 0.039258
0.514912 0.033742 0.066504
0.550562 0.008173 0.085213
0.520466 0.060711 0.031167
0.540618 0.075523 0.030065
0.526251 0.038392 0.016929
0.538297 -0.050293 0.017190
0.544781 -0.001654 0.081489
0.561552 0.075275 0.035132
0.610406 -0.060181 0.026408
0.610256 -0.058160 0.023543
0.513188 0.039295 0.032667
0.524133 -0.003799 0.068469
0.588741 -0.015041 0.066677
0.518442 0.051061 0.028807
0.542471 -0.018205 0.073577
0.534858 0.063308 0.079910
0.582185 0.065382 0.059198
0.548521 0.025562 0.087866
0.595587 0.027557 0.065369
0.515510 0.007085 0.062130
0.523480 -0.033139 0.036399
0.536611 -0.045455 0.015236
0.574884 0.063009 0.033574
0.511908 0.045479 0.055660
0.549404 0.073942 0.028271
0.552033 0.084161 0.043954
0.529315 0.075136 0.034925
0.522023 0.070467 0.037814
0.509721 0.025426 0.051645
0.571066 -0.080362 0.021364
0.509658 0.022076 0.051044
0.516843 0.000751 0.020363
0.567942 0.011708 0.010434
0.562072 -0.063035 0.009278
0.563067 0.071233 0.076068
0.603311 -0.013892 0.040403
0.573192 -0.052837 0.057362
0.534592 0.081980 0.041311
0.510274 0.013302 0.034889
0.560240 -0.053183 0.056427
0.550897 0.029059 0.009371
0.568268 -0.050500 0.059082
0.545081 -0.050978 0.012159
0.596014 -0.056782 0.007821
0.547660 -0.008740 0.004975
0.576921 -0.045561 0.005864
0.561134 0.072114 0.031110
0.523172 -0.016760 0.015111
0.550650 -0.049600 0.056096
0.542315 -0.057270 0.019396
0.534734 0.045679 0.015041
0.539085 0.027992 0.086283
0.520488 0.006351 0.016058
0.562550 0.078283 0.068730
0.544621 -0.058229 0.039427
0.547585 0.055781 0.084934
0.515371 0.017290 0.022403
0.549436 0.068054 0.023209
0.560283 -0.033112 0.004388
0.544078 0.086188 0.063657
0.556124 0.006954 0.084933
0.586521 0.059568 0.054132
0.594011 0.028111 0.067868
0.599655 0.015500 0.038663
0.553020 0.050968 0.086093
0.509892 0.018376 0.051392
0.513501 -0.001571 0.027726
0.593911 -0.034409 0.056287
0.564258 0.025095 0.086983
0.550790 0.035180 0.088059
0.511892 0.045879 0.041694
0.565220 0.058097 0.022645
0.528719 0.058396 0.078065
0.586313 0.014467 0.021337
0.556991 -0.003220 0.005440
0.530448 0.065835 0.025428
0.595640 0.031303 0.039315
0.592220 0.049332 0.056966
0.562762 0.019115 0.086607
0.541054 0.019271 0.086084
0.591204 0.042015 0.067933
0.571308 -0.022134 0.072245
0.544228 0.006644 0.083936
0.531079 0.001499 0.076977
0.596002 -0.031000 0.055246
0.574519 0.011942 0.013102
0.534067 -0.042170 0.015473
0.560124 0.034437 0.087904
0.596722 -0.023467 0.056444
0.561198 0.082588 0.049622
0.601026 0.019951 0.051450
0.572129 -0.028661 0.069407
0.545087 -0.013154 0.005238
0.540015 0.030105 0.086499
0.526679 0.052604 0.020946
0.552284 0.060920 0.019323
0.579359 -0.032546 0.065435
0.537081 0.041049 0.085075
0.551537 -0.021856 0.004326
0.550051 0.076220 0.030895
0.551196 0.081782 0.070040
0.512751 0.009349 0.027976
0.585182 -0.018226 0.012957
0.565771 0.069448 0.031603
0.588178 -0.042462 0.009002
0.570442 -0.079653 0.024809
0.537923 -0.046405 0.014702
0.598735 -0.073717 0.009009
0.538992 0.021580 0.009181
0.542992 0.082547 0.070357
0.526900 0.071734 0.070888
0.541038 0.084921 0.066154
0.581455 0.065625 0.048537
0.559944 0.071761 0.076910
0.518089 -0.009266 0.055354
0.562994 0.006637 0.007949
0.592432 -0.081782 0.017060
0.553086 -0.005914 0.081059
0.593851 -0.053606 0.049649
0.598691 0.020350 0.060813
0.558980 0.019022 0.087131
0.542331 0.061163 0.082793
0.587630 0.056238 0.047594
0.561986 -0.072348 0.035608
0.553506 -0.006348 0.004876
0.549674 0.009956 0.085602
0.515932 0.058010 0.037879
0.548075 -0.062314 0.037459
0.584353 0.048411 0.073390
0.592164 0.048360 0.060175
0.514259 0.043056 0.063782
0.598150 -0.040211 0.014922
0.543900 0.058803 0.017919
0.549407 0.060380 0.083718
0.584117 0.022141 0.078024
0.556325 -0.040741 0.064277
0.559023 0.066846 0.079994
0.577887 -0.023403 0.069494
0.524362 0.070194 0.068974
0.556756 -0.046756 0.006085
0.574651 0.036108 0.082886
0.548465 0.056700 0.084743
0.514509 0.030711 0.026137
0.574360 -0.041136 0.005822
0.591637 -0.011304 0.065657
0.577690 -0.067430 0.006067
0.526245 0.057335 0.023181
0.594572 0.003303 0.066989
0.601988 -0.057522 0.010359
0.528251 0.054263 0.079001
0.539017 -0.017216 0.006872
0.526899 0.018504 0.012579
0.580274 -0.017452 0.070651
0.587238 0.054673 0.043420
0.581847 0.061869 0.066767
0.589470 0.019881 0.073804
0.532215 -0.047365 0.027736
0.566918 0.022774 0.012232
0.558676 -0.008102 0.005294
0.554202 0.037560 0.011684
0.549554 0.069570 0.024371
0.517168 0.024588 0.069836
0.555861 0.058574 0.018995
0.522773 0.003507 0.070707
0.555244 0.084911 0.060799
0.549448 -0.056258 0.048676
0.511735 0.003631 0.049646
0.528102 -0.035127 0.046591
0.540512 0.035586 0.086385
0.536845 0.010781 0.082807
0.595138 0.036114 0.042076
0.571710 -0.080601 0.021266
0.568451 0.054704 0.022728
0.546673 0.074581 0.077516
0.516532 0.066208 0.047308
0.543463 -0.056551 0.040598
0.533292 -0.015359 0.070059
0.604290 -0.029814 0.032956
0.589335 0.006605 0.021857
0.569047 0.058985 0.025531
0.609826 -0.062741 0.018245
0.558896 0.071309 0.028951
0.575369 0.013894 0.081755
0.581363 -0.078845 0.034128
0.592053 -0.081952 0.017426
0.547975 0.046771 0.013409
0.598345 0.031688 0.049492
0.564895 -0.013527 0.006207
0.514712 0.030868 0.066203
0.602978 -0.025819 0.043864
0.528725 0.023511 0.081075
0.551181 -0.032670 0.068126
0.577437 0.056379 0.030681
0.527324 -0.013723 0.065636
0.519101 -0.025777 0.032606
0.512614 0.049902 0.042084
0.560978 0.025674 0.010838
0.523482 0.000079 0.013594
0.606682 -0.041950 0.029128
0.530191 -0.002006 0.010050
0.563826 -0.010742 0.006181
0.517671 0.014685 0.019281
0.534377 -0.008827 0.074510
0.516996 0.030939 0.022703
0.587909 -0.067418 0.045353
0.552683 0.085946 0.060230
0.584064 -0.020050 0.067865
0.574991 0.046409 0.023144
0.583706 0.036833 0.026179
0.583785 -0.079407 0.012057
0.584512 -0.016846 0.012855
0.602870 -0.026538 0.029052
0.594599 0.024817 0.033797
0.559927 0.083697 0.055724
0.521328 -0.010190 0.060429
0.517473 0.052669 0.067460
0.523085 0.036712 0.077661
0.516779 0.057956 0.063804
0.585598 0.060490 0.050643
0.597988 -0.069785 0.039142
0.602412 0.010720 0.047350
0.534474 0.020894 0.083911
0.548206 -0.038682 0.006742
0.533449 -0.016221 0.069643
0.576513 0.048309 0.079292
0.543923 -0.005535 0.079894
0.515031 0.003438 0.059155
0.516135 -0.009005 0.050834
0.575719 -0.077092 0.012092
0.598417 0.007360 0.032641
0.564571 -0.076301 0.028695
0.511504 -0.000296 0.038768
0.541666 0.085310 0.044913
0.568492 -0.020378 0.073705
0.538228 0.021542 0.085553
0.602811 -0.044210 0.043394
0.555373 0.003301 0.083987
0.597280 0.006517 0.030587
0.516466 -0.019252 0.032915
0.533391 -0.048680 0.030073
0.569277 -0.075447 0.013431
0.561464 0.056936 0.083083
0.574866 0.057109 0.028808
0.593030 0.033604 0.068052
0.537974 -0.044833 0.013749
0.577246 0.063703 0.037119
0.566486 -0.043070 0.063508
0.596185 0.038831 0.056415
0.569604 0.077565 0.050358
0.604682 -0.069664 0.034058
0.526772 0.077270 0.065672
0.516382 0.054476 0.034343
0.566511 -0.069282 0.010428
0.540410 -0.019809 0.006561
0.552117 0.053522 0.016044
0.539626 0.049222 0.014872
0.516708 -0.006168 0.055235
0.582775 -0.027581 0.009815
0.516036 0.044125 0.067226
0.556967 0.013542 0.086378
0.524859 -0.036849 0.027692
0.598310 0.031620 0.048943
0.519586 0.048631 0.071887
0.564938 0.079485 0.063674
0.594364 0.042879 0.059710
0.594740 0.011420 0.028797
0.599575 -0.004245 0.030736
0.524250 0.030520 0.078604
0.525953 -0.019875 0.013492
0.583963 -0.040027 0.008045
0.562288 -0.016847 0.005339
0.509497 0.024573 0.037900
0.535594 -0.027013 0.064270
0.597834 0.008206 0.031996
0.575152 -0.054404 0.056199
0.554061 0.063899 0.082179
0.519136 0.066728 0.062904
0.602053 -0.033560 0.045908
0.537306 -0.038034 0.057124
0.576003 -0.053526 0.056580
0.552924 0.083859 0.065690
0.530706 0.083830 0.054059
0.522694 0.049254 0.022987
0.564723 0.045921 0.085087
0.544305 -0.041118 0.059830
0.590253 0.027212 0.029153
0.590073 -0.036685 0.011192
0.564530 0.079050 0.065341
0.578751 -0.061649 0.005125
0.562835 0.081578 0.049078
0.515092 -0.003510 0.053767
0.534920 -0.012608 0.008170
0.543195 -0.053505 0.014908
0.560908 -0.050951 0.058225
0.581299 0.018266 0.018478
0.519515 0.007800 0.068643
0.541314 0.083764 0.068363
0.582853 0.015353 0.078247
0.510856 0.003297 0.039590
0.510707 0.038984 0.041279
0.511257 0.008523 0.032704
0.548601 0.042057 0.087348
0.525361 0.045849 0.078736
0.561784 0.063732 0.024272
0.574253 -0.081197 0.023412
0.595283 0.025665 0.066340
0.591684 -0.079774 0.012520
0.531244 -0.037626 0.049388
0.603090 -0.021967 0.043425
0.573973 -0.040799 0.063578
0.509934 0.009603 0.045080
0.598759 0.029779 0.048481
0.512404 0.000699 0.049293
0.520497 0.055506 0.071039
0.602872 0.004566 0.048858
0.540440 0.084022 0.067694
0.520036 0.029218 0.019044
0.601611 0.016533 0.047958
0.548667 0.086925 0.060091
0.533127 0.033021 0.012558
0.511642 0.039984 0.057024
0.537100 0.006114 0.081647
0.600991 -0.078336 0.028183
0.548739 -0.047516 0.008931
0.530716 0.049147 0.081617
0.596195 -0.007083 0.062258
0.607958 -0.048145 0.030397
0.535061 -0.024315 0.065658
0.582342 -0.048032 0.006512
0.516336 0.045156 0.067556
0.581963 -0.048862 0.057441
0.534948 0.005219 0.008625
0.581827 0.015119 0.078804
0.586174 0.016434 0.076234
0.569240 0.078063 0.059041
0.565145 -0.054123 0.005834
0.604700 -0.033608 0.037505
0.556715 -0.008054 0.005013
0.529292 0.046769 0.017554
0.540101 0.018178 0.008529
0.543458 0.058794 0.017945
0.603308 -0.017041 0.038041
0.540467 -0.057336 0.026911
0.567663 -0.056603 0.005837
0.557997 0.059938 0.082946
0.597564 -0.075347 0.009648
0.518296 0.038237 0.023663
0.535517 -0.005534 0.076730
0.606566 -0.070931 0.030945
0.555753 -0.061046 0.047476
0.607237 -0.047530 0.033468
0.601110 0.003133 0.056316
0.573186 0.059913 0.029358
0.526304 0.029826 0.080223
0.566833 0.037036 0.086023
0.598593 -0.001211 0.060540
0.522342 0.057310 0.026813
0.550700 0.040797 0.011959
0.519995 -0.007760 0.016794
0.530088 0.046797 0.017160
0.509336 0.019442 0.048318
0.548857 0.039816 0.011599
0.522218 0.029732 0.017390
0.555279 0.085156 0.059765
0.546983 0.074436 0.028527
0.582230 -0.055573 0.005557
0.544237 -0.032994 0.065580
0.595580 -0.054705 0.008350
0.562814 0.004314 0.083446
0.573168 -0.046586 0.060848
0.579322 -0.056426 0.005267
0.529753 0.080070 0.065824
0.601558 -0.018636 0.049040
0.551568 0.014453 0.007023
0.603106 -0.017265 0.043529
0.536821 0.039160 0.085166
0.550634 -0.019216 0.075211
0.587403 -0.077894 0.035640
0.609030 -0.053791 0.029753
0.551779 0.000397 0.005406
0.605596 -0.063598 0.035960
0.584722 -0.011080 0.014171
0.579543 0.040402 0.024025
0.515124 0.000652 0.023420
0.552488 0.055155 0.085119
0.534603 -0.039588 0.052374
0.562891 -0.010047 0.006013
0.580116 0.057996 0.034942
0.575696 -0.015733 0.073187
0.552045 0.034396 0.010592
0.513054 0.020567 0.026452
0.565252 -0.058772 0.053018
0.609644 -0.061143 0.029558
0.580001 -0.079927 0.031636
0.509117 0.020608 0.046579
0.510656 0.024203 0.032794
0.553341 -0.035157 0.067130
0.551881 0.039107 0.087906
0.518165 0.043377 0.070950
0.550423 -0.002608 0.082027
0.566829 -0.062393 0.050281
0.555761 -0.056119 0.052524
0.590715 -0.082504 0.019004
0.608150 -0.049194 0.030407
0.581432 -0.071180 0.006636
0.515050 -0.004779 0.052391
0.585114 -0.050699 0.055422
0.594776 -0.075188 0.036466
0.571902 0.072740 0.042392
0.599873 0.022879 0.044735
0.537913 0.082442 0.040380
0.565894 0.055502 0.021682
0.525181 -0.013990 0.013112
0.549154 0.059674 0.083932
0.556499 0.064949 0.022752
0.586695 -0.014166 0.068358
0.534034 0.038700 0.013475
0.562058 -0.030940 0.070077
0.546113 -0.035745 0.006787
0.586514 0.053199 0.067863
0.595173 -0.033138 0.015421
0.512355 0.007979 0.029307
0.561061 0.017732 0.086671
0.535591 -0.043163 0.049291
0.528263 0.025117 0.081034
0.540237 0.057646 0.083306
0.528816 0.055791 0.078930
0.527095 -0.015024 0.064472
0.550640 -0.021019 0.074318
0.525409 0.071606 0.069327
0.541080 -0.028057 0.067148
0.583174 0.001438 0.015793
0.602609 -0.017126 0.033735
0.517519 0.037434 0.024319
0.546353 0.046480 0.013331
0.542672 -0.010615 0.005808
0.595525 0.015360 0.067045
0.582932 -0.004243 0.014433
0.535995 0.071290 0.027214
0.599966 0.001549 0.033392
0.571890 -0.047405 0.005127
0.600592 0.004859 0.057773
0.561070 0.033338 0.087808
0.544121 -0.053640 0.014257
0.546766 0.060078 0.083705
0.515492 0.064125 0.050536
0.532787 -0.041456 0.016254
0.541400 0.079469 0.034879
0.523462 -0.013678 0.014353
0.509522 0.026769 0.050421
0.572783 0.075670 0.054131
0.595744 -0.024664 0.057295
0.540129 0.075131 0.076532
0.509940 0.028086 0.052719
0.541059 0.034519 0.086567
0.554391 0.025282 0.009031
0.517504 -0.016249 0.045606
0.553848 0.085193 0.047808
0.525090 0.062053 0.026718
0.542999 -0.012903 0.005703
0.553391 0.048563 0.086595
0.535977 -0.029326 0.009491
0.579425 -0.065749 0.048276
0.603098 -0.013615 0.037755
0.515584 -0.013030 0.025785
0.595038 0.018307 0.067636
0.522251 -0.026028 0.019548
0.564992 0.013911 0.085237
0.534195 0.036479 0.012925
0.603151 -0.018254 0.035859
0.510774 0.003680 0.040493
0.579351 -0.024703 0.009015
0.538728 -0.003617 0.007072
0.533494 -0.036055 0.054761
0.514781 0.026855 0.024563
0.597324 -0.035923 0.016014
0.604034 -0.074947 0.013920
0.584461 -0.003699 0.073141
0.605480 -0.036191 0.032055
0.512888 0.042340 0.060427
0.540258 0.017915 0.085624
0.521842 0.074721 0.046677
0.544820 0.086827 0.061687
0.577366 -0.076173 0.037544
0.529291 -0.006874 0.071797
0.536042 0.061359 0.020493
0.569261 -0.065292 0.048188
0.514478 -0.013126 0.033941
0.549625 0.087348 0.055992
0.577223 -0.021028 0.008852
0.600960 -0.054630 0.043560
0.523800 0.070518 0.068021
0.598777 -0.043794 0.048785
0.524312 -0.015099 0.013898
0.519208 0.018387 0.017858
0.517070 0.034093 0.070197
0.514286 -0.006612 0.026611
0.521636 0.020161 0.074554
0.591370 -0.060634 0.047953
0.572298 0.048906 0.022416
0.517357 -0.016637 0.023186
0.603061 -0.049910 0.042227
0.545323 -0.012564 0.005202
0.544201 0.070212 0.079713
0.540436 0.046474 0.085369
0.583716 0.062930 0.049455
0.575100 0.060553 0.031630
0.596066 -0.009959 0.024114
0.510389 0.006839 0.038651
0.544201 0.086755 0.061913
0.562629 -0.034352 0.068334
0.561609 0.058081 0.020841
0.569293 0.075609 0.066554
0.552265 0.041396 0.012306
0.531077 -0.004606 0.009645
0.590012 -0.043788 0.055868
0.560590 0.062766 0.081316
0.601881 -0.003983 0.036051
0.596447 0.019109 0.065441
0.588403 -0.045047 0.056295
0.537685 0.005824 0.081791
0.583867 0.004350 0.016928
0.516034 -0.018015 0.031367
0.524569 0.067630 0.031419
0.538148 -0.004468 0.078420
0.526545 -0.009093 0.067880
0.558251 0.084462 0.052741
0.555065 0.067473 0.080534
0.553195 -0.070055 0.022343
0.551038 0.076793 0.031815
0.573463 -0.059989 0.005473
0.603275 -0.012115 0.042376
0.592143 0.038609 0.067831
0.536500 -0.043384 0.014090
0.513368 -0.008750 0.033892
0.542241 0.003023 0.006613
0.554721 0.025141 0.009055
0.532378 -0.047441 0.025706
0.547268 -0.044711 0.058556
0.566459 0.006589 0.009047
0.551178 0.029728 0.088162
0.537327 -0.032011 0.062133
0.527256 0.080870 0.049714
0.544397 -0.016710 0.005367
0.541933 -0.011701 0.005970
0.536390 -0.046000 0.046365
0.514816 0.059209 0.057336
0.590724 -0.011445 0.018537
0.563054 -0.047801 0.005177
0.580173 0.023309 0.018986
0.531687 0.013917 0.010257
0.599609 0.017316 0.059296
0.558333 0.067531 0.079846
0.550915 -0.038123 0.005856
0.589414 0.050611 0.065065
0.532775 0.031108 0.084109
0.578024 0.014773 0.015547
0.522332 -0.032051 0.033444
0.522921 -0.026762 0.046338
0.591370 -0.026400 0.060951
0.509835 0.019545 0.035490
0.550362 -0.065902 0.033440
0.556543 -0.025188 0.072940
0.559545 0.068866 0.027057
0.516676 0.024697 0.021494
0.609756 -0.069767 0.023796
0.596290 0.039053 0.052645
0.511756 0.045487 0.054873
0.510032 0.036564 0.049290
0.562634 0.021964 0.087016
0.556293 0.007683 0.006528
0.544473 -0.041969 0.008977
0.543163 -0.018951 0.073435
0.579512 -0.048443 0.058436
0.549334 -0.022402 0.073354
0.509841 0.034513 0.042902
0.555461 0.050647 0.085978
0.517340 -0.017165 0.023589
0.537624 -0.006755 0.077234
0.599348 0.016960 0.038707
0.572986 -0.016771 0.008100
0.545078 -0.025799 0.005626
0.540917 0.052511 0.015752
0.567111 -0.078136 0.018401
0.590408 0.048371 0.043022
0.516177 -0.010999 0.023164
0.555161 -0.070662 0.019421
0.558692 0.070423 0.078178
0.606566 -0.073042 0.028812
0.529169 -0.036246 0.047258
0.594321 -0.040603 0.012291
0.534200 0.037017 0.084466
0.603599 -0.034215 0.042143
0.531924 -0.027152 0.011147
0.539544 0.057709 0.083109
0.571441 0.047301 0.082186
0.602693 0.005804 0.050073
0.593953 -0.005238 0.065440
0.531418 -0.042506 0.041674
0.512727 -0.002369 0.030856
0.585596 0.045127 0.032202
0.554361 0.046541 0.086942
0.537105 0.041686 0.013318
0.563540 -0.065311 0.009696
0.533792 0.031734 0.084531
0.585230 0.055758 0.040443
0.532051 -0.028645 0.011441
0.530638 -0.031737 0.055289
0.601775 -0.030387 0.023873
0.534976 0.069314 0.077679
0.545533 -0.031711 0.006233
0.584827 -0.060307 0.050722
0.521035 -0.028525 0.024486
0.515427 -0.004789 0.023250
0.560238 0.068239 0.026894
0.591555 0.014915 0.026326
0.541293 0.072564 0.027012
0.576157 0.061862 0.073715
0.520752 0.053598 0.026859
0.555656 -0.035163 0.004590
0.591417 -0.030518 0.059567
0.609501 -0.054180 0.026941
0.513003 0.004625 0.028142
0.531612 0.079092 0.069209
0.595959 -0.061506 0.006567
0.550026 -0.012007 0.078436
0.602000 -0.017179 0.031630
0.563167 0.049379 0.084727
0.534792 0.069964 0.026534
0.589661 0.018753 0.025609
0.522284 0.045259 0.021984
0.537841 -0.042378 0.012628
0.546406 -0.059012 0.041115
0.557700 -0.020717 0.004395
0.597000 -0.040158 0.014125
0.580628 0.062296 0.068271
0.539473 -0.049665 0.045848
0.579387 -0.057293 0.053830
0.552995 0.085333 0.047480
0.523019 0.070573 0.036356
0.541721 -0.052376 0.015411
0.517277 -0.012370 0.021413
0.511433 0.020896 0.057777
0.588476 -0.069764 0.005728
0.581765 0.047854 0.075869
0.511571 0.001268 0.045651
0.601203 -0.053269 0.011666
0.522735 -0.009315 0.014425
0.572006 0.067902 0.073053
0.538562 -0.042721 0.053791
0.581016 0.043070 0.077882
0.542623 -0.051401 0.047885
0.594534 0.033640 0.038672
0.569429 -0.074864 0.036473
0.515241 -0.012391 0.026516
0.536430 0.057112 0.018441
0.591347 -0.056033 0.006871
0.596507 -0.081218 0.020171
0.581509 -0.083025 0.021853
0.516080 0.034793 0.025261
0.588769 0.055277 0.059038
0.570102 0.077166 0.060657
0.520875 0.074302 0.051618
0.539360 0.027126 0.086343
0.575073 0.017335 0.082438
0.580584 0.051519 0.075333
0.575304 -0.004357 0.010500
0.576059 0.036155 0.082164
0.581952 0.056510 0.035987
0.594730 0.034386 0.064750
0.537017 -0.019982 0.069788
0.552432 -0.009747 0.079596
0.559305 -0.021312 0.074754
0.535454 0.074699 0.075204
0.554520 0.025684 0.009128
0.579878 0.016905 0.080084
0.548936 0.014990 0.007111
0.609204 -0.053395 0.028390
0.533891 0.043048 0.014597
0.587797 -0.030967 0.061885
0.555324 -0.050263 0.007351
0.594983 0.041491 0.058908
0.576518 0.019589 0.082073
0.558554 0.000582 0.006081
0.593109 0.047150 0.057824
0.539729 0.075354 0.076298
0.553820 0.086178 0.056935
0.559385 -0.067178 0.012627
0.536229 0.015020 0.083540
0.543426 0.072600 0.078470
0.514133 -0.011863 0.035210
0.512263 0.031794 0.060695
0.607730 -0.047337 0.025060
0.521018 0.053793 0.026634
0.606841 -0.067134 0.012659
0.600164 -0.042801 0.047418
0.549217 -0.062206 0.016221
0.585393 0.018979 0.076988
0.511521 0.046946 0.045596
0.604696 -0.076930 0.019474
0.564295 0.007744 0.084040
0.513949 -0.009246 0.029610
0.575261 0.070187 0.043351
0.606563 -0.044841 0.023371
0.540444 0.045804 0.013715
0.529791 -0.010042 0.010216
0.579785 -0.082783 0.021468
0.554108 -0.065469 0.014807
0.509111 0.026848 0.045610
0.544619 0.025972 0.009029
0.517108 -0.008346 0.054066
0.552076 0.085665 0.047802
0.594171 -0.065829 0.043680
0.539612 -0.053703 0.037993
0.563651 -0.026522 0.004978
0.581369 0.061759 0.067682
0.586807 0.053220 0.040607
0.548493 0.046724 0.013413
0.590339 -0.022794 0.062907
0.578413 0.050789 0.077262
0.583435 0.026117 0.078523
0.517079 0.062686 0.061417
0.560695 0.048894 0.016851
0.515583 0.018148 0.022126
0.551273 0.015529 0.007164
0.570036 -0.039866 0.064821
0.513161 0.007375 0.027286
0.569922 -0.068674 0.044993
0.568918 -0.078613 0.026793
0.557906 -0.044802 0.061941
0.579043 0.025741 0.081183
0.590979 0.051518 0.051384
0.584942 0.056430 0.040693
0.530150 -0.034585 0.051367
0.602604 -0.012647 0.047148
0.537027 -0.009790 0.007405
0.517078 0.008889 0.019978
0.563259 0.036775 0.014254
0.521555 0.060431 0.070462
0.593843 0.025965 0.033205
0.590216 -0.080923 0.030409
0.596840 0.024562 0.037516
0.605418 -0.074816 0.028311
0.566850 0.025126 0.012704
0.562326 0.044075 0.086182
0.580398 -0.005634 0.074612
0.523136 -0.032684 0.036003
0.597259 -0.066795 0.006478
0.517311 0.039864 0.070118
0.598312 -0.080594 0.019785
0.510270 0.025097 0.054269
0.590698 -0.082039 0.016677
0.535665 0.048584 0.015606
0.515896 0.025058 0.067925
0.558066 0.016745 0.086874
0.595903 0.040261 0.053881
0.539974 -0.018822 0.072137
0.513672 0.054862 0.042561
0.575918 -0.056394 0.005174
0.595811 -0.008206 0.062372
0.521882 0.075181 0.048316
0.556199 0.066939 0.080572
0.553499 -0.051539 0.055676
0.574967 -0.079856 0.028938
0.569853 0.037923 0.084773
0.590900 -0.058636 0.049178
0.512804 0.043967 0.036653
0.565357 0.076889 0.068611
0.512245 -0.003699 0.035976
0.590508 -0.007231 0.067968
0.599909 0.019911 0.042252
0.523838 0.060224 0.073213
0.535258 -0.015222 0.008140
0.546296 0.080396 0.072835
0.567129 -0.078660 0.023217
0.523819 -0.008207 0.013530
0.589796 -0.056905 0.050521
0.539338 -0.046494 0.013658
0.578885 0.013350 0.080042
0.536390 -0.037881 0.056339
0.599425 0.003171 0.032922
0.595682 -0.010203 0.023605
0.513900 -0.002034 0.026594
0.584639 0.049627 0.072519
0.514401 -0.012642 0.032079
0.549666 -0.026883 0.004718
0.561526 -0.033189 0.068958
0.598020 0.026930 0.060139
0.585998 0.035984 0.075608
0.549162 0.074073 0.077707
0.607855 -0.056004 0.017416
0.598529 -0.050754 0.047065
0.594369 0.029301 0.035690
0.604590 -0.072645 0.031968
0.590076 0.020471 0.073253
0.575422 -0.081795 0.021234
0.593616 -0.009706 0.021593
0.516478 -0.014116 0.045205
0.576004 0.028721 0.017765
0.540742 0.063564 0.020644
0.591954 0.050077 0.055015
0.510332 0.008208 0.037500
0.551112 -0.059930 0.013164
0.569700 -0.044996 0.004998
0.565833 0.017530 0.085667
0.522781 -0.030306 0.040066
0.565241 -0.070635 0.040824
0.579995 0.050250 0.076313
0.599760 -0.010618 0.055450
0.594222 0.041962 0.046053
0.586593 -0.081778 0.014942
0.537388 -0.052520 0.034275
0.562408 0.022947 0.010731
0.591308 -0.059940 0.006020
0.548171 -0.062338 0.037587
0.576573 0.053112 0.077638
0.513332 0.002786 0.054537
0.565723 0.017708 0.085723
0.591146 -0.028361 0.060484
0.592822 0.001212 0.023704
0.591012 -0.016002 0.064617
0.517359 0.064416 0.040514
0.586356 0.054376 0.067014
0.546543 -0.063319 0.030558
0.599717 0.026308 0.049477
0.540818 -0.055603 0.019609
0.585375 0.042202 0.074716
0.576433 0.017328 0.015232
0.602109 0.005462 0.053289
0.537756 0.073826 0.029012
0.539757 0.054916 0.016836
0.524998 0.012429 0.075876
0.578803 0.045806 0.025790
0.534906 -0.014140 0.008227
0.561935 0.057372 0.082814
0.511003 0.006704 0.049364
0.510872 0.043452 0.048664
0.560808 0.032130 0.087887
0.603079 -0.026488 0.029820
0.512452 0.052629 0.048529
0.513161 -0.007851 0.038075
0.585732 0.009032 0.075522
0.572652 -0.054245 0.056566
0.562936 0.005538 0.083752
0.541332 -0.011321 0.076671
0.559061 0.083881 0.058024
0.537848 -0.008474 0.076561
0.580780 0.045838 0.027544
0.562128 0.048863 0.017360
0.558341 0.077138 0.035452
0.576152 0.015798 0.014744
0.513309 0.012441 0.026247
0.558564 0.056238 0.083992
0.569963 -0.008690 0.077664
0.586515 0.051956 0.038722
0.538743 0.081196 0.038026
0.579121 -0.056269 0.005265
0.517975 0.020718 0.019384
0.559016 0.025802 0.087902
0.599537 0.005376 0.060076
0.579311 -0.077954 0.011678
0.596556 0.007575 0.029910
0.549989 -0.066370 0.031164
0.569590 -0.019006 0.073953
0.532790 0.013060 0.009823
0.553816 -0.030589 0.069834
0.523528 0.035065 0.078138
0.509493 0.024265 0.037818
0.545492 0.005358 0.083819
0.516590 -0.016689 0.025359
0.517701 0.007557 0.065995
0.519218 0.037731 0.022430
0.585045 -0.012378 0.069976
0.519440 0.006444 0.017098
0.552656 -0.069701 0.023007
0.532373 0.080838 0.067644
0.582324 -0.071289 0.043418
0.532759 0.066356 0.024658
0.563592 0.050259 0.084380
0.578021 0.036317 0.081098
0.548382 -0.029486 0.005187
0.587949 -0.004042 0.070895
0.581798 0.014108 0.078674
0.588859 -0.077186 0.036252
0.596698 0.000341 0.063744
0.557806 0.078132 0.036548
0.555237 -0.050986 0.056783
0.580034 -0.081986 0.016493
0.559151 0.082746 0.046537
0.587343 0.058210 0.053360
0.559113 -0.064198 0.045750
0.578807 0.069877 0.057081
0.585327 -0.005004 0.072251
0.566919 -0.076142 0.031875
0.511215 0.010053 0.032317
0.533163 -0.045307 0.040352
0.514460 0.020828 0.064779
0.578336 0.017920 0.016460
0.532832 0.047872 0.016315
0.584756 -0.083236 0.019741
0.590492 0.043610 0.038432
0.549207 0.078375 0.033470
0.534260 -0.042989 0.047212
0.561485 0.001827 0.006873
0.570186 0.000608 0.009354
0.573659 -0.055356 0.055791
0.573417 0.058597 0.077423
0.599967 -0.019070 0.052484
0.582639 0.027123 0.079029
0.517739 0.069227 0.051246
0.563973 -0.013302 0.005995
0.562707 0.047574 0.017154
0.546882 -0.018992 0.004897
0.525140 -0.036115 0.035655
0.597109 0.013685 0.064696
0.598617 0.008906 0.062067
0.549030 -0.066070 0.029077
0.566588 0.007681 0.009270
0.594941 -0.051103 0.049871
0.573328 -0.051513 0.058122
0.610368 -0.059184 0.022825
0.541801 -0.056561 0.019282
0.543584 0.010450 0.007075
0.527827 -0.008863 0.011153
0.521234 0.061605 0.069561
0.526883 0.067023 0.073360
0.532540 0.047185 0.016219
0.604376 -0.073647 0.012939
0.526140 -0.035924 0.039981
0.514242 0.009574 0.024654
0.577973 -0.023812 0.069308
0.536222 0.076528 0.032512
0.575437 -0.065286 0.006002
0.572950 0.075076 0.060357
0.549765 -0.007430 0.080252
0.578973 0.059494 0.072569
0.587707 0.055772 0.046838
0.571937 -0.016741 0.007802
0.542692 0.069885 0.079669
0.543198 0.080033 0.073231
0.570488 -0.027939 0.006257
0.513735 -0.009770 0.038533
0.549785 0.044918 0.087150
0.560286 0.078584 0.038981
0.518679 0.068458 0.042496
0.511788 -0.001680 0.038000
0.532103 0.010605 0.009871
0.519460 0.014692 0.017343
0.518545 0.014768 0.069714
0.514431 0.052288 0.037625
0.535239 0.069132 0.077873
0.525500 0.008269 0.012543
0.519108 0.004580 0.066667
0.527410 -0.025727 0.056346
0.540643 0.081785 0.038464
0.542572 -0.009080 0.005872
0.567975 0.022526 0.012554
0.551429 0.044943 0.013147
0.569196 -0.076449 0.033134
0.512444 0.011781 0.028311
0.517666 0.023769 0.070425
0.520166 0.055086 0.028344
0.552032 -0.013363 0.078080
0.576047 0.048032 0.079647
0.526928 0.011522 0.011983
0.579681 0.009501 0.015350
0.559331 -0.032453 0.004344
0.587289 -0.052941 0.006708
0.578297 -0.011297 0.010706
0.587075 0.058545 0.057085
0.575587 0.051941 0.078669
0.524324 0.040942 0.078501
0.555414 0.074350 0.076369
0.595675 -0.028446 0.017579
0.600248 0.019197 0.056731
0.567720 0.067042 0.030806
0.520160 0.033588 0.074489
0.513759 0.029503 0.064292
0.596011 -0.081398 0.023955
0.574217 0.073492 0.062214
0.600718 0.014694 0.056752
0.526892 0.043203 0.080262
0.561630 0.022671 0.087276
