ply
format ascii 1.0
element vertex 1024
property float x
property float y
property float z
end_header
0.523083 -0.037190 0.016999
0.561088 0.037841 0.029736
0.562668 0.042489 0.031376
0.571118 -0.100098 0.017621
0.593346 0.015102 0.082068
0.566823 -0.010112 0.007443
0.572811 -0.091217 0.010688
0.553540 -0.051227 0.084958
0.587785 0.037004 0.030200
0.586709 -0.010989 0.022641
0.574233 -0.077898 0.070325
0.547071 -0.107578 0.046052
0.578682 0.007857 0.090270
0.594097 -0.019226 0.083722
0.586552 -0.065988 0.070123
0.594058 -0.017242 0.032724
0.570225 0.008923 0.015701
0.576896 -0.099511 0.027010
0.529872 -0.069809 0.001939
0.593628 -0.068518 0.045599
0.589499 -0.019199 0.088479
0.595579 0.054470 0.054984
0.545717 -0.102525 0.008736
0.551972 0.037296 0.054348
0.578531 0.055826 0.030595
0.528424 -0.012145 0.031520
0.522538 -0.076290 0.014328
0.518838 -0.061483 0.048858
0.528718 -0.015140 0.060940
0.519564 -0.075198 0.023758
0.593946 -0.007264 0.034278
0.596770 -0.054748 0.050356
0.587200 0.022059 0.085678
0.566005 0.036716 0.077244
0.527177 -0.057471 0.066373
0.542511 -0.014853 0.080754
0.597048 -0.008971 0.041137
0.590161 -0.079191 0.042002
0.518202 -0.072962 0.033995
0.594443 0.023397 0.078280
0.568011 -0.103808 0.047153
0.542031 -0.077430 0.069934
0.520550 -0.038226 0.053312
0.576090 -0.097217 0.048596
0.574943 -0.100233 0.023771
0.590184 -0.074530 0.053179
0.590669 0.008654 0.086198
0.525018 -0.032385 0.062786
0.567905 -0.089915 0.006223
0.574812 0.052304 0.029402
0.577635 0.050550 0.028273
0.575751 -0.082156 0.065535
0.539996 -0.040253 0.080513
0.535843 0.001218 0.029849
0.578838 -0.089730 0.054856
0.533467 -0.018866 0.072152
0.526150 -0.093817 0.039422
0.542193 -0.071875 -0.004558
0.517732 -0.054456 0.046813
0.535579 -0.032523 0.002929
0.546896 -0.053780 0.082062
0.572602 -0.014092 0.092440
0.592672 0.003667 0.085106
0.568442 -0.072654 0.000529
0.552859 -0.088823 0.065773
0.575922 -0.094504 0.016762
0.559845 -0.102568 0.010949
0.571195 -0.105565 0.034214
0.569117 -0.105146 0.043093
0.557492 -0.072302 0.077113
0.584025 0.050782 0.072912
0.558168 -0.069396 0.078752
0.588470 -0.046425 0.080091
0.593233 -0.030683 0.029501
0.596542 0.031621 0.071088
0.527106 -0.086808 0.010730
0.560574 0.008090 0.014194
0.547408 0.026814 0.060965
0.564189 -0.109128 0.026887
0.574374 -0.060990 0.081000
0.549584 0.020802 0.072273
0.595549 -0.054119 0.035678
0.546118 0.022317 0.064250
0.595042 0.012713 0.080181
0.594613 0.042823 0.038469
0.601041 -0.022634 0.056584
0.598147 0.023754 0.049339
0.572014 -0.087250 0.007756
0.593467 -0.027916 0.082689
0.550754 0.012995 0.078800
0.588239 0.016639 0.086339
0.591095 -0.076676 0.042079
0.520159 -0.061148 0.053653
0.592286 -0.049400 0.073785
0.534308 -0.092998 0.007036
0.568104 0.018037 0.086688
0.520094 -0.081169 0.032548
0.586227 -0.061618 0.073458
0.581082 -0.089213 0.019144
0.600940 0.004803 0.057524
0.540953 -0.108786 0.018699
0.520323 -0.034433 0.049061
0.546944 -0.064542 -0.005945
0.533231 -0.033847 0.004259
0.562025 -0.019267 0.002804
0.518523 -0.074347 0.030304
0.557878 -0.066067 0.080394
0.581512 -0.046245 0.084815
0.546103 0.020923 0.033880
0.517116 -0.046322 0.033318
0.517118 -0.061734 0.040153
0.566750 -0.088785 0.064280
0.580348 -0.072794 0.010286
0.528677 -0.092487 0.046976
0.580567 -0.024407 0.013249
0.599568 -0.022892 0.045836
0.580738 -0.096636 0.036896
0.561423 -0.035024 -0.001395
0.543797 -0.052911 -0.005606
0.517761 -0.041831 0.037508
0.520354 -0.052577 0.056199
0.533137 -0.047341 -0.000113
0.532120 -0.001290 0.048957
0.522458 -0.039958 0.059431
0.530752 -0.041712 0.072695
0.546866 0.019005 0.030300
0.589943 -0.027745 0.023936
0.592608 -0.000447 0.085724
0.516396 -0.056513 0.032412
0.545444 0.012757 0.026099
0.553361 -0.096872 0.004307
0.549074 -0.022836 0.000634
0.535005 0.004881 0.051175
0.601120 -0.020054 0.061001
0.519809 -0.062540 0.051832
0.585841 -0.086821 0.046223
0.584830 -0.081491 0.019805
0.538351 0.011918 0.046439
0.521273 -0.073474 0.048882
0.601597 -0.009287 0.059587
0.573200 -0.096247 0.015332
0.534015 -0.101642 0.015286
0.581101 -0.056137 0.080141
0.589713 0.003772 0.029455
0.571137 -0.082671 0.005089
0.593881 0.026474 0.038358
0.580641 0.049761 0.073429
0.593097 0.005153 0.084383
0.593533 0.058882 0.044516
0.597036 -0.053422 0.049641
0.534467 -0.106333 0.022053
0.535709 -0.104800 0.041346
0.538786 -0.109240 0.022190
0.552867 -0.072142 -0.005045
0.526556 -0.088821 0.013257
0.553743 -0.038075 0.087199
0.596287 -0.028616 0.036041
0.586296 0.062599 0.054685
0.524744 -0.024595 0.057633
0.553126 0.037813 0.042712
0.539971 -0.024593 0.003341
0.517604 -0.043616 0.040881
0.522611 -0.088371 0.034266
0.553416 -0.060911 -0.005888
0.570546 0.038950 0.078194
0.600530 -0.021855 0.050336
0.520210 -0.040226 0.053244
0.569901 -0.097272 0.054480
0.569820 0.023344 0.085510
0.528224 -0.056424 0.003205
0.540630 -0.052182 -0.004779
0.544603 -0.085790 0.065683
0.586989 0.029225 0.029167
0.587074 -0.083710 0.027976
0.521031 -0.084252 0.028603
0.524197 -0.033774 0.016711
0.541880 0.007820 0.070309
0.523679 -0.085075 0.016752
0.534256 0.003114 0.043618
0.537889 -0.104646 0.044121
0.599880 0.014920 0.067424
0.519965 -0.050718 0.018531
0.520180 -0.081534 0.031318
0.582307 -0.073843 0.067981
0.598339 0.018646 0.049388
0.536501 -0.000593 0.025413
0.598339 0.043186 0.059402
0.583558 -0.091221 0.044492
0.534582 -0.011925 0.015840
0.591532 0.046321 0.033891
0.527879 -0.089140 0.049494
0.600161 -0.019531 0.068405
0.594876 -0.056756 0.061949
0.532749 -0.000938 0.038742
0.557641 -0.059621 -0.005173
0.534767 -0.069192 -0.001835
0.527933 -0.029064 0.012782
0.580692 0.002828 0.091024
0.591304 -0.040881 0.025137
0.599657 -0.017807 0.046753
0.592749 -0.059977 0.028866
0.579882 -0.090510 0.018407
0.538695 -0.068442 0.072775
0.584864 -0.077687 0.017822
0.537742 -0.047349 0.078323
0.542757 -0.102126 0.009379
0.558395 0.018420 0.082407
0.559755 -0.052264 0.085854
0.562059 -0.010386 0.090364
0.519758 -0.067071 0.048706
0.524200 -0.047144 0.063698
0.558620 -0.039541 -0.003058
0.584066 0.051308 0.072462
0.580029 -0.068258 0.009155
0.527161 -0.097791 0.023435
0.560284 -0.104391 0.050828
0.567014 0.015975 0.086980
0.537785 -0.025739 0.078384
0.568231 0.022658 0.020445
0.579928 -0.016089 0.014529
0.577091 -0.071776 0.006804
0.583047 0.054483 0.030393
0.574394 -0.087583 0.009888
0.521497 -0.030973 0.028682
0.570306 0.054138 0.064441
0.585972 0.062551 0.055131
0.591430 -0.071101 0.029914
0.551027 -0.034323 -0.002974
0.598270 -0.010062 0.044105
0.542410 -0.075014 0.071487
0.557416 0.018225 0.020648
0.526428 -0.062164 0.064339
0.538369 -0.001842 0.071176
0.571219 -0.065545 0.001292
0.542722 -0.029961 0.082342
0.576638 -0.022545 0.092275
0.566207 -0.091948 0.061721
0.593197 -0.046276 0.028735
0.594587 -0.042398 0.074031
0.572071 0.034514 0.023956
0.597517 -0.037197 0.068904
0.598338 -0.013011 0.043665
0.589170 -0.058134 0.072447
0.533113 -0.031028 0.074663
0.585481 -0.072727 0.065392
0.558264 0.047065 0.054223
0.543547 -0.104266 0.011039
0.535215 0.003260 0.036468
0.579167 -0.057839 0.007588
0.575519 -0.045312 0.005008
0.592051 0.056438 0.060547
0.589850 0.002244 0.029351
0.572182 0.019219 0.019705
0.567153 -0.029724 0.002166
0.547386 -0.098633 0.005438
0.548402 -0.035827 0.085320
0.540429 -0.092700 0.058534
0.530082 -0.076334 0.062442
0.544021 -0.097545 0.056203
0.550484 -0.065697 -0.005924
0.563532 0.054237 0.046064
0.553219 -0.013997 0.003570
0.523112 -0.057150 0.060904
0.599871 0.003680 0.070942
0.538203 -0.024900 0.078631
0.523102 -0.060338 0.010604
0.526771 -0.029377 0.065281
0.549981 -0.050752 0.083984
0.558422 -0.039131 0.088341
0.592737 0.050472 0.066408
0.568311 -0.012608 0.007298
0.577264 0.043856 0.077241
0.570687 -0.048647 0.086958
0.559857 -0.108670 0.019462
0.530899 -0.004240 0.050674
0.521105 -0.055924 0.057486
0.558293 0.034186 0.029757
0.521414 -0.031590 0.051412
0.570482 -0.012372 0.008504
0.576443 -0.029530 0.091391
0.578283 0.004482 0.090868
0.591986 0.045847 0.071312
0.520585 -0.075331 0.019779
0.573313 -0.067386 0.002986
0.533024 -0.039120 0.002436
0.594008 0.003835 0.083480
0.564674 -0.072204 -0.001527
0.541724 0.014844 0.062571
0.544192 -0.041802 -0.003951
0.551932 -0.088400 -0.000450
0.567950 0.057552 0.039725
0.540793 -0.109540 0.038257
0.573453 -0.093871 0.055488
0.595107 0.039205 0.070408
0.600393 -0.016580 0.068438
0.588268 -0.075032 0.023265
0.590720 -0.077364 0.036088
0.553927 -0.041447 0.086867
0.593270 0.010837 0.035829
0.540982 -0.085950 0.063942
0.518663 -0.039803 0.045239
0.581215 -0.009937 0.092246
0.551579 -0.034266 -0.002962
0.535908 -0.088272 0.059095
0.539086 -0.092735 0.003903
0.541000 -0.046315 -0.004045
0.572401 -0.017837 0.008137
0.570344 -0.001872 0.011799
0.529164 -0.070394 0.064554
0.594879 -0.023794 0.081652
0.595184 0.022316 0.040729
0.599454 -0.008419 0.047910
0.571211 -0.071280 0.076436
0.543575 -0.014291 0.081555
0.568990 -0.013612 0.007329
0.548412 0.029171 0.059925
0.522043 -0.084997 0.022701
0.544503 -0.104011 0.049780
0.555635 0.024461 0.025433
0.550760 -0.003645 0.084798
0.547932 0.028812 0.058792
0.538134 -0.102484 0.012363
0.551834 -0.113004 0.030545
0.584262 -0.085910 0.051509
0.518514 -0.064191 0.022537
0.547464 0.002392 0.080496
0.572139 -0.033807 0.004324
0.591397 0.022305 0.034091
0.537474 -0.092602 0.004627
0.599052 0.038693 0.055563
0.553768 -0.095175 0.003332
0.555486 -0.044513 0.086829
0.599162 -0.025588 0.069821
0.592540 0.013916 0.083311
0.547683 0.019133 0.070770
0.583810 -0.030090 0.015466
0.540016 -0.052627 0.078851
0.536587 -0.108159 0.022724
0.524242 -0.028482 0.021153
0.569854 -0.052118 0.085836
0.567424 -0.083343 0.068646
0.576557 -0.056282 0.082283
0.517887 -0.068779 0.038616
0.528599 -0.083214 0.056095
0.578936 -0.079433 0.010656
0.581700 0.053012 0.070751
0.534682 -0.031050 0.004211
0.590843 0.060611 0.053923
0.559029 -0.006749 0.089127
0.557759 0.014935 0.018623
0.540890 0.016528 0.054975
0.564344 -0.058221 0.084062
0.552035 -0.032428 -0.002493
0.560105 -0.049371 0.086677
0.536518 -0.093794 0.054859
0.551806 -0.008451 0.006327
0.537330 -0.108792 0.023293
0.588869 -0.069636 0.063257
0.552567 -0.019473 0.001474
0.544047 -0.107081 0.014027
0.593991 -0.066360 0.049438
0.551644 -0.084202 0.068823
0.525430 -0.042919 0.065654
0.574335 0.063469 0.046621
0.597831 0.011578 0.075011
0.525150 -0.083549 0.050109
0.539357 -0.001946 0.019077
0.570819 0.040503 0.026003
0.542187 -0.016943 0.080825
0.597036 0.028543 0.045911
0.540603 -0.086711 0.063209
0.546406 0.027640 0.051423
0.598326 -0.041126 0.061108
0.523790 -0.028796 0.022208
0.525904 -0.027742 0.017555
0.543316 -0.089259 0.000436
0.599485 0.025454 0.063736
0.563746 0.026037 0.022374
0.600123 -0.018802 0.048403
0.589091 -0.080360 0.046498
0.597652 -0.049895 0.050286
0.587091 -0.083919 0.028366
0.562991 0.010901 0.015517
0.580938 0.015580 0.088677
0.599294 0.028848 0.062769
0.520988 -0.079640 0.021301
0.593045 0.059712 0.046389
0.584246 -0.078479 0.060781
0.530724 -0.033403 0.072270
0.570895 0.059666 0.038421
0.559089 0.025713 0.079174
0.567819 0.039527 0.026615
0.544583 -0.008276 0.009255
0.572866 -0.070667 0.003121
0.527372 -0.068829 0.063264
0.517571 -0.055441 0.025148
0.540713 -0.005841 0.013961
0.580316 -0.093212 0.048228
0.592741 -0.064519 0.030342
0.591904 -0.037363 0.081192
0.589407 -0.079984 0.045757
0.560968 -0.067181 0.080065
0.593296 -0.064556 0.032386
0.590295 -0.068969 0.060958
0.543778 -0.102294 0.009131
0.575888 -0.096127 0.018642
0.598159 0.035088 0.049612
0.541573 -0.004885 0.077115
0.594084 0.040786 0.037877
0.521219 -0.028816 0.044415
0.543808 0.021255 0.058251
0.598743 0.034416 0.052523
0.540297 -0.110525 0.034316
0.552247 0.011123 0.018846
0.598133 -0.040994 0.042030
0.557554 0.010842 0.016317
0.521247 -0.071957 0.050040
0.531083 -0.014036 0.065725
0.568203 0.056223 0.058881
0.571479 0.045966 0.027779
0.600023 -0.028594 0.048579
0.565839 0.052658 0.036140
0.588396 -0.002716 0.026468
0.577983 -0.050400 0.006666
0.585594 -0.047266 0.081916
0.519454 -0.078229 0.028623
0.555778 -0.003480 0.087457
0.598580 -0.014070 0.044120
0.566688 -0.065763 -0.001423
0.530626 -0.004748 0.042106
0.594109 -0.058244 0.032183
0.582349 -0.065723 0.074240
0.552618 0.028223 0.070347
0.571771 0.052681 0.030830
0.572939 0.054485 0.065918
0.562695 -0.068255 0.079521
0.576190 -0.070245 0.075133
0.539207 0.001411 0.070428
0.517082 -0.064618 0.037270
0.537088 -0.084361 0.062812
0.523965 -0.028807 0.058414
0.555268 0.032228 0.070497
0.553959 0.021280 0.077227
0.584541 0.062333 0.056708
0.570813 0.041511 0.026351
0.597495 0.048269 0.058048
0.556886 -0.043389 0.087357
0.548154 0.030840 0.049402
0.566618 0.057449 0.051243
0.559744 -0.082845 -0.000826
0.555804 -0.025763 -0.000430
0.564788 -0.107879 0.023695
0.581298 -0.070175 0.010882
0.595205 -0.029291 0.079403
0.520857 -0.083766 0.029188
0.580928 -0.083037 0.014499
0.534346 -0.000594 0.031352
0.592871 -0.070892 0.045957
0.535351 0.001919 0.061084
0.599964 0.000094 0.071322
0.533417 -0.059382 -0.001531
0.586624 0.021589 0.028331
0.579844 -0.055174 0.081280
0.517891 -0.041460 0.039666
0.558828 0.000207 0.088062
0.526478 -0.063790 0.063949
0.522377 -0.086345 0.037851
0.527863 -0.090194 0.048249
0.543931 -0.028906 0.083068
0.532010 -0.012436 0.066519
0.537407 -0.105374 0.042555
0.540210 -0.010778 0.077580
0.586662 -0.014429 0.021831
0.567346 0.010755 0.015760
0.583684 -0.078178 0.061910
0.591669 -0.071639 0.031455
0.600729 -0.023465 0.061904
0.534178 -0.021969 0.009114
0.588160 -0.009558 0.024696
0.578312 -0.098725 0.029585
0.567540 -0.006805 0.008872
0.599401 0.022920 0.054533
0.543145 -0.010075 0.008996
0.516424 -0.055090 0.032122
0.593103 0.014505 0.082513
0.521303 -0.085281 0.031038
0.557216 -0.103175 0.053053
0.591939 -0.001719 0.086557
0.569993 -0.103425 0.021612
0.594128 -0.030439 0.080857
0.558701 -0.073536 0.076513
0.547915 -0.085300 -0.001923
0.544716 0.013298 0.027613
0.528754 -0.101446 0.028746
0.556345 -0.074544 0.075721
0.519547 -0.065878 0.048772
0.595634 -0.049107 0.034467
0.563649 -0.031998 0.090212
0.555813 -0.102688 0.009231
0.580046 -0.095998 0.043514
0.600851 -0.021308 0.062731
0.518039 -0.072083 0.031207
0.598104 -0.010538 0.077217
0.556130 0.041375 0.061034
0.563223 0.007821 0.013994
0.583490 -0.035183 0.088440
0.533574 -0.024793 0.008149
0.589338 -0.020415 0.088442
0.519023 -0.036165 0.037995
0.593450 -0.068862 0.046854
0.565204 0.011943 0.016042
0.568955 -0.052517 0.085805
0.594332 0.006675 0.037313
0.599699 -0.031531 0.062014
0.553433 -0.007169 0.086911
0.583929 -0.070305 0.069487
0.585889 0.025053 0.027885
0.588166 0.062409 0.040986
0.529577 -0.010945 0.028611
0.569151 0.028824 0.022451
0.548088 -0.085743 0.066907
0.520918 -0.051772 0.057510
0.560223 -0.109194 0.041997
0.542830 -0.108924 0.017558
0.567231 0.049757 0.066918
0.536256 -0.035143 0.077860
0.585209 -0.089856 0.033777
0.557180 0.036005 0.069612
0.575481 -0.035872 0.090211
0.548026 -0.106864 0.012605
0.594619 0.002435 0.037342
0.558527 0.042358 0.036480
0.538885 -0.105177 0.044361
0.553304 0.031697 0.033555
0.594530 -0.028772 0.080773
0.590360 -0.060568 0.069168
0.538141 -0.076784 0.068238
0.582655 -0.041436 0.086500
0.533667 -0.062530 0.071513
0.555201 0.042772 0.048145
0.580095 -0.061312 0.008631
0.585984 -0.031098 0.088427
0.559552 0.039310 0.032222
0.601121 -0.020452 0.060504
0.525304 -0.095255 0.027924
0.520543 -0.076568 0.043344
0.551795 -0.068712 -0.005598
0.570409 -0.070353 0.001362
0.577393 0.001578 0.017019
0.570757 -0.055407 0.084419
0.542665 -0.109171 0.018152
0.537104 0.005221 0.062096
0.582489 -0.074496 0.013254
0.535886 -0.087306 0.002297
0.592233 -0.064286 0.028725
0.597891 -0.034486 0.069372
0.547093 0.027201 0.041813
0.522302 -0.080790 0.017515
0.564829 -0.001122 0.010171
0.535605 -0.024740 0.006328
0.546849 0.027499 0.043865
0.525237 -0.042384 0.065302
0.585404 -0.016661 0.019911
0.577998 -0.030776 0.091016
0.575299 -0.101247 0.041675
0.528768 -0.033091 0.069626
0.540465 -0.034441 0.080960
0.550498 -0.100035 0.006237
0.523507 -0.087574 0.019926
0.584539 0.033024 0.083447
0.572178 -0.096289 0.014282
0.599175 0.034648 0.059365
0.558575 0.006469 0.013539
0.533222 -0.043910 0.000732
0.593778 0.001841 0.084080
0.575542 -0.040228 0.089025
0.599678 -0.035585 0.055673
0.595582 -0.048824 0.034252
0.582699 0.003030 0.090729
0.548524 0.007009 0.079567
0.594864 -0.026909 0.033164
0.517095 -0.056794 0.042497
0.545643 -0.009027 0.082299
0.556552 -0.111989 0.034578
0.601134 -0.017296 0.063352
0.600662 -0.022885 0.063092
0.561725 0.003154 0.088484
0.550619 -0.099414 0.056685
0.583485 0.000417 0.021854
0.600204 0.018939 0.062391
0.583304 -0.035051 0.014020
0.596828 -0.050349 0.059828
0.541457 -0.021456 0.003889
0.523878 -0.086006 0.017001
0.600482 0.004543 0.068237
0.535979 -0.055628 -0.003040
0.522859 -0.066890 0.057392
0.587114 -0.028566 0.019741
0.575629 -0.015519 0.092626
0.562628 -0.020205 0.090734
0.541533 0.012567 0.032597
0.573684 -0.066663 0.078379
0.573677 0.027703 0.084909
0.532905 -0.005874 0.063316
0.576270 -0.085082 0.010344
0.586849 -0.067410 0.068614
0.577679 0.060415 0.034416
0.547929 -0.041838 -0.004504
0.553656 -0.088882 0.065827
0.559568 -0.081790 0.071167
0.517306 -0.044388 0.036262
0.598319 -0.032767 0.041203
0.598074 0.004654 0.075997
0.533558 -0.017873 0.071905
0.545641 0.026047 0.053435
0.533123 -0.011843 0.068238
0.565987 -0.079916 0.071738
0.518412 -0.072869 0.028334
0.585595 -0.030657 0.088737
0.530046 -0.031321 0.071089
0.561980 -0.020691 0.002358
0.595682 -0.003328 0.038859
0.601005 -0.009048 0.067238
0.589651 -0.079624 0.033441
0.587304 0.046990 0.074972
0.557869 -0.052565 -0.004872
0.585998 -0.036589 0.086685
0.587272 0.034598 0.081766
0.525442 -0.088303 0.015116
0.573062 0.061566 0.039254
0.561318 -0.008907 0.090050
0.589981 0.027767 0.032431
0.522240 -0.071353 0.053296
0.559248 0.025896 0.024061
0.596797 -0.014462 0.079820
0.522638 -0.086733 0.038403
0.520729 -0.062024 0.015766
0.550588 -0.009652 0.005989
0.536366 -0.004740 0.020414
0.566794 -0.002193 0.090642
0.578488 -0.046017 0.086171
0.569166 -0.051787 -0.000127
0.517645 -0.069857 0.031389
0.592669 -0.071986 0.041818
0.596035 0.034311 0.070970
0.522327 -0.066950 0.056243
0.560772 -0.061465 -0.004244
0.596524 -0.013108 0.080469
0.553088 -0.012346 0.087322
0.577523 0.022184 0.022053
0.528229 -0.098930 0.036169
0.600484 -0.003690 0.069796
0.553064 0.039207 0.053916
0.584593 -0.018973 0.091183
0.585851 -0.042371 0.084302
0.576379 -0.084192 0.010035
0.575090 -0.022372 0.008953
0.577980 -0.097238 0.024349
0.528397 -0.072168 0.003752
0.580502 -0.090756 0.051428
0.601226 0.004320 0.062559
0.542994 0.016218 0.034443
0.574240 0.046615 0.027297
0.581013 -0.051901 0.082252
0.536772 -0.108859 0.033501
0.595968 0.046949 0.040712
0.527777 -0.020708 0.063024
0.569499 0.010562 0.016116
0.518947 -0.067958 0.022158
0.579133 -0.098139 0.031213
0.575903 -0.026624 0.008648
0.585385 -0.082600 0.053728
0.595083 0.001662 0.082288
0.566271 0.019546 0.085683
0.600915 -0.007265 0.053693
0.587890 0.028639 0.030063
0.533378 -0.070204 -0.000847
0.562023 0.007871 0.087558
0.550426 0.033829 0.057446
0.556219 -0.103218 0.009872
0.570471 -0.104711 0.042041
0.592156 0.012196 0.084083
0.587665 -0.034806 0.086239
0.551322 -0.067689 0.078423
0.597694 0.050509 0.051165
0.526017 -0.057275 0.005954
0.563797 -0.050171 0.086780
0.590216 0.042193 0.032611
0.594032 -0.034600 0.079357
0.529324 -0.079444 0.004329
0.554057 0.001148 0.085692
0.524188 -0.053529 0.009134
0.559731 0.010868 0.085869
0.562119 -0.037584 -0.001642
0.569028 0.044761 0.073056
0.582782 -0.035928 0.088494
0.587306 -0.085907 0.035328
0.595989 0.039914 0.042058
0.582799 0.064013 0.051168
0.582597 0.058200 0.065211
0.582941 -0.076607 0.064538
0.541938 -0.059840 -0.005331
0.541644 -0.088101 0.000280
0.555407 -0.109442 0.043504
0.520091 -0.060260 0.053845
0.520772 -0.034136 0.027318
0.526585 -0.061032 0.005132
0.592806 -0.013081 0.030994
0.520548 -0.050049 0.017220
0.565504 -0.063599 -0.002188
0.536131 -0.038876 0.000270
0.537798 -0.019880 0.077395
0.526345 -0.021533 0.059940
0.530753 -0.007952 0.059193
0.530532 -0.103320 0.032885
0.595517 -0.049398 0.034167
0.522665 -0.031343 0.023143
0.598286 -0.042753 0.044056
0.572810 0.045745 0.027306
0.591675 -0.074783 0.044057
0.541043 0.014772 0.038019
0.598832 0.017240 0.070501
0.541769 -0.044780 -0.003977
0.520949 -0.035383 0.024928
0.598700 -0.025458 0.042680
0.542906 -0.050599 -0.005227
0.529020 -0.101830 0.028961
0.546711 -0.103818 0.009630
0.593555 0.033821 0.075761
0.523438 -0.051161 0.062225
0.526565 -0.097681 0.027310
0.574224 -0.037177 0.090010
0.548107 -0.076864 0.072640
0.576136 0.039838 0.025305
0.580696 -0.090789 0.051082
0.588985 0.057009 0.034608
0.554511 0.031549 0.031738
0.590844 0.024410 0.082476
0.525174 -0.030364 0.017057
0.562879 -0.090007 0.064445
0.582618 0.064304 0.041904
0.520413 -0.031097 0.041508
0.579759 -0.039390 0.088363
0.558523 -0.079003 -0.002397
0.577874 0.037139 0.024934
0.591867 -0.073953 0.036944
0.597562 -0.030393 0.073202
0.583140 0.057156 0.066551
0.591853 0.029687 0.079702
0.563526 -0.073669 0.076379
0.596555 -0.054492 0.042599
0.555099 -0.039321 0.087477
0.555978 -0.103967 0.010536
0.559297 0.048792 0.047860
0.569913 0.011681 0.088679
0.599890 0.000691 0.051433
0.533905 -0.069356 -0.001281
0.560512 -0.058486 -0.004352
0.591378 -0.070807 0.029489
0.539608 0.008864 0.031908
0.524888 -0.061513 0.007553
0.523681 -0.037587 0.015401
0.546267 -0.101453 0.053402
0.586744 -0.066823 0.018172
0.586464 -0.062254 0.072828
0.597998 -0.042081 0.041772
0.540009 0.013753 0.058048
0.581791 -0.054196 0.080687
0.560369 0.039366 0.070396
0.578791 0.048053 0.074427
0.544141 0.012200 0.070709
0.521462 -0.039485 0.019642
0.549425 -0.055266 -0.006124
0.560537 -0.062199 -0.004300
0.557099 -0.009991 0.088771
0.553902 0.006469 0.014829
0.599662 -0.026992 0.066543
0.588658 -0.053392 0.075865
0.589342 -0.054932 0.021641
0.536885 -0.097553 0.051476
0.567789 -0.031078 0.002204
0.573205 0.060387 0.057437
0.563243 -0.028510 0.000697
0.573709 0.062565 0.041072
0.590791 -0.042978 0.024088
0.517693 -0.063787 0.025621
0.528543 -0.011289 0.033218
0.573019 -0.014646 0.092479
0.596045 0.052199 0.042167
0.538074 -0.081694 0.065195
0.582996 0.064364 0.049261
0.554836 -0.071821 0.077044
0.586848 0.061985 0.056277
0.590383 -0.078769 0.039902
0.540708 -0.069420 0.073468
0.517996 -0.042071 0.042764
0.546710 -0.043115 -0.004644
0.535152 -0.019510 0.074484
0.565525 -0.095767 0.058420
0.599161 0.032725 0.055449
0.539306 -0.001158 0.019970
0.558578 -0.109621 0.041891
0.523372 -0.086555 0.019208
0.550942 0.016092 0.077241
0.576104 0.052036 0.069994
0.518507 -0.054701 0.021978
0.553984 0.040766 0.047688
0.571721 -0.086529 0.063953
0.534188 -0.090406 0.005275
0.573467 -0.045238 0.087720
0.534222 -0.004761 0.024614
0.558335 -0.023089 0.000760
0.533934 -0.096332 0.049856
0.599216 -0.023144 0.070806
0.531731 -0.102911 0.020475
0.582522 0.047319 0.075665
0.594795 -0.035010 0.077791
0.552716 0.038679 0.047924
0.594003 0.005953 0.083103
0.522877 -0.028730 0.025741
0.551625 -0.004205 0.085443
0.568025 -0.008472 0.008503
0.577941 0.001617 0.017424
0.582611 -0.045614 0.084590
0.529038 -0.057318 0.002280
0.577331 -0.036279 0.089866
0.601493 -0.005832 0.063708
0.536563 0.003651 0.062541
0.540565 -0.030637 0.000637
0.526126 -0.044850 0.008074
0.526744 -0.096136 0.021544
0.583916 0.047669 0.028724
0.555189 0.037690 0.037018
0.565195 -0.033798 0.000347
0.570102 0.060164 0.041070
0.528411 -0.029267 0.011916
0.583769 0.054167 0.069826
0.580130 0.000230 0.018782
0.564101 -0.034349 0.090019
0.584802 -0.041774 0.014869
0.584563 -0.089483 0.028638
0.545749 -0.053636 -0.005922
0.571879 -0.056596 0.083689
0.593657 0.023440 0.079432
0.599687 0.019752 0.055240
0.518438 -0.038920 0.035535
0.568959 -0.017008 0.092003
0.565007 0.038902 0.075023
0.525693 -0.060242 0.006356
0.545868 0.003074 0.017079
0.554624 -0.045199 -0.004755
0.588962 0.059797 0.059545
0.573801 0.009667 0.089678
0.593225 -0.043196 0.028821
0.596923 0.043324 0.043925
0.569683 0.023408 0.085451
0.524640 -0.064448 0.008045
0.554753 -0.050884 0.085343
0.518389 -0.039131 0.035548
0.542061 0.014179 0.033708
0.577872 -0.009735 0.014321
0.537696 0.003226 0.028158
0.567005 -0.102232 0.050352
0.534251 -0.060462 -0.002050
0.576856 0.023665 0.086684
0.551026 -0.028962 -0.001529
0.588134 0.014448 0.086839
0.526940 -0.050549 0.005485
0.587525 -0.031562 0.019839
0.547450 -0.009731 0.006965
0.576300 -0.100125 0.026984
0.588632 -0.082319 0.033370
0.532195 -0.054183 0.072510
0.576182 -0.055522 0.004827
0.599140 -0.024262 0.070589
0.520797 -0.075473 0.019132
0.560040 -0.055292 0.084957
0.559963 -0.087366 0.067007
0.516396 -0.054167 0.032947
0.571397 0.019255 0.019571
0.559750 -0.094587 0.061130
0.571380 -0.041231 0.089157
0.526813 -0.021487 0.021497
0.548282 0.027799 0.062048
0.520877 -0.029831 0.043740
0.530350 -0.025511 0.070058
0.545177 -0.099282 0.006314
0.530732 -0.029694 0.071674
0.574247 -0.054632 0.003262
0.586100 -0.066110 0.016993
0.567853 -0.093119 0.008124
0.588070 -0.030352 0.020786
0.582703 -0.058510 0.077980
0.519972 -0.076168 0.022720
0.526569 -0.013820 0.044046
0.562443 -0.057473 -0.003657
0.567078 -0.106321 0.023364
0.598761 0.034181 0.052620
0.588910 -0.063246 0.069238
0.516688 -0.049529 0.037602
0.540943 -0.011107 0.009872
0.592825 0.052993 0.063678
0.571203 -0.013629 0.008550
0.575988 0.027993 0.085248
0.530518 -0.004906 0.049073
0.597172 -0.049050 0.059250
0.536373 -0.002414 0.068033
0.529600 -0.074695 0.062910
0.571299 -0.071011 0.076582
0.522482 -0.038214 0.058954
0.583896 -0.031490 0.089320
0.542830 -0.053228 0.080294
0.585395 -0.077552 0.060114
0.532856 -0.003006 0.032058
0.591350 -0.050023 0.074746
0.583923 0.032433 0.083802
0.538219 -0.109964 0.031840
0.560807 0.047760 0.060779
0.581271 -0.095937 0.034566
0.519233 -0.068506 0.021326
0.521417 -0.049200 0.015340
0.601206 -0.004205 0.066139
0.531485 -0.008876 0.025544
0.523944 -0.027926 0.022716
0.567440 0.056301 0.057330
0.537672 -0.008211 0.015144
0.566792 -0.094278 0.008203
0.549662 0.016429 0.075567
0.588051 0.056724 0.065478
0.556624 -0.097924 0.005715
0.547663 -0.062934 -0.006064
0.560553 0.030153 0.077644
0.544527 -0.077386 -0.004030
0.530408 -0.009359 0.028415
0.573871 0.044777 0.075426
0.576913 -0.057625 0.081534
0.568002 0.001140 0.090378
0.544067 -0.066347 0.076489
0.586108 -0.031182 0.018015
0.589962 -0.079554 0.042773
0.584393 0.060033 0.062301
0.562531 -0.048245 -0.003043
0.570672 -0.098611 0.015249
0.561021 -0.000537 0.088936
0.597605 -0.025131 0.039604
0.594330 -0.019881 0.032891
0.548981 0.029281 0.061647
0.525038 -0.070768 0.008074
0.548980 0.010626 0.020761
0.523232 -0.038868 0.015647
0.556186 -0.106543 0.048673
0.598564 -0.010703 0.044774
0.586278 -0.064697 0.017103
0.601412 -0.014077 0.062273
0.573247 -0.010665 0.092390
0.536400 -0.019668 0.008341
0.538974 -0.014690 0.009128
0.578150 0.027322 0.085736
0.594606 -0.027804 0.032538
0.552746 0.036158 0.040562
0.546610 0.025705 0.060270
0.578361 0.051518 0.028610
0.588386 0.015773 0.086427
0.598931 -0.041414 0.050915
0.596792 -0.032409 0.074414
0.537787 -0.098707 0.051095
0.533351 -0.100772 0.043901
0.590101 -0.079096 0.043354
0.589082 0.061470 0.039961
0.568842 -0.010465 0.091835
0.584261 -0.055509 0.078426
0.534442 0.003518 0.043725
0.572906 -0.103329 0.027319
0.598573 0.040216 0.060299
0.541714 -0.084876 -0.001193
0.525897 -0.024876 0.061179
0.529319 -0.068694 0.002363
0.554171 -0.060446 -0.005798
0.596078 -0.003859 0.039725
0.525500 -0.095708 0.029387
0.531641 -0.104123 0.023375
0.597994 0.005236 0.046321
0.570911 -0.039290 0.089642
0.517910 -0.070687 0.036169
0.564124 -0.093527 0.006061
0.564820 -0.105165 0.047414
0.571454 -0.047279 0.087317
0.597242 -0.047248 0.061053
0.590928 -0.057209 0.070711
0.538894 -0.059206 0.076379
0.570420 -0.093012 0.058558
0.528016 -0.098649 0.036049
0.595264 -0.048519 0.068172
0.542091 -0.049964 0.080595
0.552217 -0.019194 0.087275
0.566448 -0.105916 0.021471
0.600643 -0.024854 0.061245
0.590888 -0.040157 0.024373
0.591400 -0.067810 0.027791
0.572406 0.046123 0.073721
0.580746 -0.058416 0.079247
0.538078 -0.067501 0.072800
0.579048 -0.092381 0.051347
0.527969 -0.018534 0.061916
0.522799 -0.060335 0.011178
0.595615 -0.050640 0.065288
0.587265 -0.023154 0.020868
0.601061 0.003764 0.058023
0.596473 0.035237 0.044046
0.592463 -0.005573 0.031819
0.543974 -0.063463 -0.005647
0.523733 -0.063939 0.009570
0.529037 -0.079439 0.059375
0.527472 -0.093279 0.015865
0.584329 0.017685 0.025799
0.543908 -0.022710 0.002174
0.571795 -0.079597 0.004503
0.533585 -0.074953 0.066209
0.544433 -0.074238 0.072803
0.579084 0.063820 0.052041
0.539779 -0.082928 -0.001341
0.543939 -0.018556 0.003974
0.526991 -0.080202 0.056207
0.517129 -0.045504 0.036811
