ply
format ascii 1.0
element vertex 1024
property float x
property float y
property float z
end_header
0.512403 -0.011602 0.066824
0.516410 0.072323 0.053522
0.517084 0.077448 0.053765
0.551020 -0.056205 0.014057
0.581469 0.070216 0.045824
0.513698 0.024976 0.029433
0.543058 -0.048658 0.010980
0.587670 -0.003207 0.069550
0.527819 0.079535 0.030469
0.535127 0.032847 0.019134
0.591282 -0.024766 0.039956
0.568162 -0.065102 0.046760
0.584814 0.060592 0.061022
0.593419 0.038574 0.039689
0.592527 -0.009991 0.031365
0.548676 0.031023 0.016328
0.516552 0.045344 0.033803
0.561299 -0.052213 0.013534
0.511813 -0.042933 0.047986
0.574906 -0.014783 0.013353
0.595676 0.038113 0.045890
0.547211 0.102780 0.038448
0.533816 -0.067645 0.031471
0.534201 0.073645 0.072782
0.518831 0.094504 0.042095
0.519669 0.016127 0.073529
0.521508 -0.048897 0.058927
0.545495 -0.029754 0.080914
0.546141 0.018830 0.086432
0.528146 -0.047018 0.066094
0.547006 0.040627 0.018966
0.576191 -0.000072 0.015357
0.580046 0.075579 0.054095
0.559844 0.081479 0.071190
0.562820 -0.020297 0.082584
0.568762 0.026837 0.083771
0.554700 0.041211 0.019165
0.573572 -0.026476 0.012734
0.535792 -0.043440 0.072449
0.576163 0.077617 0.044621
0.576431 -0.055161 0.029828
0.577828 -0.033942 0.067743
0.543118 -0.006632 0.085745
0.578974 -0.046324 0.024705
0.557924 -0.054065 0.013585
0.581867 -0.020042 0.018771
0.585883 0.064142 0.048890
0.551381 0.001912 0.087353
0.536829 -0.049715 0.013386
0.517347 0.089882 0.044119
0.518030 0.088867 0.040829
0.589015 -0.029189 0.035634
0.575099 0.002244 0.081208
0.517235 0.030541 0.068761
0.583270 -0.037340 0.026606
0.558868 0.018811 0.086864
0.549898 -0.059628 0.064295
0.511768 -0.042415 0.033915
0.541188 -0.023874 0.082200
0.503872 -0.006117 0.050301
0.583246 -0.008102 0.073489
0.590776 0.038621 0.063298
0.587229 0.059860 0.045739
0.526981 -0.034429 0.013413
0.581980 -0.042177 0.054352
0.550547 -0.049697 0.010516
0.541438 -0.063090 0.020260
0.567038 -0.058248 0.020723
0.573761 -0.056835 0.026734
0.588745 -0.023232 0.058634
0.559170 0.099203 0.056132
0.589571 -0.020007 0.059342
0.596104 0.010748 0.037912
0.549554 0.017588 0.013091
0.568338 0.084620 0.040952
0.523365 -0.058064 0.051378
0.511606 0.041425 0.041306
0.541208 0.063689 0.077906
0.558934 -0.065014 0.022727
0.595545 -0.006911 0.047888
0.553661 0.060784 0.080193
0.562808 -0.002549 0.009692
0.544869 0.059698 0.079734
0.581230 0.068132 0.043040
0.535995 0.088536 0.029468
0.573745 0.032436 0.020413
0.552502 0.073716 0.027997
0.539019 -0.045717 0.011027
0.594858 0.030053 0.038169
0.562104 0.055017 0.080798
0.582649 0.070930 0.052516
0.573267 -0.023828 0.012420
0.550078 -0.028165 0.082066
0.593069 0.007929 0.031128
0.524913 -0.062411 0.042294
0.574422 0.066337 0.070368
0.537745 -0.050837 0.068642
0.593981 -0.005377 0.033996
0.553113 -0.042771 0.008121
0.566352 0.058292 0.025938
0.542383 -0.073087 0.039096
0.538219 -0.003928 0.084652
0.510301 -0.034391 0.030491
0.504471 -0.007809 0.052712
0.510475 0.014119 0.029758
0.533139 -0.045322 0.070200
0.589885 -0.016669 0.060964
0.597336 0.009725 0.046171
0.518994 0.052791 0.065345
0.526840 -0.018920 0.077929
0.537343 -0.032104 0.078303
0.586275 -0.038299 0.041636
0.540264 -0.029234 0.007623
0.557059 -0.056241 0.065868
0.528516 0.016722 0.017632
0.563926 0.029778 0.016635
0.570548 -0.046558 0.015337
0.511288 -0.001599 0.025453
0.505865 -0.024361 0.035493
0.529390 -0.013749 0.080141
0.549810 -0.019606 0.084644
0.504665 -0.021288 0.048298
0.533019 0.030609 0.080428
0.549699 -0.006561 0.086627
0.565043 -0.003303 0.085305
0.516774 0.050560 0.062667
0.542537 0.018342 0.013883
0.588964 0.056100 0.045332
0.528799 -0.028851 0.076274
0.514424 0.043509 0.060803
0.531381 -0.060897 0.023818
0.504441 0.006536 0.039312
0.534265 0.037656 0.080088
0.576832 0.035692 0.022872
0.548775 -0.029909 0.081266
0.577755 -0.034129 0.017051
0.552897 -0.034302 0.006591
0.529420 0.044369 0.076267
0.550066 -0.040266 0.076632
0.572595 0.045663 0.023763
0.548731 -0.052402 0.011889
0.534507 -0.069078 0.044816
0.596068 -0.000528 0.042546
0.537842 0.048827 0.022396
0.534994 -0.042177 0.011379
0.540470 0.072977 0.027072
0.558558 0.097339 0.059117
0.586334 0.061246 0.045304
0.536014 0.104379 0.036147
0.575285 0.001118 0.015036
0.541942 -0.072094 0.046721
0.558684 -0.066733 0.054913
0.544666 -0.073512 0.042516
0.515728 -0.039592 0.024397
0.525929 -0.059647 0.052665
0.585778 0.009591 0.072816
0.555829 0.021636 0.013870
0.540793 0.107591 0.047828
0.544492 0.008182 0.086611
0.524441 0.072328 0.066456
0.503638 0.002692 0.048135
0.532777 -0.014846 0.081523
0.542389 -0.056523 0.065950
0.511877 -0.029060 0.025575
0.561831 0.085094 0.068107
0.567899 0.031863 0.018087
0.543518 -0.008619 0.085644
0.581588 -0.047125 0.032795
0.572515 0.071602 0.069301
0.508261 -0.030644 0.052443
0.505087 -0.024465 0.038754
0.577673 -0.041798 0.062012
0.528920 0.071819 0.029260
0.561534 -0.034210 0.008050
0.535625 -0.054175 0.065431
0.511586 -0.008123 0.066349
0.552720 0.045973 0.083584
0.526680 -0.056345 0.057467
0.527948 0.034385 0.076894
0.561918 -0.065431 0.054346
0.571481 0.069284 0.033311
0.516499 -0.024921 0.067774
0.536823 -0.051380 0.067928
0.591300 -0.019005 0.032612
0.554142 0.068994 0.026923
0.514200 0.028222 0.065795
0.555506 0.093837 0.036060
0.576646 -0.039248 0.017420
0.508514 0.015269 0.060932
0.529751 0.090057 0.030641
0.557920 -0.052877 0.068342
0.582697 0.037263 0.027246
0.586058 -0.000379 0.022032
0.524326 0.029243 0.075190
0.513814 -0.026467 0.022485
0.510335 -0.041600 0.042102
0.508289 -0.003326 0.062141
0.587774 0.056614 0.058716
0.548035 0.006657 0.010870
0.563242 0.034738 0.017911
0.557527 -0.010123 0.007876
0.552378 -0.044478 0.008581
0.576267 -0.025985 0.073593
0.550063 -0.031092 0.006331
0.574408 -0.005477 0.080846
0.533061 -0.068030 0.034406
0.566691 0.063030 0.076850
0.591259 -0.002172 0.064398
0.583627 0.038587 0.072135
0.547398 -0.034746 0.079029
0.556232 -0.011994 0.085797
0.510064 -0.006969 0.026282
0.558640 0.099625 0.055982
0.537807 -0.025286 0.008200
0.537652 -0.065999 0.055248
0.576672 -0.057320 0.038124
0.574849 0.064135 0.071072
0.568047 0.014798 0.084776
0.515767 0.058499 0.040242
0.526891 0.024563 0.020297
0.535636 -0.029887 0.009007
0.520875 0.094547 0.037847
0.541922 -0.044931 0.009898
0.520025 -0.004093 0.074774
0.545311 0.096722 0.064677
0.541062 0.107533 0.048307
0.561214 -0.020747 0.007479
0.505524 -0.004314 0.033846
0.558086 0.041098 0.019290
0.578606 -0.031280 0.068578
0.512903 0.051176 0.048894
0.562155 -0.025291 0.081429
0.554932 0.036038 0.085267
0.526644 -0.026803 0.012660
0.574718 0.013034 0.081575
0.594774 0.031865 0.058186
0.584782 -0.041896 0.040337
0.553517 0.002824 0.009924
0.592126 0.015217 0.030527
0.516824 0.071395 0.040713
0.587321 0.020015 0.026549
0.558610 0.038273 0.018489
0.593255 -0.001426 0.031612
0.564517 0.007771 0.086124
0.590006 -0.017496 0.028861
0.533721 0.084642 0.069055
0.535453 -0.069495 0.034105
0.522103 0.033489 0.072760
0.533003 -0.016066 0.010114
0.525572 -0.005884 0.014355
0.550019 0.104603 0.044453
0.538261 0.047416 0.021951
0.517742 0.056310 0.035849
0.515101 0.005722 0.023116
0.530476 -0.064110 0.029198
0.581330 0.009768 0.076974
0.571860 -0.050828 0.061037
0.566202 -0.037837 0.074799
0.572733 -0.054733 0.055958
0.512090 -0.034421 0.027225
0.526647 0.091421 0.062000
0.506021 0.016589 0.038700
0.556353 -0.022208 0.083615
0.577868 0.059395 0.032909
0.568179 0.015754 0.084682
0.513765 -0.034467 0.059611
0.553350 0.005710 0.087546
0.585252 -0.003996 0.072266
0.588965 0.010199 0.069104
0.557144 0.100296 0.045501
0.514916 0.023051 0.027622
0.562253 0.091507 0.062741
0.595542 0.004661 0.056105
0.550626 -0.067236 0.023103
0.534891 0.027799 0.081749
0.552222 -0.022283 0.083984
0.516390 0.068073 0.055286
0.539848 -0.000507 0.085321
0.516764 0.024138 0.026347
0.596010 0.025098 0.056669
0.586176 0.057422 0.061031
0.562461 0.096643 0.047594
0.525153 -0.047573 0.063333
0.529503 -0.027596 0.011300
0.504379 -0.013148 0.051081
0.586311 0.060113 0.043855
0.523549 -0.035503 0.015801
0.543870 0.051083 0.081394
0.504150 -0.013529 0.037947
0.524167 -0.054258 0.024384
0.521955 0.094668 0.055826
0.559470 -0.070238 0.048208
0.582880 -0.042700 0.030809
0.564914 0.091177 0.043259
0.581941 0.040102 0.027599
0.555355 -0.026593 0.006404
0.568135 -0.025689 0.009828
0.586568 0.006424 0.071887
0.542689 0.057676 0.023573
0.574755 -0.043342 0.064307
0.535841 -0.010157 0.083331
0.592841 0.045031 0.056506
0.505740 -0.004095 0.033385
0.569207 -0.047915 0.066021
0.524048 -0.061325 0.036746
0.504125 -0.018721 0.039845
0.518846 0.019517 0.023519
0.516436 0.034544 0.029915
0.565893 -0.032153 0.077660
0.593302 0.034143 0.037214
0.544285 0.069903 0.026290
0.561367 0.043689 0.020337
0.593383 -0.018333 0.046626
0.569717 0.027826 0.083325
0.515515 0.022317 0.026865
0.540010 0.066004 0.076982
0.531147 -0.055661 0.061669
0.569292 -0.061833 0.051370
0.514471 0.057375 0.053801
0.572251 0.040530 0.080555
0.538944 0.065316 0.076804
0.533888 -0.069184 0.039734
0.558275 -0.071633 0.034423
0.581423 -0.032769 0.021047
0.523390 -0.037239 0.068440
0.565402 0.044417 0.082505
0.520194 0.003770 0.019059
0.537017 0.067547 0.026475
0.523985 -0.061545 0.038502
0.553807 0.089131 0.032835
0.530196 -0.059366 0.023321
0.588076 0.004006 0.069961
0.585323 0.031551 0.027667
0.582573 0.069095 0.046884
0.552090 0.058380 0.080835
0.533433 0.012766 0.014821
0.577352 -0.009653 0.078161
0.543920 -0.073053 0.044866
0.513873 -0.002333 0.069343
0.595269 0.000954 0.055671
0.588705 -0.032195 0.044078
0.596134 -0.001616 0.047453
0.538420 -0.038761 0.075637
0.562159 -0.045894 0.071873
0.541992 -0.035806 0.007808
0.555699 0.100206 0.057545
0.504181 -0.004766 0.051943
0.542558 0.106936 0.043173
0.580253 0.040869 0.074845
0.512268 0.047822 0.047054
0.536458 0.051014 0.078885
0.593329 -0.006725 0.058504
0.505783 -0.002151 0.033543
0.591251 0.000794 0.065005
0.567429 -0.053690 0.062512
0.506187 0.021877 0.042219
0.544901 -0.073321 0.044372
0.588604 -0.013988 0.025496
0.505574 0.010878 0.037292
0.539079 -0.071434 0.034551
0.577733 -0.011947 0.015220
0.582755 -0.037645 0.057667
0.557163 -0.007309 0.086413
0.528735 0.103377 0.054588
0.578217 0.066943 0.038011
0.555688 -0.048333 0.072010
0.510270 0.026633 0.060123
0.516309 0.077013 0.043842
0.569315 0.024795 0.083703
0.547663 0.077242 0.028235
0.574194 -0.044302 0.064155
0.532300 0.062408 0.074479
0.582069 0.015137 0.021501
0.514698 -0.002566 0.070169
0.511209 -0.001810 0.066363
0.521717 -0.057453 0.032101
0.564996 0.078358 0.033855
0.514623 0.060692 0.045641
0.565154 0.034248 0.018095
0.577380 -0.027060 0.015542
0.575041 0.004724 0.015446
0.561941 -0.034330 0.008180
0.512888 0.045020 0.040341
0.582047 0.068205 0.059734
0.563072 0.081304 0.034188
0.527916 -0.051211 0.062907
0.537192 0.105357 0.037594
0.587229 -0.024101 0.026734
0.562190 0.004397 0.086645
0.521383 0.097281 0.053053
0.562002 0.069474 0.076072
0.515920 0.075322 0.046547
0.505759 0.020439 0.049869
0.530416 -0.030779 0.011152
0.563589 -0.031456 0.078896
0.522666 -0.028838 0.072068
0.507548 0.022441 0.055857
0.579166 -0.041386 0.021605
0.560153 -0.014111 0.007743
0.595744 0.020460 0.037104
0.576754 -0.026751 0.014992
0.591177 -0.016858 0.057933
0.562158 -0.013604 0.008207
0.586990 -0.013364 0.023311
0.533309 -0.067930 0.033375
0.552644 -0.050882 0.011125
0.549370 0.084391 0.030179
0.562268 0.035230 0.084704
0.535876 0.086361 0.029280
0.532888 0.000746 0.082736
0.539063 0.056912 0.078746
0.552325 0.084471 0.030907
0.556153 -0.072034 0.046621
0.511375 0.042657 0.051236
0.565441 0.011687 0.012805
0.511408 0.043500 0.045412
0.550607 -0.038639 0.077470
0.550907 0.021447 0.086815
0.539032 0.097028 0.064287
0.516485 0.082655 0.045094
0.568180 0.025075 0.016479
0.519458 0.088796 0.055091
0.536657 0.041806 0.020963
0.529514 -0.009616 0.012066
0.596775 0.009444 0.041100
0.533214 -0.048994 0.067903
0.576524 0.042662 0.077478
0.559417 0.037437 0.018298
0.522534 -0.028851 0.015278
0.527517 0.025662 0.077901
0.560431 -0.007485 0.008559
0.594317 -0.010229 0.036970
0.551008 0.068282 0.078022
0.517246 0.089597 0.047485
0.547547 0.098099 0.063148
0.591722 -0.017453 0.055988
0.593954 -0.016128 0.041896
0.553654 0.039197 0.084786
0.535692 -0.035348 0.076465
0.571735 -0.043215 0.067442
0.546107 0.004147 0.086881
0.551014 0.072849 0.076526
0.559570 0.063441 0.078800
0.541916 0.107195 0.050242
0.516308 0.078020 0.044193
0.552482 0.098101 0.037086
0.588762 0.005572 0.069200
0.530303 0.065553 0.072607
0.531418 0.096300 0.062325
0.525336 -0.046807 0.018457
0.507103 0.005592 0.032455
0.556041 -0.064254 0.020950
0.540384 -0.026388 0.007556
0.593123 0.028674 0.034883
0.535917 -0.053663 0.065942
0.547193 -0.037884 0.007217
0.518472 0.028677 0.070427
0.575617 -0.017167 0.013743
0.543861 0.036808 0.083865
0.579301 0.056132 0.032352
0.507134 -0.032751 0.045201
0.530321 0.064401 0.027794
0.596261 0.000211 0.044342
0.531200 -0.012965 0.081102
0.577180 0.047133 0.075791
0.562321 -0.026871 0.080908
0.544794 -0.054034 0.068192
0.557150 -0.054099 0.067584
0.575519 0.014514 0.081059
0.551491 0.023367 0.086674
0.560585 -0.066545 0.053900
0.563875 0.029389 0.085028
0.535431 0.029460 0.018169
0.514897 0.046219 0.036657
0.587890 -0.023777 0.027801
0.562804 -0.020896 0.007892
0.578471 0.032546 0.023009
0.505519 0.004497 0.056318
0.537064 0.034997 0.019095
0.563864 -0.050582 0.013650
0.514241 0.028550 0.030081
0.557751 0.074263 0.029179
0.505490 0.018279 0.050666
0.528135 -0.027563 0.076373
0.581934 0.069666 0.046133
0.538149 -0.054609 0.066142
0.576999 -0.056680 0.042038
0.589793 0.054863 0.046068
0.555010 -0.058921 0.016284
0.594289 0.027547 0.036283
0.589080 -0.024140 0.057083
0.520350 -0.052815 0.027741
0.515280 0.044079 0.062237
0.543978 -0.067973 0.055677
0.587746 -0.025929 0.058570
0.547015 -0.033679 0.079459
0.560303 0.001950 0.009968
0.590568 0.018777 0.066748
0.538362 -0.064714 0.022929
0.575807 -0.044946 0.019134
0.578594 0.034756 0.023682
0.533051 -0.043178 0.071452
0.586819 0.046705 0.034771
0.540449 0.079932 0.073039
0.512581 0.041921 0.038870
0.597977 0.021346 0.048163
0.505281 0.001494 0.055877
0.595940 0.036919 0.045791
0.528634 -0.007975 0.080308
0.576022 -0.014928 0.014029
0.513925 0.046749 0.038860
0.594999 0.000308 0.056362
0.545639 0.054364 0.022586
0.580551 0.024702 0.022483
0.576205 0.038409 0.078582
0.592204 -0.014931 0.032553
0.528608 0.067347 0.028855
0.529747 0.105444 0.039793
0.517259 0.017057 0.071394
0.516038 0.064919 0.041504
0.580123 -0.040495 0.059573
0.550931 -0.018443 0.084913
0.570433 -0.063466 0.033188
0.542193 -0.072871 0.036915
0.547520 0.092161 0.067695
0.569776 0.005436 0.084142
0.567632 -0.039454 0.011247
0.549894 0.076791 0.075147
0.596488 0.018653 0.055797
0.539387 -0.070314 0.030482
0.547042 0.050481 0.021578
0.519871 0.077039 0.059704
0.562685 -0.065589 0.053498
0.518408 0.064961 0.060921
0.593882 0.029213 0.036200
0.591621 -0.003959 0.028610
0.574601 -0.034802 0.070439
0.597823 0.014881 0.046842
0.571390 -0.022167 0.078436
0.528503 0.078591 0.068094
0.535313 -0.018854 0.009164
0.597755 0.025910 0.046741
0.517506 0.073702 0.056278
0.576520 0.035228 0.022567
0.540034 -0.063345 0.059409
0.545900 -0.044402 0.074120
0.513797 -0.036798 0.025692
0.527810 -0.031537 0.012517
0.522766 0.040828 0.026872
0.595385 -0.002122 0.053629
0.542714 -0.073042 0.037288
0.544461 0.040609 0.083420
0.544203 -0.029648 0.006842
0.519753 -0.057482 0.039757
0.558480 -0.014340 0.007471
0.587070 0.022753 0.026937
0.524390 0.060429 0.069328
0.525510 -0.052597 0.059796
0.512581 0.033312 0.034069
0.504508 0.001810 0.053280
0.525979 0.061014 0.070549
0.556622 -0.006930 0.086514
0.533926 0.026642 0.017958
0.596682 0.024323 0.054921
0.573865 -0.051610 0.021432
0.559021 0.003622 0.087164
0.573945 0.007912 0.082069
0.532839 -0.064355 0.026620
0.530102 -0.058153 0.058639
0.573779 0.084656 0.057358
0.547423 -0.052937 0.012277
0.558352 0.086077 0.033763
0.510717 0.039193 0.042437
0.504410 -0.017892 0.049243
0.587331 0.058288 0.043970
0.596782 0.014370 0.054397
0.576262 0.019728 0.018809
0.560011 0.002160 0.009965
0.588267 0.057344 0.056878
0.563652 0.048888 0.081995
0.552258 0.022284 0.014073
0.537892 -0.027050 0.080315
0.569628 0.033510 0.082840
0.563364 -0.068541 0.032402
0.578051 0.038714 0.024458
0.579299 0.033288 0.023727
0.577836 0.050830 0.074016
0.576364 -0.054441 0.050128
0.529752 0.042435 0.023637
0.566061 0.072219 0.031418
0.533454 0.007701 0.013681
0.583102 0.005813 0.020522
0.503778 0.006172 0.047675
0.527253 -0.057113 0.057241
0.575516 0.059887 0.031277
0.505744 -0.028751 0.042964
0.556111 -0.032058 0.080423
0.538011 0.015961 0.014228
0.592581 0.038215 0.060503
0.587099 0.029622 0.070026
0.518529 0.043369 0.067182
0.594687 -0.012915 0.046230
0.572252 0.076720 0.066475
0.547127 0.029191 0.085602
0.542328 -0.041948 0.008942
0.591763 -0.011513 0.030146
0.520428 0.099256 0.045450
0.505188 -0.012557 0.034447
0.582366 -0.041986 0.053677
0.587260 -0.032604 0.052338
0.528889 -0.016509 0.079489
0.562351 0.019300 0.013758
0.581229 0.060707 0.036998
0.558395 0.019723 0.086851
0.534208 0.061059 0.075789
0.553251 0.024570 0.086619
0.589783 -0.028840 0.047387
0.530949 -0.044334 0.069647
0.597736 0.026265 0.047303
0.560276 0.005929 0.087061
0.510495 0.012689 0.029330
0.550498 0.045674 0.020315
0.578907 0.047121 0.027883
0.566086 -0.028611 0.009109
0.563403 0.097001 0.053561
0.512067 -0.019732 0.023714
0.597888 0.020448 0.044917
0.572957 0.086630 0.054495
0.526936 -0.059150 0.054591
0.522413 0.099858 0.051911
0.582617 0.039695 0.072900
0.533384 0.071941 0.027924
0.553645 -0.037178 0.078237
0.514313 0.059537 0.050295
0.589713 0.043119 0.036401
0.545492 -0.054218 0.068152
0.517778 -0.035800 0.063763
0.505761 0.020328 0.042898
0.511054 0.023374 0.062828
0.583338 0.047720 0.069658
0.597222 0.009292 0.049462
0.520495 -0.014780 0.016283
0.532388 -0.041174 0.072283
0.572279 -0.019015 0.011790
0.567230 0.086969 0.041826
0.554920 -0.032483 0.080337
0.516429 -0.027096 0.019871
0.589761 0.044427 0.037186
0.577962 0.033532 0.078128
0.521044 0.061105 0.032859
0.549443 -0.064403 0.060047
0.579317 0.052459 0.030502
0.533698 0.075680 0.071983
0.595972 0.037368 0.051439
0.597487 0.014546 0.042881
0.541840 -0.041138 0.008866
0.521986 0.016215 0.020744
0.558756 -0.050251 0.011771
0.513489 -0.045247 0.049678
0.581280 -0.038440 0.023382
0.570968 0.058852 0.027948
0.519629 0.047564 0.067442
0.516988 0.083993 0.042597
0.596599 0.003804 0.044378
0.553531 -0.071667 0.049598
0.537255 0.093217 0.030092
0.549223 0.013717 0.087204
0.516131 0.046741 0.034923
0.524358 -0.040710 0.067203
0.565429 -0.049490 0.013805
0.523315 0.012415 0.019123
0.582811 -0.028926 0.021711
0.586359 0.058176 0.041973
0.572365 0.067023 0.071762
0.566618 0.046270 0.021976
0.530232 0.071701 0.028790
0.510932 -0.042778 0.043581
0.575750 0.055169 0.074186
0.537291 0.070509 0.074931
0.539237 -0.064973 0.022780
0.573266 -0.056220 0.025152
0.583599 0.067511 0.047263
0.597643 0.022531 0.043591
0.586020 -0.020496 0.065427
0.545938 0.098991 0.034115
0.510004 -0.031590 0.055479
0.593065 0.001157 0.061710
0.529341 0.085562 0.030432
0.594190 0.023343 0.034909
0.516528 -0.051685 0.047819
0.572926 0.046164 0.078990
0.510904 -0.028035 0.059227
0.572473 0.056987 0.075930
0.512116 -0.003838 0.024268
0.555043 0.089143 0.068088
0.597960 0.020447 0.048665
0.568644 -0.034846 0.010875
0.540522 0.086879 0.029419
0.535919 0.107232 0.049476
0.549721 0.104313 0.055132
0.589399 -0.022042 0.029955
0.507415 -0.031355 0.035968
0.520564 -0.056892 0.033687
0.569871 -0.064848 0.038016
0.549952 -0.027319 0.082375
0.519493 -0.007524 0.074189
0.510639 -0.035094 0.053920
0.545436 0.034234 0.017364
0.515400 -0.024363 0.066780
0.520750 -0.027315 0.016342
0.503684 -0.012398 0.047426
0.565452 0.020111 0.085371
0.546222 0.011951 0.086857
0.543310 0.025846 0.085166
0.548835 -0.068439 0.055724
0.560082 0.001587 0.009877
0.515811 -0.005114 0.071114
0.567779 0.010458 0.013296
0.516678 0.082756 0.043680
0.574648 -0.021518 0.013184
0.522368 0.046290 0.070534
0.573032 0.071714 0.036075
0.504037 -0.017042 0.039490
0.517867 -0.009080 0.072696
0.561608 0.026534 0.015448
0.505145 -0.022389 0.036863
0.544386 -0.068214 0.055476
0.535376 -0.068397 0.030790
0.570523 0.086658 0.046115
0.555846 -0.016255 0.085039
0.540732 -0.065358 0.057589
0.596196 0.017020 0.056554
0.582450 -0.031113 0.063846
0.518045 0.077837 0.038792
0.581068 -0.038477 0.023046
0.526164 0.099450 0.035128
0.517366 0.064845 0.059003
0.578043 0.078273 0.049876
0.511263 -0.004574 0.066285
0.585222 -0.040561 0.044842
0.527742 0.105745 0.045370
0.530726 -0.002167 0.081664
0.597659 0.016283 0.050591
0.522341 -0.043858 0.019482
0.519228 0.075754 0.036622
0.568323 -0.021994 0.009856
0.589035 0.027197 0.029752
0.551410 0.103743 0.055097
0.574479 0.083006 0.048672
0.590948 -0.022860 0.052818
0.569314 -0.001325 0.011977
0.586936 0.008877 0.071544
0.539938 -0.065623 0.023161
0.528116 0.085394 0.065512
0.578766 0.061284 0.068571
0.561881 0.053005 0.023260
0.510516 -0.041907 0.043077
0.515345 -0.024401 0.020588
0.560737 -0.020564 0.007380
0.518259 0.039202 0.067854
0.512194 -0.035601 0.056429
0.511379 -0.012091 0.065490
0.572377 -0.058246 0.051997
0.547890 -0.020290 0.006847
0.593721 -0.006019 0.033382
0.565486 0.010581 0.012604
0.539589 0.048719 0.080573
0.596242 0.001596 0.042557
0.550857 0.081031 0.073363
0.559184 0.095374 0.060873
0.552674 0.050821 0.082610
0.514720 -0.013745 0.069042
0.508385 -0.024996 0.029950
0.516505 -0.027864 0.019914
0.580132 0.037193 0.075760
0.509950 0.038046 0.047084
0.583105 0.029779 0.025451
0.594596 0.003496 0.034512
0.548401 -0.007736 0.008380
0.565768 -0.057726 0.059934
0.515794 0.004648 0.022336
0.538558 0.102146 0.060042
0.511893 0.005430 0.026038
0.523949 0.101321 0.052380
0.547545 0.004346 0.010444
0.525609 -0.036535 0.070662
0.520932 0.017278 0.074373
0.591142 0.038233 0.062853
0.536983 0.098428 0.031660
0.573401 -0.039984 0.068185
0.534244 0.107268 0.048480
0.587472 -0.023581 0.060990
0.542576 0.107474 0.047980
0.571718 -0.026402 0.011641
0.577969 -0.026176 0.071995
0.534105 -0.012936 0.082342
0.504955 -0.014141 0.035205
0.561756 0.019137 0.086374
0.582787 -0.046286 0.038694
0.555529 0.083549 0.031601
0.510787 0.027520 0.060728
0.569806 -0.064374 0.034485
0.529123 -0.057370 0.058608
0.559909 0.057687 0.080474
0.553079 0.097493 0.061860
0.520080 -0.028450 0.069915
0.528215 0.076267 0.068569
0.587324 -0.034773 0.037590
0.522569 -0.060342 0.042050
0.596308 0.008819 0.054674
0.513830 0.023493 0.066636
0.508356 0.009067 0.031305
0.562814 -0.057755 0.061957
0.585470 0.034039 0.028524
0.538455 -0.069988 0.048979
0.561977 0.096020 0.058085
0.593265 0.022896 0.033444
0.528529 0.073978 0.069396
0.585352 0.062027 0.044069
0.517368 -0.002123 0.072617
0.573324 0.040381 0.080004
0.514613 0.027064 0.029185
0.523326 0.041102 0.026593
0.597396 0.010600 0.045230
0.508054 -0.031412 0.051144
0.597056 0.018756 0.053960
0.575092 0.049629 0.026401
0.545096 0.039058 0.083810
0.503336 -0.003295 0.045259
0.508184 -0.019523 0.058637
0.535355 -0.064919 0.055030
0.521808 0.088111 0.035075
0.520381 0.071775 0.061995
0.513951 0.000988 0.023221
0.523209 0.098002 0.055064
0.507793 -0.003534 0.061287
0.555389 0.101731 0.055533
0.525797 0.040700 0.025077
0.591282 0.016672 0.065839
0.536794 0.002000 0.011554
0.562813 -0.040243 0.009481
0.506593 -0.024521 0.033524
0.595560 -0.003038 0.052101
0.576831 0.077636 0.045846
0.559421 0.071509 0.028683
0.527088 -0.011184 0.079166
0.589796 0.034728 0.065717
0.556869 0.082823 0.071418
0.511104 -0.034392 0.055407
0.509670 0.032898 0.054470
0.508669 -0.013768 0.027920
0.546907 0.106651 0.047273
0.581797 0.060733 0.065302
0.552686 0.005734 0.010501
0.541499 0.090695 0.030101
0.572390 0.071611 0.069403
0.513393 -0.038335 0.056338
0.588390 -0.002455 0.068742
0.527143 -0.011393 0.079177
0.519223 0.045242 0.067536
0.523992 0.029871 0.023139
0.515921 0.032660 0.066734
0.578325 -0.053392 0.032476
0.507343 -0.033611 0.044040
0.576270 0.074204 0.063813
0.505178 0.000976 0.035497
0.583693 0.068937 0.052440
0.507968 -0.025100 0.055687
0.539153 0.013293 0.013372
0.505366 0.019504 0.046055
0.561220 -0.052969 0.013926
0.566416 -0.031452 0.009468
0.569175 -0.014597 0.081696
0.528721 -0.015289 0.011835
0.585583 0.032929 0.028286
0.524722 -0.047762 0.062821
0.591499 -0.005091 0.063182
0.585477 -0.038479 0.049041
0.528564 -0.026555 0.076950
0.517298 0.056087 0.036474
0.582455 -0.046392 0.045172
0.595518 0.012221 0.057881
0.513125 0.005048 0.068551
0.542205 0.065071 0.077833
0.532467 -0.000432 0.082532
0.557777 0.011274 0.087377
0.530538 -0.065212 0.031401
0.560574 0.007765 0.087037
0.526322 -0.015316 0.012944
0.546398 -0.020029 0.006985
0.539407 -0.052382 0.013732
0.539832 0.014763 0.013562
0.595550 -0.002675 0.039721
0.527701 -0.047997 0.065081
0.530261 0.016317 0.080665
0.516423 -0.022752 0.019424
0.556214 -0.062176 0.019097
0.552486 0.084274 0.030893
0.591895 -0.006885 0.029411
0.531329 -0.021264 0.079711
0.505669 0.016821 0.052793
0.554066 0.102181 0.044613
0.517469 0.023182 0.025515
0.573390 0.077739 0.064684
0.533550 0.026767 0.081211
0.582355 0.007027 0.020191
0.551577 0.034331 0.085427
0.565926 -0.036358 0.075733
0.593465 -0.018028 0.046666
0.548777 -0.005008 0.086702
0.597803 0.025089 0.048894
0.579913 -0.009116 0.076287
0.586839 -0.023015 0.025597
0.519201 0.026105 0.071606
0.593709 0.007244 0.032273
0.574015 0.083984 0.057949
0.553005 -0.072581 0.047370
0.540212 0.087255 0.070034
0.568538 -0.046174 0.013917
0.523916 -0.041293 0.066467
0.513870 -0.023656 0.065305
0.576596 0.051516 0.028079
0.514758 0.018997 0.068690
0.514941 -0.001611 0.070430
0.537359 0.096589 0.064240
0.508051 0.019537 0.058609
0.539393 -0.053769 0.014477
0.557844 0.057315 0.080863
0.552589 0.104595 0.050266
0.534227 -0.060657 0.021458
0.510009 -0.032693 0.030106
0.559946 0.073788 0.074901
0.514806 -0.046791 0.031136
0.516952 0.018754 0.070872
0.559041 0.091030 0.065001
0.596029 -0.002907 0.046551
0.582603 0.051153 0.069096
0.581023 -0.021745 0.071054
0.536890 0.012893 0.013819
0.574268 -0.026733 0.013200
0.547381 0.106026 0.052556
0.514242 -0.013965 0.021316
0.548344 -0.055381 0.013609
0.579041 0.047246 0.074163
0.558407 0.025949 0.015023
0.549715 0.028662 0.015689
0.541697 0.066593 0.077311
0.515460 -0.044134 0.054855
0.511864 0.041576 0.054866
0.511792 -0.013379 0.065760
0.573795 -0.060947 0.040277
0.558975 0.040707 0.019230
0.546144 -0.018632 0.007140
0.576271 0.041614 0.024300
0.589971 0.042015 0.063340
0.505061 0.007170 0.054454
0.505298 0.012743 0.053498
0.574884 0.077841 0.062917
0.551878 0.021254 0.013842
0.522919 0.070268 0.065482
0.540615 0.062285 0.078071
0.518326 0.090051 0.040534
0.583043 0.070178 0.052271
0.573577 0.013167 0.016176
0.590373 0.025303 0.030616
0.566146 -0.058611 0.058765
0.558746 -0.063187 0.058878
0.574689 -0.026156 0.013433
0.529508 0.104647 0.038351
0.587657 0.040794 0.066932
0.595671 0.000680 0.039127
0.527996 0.034838 0.076857
0.561095 -0.056916 0.016437
0.557261 0.091289 0.035733
0.518358 -0.054121 0.033528
0.548109 0.008913 0.087212
0.511625 -0.041974 0.048866
0.512121 -0.028384 0.025048
0.551566 0.045454 0.020278
0.541514 -0.063442 0.059839
0.541290 -0.070615 0.050187
0.555340 0.055760 0.023349
0.595171 0.013990 0.058867
0.536879 -0.040994 0.074130
0.536241 -0.054250 0.015925
0.575775 -0.057329 0.032465
0.595756 0.006236 0.055857
0.583407 0.009068 0.021298
0.592185 -0.000358 0.029450
0.576718 -0.016605 0.076782
0.584060 -0.042228 0.035022
0.549168 -0.064225 0.060228
0.589149 0.008603 0.026096
0.578905 -0.006220 0.077663
0.579609 0.026847 0.077613
0.554201 -0.062332 0.018834
0.578278 0.031097 0.022524
0.546991 0.007071 0.011007
0.558384 -0.018062 0.007116
0.556574 0.091543 0.065720
0.595829 -0.002934 0.042023
0.575760 -0.025281 0.074310
0.581107 -0.040409 0.024307
0.547694 0.015607 0.086917
0.514139 -0.034449 0.060141
0.587426 0.006187 0.024062
0.537437 0.021285 0.015609
0.567141 0.057446 0.025876
0.543829 0.083006 0.029074
0.543777 0.041319 0.019413
0.509041 -0.034205 0.033398
0.514196 -0.037846 0.057927
0.564051 -0.041621 0.073710
0.529882 -0.063074 0.052275
0.528368 0.059595 0.027891
0.503654 0.005408 0.044525
0.533838 -0.039210 0.011096
0.570464 -0.034810 0.073772
0.580328 -0.029710 0.067581
0.535235 0.106111 0.053064
0.516870 -0.052896 0.035489
0.503988 0.009641 0.046094
0.560712 -0.043526 0.073867
0.529625 -0.017506 0.079694
