ply
format ascii 1.0
element vertex 1024
property float x
property float y
property float z
end_header
0.521600 -0.015582 0.037905
0.511754 0.068315 0.047934
0.511224 0.073169 0.049651
0.583158 -0.037420 -0.006803
0.574899 0.076060 0.063714
0.526685 0.030495 0.013641
0.575141 -0.030254 -0.010568
0.588765 0.000107 0.069301
0.527958 0.083417 0.033001
0.548085 0.043501 0.013942
0.605831 -0.010924 0.038630
0.590787 -0.053785 0.026611
0.575318 0.062734 0.076245
0.594548 0.049336 0.054690
0.606535 0.005799 0.034956
0.561901 0.044167 0.015804
0.523684 0.048771 0.023594
0.592008 -0.032314 -0.002623
0.533495 -0.039596 0.013031
0.596793 0.004709 0.011254
0.594815 0.047280 0.060972
0.538565 0.105206 0.052819
0.564221 -0.055475 -0.000058
0.521999 0.065763 0.071970
0.512866 0.093039 0.043941
0.520415 0.009455 0.053344
0.540348 -0.047447 0.024891
0.551736 -0.033256 0.057969
0.540387 0.011121 0.075090
0.543885 -0.047082 0.034182
0.557511 0.052266 0.019942
0.594263 0.018170 0.017129
0.569886 0.078470 0.071976
0.544614 0.076578 0.081615
0.565288 -0.022839 0.067981
0.560496 0.022079 0.082736
0.564459 0.053635 0.023012
0.598211 -0.006320 0.007352
0.548249 -0.044749 0.043517
0.568795 0.082823 0.062550
0.601607 -0.038312 0.016742
0.586678 -0.029551 0.056618
0.543163 -0.013109 0.067146
0.603691 -0.028110 0.015202
0.589254 -0.034465 -0.004238
0.602675 -0.001114 0.017333
0.579322 0.069887 0.066564
0.548524 -0.004570 0.073642
0.568843 -0.032691 -0.010883
0.511838 0.087884 0.044101
0.513705 0.087997 0.041131
0.606001 -0.014060 0.032841
0.572348 0.000305 0.076656
0.516600 0.024260 0.051714
0.605192 -0.019694 0.020653
0.552056 0.012422 0.080021
0.567265 -0.055993 0.037235
0.537707 -0.034851 0.000460
0.546106 -0.028571 0.059032
0.517658 -0.006363 0.021312
0.584474 -0.006221 0.070071
0.584768 0.041934 0.075035
0.582449 0.066943 0.063154
0.556483 -0.019357 -0.010626
0.596413 -0.032817 0.044012
0.582446 -0.030244 -0.008566
0.573802 -0.046904 -0.006323
0.596373 -0.039547 0.004425
0.600444 -0.039264 0.012590
0.597365 -0.015415 0.054935
0.544923 0.097831 0.072151
0.597232 -0.012483 0.056659
0.603451 0.023849 0.047222
0.566549 0.032534 0.009905
0.561201 0.089670 0.058166
0.546342 -0.053624 0.016502
0.517598 0.042229 0.027629
0.529004 0.055589 0.076649
0.589664 -0.047479 0.001677
0.603562 0.004055 0.051681
0.540452 0.053566 0.082445
0.584133 0.016016 0.006635
0.532673 0.051676 0.078625
0.575980 0.074904 0.060608
0.533951 0.093168 0.037227
0.583578 0.047123 0.028785
0.552834 0.081469 0.038161
0.570762 -0.027945 -0.011246
0.598149 0.041897 0.051744
0.549307 0.048887 0.084591
0.573769 0.074845 0.070341
0.597468 -0.003754 0.007609
0.555293 -0.031579 0.061033
0.603335 0.022889 0.039333
0.551509 -0.054812 0.007801
0.561575 0.064158 0.082367
0.552798 -0.050374 0.038969
0.606095 0.009534 0.038979
0.584108 -0.022673 -0.008109
0.569562 0.069074 0.037467
0.570947 -0.061957 0.008539
0.538390 -0.010778 0.065075
0.535717 -0.026389 -0.001182
0.517822 -0.008625 0.023283
0.525884 0.019756 0.010119
0.546883 -0.046152 0.040081
0.596317 -0.009781 0.059051
0.602249 0.020521 0.054854
0.514600 0.046548 0.054721
0.533084 -0.024225 0.051274
0.545483 -0.035617 0.052128
0.603520 -0.024809 0.035036
0.569498 -0.011176 -0.009826
0.572703 -0.052449 0.042041
0.545820 0.027944 0.006272
0.576205 0.044633 0.021221
0.598832 -0.026455 0.003692
0.531284 0.006278 0.002673
0.527940 -0.018917 0.004203
0.533672 -0.019710 0.055447
0.552442 -0.024291 0.065361
0.522211 -0.020022 0.016069
0.527601 0.022590 0.067883
0.548975 -0.012560 0.070308
0.562924 -0.007329 0.075396
0.513843 0.044995 0.050968
0.559639 0.032208 0.008298
0.584975 0.063705 0.062484
0.537506 -0.032898 0.048046
0.513727 0.038620 0.046719
0.562914 -0.047051 -0.006170
0.518926 0.009002 0.014715
0.527377 0.029503 0.069750
0.584991 0.049810 0.032903
0.554701 -0.033136 0.059420
0.602364 -0.014392 0.010860
0.582598 -0.014220 -0.007488
0.522655 0.036460 0.066223
0.559517 -0.041387 0.053163
0.578686 0.058493 0.034639
0.580907 -0.033425 -0.008641
0.561027 -0.060792 0.011864
0.604358 0.011772 0.048620
0.546223 0.057943 0.021772
0.566176 -0.025160 -0.011499
0.542122 0.079680 0.032848
0.543823 0.095093 0.074165
0.581461 0.068283 0.062782
0.528560 0.106140 0.047139
0.593271 0.019290 0.016807
0.567964 -0.063375 0.015497
0.579817 -0.058876 0.030174
0.572092 -0.063134 0.012332
0.543734 -0.028848 -0.006012
0.548654 -0.055220 0.018189
0.583301 0.011014 0.074708
0.571272 0.036843 0.013841
0.528692 0.106189 0.060162
0.541046 0.000803 0.072051
0.515188 0.065319 0.062460
0.516256 0.002602 0.021437
0.536615 -0.020781 0.057633
0.559137 -0.054411 0.036806
0.537579 -0.019677 -0.003741
0.546651 0.081158 0.080433
0.579000 0.046619 0.024461
0.543983 -0.014913 0.066710
0.603775 -0.031019 0.023230
0.559029 0.069246 0.082015
0.526231 -0.029720 0.018793
0.526230 -0.020091 0.006838
0.589966 -0.035267 0.049471
0.530979 0.076607 0.030411
0.590133 -0.013592 -0.003066
0.552532 -0.052802 0.034499
0.520257 -0.012240 0.038038
0.541650 0.038417 0.081532
0.547166 -0.053464 0.023595
0.523199 0.026655 0.063813
0.582716 -0.057104 0.031137
0.569716 0.077828 0.048641
0.527909 -0.028007 0.036956
0.552280 -0.050776 0.037863
0.606910 -0.003248 0.033431
0.555682 0.077513 0.036620
0.515194 0.022618 0.047388
0.548879 0.098411 0.051436
0.602300 -0.019474 0.009540
0.514160 0.011185 0.037797
0.527478 0.093541 0.036427
0.572025 -0.049916 0.045403
0.588742 0.050640 0.039325
0.601406 0.016982 0.026593
0.521454 0.021893 0.059722
0.539786 -0.016068 -0.005199
0.533668 -0.036721 0.007527
0.517494 -0.006803 0.034245
0.579615 0.060005 0.074248
0.568133 0.022689 0.004679
0.574131 0.048862 0.023344
0.581397 0.008797 0.001255
0.583644 -0.024511 -0.008376
0.581740 -0.023969 0.063286
0.579374 -0.011427 -0.007947
0.573447 -0.006971 0.074189
0.562693 -0.056813 0.002223
0.553095 0.058186 0.084636
0.593471 0.003055 0.066193
0.575408 0.038413 0.080439
0.555137 -0.037193 0.055725
0.556434 -0.016705 0.070561
0.531024 0.000806 0.001666
0.544389 0.098215 0.071931
0.566209 -0.007894 -0.009216
0.560060 -0.060677 0.023145
0.599714 -0.042838 0.023776
0.562217 0.061910 0.082613
0.562059 0.010301 0.080432
0.518187 0.059180 0.032344
0.541835 0.034372 0.010017
0.564915 -0.012739 -0.010392
0.516070 0.094598 0.040852
0.573637 -0.026529 -0.011034
0.524620 -0.010015 0.049634
0.529948 0.091318 0.074294
0.528806 0.106019 0.060676
0.587177 -0.000715 -0.000392
0.523910 0.000512 0.007514
0.567583 0.053875 0.024306
0.586579 -0.027196 0.058302
0.514394 0.049307 0.037323
0.566081 -0.027292 0.065478
0.545272 0.028758 0.081402
0.554797 -0.011951 -0.009555
0.569607 0.010361 0.079497
0.591484 0.037544 0.070199
0.603296 -0.027990 0.032451
0.574316 0.019973 0.004844
0.601111 0.029860 0.040242
0.516304 0.071361 0.036310
0.596879 0.035057 0.036117
0.568913 0.051504 0.023078
0.605329 0.013911 0.037541
0.559849 0.002842 0.078663
0.606556 -0.000832 0.029958
0.520391 0.077242 0.071138
0.565312 -0.057837 0.002447
0.519252 0.026393 0.057780
0.559219 -0.000296 -0.006944
0.548870 0.007209 -0.003278
0.538921 0.105434 0.059681
0.547047 0.056791 0.021174
0.521841 0.058664 0.028554
0.534001 0.014347 0.003725
0.561084 -0.051823 -0.002432
0.577851 0.009416 0.076911
0.586782 -0.044178 0.044301
0.574533 -0.036695 0.057871
0.589988 -0.046237 0.039077
0.538394 -0.025225 -0.003494
0.514592 0.084987 0.063916
0.518462 0.018880 0.017194
0.559375 -0.025696 0.066132
0.577845 0.069320 0.048134
0.562009 0.011250 0.080629
0.529918 -0.034881 0.026281
0.549490 -0.000810 0.075451
0.585848 -0.001737 0.070691
0.587279 0.013075 0.072650
0.546110 0.101851 0.062114
0.528781 0.029361 0.011971
0.547354 0.088899 0.077320
0.598574 0.012518 0.061925
0.582314 -0.050641 -0.001496
0.529519 0.019744 0.069052
0.555447 -0.026349 0.064971
0.512084 0.063757 0.048474
0.538972 -0.007557 0.067098
0.530661 0.030985 0.011749
0.594526 0.031740 0.067614
0.577245 0.059886 0.075962
0.551161 0.098367 0.065003
0.542083 -0.047112 0.030488
0.558036 -0.011964 -0.009954
0.519368 -0.013194 0.020471
0.582128 0.067647 0.061190
0.552788 -0.021486 -0.009963
0.533047 0.042908 0.077651
0.523307 -0.009605 0.008459
0.554652 -0.041761 -0.006607
0.511472 0.089394 0.057472
0.583363 -0.060073 0.023552
0.604657 -0.026083 0.022987
0.555930 0.094786 0.060632
0.587332 0.053135 0.040070
0.583310 -0.006589 -0.004888
0.593906 -0.005315 0.002984
0.584990 0.008388 0.073376
0.548488 0.066513 0.026734
0.586874 -0.037755 0.050118
0.537907 -0.016542 0.061507
0.587438 0.050290 0.071225
0.524207 0.000884 0.007229
0.582163 -0.043232 0.048559
0.552198 -0.052204 0.002757
0.523790 -0.015096 0.008886
0.534441 0.027706 0.008810
0.527057 0.039714 0.017400
0.572161 -0.032218 0.061733
0.596141 0.045879 0.051331
0.546548 0.077443 0.032752
0.569754 0.056384 0.027057
0.604356 -0.006617 0.046970
0.561311 0.023259 0.082917
0.529726 0.028963 0.011323
0.527693 0.057923 0.075956
0.549859 -0.053579 0.029145
0.589717 -0.051959 0.031971
0.513020 0.053865 0.043827
0.561842 0.036407 0.084441
0.526904 0.057204 0.075246
0.562050 -0.059425 0.007037
0.586822 -0.057357 0.010360
0.604239 -0.013897 0.016104
0.536688 -0.039080 0.036996
0.554069 0.038716 0.084707
0.540391 0.014308 0.001409
0.540250 0.074330 0.029745
0.551642 -0.052951 0.004264
0.549295 0.094740 0.046768
0.561647 -0.045587 -0.006665
0.587494 0.006855 0.071586
0.592249 0.045407 0.039242
0.575831 0.074804 0.064789
0.539304 0.050917 0.081873
0.552083 0.025611 0.004524
0.577888 -0.009774 0.071796
0.570575 -0.063496 0.014296
0.520229 -0.007406 0.042974
0.599236 0.009111 0.060527
0.603730 -0.019496 0.039602
0.603127 0.009265 0.052799
0.548711 -0.040987 0.048477
0.573389 -0.043894 0.051813
0.572427 -0.017253 -0.010654
0.541055 0.097956 0.072431
0.517151 -0.005546 0.023233
0.531910 0.107178 0.056436
0.570960 0.039368 0.082236
0.515082 0.046617 0.034616
0.526968 0.042758 0.072726
0.598177 0.000766 0.060504
0.523788 0.002680 0.007863
0.592651 0.005677 0.067465
0.582820 -0.047838 0.043346
0.516411 0.022837 0.021721
0.571694 -0.063489 0.014136
0.605560 0.003347 0.027285
0.519688 0.013851 0.014364
0.568944 -0.059393 0.003668
0.598236 0.007150 0.014643
0.595149 -0.029443 0.048389
0.556119 -0.012352 0.072598
0.516306 0.098781 0.060914
0.574997 0.074957 0.054708
0.567862 -0.046981 0.049027
0.513643 0.022383 0.040483
0.513673 0.075672 0.040324
0.561460 0.020231 0.082371
0.547530 0.084183 0.037512
0.586604 -0.038682 0.049546
0.522078 0.054399 0.070065
0.594603 0.031371 0.028496
0.520787 -0.007783 0.043956
0.518573 -0.006313 0.039465
0.550661 -0.047400 -0.001311
0.561623 0.085512 0.049041
0.514992 0.059491 0.037339
0.575949 0.048560 0.024073
0.600995 -0.007289 0.011099
0.592159 0.022550 0.017974
0.590495 -0.013698 -0.002833
0.518329 0.046068 0.028100
0.571547 0.070013 0.075963
0.559115 0.087980 0.049376
0.545543 -0.050112 0.030198
0.528998 0.106762 0.049104
0.606033 -0.006755 0.025429
0.558241 -0.000773 0.077474
0.511251 0.092641 0.055410
0.547631 0.063986 0.083841
0.512830 0.073209 0.042209
0.513945 0.019112 0.028111
0.559599 -0.014827 -0.010542
0.569495 -0.032195 0.062195
0.533121 -0.032310 0.042068
0.513325 0.019398 0.034637
0.603790 -0.022477 0.013687
0.584713 0.005363 0.001094
0.601322 0.033243 0.048747
0.600520 -0.006901 0.010456
0.598494 -0.008895 0.056734
0.586320 0.005930 0.002353
0.604610 0.004414 0.024893
0.563220 -0.056379 0.001407
0.584451 -0.031311 -0.007559
0.547004 0.090554 0.041628
0.552418 0.028999 0.083316
0.534358 0.091154 0.036481
0.533057 -0.006382 0.062590
0.528183 0.048678 0.074978
0.549501 0.090746 0.043358
0.581157 -0.061671 0.020497
0.514046 0.040362 0.036799
0.582609 0.028845 0.013874
0.515704 0.042927 0.031768
0.559415 -0.040039 0.054512
0.544135 0.014024 0.077780
0.524183 0.091010 0.071776
0.512259 0.080652 0.042899
0.581190 0.040713 0.021447
0.510622 0.083775 0.054478
0.547049 0.051599 0.018335
0.554021 0.004820 -0.004849
0.603360 0.021726 0.050014
0.548439 -0.048923 0.037137
0.566309 0.039843 0.083717
0.569896 0.050862 0.022989
0.550606 -0.015149 -0.009165
0.524326 0.018048 0.062426
0.583321 0.011418 0.003554
0.606507 0.004081 0.040589
0.537086 0.061016 0.081380
0.510760 0.086583 0.047029
0.532205 0.093339 0.074053
0.599728 -0.008807 0.055030
0.605887 -0.003034 0.043452
0.543570 0.031747 0.081286
0.545206 -0.038319 0.049086
0.583076 -0.038928 0.051897
0.543310 -0.002913 0.071882
0.536592 0.065791 0.081154
0.545802 0.057175 0.083951
0.529069 0.105211 0.062641
0.513351 0.076518 0.040887
0.544859 0.101791 0.052326
0.588036 0.008645 0.071529
0.520144 0.057714 0.068436
0.517886 0.090048 0.067110
0.556002 -0.032783 -0.009704
0.523718 0.010487 0.009254
0.587373 -0.046551 -0.000771
0.569030 -0.008449 -0.009146
0.597850 0.041389 0.047824
0.552536 -0.052439 0.035190
0.577870 -0.018449 -0.009840
0.517622 0.022132 0.053200
0.597833 0.002417 0.011275
0.535281 0.028651 0.076373
0.580034 0.066564 0.047343
0.527875 -0.029650 0.011347
0.534296 0.070191 0.027771
0.603824 0.011950 0.050488
0.534887 -0.019054 0.057151
0.566498 0.044659 0.083528
0.566730 -0.028610 0.064680
0.560147 -0.052460 0.040297
0.571804 -0.050930 0.044146
0.570198 0.012009 0.079681
0.544316 0.015951 0.078333
0.581853 -0.058175 0.029987
0.555038 0.023557 0.082749
0.549379 0.040622 0.012350
0.521081 0.048546 0.025791
0.606246 -0.006696 0.026706
0.588554 -0.000800 0.000511
0.587131 0.046978 0.032840
0.515083 0.002048 0.029927
0.549440 0.045768 0.015126
0.594007 -0.030513 -0.001203
0.526234 0.033743 0.015295
0.557218 0.082227 0.041235
0.513904 0.016797 0.028203
0.536588 -0.031785 0.048215
0.575351 0.075499 0.064023
0.554743 -0.053141 0.035935
0.598669 -0.043380 0.027578
0.585776 0.062406 0.063140
0.586740 -0.040210 -0.004036
0.598734 0.040031 0.049226
0.598348 -0.015767 0.053433
0.549769 -0.041847 -0.004591
0.513956 0.038823 0.048457
0.566207 -0.061955 0.025307
0.597027 -0.018062 0.053858
0.554423 -0.036357 0.056238
0.580778 0.019905 0.007093
0.587688 0.022088 0.073204
0.570466 -0.049598 -0.005414
0.602192 -0.025480 0.009388
0.586570 0.048880 0.034033
0.545962 -0.044511 0.041704
0.588240 0.057767 0.049896
0.526387 0.072346 0.075975
0.519153 0.043546 0.025903
0.599777 0.030988 0.059729
0.515631 -0.000688 0.028708
0.595342 0.046210 0.060684
0.531703 -0.014384 0.056743
0.597648 0.004495 0.012227
0.519385 0.048270 0.027559
0.598907 0.008259 0.060895
0.552227 0.064013 0.026086
0.590875 0.039952 0.031184
0.566567 0.035448 0.083555
0.606908 0.000728 0.034700
0.531758 0.072462 0.028838
0.521395 0.105330 0.048448
0.518646 0.010707 0.050788
0.516695 0.064905 0.035154
0.592718 -0.033017 0.048467
0.553153 -0.023144 0.066290
0.596755 -0.047871 0.015592
0.571401 -0.061114 0.006558
0.532021 0.086340 0.076684
0.565831 0.001831 0.078182
0.595901 -0.018827 0.000707
0.535152 0.069811 0.080478
0.596597 0.025959 0.065417
0.570254 -0.057067 0.000386
0.554658 0.060804 0.024726
0.512053 0.071301 0.055899
0.583723 -0.056910 0.030609
0.512864 0.059337 0.053511
0.598032 0.041586 0.049415
0.605278 0.012237 0.033630
0.583031 -0.031548 0.057684
0.601405 0.025253 0.056898
0.574912 -0.022377 0.066845
0.517127 0.071213 0.066923
0.562243 -0.002383 -0.007659
0.599050 0.035712 0.059488
0.511625 0.068911 0.051147
0.584894 0.049428 0.032403
0.560419 -0.059155 0.028397
0.557305 -0.045014 0.048397
0.540953 -0.026816 -0.004849
0.556920 -0.016254 -0.010428
0.532545 0.047303 0.018459
0.600625 0.006831 0.057974
0.571804 -0.061329 0.007039
0.535174 0.032450 0.077119
0.573479 -0.010882 -0.009225
0.546473 -0.049968 0.004881
0.583294 0.005038 0.000196
0.595949 0.037502 0.037049
0.516759 0.053185 0.062111
0.544569 -0.050755 0.026196
0.522456 0.036853 0.019465
0.515653 0.000310 0.026168
0.517730 0.053550 0.063923
0.555506 -0.012086 0.072589
0.548644 0.037848 0.010931
0.595854 0.031612 0.066088
0.601083 -0.032703 0.009130
0.555305 -0.002025 0.076620
0.569817 0.005277 0.078410
0.564126 -0.051005 -0.003972
0.550355 -0.055140 0.025430
0.561152 0.085357 0.074905
0.579687 -0.034199 -0.008889
0.553865 0.092087 0.048478
0.516894 0.039673 0.027783
0.520966 -0.017123 0.017662
0.583422 0.066002 0.061210
0.598206 0.022364 0.063211
0.589086 0.035869 0.025121
0.580464 0.020071 0.007037
0.580488 0.061308 0.072947
0.551662 0.042901 0.084719
0.567762 0.036988 0.012908
0.544304 -0.031381 0.055377
0.560181 0.028774 0.083843
0.591515 -0.053240 0.011114
0.584993 0.052329 0.035509
0.587519 0.047558 0.033965
0.566877 0.048769 0.083070
0.595101 -0.043783 0.035192
0.539685 0.050599 0.018433
0.564659 0.080561 0.045719
0.553524 0.021165 0.002262
0.597829 0.022963 0.025695
0.515795 0.006051 0.021926
0.547928 -0.054057 0.023407
0.576067 0.070011 0.045944
0.526437 -0.025347 0.009815
0.562216 -0.034078 0.060752
0.555838 0.029335 0.006409
0.587394 0.042601 0.073062
0.581170 0.030963 0.077579
0.515585 0.037024 0.053900
0.604546 -0.001222 0.048408
0.558582 0.074914 0.080629
0.539375 0.021289 0.077236
0.573681 -0.023370 -0.011019
0.606525 0.004640 0.033211
0.512306 0.096702 0.048700
0.525149 -0.007508 0.005913
0.596940 -0.032388 0.043588
0.599915 -0.022547 0.046430
0.533992 -0.022182 0.054003
0.577846 0.035409 0.015496
0.579417 0.069706 0.053341
0.551429 0.013235 0.080064
0.523725 0.052944 0.071595
0.545712 0.017306 0.079206
0.602996 -0.017200 0.043792
0.544816 -0.045298 0.039044
0.598784 0.035876 0.060075
0.556014 0.000333 0.077541
0.526336 0.018535 0.009390
0.559267 0.057032 0.023642
0.582954 0.059345 0.040964
0.592845 -0.008096 0.000888
0.550108 0.097007 0.070805
0.536366 -0.010266 -0.003064
0.600890 0.031110 0.056552
0.560862 0.087999 0.072515
0.548885 -0.055218 0.020406
0.512016 0.095542 0.055381
0.574001 0.039115 0.081040
0.535506 0.077635 0.030831
0.561687 -0.038542 0.056646
0.513504 0.056954 0.041140
0.591174 0.054210 0.051518
0.560845 -0.052543 0.040465
0.532631 -0.036941 0.031130
0.516132 0.021117 0.021801
0.514218 0.018570 0.042401
0.573984 0.047771 0.080343
0.601214 0.019103 0.057674
0.545440 -0.002371 -0.005536
0.544667 -0.042943 0.042708
0.595733 0.000878 0.007870
0.559409 0.091502 0.059135
0.561228 -0.034590 0.060145
0.543154 -0.015574 -0.006776
0.590699 0.055215 0.052564
0.569364 0.031170 0.082578
0.524819 0.064482 0.028214
0.569166 -0.059277 0.032073
0.581396 0.063650 0.044780
0.521351 0.067873 0.071570
0.593526 0.044929 0.065897
0.602393 0.026097 0.053126
0.573082 -0.022637 -0.011063
0.538908 0.025778 0.006620
0.589785 -0.030213 -0.004640
0.535012 -0.042106 0.014587
0.604578 -0.019986 0.016766
0.573101 0.069522 0.041065
0.515640 0.041040 0.055556
0.513218 0.082732 0.041157
0.603369 0.015377 0.051523
0.577726 -0.062523 0.022333
0.533940 0.097552 0.039387
0.544082 0.006400 0.075633
0.522651 0.049706 0.024797
0.538700 -0.041880 0.035376
0.595180 -0.029348 -0.000236
0.541444 0.022825 0.004702
0.604510 -0.010303 0.018141
0.583164 0.066390 0.059035
0.559092 0.064151 0.083057
0.573570 0.058928 0.031043
0.532367 0.076787 0.030428
0.534011 -0.038215 0.008784
0.563976 0.052586 0.083542
0.524858 0.062497 0.074242
0.571378 -0.049698 -0.005300
0.600346 -0.038259 0.011138
0.576998 0.073308 0.065108
0.600635 0.033455 0.055780
0.592157 -0.015193 0.060755
0.539526 0.102787 0.047530
0.527105 -0.031335 0.021920
0.595278 0.007224 0.065233
0.528110 0.089305 0.034990
0.599954 0.036458 0.046922
0.539762 -0.047290 0.012417
0.561767 0.042289 0.084654
0.526028 -0.029004 0.026492
0.560014 0.053405 0.084390
0.532891 0.004613 0.001353
0.539510 0.084222 0.078985
0.599795 0.029983 0.059955
0.595983 -0.014238 0.001863
0.538513 0.092130 0.038392
0.523738 0.104795 0.059818
0.535396 0.101892 0.069129
0.606611 -0.005534 0.029612
0.530704 -0.025503 0.003469
0.548982 -0.047480 -0.000156
0.595028 -0.050703 0.019403
0.554902 -0.030886 0.061475
0.525031 -0.013145 0.048075
0.528916 -0.034107 0.019882
0.557899 0.046522 0.016368
0.527081 -0.027303 0.035805
0.548300 -0.014220 -0.008467
0.519698 -0.011457 0.017113
0.558349 0.014853 0.081346
0.541780 0.004492 0.073815
0.536676 0.017821 0.074660
0.570794 -0.061857 0.026969
0.580678 0.019564 0.006843
0.522063 -0.010354 0.044580
0.584884 0.027799 0.014849
0.512855 0.081197 0.041719
0.598025 -0.001642 0.009358
0.517489 0.039210 0.059008
0.569785 0.079468 0.052282
0.523464 -0.013410 0.008947
0.524314 -0.014351 0.045767
0.575108 0.041658 0.018529
0.526432 -0.017548 0.005664
0.566698 -0.062076 0.025212
0.566036 -0.055803 -0.000299
0.561197 0.090284 0.064101
0.557209 -0.020552 0.068694
0.562054 -0.060429 0.026513
0.596436 0.024152 0.065595
0.591574 -0.025167 0.055450
0.516674 0.078177 0.036595
0.604493 -0.019944 0.016379
0.520783 0.100663 0.041494
0.512516 0.059689 0.051381
0.568770 0.082067 0.068119
0.519230 -0.008899 0.038736
0.602026 -0.028040 0.036995
0.517744 0.103699 0.052833
0.531999 -0.009060 0.060138
0.599796 0.025426 0.060562
0.552287 -0.030644 -0.009126
0.518883 0.076999 0.034551
0.593293 -0.001805 0.003982
0.595961 0.041078 0.041378
0.537093 0.101556 0.069560
0.564841 0.086505 0.066922
0.601133 -0.013052 0.050571
0.589199 0.017224 0.011319
0.584920 0.010855 0.073800
0.572047 -0.050350 -0.004865
0.516135 0.078388 0.066127
0.567225 0.060415 0.081058
0.567361 0.064373 0.032160
0.533598 -0.037287 0.008394
0.541358 -0.013364 -0.005856
0.586727 -0.000567 -0.000607
0.516004 0.032847 0.053386
0.529686 -0.035170 0.022574
0.521167 -0.015758 0.036217
0.591626 -0.048402 0.034518
0.574923 -0.001608 -0.005609
0.606180 0.009082 0.038175
0.582947 0.027865 0.013437
0.529830 0.040431 0.074802
0.604068 0.013798 0.049212
0.535703 0.074473 0.080254
0.544273 0.092774 0.075489
0.540887 0.043294 0.081827
0.523513 -0.018018 0.040205
0.532128 -0.017553 -0.000049
0.543372 -0.016305 -0.006898
0.571338 0.035599 0.082116
0.514984 0.037093 0.031416
0.591253 0.044149 0.036017
0.604636 0.017844 0.041840
0.572277 0.009864 -0.000965
0.582929 -0.051066 0.039438
0.535111 0.013647 0.003006
0.523981 0.097085 0.069036
0.530183 0.012821 0.005142
0.512987 0.096959 0.056710
0.568297 0.020575 0.003553
0.537907 -0.038834 0.039964
0.521081 0.010432 0.054838
0.585328 0.041742 0.074670
0.532104 0.101978 0.041981
0.583710 -0.035906 0.053953
0.522487 0.104940 0.058331
0.595529 -0.016604 0.056517
0.530323 0.106235 0.060906
0.596816 -0.006130 0.005723
0.583854 -0.023473 0.062405
0.537190 -0.019071 0.059314
0.525033 -0.009263 0.006124
0.554817 0.013207 0.080690
0.602881 -0.031873 0.029180
0.552451 0.090028 0.044901
0.513748 0.023099 0.041430
0.595963 -0.049194 0.016314
0.549292 -0.054501 0.025244
0.546811 0.051262 0.084170
0.537860 0.093785 0.074718
0.531309 -0.031587 0.039300
0.517202 0.068837 0.066679
0.605003 -0.020129 0.032630
0.548975 -0.053047 0.007251
0.598851 0.016974 0.061929
0.515587 0.017846 0.046854
0.524504 0.014266 0.009518
0.579570 -0.052043 0.040200
0.591595 0.047518 0.040677
0.563588 -0.062464 0.016803
0.547591 0.094547 0.074133
0.599644 0.036373 0.045161
0.517719 0.066457 0.066975
0.580769 0.069285 0.061510
0.522410 -0.007801 0.047224
0.563039 0.036555 0.084291
0.527169 0.032651 0.014256
0.533093 0.047710 0.018475
0.602412 0.021641 0.054242
0.526603 -0.030077 0.017360
0.597672 0.026678 0.063990
0.579347 0.061732 0.038881
0.535968 0.030937 0.077316
0.518129 -0.002227 0.017269
0.521896 -0.021080 0.027076
0.557770 -0.059851 0.022393
0.519151 0.089454 0.037109
0.512924 0.065684 0.056854
0.533899 0.009705 0.002248
0.512168 0.092922 0.058051
0.517342 -0.006797 0.033247
0.541070 0.099973 0.070881
0.535938 0.048070 0.017892
0.589076 0.020453 0.072123
0.558480 0.016796 0.000139
0.592146 -0.019587 -0.002799
0.529259 -0.018389 0.002649
0.601453 0.006447 0.056434
0.569030 0.082546 0.063897
0.559501 0.079961 0.040708
0.531300 -0.017251 0.054375
0.583931 0.037406 0.075912
0.541502 0.077442 0.081088
0.528738 -0.033840 0.021560
0.513520 0.029954 0.036711
0.530655 -0.006282 0.000977
0.534731 0.106163 0.061614
0.571164 0.061228 0.079060
0.572754 0.022457 0.005781
0.538403 0.095646 0.040292
0.558879 0.069209 0.082064
0.531402 -0.037593 0.022250
0.589525 0.001145 0.069014
0.531392 -0.017446 0.054353
0.515724 0.038768 0.054926
0.537148 0.038204 0.012845
0.515563 0.026729 0.049938
0.602170 -0.037224 0.020239
0.528610 -0.030089 0.010164
0.563663 0.073797 0.079048
0.521963 0.004979 0.010176
0.575180 0.073101 0.070157
0.523785 -0.025489 0.022973
0.557724 0.027200 0.005391
0.514960 0.019337 0.024303
0.591973 -0.033157 -0.002484
0.593638 -0.010854 0.000632
0.570253 -0.016453 0.070849
0.554552 -0.000569 -0.006732
0.592008 0.046553 0.040230
0.541881 -0.047185 0.029826
0.594686 0.000688 0.064467
0.600523 -0.027311 0.041382
0.536594 -0.030956 0.049135
0.521284 0.058213 0.028904
0.600587 -0.033973 0.034874
0.596407 0.019132 0.065371
0.518225 -0.000268 0.043804
0.529660 0.057032 0.077277
0.532978 -0.007482 0.061968
0.552474 0.005010 0.078244
0.560690 -0.053525 -0.000695
0.555912 0.002111 0.078076
0.551990 -0.001204 -0.006596
0.573443 -0.001574 -0.005953
0.571687 -0.035027 -0.010305
0.557985 0.028611 0.006165
0.605206 0.010536 0.045361
0.543992 -0.047752 0.032869
0.527982 0.008680 0.063605
0.542371 -0.011329 -0.006115
0.587669 -0.044004 -0.001870
0.549697 0.090581 0.043355
0.605900 0.009257 0.033732
0.537188 -0.026470 0.053908
0.513718 0.014794 0.029826
0.543134 0.103554 0.060677
0.531773 0.030412 0.011016
0.559977 0.076550 0.079672
0.528660 0.018778 0.067836
0.596983 0.024126 0.025427
0.542472 0.026712 0.079929
0.573675 -0.035610 0.058976
0.604355 -0.006331 0.047111
0.547770 -0.011218 0.070428
0.598601 0.034289 0.061245
0.580731 -0.008407 0.071153
0.605794 -0.005428 0.024532
0.518474 0.019425 0.053892
0.603718 0.021967 0.040425
0.561329 0.084569 0.075357
0.578122 -0.062773 0.019914
0.525555 0.080157 0.074979
0.597329 -0.025891 0.001788
0.538641 -0.042259 0.034412
0.525971 -0.026362 0.034103
0.579823 0.063181 0.041394
0.516757 0.013076 0.047933
0.520730 -0.006931 0.044512
0.522739 0.090419 0.071028
0.513551 0.015874 0.036585
0.571736 -0.036566 -0.009979
0.544854 0.050557 0.083692
0.539504 0.103959 0.065836
0.566234 -0.045785 -0.007222
0.535208 -0.024699 -0.001217
0.545180 0.068188 0.083110
0.542307 -0.037805 -0.002034
0.518166 0.012435 0.050624
0.543776 0.087398 0.078093
0.603581 0.008304 0.051632
0.572754 0.051106 0.080417
0.586043 -0.018646 0.063735
0.555572 0.026429 0.004887
0.598766 -0.006625 0.007957
0.533664 0.104027 0.066392
0.537911 -0.003835 -0.003033
0.580643 -0.036810 -0.007960
0.568704 0.045470 0.082753
0.572396 0.040869 0.016859
0.563559 0.042244 0.015020
0.529030 0.058573 0.077000
0.535000 -0.042396 0.020229
0.513602 0.038296 0.039979
0.521738 -0.017011 0.036292
0.597144 -0.047250 0.023799
0.568508 0.053625 0.024474
0.572865 -0.000328 -0.005561
0.582780 0.054918 0.035443
0.583295 0.045041 0.075619
0.514673 0.005089 0.028739
0.514014 0.010679 0.029329
0.561889 0.077352 0.078638
0.567699 0.036040 0.012311
0.514514 0.063493 0.060534
0.528699 0.054143 0.076241
0.513821 0.089240 0.041261
0.574368 0.074252 0.070077
0.588795 0.030151 0.020181
0.597333 0.039177 0.042170
0.583829 -0.051506 0.038303
0.577898 -0.056713 0.034640
0.598963 -0.006101 0.008460
0.521789 0.104986 0.046868
0.580292 0.042535 0.077731
0.604795 0.013905 0.045692
0.523160 0.027101 0.063908
0.591911 -0.037666 -0.001234
0.551144 0.096298 0.051143
0.546403 -0.045060 -0.000408
0.544059 0.001725 0.074064
0.532846 -0.038975 0.013992
0.537826 -0.018850 -0.003964
0.560314 0.056956 0.023937
0.561678 -0.059208 0.029289
0.565974 -0.063100 0.018751
0.560689 0.066208 0.030581
0.595407 0.020468 0.066570
0.548220 -0.042819 0.046021
0.568466 -0.037818 -0.009917
0.600639 -0.041237 0.018353
0.598516 0.014108 0.062164
0.597184 0.025842 0.027302
0.604782 0.015455 0.035471
0.579193 -0.016007 0.068622
0.604345 -0.026777 0.027321
0.568819 -0.059195 0.032181
0.601119 0.024603 0.033562
0.578759 -0.006198 0.072743
0.572459 0.025188 0.081062
0.585918 -0.044301 -0.002864
0.587408 0.045733 0.031979
0.567035 0.022920 0.004531
0.584100 0.001613 -0.001071
0.541158 0.087384 0.077986
0.604806 0.009626 0.047472
0.580900 -0.023578 0.063923
0.604545 -0.022149 0.017055
0.542355 0.008101 0.075292
0.530095 -0.034981 0.026897
0.600661 0.022737 0.030521
0.553756 0.033890 0.008754
0.570492 0.068383 0.037486
0.542502 0.088947 0.038312
0.554232 0.052418 0.019361
0.533608 -0.027236 0.001034
0.531551 -0.037519 0.024088
0.573674 -0.040191 0.055192
0.553162 -0.057894 0.018408
0.533467 0.065391 0.025982
0.516818 0.006266 0.018855
0.564566 -0.022398 -0.011438
0.578164 -0.033036 0.059209
0.588154 -0.025212 0.058403
0.522228 0.102570 0.062533
0.544157 -0.044665 0.001129
0.515749 0.009836 0.021427
0.570931 -0.042422 0.053674
0.534820 -0.023104 0.054206
