ply
format ascii 1.0
element vertex 1024
property float x
property float y
property float z
end_header
0.563958 0.037279 0.085004
0.594191 -0.034086 0.049944
0.595138 -0.038909 0.048324
0.547754 0.095806 0.034236
0.546499 -0.034815 0.004986
0.594328 0.018996 0.046520
0.558016 0.090886 0.034777
0.505976 0.021871 0.038704
0.599771 -0.032335 0.023878
0.585441 0.014100 0.023623
0.512155 0.053147 0.020336
0.514064 0.089157 0.050460
0.532754 -0.032499 0.016839
0.530462 -0.004589 0.001681
0.520384 0.043063 0.009190
0.575715 0.015696 0.013741
0.596138 -0.001564 0.042507
0.541204 0.091473 0.026477
0.564645 0.073471 0.079848
0.542333 0.056272 0.007883
0.525239 -0.006878 0.005034
0.587558 -0.058438 0.011649
0.548411 0.100697 0.060801
0.570358 -0.044656 0.053013
0.605329 -0.049868 0.033965
0.563361 0.008684 0.078033
0.549326 0.073615 0.083661
0.524751 0.045173 0.080142
0.536524 -0.001340 0.070694
0.540877 0.068418 0.084418
0.578630 0.006034 0.014123
0.544863 0.041956 0.004603
0.544889 -0.042916 0.010551
0.553505 -0.053414 0.034019
0.513207 0.034354 0.068221
0.522671 -0.009555 0.052707
0.572660 0.004741 0.009405
0.540047 0.067284 0.011405
0.532602 0.061913 0.083493
0.553629 -0.040594 0.005334
0.519703 0.086226 0.030126
0.505045 0.051450 0.051704
0.531289 0.022382 0.078926
0.523203 0.080029 0.022370
0.543250 0.093437 0.029081
0.532326 0.058250 0.009073
0.539492 -0.030916 0.006208
0.526614 0.013223 0.072753
0.561299 0.091426 0.040663
0.603968 -0.046348 0.037628
0.604867 -0.044154 0.035040
0.514855 0.059122 0.019709
0.511351 0.013306 0.053583
0.572331 -0.002292 0.072076
0.521628 0.070702 0.018721
0.526285 -0.002625 0.063233
0.520788 0.078698 0.073186
0.572342 0.078696 0.069278
0.529294 0.039681 0.082140
0.581188 0.039727 0.076459
0.505820 0.025125 0.045663
0.519972 -0.013948 0.020832
0.538772 -0.025864 0.004201
0.573814 0.078373 0.042571
0.506338 0.063995 0.041441
0.552052 0.091356 0.030132
0.549822 0.100412 0.046574
0.530971 0.093550 0.029942
0.522926 0.089237 0.029914
0.504675 0.044419 0.035354
0.567613 -0.063395 0.018442
0.504659 0.041124 0.034502
0.520581 0.021220 0.006252
0.572541 0.029156 0.014436
0.563929 -0.044792 0.005499
0.549017 0.084848 0.079397
0.594798 -0.000595 0.052170
0.559000 -0.038287 0.055230
0.534153 0.099616 0.038222
0.510171 0.033309 0.018788
0.547083 -0.037670 0.050097
0.557626 0.047688 0.009252
0.553898 -0.035718 0.055429
0.547518 -0.031771 0.003628
0.596697 -0.040847 0.015694
0.554277 0.010538 0.001055
0.579864 -0.028224 0.008513
0.562087 0.088547 0.036487
0.527472 0.003655 0.001978
0.538317 -0.033413 0.046942
0.542228 -0.038276 0.009043
0.541284 0.065028 0.010641
0.521033 0.042855 0.077764
0.525698 0.026799 0.003830
0.551280 0.092343 0.072876
0.537741 -0.040589 0.028588
0.530778 0.070013 0.081472
0.519284 0.037670 0.009006
0.553481 0.085793 0.024907
0.565243 -0.014577 0.002685
0.535908 0.101808 0.062700
0.536569 0.020797 0.080380
0.577835 0.072906 0.065458
0.578902 0.040238 0.078343
0.593287 0.029032 0.051673
0.535296 0.064772 0.083955
0.504593 0.037402 0.034612
0.514890 0.018702 0.011913
0.579740 -0.021319 0.062438
0.544399 0.038170 0.086405
0.531814 0.049089 0.083826
0.510956 0.065229 0.028313
0.568087 0.074810 0.028734
0.515383 0.074345 0.069056
0.586385 0.029970 0.030917
0.563175 0.015355 0.004975
0.534746 0.084777 0.020627
0.590018 0.045009 0.052232
0.581798 0.062146 0.069175
0.542837 0.032342 0.085088
0.522551 0.034045 0.077527
0.576878 0.054276 0.078593
0.553728 -0.008471 0.071072
0.525669 0.021378 0.075536
0.515334 0.017588 0.064283
0.582213 -0.018008 0.062410
0.577870 0.028772 0.019114
0.536447 -0.022430 0.003856
0.540630 0.047706 0.086665
0.582845 -0.010628 0.064372
0.556518 0.097867 0.054777
0.590562 0.032604 0.064518
0.555138 -0.014858 0.068149
0.551560 0.006306 0.000113
0.521937 0.044881 0.078439
0.532061 0.072133 0.014126
0.557120 0.078722 0.021609
0.563086 -0.018994 0.066456
0.520147 0.056069 0.077009
0.557539 -0.002755 0.000667
0.551900 0.093423 0.032996
0.540306 0.096543 0.070684
0.514606 0.029613 0.012771
0.586574 -0.002005 0.020060
0.566172 0.085539 0.038253
0.589583 -0.026112 0.015388
0.565920 -0.062852 0.021540
0.540142 -0.026870 0.004052
0.598086 -0.057972 0.016357
0.546120 0.041084 0.004596
0.532503 0.097858 0.068368
0.516657 0.088183 0.062760
0.532158 0.100609 0.063959
0.575187 0.079626 0.059017
0.545820 0.085542 0.079213
0.509732 0.009068 0.038823
0.568461 0.024601 0.010079
0.589112 -0.066044 0.021245
0.534389 0.008426 0.074719
0.580988 -0.040034 0.054641
0.585286 0.032605 0.072608
0.539094 0.032482 0.084340
0.526781 0.075867 0.078169
0.580886 0.069903 0.059397
0.554719 -0.055632 0.029534
0.559931 0.012518 0.003058
0.530406 0.024196 0.079145
0.516585 0.077254 0.027000
0.541458 -0.044780 0.027537
0.568913 0.060797 0.082006
0.580639 0.060991 0.072102
0.505760 0.060933 0.049666
0.597132 -0.024920 0.024395
0.549582 0.077284 0.017384
0.533110 0.074538 0.081286
0.565943 0.034378 0.084209
0.541375 -0.025477 0.057203
0.543705 0.080528 0.081428
0.560780 -0.010029 0.070526
0.514825 0.086941 0.060008
0.560726 -0.028020 0.002050
0.556060 0.048656 0.086810
0.531713 0.070878 0.081652
0.517860 0.050872 0.013308
0.577668 -0.023637 0.007990
0.575571 0.001288 0.072357
0.579510 -0.050067 0.007219
0.531132 0.076741 0.016464
0.578574 0.015548 0.075729
0.601457 -0.042153 0.019975
0.514441 0.070206 0.069457
0.545110 0.002587 -0.000651
0.533454 0.038662 0.003609
0.562924 -0.004339 0.072867
0.581823 0.068622 0.055213
0.569361 0.074769 0.076018
0.572280 0.032005 0.081800
0.530410 -0.028206 0.014391
0.571493 0.040140 0.016674
0.564586 0.010384 0.005000
0.560371 0.055785 0.013184
0.553279 0.087226 0.026160
0.505647 0.041978 0.054852
0.560492 0.076157 0.022281
0.509668 0.020542 0.055828
0.547320 0.099927 0.063548
0.539327 -0.039516 0.039031
0.506225 0.022695 0.032398
0.520871 -0.016859 0.031783
0.522696 0.050311 0.078929
0.519274 0.026080 0.072393
0.588855 0.049670 0.055050
0.568242 -0.063672 0.018541
0.570948 0.071201 0.029596
0.533239 0.089241 0.075679
0.514416 0.084813 0.036728
0.536340 -0.038907 0.029446
0.518926 0.001061 0.057151
0.597444 -0.016073 0.044211
0.588698 0.021899 0.031769
0.570783 0.075255 0.032771
0.606000 -0.048369 0.029545
0.560653 0.088031 0.033660
0.556083 0.026553 0.084215
0.573175 -0.063366 0.033944
0.588626 -0.066209 0.021452
0.554357 0.065288 0.013510
0.589224 0.044595 0.062731
0.569896 0.004494 0.007457
0.504823 0.048620 0.051128
0.592790 -0.012655 0.054375
0.512780 0.039427 0.069123
0.535627 -0.017310 0.059791
0.576870 0.071767 0.040152
0.514836 0.003370 0.051167
0.517437 -0.006085 0.016415
0.511694 0.069161 0.029235
0.566488 0.043526 0.013654
0.529044 0.020492 0.001988
0.600402 -0.028096 0.040422
0.536444 0.018160 0.000672
0.569026 0.007343 0.007306
0.522363 0.035103 0.006609
0.518780 0.007224 0.062215
0.521349 0.051130 0.010903
0.576167 -0.053116 0.047561
0.545141 0.101171 0.062259
0.567297 -0.007024 0.071272
0.576592 0.062460 0.031463
0.583363 0.052134 0.036404
0.582723 -0.062776 0.013900
0.586040 -0.000578 0.019854
0.597547 -0.012479 0.040331
0.590560 0.038953 0.046179
0.553355 0.098695 0.060199
0.511068 0.007618 0.044587
0.508020 0.070061 0.054943
0.509202 0.053170 0.065116
0.508817 0.075593 0.051693
0.578160 0.074097 0.061944
0.587610 -0.055805 0.044810
0.592795 0.023561 0.060375
0.517142 0.036250 0.073462
0.552822 -0.019421 0.000521
0.519172 0.000216 0.056741
0.559568 0.060890 0.085000
0.526153 0.009513 0.070663
0.506182 0.021705 0.042415
0.509396 0.009734 0.033950
0.575214 -0.059910 0.011486
0.593733 0.021373 0.044950
0.559257 -0.059336 0.023551
0.509419 0.019451 0.021764
0.539786 0.102222 0.044186
0.550673 -0.006613 0.071668
0.520169 0.036535 0.076284
0.591936 -0.030929 0.052418
0.536005 0.017268 0.078954
0.593300 0.020736 0.042577
0.515154 0.000579 0.016364
0.530686 -0.029737 0.016872
0.568775 -0.057902 0.010776
0.544527 0.070305 0.084347
0.575099 0.072785 0.037607
0.578171 0.045766 0.078632
0.540577 -0.025251 0.003295
0.574903 0.078688 0.046735
0.551100 -0.028459 0.059607
0.585231 0.051445 0.069115
0.563966 0.092233 0.057814
0.595606 -0.055848 0.042213
0.518515 0.094016 0.058245
0.518015 0.073915 0.023535
0.567445 -0.051390 0.007534
0.546406 -0.000073 -0.000694
0.557703 0.071563 0.017878
0.546116 0.068224 0.012359
0.508614 0.012256 0.038507
0.584910 -0.010965 0.015573
0.506347 0.061668 0.053575
0.537191 0.027211 0.082539
0.523977 -0.017218 0.012785
0.589369 0.044563 0.062197
0.508362 0.065628 0.059482
0.555258 0.093676 0.068988
0.582613 0.055406 0.071946
0.591724 0.025901 0.040452
0.594917 0.009850 0.042612
0.509702 0.046866 0.065893
0.530485 0.000456 0.001113
0.586038 -0.023335 0.013305
0.567571 0.001421 0.005526
0.508964 0.044407 0.022266
0.522468 -0.010359 0.051523
0.593435 0.022294 0.044220
0.561159 -0.039914 0.054649
0.538169 0.077809 0.081633
0.511742 0.084217 0.052310
0.590883 -0.020421 0.055385
0.525933 -0.021026 0.044475
0.561876 -0.039121 0.055356
0.543468 0.098750 0.067316
0.526363 0.100967 0.049110
0.527475 0.068953 0.014483
0.546428 0.058989 0.086423
0.531495 -0.024748 0.049062
0.588107 0.041919 0.040577
0.590914 -0.020622 0.018527
0.554302 0.093172 0.070391
0.581089 -0.044328 0.007137
0.558194 0.096779 0.054718
0.507698 0.015103 0.036807
0.541032 0.007384 -0.000398
0.544714 -0.034321 0.005402
0.547222 -0.035602 0.052186
0.582779 0.034274 0.026891
0.507477 0.025168 0.053161
0.531636 0.099306 0.066038
0.564364 0.027693 0.083467
0.508703 0.023025 0.022612
0.509656 0.058470 0.026988
0.511598 0.028612 0.016671
0.530303 0.056132 0.082988
0.511415 0.062045 0.067596
0.564571 0.080564 0.029593
0.569903 -0.064572 0.021345
0.580493 0.037805 0.077124
0.589999 -0.063721 0.016882
0.522793 -0.019734 0.035243
0.593218 -0.008801 0.054305
0.558240 -0.026725 0.062296
0.506313 0.029041 0.027984
0.589860 0.042726 0.061762
0.506837 0.019750 0.032051
0.509819 0.072461 0.059526
0.592446 0.017310 0.061457
0.531045 0.099663 0.065144
0.525344 0.049423 0.008310
0.592108 0.029369 0.061148
0.541446 0.102434 0.060896
0.540004 0.052684 0.006773
0.505382 0.058460 0.042203
0.519681 0.021484 0.071012
0.593666 -0.063875 0.034787
0.552193 -0.028386 0.002055
0.515664 0.064783 0.072318
0.581185 0.005376 0.070977
0.600900 -0.034430 0.041542
0.521633 -0.007718 0.052871
0.584646 -0.031102 0.010697
0.506568 0.062653 0.054066
0.567426 -0.034945 0.058481
0.541733 0.025107 0.001455
0.563202 0.027498 0.083639
0.568210 0.028658 0.082741
0.560778 0.092237 0.065914
0.568376 -0.035925 0.003965
0.596153 -0.020152 0.048329
0.562832 0.010587 0.004099
0.535375 0.066342 0.011320
0.547222 0.037657 0.004074
0.549156 0.077305 0.017263
0.595430 -0.003590 0.049695
0.538001 -0.038662 0.015514
0.570634 -0.038571 0.004592
0.541443 0.073545 0.083325
0.596696 -0.059552 0.016446
0.522596 0.058249 0.012809
0.519274 0.010290 0.064940
0.598352 -0.057055 0.039795
0.545446 -0.044652 0.039578
0.599234 -0.033951 0.044248
0.588255 0.015561 0.067794
0.573463 0.075661 0.037800
0.511072 0.045935 0.068032
0.547697 0.049938 0.087288
0.584285 0.011158 0.070607
0.526251 0.076771 0.018611
0.557129 0.059236 0.012558
0.524337 0.012739 0.003242
0.536256 0.066339 0.011210
0.505134 0.038686 0.031620
0.555464 0.058409 0.011540
0.527972 0.049882 0.007505
0.547706 0.100231 0.062605
0.549708 0.092002 0.029623
0.584507 -0.038546 0.009161
0.529907 -0.016997 0.055102
0.596210 -0.038781 0.016216
0.543245 0.017789 0.080952
0.558115 -0.032268 0.059002
0.581822 -0.039175 0.007872
0.521405 0.096586 0.059582
0.590073 -0.005712 0.059358
0.558358 0.033237 0.006100
0.593416 -0.004127 0.054781
0.519785 0.054200 0.076861
0.533394 -0.004299 0.067354
0.578414 -0.062931 0.037414
0.601862 -0.040088 0.040836
0.558440 0.019323 0.003530
0.596120 -0.049985 0.044785
0.586070 0.005070 0.021621
0.580315 0.056108 0.033301
0.517946 0.021059 0.008563
0.535310 0.069036 0.083196
0.524882 -0.022101 0.038996
0.568232 0.008110 0.006897
0.578063 0.072935 0.045168
0.557850 -0.002459 0.073899
0.558551 0.052850 0.011201
0.515915 0.040854 0.012324
0.552675 -0.043382 0.048076
0.602164 -0.047441 0.040269
0.572664 -0.064200 0.031067
0.505556 0.039966 0.030002
0.511727 0.044263 0.017805
0.537877 -0.019878 0.059359
0.533075 0.052932 0.084349
0.507089 0.060551 0.057719
0.531712 0.011846 0.075024
0.554898 -0.046935 0.045725
0.544014 -0.040048 0.044726
0.586818 -0.066759 0.022458
0.601029 -0.035489 0.041531
0.582676 -0.054095 0.008678
0.508055 0.013925 0.035398
0.570979 -0.036874 0.057460
0.585216 -0.060801 0.040812
0.568541 0.087745 0.050677
0.591828 0.036001 0.058049
0.537612 0.099899 0.038465
0.568920 0.072237 0.027840
0.530155 0.006393 0.000971
0.532768 0.073840 0.081349
0.560147 0.082235 0.026534
0.569887 -0.001378 0.073063
0.540819 0.058220 0.008383
0.545317 -0.016464 0.065313
0.550970 -0.016353 0.000113
0.572998 0.065744 0.077884
0.594488 -0.017699 0.024456
0.513729 0.028197 0.013787
0.541147 0.031080 0.084483
0.526666 -0.025546 0.036130
0.512432 0.041061 0.069062
0.524476 0.072481 0.077690
0.515068 0.071692 0.069695
0.514945 0.002161 0.049893
0.533611 -0.006042 0.066371
0.515761 0.088252 0.060794
0.526642 -0.011954 0.055940
0.584655 0.017546 0.023637
0.596190 -0.003369 0.045404
0.521609 0.057464 0.013111
0.552840 0.065116 0.012884
0.549213 0.008969 0.000064
0.580012 0.027485 0.077049
0.584612 0.011987 0.021827
0.539637 0.089715 0.024552
0.594676 0.015433 0.045702
0.575280 -0.029665 0.006032
0.587365 0.017229 0.069135
0.541502 0.046552 0.086796
0.545796 -0.034480 0.005080
0.530611 0.074423 0.080388
0.512273 0.082618 0.039264
0.535016 -0.021675 0.004231
0.542579 0.097024 0.034185
0.528139 0.006749 0.001604
0.504954 0.045844 0.034243
0.565629 0.089900 0.062254
0.581586 -0.011803 0.064759
0.527420 0.090304 0.072662
0.504650 0.046989 0.036649
0.523103 0.049199 0.079194
0.560857 0.043703 0.009772
0.512079 0.002737 0.028896
0.550308 0.101082 0.050878
0.529093 0.081308 0.019794
0.549450 0.006674 -0.000110
0.535369 0.062321 0.084358
0.540818 -0.009416 -0.000136
0.567280 -0.051036 0.047679
0.595486 -0.000147 0.049628
0.516966 0.007262 0.009854
0.579493 0.030418 0.077681
0.524710 -0.005774 0.005122
0.545151 0.027087 0.084112
0.541049 0.056031 0.007741
0.595947 -0.004656 0.047492
0.508346 0.023358 0.023466
0.582079 -0.007812 0.013931
0.545401 0.016138 0.000523
0.523212 -0.018648 0.041163
0.518457 0.047107 0.011608
0.596192 -0.020658 0.025495
0.601403 -0.059861 0.022613
0.566685 0.008914 0.077670
0.598570 -0.022452 0.043244
0.505543 0.060516 0.046002
0.521891 0.032778 0.076726
0.520024 0.092957 0.038542
0.537288 0.102510 0.061136
0.568402 -0.060631 0.036071
0.514972 0.009686 0.058156
0.541442 0.080224 0.017448
0.557748 -0.049866 0.044317
0.513224 0.006756 0.017168
0.543723 0.103033 0.057381
0.580297 -0.003994 0.013374
0.589654 -0.041186 0.051144
0.514625 0.087360 0.058951
0.586371 -0.030555 0.056214
0.529024 0.005303 0.001340
0.524454 0.038767 0.006064
0.505876 0.051428 0.055915
0.515765 0.013694 0.010718
0.508096 0.036976 0.060402
0.578884 -0.046757 0.051677
0.574409 0.065177 0.030097
0.519328 0.003701 0.007698
0.592294 -0.036553 0.050948
0.551822 0.006879 0.000203
0.529981 0.084931 0.076596
0.523465 0.061218 0.078811
0.576891 0.076729 0.060404
0.574546 0.076029 0.040615
0.593532 0.004800 0.034776
0.508737 0.026641 0.021857
0.536626 0.102469 0.061142
0.546273 -0.019797 0.063587
0.565278 0.075154 0.025855
0.558232 0.089340 0.072813
0.558517 0.059702 0.013442
0.537292 0.015533 0.000373
0.575769 -0.030360 0.060028
0.544557 0.076277 0.082860
0.595347 0.009631 0.048391
0.581584 0.031249 0.076137
0.574053 -0.031527 0.059805
0.520172 0.021147 0.071316
0.585067 0.020330 0.025164
0.515314 0.001932 0.014863
0.527307 0.086617 0.024495
0.521246 0.011066 0.067475
0.513575 0.007901 0.053394
0.552795 0.099752 0.056903
0.539824 0.081396 0.080695
0.550920 -0.051943 0.014353
0.552553 0.093869 0.034230
0.576066 -0.042326 0.005872
0.594195 0.001058 0.054159
0.577640 0.050824 0.078532
0.539142 -0.023726 0.003251
0.512397 0.011194 0.017108
0.549172 0.022532 0.001764
0.561154 0.043539 0.009891
0.531231 -0.028171 0.012526
0.534543 -0.028455 0.048544
0.571363 0.024246 0.012239
0.531894 0.043626 0.083616
0.524577 -0.015329 0.049679
0.524409 0.098520 0.043656
0.550703 0.002806 -0.000273
0.548412 0.007930 -0.000111
0.528255 -0.028252 0.033409
0.509161 0.077364 0.045058
0.590269 0.004027 0.027663
0.566915 -0.029445 0.003165
0.581783 0.039344 0.027402
0.538522 0.033898 0.002619
0.586512 0.029610 0.071238
0.543135 0.081267 0.081118
0.555694 -0.019001 0.000614
0.576536 0.063131 0.075989
0.515948 0.046528 0.073905
0.580498 0.031200 0.022784
0.519916 -0.012608 0.017760
0.516457 -0.008153 0.030518
0.576175 -0.013445 0.066639
0.509847 0.039520 0.019707
0.544775 -0.048272 0.024212
0.539438 -0.010523 0.066668
0.561779 0.085666 0.031893
0.521158 0.045010 0.009163
0.603774 -0.055692 0.034194
0.586586 0.051885 0.065615
0.506455 0.064060 0.040651
0.506262 0.055629 0.034122
0.542713 0.035164 0.085657
0.562663 0.026196 0.006638
0.548412 -0.022567 0.001148
0.526949 -0.003408 0.063265
0.564807 -0.034417 0.058652
0.532634 -0.007270 0.064928
0.508097 0.053982 0.027879
0.537621 0.064289 0.084616
0.519155 0.003153 0.008031
0.521037 0.008897 0.066005
0.593051 0.030505 0.051730
0.576748 0.000586 0.011622
0.550838 -0.006308 -0.000528
0.547195 0.071356 0.013870
0.564967 -0.060725 0.014538
0.584651 0.062149 0.055372
0.518484 0.009400 0.007740
0.553710 -0.052509 0.012193
0.544158 0.084221 0.079894
0.598959 -0.059030 0.037619
0.521604 -0.018088 0.032669
0.594374 -0.024886 0.020637
0.517446 0.052291 0.075176
0.593554 -0.020956 0.052291
0.536552 -0.007067 0.000275
0.523890 0.072603 0.077283
0.553784 0.060067 0.085992
0.591933 0.018483 0.062642
0.578107 0.007179 0.073390
0.525279 -0.024144 0.027646
0.513090 0.017774 0.014546
0.583539 0.059902 0.043352
0.536075 0.060219 0.084840
0.543904 0.060989 0.009475
0.565070 -0.047185 0.006190
0.516796 0.047055 0.074685
0.580964 0.070021 0.051841
0.536505 -0.008580 0.000475
0.520544 -0.014181 0.041072
0.598048 -0.015926 0.034789
0.521914 0.084803 0.071600
0.550793 -0.012263 -0.000277
0.571817 -0.046141 0.052177
0.521816 -0.008471 0.009179
0.518036 0.015631 0.008070
0.562457 0.085004 0.031916
0.589700 0.029752 0.037363
0.544757 0.090626 0.026191
0.561701 0.074744 0.080706
0.524566 0.073184 0.017841
0.560719 -0.016310 0.001202
0.576486 -0.017466 0.065023
0.603216 -0.040341 0.038311
0.514570 0.024881 0.012634
0.521994 0.095280 0.063300
0.596841 -0.045472 0.014120
0.532088 0.002729 0.070766
0.596309 -0.003252 0.043219
0.545240 0.062563 0.085851
0.538667 0.088519 0.023414
0.588328 0.033749 0.036374
0.527234 0.065064 0.013087
0.540936 -0.022730 0.002391
0.538829 -0.041594 0.030698
0.563379 -0.002056 0.002833
0.596314 -0.024739 0.023274
0.567735 0.075189 0.077071
0.531163 -0.032085 0.033637
0.565801 -0.042944 0.053569
0.549619 0.101301 0.050302
0.524351 0.089361 0.028874
0.543211 -0.033123 0.005484
0.520036 0.008062 0.006340
0.504054 0.039422 0.041330
0.589682 -0.053124 0.010234
0.565628 0.060275 0.083452
0.507281 0.020592 0.028394
0.600482 -0.037942 0.021288
0.527631 0.011140 0.001781
0.558287 0.081087 0.079208
0.528001 -0.025581 0.041373
0.564036 0.055443 0.084725
0.533379 -0.034155 0.036446
0.589296 0.047453 0.051451
0.561333 -0.058709 0.032576
0.516430 0.007878 0.010481
0.542289 0.076090 0.015304
0.592646 -0.039720 0.013337
0.591952 -0.065952 0.025548
0.577174 -0.066805 0.022097
0.519819 0.054879 0.013319
0.578135 0.068183 0.070472
0.561015 0.091187 0.067646
0.517460 0.092311 0.042847
0.521232 0.041970 0.077841
0.555737 0.029960 0.085035
0.564862 0.064039 0.082853
0.578715 0.012642 0.015624
0.557628 0.048648 0.086592
0.579379 0.071264 0.046633
0.580900 0.046623 0.076138
0.522312 -0.003787 0.057743
0.534079 0.004743 0.072822
0.541622 -0.006964 0.069586
0.523432 0.090279 0.069851
0.560965 0.044089 0.009937
0.561025 0.029336 0.084350
0.555873 0.033951 0.005368
0.602495 -0.039625 0.039641
0.540515 0.062493 0.009738
0.572286 -0.017799 0.065990
0.558795 -0.031487 0.002497
0.583397 0.054029 0.071282
0.557324 0.032125 0.085341
0.564613 0.018993 0.006390
0.582251 0.059860 0.070099
0.527131 0.090568 0.072329
0.547312 0.101519 0.059545
0.560098 -0.048930 0.007448
0.518647 0.030300 0.073219
0.529771 0.087437 0.075361
0.512538 0.007962 0.018351
0.504376 0.050042 0.045214
0.602485 -0.033291 0.036504
0.524900 0.073372 0.017731
0.604827 -0.052201 0.022961
0.588177 -0.029581 0.055457
0.549556 -0.043484 0.007912
0.567342 0.031201 0.083398
0.509366 0.066084 0.031952
0.600101 -0.062213 0.027903
0.544603 0.021066 0.082267
0.514335 0.010916 0.013224
0.571272 0.084911 0.052473
0.602059 -0.030622 0.034731
0.547112 0.064833 0.011264
0.535640 0.010175 0.000060
0.575687 -0.066421 0.021192
0.554482 -0.046990 0.007916
0.506159 0.046238 0.029583
0.551677 0.045073 0.006638
0.509277 0.010130 0.037363
0.548661 0.101677 0.050332
0.582696 -0.051870 0.048153
0.533701 -0.035647 0.025963
0.568528 -0.008286 0.004862
0.568603 0.074638 0.076715
0.582278 0.067373 0.052307
0.554841 0.065205 0.013678
0.574723 -0.009899 0.068431
0.562144 0.063348 0.083904
0.565320 0.038355 0.084772
0.510108 0.080424 0.049917
0.565310 0.066308 0.021069
0.519615 0.038526 0.008883
0.558083 0.034321 0.006222
0.554161 -0.025596 0.062256
0.515130 0.027660 0.012098
0.559270 -0.053089 0.041255
0.563876 -0.061829 0.022994
0.543449 -0.029492 0.055194
0.560283 0.038128 0.085815
0.582573 0.064744 0.063685
0.580640 0.070695 0.052035
0.521249 -0.016748 0.036992
0.591962 0.000291 0.058392
0.543402 0.010089 -0.000208
0.521306 0.029331 0.006611
0.568024 0.054216 0.018497
0.511235 0.077326 0.059719
0.590095 0.040184 0.045467
0.582652 -0.065831 0.033164
0.591432 0.038321 0.050393
0.597960 -0.060687 0.036631
0.571382 0.042459 0.017283
0.543721 0.057253 0.086527
0.562279 0.007183 0.077576
0.519800 -0.013447 0.020382
0.597852 -0.050825 0.014040
0.506396 0.057163 0.056377
0.593810 -0.065434 0.025824
0.504310 0.043897 0.037978
0.587592 -0.066156 0.020298
0.542110 0.067822 0.011707
0.505102 0.042649 0.052675
0.538212 0.030295 0.083619
0.585869 0.053041 0.066750
0.524378 -0.002978 0.061013
0.512762 0.073998 0.030423
0.578645 -0.038900 0.006677
0.580734 0.004278 0.070870
0.519542 0.093314 0.040135
0.540856 0.080783 0.081059
0.541052 -0.035518 0.047320
0.568813 -0.063616 0.026889
0.550998 0.050685 0.087166
0.578129 -0.044808 0.052836
0.513392 0.063563 0.023710
0.553901 0.090766 0.073568
0.510883 0.016177 0.019106
0.573931 0.005284 0.074489
0.592545 0.033192 0.055487
0.512469 0.076795 0.063038
0.541240 0.004760 -0.000524
0.534699 0.095337 0.071609
0.563369 -0.061536 0.019038
0.529000 0.012221 0.001379
0.576724 -0.043087 0.053878
0.541816 -0.026995 0.003523
0.559938 0.025868 0.083705
0.525337 -0.020763 0.043449
0.594396 0.017114 0.045210
0.593326 0.004614 0.034152
0.515619 0.018280 0.010940
0.569526 0.062039 0.081376
0.513789 0.007355 0.015427
0.555413 -0.007654 0.000027
0.545081 -0.018599 0.063908
0.585180 0.039244 0.072276
0.569156 0.048175 0.083645
0.535499 0.088550 0.076630
0.604727 -0.041473 0.028656
0.586384 -0.037366 0.053960
0.589925 0.043321 0.048243
0.596071 -0.058686 0.039978
0.573060 0.032584 0.081526
0.571697 -0.065119 0.019626
0.592066 0.005374 0.031622
0.511343 0.004958 0.028353
0.578506 0.045097 0.025321
0.545925 0.082083 0.019298
0.582225 0.063024 0.067309
0.509127 0.028077 0.020862
0.552457 -0.041166 0.005831
0.573369 -0.027105 0.005387
0.545969 0.030606 0.085078
0.518232 -0.011297 0.024283
0.556144 -0.054466 0.035645
0.563924 0.062757 0.083484
0.586632 0.002013 0.065447
0.586949 0.055320 0.058963
0.584307 -0.065505 0.017345
0.532888 -0.034091 0.021828
0.567746 0.040717 0.013804
0.592710 -0.043556 0.012212
0.541505 -0.044818 0.027687
0.560393 0.065767 0.083843
0.506076 0.021450 0.037458
0.545854 0.030787 0.085109
0.576027 -0.015354 0.065970
0.591126 0.016175 0.034218
0.575108 -0.003285 0.070801
0.517357 0.083377 0.030456
0.573183 0.066978 0.077126
0.542247 -0.045261 0.020456
0.590273 0.039143 0.062738
0.540824 -0.036524 0.008888
0.569150 0.054464 0.083096
0.579220 0.033873 0.022172
0.590304 0.017991 0.065453
0.540821 0.092010 0.027022
0.545854 0.073768 0.014703
0.510471 0.028962 0.062130
0.579284 0.061435 0.035151
0.540930 0.005856 -0.000470
0.545080 0.070722 0.084282
0.505771 0.025823 0.032138
0.507579 0.062467 0.034353
0.541174 0.045363 0.086690
0.597493 -0.012489 0.041126
0.509538 0.071503 0.035470
0.510861 0.011854 0.021052
0.567686 0.021361 0.081338
0.558689 -0.039603 0.054192
0.543315 0.018981 0.081377
0.524508 0.004125 0.066322
0.551787 0.098801 0.062097
0.521391 0.007209 0.065308
0.580570 0.061224 0.037450
0.566490 0.066147 0.022014
0.558253 0.093486 0.040065
0.579046 0.032399 0.021499
0.515847 0.032756 0.011569
0.541460 0.069758 0.084202
0.551292 0.004687 0.076805
0.582567 0.066247 0.050337
0.539115 0.098742 0.036420
0.581641 -0.039004 0.007817
0.522896 0.041082 0.007283
0.539187 0.039185 0.085616
0.585634 0.017680 0.071001
0.578698 -0.060995 0.012199
0.592890 0.021880 0.041787
0.545154 -0.048576 0.021909
0.551690 -0.005338 0.072369
0.539667 0.032994 0.002502
0.537643 -0.015524 0.062424
0.509385 0.051470 0.065578
0.508974 0.044106 0.022163
0.526840 0.020016 0.075736
0.517885 0.003573 0.009491
0.506630 0.025211 0.050056
0.523849 0.057755 0.011909
0.567880 0.000421 0.074190
0.524371 0.026903 0.004475
0.550209 -0.051592 0.014830
0.523308 0.097059 0.062213
0.571362 -0.056464 0.043609
0.537202 0.085181 0.020697
0.545797 0.063430 0.085733
0.559838 0.048736 0.086241
0.553928 -0.010183 -0.000157
0.570700 0.008463 0.076665
0.563171 0.026502 0.083426
0.579617 -0.062365 0.038522
0.581513 0.012644 0.073130
0.557432 0.094448 0.041002
0.542351 -0.035155 0.048974
0.577602 -0.065347 0.016649
0.555614 0.098351 0.051217
0.578802 0.071542 0.064891
0.549037 -0.047923 0.038797
0.570065 0.083534 0.066538
0.567735 0.007608 0.077010
0.560427 -0.059532 0.027325
0.511757 0.030161 0.016415
0.527231 -0.026977 0.026748
0.504591 0.038725 0.048907
0.580635 0.034257 0.023996
0.539172 0.067268 0.011395
0.580923 -0.067116 0.021151
0.586026 0.057677 0.050698
0.550354 0.095474 0.035317
0.526106 -0.025155 0.033751
0.567172 0.019981 0.008191
0.574499 0.018012 0.013270
0.559842 -0.040733 0.053702
0.557742 0.071463 0.083047
0.587416 -0.006240 0.062049
0.564449 0.039381 0.085068
0.514392 0.087499 0.041071
0.569107 0.004795 0.006975
0.567045 0.064835 0.021906
0.553094 0.000388 -0.000086
0.521645 -0.016983 0.020436
0.582203 0.025847 0.075221
0.584272 0.021139 0.072856
0.544953 -0.048087 0.019654
0.571462 0.025311 0.012579
0.582058 -0.037630 0.055405
0.558939 -0.037023 0.056095
0.605162 -0.045138 0.034319
0.541814 -0.037527 0.008824
0.550629 0.029806 0.003227
0.533534 0.011431 0.000395
0.511284 0.078571 0.058858
0.515606 0.083345 0.064709
0.538897 0.066610 0.011154
0.602109 -0.058531 0.021903
0.521167 -0.017121 0.024853
0.517120 0.029932 0.010145
0.560905 -0.010431 0.070346
0.538344 0.094598 0.030033
0.577506 -0.047771 0.006593
0.563702 0.088924 0.068127
0.531455 0.007197 0.072754
0.564625 0.072258 0.080357
0.581187 0.069480 0.058673
0.575859 0.000706 0.011001
0.528558 0.084714 0.076036
0.531631 0.095168 0.070942
0.574485 -0.010251 0.008184
0.511162 0.009875 0.021518
0.531618 0.058910 0.083415
0.558987 0.094579 0.044138
0.518133 0.087190 0.033074
0.509877 0.018099 0.021023
0.538889 0.030594 0.002128
0.524691 0.035100 0.005367
0.506532 0.032111 0.054407
0.514990 0.071677 0.025816
0.522089 0.084592 0.071853
0.531673 0.028569 0.002306
0.507598 0.022108 0.050912
0.517431 -0.008033 0.041491
0.540788 0.099168 0.037498
0.549168 0.010501 0.000213
0.572371 0.039800 0.017303
0.557615 0.063242 0.014244
0.562144 -0.060072 0.029230
0.514319 0.032036 0.013179
0.505884 0.041093 0.055504
0.523592 0.074617 0.019167
0.534035 0.001260 0.070977
0.558998 0.060625 0.085161
0.533355 0.031743 0.002503
0.581881 0.025845 0.022720
0.564391 -0.013853 0.002385
0.589018 -0.036347 0.012105
0.581147 0.005510 0.016244
0.577334 0.071673 0.068339
0.559069 0.064608 0.084400
0.510288 0.057246 0.066647
0.541847 0.088469 0.077432
0.594466 -0.013191 0.027025
0.588048 0.031592 0.069179
0.568162 0.083055 0.037947
0.507348 0.050453 0.060926
0.504492 0.047442 0.048908
0.590225 -0.066323 0.028937
0.564210 0.087148 0.070163
0.588276 0.027074 0.068995
0.512232 0.059212 0.069322
0.541713 0.035922 0.085630
