ply
format ascii 1.0
element vertex 1024
property float x
property float y
property float z
end_header
0.564819 0.038131 0.084554
0.595857 -0.033115 0.049958
0.596876 -0.037942 0.048394
0.546177 0.095444 0.033242
0.547202 -0.035634 0.006109
0.594725 0.019894 0.045687
0.556557 0.090762 0.033629
0.506179 0.020689 0.039831
0.600813 -0.031670 0.023747
0.585442 0.014428 0.023079
0.511244 0.051787 0.020833
0.513015 0.088320 0.050330
0.533677 -0.033428 0.018233
0.530422 -0.005828 0.002688
0.519447 0.041706 0.009665
0.575465 0.015646 0.013395
0.596907 -0.000684 0.041962
0.539555 0.090841 0.025704
0.564579 0.074240 0.078809
0.541058 0.055373 0.007651
0.525327 -0.008177 0.006195
0.588920 -0.058233 0.012215
0.547317 0.100784 0.059704
0.572341 -0.044156 0.053734
0.606987 -0.048907 0.033984
0.564708 0.009419 0.078054
0.549348 0.074108 0.082966
0.525346 0.045076 0.080457
0.537947 -0.001314 0.071485
0.541037 0.068739 0.083996
0.578605 0.006059 0.013865
0.543836 0.041065 0.004543
0.545899 -0.043677 0.011838
0.555270 -0.053595 0.035269
0.513785 0.033811 0.068975
0.523883 -0.010127 0.053950
0.572561 0.004557 0.009304
0.538605 0.066388 0.011049
0.532892 0.062039 0.083363
0.554466 -0.041249 0.006388
0.518264 0.085181 0.029922
0.504875 0.050449 0.052377
0.532365 0.022418 0.079456
0.521728 0.078937 0.022188
0.541614 0.092892 0.028229
0.531039 0.057149 0.009036
0.540138 -0.031872 0.007428
0.527761 0.013058 0.073537
0.559957 0.091470 0.039429
0.605629 -0.045358 0.037620
0.606421 -0.043187 0.034977
0.513794 0.057809 0.020050
0.512076 0.012490 0.054719
0.573788 -0.001452 0.072071
0.520281 0.069518 0.018725
0.527575 -0.002947 0.064280
0.520478 0.078386 0.073060
0.571919 0.079459 0.067985
0.530054 0.039720 0.082439
0.581795 0.040818 0.075583
0.506105 0.024052 0.046739
0.520574 -0.015101 0.022218
0.539261 -0.026870 0.005358
0.572802 0.078731 0.041260
0.505657 0.062849 0.041889
0.550481 0.091024 0.029113
0.548416 0.100297 0.045455
0.529357 0.092749 0.029366
0.521413 0.088259 0.029589
0.504298 0.043144 0.036154
0.569248 -0.063517 0.019536
0.504337 0.039836 0.035354
0.520068 0.019828 0.007071
0.572006 0.029042 0.013948
0.564859 -0.045214 0.006386
0.548693 0.085260 0.078531
0.595762 0.000413 0.051637
0.560896 -0.038004 0.056106
0.532586 0.099018 0.037475
0.509671 0.031888 0.019646
0.548856 -0.037735 0.051235
0.556567 0.047153 0.008810
0.555743 -0.035545 0.056379
0.548122 -0.032591 0.004680
0.597750 -0.040380 0.015772
0.553870 0.009808 0.001283
0.580481 -0.028252 0.008775
0.560716 0.088542 0.035283
0.527254 0.002351 0.002922
0.539929 -0.033725 0.048212
0.543102 -0.039121 0.010317
0.539875 0.064148 0.010293
0.521629 0.042638 0.078201
0.525004 0.025478 0.004446
0.550641 0.092695 0.071842
0.539105 -0.041212 0.029993
0.530842 0.070062 0.081255
0.518464 0.036288 0.009592
0.551918 0.085408 0.023946
0.565432 -0.015029 0.003062
0.534837 0.101650 0.061868
0.537711 0.020974 0.080815
0.577453 0.073730 0.064135
0.579541 0.041310 0.077510
0.593575 0.029987 0.050702
0.535531 0.064963 0.083718
0.504358 0.036116 0.035525
0.514563 0.017278 0.012899
0.581405 -0.020466 0.062571
0.545281 0.038613 0.086384
0.532400 0.049207 0.083917
0.509951 0.063970 0.028641
0.566849 0.074815 0.027615
0.515081 0.073848 0.069124
0.586192 0.030433 0.030097
0.562744 0.014884 0.004923
0.533120 0.083909 0.020109
0.589961 0.045896 0.051081
0.581739 0.063123 0.067931
0.543821 0.032731 0.085196
0.523339 0.033861 0.078070
0.577208 0.055301 0.077582
0.555310 -0.008056 0.071587
0.526695 0.021235 0.076211
0.516199 0.017034 0.065257
0.583802 -0.017103 0.062434
0.577446 0.028852 0.018509
0.536853 -0.023494 0.005011
0.541306 0.048066 0.086578
0.584311 -0.009680 0.064264
0.555348 0.098035 0.053544
0.591057 0.033708 0.063548
0.556798 -0.014458 0.068734
0.551229 0.005503 0.000470
0.522502 0.044694 0.078823
0.530575 0.071104 0.013872
0.555640 0.078367 0.020679
0.564797 -0.018444 0.066928
0.520430 0.055815 0.077256
0.557421 -0.003414 0.001032
0.550347 0.093134 0.031946
0.539530 0.096614 0.069833
0.514053 0.028192 0.013589
0.586857 -0.001705 0.019747
0.564907 0.085654 0.037003
0.590301 -0.025813 0.015392
0.567612 -0.062960 0.022663
0.540649 -0.027848 0.005193
0.599537 -0.057457 0.016675
0.545111 0.040220 0.004522
0.531649 0.097719 0.067674
0.515903 0.087605 0.062581
0.531144 0.100389 0.063231
0.574513 0.080283 0.057649
0.545477 0.085880 0.078409
0.510224 0.007975 0.040069
0.567934 0.024327 0.009758
0.590857 -0.065644 0.021893
0.535683 0.008468 0.075402
0.582898 -0.039274 0.055047
0.585964 0.033726 0.071754
0.540060 0.032776 0.084530
0.526642 0.075771 0.077950
0.580435 0.070696 0.058055
0.556433 -0.055859 0.030793
0.559523 0.011945 0.003125
0.531447 0.024216 0.079665
0.515279 0.076093 0.027010
0.542891 -0.045337 0.028924
0.569176 0.061700 0.081071
0.580672 0.061990 0.070902
0.505331 0.059910 0.050173
0.598021 -0.024307 0.024206
0.548045 0.076693 0.016650
0.533067 0.074634 0.080944
0.566851 0.035261 0.083760
0.543036 -0.025556 0.058273
0.543526 0.080857 0.080751
0.562382 -0.009467 0.070906
0.514038 0.086278 0.059891
0.561204 -0.028576 0.002744
0.556710 0.049359 0.086357
0.531761 0.070950 0.081400
0.516840 0.049524 0.013714
0.578172 -0.023723 0.008228
0.576952 0.002202 0.072221
0.580589 -0.050115 0.007836
0.529595 0.075728 0.016157
0.579708 0.016579 0.075297
0.602632 -0.041510 0.019964
0.514242 0.069696 0.069611
0.544849 0.001631 -0.000088
0.532484 0.037504 0.003860
0.564449 -0.003693 0.073107
0.581307 0.069367 0.053872
0.569177 0.075578 0.074853
0.573183 0.032990 0.081247
0.531183 -0.029229 0.015771
0.570762 0.040036 0.016035
0.564267 0.009947 0.004994
0.559217 0.055371 0.012549
0.551712 0.086857 0.025181
0.505760 0.041046 0.055661
0.559083 0.075888 0.021315
0.510281 0.019723 0.056886
0.546304 0.100036 0.062488
0.540899 -0.039933 0.040379
0.506270 0.021415 0.033509
0.521781 -0.017812 0.033191
0.523150 0.050147 0.079209
0.520127 0.025743 0.073139
0.588758 0.050576 0.053851
0.569884 -0.063778 0.019625
0.569809 0.071285 0.028470
0.532741 0.089241 0.075103
0.513158 0.083760 0.036664
0.537686 -0.039548 0.030855
0.520001 0.000475 0.058308
0.598576 -0.015131 0.043867
0.588705 0.022429 0.031024
0.569623 0.075385 0.031582
0.607525 -0.047466 0.029526
0.559232 0.087948 0.032498
0.557171 0.027223 0.084115
0.575152 -0.063110 0.034906
0.590380 -0.065816 0.022113
0.552999 0.064744 0.012860
0.589412 0.045637 0.061601
0.569761 0.004217 0.007424
0.504703 0.047606 0.051851
0.594074 -0.011650 0.054078
0.513265 0.038887 0.069805
0.537165 -0.017477 0.060861
0.575950 0.072154 0.038879
0.515728 0.002595 0.052383
0.517765 -0.007370 0.017736
0.510621 0.067931 0.029484
0.565616 0.043260 0.013075
0.528448 0.019217 0.002628
0.601718 -0.027146 0.040204
0.535867 0.017027 0.001182
0.568824 0.007043 0.007247
0.521546 0.033750 0.007167
0.519830 0.006715 0.063276
0.520268 0.049820 0.011227
0.578215 -0.052574 0.048286
0.544070 0.101210 0.061228
0.568844 -0.006307 0.071456
0.575688 0.062702 0.030347
0.582797 0.052611 0.035297
0.584235 -0.062639 0.014644
0.586287 -0.000294 0.019531
0.598512 -0.011600 0.039928
0.590504 0.039754 0.045115
0.552289 0.098882 0.059023
0.511720 0.006650 0.045823
0.507503 0.069172 0.055251
0.509290 0.052480 0.065662
0.508103 0.074666 0.051896
0.577673 0.074870 0.060596
0.589652 -0.055056 0.045320
0.593400 0.024650 0.059499
0.517792 0.035879 0.074094
0.553077 -0.020181 0.001258
0.520257 -0.000370 0.057907
0.559901 0.061636 0.084275
0.527337 0.009306 0.071517
0.506472 0.020588 0.043538
0.509764 0.008554 0.035194
0.576612 -0.059979 0.012355
0.594043 0.022230 0.044094
0.560918 -0.059560 0.024768
0.509297 0.018068 0.022859
0.538291 0.101845 0.043267
0.552228 -0.006257 0.072223
0.520874 0.036277 0.076842
0.593587 -0.029968 0.052431
0.537194 0.017411 0.079458
0.593572 0.021545 0.041742
0.515332 -0.000760 0.017631
0.531548 -0.030712 0.018268
0.570115 -0.058126 0.011760
0.544642 0.070704 0.083812
0.574101 0.073091 0.036358
0.578692 0.046823 0.077728
0.541031 -0.026232 0.004401
0.573975 0.079138 0.045394
0.552876 -0.028283 0.060504
0.585409 0.052501 0.067963
0.562987 0.092618 0.056501
0.597587 -0.054965 0.042544
0.517528 0.093403 0.057933
0.516706 0.072729 0.023568
0.568566 -0.051699 0.008445
0.546203 -0.001001 -0.000119
0.556301 0.071162 0.017051
0.544672 0.067477 0.011850
0.509027 0.011133 0.039727
0.585295 -0.010772 0.015442
0.505988 0.060722 0.054056
0.538237 0.027435 0.082857
0.524470 -0.018414 0.014136
0.589545 0.045599 0.061064
0.508045 0.064823 0.059851
0.554500 0.094052 0.067844
0.582767 0.056449 0.070790
0.591833 0.026639 0.039571
0.595432 0.010700 0.041914
0.509948 0.046203 0.066527
0.530318 -0.000794 0.002040
0.586650 -0.023150 0.013346
0.567463 0.001062 0.005595
0.508294 0.043012 0.022973
0.523673 -0.010955 0.052784
0.593708 0.023133 0.043356
0.563077 -0.039592 0.055502
0.538058 0.078021 0.081125
0.510847 0.083361 0.052310
0.592366 -0.019439 0.055254
0.527218 -0.021657 0.045830
0.563792 -0.038773 0.056180
0.542565 0.098835 0.066359
0.525013 0.100376 0.048513
0.526071 0.067830 0.014383
0.546842 0.059469 0.086025
0.532963 -0.025179 0.050348
0.587861 0.042573 0.039523
0.591578 -0.020244 0.018413
0.553587 0.093549 0.069276
0.582037 -0.044345 0.007627
0.557047 0.096984 0.053465
0.508010 0.013930 0.038004
0.540671 0.006339 0.000180
0.545417 -0.035173 0.006558
0.548995 -0.035631 0.053287
0.582402 0.034589 0.026085
0.507928 0.024255 0.054196
0.530698 0.099110 0.065342
0.565406 0.028532 0.083161
0.508521 0.021638 0.023666
0.508775 0.057163 0.027454
0.511156 0.027190 0.017572
0.530713 0.056200 0.083002
0.511358 0.061442 0.067950
0.563225 0.080504 0.028462
0.571627 -0.064595 0.022405
0.581158 0.038893 0.076294
0.591595 -0.063373 0.017475
0.523844 -0.020586 0.036652
0.594414 -0.007790 0.053937
0.560034 -0.026348 0.063002
0.506116 0.027687 0.028993
0.590068 0.043766 0.060648
0.506939 0.018479 0.033195
0.509350 0.071686 0.059753
0.593216 0.018412 0.060688
0.530079 0.099439 0.064455
0.524241 0.048158 0.008572
0.592600 0.030453 0.060195
0.540318 0.102368 0.059930
0.538787 0.051717 0.006651
0.504843 0.057308 0.042761
0.520607 0.021135 0.071823
0.595662 -0.063153 0.035292
0.552684 -0.029131 0.002948
0.515649 0.064350 0.072530
0.582441 0.006390 0.070650
0.602383 -0.033449 0.041412
0.522808 -0.008311 0.054109
0.585374 -0.030986 0.010894
0.506198 0.061720 0.054525
0.569315 -0.034425 0.059111
0.541016 0.024101 0.001735
0.564253 0.028315 0.083363
0.569212 0.029570 0.082332
0.559981 0.092684 0.064669
0.569071 -0.036278 0.004611
0.597469 -0.019170 0.048077
0.562488 0.010096 0.004130
0.533955 0.065342 0.011084
0.546278 0.036811 0.004029
0.547616 0.076703 0.016539
0.596406 -0.002607 0.049196
0.539030 -0.039495 0.016887
0.571401 -0.038863 0.005229
0.541464 0.073858 0.082809
0.598185 -0.059065 0.016821
0.521397 0.056995 0.012991
0.520316 0.009836 0.065939
0.600305 -0.056150 0.040084
0.547142 -0.044923 0.040868
0.600767 -0.032962 0.044147
0.589208 0.016675 0.067146
0.572405 0.075933 0.036542
0.511387 0.045338 0.068650
0.548332 0.050464 0.087004
0.585401 0.012233 0.070117
0.524764 0.075686 0.018414
0.555885 0.058739 0.011942
0.523946 0.011383 0.004112
0.534833 0.065357 0.010955
0.504803 0.037362 0.032502
0.554217 0.057859 0.010975
0.526839 0.048662 0.007701
0.546662 0.100333 0.061531
0.548113 0.091610 0.028647
0.585368 -0.038457 0.009481
0.531337 -0.017367 0.056298
0.597228 -0.038317 0.016271
0.544464 0.018125 0.081283
0.559960 -0.031946 0.059800
0.582670 -0.039166 0.008263
0.520389 0.096059 0.059164
0.591314 -0.004689 0.059010
0.557552 0.032671 0.005872
0.594518 -0.003105 0.054334
0.520107 0.053936 0.077146
0.534810 -0.004396 0.068265
0.580455 -0.062503 0.038249
0.603455 -0.039095 0.040775
0.557890 0.018722 0.003522
0.598027 -0.049050 0.045010
0.586229 0.005382 0.021207
0.579592 0.056465 0.032201
0.517489 0.019646 0.009444
0.535432 0.069214 0.082891
0.526069 -0.022844 0.040394
0.568004 0.007786 0.006844
0.577228 0.073431 0.043846
0.559359 -0.001909 0.074224
0.557420 0.052365 0.010655
0.515099 0.039450 0.012935
0.554528 -0.043355 0.049179
0.603910 -0.046447 0.040318
0.574595 -0.064002 0.032055
0.505159 0.038625 0.030854
0.510959 0.042856 0.018454
0.539463 -0.020001 0.060420
0.533585 0.053085 0.084350
0.506848 0.059691 0.058198
0.532937 0.011832 0.075713
0.556778 -0.046895 0.046835
0.545722 -0.040268 0.045974
0.588608 -0.066390 0.023169
0.602535 -0.034504 0.041415
0.583877 -0.054048 0.009287
0.508362 0.012738 0.036606
0.572887 -0.036291 0.058042
0.587282 -0.060167 0.041458
0.567502 0.088115 0.049334
0.592103 0.037027 0.056998
0.536043 0.099381 0.037635
0.567720 0.072247 0.026744
0.529852 0.005131 0.001811
0.532743 0.073929 0.081026
0.558697 0.082026 0.025478
0.571346 -0.000577 0.073098
0.539513 0.057296 0.008154
0.546954 -0.016327 0.066148
0.551148 -0.017161 0.000843
0.573056 0.066668 0.076779
0.595217 -0.017146 0.024212
0.513231 0.026774 0.014647
0.542147 0.031422 0.084649
0.527866 -0.026296 0.037544
0.512879 0.040512 0.069726
0.524403 0.072328 0.077578
0.514840 0.071200 0.069812
0.515835 0.001368 0.051126
0.535044 -0.006149 0.067305
0.514962 0.087623 0.060635
0.527978 -0.012384 0.057131
0.584580 0.017855 0.023056
0.597064 -0.002440 0.044885
0.520435 0.056194 0.013327
0.551474 0.064528 0.012271
0.548822 0.008112 0.000431
0.580907 0.028564 0.076394
0.584622 0.012268 0.021335
0.537985 0.089017 0.023843
0.595135 0.016326 0.044918
0.575877 -0.029833 0.006421
0.588310 0.018345 0.068480
0.542206 0.046934 0.086707
0.546495 -0.035314 0.006214
0.530552 0.074449 0.080105
0.511122 0.081561 0.039282
0.535413 -0.022766 0.005406
0.540977 0.096547 0.033289
0.527843 0.005453 0.002483
0.504520 0.044557 0.035014
0.564801 0.090395 0.060938
0.583088 -0.010876 0.064698
0.526834 0.090126 0.072201
0.504244 0.045734 0.037407
0.523587 0.049049 0.079482
0.559898 0.043249 0.009319
0.512490 0.001536 0.030193
0.548983 0.101048 0.049736
0.527529 0.080303 0.019460
0.549107 0.005820 0.000289
0.535668 0.062521 0.084158
0.540840 -0.010455 0.000714
0.569289 -0.050689 0.048573
0.596382 0.000835 0.049073
0.516848 0.005854 0.010976
0.580337 0.031495 0.076991
0.524775 -0.007083 0.006277
0.546230 0.027513 0.084251
0.539778 0.055102 0.007542
0.596896 -0.003698 0.046998
0.508175 0.021977 0.024522
0.582358 -0.007710 0.013815
0.544862 0.015201 0.000863
0.524371 -0.019394 0.042544
0.517484 0.045746 0.012061
0.597010 -0.020049 0.025259
0.603034 -0.059169 0.022884
0.568017 0.009717 0.077612
0.599823 -0.021499 0.042976
0.505042 0.059429 0.046522
0.522689 0.032567 0.077304
0.518622 0.092055 0.038220
0.536166 0.102357 0.060263
0.570367 -0.060447 0.037096
0.515878 0.009026 0.059266
0.539844 0.079454 0.016852
0.559661 -0.049786 0.045410
0.513283 0.005386 0.018380
0.542503 0.102960 0.056354
0.580479 -0.003941 0.013238
0.591508 -0.040292 0.051373
0.513805 0.086675 0.058833
0.588102 -0.029655 0.056346
0.528755 0.004022 0.002222
0.523541 0.037450 0.006516
0.505800 0.050515 0.056568
0.515523 0.012271 0.011764
0.508443 0.036191 0.061232
0.580881 -0.046090 0.052238
0.573415 0.065348 0.028988
0.519241 0.002312 0.008824
0.594038 -0.035606 0.051043
0.551480 0.006083 0.000545
0.529602 0.084877 0.076162
0.523670 0.061065 0.078900
0.576311 0.077448 0.059043
0.573542 0.076372 0.039326
0.593987 0.005493 0.034192
0.508456 0.025241 0.022852
0.535506 0.102300 0.060284
0.547946 -0.019665 0.064454
0.563969 0.075050 0.024796
0.557656 0.089845 0.071670
0.557281 0.059251 0.012787
0.536767 0.014415 0.000906
0.577586 -0.029632 0.060396
0.544505 0.076651 0.082231
0.595996 0.010586 0.047684
0.582374 0.032347 0.075387
0.575891 -0.030840 0.060230
0.521112 0.020813 0.072121
0.584963 0.020673 0.024528
0.515429 0.000572 0.016105
0.525730 0.085648 0.024114
0.522326 0.010698 0.068416
0.514416 0.007133 0.054566
0.551633 0.099872 0.055724
0.539611 0.081628 0.080092
0.552214 -0.052505 0.015645
0.551018 0.093614 0.033158
0.576943 -0.042475 0.006445
0.595166 0.002085 0.053612
0.578045 0.051867 0.077559
0.539562 -0.024741 0.004365
0.512355 0.009803 0.018267
0.548515 0.021696 0.001916
0.560201 0.043094 0.009434
0.531961 -0.029207 0.013887
0.536081 -0.028826 0.049820
0.570890 0.024072 0.011857
0.532597 0.043745 0.083793
0.525851 -0.015906 0.050972
0.522994 0.097797 0.043145
0.550442 0.001978 0.000159
0.548042 0.007052 0.000292
0.529454 -0.029010 0.034831
0.508259 0.076335 0.045228
0.590584 0.004531 0.027168
0.567447 -0.029846 0.003741
0.581304 0.039643 0.026538
0.537635 0.032837 0.002831
0.587226 0.030737 0.070404
0.542932 0.081579 0.080442
0.555941 -0.019695 0.001279
0.576609 0.064103 0.074847
0.516377 0.046134 0.074401
0.580099 0.031398 0.022081
0.520419 -0.013813 0.019128
0.517146 -0.009227 0.031888
0.577759 -0.012605 0.066726
0.509229 0.038105 0.020473
0.546210 -0.048809 0.025581
0.540975 -0.010495 0.067542
0.560370 0.085580 0.030744
0.520175 0.043669 0.009590
0.605569 -0.054759 0.034340
0.586675 0.052913 0.064428
0.505755 0.062904 0.041096
0.505605 0.054365 0.034707
0.543646 0.035558 0.085722
0.562026 0.025737 0.006424
0.548754 -0.023412 0.002035
0.528257 -0.003714 0.064310
0.566689 -0.033951 0.059333
0.534063 -0.007422 0.065904
0.507337 0.052657 0.028452
0.537880 0.064543 0.084334
0.519088 0.001765 0.009169
0.522133 0.008500 0.066987
0.593307 0.031455 0.050741
0.576790 0.000529 0.011495
0.550777 -0.007133 0.000046
0.545713 0.070657 0.013286
0.566456 -0.060970 0.015651
0.584283 0.062962 0.054069
0.518271 0.007990 0.008794
0.554968 -0.053045 0.013432
0.543862 0.084534 0.079148
0.600907 -0.058146 0.037926
0.522562 -0.019009 0.034080
0.595179 -0.024395 0.020512
0.517774 0.051949 0.075545
0.594978 -0.019966 0.052109
0.536532 -0.008194 0.001184
0.523806 0.072430 0.077182
0.554160 0.060702 0.085410
0.592704 0.019592 0.061865
0.579377 0.008164 0.073103
0.526259 -0.025064 0.029072
0.512843 0.016354 0.015586
0.582953 0.060493 0.042115
0.536432 0.060444 0.084657
0.542559 0.060149 0.009132
0.566068 -0.047570 0.007089
0.517231 0.046693 0.075152
0.580342 0.070691 0.050497
0.536524 -0.009704 0.001409
0.521603 -0.014989 0.042441
0.598966 -0.015125 0.034433
0.521430 0.084488 0.071352
0.550871 -0.013082 0.000393
0.573814 -0.045622 0.052889
0.522034 -0.009777 0.010441
0.517690 0.014214 0.009035
0.561063 0.084933 0.030762
0.589654 0.030393 0.036468
0.543119 0.090068 0.025351
0.561626 0.075461 0.079713
0.523143 0.072049 0.017739
0.560916 -0.016884 0.001711
0.578124 -0.016644 0.065168
0.604759 -0.039359 0.038224
0.514120 0.023460 0.013529
0.521090 0.094827 0.062887
0.597962 -0.045026 0.014268
0.533423 0.002657 0.071593
0.597132 -0.002357 0.042696
0.545561 0.063006 0.085423
0.537017 0.087782 0.022746
0.588172 0.034342 0.035447
0.525886 0.063914 0.013055
0.541313 -0.023720 0.003449
0.540262 -0.042159 0.032093
0.563291 -0.002550 0.003054
0.597174 -0.024163 0.023101
0.567566 0.075980 0.075936
0.532452 -0.032774 0.035054
0.567760 -0.042537 0.054366
0.548276 0.101242 0.049172
0.522811 0.088397 0.028515
0.543889 -0.034008 0.006655
0.519821 0.006664 0.007381
0.503923 0.038234 0.042220
0.590891 -0.052897 0.010668
0.565937 0.061129 0.082599
0.507282 0.019270 0.029516
0.601592 -0.037300 0.021231
0.527241 0.009834 0.002602
0.558038 0.081702 0.078192
0.529318 -0.026215 0.042755
0.564483 0.056285 0.083984
0.534776 -0.034748 0.037844
0.589168 0.048309 0.050278
0.563181 -0.058739 0.033733
0.516313 0.006468 0.011605
0.540736 0.075305 0.014755
0.593623 -0.039381 0.013489
0.593790 -0.065419 0.026129
0.578961 -0.066654 0.023028
0.518709 0.053573 0.013617
0.577971 0.069098 0.069215
0.560280 0.091668 0.066412
0.516169 0.091424 0.042592
0.521850 0.041759 0.078288
0.556767 0.030634 0.084888
0.565074 0.064865 0.081958
0.578575 0.012690 0.015259
0.558272 0.049382 0.086105
0.578614 0.071814 0.045308
0.581345 0.047700 0.075159
0.523508 -0.004286 0.058901
0.535413 0.004747 0.073572
0.543144 -0.006841 0.070352
0.522785 0.089967 0.069483
0.560001 0.043640 0.009476
0.562051 0.030116 0.084094
0.555037 0.033318 0.005185
0.604051 -0.038637 0.039558
0.539143 0.061582 0.009448
0.573955 -0.017054 0.066235
0.559362 -0.032077 0.003290
0.583567 0.055079 0.070130
0.558311 0.032838 0.085124
0.564131 0.018576 0.006247
0.582264 0.060863 0.068881
0.526532 0.090379 0.071871
0.546172 0.101561 0.058461
0.561166 -0.049403 0.008487
0.519424 0.029961 0.073912
0.529308 0.087357 0.074892
0.512596 0.006596 0.019559
0.504093 0.048920 0.045926
0.603829 -0.032358 0.036322
0.523470 0.072243 0.017618
0.606293 -0.051431 0.023032
0.589867 -0.028654 0.055533
0.550517 -0.044184 0.009103
0.568302 0.032104 0.082969
0.508425 0.064849 0.032302
0.601903 -0.061463 0.028239
0.545777 0.021452 0.082514
0.514212 0.009504 0.014346
0.570335 0.085372 0.051112
0.603304 -0.029729 0.034517
0.545718 0.064092 0.010786
0.535229 0.009018 0.000716
0.577446 -0.066318 0.022150
0.555520 -0.047580 0.009051
0.505612 0.044901 0.030322
0.550622 0.044364 0.006373
0.509712 0.009003 0.038603
0.547311 0.101597 0.049218
0.584727 -0.051175 0.048711
0.534898 -0.036404 0.027381
0.568622 -0.008631 0.005065
0.568438 0.075442 0.075569
0.581725 0.068081 0.050976
0.553489 0.064674 0.013019
0.576268 -0.009064 0.068494
0.562396 0.064132 0.083081
0.566151 0.039233 0.084274
0.509245 0.079495 0.050015
0.564093 0.066129 0.020151
0.518773 0.037149 0.009447
0.557256 0.033751 0.005983
0.555931 -0.025310 0.063037
0.514605 0.026241 0.012936
0.561186 -0.053024 0.042365
0.565579 -0.061958 0.024146
0.545154 -0.029557 0.056283
0.561145 0.038912 0.085434
0.582332 0.065646 0.062385
0.580008 0.071361 0.050688
0.522273 -0.017606 0.038388
0.593045 0.001338 0.057906
0.542983 0.009099 0.000274
0.520619 0.027957 0.007285
0.567020 0.054060 0.017711
0.510660 0.076584 0.059837
0.589996 0.040963 0.044394
0.584662 -0.065378 0.033950
0.591484 0.039211 0.049318
0.599924 -0.059840 0.036987
0.570613 0.042361 0.016609
0.544178 0.057675 0.086217
0.563651 0.007888 0.077646
0.520380 -0.014611 0.021765
0.599091 -0.050356 0.014251
0.506201 0.056266 0.056926
0.595642 -0.064855 0.026354
0.504004 0.042657 0.038793
0.589320 -0.065805 0.020982
0.540662 0.066977 0.011295
0.505150 0.041668 0.053486
0.539212 0.030558 0.083865
0.585958 0.054071 0.065560
0.525628 -0.003379 0.062110
0.511608 0.072809 0.030570
0.579462 -0.038981 0.007136
0.582012 0.005281 0.070570
0.518167 0.092427 0.039818
0.540664 0.081043 0.080442
0.542718 -0.035763 0.048562
0.570640 -0.063573 0.027956
0.551612 0.051281 0.086795
0.580108 -0.044140 0.053383
0.512321 0.062282 0.024012
0.553312 0.091188 0.072500
0.510774 0.014784 0.020220
0.575271 0.006196 0.074326
0.592825 0.034192 0.054465
0.511979 0.076135 0.063135
0.540935 0.003718 0.000091
0.533973 0.095301 0.070904
0.564977 -0.061742 0.020198
0.528576 0.010938 0.002153
0.578689 -0.042433 0.054429
0.542314 -0.027944 0.004628
0.561028 0.026615 0.083528
0.526593 -0.021423 0.044814
0.594807 0.017993 0.044407
0.593772 0.005292 0.033576
0.515279 0.016857 0.011916
0.569748 0.062945 0.080407
0.513795 0.005969 0.016618
0.555391 -0.008368 0.000518
0.546735 -0.018489 0.064783
0.585702 0.040355 0.071319
0.569739 0.049115 0.082905
0.535037 0.088616 0.076013
0.606079 -0.040616 0.028557
0.588216 -0.036500 0.054201
0.589817 0.044140 0.047123
0.598066 -0.057827 0.040344
0.573945 0.033581 0.080946
0.573394 -0.065130 0.020655
0.592439 0.005983 0.031063
0.511692 0.003730 0.029631
0.577853 0.045287 0.024441
0.544324 0.081441 0.018570
0.582104 0.063979 0.066042
0.508792 0.026669 0.021826
0.553319 -0.041838 0.006920
0.573895 -0.027328 0.005779
0.546990 0.031065 0.085142
0.518853 -0.012433 0.025665
0.557967 -0.054561 0.036851
0.564179 0.063574 0.082630
0.587837 0.003058 0.065051
0.586812 0.056245 0.057715
0.585956 -0.065275 0.018095
0.533958 -0.034935 0.023242
0.566940 0.040482 0.013241
0.593748 -0.043233 0.012425
0.542942 -0.045371 0.029074
0.560590 0.066510 0.083022
0.506261 0.020249 0.038591
0.546872 0.031244 0.085173
0.577639 -0.014528 0.066091
0.591314 0.016801 0.033508
0.576557 -0.002404 0.070749
0.515990 0.082287 0.030350
0.573197 0.067892 0.075998
0.543532 -0.045917 0.021836
0.590583 0.040210 0.061670
0.541656 -0.037404 0.010166
0.569580 0.055392 0.082256
0.578748 0.034032 0.021455
0.591149 0.019111 0.064720
0.539172 0.091378 0.026248
0.544338 0.073052 0.014110
0.511035 0.028261 0.063034
0.578484 0.061798 0.033989
0.540601 0.004809 0.000135
0.545184 0.071133 0.083728
0.505739 0.024527 0.033209
0.506774 0.061233 0.034800
0.541903 0.045736 0.086627
0.598476 -0.011598 0.040725
0.508553 0.070327 0.035728
0.510893 0.010493 0.022235
0.568821 0.022241 0.081058
0.560591 -0.039344 0.055096
0.544516 0.019324 0.081687
0.525716 0.003812 0.067301
0.550763 0.098985 0.060954
0.522509 0.006810 0.066309
0.579825 0.061653 0.036262
0.565297 0.066010 0.021072
0.556853 0.093452 0.038868
0.578592 0.032543 0.020810
0.515196 0.031342 0.012310
0.541586 0.070088 0.083746
0.552708 0.005137 0.077163
0.581996 0.066930 0.049018
0.537525 0.098224 0.035574
0.582484 -0.039000 0.008210
0.521959 0.039750 0.007734
0.540031 0.039500 0.085697
0.586612 0.018788 0.070377
0.580133 -0.060975 0.013006
0.593118 0.022667 0.040943
0.546544 -0.049142 0.023275
0.553232 -0.004948 0.072880
0.538796 0.031957 0.002703
0.539199 -0.015604 0.063419
0.509522 0.050793 0.066147
0.508308 0.042709 0.022875
0.527900 0.019903 0.076405
0.517842 0.002181 0.010650
0.507012 0.024228 0.051111
0.522640 0.056514 0.012071
0.569325 0.001196 0.074241
0.523689 0.025563 0.005118
0.551506 -0.052161 0.016133
0.522340 0.096617 0.061742
0.573400 -0.056093 0.044498
0.535567 0.084368 0.020117
0.546096 0.063883 0.085278
0.560471 0.049513 0.085702
0.553960 -0.010933 0.000408
0.572018 0.009338 0.076524
0.564239 0.027315 0.083166
0.581670 -0.061892 0.039320
0.582653 0.013698 0.072679
0.556032 0.094411 0.039808
0.544045 -0.035343 0.050180
0.579235 -0.065277 0.017549
0.554355 0.098441 0.049998
0.578438 0.072379 0.063567
0.550788 -0.048126 0.040059
0.569473 0.084200 0.065221
0.569082 0.008424 0.076949
0.562177 -0.059668 0.028517
0.511275 0.028738 0.017288
0.528254 -0.027868 0.028175
0.504645 0.037673 0.049793
0.580195 0.034477 0.023240
0.537731 0.066353 0.011058
0.582694 -0.066898 0.022002
0.585653 0.058445 0.049436
0.548808 0.095188 0.034269
0.527245 -0.025957 0.035172
0.566707 0.019649 0.007973
0.574187 0.017926 0.012915
0.561758 -0.040456 0.054599
0.557795 0.072132 0.082195
0.588730 -0.005230 0.061769
0.565264 0.040244 0.084574
0.513171 0.086516 0.040962
0.568955 0.004492 0.006955
0.565879 0.064709 0.020972
0.552891 -0.000383 0.000330
0.522305 -0.018105 0.021833
0.583093 0.026945 0.074543
0.585214 0.022246 0.072207
0.546283 -0.048694 0.021018
0.570973 0.025144 0.012177
0.583931 -0.036836 0.055748
0.560825 -0.036728 0.056952
0.606722 -0.044177 0.034266
0.542666 -0.038386 0.010096
0.549841 0.029024 0.003230
0.533103 0.010232 0.001079
0.510662 0.077815 0.058956
0.515004 0.082778 0.064630
0.537465 0.065685 0.010834
0.603695 -0.057836 0.022137
0.521929 -0.018180 0.026261
0.516500 0.028523 0.010903
0.562511 -0.009869 0.070730
0.536705 0.093960 0.029273
0.578521 -0.047874 0.007220
0.563028 0.089473 0.066868
0.532734 0.007142 0.073524
0.564597 0.073035 0.079338
0.580729 0.070267 0.057331
0.575885 0.000620 0.010892
0.528172 0.084619 0.075638
0.530895 0.095053 0.070310
0.574694 -0.010409 0.008282
0.511249 0.008530 0.022725
0.531974 0.059014 0.083355
0.557653 0.094628 0.042905
0.516739 0.086159 0.032889
0.509769 0.016714 0.022129
0.538064 0.029535 0.002385
0.523845 0.033779 0.005873
0.506855 0.031194 0.055352
0.513784 0.070463 0.025952
0.521616 0.084286 0.071605
0.530901 0.027354 0.002759
0.508067 0.021162 0.051994
0.518362 -0.008906 0.042833
0.539212 0.098705 0.036608
0.548747 0.009645 0.000557
0.571662 0.039725 0.016648
0.556318 0.062782 0.013553
0.563947 -0.060138 0.030391
0.513721 0.030615 0.013965
0.506031 0.040177 0.056321
0.522167 0.073482 0.019064
0.535407 0.001235 0.071783
0.559340 0.061361 0.084452
0.532515 0.030567 0.002867
0.581600 0.026075 0.022070
0.564557 -0.014328 0.002770
0.589893 -0.036111 0.012286
0.581179 0.005625 0.015937
0.577044 0.072533 0.067046
0.559305 0.065332 0.083626
0.510318 0.056603 0.067103
0.541401 0.088689 0.076672
0.595151 -0.012598 0.026709
0.588672 0.032718 0.068280
0.566944 0.083210 0.036692
0.507405 0.049655 0.061559
0.504350 0.046384 0.049658
0.592148 -0.065772 0.029562
0.563621 0.087742 0.068920
0.588997 0.028204 0.068163
0.512277 0.058656 0.069702
0.542629 0.036294 0.085706
