ply
format ascii 1.0
element vertex 1024
property float x
property float y
property float z
end_header
0.577600 0.032820 0.005883
0.547151 -0.046480 0.010446
0.546204 -0.051480 0.011388
0.527678 0.089721 0.029017
0.525864 -0.037131 0.071729
0.534276 0.004070 0.000035
0.524982 0.082188 0.020905
0.561897 0.030882 0.079995
0.521181 -0.048240 0.016452
0.518133 0.000205 0.018788
0.537188 0.057786 0.075600
0.556893 0.093914 0.052920
0.541564 -0.030227 0.078103
0.523730 -0.003953 0.080471
0.525744 0.045032 0.075464
0.512830 0.003731 0.031207
0.533722 -0.016414 0.004748
0.524108 0.086837 0.039057
0.566049 0.066916 -0.000515
0.513407 0.051470 0.053917
0.529243 -0.004448 0.084093
0.519842 -0.070716 0.038202
0.550395 0.096139 0.015871
0.561339 -0.049739 0.032293
0.531253 -0.065851 0.011121
0.576821 0.005099 0.015761
0.575549 0.071599 0.011194
0.587390 0.050955 0.040501
0.582748 0.002449 0.044612
0.580546 0.069031 0.019403
0.513787 -0.006306 0.030637
0.512079 0.036818 0.056299
0.532994 -0.044039 0.072527
0.552584 -0.054799 0.057177
0.583257 0.042952 0.058144
0.573605 -0.002856 0.066319
0.512160 -0.006221 0.038182
0.515462 0.062907 0.051949
0.584204 0.065041 0.028478
0.524399 -0.044628 0.066629
0.536910 0.088068 0.057434
0.568523 0.060407 0.068628
0.587878 0.027219 0.040367
0.529683 0.080598 0.059103
0.525273 0.088336 0.035707
0.518098 0.056239 0.061709
0.529036 -0.031356 0.076460
0.585871 0.019305 0.049153
0.528866 0.082215 0.015371
0.534440 -0.061837 0.009946
0.531354 -0.060172 0.009793
0.534453 0.062710 0.072187
0.574703 0.022256 0.070763
0.569911 -0.008342 0.012931
0.528743 0.071842 0.064126
0.580354 0.003534 0.057072
0.576561 0.083663 0.039537
0.552525 0.069011 -0.003830
0.588386 0.044575 0.036885
0.562611 0.029745 -0.006023
0.567617 0.034544 0.076401
0.546836 -0.008611 0.083434
0.526592 -0.026462 0.076837
0.527994 0.066365 0.006503
0.556481 0.071319 0.069153
0.523095 0.083966 0.028022
0.537098 0.094446 0.020853
0.530915 0.091929 0.046042
0.534883 0.090038 0.054042
0.555266 0.052596 0.077579
0.534798 -0.069415 0.053796
0.555111 0.049384 0.078693
0.527035 0.023847 0.081406
0.512248 0.017556 0.030696
0.521218 -0.051506 0.058486
0.569777 0.082134 0.010816
0.542763 -0.014415 0.001526
0.566683 -0.040314 0.039849
0.535976 0.097448 0.038335
0.540228 0.039229 0.082403
0.566701 -0.036773 0.052347
0.510125 0.039086 0.041863
0.568422 -0.036417 0.043652
0.523679 -0.034597 0.070751
0.516612 -0.056125 0.024564
0.510910 0.003850 0.056573
0.514542 -0.039863 0.039582
0.525328 0.078938 0.017126
0.523674 0.004796 0.081127
0.566573 -0.030481 0.060428
0.531846 -0.038962 0.074475
0.514696 0.060346 0.051699
0.587158 0.049600 0.045292
0.521796 0.027589 0.076744
0.561639 0.088211 0.009995
0.551624 -0.038516 0.070459
0.581626 0.073160 0.029149
0.527007 0.040160 0.077701
0.518851 0.077863 0.030266
0.512619 -0.023140 0.051854
0.556875 0.100825 0.025731
0.587373 0.024335 0.035475
0.547968 0.061661 -0.005695
0.565120 0.031008 -0.004954
0.537480 0.014342 -0.003509
0.583021 0.067061 0.025290
0.555919 0.045846 0.079528
0.534850 0.023429 0.084491
0.561791 -0.029324 0.014842
0.586482 0.039226 0.022174
0.587170 0.053003 0.031867
0.542616 0.070267 0.070520
0.518492 0.063550 0.018281
0.575801 0.080703 0.047012
0.521401 0.015667 0.011290
0.510006 0.006267 0.046033
0.522649 0.081803 0.048716
0.536351 0.030595 -0.004437
0.551706 0.050520 -0.008379
0.586990 0.033985 0.025401
0.587958 0.040723 0.046022
0.563574 0.045033 -0.006406
0.577548 -0.009148 0.030994
0.587253 0.027580 0.046967
0.581948 0.026019 0.061706
0.560173 -0.026845 0.011959
0.514401 0.016040 0.024101
0.526577 -0.022550 0.078256
0.586466 0.049427 0.023240
0.560331 -0.019812 0.008922
0.542273 0.090735 0.012018
0.549454 0.019449 -0.007473
0.575532 -0.015868 0.032442
0.511921 0.000487 0.060294
0.587033 0.051337 0.043762
0.520196 0.069973 0.056678
0.515736 0.069839 0.030080
0.571606 -0.022166 0.027145
0.584407 0.062447 0.043463
0.511703 -0.009817 0.056838
0.525350 0.086194 0.026458
0.563267 0.095132 0.019603
0.533732 0.034020 0.081948
0.517436 -0.015791 0.022910
0.525840 0.075045 0.013459
0.516464 -0.040053 0.027647
0.538157 -0.068199 0.053816
0.526097 -0.027818 0.075927
0.519797 -0.072864 0.026862
0.511733 0.035632 0.055397
0.564051 0.098400 0.027133
0.567095 0.093146 0.045552
0.559720 0.100812 0.028730
0.541999 0.068369 -0.002086
0.570757 0.083677 0.013536
0.562859 0.017583 0.079499
0.510792 0.014016 0.037155
0.529245 -0.077741 0.034382
0.585423 0.012687 0.042572
0.557722 -0.048157 0.021274
0.558826 0.021505 -0.006360
0.587782 0.035108 0.028965
0.579174 0.079642 0.032773
0.541857 0.057497 -0.005074
0.548476 -0.057586 0.058548
0.510096 0.004315 0.050326
0.588092 0.029219 0.040641
0.536988 0.080119 0.063500
0.549968 -0.043642 0.068594
0.568616 0.053745 -0.002367
0.555010 0.049947 -0.008376
0.564666 0.069141 0.066780
0.521335 -0.040366 0.016890
0.515203 0.070258 0.038813
0.579700 0.076831 0.026188
0.576628 0.029430 0.005135
0.573122 -0.022992 0.051559
0.574511 0.079624 0.015539
0.574536 -0.012645 0.025412
0.565578 0.092268 0.048619
0.516314 -0.034800 0.059058
0.580279 0.046047 0.009482
0.581257 0.073741 0.028062
0.529017 0.053511 0.074158
0.514103 -0.034896 0.040710
0.568216 -0.005797 0.009184
0.517529 -0.060776 0.045295
0.521822 0.074813 0.055456
0.567434 0.007266 0.001939
0.518804 -0.058393 0.018843
0.577295 0.077030 0.048580
0.514485 -0.001332 0.067085
0.516333 0.036772 0.067430
0.574742 -0.007624 0.021264
0.537959 0.055706 -0.003800
0.560492 0.066568 -0.003268
0.572376 0.025219 0.001165
0.539509 -0.025639 0.080258
0.512661 0.028528 0.028208
0.510379 0.001115 0.045891
0.511080 0.046358 0.035968
0.519795 0.079382 0.029582
0.572851 0.051395 0.068841
0.515468 0.066491 0.027411
0.576062 0.029817 0.069659
0.553441 0.095904 0.015808
0.560182 -0.037177 0.064319
0.555979 0.031147 0.082321
0.556856 -0.010859 0.078559
0.586174 0.056361 0.041682
0.586110 0.033638 0.052873
0.538492 0.035586 -0.005673
0.534688 -0.069848 0.053265
0.518790 0.059359 0.016208
0.571911 0.090470 0.025239
0.545208 0.088665 0.059514
0.552644 -0.036453 0.070939
0.577141 0.008675 0.065316
0.537397 -0.030550 0.006087
0.522727 0.007354 0.010689
0.520965 0.063516 0.014081
0.526738 -0.064922 0.012114
0.523452 0.078639 0.019716
0.581995 0.024686 0.015486
0.546512 -0.069818 0.042226
0.529654 -0.077748 0.034754
0.512022 0.057160 0.038976
0.546180 0.031177 -0.008191
0.511555 -0.005828 0.041494
0.568613 0.057717 0.069698
0.547759 -0.025246 0.005002
0.583306 0.047993 0.057002
0.576237 -0.013382 0.053653
0.525817 0.059012 0.006343
0.572968 0.011595 0.070965
0.542433 -0.000693 0.085815
0.542430 0.073893 0.068604
0.511318 0.032948 0.033137
0.519966 0.020483 0.076015
0.535021 -0.043162 0.007807
0.516266 0.016092 0.070634
0.511242 -0.002868 0.041688
0.524098 0.036670 0.076616
0.580620 0.014983 0.061887
0.525419 0.052612 0.072091
0.555678 -0.059853 0.031450
0.552920 0.097609 0.017994
0.572060 -0.011529 0.018728
0.519826 0.049549 0.012407
0.523467 0.038130 0.006643
0.524587 -0.073360 0.042417
0.517202 -0.014291 0.023149
0.533209 -0.027417 0.006878
0.531807 0.024207 -0.000950
0.548254 0.092801 0.012255
0.567774 0.016239 0.076162
0.566833 0.077635 0.060500
0.578607 0.061863 0.058814
0.562579 0.082475 0.059981
0.544462 0.062456 -0.004724
0.549144 -0.065816 0.023235
0.546501 0.009868 -0.005629
0.586053 0.044049 0.052018
0.516508 -0.024474 0.064720
0.576830 0.007769 0.065466
0.575011 0.056654 0.004485
0.584857 0.015730 0.051282
0.565181 0.030934 0.078247
0.558490 0.017963 0.081753
0.524880 -0.068697 0.049388
0.532666 0.006398 0.000707
0.541972 -0.062830 0.057990
0.545745 0.026383 0.084847
0.538616 0.098804 0.030255
0.578960 -0.006474 0.032994
0.587332 0.043682 0.048089
0.549693 -0.042650 0.010648
0.586964 0.021010 0.037368
0.530822 0.005737 0.002252
0.542073 0.006321 0.086355
0.541910 -0.027003 0.079284
0.526438 -0.065031 0.054877
0.578683 0.069815 0.015825
0.524047 0.060297 0.008766
0.564657 0.036526 -0.005665
0.524946 -0.026443 0.075515
0.531246 0.066664 0.003681
0.571958 -0.028385 0.042682
0.552249 0.039311 -0.008981
0.543072 0.083483 0.005445
0.543635 -0.068273 0.017379
0.561226 0.097888 0.044587
0.533918 0.076273 0.064490
0.522858 -0.058658 0.055997
0.514418 -0.004244 0.066561
0.513465 0.062551 0.032770
0.513730 0.062184 0.046024
0.562434 0.020925 0.079907
0.515710 -0.024232 0.028292
0.567811 0.069964 0.064415
0.587889 0.030460 0.032575
0.538610 -0.013439 0.084139
0.545648 0.031068 -0.008080
0.571590 0.073621 0.059221
0.556316 0.088098 0.007905
0.555109 0.044038 -0.008795
0.528592 0.010970 0.003403
0.532209 -0.005136 0.003238
0.580263 0.055743 0.059440
0.522284 0.000831 0.079578
0.515493 -0.036557 0.031030
0.511309 -0.008263 0.045043
0.541796 0.050445 0.079493
0.572769 -0.003655 0.067186
0.531959 0.007311 0.001079
0.565601 -0.042516 0.038574
0.577398 0.078578 0.020891
0.560387 0.089963 0.055245
0.550850 -0.032079 0.007954
0.567013 -0.015344 0.069571
0.565805 -0.041906 0.037466
0.558576 0.096122 0.017806
0.548615 0.101699 0.040136
0.522926 0.068232 0.061236
0.581870 0.058598 0.015775
0.569605 -0.020127 0.063552
0.527204 0.027327 0.002958
0.517748 -0.034940 0.023909
0.558051 0.087982 0.008246
0.515773 -0.055726 0.042678
0.541753 0.089221 0.010821
0.560749 0.023784 0.080811
0.515456 0.004417 0.069476
0.526857 -0.036130 0.072999
0.568144 -0.034680 0.050863
0.518427 0.020503 0.015228
0.573688 0.034665 0.071700
0.562036 0.099860 0.028576
0.577816 0.023415 0.008319
0.546136 0.030066 0.084313
0.543184 0.064061 0.073728
0.538619 0.034181 0.083113
0.585726 0.060109 0.031988
0.578326 0.069925 0.053839
0.519607 0.070103 0.019706
0.536712 -0.070970 0.050801
0.563839 0.028147 -0.005278
0.524544 -0.076078 0.034977
0.559728 -0.013898 0.076021
0.546817 -0.021680 0.003804
0.571215 -0.028520 0.034894
0.550812 0.036881 0.082746
0.545399 0.029140 -0.007914
0.555964 0.028131 0.082589
0.569795 0.079762 0.056413
0.548760 0.004057 -0.004405
0.561402 0.100303 0.029401
0.521812 0.049676 0.070099
0.546403 0.015677 -0.006650
0.552935 0.099751 0.021532
0.513995 0.048603 0.057228
0.558563 0.066340 0.070886
0.585551 0.029024 0.054133
0.539206 -0.075955 0.024066
0.519783 -0.032773 0.066594
0.580376 0.071703 0.047477
0.563991 -0.003546 0.003967
0.536992 -0.049286 0.008292
0.573829 -0.000795 0.066747
0.515128 -0.043794 0.035097
0.567983 0.070881 0.063791
0.565637 -0.039228 0.030338
0.513588 0.021328 0.064132
0.578470 0.023565 0.009303
0.575455 0.023216 0.005057
0.551620 0.084959 0.004729
0.516441 -0.044365 0.053296
0.542362 -0.033799 0.006340
0.510231 0.001732 0.047769
0.517417 0.063301 0.056279
0.511454 0.032005 0.055419
0.515261 0.070387 0.039233
0.540837 -0.017639 0.002708
0.539416 -0.037687 0.075457
0.516591 -0.047483 0.051639
0.578398 0.073704 0.018244
0.520721 -0.073983 0.028389
0.525330 0.059220 0.068598
0.582309 0.017979 0.059597
0.540589 -0.070369 0.016292
0.559179 -0.043761 0.059874
0.540000 -0.048168 0.008472
0.556445 0.004008 -0.003094
0.524344 0.063521 0.009474
0.581811 0.054624 0.057523
0.583803 0.049640 0.016300
0.561362 0.001101 0.000136
0.525689 0.076357 0.058787
0.511175 0.050522 0.038307
0.524390 0.014460 0.081306
0.516969 0.063044 0.055556
0.552779 0.046709 0.080064
0.511074 0.050120 0.040385
0.519958 0.049326 0.068049
0.552383 0.096020 0.015811
0.523452 0.085201 0.030147
0.515170 -0.050996 0.037533
0.574242 -0.011826 0.060609
0.516895 -0.053973 0.024307
0.585782 0.019636 0.030060
0.569321 -0.034031 0.037657
0.515196 -0.050943 0.040577
0.560806 0.099641 0.040913
0.552044 -0.017481 0.003682
0.509654 0.024815 0.045791
0.546308 -0.017224 0.002388
0.584760 0.060747 0.044258
0.581536 0.000246 0.049448
0.547465 -0.070611 0.036050
0.537014 -0.055023 0.009011
0.509864 0.011282 0.049916
0.544665 -0.062616 0.014517
0.517741 -0.008762 0.021107
0.521162 0.042561 0.009767
0.530190 0.024593 0.082746
0.581551 0.071086 0.024660
0.562704 -0.016476 0.073097
0.511050 -0.001942 0.042389
0.529635 0.060160 0.002873
0.577345 -0.004335 0.024836
0.510561 0.043912 0.039066
0.530746 0.044388 0.078505
0.563707 -0.043947 0.049600
0.537733 -0.062190 0.010623
0.544283 -0.070681 0.044101
0.550922 0.047701 0.080111
0.536713 0.049215 0.079039
0.575425 -0.016500 0.052441
0.586433 0.056370 0.029686
0.571445 0.068987 0.062222
0.586136 0.016730 0.044022
0.561361 -0.048138 0.049462
0.563532 -0.038582 0.057878
0.531380 -0.077699 0.036021
0.537125 -0.050336 0.008419
0.518319 -0.065411 0.042791
0.559556 0.022455 0.081370
0.563660 -0.042139 0.028101
0.547420 -0.070222 0.028164
0.535659 0.077394 0.005528
0.542512 0.021883 -0.006537
0.534766 0.096772 0.035144
0.517829 0.060789 0.018510
0.521198 0.006598 0.078611
0.580021 0.076262 0.026614
0.518313 0.072715 0.024525
0.571603 -0.006715 0.014438
0.514102 0.053794 0.054592
0.577188 -0.014874 0.042608
0.516315 -0.021048 0.065834
0.562377 0.057046 -0.005252
0.521117 -0.032709 0.017573
0.535254 0.032981 0.082589
0.587351 0.033203 0.027419
0.560050 -0.020479 0.073541
0.583090 0.049651 0.056970
0.580283 0.077007 0.035746
0.576987 0.078297 0.047599
0.572001 0.010314 0.071690
0.580886 -0.001554 0.050069
0.565671 0.093320 0.047170
0.575371 -0.006026 0.061982
0.517826 0.003726 0.018705
0.536636 -0.017948 0.003850
0.526137 0.058765 0.069504
0.512095 0.057372 0.040610
0.512323 0.003688 0.061776
0.565857 0.018392 -0.002536
0.517236 -0.001717 0.020758
0.523324 0.085451 0.041649
0.534056 0.000501 0.000875
0.514401 -0.040144 0.044981
0.557699 0.005950 -0.003266
0.586449 0.048088 0.022678
0.526166 -0.036608 0.072228
0.579909 0.077352 0.028786
0.548743 0.087343 0.060777
0.527345 -0.021402 0.079178
0.529469 0.092326 0.033291
0.522504 0.007546 0.080020
0.553894 0.053803 0.077500
0.546828 0.081105 0.002590
0.561395 -0.020558 0.010115
0.571320 0.092892 0.031394
0.555967 0.055158 0.076472
0.586455 0.055202 0.041459
0.510037 0.034407 0.039698
0.554164 0.010150 0.083145
0.540651 0.095263 0.018418
0.524788 0.079996 0.054786
0.512494 0.001411 0.062152
0.583804 0.064722 0.025595
0.518860 -0.011594 0.073276
0.558941 -0.055375 0.038705
0.540123 -0.014361 0.001925
0.534274 0.011747 0.086104
0.566093 0.021391 -0.003006
0.529330 -0.003237 0.084273
0.586156 0.028236 0.024966
0.513835 0.051586 0.055153
0.538847 -0.018963 0.003446
0.546985 0.030546 0.084182
0.514782 -0.020542 0.030777
0.512938 0.011649 0.063318
0.564683 -0.012547 0.072854
0.527942 0.049616 0.075205
0.521916 -0.035943 0.016291
0.524447 -0.075146 0.021677
0.575129 0.004366 0.012962
0.537251 -0.037043 0.006936
0.561536 0.068539 0.068647
0.587733 0.039636 0.047227
0.543111 0.095031 0.052022
0.554792 0.101000 0.025045
0.549822 -0.065715 0.044871
0.578036 0.018110 0.066424
0.517962 0.075346 0.045247
0.559499 -0.051841 0.048230
0.542430 0.012833 0.086324
0.548759 0.099436 0.020929
0.514291 -0.016429 0.031728
0.551339 -0.051928 0.015467
0.564632 0.092649 0.049158
0.555252 -0.040467 0.013787
0.522180 0.005895 0.079681
0.522102 0.039558 0.074211
0.571981 0.060458 0.066086
0.534347 0.018303 0.085353
0.577783 0.046323 0.065410
0.557129 -0.054223 0.025885
0.518968 0.052661 0.014303
0.532049 0.007523 0.085762
0.549262 -0.048241 0.012218
0.511793 0.000970 0.059898
0.574823 0.087317 0.028646
0.583760 0.066584 0.038642
0.543100 0.065220 -0.003532
0.526375 0.063775 0.007228
0.526643 -0.010151 0.008957
0.544780 0.033465 0.083808
0.555068 0.101145 0.025631
0.575867 -0.018457 0.043258
0.516959 0.064455 0.021905
0.559366 0.083392 0.004613
0.511331 0.050646 0.036608
0.516141 0.013318 0.070605
0.562865 -0.037050 0.021360
0.576239 0.075419 0.015117
0.537271 -0.005048 0.000412
0.563720 0.021493 -0.004351
0.563562 -0.037705 0.023215
0.585690 0.028586 0.053647
0.518523 0.006387 0.017067
0.540411 0.007465 0.086564
0.528750 0.085917 0.053137
0.583660 0.018356 0.056605
0.574640 0.016446 0.070100
0.545320 0.093731 0.013935
0.575237 0.081484 0.019054
0.535667 -0.054090 0.067614
0.526117 0.086528 0.025254
0.516268 -0.052500 0.047171
0.544487 -0.012521 0.000826
0.563850 0.041512 -0.006280
0.525198 -0.024586 0.076450
0.541890 0.017310 0.086089
0.511378 0.016810 0.058068
0.510056 0.034175 0.039423
0.537500 -0.025969 0.080340
0.568606 -0.024565 0.061934
0.511644 0.013023 0.033764
0.587953 0.047734 0.033099
0.571184 -0.009135 0.067242
0.544940 0.099506 0.044744
0.512559 -0.002654 0.061986
0.512676 0.002903 0.062781
0.557469 -0.023710 0.073929
0.556154 0.083596 0.062156
0.521691 -0.010496 0.015056
0.515114 -0.037810 0.053483
0.518353 0.025672 0.014753
0.514299 0.030725 0.064485
0.557656 0.018197 -0.006175
0.574323 0.080468 0.016007
0.515371 -0.024865 0.062076
0.559745 0.053422 -0.006945
0.585040 0.054257 0.050591
0.516209 0.017898 0.019679
0.543852 -0.007533 0.084514
0.555878 -0.001382 0.081033
0.565540 -0.020487 0.014396
0.540042 0.045334 0.080911
0.546300 -0.048150 0.067907
0.579656 -0.007448 0.045842
0.521850 0.075933 0.020021
0.525055 0.046678 0.074368
0.533146 -0.070978 0.013673
0.548484 0.039102 -0.008749
0.555713 0.071292 0.069377
0.551468 0.062801 0.074240
0.587033 0.036762 0.024638
0.509715 0.016911 0.043357
0.519404 -0.026212 0.069000
0.580263 0.002601 0.056651
0.566737 -0.037979 0.032436
0.580203 -0.002562 0.051820
0.545429 0.060262 0.075700
0.582779 0.065998 0.023079
0.532517 0.007070 0.085891
0.582821 0.016230 0.057904
0.537355 0.015823 -0.003654
0.513288 -0.011181 0.034572
0.513948 -0.011438 0.063999
0.514084 0.064992 0.043734
0.531853 -0.066402 0.057205
0.538164 0.048731 -0.004906
0.531377 0.013218 0.085217
0.532719 -0.055566 0.066235
0.572273 0.082924 0.014987
0.538754 -0.072586 0.017140
0.557586 -0.012176 0.077808
0.519049 -0.039835 0.020918
0.584528 0.059450 0.047454
0.547104 -0.033560 0.007076
0.520496 -0.008126 0.076306
0.580128 0.077258 0.036406
0.578355 0.057550 0.009294
0.549814 0.005409 -0.004729
0.567054 -0.000787 0.005215
0.552720 -0.019363 0.078110
0.538104 0.023233 0.085131
0.528216 0.046021 0.001762
0.584342 0.062548 0.025235
0.513346 0.055664 0.050809
0.521824 -0.054066 0.057721
0.585307 0.054581 0.049395
0.535013 0.057042 -0.001901
0.520972 -0.009547 0.076596
0.564843 -0.007532 0.074234
0.528662 -0.031258 0.009601
0.573567 0.089082 0.037885
0.515285 -0.017110 0.065250
0.560279 -0.051627 0.031709
0.534623 -0.004720 0.085647
0.530707 0.019334 0.084084
0.521722 0.075111 0.019566
0.525915 0.014999 0.005654
0.522591 0.085015 0.036263
0.567759 0.069017 0.001405
0.526326 0.073336 0.061389
0.513405 -0.023645 0.056833
0.564702 -0.024541 0.015715
0.534251 -0.055825 0.008976
0.534492 0.029489 0.083088
0.564152 0.098494 0.039080
0.515988 -0.060708 0.026145
0.583832 0.007587 0.047555
0.534604 -0.018027 0.004665
0.581173 0.062311 0.016269
0.522907 0.084494 0.043254
0.524838 0.019137 0.006394
0.522481 0.064473 0.062913
0.523528 -0.024194 0.075033
0.553271 -0.039630 0.068818
0.511196 -0.010618 0.050642
0.520620 -0.040045 0.018050
0.562008 0.067500 -0.002395
0.557220 -0.028175 0.072139
0.563339 -0.046789 0.035656
0.540367 0.095623 0.019221
0.533359 0.089684 0.053218
0.527310 -0.034558 0.074013
0.529746 0.011404 0.084762
0.561801 0.048416 0.076647
0.516750 -0.066321 0.035780
0.571319 0.054264 -0.000005
0.552346 0.028550 0.083596
0.519598 -0.053994 0.018194
0.522059 0.011906 0.079413
0.566607 0.075936 0.003630
0.564238 -0.020507 0.070115
0.573984 0.050173 0.001907
0.559242 -0.030572 0.069447
0.535488 0.033079 -0.004010
0.549142 -0.062157 0.052134
0.534937 0.012531 0.086165
0.516457 0.070997 0.046351
0.515898 -0.054087 0.028874
0.531966 -0.078134 0.030019
0.534904 -0.075081 0.044616
0.527511 0.056803 0.071552
0.553223 0.057416 -0.007077
0.553276 0.084013 0.004005
0.548120 0.095439 0.052544
0.587311 0.048703 0.045281
0.582244 0.028104 0.014677
0.570395 0.058039 0.000089
0.513889 0.000106 0.028448
0.579461 0.045586 0.008207
0.530735 0.058299 0.001459
0.561172 0.036406 -0.007163
0.577215 0.003132 0.063175
0.584518 0.009109 0.044480
0.580755 -0.004438 0.041883
0.570386 0.093777 0.036100
0.510072 0.034758 0.039446
0.579638 0.025984 0.010491
0.509853 0.026139 0.048121
0.535602 -0.054842 0.008872
0.514656 0.058068 0.053324
0.567305 -0.023620 0.019041
0.518121 -0.037551 0.061321
0.554453 0.042453 -0.008888
0.581491 0.029757 0.012678
0.510038 0.009452 0.043357
0.552776 0.048271 -0.008668
0.571087 0.093202 0.031732
0.549553 0.097142 0.017192
0.525254 -0.054260 0.061910
0.586328 0.037914 0.052127
0.573336 0.089687 0.028807
0.543545 0.014264 0.086145
0.563214 0.058776 0.072331
0.531624 -0.049000 0.008833
0.526060 0.073415 0.061103
0.521990 -0.068740 0.016835
0.553674 -0.040092 0.012320
0.528868 -0.046073 0.069715
0.575925 0.025940 0.004967
0.546363 0.071792 0.070146
0.530152 -0.076654 0.021050
0.585821 0.022490 0.027578
0.537679 0.016222 0.086136
0.536706 0.074049 0.002993
0.529710 -0.046454 0.009380
0.512972 0.058580 0.046380
0.517501 0.008625 0.073372
0.534611 -0.074364 0.046222
0.527554 -0.050803 0.066185
0.549154 0.053509 0.078374
0.510623 0.038051 0.048772
0.561533 0.018622 0.080294
0.540707 0.096252 0.019962
0.553382 -0.060437 0.025211
0.549965 -0.032847 0.074028
0.512113 -0.017873 0.046646
0.561444 0.066704 -0.002878
0.535395 0.054175 -0.002665
0.511997 0.056957 0.038498
0.567079 -0.016557 0.014103
0.572549 0.058212 0.002163
0.576652 0.033454 0.004554
0.559583 0.086614 0.058549
0.514269 0.055629 0.025909
0.526607 0.040879 0.077275
0.509674 0.025939 0.045738
0.572596 -0.026304 0.038225
0.533277 0.031955 0.082215
0.556732 -0.055573 0.048938
0.540090 -0.066544 0.054747
0.571228 -0.027560 0.051505
0.579636 0.034716 0.008556
0.545987 0.052395 -0.007259
0.535192 0.057792 -0.001852
0.561367 -0.010481 0.075952
0.549322 -0.012327 0.001118
0.514187 0.006361 0.066723
0.525580 0.031438 0.078819
0.513096 0.043107 0.027330
0.568512 0.084040 0.054013
0.531125 0.025464 -0.000509
0.542490 -0.074876 0.034827
0.535363 0.023662 -0.003394
0.538568 -0.073966 0.018808
0.512827 0.030824 0.027527
0.583359 0.057697 0.018481
0.577116 0.003930 0.017236
0.546409 -0.008115 0.083668
0.516497 -0.066122 0.026483
0.571136 0.065838 0.064159
0.531378 -0.078136 0.028161
0.557865 0.052388 0.076880
0.529019 -0.077493 0.036145
0.514813 0.062869 0.049897
0.570988 0.052032 0.070110
0.587887 0.033206 0.030532
0.549577 0.040491 -0.008869
0.579184 0.003566 0.059776
0.542184 0.078313 0.066084
0.515336 -0.049880 0.043809
0.564275 -0.004480 0.004652
0.544669 0.095623 0.051676
0.575266 0.080635 0.018132
0.566212 -0.033231 0.058341
0.541954 -0.069351 0.049144
0.582242 0.049426 0.013302
0.558113 -0.052063 0.025611
0.537815 0.067660 0.070751
0.561508 0.086020 0.007755
0.543374 0.022648 0.085443
0.570052 -0.001359 0.008809
0.540440 0.018808 -0.005432
0.571102 0.083428 0.051617
0.515741 0.001836 0.069931
0.566552 0.095607 0.024370
0.536682 -0.066408 0.056836
0.520955 0.012531 0.078151
0.559293 -0.049948 0.026007
0.524977 -0.028442 0.074720
0.580128 0.022919 0.012489
0.566280 -0.015000 0.070477
0.533417 0.002154 0.000959
0.526198 -0.010317 0.009448
0.533763 0.022753 0.084368
0.567577 0.054718 -0.002906
0.540531 0.013124 0.086450
0.512873 -0.013962 0.060059
0.576411 -0.016954 0.043895
0.557351 0.027869 -0.007597
0.572310 0.041707 -0.000489
0.571993 0.089247 0.023006
0.525180 -0.058027 0.012081
0.554471 -0.047155 0.016261
0.533113 0.028716 -0.002256
0.541961 -0.071281 0.018568
0.571712 0.025535 0.000473
0.534554 -0.072118 0.050097
0.524287 -0.009421 0.011474
0.553562 0.012442 0.083531
0.516731 0.031945 0.017241
0.517499 0.076011 0.040118
0.549698 0.051106 -0.008140
0.543467 0.034660 0.083579
0.525417 -0.044813 0.067566
0.514113 -0.037207 0.046362
0.586053 0.031448 0.023053
0.550144 -0.005338 0.082874
0.553188 -0.056425 0.054401
0.571571 0.057119 0.000920
0.557468 -0.008683 0.002344
0.541730 0.041810 -0.006951
0.527554 -0.076167 0.040148
0.546287 -0.031429 0.076182
0.511467 0.029918 0.032597
0.515566 -0.057859 0.030155
0.550091 -0.043681 0.068497
0.572747 0.061011 0.003183
0.560815 0.030361 0.080539
0.586093 0.031656 0.023100
0.565348 -0.022322 0.015238
0.525012 0.001373 0.008779
0.567841 -0.010159 0.011276
0.538663 0.086017 0.059974
0.561396 0.058121 -0.005360
0.543379 -0.044833 0.071073
0.546769 0.025664 -0.007902
0.531944 -0.036904 0.075381
0.570664 0.047692 -0.001641
0.515676 0.020770 0.020468
0.553080 0.005594 -0.004411
0.524651 0.087497 0.039037
0.514924 0.067735 0.044010
0.579862 0.038111 0.064364
0.522257 0.048084 0.008687
0.515712 0.002977 0.069936
0.578328 0.070056 0.015277
0.555352 0.034250 0.082137
0.549896 0.068999 0.071472
0.586702 0.047033 0.023274
0.533948 -0.027354 0.006584
0.548462 0.077187 0.067273
0.545925 0.018654 0.085580
0.575743 0.016272 0.007740
0.566116 -0.041562 0.040862
0.585917 0.020788 0.029551
0.582600 0.010716 0.055792
0.550564 0.093476 0.012781
0.582363 0.014465 0.058271
0.523850 0.047689 0.006615
0.514678 0.055214 0.024504
0.529164 0.084994 0.017835
0.515412 0.019358 0.021238
0.531581 0.036597 0.080687
0.579874 0.070136 0.018689
0.581255 0.004546 0.027726
0.533715 0.052873 -0.001816
0.532541 0.095098 0.034972
0.515187 -0.050733 0.040721
0.523394 0.042297 0.074532
0.587662 0.041593 0.026845
0.559983 0.006999 -0.002660
0.524334 -0.070655 0.046276
0.530065 0.006890 0.002699
0.544135 -0.048713 0.068639
0.578950 -0.005485 0.031520
0.513905 0.029532 0.063736
0.577473 -0.012044 0.050355
0.579261 0.060218 0.058831
0.541756 0.050146 0.079596
0.587216 0.025963 0.046160
0.534258 0.007932 0.086276
0.571227 0.034718 0.073773
0.524112 0.058332 0.068002
0.573084 -0.004352 0.015306
0.522885 0.028104 0.077602
0.536315 -0.053521 0.067951
0.562325 0.099753 0.038007
0.554654 -0.062005 0.038101
0.521661 0.081509 0.046449
0.580685 0.062978 0.015641
0.578250 0.045029 0.006408
0.513763 -0.015984 0.061998
0.572710 0.002743 0.009987
0.578474 0.022604 0.009643
0.547878 -0.070324 0.034395
0.564461 0.003479 0.001138
0.530156 0.086211 0.017934
0.567114 -0.033125 0.056410
0.529569 -0.074197 0.046274
0.539344 0.091193 0.014241
0.547324 0.060044 -0.005992
0.557649 -0.047951 0.057798
0.550081 0.074082 -0.001728
0.574357 0.002775 0.012619
0.544934 -0.063071 0.055379
0.538040 0.035602 0.082741
0.551656 -0.022684 0.077421
0.568525 0.048145 0.073056
0.516682 0.020875 0.018356
0.515804 0.063134 0.052722
0.532617 -0.076492 0.041818
0.534236 0.043728 -0.003094
0.527676 0.088757 0.026350
0.558064 -0.020121 0.074972
0.510457 0.009815 0.040123
0.512466 0.006253 0.031960
0.565424 -0.043001 0.040316
0.572041 0.067147 0.004581
0.555618 -0.017051 0.004958
0.577077 0.034701 0.004960
0.548627 0.091557 0.057061
0.511380 -0.005355 0.042325
0.514601 0.053795 0.024357
0.512218 -0.005623 0.060351
0.546372 -0.012012 0.082816
0.563642 0.016080 -0.003297
0.561557 0.010825 -0.003039
0.542099 -0.048351 0.069681
0.511714 0.014040 0.033294
0.557541 -0.046099 0.019475
0.567254 -0.039024 0.039248
0.530769 -0.061250 0.010065
0.531677 -0.038145 0.074766
0.510777 0.023476 0.054549
0.518411 0.010439 0.074789
0.567491 0.085157 0.054067
0.570153 0.088946 0.046701
0.515817 0.062564 0.053213
0.523283 -0.074120 0.021072
0.550557 -0.011692 0.081354
0.530313 0.033435 0.080816
0.574398 -0.013077 0.025471
0.527868 0.090884 0.039326
0.517342 -0.058064 0.046807
0.553053 0.081131 0.001951
0.585051 0.012186 0.046258
0.566738 0.065797 -0.000448
0.541164 0.056955 -0.004931
0.513062 -0.010862 0.035590
0.574926 0.087465 0.030180
0.567206 0.096253 0.027378
0.513088 -0.021176 0.040439
0.546588 0.016709 0.085554
0.585077 0.062434 0.030038
0.532331 0.086130 0.015190
0.540007 0.089642 0.057318
0.545145 0.024907 0.085067
0.514319 0.027424 0.065109
0.522055 0.035929 0.075118
0.573910 0.041667 0.070449
0.537583 0.075137 0.066643
0.573764 0.088849 0.037669
0.517723 0.027508 0.071788
0.572180 0.031538 0.073247
0.565331 -0.000747 0.075410
0.532766 0.095118 0.032948
0.512193 0.005178 0.061410
0.512938 0.028003 0.027244
0.511761 0.054345 0.036264
0.546062 -0.063929 0.053174
0.533768 0.036450 0.081485
0.573505 0.050528 0.068548
0.527643 0.075075 0.061348
0.583516 0.005653 0.046088
0.575430 0.056571 0.004973
0.516648 0.030093 0.069530
0.516583 0.012380 0.019685
0.512555 -0.022230 0.052568
0.515617 -0.049935 0.031831
0.514787 -0.007357 0.027637
0.550984 0.060827 -0.006229
0.573987 0.060311 0.004357
0.578802 0.065574 0.056299
0.570201 0.087458 0.017129
0.522607 -0.028200 0.015482
0.554830 0.019518 -0.007068
0.525229 0.072090 0.012404
0.576077 0.059476 0.062849
0.566965 0.056520 0.071209
0.535767 -0.077763 0.030145
0.555007 0.079436 0.001020
0.555403 0.015114 -0.006185
0.580072 0.067109 0.053007
0.587268 0.037766 0.025355
