ply
format ascii 1.0
element vertex 1024
property float x
property float y
property float z
end_header
0.507946 -0.028157 0.035122
0.505979 0.056354 0.044619
0.505864 0.061246 0.046305
0.568602 -0.056130 -0.007346
0.568991 0.058006 0.062593
0.518338 0.017070 0.010953
0.561457 -0.048239 -0.011407
0.575187 -0.018904 0.068827
0.524087 0.069724 0.030232
0.540879 0.027934 0.011978
0.592154 -0.031714 0.038799
0.573432 -0.072974 0.026350
0.567672 0.044772 0.075160
0.586244 0.029447 0.054323
0.594611 -0.015160 0.035116
0.554621 0.027263 0.014324
0.516787 0.035607 0.020755
0.577757 -0.051886 -0.002869
0.518303 -0.053352 0.010733
0.585640 -0.015428 0.011088
0.586090 0.027409 0.060615
0.536070 0.090487 0.050364
0.547773 -0.072218 -0.001233
0.515083 0.052951 0.069005
0.509633 0.080829 0.040614
0.508670 -0.003039 0.050456
0.523942 -0.061767 0.022843
0.535500 -0.048568 0.056271
0.527940 -0.003203 0.072888
0.527171 -0.061696 0.032252
0.550900 0.035773 0.018287
0.584231 -0.001753 0.016842
0.563952 0.060937 0.070668
0.538296 0.061568 0.079417
0.549646 -0.039463 0.066731
0.548743 0.005790 0.081212
0.557838 0.036477 0.021597
0.586112 -0.026565 0.007262
0.531415 -0.059747 0.041731
0.563618 0.065324 0.061200
0.586046 -0.058682 0.016835
0.570662 -0.048287 0.056142
0.528617 -0.027631 0.065098
0.589166 -0.048740 0.015346
0.574863 -0.053768 -0.004575
0.590711 -0.021762 0.017383
0.572689 0.051447 0.065609
0.534555 -0.019618 0.071760
0.554966 -0.050053 -0.011938
0.508102 0.075800 0.040749
0.510074 0.075714 0.037846
0.592218 -0.034883 0.033026
0.558622 -0.017068 0.075599
0.506374 0.012058 0.048661
0.591289 -0.040480 0.020829
0.539501 -0.003016 0.078222
0.549452 -0.072822 0.036145
0.523392 -0.049110 -0.001692
0.530320 -0.043351 0.057126
0.505501 -0.018690 0.018380
0.570276 -0.024780 0.069459
0.575088 0.023144 0.074328
0.575631 0.048194 0.062318
0.543962 -0.035579 -0.012144
0.580466 -0.052556 0.043894
0.568654 -0.048929 -0.009149
0.558355 -0.064656 -0.007175
0.581147 -0.059470 0.004344
0.584940 -0.059539 0.012647
0.582729 -0.035269 0.054805
0.541003 0.082636 0.069923
0.582822 -0.032328 0.056517
0.592876 0.003173 0.047227
0.558316 0.015200 0.008617
0.556885 0.072852 0.056537
0.529593 -0.068545 0.014684
0.509956 0.029710 0.024588
0.520897 0.042170 0.073949
0.573797 -0.066727 0.001379
0.590903 -0.016512 0.051730
0.531885 0.039074 0.080149
0.574311 -0.002969 0.006003
0.524096 0.037929 0.076061
0.570061 0.056732 0.059530
0.530851 0.078869 0.034645
0.576018 0.028167 0.028053
0.548460 0.065394 0.036268
0.557350 -0.045519 -0.012244
0.589203 0.021676 0.051521
0.540162 0.033568 0.082615
0.567518 0.056943 0.069179
0.585614 -0.023937 0.007488
0.539095 -0.047228 0.059455
0.592942 0.002185 0.039341
0.534919 -0.070278 0.006172
0.553930 0.047561 0.080791
0.535550 -0.065813 0.037357
0.594398 -0.011377 0.039113
0.571029 -0.041553 -0.008650
0.563915 0.051426 0.036189
0.553531 -0.079277 0.007609
0.524168 -0.024858 0.062855
0.522294 -0.040504 -0.003421
0.505375 -0.020947 0.020362
0.516617 0.006441 0.007428
0.530039 -0.061029 0.038251
0.582092 -0.029536 0.058870
0.591090 0.000021 0.054820
0.506452 0.034452 0.051548
0.518061 -0.037802 0.048905
0.529254 -0.050341 0.050219
0.588627 -0.045328 0.035156
0.557677 -0.028698 -0.010904
0.555038 -0.069798 0.041131
0.537378 0.012629 0.004267
0.568706 0.026364 0.020240
0.584895 -0.046684 0.003669
0.520934 -0.007540 0.000206
0.515100 -0.032281 0.001671
0.518941 -0.033343 0.053086
0.536818 -0.039673 0.063664
0.508881 -0.032757 0.013330
0.516591 0.009416 0.065210
0.534341 -0.027633 0.068462
0.548548 -0.023756 0.074025
0.505678 0.032959 0.047774
0.551468 0.015539 0.006768
0.577851 0.044722 0.061745
0.521726 -0.046882 0.045853
0.505090 0.026601 0.043537
0.547506 -0.063742 -0.007405
0.508488 -0.003559 0.011799
0.516976 0.016328 0.067053
0.577542 0.030727 0.032212
0.538410 -0.048728 0.057825
0.589334 -0.034983 0.010931
0.570329 -0.032990 -0.008101
0.513081 0.023692 0.063347
0.542614 -0.057443 0.051760
0.572057 0.039992 0.033706
0.566816 -0.051946 -0.009271
0.543662 -0.077133 0.010581
0.592552 -0.008927 0.048682
0.540163 0.042532 0.019707
0.553068 -0.042302 -0.012663
0.537816 0.064626 0.030586
0.539572 0.080030 0.071904
0.574792 0.049622 0.061909
0.526408 0.092359 0.044334
0.583365 -0.000543 0.016483
0.550184 -0.080359 0.014461
0.561901 -0.076952 0.029536
0.554424 -0.080538 0.011442
0.530196 -0.043758 -0.007961
0.531678 -0.070349 0.016455
0.570627 -0.007487 0.074015
0.563297 0.019051 0.012707
0.526091 0.092467 0.057353
0.527696 -0.013552 0.069895
0.508597 0.053119 0.059263
0.504976 -0.009632 0.018437
0.521688 -0.034683 0.055376
0.541536 -0.070459 0.035428
0.524889 -0.034019 -0.005928
0.540809 0.065921 0.078297
0.571567 0.028087 0.023571
0.529272 -0.029509 0.064695
0.588687 -0.051599 0.023379
0.551904 0.052870 0.080339
0.511839 -0.042785 0.016215
0.513193 -0.033268 0.004247
0.573625 -0.054336 0.049127
0.526518 0.062638 0.027765
0.577731 -0.033073 -0.003418
0.535204 -0.068228 0.032886
0.506931 -0.024699 0.035200
0.531632 0.023876 0.079311
0.530181 -0.068426 0.021801
0.512751 0.013867 0.060979
0.564924 -0.075466 0.030597
0.564532 0.060185 0.047343
0.513044 -0.041142 0.034422
0.535033 -0.066169 0.036234
0.594156 -0.024208 0.033624
0.550961 0.061171 0.034836
0.504966 0.010537 0.044291
0.545716 0.082714 0.049359
0.588821 -0.040041 0.009621
0.503157 -0.000794 0.034695
0.524477 0.079866 0.033617
0.554494 -0.067193 0.044463
0.581131 0.031224 0.038761
0.590890 -0.003577 0.026554
0.510693 0.009275 0.056840
0.527487 -0.030650 -0.007315
0.518946 -0.050539 0.005232
0.504845 -0.019040 0.031301
0.571750 0.041626 0.073320
0.559114 0.005218 0.003471
0.566981 0.030787 0.022280
0.571073 -0.009917 0.000545
0.570397 -0.043338 -0.008929
0.566063 -0.042215 0.062620
0.567411 -0.029899 -0.008679
0.559091 -0.024430 0.073188
0.546042 -0.073389 0.000996
0.544834 0.042455 0.082773
0.580264 -0.016445 0.065880
0.565247 0.020581 0.079406
0.538577 -0.052829 0.054157
0.541348 -0.032482 0.068985
0.520177 -0.012966 -0.000798
0.540517 0.083069 0.069684
0.554705 -0.025109 -0.010417
0.542319 -0.076862 0.021821
0.583476 -0.062963 0.023807
0.554340 0.045263 0.081065
0.549230 -0.006097 0.078990
0.512030 0.046550 0.029284
0.533910 0.019435 0.007856
0.552987 -0.029812 -0.011628
0.513079 0.082052 0.037636
0.560340 -0.044388 -0.011933
0.511084 -0.022845 0.046938
0.525400 0.077624 0.071552
0.526169 0.092290 0.057871
0.575952 -0.019955 -0.000877
0.512870 -0.012534 0.004796
0.560923 0.036419 0.023000
0.570735 -0.045925 0.057816
0.507121 0.037120 0.034148
0.550088 -0.043986 0.064267
0.534297 0.013910 0.079329
0.542970 -0.028038 -0.011149
0.556776 -0.006777 0.078321
0.581508 0.018095 0.069740
0.588185 -0.048486 0.032571
0.564994 0.001914 0.003860
0.591377 0.009345 0.040156
0.511206 0.058878 0.033155
0.587817 0.014906 0.035874
0.562058 0.033923 0.021824
0.594112 -0.006954 0.037639
0.546367 -0.013316 0.077160
0.594160 -0.021788 0.030136
0.514632 0.064527 0.068092
0.548540 -0.074661 0.001314
0.509009 0.013957 0.054812
0.548413 -0.016855 -0.008409
0.538723 -0.008357 -0.005126
0.536208 0.090718 0.057234
0.540891 0.041302 0.019141
0.515746 0.045659 0.025626
0.524386 0.000233 0.001335
0.545091 -0.068292 -0.003724
0.564974 -0.008534 0.076028
0.569770 -0.062924 0.043867
0.557843 -0.054209 0.056982
0.572939 -0.065314 0.038765
0.525151 -0.039619 -0.005640
0.509870 0.072759 0.060654
0.508903 0.006330 0.014239
0.543551 -0.041742 0.064682
0.571806 0.050924 0.047140
0.549266 -0.005147 0.079183
0.514743 -0.048238 0.023839
0.535819 -0.015960 0.073594
0.572057 -0.020447 0.070118
0.574856 -0.005834 0.072093
0.542924 0.086466 0.059926
0.520370 0.015728 0.009361
0.542371 0.073539 0.075195
0.586409 -0.007547 0.061774
0.566289 -0.069177 -0.002044
0.518181 0.006404 0.066452
0.539620 -0.042016 0.063384
0.505844 0.051789 0.045180
0.524991 -0.021698 0.064891
0.522406 0.017161 0.009201
0.584058 0.012008 0.067276
0.569322 0.041749 0.074950
0.547508 0.082523 0.062998
0.525505 -0.061571 0.028498
0.546205 -0.028368 -0.011434
0.506565 -0.025660 0.017616
0.575449 0.048916 0.060343
0.540056 -0.037334 -0.011607
0.523647 0.029162 0.075120
0.511251 -0.022539 0.005741
0.539818 -0.057676 -0.008144
0.507420 0.077413 0.054096
0.565542 -0.078526 0.023045
0.590053 -0.046773 0.023157
0.552055 0.078471 0.058805
0.579946 0.033848 0.039450
0.571690 -0.025450 -0.005494
0.582079 -0.025169 0.002744
0.572097 -0.010272 0.072749
0.543077 0.050868 0.024727
0.570285 -0.056508 0.049671
0.523251 -0.030568 0.059285
0.578690 0.031180 0.070595
0.513211 -0.012194 0.004521
0.565119 -0.061510 0.047959
0.536034 -0.067778 0.001151
0.511181 -0.028048 0.006197
0.525948 0.013513 0.006403
0.519475 0.026231 0.014703
0.555786 -0.049501 0.060749
0.587608 0.025832 0.051029
0.542004 0.061968 0.030650
0.563232 0.038720 0.025820
0.590816 -0.027237 0.047072
0.549663 0.006885 0.081419
0.521293 0.015237 0.008747
0.519844 0.044616 0.073206
0.532656 -0.068772 0.027443
0.572359 -0.071022 0.031666
0.505973 0.041827 0.040589
0.551419 0.019927 0.082933
0.519015 0.043974 0.072470
0.544981 -0.075899 0.005790
0.569706 -0.076233 0.009977
0.591064 -0.034642 0.016237
0.520695 -0.053017 0.034795
0.543903 0.022983 0.082920
0.530819 -0.000441 -0.000754
0.535540 0.059466 0.027430
0.535356 -0.068458 0.002639
0.545934 0.078994 0.044717
0.546405 -0.062164 -0.007948
0.574501 -0.012052 0.071051
0.584112 0.025674 0.038811
0.569757 0.056671 0.063702
0.530504 0.036547 0.079542
0.543441 0.009687 0.002745
0.563319 -0.027665 0.070959
0.552811 -0.080740 0.013353
0.507202 -0.019859 0.040122
0.586784 -0.011010 0.060408
0.589195 -0.040035 0.039715
0.590939 -0.011279 0.052821
0.532068 -0.056020 0.046695
0.556215 -0.061296 0.050904
0.560027 -0.035037 -0.011616
0.537159 0.083139 0.070067
0.505009 -0.017818 0.020281
0.529517 0.093118 0.053741
0.560853 0.021975 0.081044
0.507638 0.034362 0.031472
0.517758 0.029576 0.069985
0.584919 -0.019213 0.060365
0.512947 -0.010362 0.005137
0.579658 -0.013749 0.067117
0.565505 -0.066186 0.042782
0.507091 0.010494 0.018684
0.553930 -0.080842 0.013232
0.593669 -0.017548 0.027421
0.509731 0.001191 0.011465
0.551958 -0.076557 0.002665
0.587196 -0.013120 0.014520
0.579385 -0.049051 0.048215
0.541388 -0.028109 0.071001
0.513023 0.086304 0.057685
0.569294 0.056848 0.053598
0.550513 -0.063846 0.047932
0.503641 0.010416 0.037337
0.508869 0.063447 0.037065
0.549534 0.003854 0.080885
0.543472 0.068607 0.035427
0.569945 -0.057407 0.049091
0.514121 0.041623 0.067128
0.585460 0.011416 0.028185
0.507686 -0.020282 0.041124
0.505784 -0.018629 0.036554
0.535116 -0.062869 -0.002979
0.557217 0.068623 0.047441
0.508708 0.047198 0.034163
0.568735 0.030314 0.023072
0.588655 -0.027779 0.011107
0.582535 0.002816 0.017603
0.578073 -0.033213 -0.003172
0.511040 0.033463 0.025075
0.564641 0.052381 0.074729
0.554951 0.071324 0.047683
0.528664 -0.064895 0.028336
0.526835 0.092947 0.046311
0.593220 -0.027657 0.025604
0.544457 -0.016764 0.075923
0.507588 0.080655 0.052020
0.539992 0.048754 0.081774
0.507725 0.061088 0.038924
0.504053 0.007062 0.024991
0.547501 -0.031373 -0.011960
0.553120 -0.049216 0.061117
0.517631 -0.045904 0.039723
0.503238 0.007443 0.031490
0.589866 -0.043151 0.013825
0.574042 -0.013658 0.000509
0.591620 0.012738 0.048657
0.588243 -0.027350 0.010447
0.584424 -0.028880 0.056630
0.575652 -0.013243 0.001822
0.592911 -0.016407 0.024994
0.546638 -0.073013 0.000198
0.570509 -0.050180 -0.008070
0.543426 0.075021 0.039508
0.541362 0.013465 0.081493
0.531085 0.076820 0.033918
0.519379 -0.019978 0.060175
0.519465 0.035362 0.072265
0.545868 0.074979 0.041325
0.563298 -0.079918 0.019918
0.505922 0.028249 0.033630
0.573793 0.009988 0.013156
0.507996 0.030612 0.028655
0.542597 -0.056084 0.053101
0.531857 -0.000663 0.075701
0.519723 0.077864 0.068834
0.507859 0.068555 0.039578
0.573274 0.021980 0.020649
0.506132 0.071887 0.051085
0.540485 0.036118 0.016315
0.543668 -0.011245 -0.006509
0.592482 0.001085 0.050019
0.531419 -0.063955 0.035370
0.556221 0.022908 0.082359
0.562976 0.033188 0.021771
0.538477 -0.030811 -0.010900
0.513081 0.005184 0.059652
0.573162 -0.007483 0.002905
0.594220 -0.016835 0.040749
0.529299 0.046811 0.078950
0.506802 0.074627 0.043640
0.527849 0.079414 0.071387
0.585719 -0.028922 0.054970
0.592810 -0.023839 0.043603
0.532901 0.017050 0.079148
0.528821 -0.053021 0.047175
0.566331 -0.057296 0.051317
0.529592 -0.017471 0.069814
0.529282 0.051610 0.078697
0.537505 0.042154 0.081834
0.526284 0.091471 0.059846
0.508611 0.064323 0.037615
0.542015 0.086474 0.050101
0.575217 -0.010323 0.071009
0.512577 0.045101 0.065425
0.513528 0.077494 0.063951
0.542144 -0.048889 -0.011211
0.513590 -0.002578 0.006507
0.571694 -0.065594 -0.001151
0.557454 -0.025935 -0.010247
0.588992 0.021178 0.047594
0.535219 -0.067864 0.033575
0.565296 -0.036752 -0.010608
0.507132 0.009850 0.050186
0.586450 -0.017811 0.011151
0.524525 0.014748 0.073952
0.573743 0.047964 0.046433
0.513741 -0.042917 0.008831
0.529284 0.055915 0.025257
0.591974 -0.008687 0.050530
0.520154 -0.032798 0.054831
0.556885 0.027682 0.082166
0.550633 -0.045365 0.063495
0.542609 -0.068597 0.038947
0.554219 -0.068187 0.043200
0.557519 -0.005194 0.078522
0.532206 0.001240 0.076256
0.564002 -0.076454 0.029419
0.543458 0.007792 0.081030
0.541942 0.024934 0.010440
0.514099 0.035648 0.022859
0.593394 -0.027613 0.026888
0.577282 -0.020169 0.000074
0.579397 0.027700 0.032231
0.503459 -0.010022 0.026882
0.542407 0.030064 0.013204
0.579871 -0.050281 -0.001383
0.518147 0.020356 0.012583
0.552788 0.065738 0.039492
0.503784 0.004762 0.025086
0.520916 -0.045684 0.045987
0.569374 0.057405 0.062919
0.537320 -0.068773 0.034399
0.582252 -0.063380 0.027571
0.578499 0.043355 0.062431
0.571796 -0.059240 -0.004450
0.589691 0.019749 0.049030
0.583724 -0.035723 0.053340
0.534883 -0.057274 -0.006300
0.505277 0.026791 0.045282
0.548234 -0.078720 0.024200
0.582172 -0.037876 0.053723
0.537931 -0.051925 0.054642
0.571336 0.001230 0.006334
0.576122 0.003099 0.072642
0.554743 -0.067008 -0.006379
0.588133 -0.046009 0.009478
0.578983 0.029654 0.033399
0.529226 -0.059298 0.039837
0.580958 0.038424 0.049291
0.519950 0.059098 0.073148
0.511691 0.030861 0.022915
0.589482 0.010705 0.059582
0.503781 -0.012804 0.025688
0.586521 0.026291 0.060348
0.517456 -0.027843 0.054301
0.586436 -0.015719 0.012091
0.512324 0.035549 0.024567
0.586361 -0.011824 0.060765
0.546575 0.048013 0.024216
0.582494 0.020334 0.030723
0.556055 0.018508 0.082216
0.594497 -0.020244 0.034884
0.526944 0.058428 0.026229
0.519157 0.092258 0.045392
0.507121 -0.001635 0.047836
0.511006 0.052408 0.032027
0.576616 -0.052371 0.048216
0.537605 -0.038596 0.064615
0.580328 -0.067730 0.015535
0.554134 -0.078492 0.005643
0.526893 0.072481 0.074025
0.552235 -0.014907 0.076892
0.582826 -0.038824 0.000567
0.528264 0.055748 0.077962
0.585631 0.006042 0.065166
0.553603 -0.074388 -0.000574
0.548728 0.044574 0.022949
0.506289 0.059341 0.052582
0.565963 -0.075374 0.030104
0.506014 0.047342 0.050250
0.589138 0.021366 0.049190
0.594035 -0.008637 0.033733
0.566803 -0.049914 0.057084
0.590641 0.004823 0.056822
0.559303 -0.039947 0.065933
0.510945 0.058821 0.063779
0.551243 -0.019230 -0.009013
0.589227 0.015476 0.059306
0.505797 0.056978 0.047824
0.577426 0.030353 0.031710
0.542642 -0.075352 0.027079
0.540226 -0.060865 0.046926
0.527588 -0.041459 -0.006901
0.544692 -0.032532 -0.011938
0.525637 0.033255 0.015938
0.588032 -0.013429 0.057909
0.554497 -0.078743 0.006138
0.524763 0.018543 0.074686
0.561644 -0.028790 -0.010165
0.530484 -0.064983 0.003067
0.572630 -0.013849 -0.000438
0.587098 0.017434 0.036767
0.508989 0.040888 0.058996
0.527772 -0.065463 0.024303
0.514548 0.023842 0.016611
0.503988 -0.011828 0.023149
0.509927 0.041167 0.060839
0.540804 -0.027784 0.070969
0.540989 0.022237 0.009001
0.585420 0.011743 0.065798
0.586335 -0.053091 0.009197
0.541444 -0.017729 0.074969
0.556528 -0.011864 0.077253
0.548249 -0.067782 -0.005158
0.533127 -0.070394 0.023750
0.555834 0.068658 0.073273
0.565535 -0.052598 -0.009560
0.550161 0.075918 0.046592
0.509001 0.027236 0.024722
0.507869 -0.029742 0.014873
0.576575 0.047152 0.060412
0.586958 0.002295 0.063025
0.580528 0.016410 0.024609
0.571042 0.001427 0.006267
0.572791 0.042831 0.072048
0.541917 0.027382 0.082838
0.559853 0.019531 0.011651
0.528380 -0.045993 0.053416
0.549044 0.012489 0.082293
0.574749 -0.072588 0.010887
0.577699 0.033248 0.034811
0.579801 0.028246 0.033367
0.557679 0.031733 0.081713
0.578399 -0.063391 0.035056
0.533060 0.035840 0.016156
0.559870 0.063381 0.044239
0.544519 0.005110 0.000545
0.587946 0.002718 0.025518
0.504836 -0.006151 0.018902
0.530888 -0.069091 0.021642
0.570181 0.051773 0.044888
0.512783 -0.038502 0.007240
0.545747 -0.050390 0.059423
0.547473 0.013039 0.004753
0.577833 0.023542 0.072446
0.570351 0.012591 0.076766
0.506532 0.024873 0.050783
0.591481 -0.021878 0.048505
0.552061 0.058547 0.078926
0.527849 0.007028 0.074975
0.560691 -0.041249 -0.011923
0.594549 -0.016321 0.033375
0.509267 0.084556 0.045343
0.513376 -0.020645 0.003257
0.581047 -0.052183 0.043487
0.584866 -0.042662 0.046411
0.519069 -0.035842 0.051660
0.569638 0.016993 0.014596
0.573226 0.051185 0.052398
0.538956 -0.002145 0.078242
0.515564 0.040023 0.068719
0.533696 0.002458 0.077175
0.588543 -0.037655 0.043872
0.528102 -0.059984 0.037140
0.588958 0.015668 0.059882
0.542347 -0.015446 0.075909
0.516973 0.005178 0.006718
0.552982 0.040366 0.022037
0.576165 0.040460 0.040176
0.580826 -0.027845 0.000617
0.546127 0.081304 0.068763
0.524576 -0.024531 -0.005313
0.590711 0.010701 0.056446
0.555886 0.071302 0.070869
0.531831 -0.070356 0.018678
0.508633 0.083467 0.052011
0.563895 0.021420 0.079955
0.531107 0.063223 0.028342
0.544928 -0.054804 0.055310
0.506849 0.044839 0.037915
0.583473 0.034608 0.051024
0.543290 -0.068746 0.039140
0.517072 -0.050526 0.028785
0.506643 0.008809 0.018757
0.503775 0.006576 0.039282
0.564745 0.030033 0.079240
0.589825 -0.001275 0.057604
0.534456 -0.017571 -0.007482
0.528056 -0.057605 0.040792
0.584330 -0.019156 0.007677
0.555247 0.074855 0.057438
0.544736 -0.050807 0.058783
0.530939 -0.030495 -0.008773
0.583063 0.035661 0.052050
0.558455 0.013973 0.081346
0.519287 0.051158 0.025378
0.551203 -0.076305 0.031060
0.574902 0.044917 0.043926
0.514658 0.055112 0.068578
0.584408 0.025223 0.065496
0.591837 0.005546 0.053085
0.560168 -0.040460 -0.011990
0.530280 0.011147 0.004377
0.575820 -0.049590 -0.004967
0.519513 -0.055990 0.012347
0.590785 -0.040732 0.016924
0.567353 0.051547 0.039909
0.506921 0.028874 0.052431
0.509075 0.070522 0.037866
0.591819 -0.005226 0.051541
0.559739 -0.080423 0.021635
0.531191 0.083246 0.036795
0.531137 -0.008258 0.073570
0.515809 0.036645 0.021919
0.522480 -0.056008 0.033252
0.581117 -0.049230 -0.000378
0.532581 0.007951 0.002555
0.591613 -0.031081 0.018275
0.576432 0.047551 0.058229
0.551434 0.047799 0.081393
0.567136 0.040902 0.029932
0.527915 0.062683 0.027830
0.519098 -0.052052 0.006504
0.555149 0.035816 0.082075
0.517530 0.049435 0.071383
0.555636 -0.067195 -0.006232
0.584991 -0.058538 0.011190
0.570761 0.055070 0.064065
0.590713 0.013055 0.055660
0.577367 -0.034508 0.060438
0.536974 0.087957 0.045118
0.512442 -0.044460 0.019374
0.582500 -0.012477 0.064975
0.524743 0.075580 0.032212
0.590637 0.016060 0.046777
0.523808 -0.061623 0.010356
0.551909 0.025790 0.083131
0.511440 -0.042010 0.023900
0.551259 0.037022 0.082781
0.522416 -0.009361 -0.001054
0.534056 0.069658 0.076592
0.589394 0.009705 0.059811
0.583315 -0.034258 0.001715
0.535246 0.077399 0.035973
0.521040 0.091560 0.056838
0.532028 0.087589 0.066560
0.593769 -0.026475 0.029803
0.517233 -0.039108 0.001049
0.533398 -0.062780 -0.001884
0.578202 -0.070359 0.019289
0.538758 -0.046497 0.059881
0.511242 -0.026009 0.045402
0.514044 -0.047406 0.017407
0.550851 0.029999 0.014742
0.512329 -0.040368 0.033241
0.536249 -0.029658 -0.010285
0.507179 -0.023983 0.014267
0.545952 -0.001201 0.079763
0.528724 -0.009942 0.071676
0.524917 0.003824 0.072313
0.552747 -0.079059 0.026022
0.571212 0.000900 0.006082
0.508684 -0.022961 0.041798
0.575920 0.008731 0.014213
0.508546 0.069033 0.038418
0.586313 -0.021879 0.009251
0.508462 0.026892 0.055950
0.564634 0.061831 0.050980
0.511019 -0.026338 0.006243
0.510492 -0.027152 0.043072
0.567418 0.023495 0.017517
0.513683 -0.030763 0.003075
0.548714 -0.078888 0.024123
0.549554 -0.072723 -0.001409
0.556735 0.073498 0.062467
0.541808 -0.036397 0.067155
0.544210 -0.076790 0.025256
0.585289 0.004260 0.065341
0.576000 -0.044408 0.055138
0.512228 0.065628 0.033438
0.590719 -0.040684 0.016534
0.518335 0.087634 0.038431
0.505777 0.047714 0.048108
0.563326 0.064605 0.066766
0.506211 -0.021271 0.035855
0.586759 -0.048387 0.037067
0.515214 0.091014 0.049649
0.518151 -0.022554 0.057692
0.588930 0.005172 0.060427
0.538637 -0.046395 -0.010768
0.514381 0.064228 0.031476
0.581777 -0.021611 0.003712
0.587308 0.021017 0.041087
0.533668 0.087091 0.067051
0.559893 0.069397 0.065422
0.586858 -0.033308 0.050571
0.579304 -0.002233 0.010859
0.572253 -0.007808 0.073165
0.556223 -0.067906 -0.005773
0.510685 0.066054 0.062932
0.559229 0.043279 0.079690
0.561452 0.046931 0.030819
0.518792 -0.051090 0.006098
0.529337 -0.028116 -0.007921
0.575526 -0.019765 -0.001108
0.506561 0.020671 0.050293
0.514613 -0.048524 0.020127
0.507557 -0.028300 0.033420
0.574516 -0.067654 0.034270
0.563859 -0.019681 -0.006520
0.594466 -0.011839 0.038313
0.574048 0.008977 0.012733
0.520306 0.026994 0.072165
0.592440 -0.006879 0.049260
0.529275 0.060332 0.077748
0.539748 0.077685 0.073248
0.531338 0.028806 0.079569
0.509531 -0.030755 0.037493
0.519546 -0.031355 -0.002434
0.531089 -0.031244 -0.008886
0.560866 0.018186 0.080945
0.506724 0.024875 0.028291
0.583111 0.024501 0.035557
0.593656 -0.002949 0.041903
0.562183 -0.007980 -0.001997
0.565436 -0.069431 0.038887
0.525447 -0.000577 0.000657
0.520209 0.083914 0.066076
0.520390 -0.000907 0.002620
0.509691 0.084791 0.053371
0.559111 0.003093 0.002356
0.521828 -0.052873 0.037803
0.509376 -0.002122 0.051971
0.575638 0.022898 0.073983
0.529706 0.087843 0.039313
0.567184 -0.054338 0.053388
0.519861 0.091818 0.055308
0.580731 -0.036264 0.056325
0.527692 0.092358 0.058154
0.584799 -0.026249 0.005585
0.568244 -0.041931 0.061813
0.522367 -0.033027 0.057073
0.513082 -0.022379 0.003468
0.542301 -0.002499 0.078987
0.587507 -0.052329 0.029296
0.548679 0.073987 0.042972
0.503783 0.011123 0.038286
0.579386 -0.068965 0.016232
0.532138 -0.069655 0.023526
0.537925 0.036173 0.082101
0.533495 0.079311 0.072250
0.515995 -0.045023 0.036892
0.510796 0.056448 0.063542
0.590642 -0.040827 0.032793
0.532590 -0.068278 0.005530
0.587119 -0.003140 0.061778
0.504911 0.005747 0.043782
0.514731 0.001108 0.006790
0.561972 -0.070072 0.039533
0.583617 0.027847 0.040218
0.545875 -0.079018 0.015611
0.543268 0.079119 0.072005
0.590382 0.015997 0.045007
0.511068 0.054030 0.063862
0.574246 0.050679 0.060611
0.509185 -0.020440 0.044447
0.552629 0.019957 0.082825
0.519008 0.019172 0.011580
0.526221 0.033607 0.015972
0.591383 0.001116 0.054211
0.512225 -0.043185 0.014797
0.586820 0.006644 0.063775
0.572882 0.043175 0.037962
0.525399 0.016962 0.074914
0.506513 -0.014643 0.014348
0.508081 -0.033718 0.024322
0.540148 -0.075822 0.020987
0.515772 0.076612 0.034015
0.506576 0.053672 0.053579
0.523884 -0.004386 -0.000135
0.508436 0.080859 0.054691
0.504729 -0.019026 0.030298
0.537424 0.085136 0.068514
0.529106 0.033685 0.015490
0.577380 0.001330 0.071614
0.549097 0.000267 -0.001393
0.579139 -0.039235 -0.003068
0.516517 -0.031893 0.000163
0.588873 -0.013900 0.056401
0.563778 0.065033 0.062556
0.554855 0.063258 0.039052
0.516859 -0.030670 0.051927
0.573783 0.018725 0.075183
0.535303 0.062728 0.078778
0.513835 -0.047114 0.019078
0.504387 0.017942 0.033546
0.519144 -0.019988 -0.001485
0.532044 0.091862 0.059017
0.563296 0.043693 0.077830
0.563649 0.004545 0.004736
0.535414 0.080919 0.037860
0.551750 0.052848 0.080383
0.516095 -0.051104 0.019869
0.576054 -0.017946 0.068565
0.516931 -0.030873 0.051908
0.506805 0.026600 0.051809
0.529523 0.023720 0.010508
0.505645 0.014607 0.046844
0.586589 -0.057634 0.020347
0.514470 -0.043431 0.007676
0.557061 0.056932 0.077527
0.511275 -0.007884 0.007379
0.568757 0.055069 0.069048
0.509674 -0.038313 0.020297
0.549176 0.010725 0.003806
0.505217 0.007166 0.021220
0.577634 -0.052721 -0.002729
0.581355 -0.030669 0.000395
0.555107 -0.033575 0.069759
0.543737 -0.016670 -0.008360
0.583950 0.026844 0.039789
0.525320 -0.061628 0.027829
0.581301 -0.018928 0.064203
0.585181 -0.047491 0.041397
0.520971 -0.044855 0.046905
0.515135 0.045267 0.025957
0.584823 -0.054163 0.034911
0.584779 -0.000735 0.065127
0.505876 -0.012554 0.040866
0.521668 0.043546 0.074598
0.519215 -0.021069 0.059552
0.539257 -0.010442 0.076478
0.544473 -0.069938 -0.001998
0.542400 -0.013664 0.076437
0.541122 -0.017052 -0.008313
0.562401 -0.019505 -0.006916
0.557547 -0.052651 -0.011255
0.549547 0.012107 0.004586
0.593389 -0.010257 0.045458
0.527259 -0.062381 0.030946
0.515764 -0.004488 0.060978
0.530551 -0.026190 -0.008149
0.572276 -0.063094 -0.002244
0.546046 0.074797 0.041329
0.594359 -0.011663 0.033863
0.521832 -0.040421 0.051687
0.503347 0.002796 0.026706
0.540180 0.088442 0.058382
0.523481 0.016478 0.008509
0.553641 0.060034 0.078015
0.517275 0.005519 0.065209
0.587227 0.003956 0.025218
0.531365 0.012139 0.077763
0.557057 -0.053039 0.058054
0.590838 -0.026951 0.047212
0.533269 -0.026179 0.068536
0.588581 0.014113 0.061048
0.566302 -0.026585 0.070414
0.593143 -0.026318 0.024696
0.507691 0.007076 0.050914
0.593194 0.001237 0.040448
0.555917 0.067860 0.073733
0.560193 -0.080723 0.019231
0.519919 0.066948 0.072106
0.583521 -0.045987 0.001713
0.522418 -0.056385 0.032287
0.511375 -0.039332 0.031499
0.573410 0.044585 0.040487
0.505572 0.000892 0.044912
0.507693 -0.019426 0.041676
0.518255 0.077412 0.068037
0.503051 0.003925 0.033452
0.557434 -0.054186 -0.010924
0.535926 0.035659 0.081557
0.536430 0.089227 0.063409
0.550968 -0.062811 -0.008343
0.521953 -0.038772 -0.003478
0.537989 0.053171 0.080948
0.527766 -0.052511 -0.004016
0.506818 0.000131 0.047652
0.538639 0.072397 0.075844
0.591338 -0.012285 0.051672
0.563844 0.033473 0.079263
0.570846 -0.037334 0.063209
0.546978 0.010164 0.003229
0.586613 -0.026919 0.007887
0.530609 0.089867 0.063759
0.526739 -0.018281 -0.005242
0.566200 -0.055284 -0.008593
0.559186 0.028270 0.081468
0.564702 0.022965 0.015754
0.556111 0.025183 0.013603
0.521201 0.045139 0.074295
0.519276 -0.056246 0.017986
0.505168 0.026254 0.036798
0.508000 -0.029602 0.033517
0.580490 -0.067104 0.023750
0.561813 0.036081 0.023200
0.561934 -0.018206 -0.006547
0.575753 0.036039 0.034661
0.573904 0.026383 0.074852
0.503389 -0.006962 0.025673
0.503258 -0.001331 0.026228
0.555657 0.060640 0.077047
0.559718 0.018590 0.011054
0.507816 0.051356 0.057318
0.520467 0.040758 0.073534
0.510306 0.076941 0.037978
0.568065 0.056293 0.068937
0.579854 0.010721 0.019674
0.588460 0.018995 0.041930
0.566326 -0.069963 0.037785
0.560047 -0.074588 0.033927
0.586842 -0.026414 0.008395
0.519570 0.091867 0.043827
0.570601 0.024194 0.076862
0.593297 -0.006863 0.045767
0.512752 0.014315 0.061072
0.577090 -0.057196 -0.001473
0.547772 0.080389 0.049151
0.531076 -0.060122 -0.002231
0.530713 -0.012917 0.072011
0.517684 -0.052666 0.011669
0.525223 -0.033222 -0.006143
0.554007 0.040190 0.022368
0.543858 -0.075523 0.028015
0.548118 -0.079873 0.017642
0.555050 0.049399 0.029001
0.583872 0.000699 0.066287
0.531487 -0.057809 0.044227
0.554057 -0.055114 -0.010975
0.584741 -0.061489 0.018417
0.586498 -0.005958 0.062007
0.587530 0.005656 0.027095
0.593791 -0.005376 0.035549
0.564120 -0.034014 0.067846
0.589524 -0.047410 0.027478
0.550861 -0.076188 0.031156
0.591105 0.004075 0.033492
0.564500 -0.024186 0.071929
0.561003 0.007710 0.079953
0.570539 -0.063225 -0.003298
0.579581 0.026429 0.031382
0.558050 0.005555 0.003284
0.573142 -0.017343 -0.001669
0.536037 0.072639 0.075645
0.592829 -0.011112 0.047556
0.565243 -0.041740 0.063226
0.590532 -0.042880 0.017216
0.529597 -0.006398 0.073165
0.514889 -0.048352 0.024461
0.590574 0.002245 0.030441
0.545764 0.017788 0.007014
0.564771 0.050648 0.036243
0.538907 0.073842 0.036040
0.547674 0.036240 0.017591
0.520037 -0.041130 -0.001279
0.516187 -0.051035 0.021711
0.556741 -0.057620 0.054282
0.535894 -0.073447 0.016838
0.528054 0.051209 0.023450
0.505981 -0.006054 0.015869
0.551734 -0.039396 -0.012665
0.561765 -0.050913 0.058440
0.572491 -0.044103 0.057969
0.519227 0.089508 0.059503
0.528828 -0.059501 -0.000776
0.505176 -0.002383 0.018394
0.553848 -0.059582 0.052673
0.519795 -0.036839 0.051894
