ply
format ascii 1.0
element vertex 1024
property float x
property float y
property float z
end_header
0.517915 -0.014730 0.037967
0.512894 0.069636 0.047640
0.512679 0.074521 0.049334
0.576716 -0.040112 -0.008545
0.576847 0.074086 0.061293
0.524649 0.030856 0.013182
0.568973 -0.032551 -0.012105
0.586819 -0.002465 0.067033
0.529379 0.083755 0.032066
0.546710 0.042699 0.012682
0.602253 -0.014586 0.035912
0.584557 -0.056654 0.024732
0.576967 0.060836 0.073910
0.594735 0.046292 0.051848
0.603727 0.002052 0.032084
0.560595 0.042636 0.014088
0.522955 0.049329 0.023081
0.585959 -0.035461 -0.004697
0.527687 -0.039501 0.012911
0.593165 0.001338 0.008720
0.595098 0.044264 0.058135
0.541780 0.105067 0.051354
0.557076 -0.057084 -0.001044
0.523773 0.066689 0.071349
0.515190 0.094239 0.043415
0.518577 0.010431 0.053236
0.534499 -0.047633 0.024604
0.547711 -0.033866 0.057180
0.539314 0.011161 0.074306
0.538354 -0.047400 0.033772
0.556782 0.050985 0.018302
0.591551 0.014951 0.014567
0.572245 0.076812 0.069694
0.547239 0.076337 0.080166
0.562121 -0.024128 0.066662
0.560220 0.021074 0.081205
0.563891 0.051998 0.021133
0.593864 -0.009776 0.004863
0.543141 -0.045246 0.042942
0.571077 0.081159 0.060274
0.595857 -0.041844 0.014393
0.582737 -0.032046 0.054663
0.540531 -0.013232 0.066469
0.598430 -0.031778 0.012704
0.583042 -0.037472 -0.006204
0.598925 -0.004754 0.014651
0.581026 0.067702 0.064046
0.546551 -0.004952 0.072719
0.562546 -0.034649 -0.012195
0.513895 0.089148 0.043649
0.515666 0.089142 0.040619
0.602065 -0.017762 0.030145
0.570688 -0.001341 0.074917
0.515504 0.025409 0.051612
0.600556 -0.023421 0.018036
0.551192 0.011866 0.078843
0.561314 -0.057531 0.036134
0.531730 -0.035067 0.000172
0.542377 -0.028880 0.058388
0.513926 -0.005416 0.021437
0.582225 -0.008549 0.067993
0.585250 0.039551 0.072560
0.583877 0.064574 0.060560
0.550930 -0.020670 -0.011643
0.591864 -0.035908 0.041773
0.576330 -0.032920 -0.010342
0.566888 -0.049079 -0.007685
0.590161 -0.042874 0.002263
0.594508 -0.042758 0.010289
0.594102 -0.018514 0.052519
0.548369 0.097483 0.070527
0.594182 -0.015569 0.054223
0.602016 0.020318 0.044299
0.564420 0.030734 0.008134
0.563719 0.088375 0.056085
0.539875 -0.054175 0.016074
0.516666 0.043147 0.027365
0.530377 0.056184 0.075878
0.582951 -0.050452 -0.000201
0.601218 0.000575 0.048910
0.541885 0.053586 0.081315
0.580981 0.013278 0.004426
0.533894 0.052092 0.077765
0.577762 0.072854 0.058163
0.536020 0.093197 0.036017
0.582815 0.044507 0.026333
0.554272 0.080510 0.036429
0.564703 -0.030015 -0.012659
0.597835 0.038652 0.048846
0.550544 0.048454 0.083209
0.575873 0.072974 0.067963
0.593268 -0.007172 0.005123
0.551451 -0.032363 0.060113
0.601589 0.019317 0.036425
0.544682 -0.055693 0.007219
0.563529 0.063032 0.080464
0.547232 -0.051135 0.038293
0.603620 0.005831 0.036089
0.578407 -0.025445 -0.010000
0.570284 0.067232 0.035290
0.563725 -0.063864 0.007381
0.535823 -0.010661 0.064536
0.530141 -0.026521 -0.001472
0.514034 -0.007672 0.023421
0.523160 0.020155 0.009774
0.541591 -0.046595 0.039563
0.593491 -0.012806 0.056622
0.600889 0.017107 0.051992
0.514796 0.047791 0.054504
0.529356 -0.023891 0.051023
0.541152 -0.035926 0.051565
0.599088 -0.028349 0.032506
0.564382 -0.013193 -0.011332
0.567088 -0.054254 0.040731
0.543367 0.027239 0.005215
0.575075 0.042368 0.019033
0.593290 -0.029937 0.001345
0.527586 0.006360 0.002264
0.522955 -0.018610 0.004103
0.530322 -0.019388 0.055138
0.549136 -0.024906 0.064473
0.517569 -0.019332 0.016158
0.526927 0.023253 0.067427
0.546465 -0.012975 0.069437
0.560833 -0.008467 0.074026
0.513834 0.046257 0.050790
0.557454 0.030769 0.006755
0.586204 0.061201 0.059835
0.533201 -0.032809 0.047723
0.513239 0.039870 0.046598
0.556019 -0.048641 -0.007177
0.515794 0.009817 0.014680
0.527134 0.030180 0.069245
0.584504 0.047141 0.030381
0.550724 -0.033896 0.058532
0.597694 -0.018037 0.008298
0.577371 -0.016920 -0.009397
0.522676 0.037358 0.065818
0.554884 -0.042432 0.052189
0.578732 0.056160 0.032251
0.574621 -0.036014 -0.010341
0.553997 -0.062148 0.011019
0.602323 0.008219 0.045763
0.545880 0.057269 0.020452
0.560266 -0.026990 -0.012784
0.543311 0.079264 0.031483
0.547191 0.094821 0.072598
0.582951 0.065963 0.060210
0.531658 0.106501 0.045995
0.590611 0.016121 0.014268
0.560902 -0.065077 0.014445
0.573455 -0.061127 0.028691
0.564931 -0.065076 0.011145
0.537852 -0.029436 -0.006540
0.542153 -0.055882 0.017698
0.582126 0.008753 0.072528
0.569493 0.034808 0.011880
0.532221 0.106624 0.059006
0.539322 0.000804 0.071329
0.516640 0.066551 0.062070
0.513009 0.003611 0.021536
0.533274 -0.020602 0.057236
0.553272 -0.055519 0.035957
0.532273 -0.019935 -0.004144
0.549477 0.080794 0.078881
0.578077 0.044222 0.022164
0.541239 -0.015080 0.066021
0.598623 -0.034637 0.020748
0.561247 0.068246 0.080155
0.521154 -0.029215 0.018827
0.521273 -0.019674 0.006802
0.585478 -0.037975 0.047458
0.531946 0.076776 0.029434
0.585071 -0.016669 -0.005228
0.546689 -0.053573 0.033854
0.516758 -0.011319 0.038116
0.542242 0.038390 0.080484
0.540939 -0.054015 0.023135
0.522618 0.027523 0.063470
0.576475 -0.059507 0.029546
0.571272 0.076035 0.046383
0.523519 -0.027480 0.036912
0.546657 -0.051516 0.037207
0.603569 -0.007011 0.030619
0.556853 0.076397 0.034828
0.513872 0.023817 0.047347
0.551666 0.097722 0.049690
0.597316 -0.023115 0.007022
0.511913 0.012397 0.037887
0.529553 0.093911 0.035425
0.566658 -0.051667 0.044094
0.588504 0.047809 0.036671
0.598929 0.013442 0.023802
0.520487 0.022835 0.059476
0.534620 -0.016458 -0.005701
0.527832 -0.036674 0.007381
0.514165 -0.005765 0.034372
0.581044 0.057867 0.071796
0.565304 0.020786 0.002939
0.573300 0.046716 0.021189
0.577688 0.006182 -0.000805
0.577837 -0.027258 -0.010236
0.578326 -0.026167 0.061442
0.574288 -0.013962 -0.009774
0.571315 -0.008681 0.072473
0.555553 -0.058325 0.001297
0.554822 0.057537 0.083056
0.591571 0.000208 0.063750
0.575899 0.036571 0.078293
0.550821 -0.037993 0.054858
0.553697 -0.017512 0.069480
0.527002 0.000904 0.001310
0.547849 0.097894 0.070321
0.561295 -0.009736 -0.010641
0.553409 -0.061911 0.022324
0.593957 -0.046218 0.021521
0.564058 0.060754 0.080708
0.561076 0.009215 0.078946
0.518314 0.060072 0.031922
0.539856 0.033894 0.009036
0.559707 -0.014513 -0.011736
0.518369 0.095605 0.040211
0.567655 -0.028754 -0.012551
0.521612 -0.009259 0.049546
0.533147 0.091796 0.073208
0.532342 0.106452 0.059517
0.582895 -0.003636 -0.002563
0.520079 0.001028 0.007389
0.567065 0.052079 0.022323
0.582819 -0.029679 0.056330
0.514165 0.050448 0.037101
0.562593 -0.028632 0.064170
0.545338 0.028550 0.080313
0.549678 -0.013178 -0.010577
0.568582 0.008865 0.077765
0.591559 0.034778 0.067543
0.598610 -0.031530 0.029955
0.571336 0.017743 0.002924
0.599770 0.026402 0.037350
0.517214 0.072361 0.035849
0.595688 0.031793 0.033324
0.568225 0.049632 0.021071
0.603041 0.010234 0.034641
0.558414 0.001874 0.077309
0.603230 -0.004601 0.027141
0.522754 0.078232 0.070478
0.558120 -0.059486 0.001443
0.518465 0.027435 0.057571
0.554798 -0.001761 -0.008204
0.544991 0.006311 -0.004264
0.542374 0.105319 0.058199
0.546621 0.056071 0.019838
0.521808 0.059337 0.028019
0.530763 0.014279 0.003163
0.554061 -0.053284 -0.003343
0.576674 0.007463 0.074920
0.581655 -0.046736 0.042465
0.570276 -0.038522 0.056367
0.584573 -0.048996 0.037157
0.532799 -0.025516 -0.003879
0.517141 0.086231 0.063386
0.515939 0.019721 0.017094
0.556007 -0.026676 0.065029
0.578915 0.067100 0.045679
0.561083 0.010166 0.079137
0.524805 -0.034518 0.026233
0.547775 -0.001238 0.074466
0.583855 -0.004141 0.068532
0.586138 0.010585 0.070325
0.549437 0.101372 0.060425
0.526625 0.029601 0.011454
0.550489 0.088466 0.075686
0.597028 0.009357 0.059243
0.575343 -0.053236 -0.003108
0.528729 0.020316 0.068556
0.552013 -0.027125 0.064001
0.512998 0.065071 0.048205
0.536643 -0.007464 0.066514
0.528580 0.031122 0.011157
0.594200 0.028803 0.064906
0.578729 0.057887 0.073587
0.554387 0.097640 0.063176
0.536433 -0.047357 0.030139
0.552897 -0.013367 -0.011081
0.515241 -0.012334 0.020596
0.583530 0.065283 0.058603
0.547150 -0.022594 -0.010843
0.533768 0.043311 0.076849
0.518968 -0.009036 0.008434
0.548040 -0.042919 -0.007387
0.514050 0.090759 0.057013
0.576712 -0.062554 0.021967
0.599758 -0.029757 0.020437
0.558813 0.093781 0.058680
0.587255 0.050380 0.037441
0.578574 -0.009322 -0.006883
0.589477 -0.008568 0.000630
0.583627 0.006032 0.071163
0.548761 0.065736 0.025270
0.582282 -0.040290 0.048226
0.534917 -0.016414 0.061032
0.588235 0.047729 0.068597
0.520386 0.001381 0.007091
0.577236 -0.045517 0.046865
0.545343 -0.053157 0.002136
0.519171 -0.014542 0.008889
0.532082 0.027626 0.008123
0.525636 0.040066 0.016853
0.568275 -0.033900 0.060268
0.596030 0.042733 0.048467
0.547606 0.076792 0.031260
0.569456 0.054485 0.024981
0.601285 -0.010153 0.044261
0.561103 0.022210 0.081350
0.527525 0.029149 0.010779
0.529169 0.058580 0.075210
0.543804 -0.054240 0.028596
0.583763 -0.054739 0.030110
0.513251 0.055114 0.043609
0.562384 0.035319 0.082751
0.528321 0.057900 0.074532
0.554932 -0.060868 0.006150
0.579874 -0.060109 0.008648
0.599764 -0.017609 0.013474
0.531691 -0.039007 0.036755
0.554758 0.038043 0.083251
0.537062 0.013883 0.000641
0.541055 0.074002 0.028485
0.544798 -0.053863 0.003665
0.551732 0.094004 0.045041
0.554816 -0.047114 -0.007642
0.585986 0.004356 0.069304
0.591722 0.042395 0.036515
0.577745 0.072788 0.062347
0.540579 0.051000 0.080801
0.549436 0.024562 0.003282
0.575519 -0.011732 0.069960
0.563462 -0.065344 0.013160
0.517150 -0.006460 0.043012
0.597461 0.005911 0.057852
0.599731 -0.023026 0.037021
0.601098 0.005808 0.050000
0.543966 -0.041483 0.047853
0.568551 -0.045687 0.050408
0.566955 -0.019424 -0.012207
0.544525 0.097818 0.070931
0.513527 -0.004561 0.023368
0.535362 0.107416 0.055170
0.571569 0.037774 0.080227
0.514619 0.047708 0.034394
0.527531 0.043456 0.072127
0.595959 -0.002366 0.057929
0.520084 0.003201 0.007725
0.590934 0.002878 0.065027
0.577474 -0.050183 0.041670
0.514252 0.023811 0.021654
0.564573 -0.065398 0.012963
0.602370 -0.000392 0.024468
0.516801 0.014616 0.014265
0.561702 -0.061227 0.002558
0.594848 0.003719 0.012041
0.590926 -0.032445 0.046161
0.553682 -0.013136 0.071491
0.519489 0.099895 0.060220
0.576589 0.072923 0.052298
0.562778 -0.048491 0.047828
0.512083 0.023623 0.040498
0.514950 0.076832 0.039913
0.561072 0.019174 0.080824
0.549102 0.083499 0.035931
0.581943 -0.041204 0.047669
0.523184 0.055325 0.069533
0.592969 0.028186 0.025811
0.517719 -0.006860 0.043978
0.515440 -0.005302 0.039550
0.543931 -0.048302 -0.001919
0.563617 0.084143 0.046984
0.515305 0.060585 0.037016
0.575123 0.046322 0.021860
0.596714 -0.010869 0.008525
0.589713 0.019443 0.015445
0.585434 -0.016793 -0.005007
0.517615 0.046945 0.027780
0.573583 0.068303 0.073693
0.561258 0.086744 0.047382
0.539716 -0.050539 0.029761
0.532192 0.107111 0.047940
0.602242 -0.010515 0.022679
0.556578 -0.001657 0.076202
0.513935 0.094000 0.054933
0.549652 0.063616 0.082393
0.514040 0.074429 0.041843
0.511803 0.020264 0.028150
0.554285 -0.016313 -0.011696
0.565630 -0.033731 0.060817
0.528659 -0.032024 0.041886
0.511415 0.020623 0.034690
0.598779 -0.026168 0.011142
0.580809 0.002575 -0.001046
0.600442 0.029822 0.045817
0.596239 -0.010460 0.007894
0.595635 -0.012053 0.054229
0.582485 0.003063 0.000156
0.601400 0.000710 0.022100
0.556076 -0.057924 0.000461
0.578307 -0.034086 -0.009392
0.549053 0.089914 0.040011
0.552546 0.028420 0.081992
0.536294 0.091159 0.035274
0.530653 -0.006002 0.062192
0.529133 0.049316 0.074290
0.551612 0.089983 0.041658
0.574324 -0.064050 0.018998
0.513323 0.041531 0.036659
0.580383 0.026215 0.011607
0.514949 0.043972 0.031557
0.554899 -0.041072 0.053528
0.543298 0.013876 0.076848
0.527294 0.091781 0.070881
0.513890 0.081897 0.042492
0.579848 0.038189 0.019128
0.512804 0.085175 0.054093
0.546252 0.050868 0.017041
0.549952 0.003639 -0.005982
0.601904 0.018221 0.047109
0.542898 -0.049464 0.036592
0.567001 0.038507 0.081855
0.569169 0.048938 0.020955
0.545338 -0.016145 -0.010025
0.523237 0.018859 0.062116
0.579824 0.008710 0.001410
0.603793 0.000374 0.037728
0.538887 0.061200 0.080300
0.512846 0.087925 0.046621
0.535498 0.093691 0.072878
0.596815 -0.012042 0.052485
0.602889 -0.006679 0.040667
0.543795 0.031626 0.080230
0.540631 -0.038628 0.048555
0.578487 -0.041246 0.050136
0.541378 -0.003029 0.071116
0.538642 0.065992 0.080052
0.547467 0.056913 0.082617
0.532626 0.105643 0.061479
0.514692 0.077697 0.040479
0.547863 0.101318 0.050684
0.586621 0.006114 0.069215
0.521376 0.058729 0.067941
0.520804 0.091129 0.066431
0.549765 -0.034046 -0.010598
0.520476 0.011009 0.009054
0.580634 -0.049418 -0.002581
0.564083 -0.010441 -0.010659
0.597380 0.038136 0.044942
0.546736 -0.053207 0.034541
0.572350 -0.020905 -0.011560
0.516461 0.023239 0.053080
0.594082 -0.001007 0.008726
0.535195 0.028947 0.075614
0.580927 0.064226 0.044840
0.522554 -0.029279 0.011332
0.534827 0.070175 0.026739
0.601861 0.008437 0.047646
0.531625 -0.018787 0.056797
0.567441 0.043304 0.081620
0.563144 -0.029988 0.063362
0.554499 -0.053603 0.039398
0.566341 -0.052676 0.042852
0.569266 0.010480 0.077917
0.543600 0.015793 0.077380
0.575518 -0.060537 0.028432
0.554852 0.022843 0.081384
0.547796 0.039746 0.011072
0.520418 0.049258 0.025363
0.602501 -0.010461 0.023948
0.584295 -0.003789 -0.001705
0.586487 0.044198 0.030271
0.512089 0.003174 0.030064
0.548222 0.044898 0.013803
0.588096 -0.033762 -0.003357
0.524426 0.034134 0.014824
0.558790 0.081050 0.039352
0.511642 0.017954 0.028262
0.532350 -0.031647 0.047912
0.577278 0.073504 0.061592
0.548925 -0.054021 0.035219
0.593010 -0.046680 0.025359
0.586956 0.059866 0.060475
0.580233 -0.043073 -0.005875
0.598237 0.036742 0.046326
0.595015 -0.018928 0.050989
0.543229 -0.042730 -0.005212
0.513536 0.040072 0.048326
0.559547 -0.063503 0.024294
0.593588 -0.021146 0.051475
0.550170 -0.037117 0.055387
0.577855 0.017343 0.004961
0.587045 0.019566 0.070793
0.563445 -0.051584 -0.006647
0.596882 -0.029108 0.006921
0.586068 0.046135 0.031466
0.540812 -0.044897 0.041202
0.588731 0.055018 0.047194
0.528636 0.073052 0.075156
0.518231 0.044369 0.025578
0.599142 0.027722 0.056861
0.512450 0.000405 0.028850
0.595559 0.043165 0.057838
0.528683 -0.013956 0.056456
0.594040 0.001085 0.009667
0.518769 0.049084 0.027188
0.597099 0.005080 0.058236
0.552338 0.063036 0.024520
0.589795 0.036971 0.028550
0.567019 0.034103 0.081719
0.603820 -0.003033 0.031856
0.532451 0.072586 0.027870
0.524506 0.106084 0.047543
0.516794 0.011760 0.050728
0.517222 0.065886 0.034733
0.588312 -0.035882 0.046347
0.549938 -0.023793 0.065369
0.590466 -0.051136 0.013478
0.564158 -0.063058 0.005380
0.535029 0.086729 0.075569
0.564315 0.000541 0.076641
0.590672 -0.022182 -0.001603
0.537396 0.070080 0.079392
0.595887 0.022907 0.062690
0.563026 -0.058994 -0.000784
0.554548 0.059692 0.023107
0.513613 0.072651 0.055566
0.577472 -0.059370 0.028983
0.513706 0.060646 0.053249
0.597625 0.038334 0.046525
0.602772 0.008541 0.030747
0.579026 -0.033839 0.055863
0.600367 0.021890 0.054025
0.571714 -0.024190 0.065209
0.519036 0.072361 0.066420
0.557682 -0.004011 -0.009001
0.598660 0.032476 0.056606
0.512903 0.070258 0.050850
0.584371 0.046761 0.029887
0.554021 -0.060377 0.027549
0.552326 -0.045966 0.047526
0.535223 -0.027251 -0.005304
0.551538 -0.017594 -0.011484
0.531552 0.047356 0.017672
0.598641 0.003544 0.055272
0.564565 -0.063292 0.005849
0.535316 0.032751 0.076332
0.568391 -0.013110 -0.010864
0.539818 -0.050604 0.004426
0.579346 0.002320 -0.001895
0.594921 0.034290 0.034266
0.517548 0.054349 0.061767
0.538578 -0.051155 0.025798
0.520958 0.037469 0.019089
0.512442 0.001385 0.026303
0.518597 0.054672 0.063543
0.553084 -0.012838 0.071499
0.546867 0.037006 0.009700
0.595469 0.028595 0.063339
0.595382 -0.036262 0.006757
0.553553 -0.002755 0.075454
0.568485 0.003769 0.076712
0.557090 -0.052640 -0.004988
0.544094 -0.055848 0.024879
0.563992 0.084176 0.072851
0.573354 -0.036723 -0.010543
0.556207 0.091121 0.046622
0.515832 0.040634 0.027562
0.516533 -0.016361 0.017768
0.584735 0.063570 0.058594
0.597229 0.019216 0.060461
0.587592 0.032952 0.022581
0.577549 0.017526 0.004915
0.581942 0.059114 0.070457
0.552579 0.042351 0.083308
0.565967 0.035135 0.011060
0.540307 -0.031612 0.054816
0.560300 0.027782 0.082268
0.584803 -0.056245 0.009216
0.584726 0.049672 0.032965
0.586943 0.044763 0.031377
0.568023 0.047385 0.081117
0.589679 -0.046843 0.033088
0.538854 0.050265 0.017388
0.566274 0.079016 0.043605
0.550562 0.020032 0.001010
0.595648 0.019600 0.022973
0.512749 0.007083 0.022013
0.541663 -0.054649 0.022928
0.577105 0.067872 0.043543
0.521297 -0.024914 0.009813
0.558218 -0.035231 0.059627
0.553444 0.028092 0.005014
0.587841 0.040065 0.070496
0.581158 0.028805 0.075307
0.515244 0.038222 0.053728
0.601810 -0.004767 0.045649
0.561058 0.073922 0.078739
0.538917 0.021382 0.076402
0.567868 -0.025602 -0.012563
0.603598 0.000885 0.030349
0.514983 0.097957 0.048160
0.520835 -0.007057 0.005813
0.592399 -0.035511 0.041328
0.595986 -0.025826 0.043994
0.530462 -0.021883 0.053705
0.576032 0.033035 0.013332
0.580676 0.067435 0.050829
0.550612 0.012712 0.078900
0.524800 0.053794 0.071021
0.545094 0.017077 0.078197
0.599259 -0.020668 0.041214
0.539539 -0.045639 0.038587
0.598422 0.032658 0.057200
0.554416 -0.000433 0.076333
0.523523 0.018906 0.009041
0.558911 0.055672 0.021905
0.583245 0.056821 0.038427
0.588200 -0.011301 -0.001409
0.553456 0.096374 0.069020
0.531587 -0.010467 -0.003502
0.600154 0.027764 0.053648
0.563764 0.086814 0.070451
0.542457 -0.055878 0.019906
0.514852 0.096856 0.054856
0.574551 0.037351 0.078934
0.536533 0.077563 0.029698
0.557316 -0.039686 0.055576
0.513810 0.058155 0.040883
0.591523 0.051319 0.048749
0.555197 -0.053722 0.039544
0.527563 -0.036691 0.031007
0.513885 0.022109 0.021756
0.512517 0.019797 0.042427
0.574973 0.045991 0.078169
0.599874 0.015764 0.054855
0.540982 -0.003086 -0.006332
0.539636 -0.043256 0.042235
0.591792 -0.002451 0.005403
0.562060 0.090306 0.057097
0.557185 -0.035693 0.059057
0.537956 -0.016155 -0.007391
0.591138 0.052355 0.049802
0.569550 0.029675 0.080685
0.525079 0.064985 0.027535
0.562866 -0.060945 0.030939
0.582046 0.061228 0.042257
0.523226 0.068828 0.070953
0.593849 0.042016 0.063117
0.601274 0.022656 0.050215
0.567307 -0.024837 -0.012594
0.536365 0.025448 0.005805
0.583785 -0.033257 -0.006657
0.529119 -0.042079 0.014437
0.599799 -0.023703 0.014174
0.573958 0.067512 0.038768
0.515568 0.042240 0.055349
0.514900 0.083911 0.040703
0.601623 0.011890 0.048668
0.570916 -0.064706 0.020952
0.536313 0.097589 0.038141
0.542768 0.006252 0.074765
0.522015 0.050326 0.024309
0.533496 -0.041921 0.035092
0.589361 -0.032655 -0.002438
0.538675 0.022351 0.003829
0.600293 -0.014022 0.015473
0.584426 0.063958 0.056425
0.561073 0.063161 0.081235
0.573531 0.056845 0.028820
0.533341 0.076882 0.029404
0.528136 -0.038176 0.008639
0.565347 0.051355 0.081653
0.526527 0.063288 0.073552
0.564354 -0.051732 -0.006561
0.594416 -0.041758 0.008833
0.578841 0.071234 0.062639
0.599999 0.030115 0.052866
0.589107 -0.017977 0.058503
0.542435 0.102567 0.046056
0.522043 -0.030854 0.021937
0.593565 0.004268 0.062698
0.529910 0.089638 0.034002
0.599188 0.033094 0.044011
0.533512 -0.047523 0.012155
0.562629 0.041198 0.082919
0.521243 -0.028440 0.026523
0.561464 0.052391 0.082623
0.529057 0.004603 0.000906
0.542466 0.084227 0.077642
0.599113 0.026719 0.057095
0.591037 -0.017597 -0.000487
0.540555 0.091923 0.037042
0.527191 0.105495 0.058835
0.538978 0.102030 0.067784
0.603023 -0.009301 0.026831
0.525339 -0.025338 0.003333
0.542289 -0.048286 -0.000709
0.588718 -0.053848 0.017366
0.551113 -0.031647 0.060562
0.521804 -0.012416 0.048000
0.523635 -0.033732 0.019864
0.556746 0.045206 0.014764
0.522692 -0.026740 0.035783
0.543108 -0.015090 -0.009259
0.515552 -0.010638 0.017215
0.557646 0.013965 0.079943
0.540309 0.004459 0.073039
0.535954 0.018047 0.073943
0.564184 -0.063640 0.025806
0.577729 0.017007 0.004718
0.518876 -0.009491 0.044581
0.582629 0.025055 0.012517
0.514475 0.082401 0.041289
0.593994 -0.005082 0.006836
0.517430 0.040336 0.058753
0.571548 0.077691 0.050006
0.518938 -0.012841 0.008947
0.520949 -0.013596 0.045726
0.573733 0.039440 0.016402
0.521572 -0.017152 0.005602
0.560028 -0.063650 0.024185
0.558861 -0.057511 -0.001341
0.563943 0.089026 0.062012
0.554204 -0.021407 0.067619
0.555524 -0.061749 0.025622
0.595636 0.021111 0.062887
0.587819 -0.027939 0.053301
0.517956 0.079149 0.036068
0.599704 -0.023659 0.013789
0.523417 0.101413 0.040651
0.513308 0.061003 0.051128
0.571195 0.080440 0.065847
0.515934 -0.007924 0.038821
0.597489 -0.031483 0.034538
0.520920 0.104678 0.052057
0.529374 -0.008634 0.059796
0.598891 0.022172 0.057737
0.546190 -0.031707 -0.009917
0.520030 0.077841 0.033962
0.589085 -0.005025 0.001619
0.595267 0.037887 0.038564
0.540668 0.101606 0.068163
0.567472 0.085074 0.064743
0.597844 -0.016384 0.048016
0.586256 0.014242 0.008932
0.583703 0.008502 0.071569
0.565001 -0.052416 -0.006144
0.518402 0.079573 0.065599
0.568925 0.058984 0.079002
0.567662 0.062622 0.030096
0.527761 -0.037229 0.008255
0.536312 -0.013847 -0.006430
0.582447 -0.003465 -0.002764
0.515423 0.034025 0.053234
0.524436 -0.034817 0.022538
0.517419 -0.014893 0.036295
0.585942 -0.051274 0.032564
0.570446 -0.003904 -0.007370
0.603653 0.005371 0.035286
0.580653 0.025215 0.011168
0.530332 0.040992 0.074127
0.602160 0.010261 0.046348
0.538189 0.074704 0.079113
0.547561 0.092489 0.073925
0.541751 0.043302 0.080765
0.519770 -0.017250 0.040223
0.527068 -0.017499 -0.000293
0.538130 -0.016897 -0.007514
0.571742 0.033989 0.080125
0.513908 0.038183 0.031275
0.590555 0.041172 0.033335
0.602700 0.014225 0.038929
0.568569 0.007723 -0.002735
0.577283 -0.053437 0.037786
0.531809 0.013515 0.002413
0.527326 0.097841 0.068101
0.526917 0.012968 0.004715
0.515941 0.098227 0.056141
0.565318 0.018659 0.001825
0.533018 -0.038808 0.039679
0.519343 0.011381 0.054699
0.585786 0.039328 0.072178
0.534802 0.102122 0.040758
0.579348 -0.038250 0.052147
0.525900 0.105698 0.057388
0.592258 -0.019593 0.054170
0.533876 0.106587 0.059697
0.592428 -0.009521 0.003279
0.580433 -0.025790 0.060490
0.533994 -0.018914 0.058884
0.520632 -0.008802 0.006041
0.554011 0.012506 0.079416
0.597881 -0.035405 0.026731
0.554569 0.089119 0.043110
0.512258 0.024338 0.041436
0.589629 -0.052410 0.014236
0.543061 -0.055154 0.024722
0.548165 0.050956 0.082850
0.541189 0.093838 0.073355
0.526798 -0.031222 0.039173
0.518976 0.069982 0.066192
0.600739 -0.023770 0.030016
0.542229 -0.053798 0.006738
0.597542 0.013791 0.059202
0.513991 0.019028 0.046839
0.521471 0.014743 0.009262
0.573902 -0.054227 0.038665
0.591229 0.044547 0.037953
0.556626 -0.063923 0.015885
0.550922 0.094073 0.072447
0.598817 0.033015 0.042263
0.519375 0.067580 0.066490
0.582272 0.066992 0.058953
0.519445 -0.006945 0.047192
0.563582 0.035402 0.082561
0.525267 0.032987 0.013763
0.532122 0.047734 0.017667
0.601092 0.018213 0.051366
0.521460 -0.029600 0.017387
0.596951 0.023557 0.061222
0.579704 0.059385 0.036444
0.536034 0.031199 0.076516
0.514484 -0.001337 0.017348
0.517561 -0.020303 0.027178
0.551143 -0.060969 0.021640
0.521046 0.090280 0.036410
0.514215 0.067002 0.056537
0.530365 0.009640 0.001727
0.514952 0.094248 0.057541
0.513981 -0.005758 0.033380
0.544596 0.099821 0.069366
0.534961 0.047937 0.016989
0.588307 0.017853 0.069681
0.555206 0.015390 -0.001238
0.586769 -0.022762 -0.004979
0.524249 -0.018163 0.002503
0.599397 0.003106 0.053710
0.571341 0.080878 0.061615
0.560929 0.078662 0.038770
0.528050 -0.016812 0.054125
0.584202 0.035081 0.073499
0.544162 0.077364 0.079733
0.523527 -0.033445 0.021545
0.512240 0.031166 0.036672
0.526233 -0.006159 0.000690
0.538294 0.106284 0.060261
0.572834 0.059571 0.076870
0.569939 0.020314 0.003891
0.540696 0.095452 0.038916
0.561098 0.068218 0.080209
0.526009 -0.037331 0.022177
0.587624 -0.001470 0.066714
0.528130 -0.017012 0.054102
0.515510 0.039963 0.054735
0.535476 0.037989 0.011984
0.514543 0.027919 0.049851
0.596591 -0.040766 0.017861
0.523224 -0.029764 0.010129
0.566017 0.072524 0.077003
0.518461 0.005609 0.010077
0.577182 0.071156 0.067747
0.519076 -0.024833 0.023051
0.555180 0.025852 0.003952
0.512703 0.020409 0.024309
0.585883 -0.036300 -0.004550
0.588837 -0.014100 -0.001669
0.567512 -0.017999 0.069316
0.550134 -0.001782 -0.007838
0.591576 0.043559 0.037501
0.536205 -0.047423 0.029485
0.592600 -0.002231 0.062004
0.596172 -0.030647 0.038966
0.532430 -0.030814 0.048825
0.521239 0.058919 0.028390
0.595667 -0.037343 0.032514
0.595332 0.016099 0.062704
0.515559 0.000781 0.043850
0.531128 0.057593 0.076474
0.530496 -0.007100 0.061581
0.551155 0.004432 0.077113
0.553634 -0.054952 -0.001581
0.554426 0.001351 0.076856
0.547547 -0.002278 -0.007614
0.568959 -0.003792 -0.007667
0.565279 -0.037130 -0.011691
0.555541 0.027252 0.004706
0.602996 0.006919 0.042488
0.538382 -0.048084 0.032462
0.526425 0.009316 0.063250
0.537422 -0.011870 -0.006738
0.581030 -0.046897 -0.003709
0.551798 0.089809 0.041650
0.603237 0.005532 0.030853
0.533419 -0.026337 0.053540
0.511402 0.015974 0.029906
0.546511 0.103222 0.059072
0.529636 0.030485 0.010394
0.562506 0.075474 0.077724
0.527780 0.019390 0.067376
0.594857 0.020805 0.022724
0.542386 0.026648 0.078949
0.569514 -0.037386 0.057491
0.601305 -0.009867 0.044399
0.545338 -0.011570 0.069585
0.598193 0.031091 0.058388
0.578408 -0.010524 0.069214
0.602046 -0.009183 0.021779
0.517189 0.020494 0.053766
0.601958 0.018383 0.037511
0.564141 0.083383 0.073303
0.571218 -0.064991 0.018523
0.528190 0.080891 0.074125
0.591756 -0.029305 -0.000513
0.533385 -0.042302 0.034134
0.521578 -0.025752 0.034111
0.580340 0.060822 0.038928
0.514941 0.014209 0.047918
0.517726 -0.006003 0.044529
0.525796 0.091264 0.070186
0.511516 0.017104 0.036657
0.565257 -0.038667 -0.011355
0.546158 0.050354 0.082442
0.543079 0.103853 0.064343
0.559365 -0.047561 -0.008346
0.529722 -0.024806 -0.001503
0.547405 0.067939 0.081708
0.536081 -0.038278 -0.002446
0.516402 0.013510 0.050566
0.546863 0.087164 0.076587
0.601462 0.004817 0.048826
0.573926 0.049388 0.078256
0.582919 -0.021080 0.061709
0.552974 0.025194 0.003525
0.594422 -0.010106 0.005452
0.537273 0.104238 0.065088
0.533473 -0.004129 -0.003573
0.574200 -0.039375 -0.009625
0.569660 0.043991 0.080768
0.570929 0.038787 0.014827
0.562123 0.040622 0.013266
0.530573 0.059164 0.076205
0.529277 -0.042333 0.020079
0.512874 0.039512 0.039869
0.517924 -0.016174 0.036361
0.591158 -0.050486 0.021663
0.567980 0.051780 0.022462
0.568462 -0.002515 -0.007266
0.582654 0.052375 0.032950
0.583964 0.042736 0.073166
0.511802 0.006225 0.028866
0.511463 0.011846 0.029432
0.564423 0.076166 0.076622
0.565834 0.034188 0.010473
0.515806 0.064751 0.060181
0.529982 0.054753 0.075492
0.515853 0.090378 0.040736
0.576430 0.072349 0.067684
0.586834 0.027228 0.017699
0.596561 0.035920 0.039326
0.578119 -0.053932 0.036626
0.571802 -0.058836 0.033200
0.594663 -0.009590 0.005944
0.524829 0.105709 0.045954
0.580904 0.040408 0.075394
0.602776 0.010307 0.042805
0.522605 0.027971 0.063562
0.585621 -0.040792 -0.003263
0.553804 0.095489 0.049340
0.539836 -0.045733 -0.000896
0.542444 0.001576 0.073235
0.527104 -0.038840 0.013888
0.532556 -0.019123 -0.004381
0.559962 0.055542 0.022166
0.555304 -0.060492 0.028400
0.559037 -0.064675 0.017759
0.561049 0.064802 0.028719
0.594444 0.017494 0.063924
0.543298 -0.043302 0.045429
0.561928 -0.039742 -0.011176
0.594787 -0.044703 0.016058
0.597063 0.010949 0.059471
0.595211 0.022520 0.024578
0.602510 0.011791 0.032578
0.576385 -0.018047 0.066794
0.599552 -0.030407 0.024784
0.562527 -0.060843 0.031058
0.599278 0.021111 0.030716
0.576610 -0.008203 0.070850
0.572270 0.023527 0.079117
0.579233 -0.047107 -0.004644
0.586669 0.042934 0.029411
0.564215 0.021075 0.002824
0.579926 -0.001151 -0.003160
0.544246 0.087290 0.076565
0.602617 0.006045 0.044618
0.577529 -0.025727 0.062103
0.599661 -0.025860 0.014481
0.541124 0.008041 0.074468
0.524997 -0.034624 0.026843
0.598622 0.019253 0.027707
0.551686 0.032766 0.007390
0.571175 0.066492 0.035285
0.544365 0.088530 0.036857
0.553500 0.051308 0.017827
0.528064 -0.027240 0.000819
0.526222 -0.037254 0.024009
0.569144 -0.041984 0.053746
0.546517 -0.058792 0.017792
0.533685 0.065416 0.025016
0.513681 0.007224 0.018908
0.558809 -0.024145 -0.012693
0.574139 -0.035054 0.057557
0.584500 -0.027782 0.056364
0.525655 0.103372 0.061615
0.537666 -0.045208 0.000710
0.512889 0.010862 0.021485
0.566238 -0.044074 0.052335
0.531246 -0.022847 0.053889
