ply
format ascii 1.0
element vertex 1024
property float x
property float y
property float z
end_header
0.553853 0.150156 0.085678
0.566744 0.074186 0.049641
0.566633 0.069254 0.048076
0.542252 0.210088 0.035289
0.514675 0.081465 0.010499
0.575771 0.126360 0.044556
0.551484 0.203429 0.034803
0.488995 0.144804 0.046845
0.569415 0.074640 0.023065
0.563514 0.122878 0.022996
0.498338 0.174287 0.026915
0.510082 0.209704 0.055473
0.503052 0.086312 0.023772
0.503905 0.114022 0.008107
0.503293 0.162784 0.015220
0.553117 0.126071 0.014250
0.573463 0.105764 0.041010
0.534172 0.206906 0.028473
0.560254 0.185594 0.079341
0.526904 0.171869 0.010988
0.498796 0.112733 0.012108
0.551457 0.050994 0.013145
0.546899 0.215067 0.061436
0.541962 0.068052 0.055756
0.572971 0.056508 0.032994
0.547433 0.122050 0.079724
0.545758 0.188498 0.084881
0.516340 0.164838 0.085101
0.518578 0.116876 0.075832
0.536679 0.184893 0.086765
0.554319 0.116050 0.014599
0.526480 0.157297 0.007892
0.512342 0.073838 0.016464
0.521706 0.062227 0.039107
0.501748 0.156117 0.074930
0.501467 0.111062 0.059821
0.547698 0.115788 0.010640
0.527017 0.183148 0.014402
0.527342 0.179952 0.087001
0.520672 0.074514 0.010208
0.512670 0.205601 0.034729
0.494808 0.174214 0.058929
0.518593 0.141237 0.083860
0.514086 0.198799 0.026821
0.536824 0.208503 0.030762
0.517612 0.175606 0.013257
0.508654 0.086559 0.012394
0.511688 0.132989 0.078555
0.555485 0.203440 0.040253
0.572692 0.060252 0.036676
0.573648 0.062224 0.033934
0.501949 0.179680 0.025795
0.494512 0.135579 0.061271
0.553572 0.109592 0.073125
0.510480 0.189862 0.023672
0.507461 0.117352 0.069639
0.517515 0.198458 0.077595
0.567439 0.189255 0.067798
0.520054 0.158649 0.086737
0.570109 0.149413 0.075139
0.490238 0.148108 0.053670
0.494282 0.106880 0.028620
0.508598 0.091637 0.010325
0.565656 0.188392 0.041122
0.497054 0.186220 0.048196
0.545187 0.204902 0.030861
0.546542 0.214384 0.047157
0.524944 0.210805 0.033023
0.516322 0.207990 0.034053
0.491278 0.167187 0.042960
0.531900 0.049732 0.022335
0.490583 0.163939 0.042218
0.499310 0.141224 0.012968
0.552455 0.139888 0.014881
0.530024 0.068555 0.009322
0.546919 0.199561 0.080329
0.573469 0.107059 0.050729
0.532240 0.076361 0.059060
0.530098 0.216296 0.040688
0.492739 0.155102 0.026230
0.520092 0.079031 0.055312
0.540509 0.160719 0.010863
0.527727 0.079798 0.059763
0.516043 0.084265 0.008937
0.563950 0.066723 0.015560
0.529756 0.124669 0.004277
0.548858 0.082060 0.009965
0.555256 0.200423 0.036108
0.502462 0.122669 0.008486
0.511897 0.084743 0.053051
0.510375 0.078861 0.015126
0.527740 0.180700 0.013572
0.512018 0.163193 0.083239
0.505002 0.145779 0.009800
0.549671 0.206465 0.073358
0.507901 0.077590 0.035120
0.526740 0.188226 0.084948
0.501251 0.157670 0.015334
0.544990 0.199118 0.025684
0.536268 0.098024 0.005426
0.535099 0.218402 0.064721
0.523648 0.138754 0.084748
0.571340 0.182542 0.063557
0.568188 0.150342 0.077255
0.577123 0.136476 0.049476
0.530531 0.182292 0.087060
0.489881 0.160289 0.042452
0.493978 0.139816 0.019321
0.556338 0.089450 0.063304
0.535058 0.154524 0.089285
0.524365 0.167477 0.087825
0.500227 0.186475 0.034592
0.557795 0.185757 0.028152
0.510980 0.195091 0.074251
0.568082 0.138405 0.029631
0.539762 0.127870 0.006997
0.525993 0.201402 0.023616
0.576793 0.152785 0.049904
0.573769 0.171289 0.067131
0.532354 0.149052 0.088340
0.511930 0.154251 0.083107
0.568699 0.164518 0.077294
0.534188 0.106806 0.074457
0.512522 0.141212 0.081171
0.500423 0.139199 0.071303
0.559331 0.092269 0.062888
0.558150 0.138612 0.018926
0.506887 0.095426 0.010141
0.533076 0.164579 0.089676
0.561474 0.099439 0.064531
0.553613 0.210778 0.054614
0.576608 0.140611 0.062431
0.534101 0.100240 0.071594
0.526248 0.120978 0.003786
0.513336 0.165033 0.083742
0.520383 0.189368 0.017867
0.546916 0.191479 0.022214
0.540943 0.094740 0.069131
0.513377 0.176345 0.082176
0.530570 0.111005 0.003935
0.545740 0.206994 0.033656
0.539421 0.212524 0.072310
0.495714 0.150613 0.019862
0.561378 0.106791 0.019835
0.558931 0.196756 0.037486
0.559542 0.082484 0.015609
0.530707 0.050601 0.025588
0.509743 0.090402 0.010051
0.562386 0.049633 0.016597
0.527555 0.156215 0.007768
0.531750 0.215180 0.070864
0.513903 0.208415 0.067419
0.531373 0.217902 0.066440
0.569167 0.189556 0.057254
0.543894 0.200810 0.080491
0.490439 0.131539 0.046935
0.547153 0.136084 0.011166
0.552779 0.043335 0.022734
0.518679 0.126908 0.079766
0.553355 0.070729 0.056008
0.572410 0.141636 0.071068
0.528632 0.149847 0.088022
0.523467 0.194661 0.081944
0.573078 0.178980 0.057284
0.521972 0.059780 0.034583
0.535867 0.125634 0.005555
0.518074 0.143181 0.084121
0.507681 0.197294 0.032265
0.510675 0.072794 0.033781
0.562460 0.172387 0.081393
0.572781 0.170389 0.070207
0.496927 0.183397 0.056526
0.568197 0.082411 0.023648
0.538797 0.191358 0.018929
0.529790 0.192262 0.084354
0.555191 0.146940 0.084751
0.517491 0.092119 0.062639
0.541211 0.196275 0.083091
0.540743 0.104014 0.073154
0.511569 0.207489 0.064935
0.529422 0.085592 0.005737
0.548340 0.162775 0.088019
0.527826 0.188913 0.084993
0.502682 0.170961 0.019353
0.547454 0.086958 0.009553
0.557398 0.112542 0.072919
0.544532 0.060615 0.009408
0.520560 0.194092 0.020151
0.563231 0.126077 0.075474
0.568880 0.064638 0.019305
0.509382 0.191190 0.074888
0.519202 0.118457 0.003885
0.514634 0.156072 0.008318
0.544113 0.109258 0.075054
0.573273 0.177508 0.053062
0.564636 0.185992 0.074956
0.560683 0.143454 0.081707
0.501223 0.090926 0.021476
0.553620 0.150906 0.016878
0.540273 0.122729 0.007015
0.545077 0.168240 0.014198
0.545192 0.200578 0.026907
0.494111 0.164820 0.062284
0.549842 0.188363 0.022575
0.494401 0.143022 0.063465
0.546023 0.214533 0.064313
0.510877 0.078475 0.045273
0.488637 0.145504 0.040529
0.495948 0.103972 0.039481
0.515088 0.170247 0.083971
0.506723 0.146941 0.078636
0.576808 0.157608 0.052689
0.532477 0.049349 0.022370
0.560061 0.181706 0.028794
0.531827 0.206647 0.078310
0.508037 0.205221 0.041935
0.506928 0.079503 0.036080
0.500193 0.122221 0.064329
0.572400 0.091273 0.043009
0.569030 0.130060 0.030465
0.560986 0.185758 0.031837
0.573366 0.057816 0.028481
0.553429 0.200140 0.033481
0.544183 0.140993 0.086135
0.539178 0.048937 0.037088
0.552301 0.043262 0.023000
0.540902 0.178664 0.014912
0.577189 0.152630 0.060433
0.544722 0.116015 0.009031
0.494027 0.171463 0.058472
0.569654 0.095571 0.053528
0.502327 0.161194 0.075715
0.513611 0.101204 0.065611
0.567199 0.181323 0.038578
0.495891 0.125157 0.058785
0.492658 0.115021 0.024278
0.501747 0.190222 0.035300
0.548963 0.155095 0.014348
0.506949 0.138958 0.007785
0.572736 0.078876 0.039286
0.513617 0.135334 0.005703
0.544353 0.118972 0.008891
0.503527 0.154571 0.012681
0.501731 0.128365 0.069180
0.505852 0.170569 0.016557
0.545511 0.058637 0.049942
0.543959 0.216130 0.063244
0.547727 0.105821 0.073053
0.564267 0.172121 0.030275
0.569661 0.160810 0.034728
0.546237 0.047609 0.016071
0.561082 0.108287 0.019647
0.572670 0.094750 0.039032
0.575544 0.146664 0.044023
0.551309 0.212212 0.060334
0.492173 0.129937 0.052550
0.501360 0.192034 0.061218
0.500762 0.175311 0.071715
0.502724 0.197301 0.057726
0.571451 0.183618 0.059994
0.555899 0.053928 0.045982
0.576715 0.131272 0.058345
0.506547 0.157339 0.079623
0.523023 0.095441 0.004855
0.500237 0.121342 0.063921
0.553698 0.174170 0.085435
0.510339 0.129398 0.076650
0.489608 0.144643 0.050511
0.489649 0.132203 0.042114
0.539115 0.051737 0.014446
0.575420 0.128788 0.042991
0.525048 0.055265 0.028239
0.489929 0.141631 0.029707
0.536767 0.217923 0.045881
0.531598 0.109184 0.075342
0.509890 0.157111 0.082069
0.565386 0.077720 0.052257
0.522309 0.135367 0.083508
0.574604 0.128213 0.040704
0.491588 0.121983 0.024280
0.501518 0.089397 0.023955
0.533089 0.054850 0.014418
0.540569 0.186100 0.086216
0.565345 0.182612 0.036222
0.568475 0.155915 0.077453
0.510362 0.091910 0.009199
0.567269 0.188553 0.045122
0.526759 0.087482 0.064003
0.575243 0.160148 0.067014
0.560266 0.203943 0.056951
0.563399 0.052438 0.042488
0.516206 0.213777 0.062539
0.508082 0.193717 0.028765
0.532545 0.061459 0.011146
0.519998 0.115608 0.003777
0.545790 0.184291 0.018668
0.533226 0.183005 0.014623
0.489866 0.134872 0.046649
0.557650 0.098222 0.015852
0.498093 0.184057 0.060317
0.525636 0.144979 0.086619
0.496669 0.102865 0.020273
0.577262 0.152567 0.059887
0.501456 0.187660 0.065825
0.553331 0.207029 0.069000
0.573714 0.164541 0.070001
0.573717 0.133553 0.038613
0.574282 0.117214 0.040897
0.500238 0.169027 0.072627
0.504743 0.118977 0.007382
0.556317 0.085824 0.013860
0.541683 0.113384 0.007477
0.493917 0.166274 0.029472
0.500988 0.110294 0.058694
0.575204 0.129740 0.042271
0.533996 0.074370 0.058287
0.535348 0.194586 0.084016
0.507167 0.205274 0.057732
0.566550 0.088279 0.054993
0.501670 0.099107 0.051634
0.534920 0.075030 0.058881
0.542499 0.214098 0.068533
0.524012 0.219126 0.052350
0.515386 0.187057 0.018848
0.540691 0.174649 0.088416
0.506998 0.094506 0.055667
0.573003 0.149960 0.038649
0.562176 0.087683 0.018400
0.552475 0.206717 0.070518
0.547071 0.065980 0.008964
0.555053 0.209409 0.054397
0.489269 0.137818 0.044977
0.516087 0.123904 0.004453
0.513067 0.082272 0.011101
0.520838 0.081063 0.057305
0.564834 0.143237 0.025912
0.492754 0.147936 0.060924
0.530881 0.216735 0.068605
0.552388 0.140635 0.084406
0.489957 0.145283 0.030518
0.497616 0.180040 0.033639
0.493061 0.150204 0.024112
0.524023 0.174666 0.086945
0.504774 0.183677 0.073645
0.555468 0.192053 0.029228
0.534275 0.048198 0.024991
0.569172 0.147653 0.075939
0.553537 0.045418 0.018228
0.497733 0.100838 0.042787
0.570740 0.099287 0.053287
0.534360 0.087948 0.065800
0.489311 0.151685 0.035937
0.577369 0.150668 0.059457
0.488678 0.142493 0.040207
0.504083 0.194125 0.065487
0.575407 0.125194 0.059656
0.530259 0.217182 0.067774
0.509150 0.168151 0.013578
0.577153 0.137117 0.059009
0.540407 0.218015 0.062275
0.523868 0.168740 0.010267
0.495241 0.180951 0.049237
0.506153 0.142332 0.077363
0.559215 0.044805 0.035589
0.521019 0.086748 0.006733
0.509966 0.185667 0.077759
0.563439 0.115553 0.070777
0.572245 0.072566 0.040540
0.500794 0.113056 0.060045
0.553286 0.078402 0.011674
0.498540 0.184993 0.060747
0.541446 0.078187 0.061216
0.520097 0.141239 0.005655
0.551239 0.140651 0.084717
0.556230 0.140894 0.083213
0.558110 0.204599 0.065359
0.535742 0.076474 0.007009
0.570911 0.087532 0.047374
0.538487 0.123230 0.006316
0.522275 0.183051 0.014883
0.527970 0.152641 0.007231
0.538370 0.191453 0.018858
0.573269 0.103973 0.048293
0.506943 0.079301 0.022048
0.537559 0.073476 0.007456
0.538001 0.189826 0.085454
0.560761 0.048326 0.016895
0.508544 0.177373 0.018083
0.503073 0.131324 0.071732
0.565584 0.050737 0.039809
0.516023 0.072340 0.045275
0.571021 0.073362 0.043403
0.571756 0.124285 0.066484
0.564272 0.185735 0.036510
0.501668 0.167890 0.074623
0.540448 0.165527 0.089413
0.567438 0.120688 0.069871
0.516049 0.195012 0.022842
0.542438 0.172206 0.013839
0.501139 0.132178 0.009815
0.523123 0.182889 0.014673
0.490279 0.161425 0.039379
0.540546 0.171677 0.013045
0.511703 0.168128 0.012463
0.546342 0.214753 0.063322
0.542948 0.205949 0.030604
0.551664 0.071084 0.010400
0.507520 0.102479 0.061602
0.563898 0.068849 0.016068
0.529714 0.134615 0.084644
0.532876 0.082481 0.062717
0.548777 0.070929 0.009448
0.519639 0.215807 0.063455
0.568806 0.102939 0.058568
0.538319 0.146335 0.008104
0.571808 0.103857 0.053590
0.512679 0.174569 0.082129
0.514605 0.114485 0.072968
0.544785 0.048472 0.039918
0.572110 0.066820 0.039907
0.535658 0.132601 0.005980
0.565233 0.058144 0.044798
0.562309 0.113859 0.021220
0.567011 0.165229 0.031872
0.496981 0.141557 0.015570
0.531202 0.186478 0.086171
0.499805 0.098178 0.046348
0.543663 0.119863 0.008552
0.569164 0.182314 0.043384
0.539605 0.112020 0.076602
0.542549 0.165654 0.012529
0.498909 0.161437 0.018915
0.524317 0.072395 0.052844
0.571051 0.059525 0.039540
0.538191 0.048177 0.034316
0.490724 0.162592 0.037684
0.496063 0.165594 0.024730
0.515310 0.098273 0.065006
0.526333 0.171040 0.088079
0.499114 0.182871 0.064381
0.516697 0.130753 0.080268
0.525589 0.068479 0.050365
0.516039 0.077179 0.050407
0.550556 0.043052 0.024224
0.572184 0.071502 0.040547
0.547094 0.056103 0.010619
0.489244 0.136581 0.043574
0.544460 0.075647 0.059856
0.552210 0.049395 0.042444
0.563105 0.198638 0.049481
0.577674 0.143661 0.055756
0.533558 0.215963 0.040523
0.558052 0.183067 0.027250
0.505444 0.124876 0.007092
0.529341 0.191637 0.084478
0.551074 0.194450 0.026646
0.551460 0.110936 0.074356
0.525825 0.174060 0.011598
0.523884 0.100374 0.069956
0.521702 0.098785 0.004567
0.566831 0.176485 0.076675
0.566884 0.089988 0.023785
0.494729 0.149386 0.021016
0.530410 0.148104 0.087973
0.500606 0.094440 0.043406
0.502266 0.162863 0.075643
0.520564 0.191734 0.081839
0.510283 0.192544 0.075006
0.495635 0.123934 0.057545
0.514395 0.112721 0.072022
0.512807 0.208622 0.065567
0.505311 0.108030 0.062651
0.563351 0.126409 0.022992
0.573541 0.104010 0.043937
0.507477 0.176779 0.018520
0.539316 0.178758 0.014470
0.524415 0.124015 0.003923
0.566884 0.137582 0.076245
0.562121 0.120927 0.021374
0.532103 0.205433 0.026797
0.575390 0.122783 0.043816
0.543831 0.081430 0.008073
0.571336 0.126099 0.067865
0.533742 0.163290 0.089742
0.514058 0.081920 0.010662
0.527221 0.192583 0.083753
0.505859 0.203468 0.044768
0.505664 0.096426 0.010653
0.537402 0.212206 0.035794
0.503611 0.125591 0.007940
0.491668 0.168528 0.041779
0.562008 0.201399 0.061242
0.560084 0.098510 0.065097
0.525968 0.208696 0.075948
0.491856 0.169734 0.044167
0.515321 0.169084 0.084222
0.543031 0.156229 0.011134
0.490446 0.124787 0.037008
0.547645 0.215004 0.051354
0.519762 0.198984 0.023547
0.524224 0.121713 0.003796
0.530221 0.179871 0.087529
0.512965 0.107413 0.005266
0.537204 0.062264 0.051014
0.573918 0.107350 0.048112
0.493758 0.128168 0.017398
0.566966 0.140567 0.076839
0.498483 0.113915 0.012221
0.533580 0.143459 0.087271
0.525591 0.171858 0.011003
0.573325 0.102808 0.046079
0.489767 0.145684 0.031397
0.555241 0.101810 0.014447
0.521999 0.131751 0.004591
0.499035 0.101895 0.048583
0.502405 0.167132 0.017715
0.568155 0.086784 0.024714
0.566038 0.047251 0.022488
0.550679 0.121682 0.078974
0.572268 0.084785 0.042121
0.496208 0.182987 0.052926
0.510967 0.153113 0.082427
0.515161 0.212257 0.042836
0.536386 0.218831 0.062989
0.535244 0.052500 0.039661
0.497959 0.131422 0.065510
0.531364 0.195698 0.019835
0.527694 0.065073 0.048733
0.490879 0.128413 0.025106
0.542322 0.218163 0.058505
0.554102 0.105878 0.013979
0.561208 0.068019 0.051576
0.511321 0.207926 0.063897
0.560463 0.079117 0.056653
0.504192 0.124008 0.007622
0.506148 0.157800 0.011784
0.496116 0.174090 0.063016
0.493814 0.134720 0.018192
0.496286 0.159522 0.067671
0.549769 0.064456 0.053517
0.562448 0.175168 0.029084
0.495188 0.124222 0.015098
0.564576 0.072107 0.050933
0.526615 0.121497 0.003828
0.527996 0.202995 0.079730
0.517735 0.180842 0.083423
0.570488 0.186418 0.058527
0.565729 0.185935 0.039169
0.571115 0.112408 0.033433
0.490533 0.148828 0.029651
0.535732 0.218908 0.063071
0.524031 0.096906 0.068237
0.554768 0.186564 0.025606
0.555932 0.202274 0.072593
0.543982 0.172428 0.014543
0.513950 0.132595 0.005391
0.550587 0.081233 0.061650
0.541469 0.191956 0.084549
0.575349 0.116984 0.046592
0.568973 0.140997 0.075040
0.548679 0.080387 0.061662
0.506609 0.141916 0.077619
0.564423 0.129092 0.024373
0.491804 0.123271 0.022729
0.519503 0.204575 0.028253
0.505437 0.131765 0.073999
0.495717 0.129863 0.060998
0.550556 0.213316 0.057093
0.537483 0.197811 0.082781
0.517105 0.063924 0.019831
0.546602 0.207330 0.034793
0.542362 0.068830 0.008222
0.573404 0.108814 0.052720
0.568831 0.160986 0.077255
0.509222 0.093665 0.009271
0.490841 0.132927 0.025001
0.526952 0.137386 0.005189
0.543307 0.156016 0.011223
0.501810 0.090795 0.019529
0.509266 0.090310 0.054920
0.550183 0.135242 0.012990
0.523462 0.162085 0.087780
0.501960 0.105010 0.056777
0.521027 0.217007 0.047236
0.524751 0.117682 0.003612
0.523429 0.123133 0.003874
0.501362 0.091466 0.040608
0.502584 0.198912 0.051044
0.566947 0.112151 0.026769
0.535354 0.083102 0.006179
0.564809 0.148409 0.026374
0.518636 0.150473 0.006903
0.572921 0.138457 0.069662
0.540746 0.197101 0.082825
0.525915 0.095346 0.004605
0.569607 0.173266 0.074470
0.507233 0.167670 0.079876
0.561579 0.140574 0.022193
0.494098 0.108176 0.025534
0.493010 0.113310 0.038459
0.554730 0.097876 0.067636
0.493620 0.161282 0.026984
0.512911 0.068733 0.030209
0.519340 0.107279 0.071789
0.553905 0.197594 0.031672
0.504387 0.164562 0.015044
0.570459 0.051055 0.033583
0.576229 0.160303 0.063370
0.497086 0.186255 0.047397
0.494646 0.177923 0.041201
0.532795 0.151856 0.088831
0.541358 0.138647 0.008365
0.518236 0.093136 0.006083
0.507977 0.116464 0.069620
0.538999 0.079174 0.061670
0.513054 0.111671 0.070739
0.495411 0.175911 0.034844
0.532798 0.181410 0.087466
0.494962 0.123717 0.015466
0.504679 0.129651 0.072632
0.577157 0.137967 0.049514
0.551228 0.110996 0.012503
0.523257 0.108687 0.003630
0.535008 0.185912 0.015901
0.529318 0.052788 0.018678
0.574923 0.170638 0.053099
0.495367 0.129980 0.015058
0.519477 0.062848 0.017384
0.542119 0.199813 0.081399
0.565574 0.048663 0.037641
0.496555 0.102642 0.040316
0.565061 0.082895 0.020232
0.509858 0.173088 0.080785
0.568700 0.087244 0.051631
0.509256 0.110486 0.006090
0.519965 0.191953 0.081498
0.548018 0.174399 0.087109
0.575252 0.126452 0.060854
0.561032 0.117900 0.073469
0.498490 0.095976 0.035098
0.492368 0.139251 0.022171
0.572017 0.168496 0.041363
0.530600 0.177683 0.087993
0.529455 0.176247 0.012240
0.530801 0.066005 0.009953
0.508247 0.168046 0.080537
0.572279 0.179001 0.049768
0.508968 0.109008 0.006341
0.497200 0.106765 0.048658
0.571899 0.091210 0.033580
0.519497 0.204249 0.075699
0.522200 0.102838 0.004071
0.543029 0.066323 0.054805
0.495662 0.111818 0.016666
0.496059 0.136195 0.015241
0.554454 0.196821 0.031638
0.572047 0.137669 0.035658
0.537462 0.205438 0.027808
0.557701 0.187379 0.080491
0.513682 0.191773 0.022383
0.531367 0.097108 0.004528
0.554138 0.093847 0.066122
0.573091 0.066304 0.037251
0.494833 0.145962 0.019880
0.520427 0.214457 0.067119
0.563094 0.062130 0.014125
0.514964 0.121669 0.076285
0.573419 0.104080 0.041751
0.540088 0.178372 0.087872
0.530811 0.204417 0.025816
0.571290 0.141835 0.034707
0.514304 0.183258 0.017612
0.511047 0.094317 0.008181
0.509039 0.076429 0.037121
0.536657 0.110679 0.005394
0.567296 0.082723 0.022623
0.563245 0.186706 0.076175
0.503560 0.087180 0.040620
0.537874 0.070552 0.056778
0.546942 0.215335 0.050854
0.517614 0.207847 0.032853
0.511817 0.083719 0.011318
0.496483 0.128373 0.013532
0.490503 0.162445 0.049121
0.554295 0.055831 0.011329
0.559330 0.172472 0.083222
0.488825 0.143204 0.036499
0.568821 0.068970 0.020588
0.503905 0.130004 0.008036
0.555298 0.194212 0.079196
0.502526 0.094224 0.048460
0.557078 0.168014 0.084820
0.505696 0.084779 0.043220
0.576423 0.155309 0.049134
0.528258 0.055609 0.036942
0.493417 0.128877 0.018063
0.531213 0.191457 0.017739
0.559909 0.068528 0.013648
0.556082 0.042967 0.026678
0.541079 0.044717 0.024974
0.505300 0.174556 0.019013
0.571400 0.177894 0.068650
0.558363 0.203542 0.067085
0.513052 0.212123 0.047426
0.512067 0.162287 0.083321
0.544540 0.144415 0.086882
0.559169 0.176306 0.082596
0.555737 0.122553 0.015872
0.549846 0.162485 0.087623
0.570332 0.180451 0.044740
0.570998 0.156247 0.074636
0.502724 0.116856 0.064681
0.517506 0.123319 0.078035
0.522444 0.110425 0.074324
0.521733 0.209350 0.073616
0.543224 0.156592 0.011273
0.549517 0.142855 0.085615
0.535929 0.147471 0.007639
0.572669 0.067151 0.038632
0.526437 0.178333 0.012844
0.550090 0.094276 0.067575
0.526981 0.082528 0.006511
0.574161 0.163040 0.069295
0.546506 0.146267 0.086936
0.541972 0.131210 0.008122
0.573922 0.168969 0.068069
0.525692 0.209004 0.075643
0.545821 0.216058 0.060289
0.525785 0.065185 0.011826
0.506947 0.151214 0.079396
0.528084 0.205486 0.078449
0.490561 0.129734 0.026321
0.493139 0.172878 0.052606
0.573397 0.073352 0.035320
0.514028 0.191898 0.022230
0.570768 0.054183 0.022199
0.562309 0.079746 0.055664
0.516491 0.072422 0.013326
0.555906 0.143557 0.083886
0.499255 0.187637 0.038362
0.564980 0.045224 0.027963
0.531771 0.137612 0.085691
0.492227 0.132267 0.020931
0.565491 0.195383 0.051039
0.573238 0.076035 0.033524
0.533475 0.179479 0.013528
0.511359 0.127613 0.005439
0.539586 0.045349 0.024234
0.520692 0.068097 0.012875
0.492363 0.168653 0.037002
0.533928 0.159175 0.009032
0.490006 0.132650 0.045504
0.546075 0.215875 0.050982
0.552181 0.058709 0.049741
0.504508 0.083143 0.032821
0.540839 0.103655 0.007013
0.563955 0.186006 0.075739
0.573155 0.176168 0.050164
0.541381 0.178498 0.015026
0.554145 0.101642 0.069471
0.556516 0.176120 0.083974
0.555345 0.150971 0.085257
0.504621 0.201808 0.055663
0.552682 0.177802 0.021128
0.501710 0.158453 0.015146
0.538255 0.147452 0.008223
0.530566 0.089784 0.066193
0.495803 0.148591 0.019195
0.528255 0.061599 0.045619
0.529061 0.051986 0.027234
0.518577 0.087778 0.060533
0.550506 0.151654 0.086877
0.574331 0.173649 0.061510
0.572104 0.179724 0.049977
0.496954 0.104070 0.044607
0.571589 0.108500 0.057204
0.518899 0.126147 0.004285
0.501483 0.149080 0.012986
0.552912 0.165394 0.018643
0.506342 0.198663 0.065363
0.575221 0.147951 0.043330
0.547916 0.044819 0.035303
0.576786 0.145932 0.048127
0.564190 0.047199 0.036827
0.553990 0.153215 0.017423
0.537754 0.173423 0.088883
0.546059 0.120760 0.079441
0.494148 0.107399 0.028178
0.563135 0.056682 0.014099
0.497684 0.179646 0.063234
0.558021 0.043150 0.026722
0.491141 0.166766 0.045623
0.551162 0.043485 0.021971
0.529163 0.183314 0.014448
0.493437 0.165554 0.060163
0.527301 0.147843 0.087477
0.575865 0.161580 0.064542
0.505272 0.117319 0.067665
0.503779 0.194805 0.036204
0.545578 0.071751 0.008617
0.562792 0.114551 0.070756
0.514940 0.212711 0.044462
0.538427 0.197028 0.083043
0.514246 0.082190 0.053180
0.534034 0.049391 0.030591
0.543790 0.165674 0.088889
0.549510 0.066520 0.054693
0.501771 0.184353 0.029795
0.552039 0.204455 0.073795
0.490471 0.138121 0.027002
0.556749 0.116789 0.075099
0.577578 0.140742 0.053218
0.507848 0.197957 0.068534
0.515815 0.121283 0.004387
0.533840 0.212344 0.073910
0.528147 0.052322 0.023355
0.505385 0.130821 0.007447
0.548562 0.068474 0.055835
0.511295 0.089976 0.009337
0.547770 0.139629 0.085208
0.501012 0.099461 0.050676
0.575353 0.124483 0.043307
0.570807 0.112254 0.032843
0.494501 0.139262 0.018284
0.563203 0.173494 0.080657
0.491330 0.128884 0.023294
0.527558 0.106556 0.003698
0.523113 0.098300 0.068655
0.573430 0.148184 0.070542
0.560681 0.159940 0.083389
0.534027 0.205576 0.079017
0.573225 0.064819 0.027528
0.559015 0.072388 0.054627
0.575934 0.151097 0.046007
0.563091 0.049539 0.040304
0.561514 0.143882 0.081327
0.535729 0.047323 0.023097
0.569409 0.113199 0.030452
0.490051 0.127097 0.036483
0.562368 0.154630 0.024503
0.536290 0.196750 0.021099
0.574120 0.172056 0.065202
0.491048 0.150161 0.028573
0.519486 0.074165 0.010854
0.542335 0.084282 0.007571
0.535110 0.146787 0.088025
0.493455 0.109835 0.032163
0.524292 0.060740 0.040451
0.558103 0.175218 0.083371
0.567517 0.111217 0.064766
0.576397 0.163548 0.056615
0.547716 0.044678 0.019396
0.503495 0.084774 0.028761
0.549718 0.152109 0.014440
0.559166 0.064730 0.012645
0.510732 0.072749 0.033926
0.555221 0.178811 0.084038
0.488872 0.144358 0.045610
0.535034 0.146986 0.088063
0.554172 0.096017 0.067049
0.570689 0.124022 0.032798
0.555960 0.108108 0.071571
0.509917 0.203218 0.035415
0.567138 0.177658 0.075863
0.510522 0.072105 0.026675
0.577260 0.147079 0.060490
0.509292 0.080832 0.015078
0.561712 0.166124 0.082646
0.560726 0.143425 0.021647
0.573906 0.126287 0.063848
0.533955 0.207508 0.029041
0.534219 0.188532 0.016806
0.497408 0.151232 0.069366
0.567156 0.170674 0.033660
0.515710 0.122418 0.004441
0.541175 0.186412 0.086075
0.488709 0.148659 0.040225
0.497159 0.184421 0.041064
0.533200 0.162177 0.089712
0.572710 0.094758 0.039828
0.500789 0.192976 0.041664
0.489923 0.133891 0.029073
0.554273 0.133791 0.082110
0.531582 0.075110 0.058107
0.530042 0.135780 0.085021
0.507273 0.124342 0.072698
0.550021 0.212615 0.062395
0.504646 0.127920 0.071952
0.568648 0.170262 0.035802
0.553920 0.177444 0.021936
0.552797 0.206002 0.039945
0.560218 0.141998 0.021046
0.497334 0.153473 0.018428
0.537459 0.186106 0.086442
0.534792 0.120248 0.080015
0.573007 0.174987 0.048209
0.534581 0.214535 0.038356
0.548623 0.071128 0.009408
0.505175 0.160368 0.013102
0.530048 0.156440 0.089068
0.569945 0.126870 0.069903
0.542414 0.050059 0.014788
0.574310 0.129403 0.039931
0.512955 0.068342 0.027889
0.532898 0.110265 0.075880
0.519582 0.149379 0.006684
0.516207 0.102631 0.067938
0.500699 0.173611 0.072206
0.493861 0.165975 0.029378
0.513451 0.139665 0.081278
0.493968 0.124372 0.017048
0.491566 0.148095 0.057936
0.509575 0.176655 0.017061
0.549947 0.113075 0.075649
0.503799 0.146123 0.010590
0.516529 0.064401 0.020375
0.521895 0.215962 0.065833
0.539760 0.056154 0.046675
0.528473 0.201363 0.023392
0.540770 0.179125 0.087663
0.551980 0.162176 0.087018
0.525641 0.104328 0.003765
0.554405 0.120514 0.077530
0.551009 0.139674 0.084540
0.546192 0.048827 0.040862
0.565287 0.122670 0.072648
0.552275 0.207104 0.040939
0.515775 0.082335 0.054661
0.541108 0.046017 0.019470
0.552392 0.211377 0.051167
0.571979 0.181022 0.062926
0.518867 0.068475 0.044191
0.565736 0.194392 0.065187
0.551399 0.120203 0.078240
0.526606 0.054905 0.031858
0.493457 0.151698 0.023790
0.499796 0.092832 0.034071
0.491804 0.161743 0.056604
0.562393 0.143571 0.023284
0.526157 0.183288 0.014492
0.544577 0.043735 0.023614
0.574929 0.165943 0.048440
0.544863 0.209311 0.036074
0.499845 0.094899 0.041096
0.544860 0.131746 0.009585
0.552278 0.128561 0.013849
0.532453 0.073788 0.057524
0.553534 0.184878 0.083372
0.566435 0.102920 0.061562
0.554708 0.152139 0.085619
0.509000 0.207914 0.046165
0.543947 0.116447 0.008633
0.554219 0.176053 0.021807
0.526687 0.114879 0.003599
0.495338 0.103592 0.028131
0.568522 0.135561 0.074229
0.569440 0.130536 0.071792
0.512578 0.068835 0.025657
0.550507 0.136276 0.013282
0.554912 0.072912 0.056568
0.532504 0.077625 0.059887
0.573679 0.061195 0.033216
0.510076 0.079669 0.014933
0.529824 0.144301 0.006246
0.509561 0.129227 0.005974
0.506506 0.199870 0.064464
0.512259 0.203862 0.069627
0.525745 0.182687 0.014306
0.566878 0.048427 0.021660
0.495371 0.103588 0.032575
0.497915 0.150452 0.016957
0.540773 0.103594 0.072974
0.532345 0.210527 0.032233
0.542902 0.063224 0.008944
0.560650 0.200843 0.067325
0.515363 0.126199 0.078191
0.560082 0.184410 0.079887
0.573212 0.178502 0.056543
0.550307 0.111266 0.011985
0.526501 0.203029 0.079344
0.530732 0.212716 0.073605
0.546710 0.100698 0.009690
0.489926 0.131895 0.029563
0.525845 0.177171 0.087131
0.554189 0.206990 0.043870
0.511654 0.206861 0.037805
0.490052 0.140211 0.028961
0.518358 0.147151 0.006478
0.505654 0.154142 0.011181
0.493194 0.154948 0.062050
0.505004 0.192076 0.031448
0.519662 0.204013 0.075937
0.510971 0.146442 0.007546
0.492069 0.144879 0.058772
0.495283 0.113371 0.049238
0.536419 0.214669 0.039222
0.524657 0.125532 0.004028
0.554493 0.150422 0.017412
0.543815 0.176080 0.015332
0.528415 0.054089 0.033570
0.495906 0.153053 0.020224
0.494265 0.163914 0.062932
0.513138 0.193370 0.023767
0.516634 0.119880 0.076317
0.553113 0.174013 0.085668
0.513194 0.149269 0.007448
0.561985 0.135059 0.022139
0.535526 0.098885 0.005203
0.556807 0.072478 0.012736
0.556938 0.115109 0.016432
0.570976 0.181448 0.066514
0.553790 0.177912 0.084779
0.502719 0.179145 0.072982
0.540313 0.204377 0.079087
0.567957 0.094455 0.026196
0.574526 0.140112 0.067379
0.560404 0.193954 0.037032
0.497978 0.172922 0.067853
0.493235 0.170338 0.056342
0.554731 0.042945 0.030253
0.561077 0.199026 0.069345
0.573935 0.135623 0.067312
0.505281 0.180763 0.075354
0.531947 0.152781 0.088895
