ply
format ascii 1.0
element vertex 1024
property float x
property float y
property float z
end_header
0.487419 0.146094 0.012110
0.510421 0.064203 0.011074
0.512688 0.059602 0.010384
0.479422 0.178190 0.084021
0.559158 0.075081 0.053532
0.481738 0.100559 0.037247
0.473781 0.168800 0.080886
0.552830 0.152146 0.049894
0.510797 0.052312 0.034993
0.496694 0.093732 0.056140
0.534686 0.163783 0.079711
0.506521 0.199592 0.068208
0.566265 0.089358 0.044564
0.556066 0.104845 0.070450
0.536142 0.147528 0.084936
0.505828 0.096921 0.066199
0.492545 0.083359 0.031818
0.488809 0.176079 0.089434
0.468015 0.169466 0.032461
0.511512 0.143384 0.090775
0.560776 0.107584 0.066698
0.537761 0.036408 0.035231
0.470256 0.191285 0.062236
0.534712 0.072007 0.004894
0.513771 0.040350 0.018019
0.505260 0.123500 0.005961
0.479383 0.180106 0.029854
0.515620 0.173165 0.021855
0.533986 0.129554 0.009524
0.488870 0.181717 0.027330
0.508742 0.088467 0.061506
0.518126 0.130471 0.087368
0.563685 0.072376 0.045083
0.557326 0.068638 0.018991
0.533531 0.167843 0.028434
0.553667 0.125168 0.022803
0.515304 0.089317 0.065480
0.506474 0.153895 0.092513
0.499316 0.181662 0.025739
0.556550 0.066868 0.050351
0.508157 0.186497 0.084934
0.534325 0.178619 0.051126
0.523239 0.152625 0.012706
0.510504 0.177092 0.089036
0.485499 0.177240 0.087847
0.518187 0.151184 0.091060
0.562356 0.082475 0.054476
0.533433 0.146566 0.014501
0.469532 0.169451 0.075667
0.512100 0.045040 0.016326
0.510744 0.045091 0.019563
0.529357 0.166190 0.082742
0.549925 0.148471 0.032525
0.505455 0.108126 0.006096
0.517739 0.170024 0.088335
0.544584 0.131912 0.016178
0.501826 0.196725 0.042895
0.461309 0.164624 0.043857
0.514562 0.167316 0.017444
0.474141 0.134378 0.020005
0.549603 0.157173 0.045062
0.565383 0.111640 0.049680
0.560590 0.085737 0.058514
0.466272 0.153458 0.067653
0.528646 0.182900 0.065748
0.479347 0.170928 0.085561
0.472459 0.184883 0.074832
0.495103 0.184940 0.087729
0.503952 0.186643 0.086276
0.542161 0.167682 0.062782
0.554996 0.047293 0.027953
0.544185 0.165029 0.062115
0.548714 0.130781 0.078062
0.500782 0.108635 0.071589
0.550563 0.057828 0.047866
0.474375 0.186666 0.038591
0.490926 0.088484 0.023618
0.539816 0.084116 0.006235
0.487346 0.190480 0.082768
0.547590 0.150280 0.072568
0.550190 0.089700 0.011707
0.503673 0.128714 0.085051
0.542448 0.089048 0.007426
0.556961 0.076127 0.056027
0.519797 0.045005 0.038797
0.528726 0.101212 0.076418
0.527940 0.061272 0.051579
0.471423 0.165364 0.078129
0.553844 0.112592 0.073918
0.555579 0.096744 0.016829
0.563594 0.076687 0.048589
0.506899 0.151269 0.092157
0.520417 0.172830 0.023168
0.542062 0.130793 0.082414
0.469873 0.188192 0.047604
0.564108 0.085072 0.030234
0.496755 0.187740 0.031172
0.540047 0.144280 0.082809
0.482442 0.164156 0.087767
0.533438 0.077461 0.063481
0.479256 0.200217 0.061631
0.519551 0.148909 0.010448
0.460953 0.155807 0.044500
0.475273 0.136809 0.018647
0.475876 0.110251 0.037034
0.495470 0.182266 0.026435
0.546270 0.162464 0.060400
0.553410 0.134504 0.072158
0.512176 0.086570 0.006113
0.502316 0.158875 0.012206
0.506962 0.173140 0.019899
0.527189 0.176088 0.077859
0.475931 0.149115 0.078825
0.509495 0.195287 0.044980
0.485535 0.107199 0.056442
0.518043 0.100826 0.074550
0.499002 0.172952 0.092099
0.469544 0.123759 0.043647
0.462888 0.147206 0.036280
0.507086 0.155165 0.010930
0.524121 0.165578 0.019472
0.469083 0.148083 0.024631
0.524030 0.114407 0.005230
0.529063 0.153973 0.015594
0.541969 0.153180 0.024572
0.508366 0.087443 0.007457
0.495671 0.106958 0.066953
0.560635 0.089429 0.060434
0.500014 0.167990 0.016308
0.503342 0.093052 0.008874
0.466658 0.182187 0.066018
0.473220 0.119248 0.027176
0.527082 0.107929 0.005008
0.533456 0.099463 0.075558
0.518421 0.173988 0.023398
0.509598 0.163112 0.092573
0.484165 0.155727 0.087475
0.523365 0.099630 0.004337
0.513994 0.182464 0.029641
0.533540 0.089680 0.070820
0.477687 0.173566 0.083894
0.476852 0.196870 0.051944
0.547416 0.142751 0.076150
0.505481 0.080270 0.052277
0.469411 0.161464 0.075031
0.517434 0.059589 0.045837
0.555363 0.049853 0.025488
0.560080 0.084152 0.058143
0.527999 0.032259 0.030680
0.517601 0.129102 0.086932
0.482908 0.201569 0.054985
0.502230 0.201993 0.056599
0.482648 0.202067 0.060162
0.460803 0.159729 0.053346
0.476600 0.188990 0.039217
0.556864 0.140860 0.044029
0.507548 0.106180 0.073725
0.538574 0.033695 0.023217
0.529403 0.139279 0.010262
0.523259 0.069590 0.004916
0.475648 0.125431 0.020165
0.510181 0.157207 0.011849
0.497466 0.193031 0.036887
0.461517 0.149577 0.048490
0.558580 0.064650 0.021998
0.522644 0.100014 0.075199
0.522896 0.154521 0.013343
0.516316 0.180796 0.083994
0.563675 0.079489 0.029172
0.471112 0.158736 0.024795
0.463803 0.148176 0.033203
0.528965 0.184166 0.057049
0.508701 0.059344 0.037886
0.491956 0.157591 0.091019
0.492423 0.189501 0.033193
0.487606 0.142553 0.011464
0.546446 0.104434 0.010908
0.480574 0.187517 0.035148
0.519352 0.108904 0.004694
0.505002 0.201162 0.058623
0.544636 0.070352 0.058425
0.487068 0.159553 0.015828
0.495486 0.187867 0.031340
0.532933 0.156129 0.084758
0.527284 0.065639 0.054154
0.500813 0.108851 0.007241
0.540585 0.045471 0.043254
0.507274 0.167819 0.092522
0.489767 0.118472 0.010268
0.515741 0.042862 0.034145
0.512449 0.193055 0.042865
0.540860 0.100365 0.074945
0.529329 0.134533 0.087391
0.513962 0.112557 0.004959
0.462408 0.146533 0.051647
0.464368 0.166144 0.036236
0.484368 0.136195 0.012283
0.566322 0.092879 0.048748
0.495052 0.117907 0.074409
0.519652 0.096464 0.072296
0.496115 0.134319 0.084904
0.481532 0.165767 0.087273
0.538373 0.172716 0.044144
0.482726 0.152154 0.085587
0.546775 0.155460 0.033739
0.470945 0.192421 0.059485
0.559909 0.088827 0.021235
0.553583 0.150208 0.055909
0.563824 0.113163 0.038524
0.514701 0.177580 0.025283
0.532301 0.159930 0.020783
0.467272 0.128825 0.043199
0.554623 0.046761 0.027712
0.475436 0.145175 0.076337
0.485446 0.197761 0.044625
0.511707 0.191122 0.078645
0.564112 0.087423 0.030264
0.549814 0.136612 0.023614
0.499134 0.072913 0.023906
0.487948 0.100409 0.052049
0.472619 0.149350 0.075255
0.513391 0.039351 0.022612
0.473491 0.164784 0.080517
0.499846 0.142853 0.008541
0.547052 0.049851 0.013754
0.539009 0.033944 0.022983
0.495618 0.144769 0.089045
0.468065 0.127892 0.034067
0.518095 0.090049 0.067260
0.536196 0.176523 0.050423
0.498711 0.081937 0.016487
0.530868 0.172041 0.029852
0.545969 0.114628 0.012420
0.468011 0.146036 0.066801
0.553158 0.138429 0.030200
0.564059 0.117071 0.057198
0.524218 0.178792 0.078704
0.497874 0.122149 0.078844
0.543274 0.123628 0.081160
0.504251 0.061183 0.021934
0.538916 0.117079 0.080962
0.517253 0.092534 0.068679
0.539530 0.139722 0.083694
0.545393 0.142987 0.021750
0.530527 0.153334 0.086860
0.535943 0.060489 0.005827
0.472295 0.194113 0.061294
0.512292 0.107450 0.005009
0.475318 0.136313 0.070575
0.474486 0.126813 0.061305
0.543538 0.037046 0.031558
0.505168 0.081524 0.053110
0.497932 0.073944 0.028954
0.473809 0.116853 0.046425
0.467529 0.186698 0.061661
0.555305 0.141208 0.038150
0.520927 0.191300 0.056167
0.527041 0.182425 0.039612
0.517955 0.193533 0.061457
0.460819 0.155136 0.048160
0.528856 0.050742 0.006563
0.477350 0.109933 0.026854
0.528153 0.168827 0.024353
0.546571 0.080582 0.063932
0.550175 0.135712 0.023602
0.477895 0.165482 0.022606
0.536321 0.143416 0.014788
0.551927 0.153304 0.046476
0.557854 0.139697 0.048717
0.548521 0.042634 0.035347
0.481253 0.102010 0.039722
0.558321 0.057068 0.025539
0.555188 0.141999 0.063899
0.480050 0.191233 0.078262
0.525323 0.117768 0.005653
0.524935 0.168295 0.021790
0.509934 0.068719 0.010336
0.522273 0.146199 0.010222
0.482482 0.100920 0.041600
0.562221 0.123144 0.060256
0.566392 0.092562 0.045839
0.552740 0.047620 0.037177
0.484912 0.180862 0.028034
0.469438 0.146853 0.069620
0.472741 0.141282 0.020828
0.559004 0.084759 0.059507
0.464294 0.154605 0.063992
0.539749 0.097443 0.006968
0.466059 0.137538 0.031507
0.463113 0.174903 0.060468
0.523040 0.044983 0.008483
0.498524 0.203334 0.063105
0.517789 0.176268 0.085585
0.550934 0.051816 0.042991
0.541300 0.097687 0.073762
0.488487 0.148887 0.087683
0.500869 0.151317 0.091765
0.556070 0.143671 0.045757
0.512773 0.073200 0.052494
0.527214 0.185813 0.053826
0.515024 0.153912 0.011268
0.565773 0.103905 0.055293
0.468086 0.127582 0.034526
0.522088 0.189656 0.050141
0.466811 0.185311 0.051482
0.465339 0.142975 0.030815
0.481368 0.104727 0.045836
0.487193 0.092236 0.036750
0.529950 0.177941 0.036146
0.553386 0.108203 0.073155
0.519210 0.062883 0.049094
0.522091 0.088519 0.067774
0.541647 0.160194 0.074331
0.554539 0.124271 0.023527
0.481146 0.102566 0.040794
0.539111 0.081458 0.005942
0.486476 0.188951 0.034054
0.510702 0.198157 0.064510
0.504309 0.077930 0.012294
0.559227 0.111976 0.025050
0.537940 0.081861 0.005616
0.473846 0.195291 0.055776
0.490421 0.200170 0.073954
0.514958 0.163711 0.091095
0.489177 0.172473 0.021149
0.555794 0.107755 0.019032
0.475390 0.118307 0.052873
0.512630 0.063883 0.045338
0.467544 0.186049 0.050049
0.536164 0.048580 0.045747
0.465927 0.180396 0.065515
0.555612 0.145599 0.048568
0.541427 0.106291 0.077007
0.560225 0.076649 0.053461
0.548469 0.091874 0.010722
0.486951 0.110883 0.062113
0.546573 0.159045 0.038258
0.483323 0.202235 0.057752
0.492734 0.138461 0.009300
0.553598 0.145283 0.064727
0.532264 0.171557 0.076172
0.549512 0.145296 0.072356
0.504470 0.178728 0.023791
0.519805 0.188353 0.041135
0.475381 0.155617 0.080730
0.553160 0.046191 0.024718
0.475613 0.133676 0.018605
0.537551 0.033175 0.028106
0.563097 0.111282 0.034067
0.496253 0.084395 0.018206
0.532458 0.095447 0.004952
0.550992 0.153003 0.062635
0.468804 0.125821 0.034093
0.554797 0.147621 0.054909
0.517131 0.193663 0.053003
0.480844 0.106106 0.023179
0.483801 0.202503 0.058741
0.528842 0.148770 0.088250
0.474519 0.114760 0.028721
0.474867 0.196693 0.063251
0.515613 0.141799 0.090326
0.532302 0.179822 0.062701
0.534822 0.155901 0.020004
0.530693 0.037634 0.011762
0.551688 0.075162 0.058682
0.513825 0.189553 0.037872
0.494354 0.107901 0.009983
0.507102 0.056808 0.018146
0.553448 0.127153 0.023507
0.525203 0.057208 0.048127
0.526383 0.186567 0.053803
0.530478 0.082710 0.004350
0.530654 0.119169 0.083020
0.493736 0.139077 0.009117
0.489275 0.136588 0.010183
0.463862 0.179851 0.053346
0.542435 0.060909 0.052884
0.501506 0.072333 0.018493
0.521150 0.097311 0.073280
0.510765 0.155970 0.092412
0.518726 0.125814 0.085855
0.492313 0.157813 0.091158
0.492626 0.085047 0.024508
0.565755 0.081362 0.042813
0.541945 0.057924 0.051057
0.485826 0.184612 0.030515
0.529968 0.031996 0.029981
0.525165 0.158371 0.088182
0.542693 0.145900 0.020611
0.522042 0.041583 0.009996
0.557712 0.081747 0.018206
0.507570 0.059157 0.016004
0.483759 0.109740 0.016928
0.469119 0.149942 0.070779
0.528886 0.177271 0.033750
0.492968 0.165612 0.016370
0.488752 0.110029 0.012679
0.510697 0.171549 0.090846
0.496951 0.138462 0.087130
0.551058 0.121387 0.076891
0.510083 0.155402 0.092465
0.545795 0.161928 0.063622
0.498971 0.138479 0.087767
0.526659 0.147232 0.089043
0.470677 0.192052 0.060447
0.480986 0.172588 0.086416
0.529772 0.051421 0.046274
0.551435 0.116483 0.017054
0.518930 0.046960 0.039252
0.515725 0.143021 0.008295
0.536357 0.090340 0.005507
0.532564 0.052084 0.047292
0.494483 0.203948 0.062878
0.495942 0.090362 0.015163
0.511776 0.116821 0.081559
0.493404 0.087779 0.019803
0.515351 0.181295 0.028979
0.538880 0.128052 0.011394
0.541830 0.048355 0.010565
0.509615 0.051949 0.016270
0.519974 0.105914 0.077811
0.518812 0.049814 0.008697
0.501627 0.086186 0.053978
0.475430 0.130279 0.065974
0.550402 0.133102 0.076044
0.493271 0.185003 0.028973
0.561889 0.109772 0.029560
0.517558 0.093397 0.069420
0.465286 0.148047 0.062741
0.516766 0.117296 0.005101
0.499641 0.132567 0.085500
0.540252 0.149794 0.081378
0.549308 0.081557 0.010761
0.513562 0.046330 0.013565
0.548565 0.048478 0.016003
0.545110 0.161978 0.065612
0.540506 0.156770 0.078142
0.545678 0.111304 0.011578
0.503709 0.175320 0.021038
0.526310 0.186140 0.049579
0.529595 0.143416 0.011608
0.550012 0.076826 0.011219
0.555168 0.087810 0.015651
0.540540 0.035007 0.021928
0.507586 0.055975 0.017689
0.539944 0.041276 0.040032
0.556291 0.144018 0.049305
0.528919 0.078843 0.004252
0.534432 0.047108 0.008101
0.463515 0.166305 0.064705
0.471770 0.118473 0.034407
0.484358 0.188717 0.082502
0.476884 0.146454 0.078467
0.550402 0.112565 0.075883
0.493069 0.189232 0.032849
0.478693 0.158281 0.084426
0.506692 0.110598 0.005728
0.511539 0.145857 0.091248
0.536488 0.111554 0.007344
0.546453 0.083709 0.065726
0.466019 0.158272 0.030451
0.506820 0.066071 0.041104
0.548675 0.142648 0.074663
0.509275 0.155044 0.011009
0.563001 0.105184 0.030549
0.530258 0.173387 0.030635
0.501296 0.191813 0.035958
0.511071 0.193830 0.043266
0.554024 0.137025 0.030814
0.539889 0.126314 0.011508
0.503350 0.201834 0.058441
0.551083 0.122323 0.018656
0.495417 0.096654 0.057665
0.492853 0.083136 0.028425
0.526324 0.158513 0.087619
0.497071 0.145312 0.089608
0.533880 0.102732 0.076877
0.481720 0.126599 0.014204
0.498928 0.092046 0.056876
0.491469 0.175035 0.090477
0.483611 0.097511 0.036414
0.532971 0.062037 0.053409
0.483253 0.111960 0.016492
0.499922 0.166700 0.015645
0.559516 0.075771 0.053628
0.494693 0.190565 0.034074
0.514074 0.191790 0.075516
0.561284 0.090956 0.060497
0.482915 0.182110 0.084853
0.551682 0.114254 0.075569
0.541397 0.168111 0.064388
0.462076 0.173929 0.055379
0.504916 0.093110 0.008077
0.490204 0.200837 0.048089
0.540472 0.170011 0.062738
0.514930 0.176649 0.024541
0.503164 0.124158 0.082690
0.560697 0.131227 0.050082
0.470737 0.186692 0.071230
0.505643 0.173532 0.091617
0.534996 0.100894 0.076023
0.496675 0.180633 0.025003
0.550825 0.094577 0.069471
0.541902 0.067291 0.007065
0.490694 0.087437 0.026064
0.558527 0.124365 0.068927
0.480374 0.129230 0.014939
0.560571 0.108717 0.067126
0.508351 0.149687 0.009406
0.512707 0.143922 0.090860
0.493294 0.083153 0.026000
0.553510 0.146054 0.064122
0.513670 0.076504 0.055482
0.532875 0.110265 0.079772
0.560837 0.114035 0.029197
0.534914 0.152458 0.084618
0.506855 0.063347 0.038798
0.524982 0.031303 0.024070
0.502545 0.121551 0.006224
0.501973 0.067346 0.021943
0.530188 0.182619 0.060173
0.525530 0.164768 0.019673
0.502298 0.194261 0.080281
0.478110 0.199307 0.063274
0.548897 0.055432 0.013269
0.547997 0.145470 0.026659
0.496852 0.164540 0.092644
0.549659 0.072519 0.011067
0.560176 0.128984 0.062317
0.473493 0.194441 0.066559
0.513114 0.080067 0.057732
0.517720 0.062305 0.007130
0.505168 0.201181 0.059765
0.513347 0.073721 0.007361
0.551830 0.112600 0.075133
0.535948 0.140879 0.085676
0.532729 0.179697 0.047290
0.555742 0.129974 0.071010
0.537932 0.169797 0.036857
0.529326 0.064944 0.004759
0.475874 0.139026 0.073094
0.559079 0.119618 0.069199
0.513084 0.063955 0.009192
0.532909 0.099749 0.075713
0.490239 0.196979 0.042087
0.508082 0.184832 0.030098
0.460727 0.157181 0.050753
0.467417 0.150620 0.068355
0.492846 0.086517 0.041666
0.551741 0.147548 0.066978
0.478663 0.199673 0.063284
0.537948 0.107967 0.007398
0.478639 0.149944 0.081701
0.465965 0.181903 0.046009
0.495381 0.138302 0.086469
0.539754 0.114595 0.080045
0.520899 0.081595 0.004542
0.481919 0.184529 0.031968
0.485678 0.094002 0.031439
0.478581 0.127997 0.016585
0.522972 0.081701 0.004319
0.534547 0.155485 0.019559
0.493207 0.098963 0.057484
0.561679 0.123445 0.062187
0.503093 0.180136 0.089790
0.540115 0.146235 0.018573
0.551168 0.143238 0.030232
0.468130 0.186539 0.065112
0.483374 0.190163 0.036376
0.562983 0.063810 0.037438
0.476641 0.173960 0.082947
0.539373 0.052511 0.048004
0.490052 0.090767 0.022580
0.470393 0.145155 0.023146
0.559323 0.086678 0.060281
0.558401 0.132607 0.064344
0.526037 0.113036 0.081253
0.502990 0.123910 0.082497
0.566060 0.091713 0.050400
0.555512 0.103114 0.017733
0.504932 0.105018 0.071484
0.509964 0.169132 0.017705
0.556004 0.118792 0.022919
0.494560 0.197537 0.077888
0.536165 0.097340 0.074423
0.535136 0.102403 0.076621
0.563829 0.101292 0.031738
0.518182 0.192088 0.068174
0.497483 0.085226 0.047885
0.540206 0.066082 0.056495
0.484835 0.115270 0.063909
0.528113 0.127763 0.085958
0.476625 0.122059 0.020033
0.480693 0.188264 0.035777
0.544012 0.079210 0.063889
0.465045 0.153599 0.030843
0.523332 0.177009 0.028487
0.491399 0.108506 0.064579
0.565374 0.111469 0.053027
0.562838 0.121497 0.043668
0.509748 0.095867 0.005940
0.544211 0.155233 0.074461
0.563685 0.073784 0.030477
0.537621 0.119779 0.009002
0.474290 0.161769 0.081021
0.534452 0.148442 0.085769
0.518187 0.037221 0.015356
0.465510 0.135727 0.034777
0.528692 0.182580 0.066480
0.534966 0.174242 0.068690
0.505499 0.157458 0.011653
0.512091 0.109461 0.077799
0.551710 0.081202 0.062217
0.544476 0.130974 0.015776
0.532250 0.084706 0.004556
0.541675 0.125478 0.012319
0.535798 0.169630 0.073495
0.493722 0.180791 0.025515
0.559447 0.119457 0.068670
0.541809 0.144263 0.018960
0.475238 0.111460 0.037635
0.513824 0.084770 0.061476
0.541150 0.090686 0.070680
0.497934 0.153472 0.091716
0.556518 0.049292 0.032755
0.463679 0.140312 0.048548
0.556598 0.124186 0.071683
0.561538 0.060936 0.038995
0.478512 0.189294 0.038112
0.523133 0.038999 0.011063
0.563716 0.112188 0.037156
0.511737 0.059592 0.041415
0.518660 0.180693 0.029779
0.503151 0.074797 0.014710
0.552861 0.098936 0.070334
0.501789 0.192095 0.036405
0.482772 0.168707 0.021643
0.480342 0.107690 0.022649
0.495290 0.111920 0.008751
0.565235 0.103808 0.038854
0.554780 0.135906 0.069477
0.468499 0.134847 0.058430
0.497162 0.178902 0.023620
0.507288 0.146403 0.091318
0.550816 0.055710 0.046147
0.522186 0.177173 0.027973
0.463078 0.146767 0.055331
0.553690 0.097964 0.069499
0.560530 0.118761 0.031355
0.500673 0.069109 0.032410
0.497903 0.199798 0.046921
0.544421 0.086575 0.067865
0.534549 0.069770 0.004927
0.563479 0.110047 0.062448
0.553440 0.129005 0.074121
0.474107 0.160904 0.080678
0.481555 0.107503 0.050388
0.486488 0.173258 0.089147
0.469484 0.172443 0.032390
0.514205 0.169710 0.090061
0.538359 0.078359 0.064283
0.512082 0.092215 0.005628
0.509231 0.050013 0.018364
0.550090 0.139358 0.074215
0.493902 0.204070 0.058939
0.522590 0.041039 0.038193
0.535282 0.135108 0.011449
0.493181 0.082325 0.030434
0.488283 0.175504 0.023277
0.493163 0.174332 0.091028
0.480667 0.110785 0.053085
0.517613 0.160563 0.090669
0.557525 0.085997 0.061399
0.563319 0.084506 0.027846
0.527980 0.087524 0.068889
0.509509 0.059537 0.039012
0.465206 0.167806 0.035553
0.563561 0.096926 0.029722
0.537301 0.076140 0.005364
0.471298 0.187040 0.071878
0.502972 0.185493 0.087194
0.560752 0.078424 0.053982
0.556404 0.121785 0.072283
0.544086 0.166751 0.055267
0.533435 0.038391 0.038710
0.473715 0.160861 0.023430
0.554793 0.146578 0.058541
0.513903 0.046929 0.034846
0.549623 0.117743 0.077346
0.469054 0.178415 0.036666
0.560777 0.106341 0.025754
0.477379 0.158852 0.020262
0.562299 0.095196 0.026186
0.468948 0.125630 0.045448
0.554291 0.059680 0.017596
0.558476 0.125357 0.068658
0.498935 0.160291 0.092730
0.522953 0.047325 0.041608
0.535281 0.033694 0.019248
0.548389 0.040568 0.022710
0.529143 0.157818 0.086395
0.462202 0.154161 0.037922
0.463865 0.179616 0.051320
0.503752 0.196948 0.076257
0.520729 0.172112 0.022703
0.498057 0.145788 0.009303
0.472383 0.163766 0.025645
0.504687 0.093677 0.063028
0.485862 0.158533 0.015943
0.464826 0.146630 0.060632
0.470632 0.139330 0.023308
0.549642 0.131378 0.020804
0.532112 0.136131 0.010379
0.533249 0.122111 0.007820
0.494048 0.202130 0.050802
0.502827 0.124430 0.082704
0.494309 0.141945 0.009386
0.513540 0.118528 0.082652
0.509117 0.051452 0.017515
0.509119 0.149585 0.091904
0.515421 0.094838 0.004821
0.548003 0.069203 0.056609
0.465619 0.141280 0.030774
0.495518 0.146499 0.009891
0.514562 0.103091 0.074790
0.463580 0.145660 0.034431
0.490364 0.201071 0.048517
0.470965 0.192048 0.063777
0.555491 0.057897 0.044503
0.530287 0.163613 0.021908
0.489298 0.198420 0.044298
0.559796 0.130694 0.061812
0.537090 0.175571 0.056381
0.506325 0.054778 0.023092
0.513857 0.169605 0.090225
0.517922 0.034844 0.026921
0.511528 0.073055 0.008376
0.560842 0.068206 0.046977
0.488419 0.139159 0.010741
0.527180 0.179012 0.075038
0.526146 0.032398 0.018355
0.512531 0.145038 0.008472
0.557866 0.129794 0.067618
0.462487 0.163345 0.061722
0.505589 0.056259 0.025869
0.502189 0.147903 0.091224
0.544111 0.111651 0.078077
0.549573 0.041383 0.023764
0.558823 0.062789 0.045204
0.541252 0.165919 0.068689
0.510478 0.129404 0.086558
0.556969 0.141335 0.045827
0.471853 0.187888 0.072061
0.529879 0.057718 0.005513
0.565206 0.089995 0.034945
0.526837 0.080801 0.064099
0.464892 0.166764 0.035590
0.463381 0.144281 0.053694
0.495238 0.144485 0.088833
0.508553 0.099924 0.005944
0.474712 0.165286 0.024534
0.485782 0.145962 0.012719
0.514645 0.195531 0.065092
0.484572 0.141835 0.082152
0.539336 0.144645 0.083276
0.511370 0.117801 0.081935
0.535117 0.098658 0.005681
0.548225 0.140798 0.075879
0.550902 0.068170 0.012343
0.556114 0.052342 0.024727
0.547448 0.099592 0.010863
0.489719 0.149186 0.011932
0.462056 0.146523 0.042307
0.462921 0.147511 0.055466
0.562295 0.114981 0.033870
0.491324 0.093143 0.018551
0.537987 0.106878 0.077896
0.543568 0.136249 0.081233
0.489651 0.130659 0.079068
0.513263 0.196352 0.054876
0.473661 0.117735 0.047624
0.540979 0.042174 0.012914
0.472517 0.117473 0.042318
0.525071 0.038043 0.011279
0.493724 0.119851 0.074876
0.492286 0.172886 0.020434
0.507060 0.122903 0.005772
0.565345 0.111929 0.050310
0.524754 0.036605 0.035884
0.529039 0.183637 0.049345
0.533441 0.033062 0.019134
0.542156 0.168517 0.060214
0.540068 0.034161 0.024095
0.504453 0.153166 0.092374
0.538927 0.172696 0.046420
0.512259 0.155904 0.011588
0.465194 0.137402 0.034296
0.546806 0.131958 0.018114
0.520421 0.182042 0.079688
0.535229 0.053716 0.048644
0.495347 0.107348 0.009625
0.502132 0.195402 0.079028
0.482803 0.189252 0.035732
0.554463 0.093766 0.015437
0.552269 0.049606 0.020203
0.489932 0.164136 0.016642
0.528596 0.067215 0.004603
0.527183 0.171723 0.081151
0.468485 0.185775 0.046165
0.556416 0.137801 0.064791
0.499444 0.113468 0.007145
0.473320 0.115086 0.035452
0.511824 0.196493 0.051600
0.542739 0.104255 0.075968
0.481813 0.199693 0.050865
0.557243 0.051361 0.028436
0.548017 0.117548 0.078109
0.528540 0.069665 0.004484
0.558922 0.082869 0.058482
0.497243 0.139884 0.008510
0.559790 0.112131 0.026116
0.483016 0.098687 0.037602
0.493254 0.086272 0.042156
0.553275 0.133405 0.072814
0.470073 0.159017 0.025872
0.559780 0.128418 0.064115
0.538097 0.087221 0.069369
0.538171 0.109647 0.007690
0.472137 0.130088 0.023358
0.477527 0.150238 0.017816
0.483801 0.196286 0.043358
0.510800 0.044674 0.026475
0.517605 0.068023 0.006423
0.471444 0.121112 0.046502
0.524734 0.041848 0.009235
0.483483 0.136039 0.012743
0.552406 0.044089 0.025936
0.494410 0.086608 0.044823
0.560182 0.133037 0.051573
0.484751 0.120522 0.068445
0.491812 0.163895 0.091568
0.462476 0.146872 0.038318
0.550856 0.147963 0.068478
0.557697 0.067345 0.049713
0.533234 0.064748 0.055197
0.505533 0.152067 0.010029
0.564543 0.115858 0.047817
0.555427 0.066936 0.016941
0.473704 0.163650 0.024566
0.493075 0.100192 0.013222
0.464806 0.135446 0.042234
0.543005 0.035463 0.027195
0.565923 0.090026 0.039379
0.498384 0.119462 0.077425
0.525273 0.044137 0.040946
0.563625 0.079490 0.029018
0.474795 0.168022 0.025728
0.553261 0.151318 0.050825
0.505518 0.152275 0.010086
0.511071 0.094346 0.005718
0.488616 0.095821 0.047237
0.504059 0.105289 0.006673
0.511541 0.185990 0.083513
0.465358 0.158753 0.031660
0.564890 0.076011 0.035289
0.470235 0.123396 0.031636
0.563787 0.078707 0.049560
0.474178 0.154504 0.021047
0.491084 0.110934 0.066357
0.481295 0.109368 0.019988
0.488698 0.176893 0.089197
0.497491 0.156296 0.092083
0.540068 0.163342 0.031698
0.472900 0.135375 0.066681
0.542370 0.105239 0.076412
0.484252 0.180806 0.028247
0.552278 0.152603 0.057527
0.530077 0.178407 0.071394
0.500867 0.166010 0.015239
0.497804 0.074269 0.028237
0.523262 0.184086 0.074225
0.558388 0.135474 0.061162
0.494042 0.131185 0.008294
0.541025 0.082974 0.006611
0.514916 0.143986 0.008428
0.541590 0.138929 0.016427
0.468304 0.188419 0.060079
0.542614 0.142591 0.018835
0.471470 0.135327 0.064458
0.483502 0.141375 0.081174
0.470973 0.172500 0.077251
0.492189 0.109736 0.066328
0.544951 0.143795 0.078536
0.487709 0.182241 0.028078
0.517433 0.127366 0.005923
0.464212 0.142566 0.054961
0.484248 0.186231 0.083763
0.532627 0.052292 0.047425
0.535647 0.143910 0.085664
0.506116 0.162396 0.013614
0.483976 0.114012 0.015096
0.546165 0.040063 0.034062
0.482356 0.101679 0.042828
0.564063 0.072475 0.032396
0.523645 0.118334 0.005528
0.527721 0.126397 0.085613
0.542774 0.115692 0.010730
0.527730 0.181283 0.038448
0.541829 0.159936 0.074292
0.528832 0.152385 0.014764
0.559908 0.121060 0.067604
0.547922 0.158408 0.041110
0.524633 0.156937 0.088714
0.507057 0.113494 0.005597
0.542927 0.131898 0.081945
0.563253 0.064662 0.037197
0.492106 0.204144 0.060625
0.542534 0.059475 0.008160
0.496791 0.171806 0.092089
0.487383 0.175745 0.023734
0.484118 0.157151 0.016187
0.540729 0.086236 0.068507
0.499795 0.118467 0.006732
0.494359 0.138308 0.008877
0.540304 0.048460 0.009757
0.489593 0.113683 0.011195
0.470891 0.174024 0.076868
0.552849 0.093876 0.014045
0.548456 0.039297 0.028221
0.467911 0.181727 0.069475
0.461057 0.154050 0.044368
0.556811 0.076995 0.017306
0.461076 0.168383 0.048538
0.502571 0.119751 0.006197
0.556646 0.057655 0.022004
0.548586 0.146206 0.073253
0.565434 0.100297 0.038332
0.542347 0.168791 0.048125
0.489328 0.111053 0.064814
0.507188 0.154400 0.092559
0.545762 0.037763 0.023240
0.466091 0.134556 0.050736
0.477276 0.176817 0.082776
0.563766 0.104898 0.032885
0.511559 0.102951 0.073475
0.505630 0.099112 0.067690
0.540833 0.081302 0.006502
0.473953 0.173345 0.029054
0.497766 0.092580 0.012646
0.485848 0.147321 0.012943
0.509272 0.194681 0.075911
0.518670 0.090550 0.067864
0.483806 0.140073 0.080673
0.535540 0.094271 0.073085
0.565806 0.108340 0.048632
0.481275 0.123444 0.015027
0.482743 0.117978 0.015002
0.564457 0.072093 0.034646
0.504188 0.105843 0.071638
0.520902 0.070950 0.005222
0.538973 0.085377 0.006010
0.511212 0.043944 0.019768
0.563561 0.077382 0.049132
0.520519 0.117891 0.083032
0.545033 0.113921 0.078426
0.512728 0.196883 0.056189
0.505313 0.199913 0.052793
0.507826 0.154006 0.092503
0.523839 0.031561 0.025252
0.565278 0.110190 0.044625
0.545808 0.140495 0.078524
0.519514 0.108477 0.004674
0.488584 0.181338 0.087739
0.541065 0.048057 0.044915
0.462850 0.176593 0.049770
0.532877 0.139409 0.011638
0.468588 0.168808 0.031477
0.461671 0.148824 0.048942
0.514609 0.085150 0.062131
0.491626 0.197459 0.042566
0.484519 0.201145 0.051543
0.522398 0.077118 0.059962
0.559136 0.134064 0.059866
0.501783 0.180082 0.024551
0.468869 0.174375 0.074030
0.508225 0.189226 0.082781
0.555733 0.140486 0.063954
0.529755 0.125013 0.084943
0.537940 0.137870 0.084694
0.543217 0.165010 0.040206
0.520944 0.177333 0.082709
0.497822 0.199640 0.046593
0.536628 0.127927 0.084258
0.548670 0.155951 0.038943
0.559539 0.125137 0.033807
0.482428 0.185947 0.082896
0.533035 0.103903 0.077412
0.494395 0.117381 0.073652
0.493969 0.141656 0.087333
0.555141 0.056970 0.019971
0.546215 0.144797 0.076851
0.538527 0.172191 0.043161
0.513899 0.171807 0.089541
0.534484 0.132987 0.010524
0.478463 0.165693 0.022374
0.533480 0.129258 0.085380
0.493262 0.103855 0.062238
0.533789 0.078369 0.064108
0.524278 0.051413 0.044362
0.506538 0.087397 0.059247
0.461393 0.156314 0.041397
0.476374 0.168195 0.024788
0.523574 0.185253 0.039956
0.478570 0.192759 0.042288
0.503772 0.070256 0.040758
0.474756 0.121779 0.022669
0.469256 0.158401 0.074126
0.530967 0.180017 0.042288
0.537609 0.175045 0.051923
0.536115 0.035733 0.016125
0.462969 0.175796 0.047141
0.477111 0.118363 0.020857
0.520329 0.186504 0.038310
0.505889 0.158582 0.012057
