ply
format ascii 1.0
element vertex 1024
property float x
property float y
property float z
end_header
0.487128 0.145261 0.012037
0.510284 0.063408 0.011626
0.512557 0.058806 0.010967
0.479445 0.177995 0.083694
0.559222 0.074764 0.053727
0.481668 0.099946 0.037617
0.473806 0.168567 0.080674
0.552725 0.151781 0.049421
0.510809 0.051736 0.035650
0.496736 0.093320 0.056493
0.534714 0.163655 0.079226
0.506420 0.199304 0.067545
0.566255 0.088973 0.044592
0.556160 0.104675 0.070390
0.536229 0.147451 0.084591
0.505916 0.096618 0.066474
0.492480 0.082718 0.032288
0.488864 0.175951 0.089077
0.467785 0.168780 0.032276
0.511638 0.143313 0.090596
0.560845 0.107389 0.066588
0.537804 0.035886 0.035891
0.470140 0.190874 0.061839
0.534528 0.071201 0.005248
0.513717 0.039626 0.018771
0.504981 0.122645 0.006001
0.479119 0.179418 0.029513
0.515328 0.172473 0.021387
0.533714 0.128786 0.009358
0.488590 0.181024 0.026925
0.508822 0.088126 0.061843
0.518259 0.130382 0.087272
0.563710 0.071991 0.045279
0.557222 0.068004 0.019256
0.533283 0.167246 0.027921
0.553473 0.124559 0.022573
0.515403 0.089025 0.065775
0.506588 0.153830 0.092265
0.499027 0.180974 0.025279
0.556614 0.066518 0.050635
0.508168 0.186365 0.084380
0.534175 0.178229 0.050509
0.522939 0.151865 0.012386
0.510555 0.177002 0.088556
0.485544 0.177092 0.087496
0.518299 0.151128 0.090775
0.562411 0.082172 0.054587
0.533154 0.145843 0.014182
0.469529 0.169162 0.075472
0.512028 0.044297 0.017044
0.510689 0.044374 0.020287
0.529396 0.166079 0.082262
0.549736 0.147943 0.032102
0.505207 0.107274 0.006275
0.517800 0.169942 0.087881
0.544342 0.131226 0.015935
0.501598 0.196198 0.042284
0.461149 0.164030 0.043751
0.514258 0.166583 0.017035
0.473915 0.133592 0.020108
0.549462 0.156758 0.044560
0.565355 0.111299 0.049510
0.560659 0.085468 0.058605
0.466257 0.153091 0.067621
0.528564 0.182632 0.065121
0.479392 0.170747 0.085301
0.472421 0.184591 0.074481
0.495132 0.184809 0.087258
0.503970 0.186515 0.085743
0.542093 0.167414 0.062223
0.554981 0.046737 0.028424
0.544119 0.164758 0.061570
0.548797 0.130665 0.077804
0.500875 0.108371 0.071784
0.550631 0.057444 0.048264
0.474144 0.186048 0.038216
0.490808 0.087765 0.024051
0.539615 0.083332 0.006452
0.487338 0.190288 0.082288
0.547607 0.150111 0.072138
0.550007 0.088985 0.011818
0.503797 0.128577 0.085048
0.542244 0.088280 0.007585
0.557036 0.075829 0.056224
0.519843 0.044481 0.039473
0.528858 0.101045 0.076534
0.528020 0.060879 0.052064
0.471440 0.165101 0.077961
0.553941 0.112450 0.073799
0.555409 0.096086 0.016848
0.563628 0.076334 0.048747
0.507016 0.151202 0.091931
0.520132 0.172160 0.022678
0.542169 0.130704 0.082190
0.469686 0.187647 0.047238
0.564031 0.084553 0.030314
0.496483 0.187097 0.030670
0.540130 0.144190 0.082473
0.482512 0.164002 0.087551
0.533549 0.077186 0.063789
0.479119 0.199817 0.061105
0.519246 0.148122 0.010181
0.460813 0.155219 0.044476
0.475035 0.136013 0.018722
0.475785 0.109625 0.037347
0.495184 0.181578 0.025990
0.546200 0.162182 0.059867
0.553455 0.134343 0.071841
0.511969 0.085732 0.006453
0.502001 0.158071 0.011938
0.506659 0.172414 0.019477
0.527184 0.175928 0.077301
0.475983 0.148868 0.078781
0.509280 0.194793 0.044342
0.485552 0.106768 0.056731
0.518166 0.100622 0.074726
0.499077 0.172869 0.091716
0.469462 0.123181 0.043869
0.462722 0.146546 0.036324
0.506772 0.154359 0.010672
0.523831 0.164881 0.019029
0.468855 0.147329 0.024636
0.523765 0.113582 0.005254
0.528775 0.153251 0.015231
0.541730 0.152564 0.024148
0.508166 0.086610 0.007809
0.495743 0.106642 0.067190
0.560707 0.089177 0.060491
0.499703 0.167218 0.015969
0.503138 0.092222 0.009201
0.466579 0.181804 0.065723
0.473060 0.118527 0.027421
0.526828 0.107108 0.005076
0.533588 0.099297 0.075665
0.518136 0.173315 0.022908
0.509695 0.163053 0.092225
0.484250 0.155573 0.087327
0.523124 0.098797 0.004499
0.513724 0.181839 0.029097
0.533666 0.089472 0.071016
0.477719 0.173367 0.083618
0.476671 0.196378 0.051462
0.547466 0.142615 0.075789
0.505529 0.079840 0.052707
0.469420 0.161169 0.074909
0.517488 0.059124 0.046393
0.555330 0.049275 0.025934
0.560150 0.083879 0.058251
0.528027 0.031677 0.031430
0.517734 0.129008 0.086851
0.482733 0.201115 0.054428
0.502063 0.201591 0.055937
0.482500 0.201660 0.059602
0.460702 0.159220 0.053286
0.476368 0.188381 0.038809
0.556750 0.140450 0.043638
0.507657 0.105948 0.073907
0.538560 0.033065 0.023899
0.529116 0.138510 0.010031
0.523080 0.068763 0.005352
0.475440 0.124650 0.020341
0.509867 0.156414 0.011556
0.497214 0.192441 0.036332
0.461410 0.149026 0.048520
0.558500 0.064046 0.022293
0.522772 0.099825 0.075358
0.522595 0.153766 0.013007
0.516334 0.180670 0.083450
0.563603 0.078959 0.029304
0.470863 0.157987 0.024692
0.463619 0.147490 0.033234
0.528835 0.183820 0.056410
0.508714 0.058790 0.038490
0.492055 0.157484 0.090814
0.492158 0.188868 0.032697
0.487319 0.141715 0.011422
0.546230 0.103704 0.010905
0.480324 0.186879 0.034732
0.519095 0.108066 0.004792
0.504848 0.200783 0.057954
0.544735 0.070053 0.058739
0.486771 0.158753 0.015635
0.495214 0.187223 0.030844
0.533003 0.156044 0.084351
0.527370 0.065268 0.054603
0.500569 0.108000 0.007438
0.540653 0.045027 0.043816
0.507362 0.167755 0.092143
0.489520 0.117628 0.010434
0.515767 0.042288 0.034862
0.512227 0.192548 0.042232
0.540987 0.100207 0.075005
0.529454 0.134466 0.087200
0.513699 0.111711 0.005053
0.462323 0.146013 0.051700
0.464164 0.165486 0.036100
0.484098 0.135358 0.012316
0.566326 0.092532 0.048744
0.495142 0.117657 0.074549
0.519772 0.096242 0.072502
0.496228 0.134166 0.084889
0.481596 0.165606 0.087048
0.538198 0.172270 0.043560
0.482808 0.151980 0.085480
0.546579 0.154936 0.033269
0.470812 0.191986 0.059074
0.559777 0.088217 0.021303
0.553513 0.149899 0.055450
0.563735 0.112717 0.038349
0.514418 0.176918 0.024780
0.532029 0.159260 0.020348
0.467178 0.128237 0.043387
0.554607 0.046202 0.028191
0.475483 0.144904 0.076332
0.485225 0.197218 0.044091
0.511677 0.190939 0.078031
0.564030 0.086903 0.030322
0.549602 0.136003 0.023300
0.499048 0.072213 0.024438
0.487955 0.099943 0.052387
0.472652 0.149064 0.075227
0.513363 0.038668 0.023374
0.473522 0.164547 0.080344
0.499543 0.142011 0.008432
0.546957 0.049150 0.014245
0.538993 0.033313 0.023660
0.495732 0.144652 0.088938
0.467925 0.127223 0.034260
0.518202 0.089779 0.067534
0.536047 0.176130 0.049816
0.498569 0.081168 0.016939
0.530620 0.171451 0.029314
0.545741 0.113911 0.012326
0.468006 0.145664 0.066827
0.552976 0.137886 0.029851
0.564060 0.116795 0.056985
0.524212 0.178633 0.078137
0.497979 0.121945 0.078931
0.543388 0.123531 0.080995
0.504177 0.060475 0.022545
0.539042 0.116972 0.080879
0.517362 0.092275 0.068935
0.539626 0.139640 0.083402
0.545159 0.142352 0.021401
0.530612 0.153263 0.086491
0.535786 0.059694 0.006279
0.472168 0.193697 0.060860
0.512039 0.106601 0.005158
0.475353 0.135990 0.070652
0.474490 0.126404 0.061473
0.543561 0.036501 0.032183
0.505217 0.081101 0.053529
0.497870 0.073288 0.029482
0.473755 0.116308 0.046688
0.467418 0.186277 0.061320
0.555160 0.140741 0.037765
0.520778 0.190930 0.055505
0.526823 0.181916 0.038999
0.517830 0.193205 0.060789
0.460699 0.154581 0.048143
0.528722 0.049942 0.007141
0.477207 0.109217 0.027162
0.527882 0.168182 0.023859
0.546679 0.080336 0.064143
0.549964 0.135103 0.023295
0.477621 0.164726 0.022406
0.536049 0.142701 0.014483
0.551802 0.152906 0.045997
0.557767 0.139332 0.048331
0.548553 0.042133 0.035895
0.481193 0.101418 0.040082
0.558274 0.056496 0.025905
0.555175 0.141766 0.063505
0.480018 0.190986 0.077813
0.525054 0.116949 0.005640
0.524652 0.167620 0.021318
0.509785 0.067916 0.010849
0.521973 0.145415 0.009966
0.482434 0.100348 0.041962
0.562226 0.122892 0.059998
0.566382 0.092188 0.045837
0.552772 0.047143 0.037657
0.484637 0.180168 0.027657
0.469447 0.146509 0.069631
0.472505 0.140501 0.020876
0.559081 0.084496 0.059614
0.464258 0.154200 0.063960
0.539527 0.096665 0.007064
0.465886 0.136841 0.031623
0.463019 0.174463 0.060258
0.522927 0.044189 0.009144
0.498388 0.202984 0.062450
0.517823 0.176160 0.085074
0.550988 0.051389 0.043442
0.541425 0.097520 0.073844
0.488586 0.148744 0.087575
0.500984 0.151235 0.091570
0.555960 0.143275 0.045344
0.512835 0.072786 0.052950
0.527065 0.185434 0.053181
0.514714 0.153123 0.010979
0.565790 0.103616 0.055191
0.467948 0.126918 0.034722
0.521911 0.189233 0.049487
0.466650 0.184796 0.051158
0.465153 0.142271 0.030885
0.481334 0.104192 0.046169
0.487136 0.091629 0.037167
0.529723 0.177406 0.035559
0.553488 0.108053 0.073078
0.519275 0.062451 0.049610
0.522204 0.088261 0.068041
0.541654 0.160030 0.073842
0.554350 0.123671 0.023301
0.481090 0.101985 0.041149
0.538914 0.080670 0.006187
0.486217 0.188314 0.033595
0.510584 0.197843 0.063839
0.504152 0.077134 0.012753
0.559071 0.111399 0.024911
0.537740 0.081068 0.005864
0.473688 0.194828 0.055325
0.490348 0.199904 0.073370
0.515045 0.163648 0.090713
0.488882 0.171725 0.020826
0.555614 0.107117 0.018949
0.475367 0.117824 0.053114
0.512673 0.063404 0.045880
0.467374 0.185522 0.049714
0.536239 0.048150 0.046305
0.465849 0.180007 0.065240
0.555512 0.145227 0.048141
0.541553 0.106154 0.077010
0.560285 0.076333 0.053637
0.548276 0.091147 0.010823
0.486991 0.110506 0.062361
0.546393 0.158562 0.037756
0.483162 0.201807 0.057187
0.492444 0.137613 0.009268
0.553583 0.145055 0.064312
0.532259 0.171392 0.075629
0.549538 0.145130 0.071962
0.504177 0.178032 0.023331
0.519583 0.187844 0.040506
0.475431 0.155386 0.080630
0.553130 0.045602 0.025209
0.475380 0.132881 0.018706
0.537564 0.032588 0.028797
0.562988 0.110794 0.033913
0.496115 0.083637 0.018648
0.532228 0.094636 0.005104
0.550952 0.152750 0.062163
0.468668 0.125154 0.034301
0.554727 0.147305 0.054467
0.516962 0.193257 0.052339
0.480689 0.105363 0.023504
0.483644 0.202085 0.058171
0.528944 0.148709 0.087931
0.474377 0.114056 0.029000
0.474746 0.196299 0.062780
0.515739 0.141732 0.090140
0.532210 0.179533 0.062083
0.534554 0.155230 0.019592
0.530612 0.036884 0.012450
0.551779 0.074878 0.058916
0.513585 0.189003 0.037264
0.494126 0.107064 0.010222
0.507017 0.056071 0.018782
0.553254 0.126550 0.023259
0.525274 0.056779 0.048664
0.526231 0.186186 0.053155
0.530270 0.081891 0.004628
0.530787 0.119065 0.082962
0.493444 0.138230 0.009075
0.488993 0.135742 0.010187
0.463721 0.179347 0.053087
0.542523 0.060556 0.053296
0.501392 0.071588 0.019018
0.521274 0.097101 0.073471
0.510875 0.155912 0.092122
0.518860 0.125713 0.085799
0.492413 0.157709 0.090948
0.492520 0.084340 0.024963
0.565751 0.080960 0.042917
0.542029 0.057553 0.051499
0.485557 0.183942 0.030099
0.529993 0.031411 0.030723
0.525248 0.158302 0.087796
0.542447 0.145249 0.020250
0.521944 0.040801 0.010693
0.557579 0.081106 0.018350
0.507469 0.058402 0.016617
0.483565 0.108946 0.017205
0.469128 0.149608 0.070764
0.528648 0.176713 0.033174
0.492661 0.164828 0.016090
0.488534 0.109206 0.012928
0.510768 0.171476 0.090416
0.497067 0.138330 0.087072
0.551154 0.121266 0.076706
0.510195 0.155344 0.092184
0.545742 0.161674 0.063096
0.499091 0.138358 0.087699
0.526768 0.147174 0.088750
0.470550 0.191625 0.060041
0.481032 0.172418 0.086132
0.529844 0.050984 0.046840
0.551228 0.115818 0.016915
0.518974 0.046438 0.039915
0.515421 0.142208 0.008102
0.536141 0.089542 0.005686
0.532640 0.051661 0.047837
0.494346 0.203588 0.062239
0.495776 0.089576 0.015553
0.511905 0.116668 0.081622
0.493267 0.087030 0.020229
0.515080 0.180667 0.028438
0.538621 0.127311 0.011215
0.541722 0.047616 0.011097
0.509529 0.051200 0.016938
0.520105 0.105743 0.077930
0.518691 0.049014 0.009337
0.501672 0.085764 0.054374
0.475452 0.129914 0.066106
0.550471 0.132971 0.075756
0.492993 0.184333 0.028514
0.561760 0.109241 0.029427
0.517669 0.093145 0.069666
0.465257 0.147633 0.062764
0.516495 0.116457 0.005137
0.499760 0.132426 0.085482
0.540316 0.149692 0.080991
0.549136 0.080832 0.010951
0.513473 0.045564 0.014263
0.548485 0.047801 0.016498
0.545068 0.161741 0.065090
0.540539 0.156638 0.077690
0.545452 0.110578 0.011517
0.503408 0.174598 0.020613
0.526137 0.185720 0.048936
0.529307 0.142658 0.011339
0.549852 0.076106 0.011448
0.555009 0.087140 0.015754
0.540516 0.034369 0.022588
0.507500 0.055235 0.018330
0.540003 0.040801 0.040637
0.556199 0.143655 0.048888
0.528718 0.078021 0.004574
0.534313 0.046332 0.008683
0.463460 0.165905 0.064571
0.471650 0.117815 0.034666
0.484352 0.188518 0.082053
0.476939 0.146205 0.078442
0.550509 0.112434 0.075782
0.492803 0.188596 0.032353
0.478757 0.158089 0.084284
0.506437 0.109745 0.005877
0.511663 0.145790 0.091046
0.536239 0.110772 0.007329
0.546564 0.083479 0.065908
0.465801 0.157565 0.030379
0.506836 0.065542 0.041656
0.548718 0.142501 0.074297
0.508961 0.154242 0.010740
0.562886 0.104665 0.030451
0.530011 0.172803 0.030089
0.501041 0.191222 0.035394
0.510850 0.193324 0.042633
0.553848 0.136489 0.030474
0.539634 0.125576 0.011340
0.503193 0.201451 0.057775
0.550872 0.121671 0.018466
0.495461 0.096253 0.057998
0.492770 0.082465 0.028896
0.526404 0.158441 0.087225
0.497187 0.145203 0.089488
0.534012 0.102579 0.076952
0.481478 0.125775 0.014339
0.498977 0.091645 0.057232
0.491532 0.174922 0.090115
0.483542 0.096894 0.036803
0.533059 0.061670 0.053860
0.483052 0.111160 0.016752
0.499610 0.165923 0.015319
0.559579 0.075456 0.053815
0.494431 0.189944 0.033556
0.514026 0.191583 0.074884
0.561354 0.090707 0.060536
0.482934 0.181930 0.084472
0.551785 0.114122 0.075446
0.541337 0.167855 0.063829
0.461958 0.173441 0.055184
0.504707 0.092276 0.008395
0.489995 0.200335 0.047501
0.540399 0.169739 0.062167
0.514645 0.175980 0.024045
0.503285 0.123999 0.082731
0.560633 0.130879 0.049759
0.470676 0.186364 0.070872
0.505715 0.173456 0.091194
0.535128 0.100736 0.076108
0.496385 0.179933 0.024566
0.550935 0.094389 0.069532
0.541738 0.066519 0.007424
0.490591 0.086740 0.026508
0.558575 0.124185 0.068677
0.480131 0.128410 0.015057
0.560640 0.108525 0.067007
0.508039 0.148870 0.009191
0.512833 0.143854 0.090670
0.493198 0.082460 0.026468
0.553491 0.145820 0.063700
0.513741 0.076119 0.055903
0.533008 0.110135 0.079784
0.560698 0.113499 0.029030
0.534990 0.152375 0.084235
0.506865 0.062798 0.039375
0.524977 0.030655 0.024844
0.502272 0.120695 0.006295
0.501887 0.066634 0.022511
0.530078 0.182303 0.059541
0.525243 0.164075 0.019230
0.502270 0.194075 0.079688
0.477983 0.198920 0.062762
0.548789 0.054730 0.013699
0.547783 0.144885 0.026273
0.496946 0.164458 0.092349
0.549506 0.071798 0.011338
0.560181 0.128747 0.062016
0.473393 0.194076 0.066116
0.513190 0.079701 0.058124
0.517566 0.061488 0.007662
0.505019 0.200813 0.059095
0.513173 0.072897 0.007812
0.551933 0.112465 0.075024
0.536052 0.140808 0.085392
0.532557 0.179269 0.046672
0.555790 0.129808 0.070722
0.537725 0.169284 0.036302
0.529155 0.064128 0.005206
0.475916 0.138727 0.073142
0.559138 0.119443 0.068989
0.512938 0.063148 0.009733
0.533041 0.099584 0.075821
0.490006 0.196423 0.041534
0.507810 0.184200 0.029563
0.460617 0.156649 0.050717
0.467411 0.150261 0.068343
0.492826 0.085966 0.042105
0.551734 0.147337 0.066552
0.478536 0.199287 0.062766
0.537707 0.107188 0.007408
0.478705 0.149728 0.081636
0.465782 0.181337 0.045721
0.495494 0.138162 0.086421
0.539879 0.114481 0.079981
0.520695 0.080759 0.004881
0.481658 0.183865 0.031573
0.485589 0.093345 0.031848
0.478349 0.127188 0.016723
0.522766 0.080867 0.004647
0.534277 0.154809 0.019153
0.493245 0.098556 0.057808
0.561694 0.123210 0.061928
0.503142 0.180039 0.089321
0.539858 0.145561 0.018222
0.550978 0.142691 0.029850
0.468038 0.186151 0.064769
0.483124 0.189542 0.035922
0.562985 0.063355 0.037717
0.476666 0.173750 0.082673
0.539452 0.052107 0.048509
0.489924 0.090037 0.022996
0.470162 0.144390 0.023171
0.559400 0.086423 0.060370
0.558409 0.132385 0.064019
0.526172 0.112907 0.081275
0.503111 0.123748 0.082541
0.566075 0.091381 0.050408
0.555334 0.102463 0.017694
0.505032 0.104760 0.071691
0.509658 0.168391 0.017304
0.555823 0.118189 0.022734
0.494513 0.197314 0.077306
0.536295 0.097169 0.074536
0.535267 0.102250 0.076692
0.563727 0.100785 0.031672
0.518095 0.191821 0.067519
0.497498 0.084741 0.048312
0.540303 0.065757 0.056872
0.484875 0.114905 0.064127
0.528244 0.127681 0.085835
0.476422 0.121278 0.020235
0.480444 0.187632 0.035354
0.544122 0.078958 0.064126
0.464838 0.152894 0.030818
0.523067 0.176392 0.027943
0.491456 0.108160 0.064825
0.565364 0.111158 0.052859
0.562760 0.121095 0.043422
0.509523 0.095022 0.006208
0.544228 0.155075 0.074004
0.563631 0.073266 0.030662
0.537365 0.119015 0.008906
0.474329 0.161538 0.080870
0.534541 0.148369 0.085424
0.518125 0.036481 0.016113
0.465358 0.135060 0.034912
0.528615 0.182319 0.065856
0.534916 0.174013 0.068109
0.505184 0.156655 0.011381
0.512215 0.109275 0.077927
0.551808 0.080950 0.062396
0.544234 0.130283 0.015541
0.532040 0.083892 0.004807
0.541425 0.124751 0.012150
0.535782 0.169447 0.072951
0.493434 0.180091 0.025093
0.559504 0.119277 0.068459
0.541558 0.143596 0.018618
0.475149 0.110837 0.037940
0.513910 0.084439 0.061821
0.541273 0.090490 0.070827
0.498045 0.153384 0.091517
0.556523 0.048783 0.033200
0.463590 0.139766 0.048650
0.556661 0.124027 0.071444
0.561554 0.060492 0.039308
0.478273 0.188679 0.037691
0.523045 0.038229 0.011778
0.563622 0.111730 0.036990
0.511767 0.059076 0.042001
0.518394 0.180079 0.029226
0.503013 0.074021 0.015204
0.552966 0.098759 0.070345
0.501536 0.191508 0.035837
0.482487 0.167951 0.021388
0.480182 0.106941 0.022963
0.495048 0.111073 0.008948
0.565166 0.103368 0.038757
0.554808 0.135724 0.069140
0.468473 0.134401 0.058557
0.496868 0.178190 0.023197
0.507411 0.146329 0.091134
0.550879 0.055311 0.046562
0.521917 0.176549 0.027434
0.463012 0.146281 0.055377
0.553793 0.097781 0.069514
0.560393 0.118243 0.031147
0.500638 0.068489 0.032968
0.497690 0.199300 0.046303
0.544538 0.086360 0.068032
0.534369 0.068964 0.005302
0.563521 0.109819 0.062302
0.553507 0.128862 0.073854
0.474146 0.160669 0.080537
0.481539 0.107009 0.050695
0.486547 0.173123 0.088828
0.469248 0.171759 0.032170
0.514276 0.169637 0.089629
0.538472 0.078101 0.064557
0.511862 0.091372 0.005916
0.509160 0.049283 0.019051
0.550137 0.139210 0.073871
0.493743 0.203673 0.058302
0.522640 0.040515 0.038890
0.535009 0.134360 0.011226
0.493111 0.081673 0.030911
0.487994 0.174773 0.022932
0.493230 0.174228 0.090664
0.480660 0.110314 0.053367
0.517705 0.160502 0.090302
0.557609 0.085748 0.061503
0.563230 0.083963 0.027936
0.528100 0.087287 0.069134
0.509527 0.058995 0.039610
0.464995 0.167143 0.035398
0.563458 0.096400 0.029696
0.537111 0.075343 0.005667
0.471241 0.186719 0.071513
0.502997 0.185371 0.086677
0.560812 0.078115 0.054139
0.556475 0.121632 0.072066
0.543981 0.166418 0.054707
0.533493 0.037892 0.039375
0.473455 0.160104 0.023294
0.554743 0.146295 0.058108
0.513924 0.046358 0.035536
0.549728 0.117624 0.077201
0.468829 0.177770 0.036394
0.560635 0.105774 0.025658
0.477106 0.158074 0.020125
0.562181 0.094636 0.026183
0.468872 0.125066 0.045656
0.554197 0.059028 0.017959
0.558521 0.125175 0.068399
0.499039 0.160214 0.092463
0.523009 0.046832 0.042246
0.535247 0.033022 0.019947
0.548359 0.039951 0.023277
0.529218 0.157740 0.085993
0.462031 0.153515 0.037906
0.463714 0.179094 0.051064
0.503697 0.196728 0.075632
0.520443 0.171438 0.022218
0.497752 0.144950 0.009177
0.472129 0.163027 0.025489
0.504764 0.093343 0.063339
0.485568 0.157732 0.015764
0.464788 0.146196 0.060670
0.470414 0.138567 0.023385
0.549425 0.130743 0.020539
0.531832 0.135368 0.010162
0.532982 0.121327 0.007726
0.493850 0.201660 0.050182
0.502948 0.124270 0.082744
0.494013 0.141101 0.009315
0.513672 0.118389 0.082689
0.509039 0.050713 0.018190
0.509238 0.149519 0.091681
0.515192 0.093994 0.005068
0.548094 0.068893 0.056917
0.465435 0.140576 0.030858
0.495215 0.145662 0.009773
0.514682 0.102882 0.074963
0.463408 0.144985 0.034486
0.490157 0.200573 0.047927
0.470855 0.191652 0.063369
0.555541 0.057492 0.044875
0.530014 0.162950 0.021450
0.489074 0.197881 0.043737
0.559795 0.130452 0.061498
0.536973 0.175234 0.055777
0.506270 0.054084 0.023751
0.513929 0.169532 0.089796
0.517925 0.034208 0.027701
0.511360 0.072237 0.008842
0.560885 0.067833 0.047227
0.488135 0.138316 0.010726
0.527154 0.178826 0.074453
0.526110 0.031700 0.019114
0.512223 0.144220 0.008277
0.557897 0.129601 0.067322
0.462423 0.162916 0.061620
0.505545 0.055590 0.026518
0.502308 0.147819 0.091053
0.544232 0.111528 0.078017
0.549547 0.040778 0.024318
0.558867 0.062397 0.045513
0.541219 0.165703 0.068150
0.510608 0.129294 0.086512
0.556864 0.140942 0.045431
0.471794 0.187569 0.071686
0.529726 0.056910 0.006023
0.565144 0.089520 0.034974
0.526945 0.080519 0.064411
0.464684 0.166101 0.035446
0.463312 0.143781 0.053761
0.495351 0.144366 0.088730
0.508320 0.099077 0.006181
0.474450 0.164541 0.024352
0.485495 0.145132 0.012656
0.514535 0.195230 0.064423
0.484656 0.141634 0.082129
0.539420 0.144559 0.082941
0.511500 0.117651 0.081991
0.534885 0.097859 0.005790
0.548278 0.140662 0.075532
0.550764 0.067463 0.012647
0.556072 0.051759 0.025147
0.547242 0.098864 0.010899
0.489421 0.148356 0.011819
0.461923 0.145917 0.042361
0.462855 0.147026 0.055506
0.562179 0.114490 0.033687
0.491170 0.092379 0.018939
0.538116 0.106742 0.077912
0.543658 0.136153 0.080952
0.489740 0.130441 0.079120
0.513098 0.195956 0.054208
0.473611 0.117201 0.047880
0.540895 0.041455 0.013507
0.472440 0.116888 0.042583
0.524987 0.037279 0.011993
0.493812 0.119603 0.075006
0.491987 0.172137 0.020092
0.506781 0.122051 0.005808
0.565320 0.111594 0.050138
0.524801 0.036064 0.036612
0.528870 0.183221 0.048710
0.533407 0.032386 0.019848
0.542073 0.168225 0.059648
0.540057 0.033542 0.024764
0.504568 0.153096 0.092143
0.538764 0.172272 0.045834
0.511947 0.155113 0.011296
0.465036 0.136730 0.034418
0.546574 0.131293 0.017858
0.520414 0.181885 0.079112
0.535309 0.053311 0.049159
0.495119 0.106509 0.009863
0.502096 0.195204 0.078426
0.482552 0.188623 0.035289
0.554291 0.093093 0.015489
0.552208 0.048974 0.020669
0.489630 0.163349 0.016391
0.528420 0.066395 0.005032
0.527203 0.171593 0.080633
0.468296 0.185214 0.045828
0.556417 0.137579 0.064430
0.499191 0.112614 0.007306
0.473212 0.114440 0.035735
0.511642 0.196063 0.050939
0.542863 0.104111 0.075982
0.481621 0.199200 0.050332
0.557222 0.050814 0.028859
0.548126 0.117432 0.077975
0.528359 0.068844 0.004892
0.558997 0.082597 0.058607
0.496946 0.139037 0.008443
0.559638 0.111565 0.025973
0.482951 0.098080 0.037982
0.493237 0.085727 0.042596
0.553326 0.133250 0.072508
0.469830 0.158276 0.025772
0.559796 0.128197 0.063821
0.538220 0.087008 0.069564
0.537928 0.108871 0.007683
0.471937 0.129329 0.023510
0.477258 0.149438 0.017757
0.483576 0.195728 0.042845
0.510782 0.044020 0.027203
0.517437 0.067199 0.006903
0.471382 0.120563 0.046738
0.524631 0.041064 0.009916
0.483215 0.135205 0.012782
0.552386 0.043510 0.026450
0.494407 0.086089 0.045254
0.560123 0.132702 0.051236
0.484804 0.120198 0.068616
0.491902 0.163793 0.091306
0.462322 0.146231 0.038367
0.550856 0.147763 0.068053
0.557756 0.066991 0.049987
0.533327 0.064398 0.055622
0.505220 0.151249 0.009807
0.564498 0.115498 0.047614
0.555315 0.066279 0.017232
0.473444 0.162904 0.024405
0.492879 0.099382 0.013538
0.464694 0.134845 0.042375
0.543008 0.034878 0.027837
0.565884 0.089593 0.039403
0.498486 0.119246 0.077534
0.525332 0.043643 0.041601
0.563552 0.078959 0.029151
0.474533 0.167288 0.025521
0.553162 0.150962 0.050358
0.505205 0.151458 0.009862
0.510848 0.093502 0.005993
0.488607 0.095313 0.047613
0.503820 0.104440 0.006885
0.511546 0.185852 0.082947
0.465145 0.158056 0.031587
0.564857 0.075539 0.035446
0.470090 0.122710 0.031859
0.563823 0.078363 0.049699
0.473918 0.153727 0.020967
0.491146 0.110604 0.066582
0.481117 0.108597 0.020281
0.488751 0.176763 0.088833
0.497599 0.156210 0.091860
0.539847 0.162786 0.031191
0.472915 0.135011 0.066779
0.542494 0.105098 0.076420
0.483979 0.180113 0.027874
0.552212 0.152306 0.057052
0.530034 0.178193 0.070800
0.500554 0.165230 0.014914
0.497737 0.073606 0.028763
0.523222 0.183885 0.073615
0.558374 0.135223 0.060811
0.493761 0.130330 0.008322
0.540829 0.082196 0.006832
0.514610 0.143172 0.008230
0.541335 0.138239 0.016135
0.468182 0.187985 0.059718
0.542365 0.141924 0.018504
0.471474 0.134941 0.064564
0.483582 0.141164 0.081161
0.470972 0.172228 0.077021
0.492253 0.109408 0.066559
0.545012 0.143676 0.078179
0.487432 0.181553 0.027674
0.517147 0.126534 0.005864
0.464152 0.142079 0.055040
0.484254 0.186043 0.083337
0.532703 0.051871 0.047968
0.535745 0.143839 0.085354
0.505802 0.161612 0.013295
0.483764 0.113201 0.015333
0.546195 0.039546 0.034645
0.482312 0.101118 0.043184
0.564022 0.071975 0.032591
0.523374 0.117511 0.005519
0.527852 0.126310 0.085504
0.542536 0.114953 0.010644
0.527508 0.180764 0.037842
0.541837 0.159772 0.073804
0.528543 0.151654 0.014417
0.559956 0.120871 0.067376
0.547759 0.157954 0.040606
0.524722 0.156871 0.088344
0.506796 0.112640 0.005718
0.543029 0.131807 0.081707
0.563252 0.064205 0.037467
0.491956 0.203759 0.059997
0.542391 0.058714 0.008587
0.496868 0.171718 0.091729
0.487096 0.175016 0.023391
0.483827 0.156348 0.016031
0.540850 0.086020 0.068697
0.499530 0.117610 0.006846
0.494067 0.137459 0.008839
0.540191 0.047710 0.010295
0.489360 0.112847 0.011406
0.470885 0.173748 0.076624
0.552670 0.093187 0.014104
0.548458 0.038731 0.028799
0.467851 0.181378 0.069177
0.460920 0.153460 0.044359
0.556682 0.076344 0.017498
0.460932 0.167831 0.048399
0.502301 0.118894 0.006284
0.556579 0.057048 0.022373
0.548614 0.146046 0.072856
0.565369 0.099853 0.038266
0.542201 0.168390 0.047556
0.489381 0.110706 0.065047
0.507302 0.154337 0.092303
0.545740 0.037147 0.023847
0.466025 0.134034 0.050878
0.477295 0.176607 0.082473
0.563664 0.104401 0.032786
0.511673 0.102724 0.073665
0.505721 0.098822 0.067946
0.540639 0.080522 0.006739
0.473698 0.172640 0.028802
0.497582 0.091774 0.013006
0.485560 0.146493 0.012867
0.509220 0.194468 0.075278
0.518779 0.090286 0.068130
0.483886 0.139857 0.080670
0.535668 0.094086 0.073228
0.565779 0.107990 0.048490
0.481043 0.122627 0.015192
0.482523 0.117164 0.015209
0.564428 0.071614 0.034842
0.504287 0.105586 0.071840
0.520721 0.070122 0.005658
0.538769 0.084589 0.006220
0.511160 0.043230 0.020500
0.563598 0.077034 0.049284
0.520654 0.117768 0.083038
0.545151 0.113803 0.078340
0.512569 0.196498 0.055519
0.505130 0.199483 0.052135
0.507940 0.153943 0.092247
0.523840 0.030922 0.026030
0.565227 0.109803 0.044470
0.545875 0.140377 0.078193
0.519258 0.107639 0.004776
0.488620 0.181195 0.087336
0.541136 0.047629 0.045451
0.462697 0.176055 0.049547
0.532597 0.138658 0.011387
0.468355 0.168115 0.031295
0.461568 0.148277 0.048977
0.514699 0.084827 0.062468
0.491395 0.196910 0.042002
0.484328 0.200663 0.050982
0.522492 0.076790 0.060332
0.559118 0.133803 0.059525
0.501491 0.179389 0.024093
0.468848 0.174069 0.073793
0.508220 0.189074 0.082203
0.555724 0.140255 0.063571
0.529885 0.124924 0.084836
0.538044 0.137794 0.084428
0.543036 0.164538 0.039667
0.520962 0.177205 0.082172
0.497607 0.199138 0.045976
0.536749 0.127845 0.084089
0.548500 0.155478 0.038458
0.559402 0.124640 0.033546
0.482429 0.185747 0.082483
0.533168 0.103753 0.077480
0.494482 0.117123 0.073801
0.494080 0.141520 0.087262
0.555064 0.056341 0.020354
0.546266 0.144666 0.076479
0.538348 0.171737 0.042581
0.513963 0.171729 0.089091
0.534211 0.132229 0.010324
0.478188 0.164936 0.022170
0.533605 0.129180 0.085215
0.493316 0.103491 0.062517
0.533902 0.078101 0.064406
0.524340 0.050948 0.044956
0.506608 0.087032 0.059606
0.461236 0.155698 0.041366
0.476107 0.167455 0.024571
0.523353 0.184741 0.039336
0.478346 0.192182 0.041835
0.503778 0.069718 0.041288
0.474568 0.121019 0.022884
0.469265 0.158098 0.074033
0.530768 0.179540 0.041677
0.537470 0.174669 0.051321
0.536060 0.035034 0.016802
0.462804 0.175234 0.046924
0.476920 0.117591 0.021091
0.520097 0.185971 0.037696
0.505573 0.157783 0.011773
