ply
format ascii 1.0
element vertex 1024
property float x
property float y
property float z
end_header
0.581645 0.023753 0.080051
0.604520 -0.047986 0.040472
0.605250 -0.052844 0.038845
0.547078 0.078252 0.034223
0.545647 -0.053785 0.012247
0.600129 0.004736 0.034947
0.557326 0.073892 0.031819
0.513544 0.002726 0.054298
0.601853 -0.047524 0.013896
0.585094 -0.001960 0.016071
0.511829 0.033115 0.033627
0.520362 0.070915 0.060201
0.535996 -0.051451 0.027616
0.527411 -0.024649 0.012720
0.516958 0.022805 0.020937
0.572758 -0.001446 0.009563
0.601992 -0.015912 0.031439
0.538793 0.073142 0.029017
0.578366 0.059560 0.073418
0.536573 0.036990 0.012454
0.523604 -0.026991 0.017597
0.588264 -0.074889 0.007073
0.555392 0.084753 0.059096
0.583470 -0.059529 0.051095
0.611333 -0.064121 0.022537
0.580854 -0.005202 0.074798
0.564934 0.059168 0.081706
0.542368 0.029376 0.087034
0.553773 -0.016973 0.076407
0.557468 0.053611 0.085217
0.576281 -0.010910 0.009444
0.538931 0.022648 0.009163
0.546327 -0.061608 0.018373
0.562289 -0.070238 0.038521
0.528503 0.017301 0.079660
0.535712 -0.026932 0.063855
0.569265 -0.012779 0.006827
0.534737 0.048065 0.016041
0.549745 0.046658 0.087130
0.552914 -0.059170 0.010649
0.519786 0.067056 0.039257
0.514636 0.032947 0.065712
0.549717 0.006908 0.084841
0.521184 0.060588 0.031070
0.541395 0.075357 0.030789
0.527284 0.038535 0.016552
0.539095 -0.050175 0.015381
0.544011 -0.002827 0.080774
0.562187 0.074946 0.036397
0.610912 -0.060461 0.026289
0.610842 -0.058383 0.023461
0.513815 0.039169 0.031958
0.523707 -0.004653 0.067178
0.588312 -0.016054 0.066858
0.519198 0.050992 0.028469
0.541869 -0.019212 0.072480
0.534298 0.062184 0.080216
0.582157 0.064520 0.060796
0.547652 0.024247 0.087782
0.595297 0.026541 0.066569
0.515281 0.006379 0.060831
0.523822 -0.033356 0.034530
0.537473 -0.045293 0.013479
0.575525 0.062672 0.034948
0.511947 0.044904 0.055026
0.550221 0.073785 0.029195
0.552463 0.083687 0.045140
0.529967 0.074910 0.035343
0.522590 0.070206 0.037947
0.509816 0.024940 0.050562
0.571667 -0.080419 0.019819
0.509760 0.021603 0.049893
0.517694 0.000863 0.018997
0.569064 0.011857 0.010627
0.563038 -0.062831 0.007846
0.562617 0.070096 0.077271
0.603568 -0.014433 0.041002
0.572917 -0.053613 0.056396
0.535092 0.081611 0.041999
0.510778 0.013146 0.033590
0.559993 -0.053900 0.055115
0.552096 0.029277 0.009460
0.567955 -0.051294 0.058032
0.546007 -0.050780 0.010517
0.597021 -0.056653 0.007402
0.548880 -0.008418 0.004237
0.578014 -0.045338 0.005166
0.561867 0.071866 0.032304
0.524115 -0.016561 0.013568
0.550424 -0.050283 0.054604
0.543036 -0.057205 0.017554
0.535832 0.045832 0.015032
0.538266 0.026737 0.086000
0.521465 0.006535 0.014900
0.562311 0.077291 0.070062
0.544813 -0.058564 0.037616
0.546869 0.054521 0.085422
0.516211 0.017363 0.021323
0.550371 0.067997 0.024021
0.561453 -0.032812 0.003501
0.543999 0.085351 0.064664
0.555282 0.005678 0.084683
0.586610 0.058794 0.055731
0.593657 0.027050 0.069036
0.600034 0.014998 0.039747
0.552259 0.049669 0.086629
0.509975 0.017896 0.050174
0.514154 -0.001593 0.026222
0.593703 -0.035230 0.056227
0.563405 0.023750 0.087303
0.549939 0.033853 0.088224
0.512299 0.045579 0.041076
0.566139 0.058006 0.023675
0.528197 0.057327 0.078115
0.587149 0.014346 0.022060
0.558210 -0.002937 0.005055
0.531326 0.065794 0.025697
0.596043 0.030797 0.040605
0.592207 0.048486 0.058512
0.561905 0.017783 0.086770
0.540218 0.018015 0.085682
0.590885 0.040959 0.069302
0.570720 -0.023202 0.071826
0.543415 0.005424 0.083369
0.530440 0.000456 0.075968
0.595829 -0.031808 0.055309
0.575569 0.012019 0.013471
0.534932 -0.042007 0.013715
0.559272 0.033084 0.088299
0.596537 -0.024302 0.056674
0.561472 0.081975 0.051014
0.601080 0.019192 0.052650
0.571599 -0.029675 0.068883
0.546290 -0.012829 0.004345
0.539196 0.028842 0.086282
0.527642 0.052664 0.020859
0.553302 0.060932 0.020071
0.578920 -0.033503 0.065025
0.536328 0.039821 0.084998
0.552740 -0.021531 0.003432
0.550804 0.076010 0.031880
0.550936 0.080799 0.071143
0.513425 0.009322 0.026668
0.586156 -0.018173 0.013011
0.566483 0.069176 0.032866
0.589193 -0.042336 0.008659
0.570955 -0.079776 0.023260
0.538797 -0.046237 0.012962
0.599667 -0.073616 0.008327
0.540182 0.021840 0.008811
0.542728 0.081582 0.071261
0.526601 0.070810 0.071156
0.540891 0.084043 0.067055
0.581708 0.064975 0.050127
0.559475 0.070618 0.078041
0.517995 -0.009843 0.053804
0.564169 0.006851 0.007914
0.593135 -0.081819 0.016050
0.552314 -0.007103 0.080478
0.593769 -0.054293 0.049213
0.598501 0.019415 0.061955
0.558110 0.017691 0.087192
0.541686 0.059960 0.083251
0.587881 0.055589 0.049161
0.562236 -0.072658 0.033976
0.554733 -0.006042 0.004338
0.548824 0.008686 0.085242
0.516468 0.057769 0.037608
0.548308 -0.062621 0.035659
0.583909 0.047267 0.074703
0.592063 0.047452 0.061699
0.514078 0.042315 0.063158
0.599012 -0.040232 0.014881
0.544953 0.058869 0.018407
0.548734 0.059137 0.084346
0.583484 0.020912 0.078811
0.555905 -0.041603 0.063104
0.558461 0.065646 0.081003
0.577366 -0.024437 0.069224
0.524110 0.069315 0.069147
0.557848 -0.046476 0.004836
0.573929 0.034810 0.083697
0.547756 0.055441 0.085273
0.515285 0.030711 0.025296
0.575467 -0.040906 0.005144
0.591243 -0.012307 0.065988
0.578723 -0.067210 0.004958
0.527162 0.057352 0.023174
0.594179 0.002262 0.067684
0.602925 -0.057461 0.010081
0.527694 0.053178 0.078957
0.540169 -0.016903 0.005739
0.527996 0.018735 0.011830
0.579737 -0.018516 0.070561
0.587595 0.054107 0.044948
0.581612 0.060860 0.068283
0.588941 0.018719 0.074689
0.532746 -0.047436 0.025820
0.568021 0.022889 0.012615
0.559886 -0.007820 0.004857
0.555361 0.037722 0.012026
0.550462 0.069491 0.025216
0.516780 0.023723 0.068921
0.556880 0.058583 0.019791
0.522307 0.002612 0.069523
0.555233 0.084095 0.062075
0.549401 -0.056790 0.047025
0.511826 0.003183 0.048187
0.528170 -0.035557 0.044799
0.539709 0.034323 0.086290
0.536075 0.009604 0.082128
0.595481 0.035555 0.043445
0.572313 -0.080657 0.019734
0.569358 0.054602 0.023775
0.546200 0.073466 0.078355
0.516841 0.065779 0.047209
0.543629 -0.056906 0.038788
0.532792 -0.016269 0.068779
0.604702 -0.030209 0.033271
0.590137 0.006466 0.022504
0.569892 0.058825 0.026676
0.610540 -0.062858 0.018064
0.559685 0.071111 0.030072
0.574621 0.012620 0.082148
0.581630 -0.079184 0.032876
0.592746 -0.081996 0.016402
0.549114 0.046916 0.013769
0.598481 0.030974 0.050855
0.566065 -0.013280 0.005826
0.514437 0.030080 0.065350
0.603115 -0.026425 0.044218
0.528036 0.022390 0.080435
0.550681 -0.033593 0.066975
0.578136 0.056093 0.031993
0.526946 -0.014529 0.064235
0.519563 -0.025908 0.030770
0.513021 0.049590 0.041564
0.562127 0.025834 0.011124
0.524506 0.000303 0.012392
0.607164 -0.042275 0.029269
0.531301 -0.001732 0.008984
0.565004 -0.010492 0.005827
0.518585 0.014813 0.018212
0.533776 -0.009829 0.073385
0.517862 0.030998 0.021934
0.587907 -0.068000 0.044492
0.552689 0.085149 0.061459
0.583592 -0.021071 0.067824
0.575864 0.046281 0.024199
0.584472 0.036620 0.027272
0.584629 -0.079320 0.010869
0.585492 -0.016789 0.012918
0.603394 -0.026854 0.029397
0.595131 0.024424 0.034934
0.560044 0.082967 0.057102
0.521098 -0.010876 0.058943
0.517219 0.051845 0.067108
0.522521 0.035673 0.077136
0.516634 0.057204 0.063540
0.585781 0.059786 0.052239
0.598140 -0.070275 0.038502
0.602550 0.010040 0.048407
0.533702 0.019700 0.083369
0.549304 -0.038390 0.005428
0.532958 -0.017124 0.068350
0.575917 0.047073 0.080394
0.543186 -0.006673 0.079081
0.514871 0.002793 0.057773
0.516162 -0.009487 0.049241
0.576570 -0.076981 0.010739
0.598934 0.006981 0.033535
0.564992 -0.076483 0.027056
0.511871 -0.000529 0.037231
0.542078 0.084848 0.045849
0.567871 -0.021467 0.073247
0.537413 0.020304 0.085121
0.602914 -0.044803 0.043381
0.554547 0.002046 0.083646
0.597849 0.006183 0.031435
0.516938 -0.019381 0.031137
0.533857 -0.048799 0.028161
0.570099 -0.075343 0.011941
0.560795 0.055670 0.083958
0.575618 0.056868 0.030067
0.592685 0.032541 0.069303
0.538876 -0.044646 0.012041
0.577795 0.063290 0.038566
0.566076 -0.043947 0.062555
0.596158 0.037986 0.057858
0.569843 0.076912 0.051871
0.604965 -0.070075 0.033598
0.526623 0.076447 0.066049
0.517002 0.054304 0.034015
0.567428 -0.069112 0.008988
0.541564 -0.019494 0.005414
0.553203 0.053601 0.016644
0.540736 0.049362 0.015061
0.516626 -0.006739 0.053710
0.583808 -0.027457 0.009623
0.515767 0.043311 0.066668
0.556103 0.012233 0.086279
0.525420 -0.036898 0.025790
0.598460 0.030917 0.050304
0.519204 0.047714 0.071508
0.564834 0.078585 0.065096
0.594261 0.041974 0.061183
0.595369 0.011127 0.029677
0.600113 -0.004587 0.031433
0.523644 0.029460 0.077987
0.526930 -0.019652 0.011961
0.585011 -0.039870 0.007640
0.563473 -0.016576 0.004824
0.509950 0.024358 0.036801
0.535215 -0.027815 0.062824
0.598370 0.007842 0.032892
0.574902 -0.055162 0.055254
0.553435 0.062671 0.082998
0.519036 0.065985 0.062875
0.602117 -0.034202 0.046084
0.537087 -0.038699 0.055509
0.575746 -0.054294 0.055675
0.552783 0.082955 0.066882
0.530877 0.083222 0.054675
0.523597 0.049287 0.022728
0.563973 0.044607 0.085830
0.544005 -0.041857 0.058336
0.590915 0.026923 0.030226
0.591045 -0.036609 0.011011
0.564381 0.078118 0.066743
0.579823 -0.061414 0.004159
0.563120 0.080970 0.050493
0.515056 -0.004048 0.052252
0.536051 -0.012310 0.007021
0.544043 -0.053356 0.013166
0.560619 -0.051707 0.056974
0.582222 0.018215 0.019146
0.519115 0.006955 0.067459
0.541106 0.082843 0.069247
0.582198 0.014124 0.078866
0.511211 0.003049 0.038107
0.511107 0.038696 0.040494
0.511806 0.008408 0.031337
0.547786 0.040749 0.087592
0.524790 0.044780 0.078450
0.562676 0.063618 0.025322
0.574797 -0.081304 0.021934
0.594962 0.024631 0.067495
0.592511 -0.079720 0.011531
0.531231 -0.038120 0.047627
0.603248 -0.022566 0.043858
0.573565 -0.041701 0.062867
0.510162 0.009249 0.043694
0.598917 0.029084 0.049817
0.512497 0.000257 0.047794
0.520155 0.054602 0.070820
0.602955 0.003856 0.049805
0.540251 0.083116 0.068561
0.520992 0.029340 0.018323
0.601747 0.015842 0.049108
0.548681 0.086143 0.061235
0.534259 0.033231 0.012258
0.511631 0.039384 0.056275
0.536349 0.004960 0.080884
0.601408 -0.078618 0.027459
0.549757 -0.047267 0.007455
0.530076 0.048004 0.081534
0.595898 -0.008033 0.062794
0.608391 -0.048498 0.030449
0.534654 -0.025143 0.064251
0.583410 -0.047838 0.005908
0.516060 0.044334 0.067026
0.581693 -0.049667 0.056783
0.536112 0.005505 0.007827
0.581158 0.013883 0.079392
0.585574 0.015235 0.076963
0.569252 0.077241 0.060550
0.566222 -0.053862 0.004660
0.604984 -0.034094 0.037754
0.557933 -0.007760 0.004526
0.530329 0.046889 0.017422
0.541299 0.018448 0.008121
0.544510 0.058861 0.018421
0.603620 -0.017536 0.038580
0.540992 -0.057413 0.025015
0.568733 -0.056349 0.004680
0.557340 0.058685 0.083790
0.598476 -0.075256 0.008902
0.519155 0.038272 0.023071
0.534866 -0.006584 0.075698
0.606927 -0.071285 0.030511
0.555723 -0.061572 0.045897
0.607590 -0.047941 0.033511
0.600994 0.002283 0.057185
0.573931 0.059665 0.030629
0.525654 0.028728 0.079645
0.566034 0.035699 0.086645
0.598355 -0.002136 0.061255
0.523164 0.057267 0.026702
0.551862 0.040963 0.012273
0.520917 -0.007586 0.015344
0.531135 0.046923 0.017050
0.509503 0.019024 0.047108
0.550026 0.039995 0.011846
0.523219 0.029881 0.016737
0.555295 0.084361 0.061047
0.547795 0.074282 0.029397
0.583305 -0.055359 0.004802
0.543807 -0.033847 0.064242
0.596579 -0.054586 0.007960
0.562002 0.003047 0.083320
0.572817 -0.047431 0.060002
0.580403 -0.056197 0.004419
0.529607 0.079234 0.066334
0.601578 -0.019341 0.049495
0.552792 0.014718 0.006844
0.603273 -0.017867 0.044055
0.536061 0.037931 0.085045
0.549983 -0.020280 0.074306
0.587630 -0.078281 0.034564
0.609465 -0.054133 0.029722
0.553010 0.000696 0.004956
0.605844 -0.064049 0.035642
0.585682 -0.011051 0.014353
0.580376 0.040244 0.025081
0.515895 0.000709 0.022005
0.551764 0.053876 0.085724
0.534506 -0.040151 0.050661
0.564075 -0.009792 0.005648
0.580707 0.057618 0.036353
0.575098 -0.016833 0.073009
0.553225 0.034586 0.010816
0.513797 0.020567 0.025373
0.565078 -0.059437 0.051729
0.610065 -0.061482 0.029398
0.580331 -0.080213 0.030329
0.509332 0.020224 0.045387
0.511242 0.024085 0.031721
0.552861 -0.036067 0.065987
0.551044 0.037779 0.088177
0.517796 0.042484 0.070431
0.549635 -0.003809 0.081441
0.566717 -0.063008 0.048963
0.555611 -0.056746 0.051039
0.591366 -0.082574 0.017933
0.608579 -0.049547 0.030443
0.582439 -0.070981 0.005551
0.515047 -0.005289 0.050852
0.584891 -0.051473 0.054811
0.594985 -0.075614 0.035636
0.572338 0.072238 0.043874
0.600111 0.022255 0.045967
0.538438 0.082080 0.041165
0.566831 0.055428 0.022678
0.526183 -0.013758 0.011677
0.548474 0.058428 0.084539
0.557436 0.064880 0.023688
0.586224 -0.015206 0.068502
0.535156 0.038887 0.013310
0.561508 -0.031936 0.069244
0.547218 -0.035448 0.005475
0.586226 0.052156 0.069329
0.596040 -0.033161 0.015442
0.512991 0.007927 0.027961
0.560198 0.016404 0.086762
0.535565 -0.043668 0.047535
0.527579 0.023998 0.080414
0.539571 0.056440 0.083639
0.528264 0.054706 0.078930
0.526745 -0.015806 0.063039
0.550008 -0.022065 0.073378
0.525151 0.070717 0.069555
0.540622 -0.028932 0.065823
0.584124 0.001437 0.016180
0.603034 -0.017535 0.034255
0.518359 0.037458 0.023691
0.547494 0.046631 0.013642
0.543868 -0.010294 0.004902
0.595160 0.014313 0.068002
0.583903 -0.004215 0.014703
0.536837 0.071195 0.027736
0.600448 0.001152 0.034212
0.573001 -0.047152 0.004262
0.600442 0.003981 0.058662
0.560217 0.031985 0.088206
0.544986 -0.053481 0.012537
0.546094 0.058844 0.084257
0.515712 0.063636 0.050366
0.533634 -0.041303 0.014475
0.542061 0.079206 0.035699
0.524433 -0.013466 0.012878
0.509652 0.026308 0.049359
0.572917 0.074934 0.055688
0.595534 -0.025513 0.057475
0.539685 0.074055 0.077211
0.510013 0.027578 0.051693
0.540249 0.033251 0.086465
0.555588 0.025497 0.009137
0.517650 -0.016632 0.043908
0.554179 0.084637 0.049060
0.525926 0.062003 0.026772
0.544192 -0.012580 0.004761
0.552612 0.047254 0.087093
0.537031 -0.029054 0.008039
0.579353 -0.066362 0.047224
0.603426 -0.014105 0.038355
0.516259 -0.013018 0.024111
0.594665 0.017249 0.068638
0.523055 -0.025911 0.017796
0.564157 0.012600 0.085357
0.535325 0.036677 0.012721
0.603517 -0.018705 0.036371
0.511107 0.003414 0.039014
0.580414 -0.024554 0.008791
0.539909 -0.003310 0.006200
0.533344 -0.036662 0.053087
0.515588 0.026886 0.023655
0.598169 -0.035964 0.016036
0.604833 -0.074960 0.013350
0.583891 -0.004829 0.073430
0.605900 -0.036571 0.032276
0.512794 0.041669 0.059755
0.539431 0.016671 0.085174
0.522188 0.074287 0.046885
0.544794 0.086026 0.062727
0.577551 -0.076568 0.036238
0.528768 -0.007808 0.070579
0.537036 0.061398 0.020824
0.569196 -0.065873 0.046879
0.514938 -0.013271 0.032231
0.549748 0.086643 0.057171
0.578300 -0.020869 0.008644
0.601033 -0.055219 0.043294
0.523573 0.069660 0.068185
0.598741 -0.044481 0.048672
0.525290 -0.014880 0.012418
0.520169 0.018538 0.016902
0.516697 0.033219 0.069467
0.514955 -0.006614 0.025029
0.521111 0.019191 0.073666
0.591316 -0.061278 0.047314
0.573197 0.048799 0.023450
0.518090 -0.016579 0.021489
0.603180 -0.050480 0.042109
0.546529 -0.012238 0.004327
0.543660 0.069062 0.080400
0.539688 0.045229 0.085486
0.583937 0.062255 0.051050
0.575786 0.060255 0.032962
0.596764 -0.010160 0.024610
0.510778 0.006610 0.037226
0.544169 0.085951 0.062935
0.562116 -0.035314 0.067449
0.562577 0.058036 0.021776
0.569102 0.074640 0.068011
0.553418 0.041550 0.012672
0.532191 -0.004326 0.008551
0.589793 -0.044587 0.055522
0.559982 0.061536 0.082285
0.602279 -0.004437 0.036810
0.596134 0.018090 0.066498
0.588170 -0.045849 0.055882
0.536929 0.004666 0.081037
0.584794 0.004325 0.017390
0.516549 -0.018114 0.029604
0.525296 0.067488 0.031566
0.537455 -0.005560 0.077477
0.526120 -0.009942 0.066548
0.558449 0.083796 0.054092
0.554491 0.066274 0.081451
0.553802 -0.070079 0.020533
0.551768 0.076561 0.032836
0.574532 -0.059745 0.004401
0.603486 -0.012696 0.043009
0.591817 0.037552 0.069157
0.537398 -0.043201 0.012372
0.513842 -0.008891 0.032240
0.543450 0.003327 0.005964
0.555917 0.025355 0.009167
0.532962 -0.047472 0.023794
0.546991 -0.045432 0.057071
0.567604 0.006771 0.009101
0.550311 0.028399 0.088229
0.536992 -0.032775 0.060635
0.527535 0.080358 0.050183
0.545589 -0.016384 0.004386
0.543122 -0.011380 0.005023
0.536434 -0.046449 0.044575
0.514844 0.058590 0.057048
0.591566 -0.011520 0.018867
0.564165 -0.047522 0.004072
0.581095 0.023250 0.019723
0.532832 0.014179 0.009544
0.599451 0.016409 0.060403
0.557776 0.066336 0.080851
0.552037 -0.037822 0.004624
0.589192 0.049614 0.066558
0.532024 0.029914 0.083723
0.579016 0.014791 0.016062
0.522755 -0.032207 0.031568
0.523019 -0.027174 0.044575
0.591061 -0.027307 0.060980
0.510339 0.019377 0.034302
0.550689 -0.066135 0.031631
0.555934 -0.026224 0.072074
0.560378 0.068703 0.028147
0.517558 0.024782 0.020594
0.610306 -0.069991 0.023473
0.596362 0.038282 0.054097
0.511816 0.044928 0.054236
0.510217 0.036121 0.048435
0.561773 0.020624 0.087231
0.557512 0.007945 0.006339
0.545505 -0.041709 0.007499
0.542561 -0.019958 0.072341
0.579218 -0.049260 0.057722
0.548724 -0.023425 0.072354
0.510188 0.034197 0.042005
0.554702 0.049344 0.086571
0.518062 -0.017114 0.021881
0.536956 -0.007822 0.076234
0.599730 0.016458 0.039812
0.574095 -0.016586 0.007866
0.546239 -0.025478 0.004484
0.542012 0.052630 0.016039
0.567797 -0.078123 0.016798
0.590759 0.047805 0.044509
0.516926 -0.010937 0.021547
0.555843 -0.070634 0.017651
0.558187 0.069258 0.079250
0.606978 -0.073354 0.028338
0.529216 -0.036693 0.045471
0.595253 -0.040560 0.012144
0.533454 0.035811 0.084234
0.603760 -0.034788 0.042349
0.532942 -0.026900 0.009631
0.538884 0.056508 0.083425
0.570768 0.046024 0.083134
0.602747 0.005070 0.051039
0.593579 -0.006245 0.065952
0.531595 -0.042848 0.039826
0.513297 -0.002450 0.029315
0.586224 0.044789 0.033504
0.553567 0.045223 0.087425
0.538238 0.041866 0.013293
0.564488 -0.065119 0.008256
0.533031 0.030529 0.084185
0.585669 0.055257 0.041942
0.533057 -0.028399 0.009899
0.530485 -0.032347 0.053625
0.602426 -0.030597 0.024116
0.534489 0.068232 0.078108
0.546664 -0.031402 0.004986
0.584703 -0.060986 0.049917
0.521702 -0.028501 0.022650
0.516189 -0.004728 0.021736
0.561073 0.068078 0.027990
0.592260 0.014680 0.027193
0.542142 0.072457 0.027698
0.575741 0.060734 0.075077
0.521565 0.053560 0.026632
0.556817 -0.034853 0.003541
0.591134 -0.031397 0.059517
0.610008 -0.054468 0.026916
0.513661 0.004595 0.026747
0.531374 0.078184 0.069746
0.596987 -0.061351 0.006054
0.549308 -0.013134 0.077657
0.602481 -0.017544 0.032135
0.562435 0.048077 0.085498
0.535650 0.069886 0.026998
0.590394 0.018537 0.026502
0.523203 0.045314 0.021636
0.538779 -0.042170 0.010966
0.546551 -0.059386 0.039334
0.558902 -0.020412 0.003685
0.597884 -0.040159 0.014056
0.580354 0.061261 0.069762
0.539520 -0.050112 0.044067
0.579191 -0.058017 0.052940
0.553335 0.084786 0.048712
0.523624 0.070339 0.036518
0.542559 -0.052232 0.013652
0.518068 -0.012278 0.019798
0.511355 0.020286 0.056646
0.589508 -0.069569 0.004857
0.581255 0.046669 0.077101
0.511761 0.000899 0.044143
0.602117 -0.053232 0.011450
0.523715 -0.009103 0.013018
0.571624 0.066798 0.074426
0.538418 -0.043323 0.052119
0.580442 0.041849 0.078999
0.542611 -0.051897 0.046152
0.594961 0.033150 0.039979
0.569648 -0.075214 0.034985
0.515898 -0.012393 0.024845
0.537467 0.057191 0.018699
0.592383 -0.055872 0.006345
0.597128 -0.081328 0.019276
0.582087 -0.083123 0.020529
0.516889 0.034804 0.024542
0.588717 0.054400 0.060610
0.570069 0.076310 0.062170
0.521089 0.073773 0.051790
0.538537 0.025869 0.086050
0.574316 0.016048 0.082891
0.580098 0.050348 0.076607
0.576381 -0.004229 0.010569
0.575356 0.034867 0.083013
0.582511 0.056106 0.037417
0.594473 0.033383 0.066063
0.536511 -0.020898 0.068515
0.551689 -0.010904 0.078923
0.558658 -0.022392 0.074036
0.535045 0.073663 0.075752
0.555716 0.025897 0.009245
0.579180 0.015649 0.080655
0.550160 0.015262 0.006873
0.609676 -0.053711 0.028372
0.534994 0.043213 0.014513
0.587453 -0.031880 0.061730
0.556374 -0.050003 0.005995
0.594897 0.040600 0.060370
0.575775 0.018304 0.082608
0.559765 0.000847 0.005812
0.593067 0.046286 0.059350
0.539292 0.074284 0.076971
0.553914 0.085442 0.058201
0.560253 -0.067031 0.011040
0.535451 0.013829 0.082929
0.542924 0.071476 0.079184
0.514564 -0.012032 0.033516
0.512135 0.031122 0.059798
0.608304 -0.047585 0.025124
0.521837 0.053758 0.026418
0.607691 -0.067132 0.012317
0.600166 -0.043465 0.047362
0.550007 -0.062100 0.014464
0.584780 0.017767 0.077746
0.511828 0.046570 0.044987
0.605344 -0.077053 0.018879
0.563475 0.006460 0.084020
0.514533 -0.009305 0.027965
0.575663 0.069656 0.044870
0.607189 -0.045052 0.023455
0.541575 0.045966 0.013858
0.530877 -0.009769 0.008981
0.580374 -0.082868 0.020104
0.554925 -0.065349 0.013115
0.509368 0.026482 0.044541
0.545822 0.026217 0.008893
0.517051 -0.008894 0.052509
0.552409 0.085115 0.049017
0.594215 -0.066397 0.043015
0.539855 -0.053996 0.036141
0.564821 -0.026245 0.004309
0.581109 0.060734 0.069182
0.587234 0.052711 0.042097
0.549631 0.046867 0.013786
0.589988 -0.023737 0.062980
0.577875 0.049587 0.078464
0.582800 0.024880 0.079370
0.517009 0.061979 0.061255
0.561745 0.048932 0.017583
0.516432 0.018225 0.021069
0.552496 0.015793 0.006998
0.569599 -0.040781 0.064024
0.513849 0.007361 0.025950
0.569933 -0.069193 0.043636
0.569381 -0.078771 0.025223
0.557536 -0.045623 0.060730
0.578338 0.024465 0.081906
0.591118 0.050786 0.052944
0.585376 0.055924 0.042196
0.530094 -0.035115 0.049637
0.602688 -0.013319 0.047750
0.538185 -0.009483 0.006366
0.517959 0.009006 0.018778
0.564346 0.036858 0.014816
0.521240 0.059534 0.070368
0.594394 0.025585 0.034346
0.590571 -0.081215 0.029350
0.597273 0.024089 0.038705
0.605839 -0.075115 0.027772
0.567946 0.025232 0.013132
0.561543 0.042748 0.086825
0.579786 -0.006780 0.074755
0.523490 -0.032892 0.034134
0.598276 -0.066642 0.005895
0.516954 0.038990 0.069507
0.598945 -0.080702 0.018951
0.510294 0.024559 0.053191
0.591411 -0.082064 0.015616
0.536755 0.048723 0.015677
0.515560 0.024234 0.066987
0.557197 0.015423 0.086867
0.595946 0.039467 0.055346
0.539409 -0.019793 0.070963
0.514078 0.054537 0.042166
0.577003 -0.056153 0.004237
0.595509 -0.009157 0.062875
0.522185 0.074714 0.048533
0.555623 0.065736 0.081509
0.553278 -0.052222 0.054220
0.575369 -0.080074 0.027501
0.569088 0.036601 0.085493
0.590819 -0.059303 0.048566
0.513338 0.043763 0.036024
0.565116 0.075891 0.069989
0.512677 -0.003879 0.034393
0.590064 -0.008276 0.068349
0.600205 0.019337 0.043428
0.523450 0.059265 0.073173
0.536383 -0.014923 0.006947
0.545961 0.079372 0.073782
0.567687 -0.078741 0.021601
0.524824 -0.007981 0.012174
0.589684 -0.057595 0.049913
0.540238 -0.046309 0.011953
0.578179 0.012099 0.080517
0.536193 -0.038527 0.054704
0.599923 0.002785 0.033759
0.596393 -0.010393 0.024086
0.514582 -0.002035 0.025092
0.584221 0.048499 0.073864
0.514911 -0.012750 0.030378
0.550846 -0.026559 0.003675
0.561000 -0.034160 0.068067
0.597864 0.026009 0.061393
0.585464 0.034794 0.076718
0.548681 0.072947 0.078601
0.608608 -0.056100 0.017317
0.598520 -0.051405 0.046809
0.594863 0.028870 0.036908
0.604920 -0.073014 0.031448
0.589563 0.019318 0.074165
0.576021 -0.081862 0.019775
0.594382 -0.009850 0.022031
0.516640 -0.014488 0.043523
0.576973 0.028698 0.018500
0.541736 0.063585 0.021141
0.591993 0.049271 0.056570
0.510754 0.008002 0.036100
0.551987 -0.059769 0.011503
0.570820 -0.044734 0.004123
0.564995 0.016208 0.085879
0.523034 -0.030593 0.038233
0.565357 -0.071058 0.039308
0.579480 0.049061 0.077546
0.599632 -0.011445 0.056013
0.594476 0.041326 0.047512
0.587353 -0.081755 0.013780
0.537732 -0.052733 0.032389
0.563553 0.023105 0.011001
0.592357 -0.059761 0.005416
0.548400 -0.062647 0.035789
0.576032 0.051907 0.078837
0.513292 0.002237 0.053100
0.564883 0.016385 0.085936
0.590844 -0.029257 0.060469
0.593560 0.001027 0.024335
0.590633 -0.016982 0.064840
0.517842 0.064118 0.040405
0.586093 0.053350 0.068500
0.546954 -0.063485 0.028701
0.599840 0.025591 0.050770
0.541539 -0.055538 0.017761
0.584879 0.041030 0.075933
0.577440 0.017356 0.015756
0.602077 0.004667 0.054231
0.538557 0.073690 0.029629
0.540829 0.055017 0.017139
0.524418 0.011424 0.074923
0.579604 0.045614 0.026932
0.536032 -0.013842 0.007047
0.561273 0.056109 0.083711
0.511110 0.006263 0.047946
0.511090 0.043018 0.047967
0.559951 0.030777 0.088255
0.603583 -0.026819 0.030171
0.512696 0.052191 0.048055
0.513527 -0.008074 0.036433
0.585132 0.007850 0.076094
0.572394 -0.055003 0.055558
0.562119 0.004264 0.083653
0.540666 -0.012387 0.075678
0.559119 0.083109 0.059381
0.537193 -0.009528 0.075533
0.581534 0.045606 0.028737
0.563163 0.048887 0.018130
0.558974 0.076812 0.036670
0.577168 0.015837 0.015231
0.514036 0.012446 0.025015
0.557870 0.054963 0.084778
0.569267 -0.009863 0.077472
0.586989 0.051485 0.040180
0.539326 0.080879 0.038809
0.580203 -0.056039 0.004414
0.518902 0.020841 0.018441
0.558142 0.024455 0.088098
0.599329 0.004456 0.060946
0.580170 -0.077846 0.010402
0.597146 0.007256 0.030761
0.550376 -0.066557 0.029337
0.568966 -0.020103 0.073550
0.533944 0.013328 0.009122
0.553276 -0.031554 0.068792
0.522946 0.034015 0.077591
0.509948 0.024052 0.036713
0.544678 0.004136 0.083260
0.517266 -0.016671 0.023639
0.517371 0.006769 0.064761
0.520108 0.037788 0.021854
0.584537 -0.013445 0.070111
0.520390 0.006611 0.015913
0.553247 -0.069736 0.021189
0.532179 0.079958 0.068237
0.582365 -0.071814 0.042335
0.533657 0.066322 0.024999
0.562872 0.048962 0.085179
0.577346 0.035044 0.082003
0.549544 -0.029166 0.004059
0.587437 -0.005138 0.071270
0.581129 0.012875 0.079241
0.589071 -0.077590 0.035228
0.596381 -0.000642 0.064438
0.558413 0.077787 0.037771
0.554988 -0.051696 0.055383
0.580756 -0.081974 0.015153
0.559507 0.082199 0.047881
0.587448 0.057448 0.054954
0.559119 -0.064701 0.044198
0.578847 0.069066 0.058680
0.584777 -0.006118 0.072537
0.567256 -0.076394 0.030299
0.511778 0.009945 0.030980
0.533368 -0.045628 0.038495
0.514197 0.020071 0.063722
0.579311 0.017918 0.017045
0.533903 0.048005 0.016298
0.585388 -0.083302 0.018499
0.590951 0.043135 0.039830
0.549899 0.078116 0.034474
0.534289 -0.043449 0.045426
0.562678 0.002067 0.006704
0.571307 0.000774 0.009388
0.573418 -0.056101 0.054789
0.572896 0.057406 0.078648
0.599896 -0.019838 0.052888
0.581993 0.025878 0.079874
0.517952 0.068716 0.051235
0.565149 -0.013048 0.005594
0.563744 0.047600 0.017913
0.548079 -0.018664 0.003937
0.525494 -0.036322 0.033772
0.596801 0.012680 0.065664
0.598365 0.007948 0.062981
0.549473 -0.066215 0.027232
0.567731 0.007858 0.009350
0.594859 -0.051798 0.049513
0.573036 -0.052304 0.057186
0.610971 -0.059393 0.022726
0.542527 -0.056493 0.017441
0.544799 0.010740 0.006607
0.528892 -0.008602 0.009889
0.520945 0.060725 0.069482
0.526506 0.066051 0.073534
0.533612 0.047321 0.016181
0.605203 -0.073641 0.012403
0.526380 -0.036218 0.038125
0.515004 0.009608 0.023390
0.577456 -0.024842 0.069032
0.536939 0.076327 0.033140
0.576478 -0.065058 0.004877
0.572919 0.074217 0.061904
0.549012 -0.008592 0.079554
0.578580 0.058381 0.073959
0.587978 0.055138 0.048398
0.573054 -0.016547 0.007541
0.542152 0.068741 0.080310
0.542852 0.079011 0.074089
0.571618 -0.027708 0.005738
0.514084 -0.010004 0.036868
0.548983 0.043610 0.087481
0.560829 0.078182 0.040276
0.519119 0.068116 0.042500
0.512172 -0.001898 0.036443
0.533249 0.010874 0.009104
0.520425 0.014852 0.016321
0.518135 0.013903 0.068642
0.514960 0.052058 0.037201
0.534746 0.068046 0.078305
0.526572 0.008506 0.011556
0.518753 0.003775 0.065410
0.527246 -0.026348 0.054715
0.541215 0.081453 0.039308
0.543770 -0.008760 0.004993
0.569068 0.022631 0.012960
0.552569 0.045082 0.013562
0.569499 -0.076732 0.031612
0.513116 0.011748 0.027042
0.517260 0.022891 0.069506
0.520944 0.055020 0.028131
0.551320 -0.014489 0.077326
0.575440 0.046790 0.080732
0.528023 0.011766 0.011098
0.580664 0.009518 0.015804
0.560504 -0.032150 0.003445
0.588338 -0.052765 0.006137
0.579349 -0.011180 0.010718
0.587083 0.057711 0.058678
0.575016 0.050719 0.079819
0.523748 0.039882 0.078091
0.554967 0.073230 0.077433
0.596498 -0.028514 0.017704
0.600161 0.018338 0.057894
0.568446 0.066781 0.032073
0.519672 0.032621 0.073827
0.513530 0.028756 0.063387
0.596532 -0.081581 0.023042
0.574133 0.072593 0.063761
0.600619 0.013833 0.057838
0.526274 0.042100 0.079963
0.560764 0.021329 0.087478
