ply
format ascii 1.0
element vertex 1024
property float x
property float y
property float z
end_header
0.520513 -0.015886 0.038111
0.512150 0.068180 0.048072
0.511707 0.073044 0.049785
0.581592 -0.038837 -0.006697
0.575452 0.074841 0.063718
0.526351 0.030071 0.013788
0.573693 -0.031536 -0.010454
0.588004 -0.001337 0.069357
0.528584 0.082983 0.033090
0.547975 0.042703 0.014033
0.604814 -0.012694 0.038663
0.589002 -0.055299 0.026718
0.575663 0.061522 0.076262
0.594614 0.047769 0.054682
0.605801 0.004010 0.034971
0.561804 0.043131 0.015867
0.523688 0.048407 0.023729
0.590538 -0.033882 -0.002540
0.531938 -0.040128 0.013238
0.595994 0.003066 0.011289
0.594858 0.045715 0.060966
0.539608 0.104603 0.052865
0.562358 -0.056553 0.000104
0.522397 0.065475 0.072090
0.513684 0.092877 0.044051
0.519796 0.009183 0.053526
0.538678 -0.048085 0.025092
0.550378 -0.034062 0.058133
0.539837 0.010524 0.075231
0.542239 -0.047773 0.034376
0.557564 0.051309 0.020005
0.593711 0.016575 0.017154
0.570498 0.077345 0.071987
0.545217 0.075904 0.081679
0.564129 -0.023872 0.068107
0.560150 0.021138 0.082824
0.564541 0.052560 0.023060
0.597213 -0.007990 0.007395
0.546662 -0.045506 0.043700
0.569463 0.081708 0.062559
0.600070 -0.040027 0.016812
0.585376 -0.030966 0.056709
0.542175 -0.013759 0.067306
0.602328 -0.029864 0.015257
0.587744 -0.035987 -0.004147
0.601786 -0.002852 0.017362
0.579772 0.068594 0.066565
0.547697 -0.005308 0.073783
0.567353 -0.033864 -0.010754
0.512567 0.087741 0.044218
0.514429 0.087818 0.041244
0.604918 -0.015838 0.032877
0.571609 -0.000845 0.076744
0.516235 0.024051 0.051888
0.603986 -0.021470 0.020696
0.551537 0.011626 0.080136
0.565467 -0.057086 0.037392
0.536207 -0.035470 0.000654
0.544832 -0.029278 0.059202
0.516699 -0.006616 0.021516
0.583606 -0.007588 0.070141
0.584748 0.040559 0.075055
0.582840 0.065593 0.063152
0.555227 -0.020316 -0.010486
0.595028 -0.034414 0.044087
0.581001 -0.031652 -0.008467
0.572074 -0.048157 -0.006188
0.594790 -0.041183 0.004507
0.598882 -0.040962 0.012664
0.596304 -0.017021 0.054989
0.545876 0.097139 0.072192
0.596226 -0.014085 0.056710
0.603057 0.022123 0.047224
0.566237 0.031412 0.009971
0.561981 0.088681 0.058183
0.544546 -0.054375 0.016698
0.517498 0.041976 0.027783
0.529233 0.055185 0.076765
0.587939 -0.048999 0.001781
0.602833 0.002336 0.051703
0.540656 0.052968 0.082541
0.583524 0.014588 0.006684
0.532837 0.051210 0.078738
0.576506 0.073663 0.060611
0.534755 0.092632 0.037295
0.583555 0.045721 0.028802
0.553433 0.080608 0.038203
0.569354 -0.029152 -0.011126
0.598079 0.040266 0.051737
0.549433 0.048138 0.084674
0.574314 0.073652 0.070349
0.596515 -0.005411 0.007651
0.553969 -0.032444 0.061188
0.602909 0.021158 0.039335
0.549674 -0.055661 0.007988
0.561960 0.063192 0.082409
0.551103 -0.051214 0.039149
0.605435 0.007756 0.038990
0.582796 -0.024110 -0.008020
0.569941 0.067922 0.037489
0.568986 -0.063143 0.008695
0.537439 -0.011347 0.065242
0.534361 -0.026976 -0.000993
0.516828 -0.008879 0.023490
0.525356 0.019345 0.010280
0.545265 -0.046889 0.040268
0.595362 -0.011365 0.059102
0.601812 0.018825 0.054862
0.514630 0.046374 0.054876
0.531872 -0.024714 0.051466
0.544073 -0.036319 0.052307
0.602254 -0.026541 0.035088
0.568384 -0.012362 -0.009720
0.570975 -0.053632 0.042183
0.545424 0.027180 0.006384
0.576125 0.043352 0.021256
0.597476 -0.028136 0.003755
0.530505 0.005767 0.002837
0.526727 -0.019365 0.004399
0.532547 -0.020206 0.055633
0.551254 -0.025103 0.065514
0.521003 -0.020358 0.016278
0.527238 0.022206 0.068037
0.548002 -0.013308 0.070456
0.562050 -0.008316 0.075511
0.513838 0.044830 0.051126
0.559319 0.031205 0.008378
0.585308 0.062310 0.062481
0.536136 -0.033466 0.048238
0.513603 0.038454 0.046884
0.561185 -0.048114 -0.006013
0.518221 0.008718 0.014900
0.527138 0.029124 0.069897
0.585023 0.048388 0.032914
0.553347 -0.033991 0.059578
0.601232 -0.016130 0.010903
0.581434 -0.015632 -0.007405
0.522531 0.036159 0.066372
0.558006 -0.042331 0.053320
0.578874 0.057181 0.034653
0.579407 -0.034806 -0.008534
0.559095 -0.061801 0.012039
0.603756 0.010034 0.048632
0.546380 0.057184 0.021852
0.564816 -0.026288 -0.011371
0.542680 0.079000 0.032914
0.544732 0.094423 0.074211
0.581875 0.066950 0.062781
0.529610 0.105706 0.047204
0.592739 0.017712 0.016833
0.565993 -0.064502 0.015661
0.577952 -0.060194 0.030309
0.570119 -0.064335 0.012487
0.542324 -0.029580 -0.005837
0.546833 -0.056009 0.018382
0.582742 0.009669 0.074763
0.571042 0.035642 0.013893
0.529769 0.105766 0.060226
0.540311 0.000193 0.072200
0.515561 0.065140 0.062594
0.515454 0.002372 0.021635
0.535476 -0.021326 0.057814
0.557366 -0.055363 0.036978
0.536335 -0.020300 -0.003563
0.547330 0.080446 0.080488
0.578960 0.045293 0.024487
0.542963 -0.015577 0.066870
0.602378 -0.032766 0.023288
0.559502 0.068323 0.082057
0.524859 -0.030122 0.019004
0.525002 -0.020506 0.007039
0.588549 -0.036746 0.049561
0.531481 0.076118 0.030502
0.588988 -0.015130 -0.002999
0.550786 -0.053642 0.034682
0.519229 -0.012520 0.038243
0.541588 0.037800 0.081641
0.545387 -0.054221 0.023789
0.522900 0.026344 0.063971
0.580884 -0.058472 0.031265
0.570270 0.076683 0.048653
0.526604 -0.028420 0.037162
0.550576 -0.051609 0.038044
0.606016 -0.005043 0.033454
0.556208 0.076601 0.036660
0.514793 0.022429 0.047566
0.549800 0.097629 0.051468
0.601076 -0.021211 0.009589
0.513540 0.011007 0.037990
0.528287 0.093117 0.036507
0.570348 -0.051085 0.045544
0.588800 0.049159 0.039328
0.600851 0.015273 0.026606
0.521064 0.021608 0.059889
0.538602 -0.016731 -0.005029
0.532150 -0.037263 0.007730
0.516554 -0.007040 0.034450
0.579908 0.058716 0.074259
0.567639 0.021536 0.004753
0.574129 0.047619 0.023378
0.580652 0.007412 0.001316
0.582299 -0.025940 -0.008284
0.580549 -0.025293 0.063380
0.578259 -0.012784 -0.007861
0.572575 -0.008142 0.074282
0.560810 -0.057862 0.002390
0.553382 0.057370 0.084702
0.592755 0.001526 0.066236
0.575339 0.037207 0.080481
0.553705 -0.038059 0.055886
0.555389 -0.017582 0.070699
0.530148 0.000299 0.001836
0.545349 0.097532 0.071972
0.565155 -0.009023 -0.009107
0.558152 -0.061659 0.023322
0.598112 -0.044512 0.023855
0.562563 0.060933 0.082657
0.561502 0.009332 0.080530
0.518392 0.058919 0.032479
0.541559 0.033680 0.010130
0.563775 -0.013846 -0.010276
0.516908 0.094377 0.040954
0.572254 -0.027786 -0.010920
0.523653 -0.010360 0.049828
0.530795 0.090890 0.074371
0.529881 0.105595 0.060740
0.586262 -0.002201 -0.000333
0.523042 0.000135 0.007698
0.567671 0.052747 0.024348
0.585321 -0.028608 0.058390
0.514437 0.049118 0.037476
0.564840 -0.028340 0.065607
0.545041 0.028079 0.081514
0.553673 -0.012881 -0.009419
0.569049 0.009260 0.079580
0.591376 0.036048 0.070210
0.601970 -0.029720 0.032507
0.573774 0.018712 0.004908
0.600808 0.028168 0.040241
0.516729 0.071135 0.036436
0.596659 0.033433 0.036120
0.568957 0.050352 0.023120
0.604742 0.012145 0.037549
0.559159 0.001911 0.078773
0.605697 -0.002625 0.029979
0.520988 0.076979 0.071249
0.563412 -0.058931 0.002610
0.518936 0.026144 0.057946
0.558302 -0.001302 -0.006829
0.548093 0.006386 -0.003151
0.539983 0.104832 0.059726
0.547183 0.056017 0.021254
0.522028 0.058335 0.028682
0.533365 0.013789 0.003875
0.559280 -0.052849 -0.002267
0.577270 0.008169 0.076978
0.585201 -0.045606 0.044406
0.573111 -0.037897 0.057993
0.588360 -0.047726 0.039179
0.537054 -0.025861 -0.003312
0.515310 0.084816 0.064030
0.517934 0.018605 0.017370
0.558164 -0.026627 0.066273
0.578248 0.068034 0.048139
0.561469 0.010282 0.080726
0.528470 -0.035338 0.026491
0.548732 -0.001564 0.075586
0.585058 -0.003128 0.070754
0.586751 0.011659 0.072694
0.547112 0.101128 0.062148
0.528423 0.028899 0.012116
0.548162 0.088171 0.077366
0.598013 0.010894 0.061948
0.580528 -0.052037 -0.001374
0.529109 0.019329 0.069205
0.554222 -0.027213 0.065120
0.512401 0.063618 0.048616
0.538081 -0.008135 0.067261
0.530331 0.030491 0.011888
0.594311 0.030189 0.067625
0.577540 0.058641 0.075978
0.552108 0.097558 0.065031
0.540429 -0.047775 0.030686
0.556911 -0.012951 -0.009824
0.518288 -0.013477 0.020679
0.582528 0.066301 0.061188
0.551497 -0.022380 -0.009813
0.533056 0.042436 0.077772
0.522265 -0.009969 0.008655
0.553015 -0.042681 -0.006440
0.512254 0.089271 0.057589
0.581463 -0.061460 0.023681
0.603345 -0.027846 0.023038
0.556805 0.093891 0.060654
0.587436 0.051678 0.040073
0.582284 -0.008011 -0.004815
0.592917 -0.006914 0.003035
0.584382 0.007013 0.073431
0.548804 0.065717 0.026801
0.585416 -0.039179 0.050217
0.536849 -0.017106 0.061681
0.587555 0.048864 0.071230
0.523345 0.000501 0.007412
0.580607 -0.044576 0.048673
0.550399 -0.053070 0.002940
0.522653 -0.015467 0.009087
0.534047 0.027143 0.008945
0.526891 0.039287 0.017537
0.570825 -0.033375 0.061855
0.596140 0.044281 0.051324
0.547067 0.076685 0.032811
0.569891 0.055220 0.027092
0.603431 -0.008353 0.047001
0.560985 0.022304 0.083003
0.529360 0.028484 0.011466
0.527961 0.057540 0.076073
0.548089 -0.054378 0.029334
0.587975 -0.053449 0.032079
0.513156 0.053706 0.043977
0.561748 0.035442 0.084513
0.527159 0.056835 0.075365
0.560132 -0.060457 0.007208
0.584943 -0.058818 0.010479
0.603125 -0.015661 0.016143
0.535188 -0.039644 0.037197
0.554017 0.037886 0.084791
0.539749 0.013636 0.001547
0.540709 0.073679 0.029820
0.549833 -0.053806 0.004449
0.550143 0.093947 0.046804
0.559942 -0.046628 -0.006508
0.586855 0.005434 0.071636
0.592216 0.043865 0.039243
0.576363 0.073570 0.064792
0.539461 0.050340 0.081974
0.551642 0.024737 0.004626
0.576962 -0.011024 0.071883
0.568600 -0.064669 0.014454
0.519295 -0.007682 0.043174
0.598613 0.007475 0.060553
0.602566 -0.021227 0.039648
0.602491 0.007553 0.052816
0.547199 -0.041748 0.048655
0.571830 -0.045081 0.051945
0.571206 -0.018491 -0.010548
0.542012 0.097332 0.072479
0.516210 -0.005789 0.023438
0.532996 0.106695 0.056493
0.570911 0.038241 0.082286
0.515073 0.046414 0.034770
0.526966 0.042387 0.072860
0.597409 -0.000851 0.060539
0.522959 0.002305 0.008046
0.591983 0.004163 0.067507
0.581173 -0.049197 0.043464
0.515961 0.022601 0.021898
0.569718 -0.064681 0.014291
0.604768 0.001567 0.027304
0.519067 0.013552 0.014543
0.567018 -0.060549 0.003825
0.597487 0.005485 0.014672
0.593831 -0.031015 0.048462
0.555154 -0.013222 0.072732
0.517258 0.098576 0.061011
0.575512 0.073727 0.054713
0.566244 -0.048074 0.049174
0.513224 0.022215 0.040665
0.514181 0.075495 0.040451
0.561080 0.019272 0.082460
0.548176 0.083413 0.037562
0.585129 -0.040102 0.049646
0.522274 0.054109 0.070197
0.594303 0.029779 0.028507
0.519848 -0.008068 0.044155
0.517651 -0.006563 0.039667
0.548938 -0.048244 -0.001130
0.562312 0.084507 0.049061
0.515212 0.059291 0.037480
0.575943 0.047287 0.024103
0.599986 -0.009003 0.011138
0.591685 0.020992 0.017999
0.589349 -0.015243 -0.002767
0.518296 0.045802 0.028248
0.572020 0.068865 0.075980
0.559849 0.087019 0.049399
0.543836 -0.050835 0.030392
0.530062 0.106323 0.049167
0.605062 -0.008542 0.025458
0.557487 -0.001677 0.077591
0.512085 0.092519 0.055524
0.548018 0.063263 0.083912
0.513299 0.073049 0.042339
0.513443 0.018927 0.028296
0.558423 -0.015841 -0.010413
0.568161 -0.033305 0.062323
0.531750 -0.032808 0.042268
0.512842 0.019230 0.034823
0.602522 -0.024235 0.013736
0.583907 0.003921 0.001152
0.601095 0.031555 0.048743
0.599517 -0.008608 0.010495
0.597550 -0.010519 0.056780
0.585527 0.004461 0.002408
0.603832 0.002649 0.024912
0.561344 -0.057438 0.001573
0.582989 -0.032752 -0.007462
0.547769 0.089795 0.041672
0.552194 0.028198 0.083413
0.535125 0.090610 0.036550
0.532178 -0.006861 0.062764
0.528289 0.048287 0.075103
0.550272 0.089946 0.043397
0.579224 -0.063022 0.020632
0.513932 0.040180 0.036961
0.582238 0.027448 0.013911
0.515625 0.042711 0.031924
0.557930 -0.040980 0.054667
0.543640 0.013364 0.077909
0.525020 0.090680 0.071865
0.512860 0.080502 0.043023
0.581041 0.039347 0.021475
0.511301 0.083664 0.054602
0.547088 0.050822 0.018420
0.553198 0.003905 -0.004729
0.602935 0.020006 0.050018
0.546766 -0.049689 0.037324
0.566272 0.038799 0.083776
0.569929 0.049693 0.023029
0.549428 -0.016006 -0.009017
0.523873 0.017716 0.062592
0.582626 0.010001 0.003609
0.605756 0.002298 0.040605
0.537417 0.060475 0.081474
0.511472 0.086462 0.047150
0.533085 0.092871 0.074124
0.598782 -0.010455 0.055073
0.605017 -0.004801 0.043477
0.543391 0.031098 0.081399
0.543742 -0.039019 0.049269
0.581602 -0.040284 0.052004
0.542509 -0.003562 0.072031
0.537007 0.065257 0.081245
0.546071 0.056485 0.084032
0.530134 0.104784 0.062706
0.513875 0.076347 0.041014
0.545841 0.101079 0.052363
0.587429 0.007215 0.071577
0.520395 0.057456 0.068568
0.518697 0.089823 0.067213
0.554515 -0.033731 -0.009549
0.523027 0.010114 0.009428
0.585659 -0.048034 -0.000664
0.567966 -0.009627 -0.009042
0.597763 0.039759 0.047818
0.550797 -0.053279 0.035372
0.576629 -0.019780 -0.009743
0.517224 0.021908 0.053374
0.596995 0.000756 0.011310
0.535039 0.028141 0.076505
0.580388 0.065240 0.047347
0.526489 -0.030088 0.011555
0.534680 0.069643 0.027862
0.603230 0.010223 0.050501
0.533777 -0.019569 0.057334
0.566545 0.043610 0.083581
0.565463 -0.029670 0.064809
0.558417 -0.053426 0.040465
0.570107 -0.052096 0.044288
0.569669 0.010897 0.079761
0.543856 0.015288 0.078460
0.580000 -0.059529 0.030117
0.554718 0.022711 0.082847
0.549215 0.039801 0.012442
0.521086 0.048230 0.025931
0.605279 -0.008486 0.026734
0.587639 -0.002309 0.000568
0.587113 0.045519 0.032850
0.514288 0.001847 0.030127
0.549371 0.044947 0.015212
0.592571 -0.032115 -0.001125
0.525959 0.033328 0.015440
0.557836 0.081291 0.041267
0.513363 0.016612 0.028391
0.535238 -0.032336 0.048407
0.575894 0.074272 0.064027
0.552993 -0.054018 0.036114
0.597066 -0.045032 0.027659
0.586088 0.060999 0.063137
0.585130 -0.041686 -0.003935
0.598626 0.038388 0.049220
0.597278 -0.017391 0.053486
0.548135 -0.042680 -0.004414
0.513839 0.038655 0.048621
0.564281 -0.063041 0.025472
0.595918 -0.019662 0.053916
0.553007 -0.037210 0.056400
0.580238 0.018534 0.007144
0.587318 0.020663 0.073238
0.568693 -0.050791 -0.005270
0.600863 -0.027214 0.009443
0.586588 0.047432 0.034042
0.544376 -0.045231 0.041891
0.588444 0.056304 0.049892
0.526907 0.071984 0.076080
0.519072 0.043264 0.026052
0.599533 0.029338 0.059730
0.514786 -0.000899 0.028910
0.595366 0.044636 0.060679
0.530674 -0.014844 0.056928
0.596848 0.002838 0.012260
0.519389 0.047985 0.027703
0.598270 0.006629 0.060921
0.552497 0.063153 0.026147
0.590731 0.038427 0.031194
0.566454 0.034399 0.083618
0.606086 -0.001067 0.034719
0.532185 0.071959 0.028932
0.522434 0.105023 0.048528
0.518044 0.010463 0.050972
0.517005 0.064672 0.035285
0.591339 -0.034546 0.048549
0.551987 -0.023967 0.066440
0.595050 -0.049501 0.015681
0.569451 -0.062309 0.006712
0.532785 0.085879 0.076762
0.565122 0.000796 0.078281
0.594671 -0.020462 0.000768
0.535635 0.069302 0.080568
0.596278 0.024372 0.065430
0.568363 -0.058249 0.000538
0.554870 0.059900 0.024786
0.512516 0.071168 0.056033
0.581893 -0.058296 0.030734
0.513114 0.059190 0.053656
0.597952 0.039955 0.049409
0.604654 0.010468 0.033640
0.581697 -0.032899 0.057784
0.601056 0.023572 0.056902
0.573758 -0.023579 0.066951
0.517611 0.071004 0.067048
0.561289 -0.003442 -0.007548
0.598888 0.034074 0.059486
0.512038 0.068782 0.051285
0.584918 0.048007 0.032415
0.558548 -0.060137 0.028571
0.555722 -0.045925 0.048562
0.539582 -0.027498 -0.004670
0.555719 -0.017221 -0.010292
0.532513 0.046780 0.018578
0.599956 0.005169 0.057999
0.569851 -0.062531 0.007192
0.535000 0.031942 0.077247
0.572371 -0.012137 -0.009128
0.544717 -0.050732 0.005073
0.582481 0.003619 0.000257
0.595773 0.035895 0.037051
0.516919 0.052980 0.062255
0.542843 -0.051465 0.026393
0.522245 0.036508 0.019614
0.514821 0.000095 0.026369
0.517900 0.053330 0.064064
0.554545 -0.012946 0.072723
0.548429 0.037038 0.011027
0.595635 0.030037 0.066096
0.599628 -0.034417 0.009195
0.554527 -0.002878 0.076744
0.569168 0.004171 0.078498
0.562332 -0.052086 -0.003814
0.548550 -0.055951 0.025619
0.561891 0.084387 0.074926
0.578173 -0.035558 -0.008780
0.554669 0.091216 0.048507
0.516749 0.039433 0.027941
0.519812 -0.017436 0.017871
0.583793 0.064633 0.061208
0.597820 0.020747 0.063224
0.588859 0.034370 0.025139
0.579927 0.018706 0.007089
0.580801 0.060003 0.072955
0.551683 0.042112 0.084803
0.567533 0.035847 0.012967
0.542974 -0.032060 0.055554
0.559954 0.027838 0.083925
0.589708 -0.054782 0.011219
0.585074 0.050909 0.035518
0.587514 0.046093 0.033973
0.566994 0.047713 0.083118
0.593506 -0.045364 0.035280
0.539709 0.049950 0.018534
0.565255 0.079501 0.045738
0.553000 0.020264 0.002366
0.597377 0.021314 0.025708
0.515054 0.005829 0.022121
0.546138 -0.054827 0.023601
0.576478 0.068754 0.045952
0.525123 -0.025761 0.010021
0.560847 -0.035063 0.060896
0.555464 0.028397 0.006499
0.587381 0.041179 0.073075
0.580965 0.029655 0.077617
0.515447 0.036833 0.054063
0.603718 -0.002961 0.048434
0.559151 0.073996 0.080667
0.539006 0.020710 0.077368
0.572353 -0.024629 -0.010909
0.605768 0.002850 0.033227
0.513197 0.096554 0.048807
0.524138 -0.007907 0.006104
0.595561 -0.033995 0.043661
0.598712 -0.024205 0.046487
0.532821 -0.022684 0.054191
0.577593 0.034096 0.015537
0.579837 0.068399 0.053342
0.550925 0.012450 0.080180
0.523898 0.052627 0.071725
0.545277 0.016619 0.079329
0.601881 -0.018914 0.043837
0.543211 -0.046000 0.039234
0.598626 0.034243 0.060073
0.555279 -0.000533 0.077661
0.525785 0.018115 0.009551
0.559410 0.056047 0.023697
0.583168 0.057965 0.040969
0.591803 -0.009678 0.000944
0.551043 0.096223 0.070836
0.535287 -0.010868 -0.002893
0.600641 0.029438 0.056551
0.561642 0.087031 0.072534
0.547069 -0.056008 0.020599
0.512901 0.095406 0.055490
0.573946 0.037934 0.081084
0.536026 0.077068 0.030912
0.560232 -0.039522 0.056796
0.513688 0.056784 0.041286
0.591319 0.052698 0.051512
0.559114 -0.053521 0.040631
0.531157 -0.037441 0.031336
0.515653 0.020887 0.021980
0.513736 0.018395 0.042586
0.574077 0.046589 0.080379
0.600759 0.017428 0.057685
0.544492 -0.003136 -0.005392
0.543110 -0.043639 0.042896
0.594861 -0.000749 0.007910
0.560223 0.090545 0.059153
0.559849 -0.035558 0.060292
0.541974 -0.016298 -0.006613
0.590864 0.053713 0.052558
0.569174 0.030073 0.082639
0.525107 0.064101 0.028330
0.567300 -0.060408 0.032230
0.581693 0.062300 0.044784
0.521785 0.067595 0.071689
0.593538 0.043392 0.065896
0.602050 0.024395 0.053127
0.571766 -0.023885 -0.010953
0.538476 0.025135 0.006749
0.588348 -0.031744 -0.004555
0.533415 -0.042663 0.014793
0.603359 -0.021755 0.016811
0.573494 0.068312 0.041079
0.515576 0.040850 0.055715
0.513851 0.082562 0.041277
0.602836 0.013659 0.051534
0.575783 -0.063813 0.022476
0.534824 0.097018 0.039451
0.543451 0.005740 0.075771
0.522675 0.049361 0.024932
0.537148 -0.042480 0.035575
0.593766 -0.030970 -0.000163
0.540956 0.022136 0.004828
0.603463 -0.012071 0.018176
0.583538 0.065023 0.059033
0.559478 0.063228 0.083104
0.573759 0.057701 0.031067
0.532871 0.076275 0.030516
0.532470 -0.038761 0.008988
0.564162 0.051580 0.083592
0.525203 0.062161 0.074360
0.569603 -0.050907 -0.005157
0.598799 -0.039957 0.011211
0.577505 0.072054 0.065110
0.600426 0.031786 0.055777
0.591112 -0.016702 0.060819
0.540516 0.102163 0.047577
0.525711 -0.031749 0.022131
0.594632 0.005662 0.065268
0.528843 0.088869 0.035073
0.599780 0.034791 0.046917
0.538070 -0.047930 0.012619
0.561775 0.041324 0.084719
0.524684 -0.029394 0.026703
0.560216 0.052469 0.084447
0.532081 0.004073 0.001515
0.540241 0.083633 0.079051
0.599534 0.028334 0.059958
0.594836 -0.015874 0.001919
0.539300 0.091516 0.038452
0.524791 0.104458 0.059894
0.536415 0.101362 0.069185
0.605670 -0.007328 0.029638
0.529374 -0.025998 0.003667
0.547260 -0.048294 0.000029
0.593282 -0.052299 0.019499
0.553592 -0.031743 0.061630
0.524007 -0.013499 0.048272
0.527469 -0.034553 0.020093
0.557845 0.045556 0.016437
0.525786 -0.027703 0.036012
0.547139 -0.015036 -0.008315
0.518642 -0.011749 0.017318
0.557874 0.013949 0.081446
0.541112 0.003870 0.073959
0.536242 0.017287 0.074801
0.568872 -0.063021 0.027125
0.580132 0.018195 0.006895
0.521081 -0.010659 0.044780
0.584496 0.026364 0.014884
0.513463 0.081035 0.041841
0.597112 -0.003307 0.009397
0.517399 0.038991 0.059165
0.570374 0.078326 0.052292
0.522357 -0.013775 0.009147
0.523265 -0.014694 0.045966
0.574971 0.040394 0.018568
0.525246 -0.017968 0.005863
0.564770 -0.063170 0.025377
0.564166 -0.056913 -0.000140
0.562000 0.089302 0.064117
0.556093 -0.021444 0.068834
0.560158 -0.061441 0.026685
0.596086 0.022567 0.065610
0.590345 -0.026670 0.055526
0.517218 0.077944 0.036713
0.603275 -0.021712 0.016424
0.521727 0.100360 0.041581
0.512769 0.059546 0.051526
0.569437 0.080958 0.068129
0.518262 -0.009162 0.038940
0.600709 -0.029743 0.037053
0.518765 0.103460 0.052922
0.531069 -0.009523 0.060316
0.599457 0.023778 0.060569
0.550839 -0.031527 -0.008966
0.519401 0.076725 0.034666
0.592367 -0.003393 0.004031
0.595856 0.039475 0.041377
0.538107 0.100997 0.069613
0.565584 0.085462 0.066935
0.600104 -0.014728 0.050615
0.588620 0.015712 0.011356
0.584356 0.009481 0.073852
0.570261 -0.051569 -0.004724
0.516742 0.078194 0.066245
0.567541 0.059349 0.081094
0.567648 0.063254 0.032192
0.532073 -0.037826 0.008599
0.540219 -0.014056 -0.005691
0.585814 -0.002046 -0.000547
0.515793 0.032649 0.053553
0.528226 -0.035627 0.022784
0.520074 -0.016056 0.036424
0.589951 -0.049924 0.034618
0.573984 -0.002886 -0.005524
0.605510 0.007303 0.038186
0.582558 0.026462 0.013475
0.529792 0.040013 0.074933
0.603503 0.012065 0.049223
0.536268 0.073953 0.080338
0.545145 0.092097 0.075537
0.540911 0.042690 0.081933
0.522388 -0.018352 0.040410
0.530929 -0.018078 0.000138
0.542179 -0.017032 -0.006734
0.571224 0.034466 0.082169
0.514802 0.036890 0.031580
0.591191 0.042622 0.036022
0.604126 0.016093 0.041845
0.571547 0.008635 -0.000887
0.581219 -0.052431 0.039559
0.534461 0.013068 0.003154
0.524918 0.096754 0.069120
0.529523 0.012331 0.005301
0.513899 0.096808 0.056816
0.567764 0.019418 0.003628
0.536417 -0.039416 0.040161
0.520482 0.010151 0.055018
0.585303 0.040358 0.074689
0.533070 0.101477 0.042043
0.582292 -0.037272 0.054056
0.523539 0.104623 0.058409
0.594451 -0.018176 0.056577
0.531402 0.105784 0.060968
0.595818 -0.007777 0.005769
0.582670 -0.024834 0.062495
0.536083 -0.019623 0.059492
0.523992 -0.009659 0.006317
0.554312 0.012364 0.080799
0.601481 -0.033599 0.029241
0.553212 0.089179 0.044936
0.513344 0.022930 0.041611
0.594236 -0.050809 0.016407
0.547499 -0.055293 0.025435
0.546977 0.050556 0.084255
0.538749 0.093219 0.074778
0.529946 -0.032056 0.039503
0.517644 0.068626 0.066805
0.603814 -0.021889 0.032674
0.547171 -0.053853 0.007441
0.598368 0.015344 0.061946
0.515101 0.017651 0.047037
0.523880 0.013879 0.009687
0.577844 -0.053348 0.040328
0.591602 0.045989 0.040677
0.561636 -0.063512 0.016974
0.548490 0.093810 0.074172
0.599465 0.034710 0.045157
0.518120 0.066237 0.067103
0.581198 0.067962 0.061509
0.521477 -0.008111 0.047420
0.562947 0.035569 0.084360
0.526874 0.032219 0.014400
0.533068 0.047177 0.018592
0.601994 0.019941 0.054248
0.525222 -0.030487 0.017571
0.597362 0.025070 0.064000
0.579599 0.060412 0.038891
0.535769 0.030416 0.077445
0.517234 -0.002493 0.017468
0.520692 -0.021399 0.027287
0.555876 -0.060794 0.022573
0.519891 0.089176 0.037210
0.513292 0.065539 0.056992
0.533179 0.009148 0.002403
0.513012 0.092786 0.058163
0.516400 -0.007033 0.033452
0.542059 0.099346 0.070927
0.535917 0.047487 0.018003
0.588675 0.019003 0.072157
0.557876 0.015807 0.000237
0.590897 -0.021160 -0.002730
0.528051 -0.018861 0.002842
0.600775 0.004769 0.056458
0.569696 0.081428 0.063906
0.560077 0.078986 0.040739
0.530217 -0.017706 0.054563
0.583834 0.036048 0.075938
0.542119 0.076822 0.081157
0.527299 -0.034282 0.021771
0.513224 0.029783 0.036885
0.529655 -0.006782 0.001155
0.535810 0.105637 0.061667
0.571490 0.060091 0.079087
0.572257 0.021225 0.005846
0.539255 0.095035 0.040349
0.559352 0.068288 0.082107
0.529899 -0.038079 0.022459
0.588782 -0.000312 0.069067
0.530304 -0.017903 0.054541
0.515619 0.038575 0.055087
0.536945 0.037597 0.012963
0.515238 0.026536 0.050112
0.600658 -0.038945 0.020307
0.527214 -0.030540 0.010371
0.564209 0.072789 0.079077
0.521179 0.004638 0.010360
0.575693 0.071884 0.070164
0.522496 -0.025845 0.023185
0.557312 0.026228 0.005480
0.514455 0.019130 0.024486
0.590488 -0.034724 -0.002400
0.592548 -0.012451 0.000689
0.569210 -0.017570 0.070959
0.553632 -0.001493 -0.006607
0.591997 0.045017 0.040231
0.540225 -0.047845 0.030025
0.593925 -0.000863 0.064510
0.599227 -0.028984 0.041442
0.535260 -0.031507 0.049327
0.521464 0.057895 0.029033
0.599162 -0.035652 0.034942
0.595969 0.017548 0.065391
0.517418 -0.000509 0.044000
0.529915 0.056617 0.077391
0.532079 -0.007961 0.062142
0.551822 0.004207 0.078367
0.558860 -0.054542 -0.000527
0.555209 0.001248 0.078195
0.551060 -0.002084 -0.006466
0.572504 -0.002826 -0.005865
0.570157 -0.036248 -0.010179
0.557599 0.027635 0.006252
0.604576 0.008781 0.045373
0.542332 -0.048446 0.033064
0.527369 0.008288 0.063773
0.541266 -0.012039 -0.005955
0.585998 -0.045493 -0.001766
0.550465 0.089778 0.043394
0.605225 0.007478 0.033743
0.535941 -0.027028 0.054094
0.513145 0.014614 0.030016
0.544164 0.102880 0.060716
0.531431 0.029898 0.011154
0.560573 0.075607 0.079705
0.528231 0.018376 0.067991
0.596551 0.022491 0.025441
0.542203 0.026081 0.080049
0.572274 -0.036796 0.059099
0.603435 -0.008067 0.047142
0.546821 -0.011945 0.070577
0.598417 0.032661 0.061245
0.579827 -0.009708 0.071234
0.604845 -0.007212 0.024559
0.518029 0.019186 0.054068
0.603277 0.020231 0.040428
0.562055 0.083597 0.075379
0.576169 -0.064072 0.020056
0.526209 0.079808 0.075077
0.595978 -0.027548 0.001854
0.537081 -0.042859 0.034611
0.524688 -0.026744 0.034311
0.580106 0.061855 0.041401
0.516190 0.012863 0.048119
0.519807 -0.007214 0.044711
0.523564 0.090113 0.071121
0.513011 0.015705 0.036774
0.570180 -0.037787 -0.009851
0.545007 0.049885 0.083782
0.540552 0.103354 0.065882
0.564524 -0.046907 -0.007074
0.533881 -0.025277 -0.001029
0.545639 0.067507 0.083181
0.540750 -0.038506 -0.001846
0.517594 0.012200 0.050807
0.544560 0.086733 0.078147
0.602926 0.006584 0.051649
0.572906 0.049945 0.080451
0.584945 -0.020046 0.063815
0.555145 0.025494 0.004981
0.597764 -0.008304 0.007999
0.534715 0.103524 0.066449
0.536944 -0.004465 -0.002872
0.579086 -0.038184 -0.007850
0.568763 0.044382 0.082802
0.572241 0.039651 0.016905
0.563427 0.041178 0.015082
0.529312 0.058168 0.077113
0.533409 -0.042947 0.020436
0.513458 0.038126 0.040145
0.520623 -0.017319 0.036499
0.595466 -0.048879 0.023888
0.568592 0.052481 0.024514
0.571948 -0.001570 -0.005473
0.582907 0.053536 0.035453
0.583330 0.043692 0.075638
0.513928 0.004894 0.028937
0.513369 0.010495 0.029523
0.562496 0.076374 0.078666
0.567452 0.034900 0.012371
0.514851 0.063323 0.060671
0.528902 0.053744 0.076360
0.514567 0.089060 0.041373
0.574902 0.073048 0.070084
0.588459 0.028653 0.020205
0.597197 0.037551 0.042168
0.582108 -0.052887 0.038422
0.576080 -0.057994 0.034777
0.597971 -0.007783 0.008501
0.522819 0.104669 0.046948
0.580289 0.041241 0.077759
0.604224 0.012156 0.045701
0.522869 0.026790 0.064066
0.590350 -0.039230 -0.001145
0.552027 0.095477 0.051173
0.544722 -0.045830 -0.000220
0.543343 0.001064 0.074207
0.531302 -0.039495 0.014200
0.536596 -0.019478 -0.003787
0.560457 0.055953 0.023990
0.559808 -0.060211 0.029461
0.564015 -0.064188 0.018918
0.561006 0.065204 0.030623
0.594994 0.018903 0.066591
0.546672 -0.043574 0.046202
0.566889 -0.038983 -0.009781
0.599054 -0.042932 0.018428
0.597984 0.012485 0.062185
0.596786 0.024205 0.027314
0.604218 0.013695 0.035479
0.578152 -0.017283 0.068713
0.603029 -0.028531 0.027373
0.566954 -0.060320 0.032338
0.600711 0.022905 0.033567
0.577897 -0.007463 0.072825
0.572161 0.024036 0.081123
0.584240 -0.045761 -0.002756
0.587367 0.044268 0.031990
0.566544 0.021786 0.004606
0.583225 0.000179 -0.001008
0.541942 0.086765 0.078046
0.604165 0.007880 0.047486
0.579717 -0.024886 0.064019
0.603290 -0.023916 0.017103
0.541753 0.007470 0.075432
0.528648 -0.035441 0.027106
0.600215 0.021044 0.030529
0.553467 0.032990 0.008845
0.570858 0.067215 0.037507
0.543233 0.088264 0.038367
0.554287 0.051517 0.019431
0.532243 -0.027785 0.001228
0.530053 -0.038006 0.024297
0.572185 -0.041380 0.055319
0.551294 -0.058761 0.018595
0.533765 0.064856 0.026080
0.516074 0.006023 0.019048
0.563255 -0.023498 -0.011311
0.576808 -0.034300 0.059321
0.586931 -0.026652 0.058487
0.523248 0.102263 0.062614
0.542487 -0.045394 0.001320
0.515073 0.009613 0.021618
0.569401 -0.043565 0.053809
0.533634 -0.023620 0.054394
