ply
format ascii 1.0
element vertex 1024
property float x
property float y
property float z
end_header
0.565145 0.038225 0.084171
0.593891 -0.034463 0.050609
0.594757 -0.039343 0.049118
0.548139 0.095291 0.032022
0.545068 -0.036158 0.006908
0.594377 0.018483 0.045526
0.558371 0.090298 0.032459
0.505881 0.021910 0.039846
0.598821 -0.033573 0.024369
0.584872 0.012959 0.023024
0.511849 0.052544 0.020361
0.514818 0.089453 0.049288
0.531648 -0.033351 0.019025
0.529202 -0.005905 0.003065
0.519710 0.042045 0.009332
0.574911 0.014335 0.013344
0.595915 -0.002207 0.042113
0.541359 0.090779 0.024570
0.565999 0.074232 0.077871
0.541726 0.055009 0.007062
0.524047 -0.008042 0.006618
0.586088 -0.059932 0.013272
0.549511 0.100999 0.058397
0.570057 -0.044718 0.054605
0.604489 -0.050833 0.034857
0.564137 0.009434 0.078114
0.550783 0.074632 0.082062
0.525894 0.046317 0.080052
0.537041 -0.000571 0.071768
0.542314 0.069537 0.083192
0.577756 0.004664 0.013955
0.544054 0.040576 0.004168
0.543534 -0.044067 0.012763
0.552657 -0.053909 0.036324
0.513962 0.035238 0.068768
0.522668 -0.009215 0.054401
0.571657 0.003279 0.009431
0.539621 0.066145 0.010295
0.533965 0.063082 0.082680
0.552157 -0.041988 0.007258
0.519915 0.085841 0.028920
0.505524 0.051885 0.051935
0.532212 0.023441 0.079384
0.523166 0.079376 0.021276
0.543486 0.092804 0.027059
0.531769 0.057113 0.008441
0.538126 -0.032160 0.008184
0.527306 0.014137 0.073620
0.561807 0.090991 0.038240
0.603251 -0.047189 0.038440
0.604102 -0.045085 0.035763
0.514581 0.058472 0.019480
0.511562 0.013763 0.054846
0.572862 -0.001802 0.072280
0.521422 0.069954 0.017961
0.526605 -0.001994 0.064610
0.522032 0.079644 0.072153
0.573468 0.079056 0.066952
0.530440 0.040849 0.082106
0.582172 0.040250 0.075123
0.505929 0.025380 0.046702
0.519125 -0.014571 0.022756
0.537398 -0.027166 0.006039
0.574259 0.077892 0.040240
0.506660 0.064094 0.041256
0.552295 0.090678 0.027953
0.550558 0.100259 0.044154
0.531234 0.093055 0.028224
0.523156 0.088815 0.028533
0.504682 0.044354 0.035828
0.566282 -0.064496 0.020716
0.504617 0.041034 0.035079
0.519652 0.020121 0.007074
0.571867 0.027839 0.013698
0.562423 -0.046270 0.007296
0.550459 0.085730 0.077458
0.594830 -0.000926 0.051772
0.558812 -0.038181 0.056906
0.534675 0.099345 0.036228
0.509663 0.032686 0.019484
0.546774 -0.037617 0.052058
0.556977 0.046334 0.008314
0.553738 -0.035561 0.057153
0.546077 -0.033166 0.005431
0.595471 -0.042307 0.016536
0.553116 0.008979 0.001369
0.578565 -0.029762 0.009389
0.562465 0.087977 0.034139
0.526288 0.002370 0.003180
0.537966 -0.033381 0.048992
0.540873 -0.039452 0.011178
0.540820 0.063855 0.009571
0.522098 0.043960 0.077841
0.524752 0.025576 0.004351
0.552617 0.092998 0.070650
0.536865 -0.041117 0.030892
0.532157 0.071131 0.080452
0.518561 0.036659 0.009345
0.553545 0.084942 0.022870
0.563914 -0.016171 0.003506
0.537070 0.102281 0.060573
0.537514 0.021854 0.080754
0.578814 0.073102 0.063179
0.579940 0.040841 0.077047
0.593550 0.028683 0.050387
0.536693 0.065929 0.082984
0.504523 0.037319 0.035307
0.514087 0.017831 0.012952
0.579868 -0.021185 0.063058
0.545637 0.039335 0.086034
0.533080 0.050282 0.083432
0.510952 0.064878 0.027984
0.568153 0.073953 0.026669
0.516488 0.075214 0.068298
0.586131 0.029039 0.029793
0.562151 0.013835 0.004912
0.534699 0.083963 0.019096
0.590428 0.044699 0.050529
0.582781 0.062427 0.067129
0.543993 0.033483 0.084940
0.523537 0.035133 0.077841
0.578038 0.054897 0.076909
0.554190 -0.007842 0.071936
0.526499 0.022383 0.076170
0.515851 0.018340 0.065304
0.582366 -0.017899 0.062864
0.577310 0.027551 0.018250
0.535093 -0.023724 0.005645
0.541954 0.048908 0.086091
0.583108 -0.010468 0.064578
0.557438 0.097910 0.052263
0.591181 0.032676 0.063179
0.555472 -0.014329 0.069180
0.550341 0.004745 0.000628
0.523035 0.045997 0.078429
0.531746 0.071148 0.013063
0.557041 0.077740 0.019704
0.563340 -0.018587 0.067418
0.521302 0.057151 0.076696
0.556258 -0.004348 0.001314
0.552233 0.092834 0.030753
0.541626 0.097226 0.068605
0.513914 0.028765 0.013476
0.585782 -0.003258 0.019938
0.566569 0.084988 0.035894
0.588472 -0.027525 0.015948
0.564672 -0.063841 0.023837
0.538755 -0.028188 0.005887
0.596736 -0.059414 0.017698
0.545303 0.039692 0.004158
0.533777 0.098539 0.066446
0.517715 0.088837 0.061543
0.533343 0.101155 0.061963
0.576059 0.079642 0.056599
0.547263 0.086446 0.077332
0.509535 0.009084 0.040272
0.567641 0.023187 0.009589
0.587822 -0.067250 0.023059
0.535089 0.009334 0.075538
0.580763 -0.040143 0.055820
0.586112 0.032976 0.071395
0.540234 0.033634 0.084282
0.528125 0.076915 0.077070
0.581685 0.069884 0.057140
0.553738 -0.056276 0.031880
0.558836 0.010969 0.003166
0.531350 0.025269 0.079568
0.516645 0.076806 0.026155
0.540520 -0.045372 0.029879
0.570216 0.061593 0.080316
0.581688 0.061373 0.070119
0.506266 0.061293 0.049585
0.596258 -0.026122 0.024721
0.549387 0.076240 0.015716
0.534521 0.075627 0.080067
0.567086 0.035282 0.083417
0.541349 -0.025158 0.058920
0.545164 0.081522 0.079756
0.561213 -0.009480 0.071262
0.515803 0.087527 0.058878
0.559271 -0.029585 0.003405
0.557390 0.049723 0.085818
0.533103 0.071993 0.080582
0.517355 0.050001 0.013266
0.576395 -0.025173 0.008778
0.576137 0.001755 0.072367
0.577999 -0.051630 0.008787
0.530915 0.075835 0.015278
0.579342 0.016086 0.075215
0.600327 -0.043522 0.020734
0.515522 0.071098 0.068852
0.543844 0.001063 0.000143
0.532597 0.037356 0.003565
0.563462 -0.003739 0.073370
0.582505 0.068465 0.052976
0.570627 0.075367 0.073885
0.573340 0.032779 0.080925
0.529278 -0.029116 0.016504
0.570967 0.038895 0.015617
0.563521 0.008855 0.005056
0.559888 0.054524 0.011921
0.553387 0.086415 0.024083
0.506128 0.042511 0.055362
0.560407 0.075167 0.020371
0.509996 0.021080 0.056905
0.548483 0.100324 0.061193
0.538725 -0.039735 0.041254
0.505978 0.022536 0.033514
0.520277 -0.017149 0.033767
0.523851 0.051433 0.078730
0.520065 0.027043 0.073042
0.589375 0.049455 0.053229
0.566910 -0.064775 0.020808
0.571005 0.070346 0.027572
0.534628 0.090147 0.074002
0.514786 0.084682 0.035694
0.535500 -0.039397 0.031732
0.519124 0.001567 0.058603
0.597146 -0.016667 0.044236
0.588399 0.020978 0.030838
0.570954 0.074498 0.030622
0.605060 -0.049479 0.030377
0.560955 0.087387 0.031365
0.557165 0.027551 0.083916
0.572236 -0.064036 0.036065
0.587340 -0.067404 0.023283
0.553962 0.064087 0.012100
0.589897 0.044618 0.061053
0.568843 0.002997 0.007562
0.505264 0.049041 0.051454
0.592779 -0.012894 0.054403
0.513600 0.040339 0.069522
0.535735 -0.016863 0.061395
0.577197 0.071186 0.037953
0.514903 0.003726 0.052655
0.516543 -0.006826 0.018161
0.511746 0.068830 0.028764
0.565914 0.042231 0.012620
0.527998 0.019185 0.002623
0.599907 -0.028828 0.040752
0.535342 0.016746 0.001195
0.567993 0.005848 0.007343
0.521557 0.033991 0.006952
0.519158 0.007885 0.063475
0.520784 0.050153 0.010767
0.575656 -0.053395 0.049275
0.546283 0.101547 0.059920
0.567770 -0.006511 0.071750
0.576623 0.061617 0.029569
0.583432 0.051388 0.034658
0.581276 -0.064154 0.015779
0.585254 -0.001834 0.019702
0.597179 -0.013197 0.040244
0.590766 0.038453 0.044657
0.554421 0.098934 0.057734
0.511004 0.007802 0.046042
0.508733 0.070561 0.054515
0.510035 0.053983 0.065178
0.509493 0.075981 0.051075
0.579060 0.074179 0.059623
0.587004 -0.056272 0.046323
0.593234 0.023489 0.059266
0.518044 0.037260 0.073847
0.551402 -0.020968 0.001807
0.519353 0.000708 0.058214
0.560951 0.061862 0.083540
0.526762 0.010369 0.071659
0.506181 0.021858 0.043554
0.509080 0.009602 0.035389
0.573732 -0.061297 0.013466
0.593762 0.020815 0.043898
0.558091 -0.060205 0.025904
0.508873 0.018935 0.022910
0.540479 0.102084 0.041965
0.551166 -0.005939 0.072551
0.521144 0.037605 0.076582
0.591725 -0.031211 0.053039
0.536884 0.018288 0.079453
0.593264 0.020109 0.041558
0.514314 -0.000147 0.017959
0.529604 -0.030571 0.019023
0.567294 -0.059254 0.012856
0.545977 0.071388 0.082970
0.575371 0.072140 0.035423
0.579261 0.046381 0.077182
0.539184 -0.026598 0.005069
0.575455 0.078326 0.044364
0.551107 -0.028152 0.061171
0.586124 0.051699 0.067317
0.564915 0.092306 0.055286
0.594930 -0.056467 0.043529
0.519505 0.094510 0.056802
0.517959 0.073348 0.022761
0.565935 -0.052834 0.009446
0.545117 -0.001610 0.000150
0.557471 0.070464 0.016186
0.545720 0.067059 0.011066
0.508435 0.012271 0.039883
0.583930 -0.012338 0.015776
0.506957 0.062144 0.053453
0.538243 0.028327 0.082695
0.522896 -0.018125 0.014717
0.590028 0.044568 0.060516
0.509154 0.066268 0.059181
0.556505 0.094174 0.066624
0.583611 0.055769 0.070088
0.591677 0.025220 0.039313
0.594791 0.009215 0.041893
0.510502 0.047702 0.066139
0.529251 -0.000881 0.002339
0.584899 -0.024782 0.013868
0.566445 -0.000114 0.005786
0.508637 0.043897 0.022643
0.522429 -0.010054 0.053248
0.593453 0.021716 0.043147
0.560942 -0.039845 0.056323
0.539613 0.078861 0.080185
0.512504 0.084594 0.051349
0.590835 -0.020607 0.055702
0.525626 -0.020965 0.046452
0.561684 -0.039037 0.056986
0.544719 0.099299 0.065091
0.527176 0.101104 0.047260
0.527145 0.068022 0.013634
0.547837 0.060125 0.085351
0.531271 -0.024592 0.051012
0.588196 0.041266 0.039028
0.589928 -0.021953 0.018879
0.555581 0.093721 0.068066
0.579623 -0.045911 0.008486
0.559103 0.096805 0.052196
0.507499 0.015072 0.038120
0.539813 0.005901 0.000348
0.543299 -0.035635 0.007354
0.546983 -0.035486 0.054077
0.582459 0.033248 0.025726
0.507777 0.025641 0.054151
0.532863 0.099922 0.064095
0.565434 0.028592 0.082924
0.508209 0.022539 0.023663
0.509564 0.058093 0.026904
0.510998 0.027913 0.017480
0.531606 0.057308 0.082413
0.512383 0.062911 0.067324
0.564708 0.079762 0.027437
0.568635 -0.065602 0.023596
0.581479 0.038357 0.075866
0.588618 -0.065071 0.018606
0.522263 -0.019932 0.037266
0.593237 -0.009048 0.054201
0.558327 -0.026399 0.063624
0.506005 0.028741 0.028902
0.590493 0.042714 0.060127
0.506556 0.019576 0.033244
0.510668 0.073086 0.058974
0.592861 0.017278 0.060551
0.532252 0.100257 0.063205
0.524697 0.048330 0.008130
0.592615 0.029324 0.059874
0.542565 0.102800 0.058612
0.539340 0.051409 0.006124
0.505678 0.058594 0.042215
0.520400 0.022403 0.071797
0.592736 -0.064702 0.036409
0.550739 -0.029875 0.003636
0.516773 0.065755 0.071849
0.581748 0.005748 0.070719
0.600381 -0.035129 0.042056
0.521650 -0.007365 0.054534
0.583377 -0.032613 0.011540
0.507199 0.063142 0.053907
0.567345 -0.034816 0.059839
0.540707 0.023666 0.001628
0.564275 0.028413 0.083132
0.569268 0.029500 0.082072
0.561933 0.092590 0.063459
0.566903 -0.037496 0.005374
0.595925 -0.020605 0.048511
0.561746 0.009045 0.004193
0.534940 0.065243 0.010356
0.546364 0.036241 0.003715
0.548958 0.076260 0.015606
0.595374 -0.004003 0.049377
0.536809 -0.039599 0.017762
0.569154 -0.040142 0.006026
0.542894 0.074622 0.081926
0.595335 -0.060978 0.017872
0.522137 0.057316 0.012419
0.519746 0.011030 0.066089
0.597604 -0.057773 0.041082
0.544813 -0.044906 0.041806
0.598788 -0.034551 0.044787
0.588818 0.015765 0.067043
0.573764 0.075036 0.035567
0.511918 0.046826 0.068271
0.549052 0.051094 0.086466
0.584885 0.011488 0.070091
0.526091 0.075975 0.017545
0.556660 0.057983 0.011269
0.523261 0.011517 0.004237
0.535819 0.065228 0.010225
0.504999 0.038504 0.032264
0.554963 0.057140 0.010319
0.527308 0.048740 0.007245
0.548848 0.100595 0.060231
0.549944 0.091329 0.027482
0.583138 -0.040100 0.010242
0.529902 -0.016644 0.056844
0.595014 -0.040221 0.017004
0.544177 0.018806 0.081252
0.558073 -0.032041 0.060509
0.580416 -0.040744 0.009041
0.522449 0.097095 0.057986
0.590247 -0.005776 0.059233
0.557510 0.031786 0.005598
0.593485 -0.004363 0.054526
0.520921 0.055282 0.076615
0.533803 -0.003604 0.068602
0.577564 -0.063540 0.039387
0.601278 -0.040814 0.041504
0.557413 0.017799 0.003462
0.595558 -0.050532 0.045903
0.585375 0.003866 0.021290
0.580339 0.055291 0.031510
0.517075 0.020055 0.009455
0.536723 0.070167 0.082092
0.524427 -0.022200 0.041037
0.567195 0.006608 0.006931
0.578527 0.072499 0.042898
0.558431 -0.001782 0.074470
0.557995 0.051545 0.010077
0.515303 0.039975 0.012645
0.552266 -0.043439 0.050077
0.601506 -0.048184 0.041159
0.571645 -0.064953 0.033230
0.505390 0.039730 0.030597
0.511284 0.043590 0.018120
0.537953 -0.019464 0.060988
0.534386 0.054127 0.083803
0.507795 0.061150 0.057610
0.532448 0.012786 0.075803
0.554399 -0.047082 0.047782
0.543550 -0.040133 0.046843
0.585554 -0.067906 0.024352
0.600501 -0.036188 0.042075
0.581168 -0.055640 0.010291
0.507810 0.013847 0.036739
0.570855 -0.036808 0.058790
0.584468 -0.061367 0.042545
0.569270 0.087558 0.048179
0.592311 0.035860 0.056577
0.538142 0.099605 0.036375
0.568942 0.071345 0.025836
0.528967 0.005052 0.002020
0.534175 0.074934 0.080161
0.560221 0.081377 0.024439
0.570451 -0.000837 0.073298
0.540241 0.056985 0.007539
0.545569 -0.015934 0.066644
0.549566 -0.017897 0.001350
0.574235 0.066372 0.075940
0.593675 -0.018879 0.024623
0.513052 0.027389 0.014557
0.542279 0.032219 0.084417
0.526109 -0.025748 0.038236
0.513265 0.041974 0.069418
0.525781 0.073537 0.076755
0.516167 0.072585 0.069028
0.514969 0.002477 0.051417
0.533980 -0.005378 0.067669
0.516770 0.088854 0.059598
0.526700 -0.011548 0.057607
0.584114 0.016411 0.022950
0.596027 -0.003921 0.045062
0.521152 0.056550 0.012769
0.552429 0.063909 0.011518
0.548016 0.007426 0.000554
0.580911 0.028044 0.076125
0.583980 0.010799 0.021316
0.539729 0.088976 0.022741
0.594675 0.014893 0.044811
0.573908 -0.031237 0.007070
0.587976 0.017482 0.068353
0.542820 0.047750 0.086236
0.544371 -0.035814 0.007010
0.531999 0.075506 0.079236
0.512690 0.082586 0.038350
0.533678 -0.022945 0.006032
0.542975 0.096554 0.032063
0.526970 0.005445 0.002692
0.504944 0.045741 0.034666
0.566671 0.090097 0.059753
0.581850 -0.011619 0.065033
0.528743 0.091168 0.071100
0.504710 0.046963 0.037042
0.524255 0.050327 0.079019
0.560188 0.042338 0.008877
0.511576 0.002427 0.030491
0.551159 0.101058 0.048422
0.528999 0.080521 0.018514
0.548230 0.005125 0.000446
0.536756 0.063491 0.083461
0.539468 -0.010880 0.001140
0.566792 -0.051232 0.049552
0.595456 -0.000564 0.049201
0.516015 0.006314 0.011200
0.580433 0.031000 0.076677
0.523529 -0.006931 0.006685
0.546239 0.028179 0.084071
0.540437 0.054775 0.006960
0.595826 -0.005141 0.047195
0.507876 0.022902 0.024515
0.581085 -0.009212 0.014108
0.544276 0.014640 0.000885
0.522841 -0.018667 0.043137
0.517878 0.046180 0.011670
0.595381 -0.021819 0.025710
0.600195 -0.061138 0.023925
0.567452 0.009622 0.077660
0.598193 -0.023083 0.043442
0.505952 0.060766 0.045943
0.522846 0.033848 0.077097
0.520505 0.092827 0.037111
0.538415 0.102921 0.058955
0.567540 -0.061193 0.038225
0.515268 0.010254 0.059438
0.541276 0.079253 0.015894
0.557188 -0.050081 0.046396
0.512456 0.006069 0.018618
0.544757 0.103270 0.055024
0.579321 -0.005397 0.013478
0.589328 -0.041482 0.052144
0.515580 0.087915 0.057814
0.586262 -0.030670 0.056960
0.527837 0.003983 0.002451
0.523663 0.037618 0.006240
0.506462 0.051987 0.056123
0.514890 0.012780 0.011893
0.508676 0.037661 0.061002
0.578530 -0.046936 0.053121
0.574428 0.064310 0.028174
0.518292 0.002667 0.009098
0.591999 -0.036881 0.051737
0.550610 0.005318 0.000693
0.531358 0.085897 0.075135
0.524706 0.062324 0.078252
0.577773 0.076774 0.058033
0.574922 0.075482 0.038340
0.593167 0.003937 0.034255
0.508253 0.026130 0.022795
0.537753 0.102886 0.058978
0.546454 -0.019327 0.064999
0.565275 0.074232 0.023853
0.559540 0.089931 0.070507
0.558073 0.058464 0.012103
0.536161 0.014103 0.000957
0.575762 -0.030261 0.061031
0.546018 0.077311 0.081298
0.595366 0.009172 0.047663
0.582491 0.031764 0.075057
0.574032 -0.031418 0.060888
0.520895 0.022071 0.072099
0.584588 0.019237 0.024378
0.514447 0.001158 0.016413
0.527377 0.085989 0.023090
0.521788 0.011867 0.068548
0.513736 0.008335 0.054771
0.553787 0.099893 0.054421
0.541274 0.082402 0.079094
0.549584 -0.053026 0.016692
0.552921 0.093312 0.031956
0.574585 -0.043904 0.007286
0.594291 0.000793 0.053723
0.578769 0.051439 0.076937
0.537761 -0.025062 0.005013
0.511664 0.010511 0.018440
0.548130 0.021035 0.001830
0.560486 0.042175 0.008993
0.530052 -0.029146 0.014619
0.534275 -0.028342 0.050533
0.570593 0.022873 0.011686
0.533110 0.044815 0.083392
0.524449 -0.015097 0.051508
0.525064 0.098507 0.041937
0.549446 0.001242 0.000373
0.547203 0.006389 0.000433
0.527606 -0.028551 0.035562
0.509684 0.077542 0.044382
0.589718 0.002973 0.027254
0.565475 -0.031031 0.004409
0.581518 0.038340 0.026103
0.537599 0.032518 0.002597
0.587279 0.029930 0.070088
0.544593 0.082257 0.079437
0.554279 -0.020571 0.001815
0.577703 0.063670 0.074039
0.516946 0.047557 0.073998
0.580049 0.030068 0.021776
0.519001 -0.013326 0.019646
0.515904 -0.008447 0.032342
0.576475 -0.013153 0.067098
0.509414 0.038926 0.020216
0.543722 -0.048996 0.026583
0.539776 -0.009900 0.067960
0.562016 0.084958 0.029646
0.520498 0.043983 0.009226
0.602893 -0.056633 0.035306
0.587393 0.052017 0.063773
0.506757 0.064134 0.040462
0.506329 0.055506 0.034206
0.543907 0.036322 0.085424
0.561770 0.024726 0.006247
0.546984 -0.024053 0.002643
0.527263 -0.002782 0.064651
0.564736 -0.034259 0.060059
0.532957 -0.006641 0.066290
0.507991 0.053650 0.027974
0.539030 0.065446 0.083602
0.518123 0.002131 0.009452
0.521524 0.009654 0.067153
0.593327 0.030159 0.050404
0.575766 -0.000842 0.011673
0.549500 -0.007876 0.000400
0.546862 0.070227 0.012451
0.563559 -0.061924 0.016798
0.585284 0.061976 0.053266
0.517497 0.008372 0.008983
0.552314 -0.053684 0.014482
0.545609 0.085162 0.078095
0.598139 -0.059820 0.038954
0.521022 -0.018356 0.034672
0.593405 -0.026180 0.021034
0.518524 0.053343 0.075050
0.593422 -0.021262 0.052560
0.535233 -0.008481 0.001584
0.525186 0.073652 0.076359
0.555187 0.061123 0.084701
0.592389 0.018492 0.061711
0.578747 0.007652 0.073151
0.524519 -0.024598 0.029750
0.512346 0.017001 0.015657
0.583848 0.059366 0.041354
0.537457 0.061399 0.083991
0.543376 0.059758 0.008466
0.563561 -0.048652 0.008032
0.517819 0.048100 0.074740
0.581572 0.069767 0.049584
0.535179 -0.009986 0.001832
0.520209 -0.014180 0.042973
0.597511 -0.016818 0.034803
0.523167 0.085686 0.070349
0.549413 -0.013819 0.000838
0.571482 -0.046241 0.053780
0.520717 -0.009475 0.010895
0.517108 0.014614 0.009129
0.562689 0.084290 0.029672
0.589606 0.028991 0.036157
0.544897 0.089891 0.024221
0.563088 0.075557 0.078762
0.524357 0.072381 0.016930
0.559339 -0.017908 0.002193
0.576712 -0.017225 0.065602
0.602566 -0.041157 0.038954
0.513836 0.024032 0.013488
0.523122 0.095900 0.061726
0.595537 -0.046980 0.015103
0.532642 0.003538 0.071825
0.596091 -0.003874 0.042873
0.546663 0.063690 0.084698
0.538720 0.087754 0.021665
0.588243 0.032967 0.035078
0.526837 0.064093 0.012366
0.539540 -0.024110 0.004078
0.537998 -0.042067 0.033004
0.562157 -0.003634 0.003310
0.595413 -0.025969 0.023616
0.569031 0.075835 0.074965
0.530488 -0.032402 0.035837
0.565530 -0.042949 0.055222
0.550457 0.101265 0.047857
0.524555 0.088894 0.027454
0.541808 -0.034422 0.007436
0.519002 0.006977 0.007587
0.504171 0.039551 0.041970
0.588218 -0.054683 0.011639
0.566965 0.061145 0.081860
0.506914 0.020300 0.029552
0.599421 -0.039263 0.021938
0.526504 0.009844 0.002744
0.559689 0.081881 0.077154
0.527577 -0.025633 0.043443
0.565366 0.056370 0.083322
0.532757 -0.034404 0.038652
0.589707 0.047123 0.049690
0.560402 -0.059317 0.034851
0.515500 0.006954 0.011821
0.542034 0.075048 0.013859
0.591371 -0.041217 0.014246
0.590771 -0.067050 0.027285
0.575904 -0.067877 0.024235
0.519347 0.053989 0.013103
0.579202 0.068534 0.068329
0.562206 0.091592 0.065217
0.518046 0.092339 0.041497
0.522292 0.043076 0.077941
0.556868 0.030984 0.084637
0.566214 0.064895 0.081163
0.577933 0.011314 0.015246
0.558952 0.049694 0.085562
0.579867 0.070862 0.044382
0.581933 0.047136 0.074595
0.522485 -0.003290 0.059261
0.534700 0.005597 0.073766
0.542063 -0.006272 0.070709
0.524685 0.091092 0.068393
0.560304 0.042728 0.009027
0.562132 0.030292 0.083840
0.555014 0.032499 0.004906
0.601885 -0.040394 0.040279
0.540007 0.061301 0.008767
0.572535 -0.017490 0.066684
0.557324 -0.033020 0.004009
0.584367 0.054365 0.069448
0.558480 0.033144 0.084836
0.563654 0.017502 0.006176
0.583239 0.060167 0.068113
0.528448 0.091425 0.070766
0.548387 0.101791 0.057144
0.558609 -0.050311 0.009468
0.519494 0.031292 0.073752
0.531138 0.088366 0.073828
0.511810 0.007318 0.019780
0.504680 0.050283 0.045511
0.601847 -0.034161 0.036947
0.524690 0.072563 0.016806
0.603689 -0.053503 0.023947
0.588056 -0.029736 0.056128
0.548127 -0.044759 0.010027
0.568438 0.032070 0.082671
0.509462 0.065860 0.031634
0.599008 -0.063314 0.029316
0.545595 0.022109 0.082429
0.513501 0.010094 0.014520
0.572023 0.084756 0.049994
0.601398 -0.031545 0.035102
0.546659 0.063627 0.010053
0.534457 0.008754 0.000854
0.574397 -0.067508 0.023356
0.553023 -0.048307 0.010017
0.506034 0.045980 0.029967
0.550943 0.043693 0.005933
0.509050 0.010104 0.038790
0.549503 0.101650 0.047900
0.582209 -0.052190 0.049664
0.532801 -0.036223 0.028216
0.567304 -0.009845 0.005403
0.569886 0.075265 0.074605
0.582876 0.067123 0.050100
0.554450 0.064004 0.012260
0.575099 -0.009540 0.068815
0.563518 0.064263 0.082303
0.566510 0.039281 0.083871
0.510778 0.080744 0.049117
0.565112 0.065242 0.019346
0.518896 0.037508 0.009186
0.557247 0.032876 0.005693
0.554258 -0.025235 0.063652
0.514404 0.026788 0.012851
0.558606 -0.053411 0.043398
0.562674 -0.062755 0.025309
0.543338 -0.029252 0.056987
0.561499 0.039132 0.085047
0.583438 0.064845 0.061543
0.581260 0.070449 0.049765
0.520788 -0.016879 0.038959
0.592159 0.000178 0.058033
0.542209 0.008590 0.000394
0.520453 0.028232 0.007161
0.567660 0.053052 0.017086
0.512128 0.077941 0.058980
0.590293 0.039666 0.043918
0.581669 -0.066609 0.035124
0.591739 0.037944 0.048865
0.597102 -0.061497 0.038043
0.570890 0.041233 0.016156
0.545119 0.058417 0.085577
0.563032 0.007929 0.077732
0.518945 -0.014082 0.022296
0.596502 -0.052341 0.015166
0.507041 0.057728 0.056392
0.592640 -0.066540 0.027497
0.504379 0.043917 0.038475
0.586278 -0.067378 0.022155
0.541695 0.066674 0.010528
0.505533 0.043119 0.053179
0.539316 0.031433 0.083652
0.586714 0.053214 0.064888
0.524640 -0.002400 0.062452
0.512884 0.073691 0.029773
0.577212 -0.040478 0.007918
0.581285 0.004651 0.070657
0.520066 0.093238 0.038704
0.542309 0.081791 0.079450
0.540692 -0.035498 0.049368
0.567693 -0.064465 0.029133
0.552355 0.051808 0.086238
0.577820 -0.044945 0.054238
0.513257 0.063048 0.023375
0.555242 0.091419 0.071326
0.510242 0.015567 0.020319
0.574585 0.005830 0.074413
0.592939 0.032966 0.054087
0.513442 0.077503 0.062282
0.539996 0.003272 0.000299
0.536034 0.096100 0.069708
0.562069 -0.062581 0.021360
0.527870 0.010900 0.002275
0.576456 -0.043180 0.055260
0.540414 -0.028345 0.005320
0.561000 0.026816 0.083331
0.525005 -0.020728 0.045434
0.594396 0.016561 0.044275
0.592944 0.003734 0.033642
0.514787 0.017373 0.011975
0.570823 0.062809 0.079632
0.512981 0.006609 0.016846
0.554076 -0.009245 0.000881
0.545280 -0.018109 0.065312
0.586053 0.039603 0.070858
0.570397 0.049026 0.082342
0.536906 0.089465 0.074917
0.603822 -0.042602 0.029305
0.586161 -0.037547 0.054920
0.590219 0.042888 0.046598
0.595315 -0.059376 0.041372
0.574118 0.033342 0.080613
0.570380 -0.066218 0.021851
0.591626 0.004426 0.031123
0.510845 0.004636 0.029897
0.578237 0.044055 0.023927
0.545819 0.081128 0.017571
0.583169 0.063242 0.065227
0.508630 0.027531 0.021746
0.550993 -0.042533 0.007802
0.572002 -0.028681 0.006394
0.547110 0.031720 0.084905
0.517495 -0.011798 0.026165
0.555326 -0.054933 0.037915
0.565282 0.063643 0.081857
0.587025 0.002166 0.065161
0.587615 0.055240 0.057009
0.582924 -0.066789 0.019267
0.531896 -0.034789 0.024057
0.567152 0.039417 0.012825
0.591375 -0.045086 0.013241
0.540570 -0.045406 0.030029
0.561786 0.066694 0.082210
0.505947 0.021450 0.038613
0.546998 0.031903 0.084934
0.576294 -0.015080 0.066493
0.590840 0.015311 0.033403
0.575597 -0.002859 0.070966
0.517555 0.083025 0.029397
0.574411 0.067580 0.075140
0.541124 -0.046080 0.022799
0.590902 0.039160 0.061203
0.539480 -0.037694 0.011004
0.570429 0.055294 0.081597
0.578779 0.032733 0.021112
0.590827 0.018102 0.064576
0.540994 0.091336 0.025107
0.545563 0.072675 0.013242
0.511028 0.029684 0.062920
0.579399 0.060683 0.033218
0.539697 0.004373 0.000326
0.546531 0.071798 0.082879
0.505542 0.025658 0.033167
0.507708 0.062336 0.034190
0.542479 0.046562 0.086175
0.597145 -0.013182 0.041041
0.509768 0.071384 0.034975
0.510234 0.011306 0.022399
0.568649 0.022168 0.080911
0.558464 -0.039526 0.055918
0.544268 0.020010 0.081637
0.524963 0.004864 0.067531
0.552903 0.099113 0.059666
0.521846 0.007943 0.066500
0.580741 0.060532 0.035490
0.566315 0.065100 0.020266
0.558763 0.093058 0.037656
0.578575 0.031240 0.020491
0.515149 0.031859 0.012145
0.542903 0.070865 0.082920
0.552008 0.005509 0.077315
0.583106 0.065934 0.048159
0.539583 0.098371 0.034330
0.580235 -0.040574 0.008985
0.522156 0.039984 0.007426
0.540414 0.040372 0.085346
0.586297 0.018006 0.070247
0.577223 -0.062390 0.014124
0.592843 0.021232 0.040743
0.544040 -0.049374 0.024282
0.552210 -0.004651 0.073186
0.538733 0.031600 0.002480
0.537833 -0.015015 0.063920
0.510216 0.052297 0.065689
0.508641 0.043593 0.022549
0.527663 0.021017 0.076382
0.516895 0.002608 0.010929
0.506852 0.025595 0.051069
0.523363 0.056783 0.011503
0.568489 0.001015 0.074418
0.523442 0.025711 0.005025
0.548889 -0.052654 0.017176
0.524423 0.097632 0.060552
0.570725 -0.056821 0.045552
0.537160 0.084346 0.019092
0.547224 0.064548 0.084538
0.561152 0.049751 0.085153
0.552566 -0.011766 0.000813
0.571436 0.009105 0.076569
0.564230 0.027411 0.082951
0.578799 -0.062951 0.040446
0.582190 0.013076 0.072635
0.557975 0.094056 0.038582
0.542036 -0.035095 0.050976
0.576205 -0.066592 0.018735
0.556449 0.098291 0.048712
0.579755 0.071712 0.062630
0.548356 -0.048232 0.041038
0.571162 0.083827 0.064121
0.568475 0.008287 0.077015
0.559356 -0.060294 0.029652
0.511163 0.029452 0.017171
0.526424 -0.027475 0.028893
0.504895 0.039085 0.049549
0.580243 0.033160 0.022888
0.538746 0.066136 0.010307
0.579625 -0.068250 0.023205
0.586502 0.057348 0.048700
0.550763 0.094970 0.033048
0.525493 -0.025427 0.035862
0.566266 0.018522 0.007880
0.573703 0.016646 0.012832
0.559595 -0.040681 0.055435
0.559163 0.072386 0.081303
0.587655 -0.006195 0.062005
0.565655 0.040324 0.084157
0.514895 0.087501 0.039949
0.568045 0.003290 0.007090
0.566855 0.063780 0.020185
0.551822 -0.001190 0.000575
0.520762 -0.017632 0.022414
0.583042 0.026330 0.074294
0.585011 0.021533 0.072027
0.543786 -0.048953 0.022018
0.570710 0.023947 0.011990
0.581871 -0.037727 0.056482
0.558783 -0.036890 0.057733
0.604371 -0.046094 0.035067
0.540460 -0.038707 0.010947
0.549683 0.028338 0.003028
0.532371 0.010038 0.001203
0.512166 0.079158 0.058080
0.516674 0.084072 0.063668
0.538459 0.065474 0.010094
0.600894 -0.059837 0.023156
0.520395 -0.017628 0.026843
0.516363 0.028980 0.010779
0.561329 -0.009888 0.071092
0.538616 0.094038 0.028097
0.575999 -0.049336 0.008140
0.564886 0.089321 0.065700
0.532096 0.008071 0.073688
0.565982 0.073035 0.078418
0.581965 0.069436 0.056422
0.574863 -0.000733 0.011071
0.529920 0.085676 0.074618
0.532949 0.095938 0.069124
0.573327 -0.011759 0.008634
0.510531 0.009340 0.022919
0.532954 0.060087 0.082720
0.559610 0.094271 0.041672
0.518429 0.086911 0.031875
0.509301 0.017556 0.022200
0.537926 0.029197 0.002201
0.523853 0.033929 0.005653
0.506920 0.032627 0.055203
0.514975 0.071209 0.025187
0.523347 0.085482 0.070605
0.530700 0.027244 0.002623
0.507815 0.022511 0.051996
0.517157 -0.007995 0.043278
0.541286 0.098816 0.035352
0.547988 0.008962 0.000657
0.571857 0.038567 0.016234
0.557221 0.062035 0.012817
0.561115 -0.060790 0.031529
0.513657 0.031203 0.013815
0.506375 0.041644 0.056035
0.523429 0.073863 0.018235
0.534581 0.002059 0.072032
0.560383 0.061608 0.083723
0.532413 0.030407 0.002678
0.581386 0.024702 0.021845
0.563060 -0.015449 0.003205
0.587740 -0.037852 0.013001
0.580321 0.004183 0.016027
0.578376 0.071963 0.066109
0.560467 0.065565 0.082836
0.511193 0.058095 0.066553
0.543271 0.089352 0.075561
0.593756 -0.014293 0.027049
0.588779 0.031832 0.067931
0.568529 0.082478 0.035616
0.508052 0.051155 0.061123
0.504868 0.047797 0.049281
0.589128 -0.067300 0.030726
0.565431 0.087604 0.067778
0.588965 0.027309 0.067883
0.513220 0.060126 0.069116
0.542913 0.037089 0.085398
