ply
format ascii 1.0
element vertex 1024
property float x
property float y
property float z
end_header
0.519731 -0.015999 0.039231
0.511744 0.068192 0.048411
0.511363 0.073078 0.050076
0.579192 -0.039560 -0.007400
0.575558 0.075007 0.061737
0.524722 0.029641 0.014136
0.571168 -0.032302 -0.010969
0.588282 -0.001102 0.067899
0.527645 0.082792 0.032674
0.546344 0.042260 0.013460
0.604000 -0.012860 0.036781
0.587767 -0.055602 0.025941
0.576207 0.061848 0.074434
0.594385 0.047809 0.052379
0.604861 0.003795 0.032843
0.560229 0.042701 0.014802
0.522415 0.048103 0.023930
0.588280 -0.034559 -0.003624
0.530269 -0.040563 0.014282
0.594228 0.002558 0.009535
0.594848 0.045835 0.058676
0.539363 0.104654 0.051773
0.560204 -0.057174 0.000297
0.522828 0.065784 0.072086
0.513142 0.092835 0.044025
0.519562 0.009264 0.054342
0.537419 -0.048374 0.025992
0.550276 -0.033940 0.058421
0.540354 0.010866 0.075310
0.541304 -0.047946 0.035140
0.556139 0.050934 0.018982
0.592155 0.016141 0.015305
0.570899 0.077619 0.070143
0.545973 0.076319 0.080734
0.564372 -0.023634 0.067775
0.560923 0.021562 0.082050
0.563220 0.052219 0.021774
0.595306 -0.008548 0.005742
0.546052 -0.045565 0.044274
0.569534 0.081863 0.060702
0.598484 -0.040464 0.015459
0.585203 -0.030888 0.055729
0.542406 -0.013517 0.067618
0.600689 -0.030323 0.013696
0.585430 -0.036682 -0.005104
0.600228 -0.003287 0.015476
0.579974 0.068793 0.064510
0.548154 -0.004988 0.073788
0.564821 -0.034629 -0.011017
0.512030 0.087702 0.044296
0.513787 0.087740 0.041258
0.603899 -0.016077 0.031034
0.572156 -0.000505 0.075851
0.515950 0.024112 0.052641
0.602539 -0.021863 0.018967
0.552219 0.012022 0.079787
0.564621 -0.057237 0.037457
0.534094 -0.036069 0.001497
0.544773 -0.029140 0.059623
0.515339 -0.006938 0.022663
0.583912 -0.007340 0.068917
0.585238 0.040865 0.073175
0.582920 0.065747 0.061030
0.552715 -0.021071 -0.010496
0.594405 -0.034503 0.042820
0.578541 -0.032397 -0.009239
0.569695 -0.048866 -0.006439
0.592775 -0.041773 0.003362
0.597151 -0.041451 0.011367
0.596068 -0.016973 0.053449
0.546304 0.097431 0.070961
0.596051 -0.014016 0.055135
0.602554 0.022065 0.044954
0.564449 0.030905 0.008903
0.561905 0.088785 0.056504
0.542987 -0.054773 0.017478
0.516369 0.041728 0.028281
0.529822 0.055550 0.076649
0.585830 -0.049618 0.000978
0.602482 0.002336 0.049690
0.541440 0.053399 0.082047
0.581607 0.014029 0.005224
0.533492 0.051598 0.078544
0.576502 0.073788 0.058611
0.533962 0.092489 0.036536
0.582422 0.045440 0.026931
0.552658 0.080464 0.036940
0.566808 -0.029924 -0.011519
0.597741 0.040266 0.049409
0.550285 0.048590 0.083932
0.574654 0.073902 0.068418
0.594618 -0.005965 0.005989
0.553973 -0.032286 0.061327
0.602128 0.020999 0.037089
0.547806 -0.056174 0.008610
0.562729 0.063605 0.081038
0.550330 -0.051333 0.039642
0.604637 0.007593 0.036826
0.580352 -0.024852 -0.008952
0.569128 0.067760 0.035808
0.567129 -0.063660 0.008732
0.537601 -0.011128 0.065691
0.532194 -0.027595 -0.000191
0.515536 -0.009176 0.024660
0.523602 0.018872 0.010801
0.544536 -0.046989 0.040911
0.595273 -0.011265 0.057520
0.601577 0.018864 0.052673
0.514456 0.046472 0.055400
0.531550 -0.024665 0.052290
0.543770 -0.036267 0.052849
0.601313 -0.026749 0.033474
0.565893 -0.013116 -0.010294
0.570295 -0.053726 0.042007
0.543522 0.026643 0.006104
0.574731 0.042981 0.019681
0.595436 -0.028738 0.002350
0.528483 0.005197 0.003355
0.524755 -0.019910 0.005369
0.532372 -0.020105 0.056372
0.551413 -0.024889 0.065652
0.519453 -0.020748 0.017453
0.527513 0.022465 0.068415
0.548340 -0.013030 0.070555
0.562558 -0.007984 0.075049
0.513533 0.044882 0.051699
0.557480 0.030683 0.007557
0.585362 0.062455 0.060314
0.535695 -0.033461 0.049025
0.513147 0.038452 0.047550
0.558819 -0.048813 -0.005882
0.516631 0.008309 0.015804
0.527480 0.029406 0.070190
0.584034 0.048158 0.030954
0.553294 -0.033853 0.059759
0.599443 -0.016645 0.009209
0.579015 -0.016366 -0.008397
0.522753 0.036398 0.066740
0.557728 -0.042275 0.053449
0.577952 0.056977 0.032797
0.576945 -0.035551 -0.009211
0.557361 -0.062269 0.012405
0.603299 0.009994 0.046491
0.545029 0.056840 0.021146
0.562265 -0.027060 -0.011641
0.541726 0.078797 0.032053
0.545231 0.094741 0.073053
0.581942 0.067100 0.060676
0.529173 0.105692 0.046453
0.591173 0.017275 0.015004
0.564382 -0.064928 0.015816
0.576849 -0.060443 0.029979
0.568394 -0.064805 0.012497
0.539981 -0.030265 -0.005279
0.545332 -0.056388 0.019101
0.583216 0.009975 0.073347
0.569391 0.035182 0.012600
0.529789 0.105916 0.059460
0.540718 0.000497 0.072397
0.515662 0.065334 0.062842
0.514101 0.002051 0.022712
0.535375 -0.021199 0.058463
0.556512 -0.055513 0.037305
0.534078 -0.020953 -0.002914
0.548044 0.080844 0.079412
0.577679 0.044960 0.022786
0.543177 -0.015341 0.067178
0.601020 -0.033123 0.021757
0.560261 0.068733 0.080707
0.523399 -0.030480 0.020165
0.523124 -0.021017 0.008082
0.588122 -0.036760 0.048547
0.530448 0.075893 0.030073
0.586720 -0.015814 -0.004265
0.549855 -0.053817 0.035221
0.518453 -0.012632 0.039365
0.542336 0.038220 0.081308
0.544076 -0.054531 0.024532
0.523036 0.026553 0.064453
0.579813 -0.058711 0.030810
0.569850 0.076661 0.046841
0.525781 -0.028548 0.038228
0.549764 -0.051741 0.038562
0.605020 -0.005277 0.031435
0.555377 0.076437 0.035352
0.514356 0.022437 0.048394
0.549498 0.097655 0.050107
0.599241 -0.021742 0.007966
0.512765 0.010895 0.039013
0.527472 0.092969 0.035970
0.569788 -0.051136 0.045356
0.588035 0.049008 0.037222
0.599623 0.014955 0.024515
0.521056 0.021768 0.060498
0.536292 -0.017405 -0.004504
0.530288 -0.037768 0.008734
0.515648 -0.007198 0.035599
0.580378 0.059014 0.072319
0.565665 0.020963 0.003764
0.572812 0.047276 0.021818
0.578546 0.006787 0.000053
0.579846 -0.026685 -0.009175
0.580615 -0.025127 0.062493
0.575827 -0.013521 -0.008777
0.573034 -0.007833 0.073449
0.558738 -0.058454 0.002652
0.554235 0.057819 0.083704
0.592921 0.001717 0.064577
0.576025 0.037589 0.078971
0.553521 -0.037968 0.056110
0.555729 -0.017306 0.070592
0.528090 -0.000283 0.002437
0.545769 0.097821 0.070755
0.562688 -0.009767 -0.009610
0.556816 -0.061982 0.023711
0.596774 -0.044858 0.022622
0.563340 0.061349 0.081293
0.562191 0.009727 0.079860
0.517432 0.058729 0.032726
0.539793 0.033193 0.009901
0.561266 -0.014604 -0.010668
0.516256 0.094293 0.040798
0.569714 -0.028558 -0.011433
0.523282 -0.010328 0.050759
0.531307 0.091220 0.073748
0.529918 0.105752 0.059971
0.584092 -0.002850 -0.001670
0.521194 -0.000367 0.008547
0.566394 0.052420 0.022949
0.585208 -0.028508 0.057381
0.513652 0.048996 0.037983
0.564993 -0.028134 0.065309
0.545779 0.028496 0.081183
0.551201 -0.013621 -0.009469
0.569700 0.009637 0.078646
0.591691 0.036288 0.068158
0.600937 -0.029960 0.030944
0.571801 0.018137 0.003740
0.600062 0.028021 0.037979
0.515912 0.070996 0.036584
0.595772 0.033237 0.033940
0.567635 0.050008 0.021706
0.603895 0.011963 0.035354
0.559786 0.002285 0.078281
0.604580 -0.002902 0.027944
0.521393 0.077278 0.071149
0.561345 -0.059521 0.002794
0.518862 0.026280 0.058574
0.555921 -0.002014 -0.007191
0.545850 0.005728 -0.003254
0.539978 0.104969 0.058613
0.545810 0.055664 0.020535
0.520933 0.058095 0.028812
0.531379 0.013229 0.004190
0.557046 -0.053499 -0.002011
0.577824 0.008507 0.075772
0.584592 -0.045682 0.043627
0.572989 -0.037793 0.057531
0.587565 -0.047870 0.038319
0.534804 -0.026511 -0.002617
0.515467 0.085027 0.064035
0.516433 0.018227 0.018157
0.558345 -0.026409 0.066187
0.577804 0.068001 0.046157
0.562166 0.010679 0.080045
0.527270 -0.035603 0.027586
0.549252 -0.001222 0.075506
0.585386 -0.002873 0.069422
0.587150 0.011936 0.071113
0.547188 0.101291 0.060830
0.526734 0.028446 0.012407
0.548768 0.088527 0.076165
0.598027 0.011027 0.059988
0.578312 -0.052690 -0.001876
0.529423 0.019601 0.069554
0.554365 -0.027007 0.065181
0.512013 0.063637 0.049003
0.538314 -0.007891 0.067645
0.528633 0.030033 0.012092
0.594532 0.030395 0.065546
0.578072 0.058962 0.074121
0.552280 0.097755 0.063581
0.539366 -0.047994 0.031516
0.554423 -0.013698 -0.009987
0.516895 -0.013810 0.021859
0.582539 0.066430 0.059069
0.549010 -0.023123 -0.009666
0.533675 0.042813 0.077683
0.520448 -0.010458 0.009659
0.550641 -0.043381 -0.006091
0.512188 0.089401 0.057649
0.580125 -0.061795 0.023249
0.601979 -0.028208 0.021411
0.556820 0.094029 0.059088
0.586699 0.051537 0.037982
0.579957 -0.008714 -0.005935
0.590860 -0.007524 0.001522
0.584807 0.007301 0.071991
0.547627 0.065434 0.025897
0.585014 -0.039182 0.049344
0.536885 -0.016931 0.062226
0.587911 0.049119 0.069149
0.521487 -0.000005 0.008246
0.580152 -0.044595 0.048039
0.548353 -0.053648 0.003507
0.520850 -0.015950 0.010147
0.532243 0.026646 0.009063
0.525396 0.038903 0.017746
0.570841 -0.033221 0.061413
0.595790 0.044278 0.049013
0.546106 0.076478 0.031825
0.568709 0.054927 0.025581
0.602911 -0.008413 0.045106
0.561765 0.022729 0.082184
0.527647 0.028023 0.011730
0.528527 0.057897 0.075971
0.546972 -0.054619 0.029981
0.586929 -0.053683 0.031311
0.512602 0.053667 0.044467
0.562584 0.035884 0.083499
0.527700 0.057184 0.075302
0.558229 -0.060987 0.007524
0.583139 -0.059323 0.009900
0.601520 -0.016111 0.014373
0.534359 -0.039777 0.038103
0.554868 0.038337 0.084018
0.537677 0.013043 0.001641
0.539646 0.073439 0.029098
0.547840 -0.054364 0.005044
0.549676 0.093914 0.045481
0.557560 -0.047333 -0.006351
0.587216 0.005698 0.070131
0.591444 0.043711 0.037084
0.576507 0.073748 0.062794
0.540224 0.050764 0.081556
0.549674 0.024173 0.004159
0.577333 -0.010748 0.070935
0.566944 -0.065112 0.014521
0.518694 -0.007731 0.044229
0.598577 0.007590 0.058616
0.601786 -0.021378 0.037952
0.602180 0.007567 0.050748
0.546764 -0.041744 0.049159
0.571495 -0.045052 0.051624
0.568682 -0.019257 -0.011142
0.542452 0.097630 0.071381
0.514918 -0.006086 0.024590
0.532883 0.106796 0.055604
0.571664 0.038649 0.080917
0.514192 0.046257 0.035291
0.527416 0.042705 0.072989
0.597371 -0.000734 0.058751
0.521124 0.001807 0.008870
0.592194 0.004371 0.065841
0.580533 -0.049282 0.042872
0.514622 0.022282 0.022700
0.568056 -0.065127 0.014319
0.603559 0.001256 0.025249
0.517465 0.013138 0.015356
0.564991 -0.061126 0.003902
0.595839 0.005019 0.012832
0.593363 -0.031047 0.047191
0.555567 -0.012921 0.072577
0.517311 0.098746 0.060775
0.575302 0.073779 0.052750
0.565814 -0.048076 0.049088
0.512545 0.022136 0.041555
0.513508 0.075408 0.040630
0.561840 0.019691 0.081677
0.547382 0.083265 0.036448
0.584706 -0.040112 0.048795
0.522636 0.054396 0.070343
0.593150 0.029489 0.026461
0.519281 -0.008105 0.045195
0.516928 -0.006656 0.040768
0.546751 -0.048873 -0.000570
0.561914 0.084495 0.047429
0.514430 0.059167 0.037831
0.574651 0.046951 0.022483
0.598209 -0.009515 0.009397
0.590161 0.020571 0.016164
0.587088 -0.015923 -0.004045
0.517184 0.045560 0.028668
0.572557 0.069189 0.074187
0.559465 0.087013 0.047822
0.542759 -0.051059 0.031142
0.529693 0.106333 0.048391
0.603785 -0.008876 0.023523
0.558072 -0.001317 0.077204
0.511947 0.092623 0.055550
0.548848 0.063706 0.083028
0.512693 0.072987 0.042580
0.512330 0.018691 0.029229
0.555912 -0.016597 -0.010591
0.568195 -0.033143 0.061973
0.531103 -0.032875 0.043205
0.511958 0.019077 0.035768
0.600830 -0.024714 0.012098
0.581793 0.003292 -0.000181
0.600648 0.031516 0.046422
0.597718 -0.009128 0.008767
0.597378 -0.010450 0.055112
0.583455 0.003847 0.001010
0.602539 0.002308 0.022879
0.559242 -0.058040 0.001811
0.580563 -0.033486 -0.008291
0.547122 0.089699 0.040489
0.552995 0.028634 0.082829
0.534306 0.090458 0.035804
0.532257 -0.006671 0.063342
0.528818 0.048633 0.075109
0.549684 0.089870 0.042123
0.577780 -0.063394 0.020300
0.513128 0.040052 0.037600
0.580579 0.026981 0.012329
0.514643 0.042517 0.032475
0.557700 -0.040907 0.054780
0.544250 0.013737 0.077817
0.525448 0.090983 0.071449
0.512279 0.080448 0.043184
0.579650 0.038975 0.019778
0.511129 0.083758 0.054769
0.545615 0.050434 0.017772
0.550896 0.003224 -0.004979
0.602529 0.019983 0.047778
0.545932 -0.049828 0.037952
0.567080 0.039228 0.082562
0.568603 0.049348 0.021590
0.546972 -0.016737 -0.008879
0.523958 0.017909 0.063149
0.580600 0.009404 0.002242
0.605013 0.002156 0.038498
0.538168 0.060894 0.081000
0.511039 0.086461 0.047280
0.533588 0.093196 0.073395
0.598548 -0.010408 0.053363
0.604374 -0.004907 0.041483
0.544128 0.031514 0.081088
0.543332 -0.039005 0.049859
0.581264 -0.040262 0.051278
0.542908 -0.003261 0.072198
0.537750 0.065673 0.080724
0.546905 0.056931 0.083303
0.530240 0.104966 0.061937
0.513222 0.076268 0.041193
0.545573 0.101119 0.051097
0.587787 0.007477 0.070029
0.520701 0.057723 0.068739
0.518965 0.090071 0.067033
0.552033 -0.034472 -0.009364
0.521242 0.009632 0.010149
0.583466 -0.048682 -0.001398
0.565499 -0.010373 -0.009636
0.597288 0.039710 0.045511
0.549891 -0.053445 0.035905
0.574130 -0.020540 -0.010512
0.516989 0.021987 0.054118
0.595228 0.000248 0.009551
0.535608 0.028501 0.076528
0.579913 0.065195 0.045326
0.524767 -0.030542 0.012664
0.533551 0.069382 0.027404
0.602838 0.010207 0.048375
0.533661 -0.019447 0.058021
0.567347 0.044037 0.082296
0.565588 -0.029475 0.064507
0.557685 -0.053533 0.040728
0.569502 -0.052163 0.044121
0.570326 0.011276 0.078785
0.544485 0.015667 0.078336
0.578889 -0.059782 0.029707
0.555496 0.023138 0.082244
0.547528 0.039337 0.011864
0.519892 0.047956 0.026224
0.604047 -0.008804 0.024790
0.585500 -0.002947 -0.000817
0.586120 0.045287 0.030854
0.513234 0.001635 0.031246
0.547782 0.044518 0.014561
0.590362 -0.032776 -0.002304
0.524390 0.032919 0.015759
0.557166 0.081184 0.039839
0.512252 0.016378 0.029355
0.534805 -0.032328 0.049212
0.576011 0.074442 0.062038
0.552111 -0.054176 0.036578
0.595861 -0.045329 0.026467
0.586164 0.061151 0.060959
0.582824 -0.042377 -0.004728
0.598200 0.038356 0.046899
0.596988 -0.017363 0.051918
0.545835 -0.043350 -0.003894
0.513444 0.038675 0.049275
0.563016 -0.063341 0.025662
0.595644 -0.019628 0.052424
0.552842 -0.037112 0.056636
0.578339 0.017983 0.005750
0.587738 0.020946 0.071522
0.566348 -0.051486 -0.005369
0.599021 -0.027747 0.007904
0.585638 0.047215 0.032038
0.543705 -0.045310 0.042543
0.588052 0.056286 0.047700
0.527477 0.072341 0.075832
0.517882 0.042994 0.026480
0.599473 0.029440 0.057485
0.513688 -0.001127 0.030047
0.595346 0.044751 0.058384
0.530547 -0.014726 0.057664
0.595115 0.002342 0.010478
0.518258 0.047735 0.028057
0.598247 0.006749 0.059008
0.551295 0.062858 0.025148
0.589676 0.038172 0.029162
0.567254 0.034827 0.082454
0.605135 -0.001284 0.032646
0.531095 0.071714 0.028532
0.522048 0.105030 0.048037
0.517722 0.010513 0.051835
0.516146 0.064518 0.035507
0.590875 -0.034575 0.047411
0.552179 -0.023743 0.066537
0.593425 -0.049948 0.014625
0.567524 -0.062852 0.006724
0.533379 0.086239 0.076131
0.565728 0.001159 0.077594
0.592530 -0.021101 -0.000633
0.536357 0.069710 0.080045
0.596419 0.024549 0.063358
0.566220 -0.058870 0.000541
0.553617 0.059587 0.023745
0.512391 0.071281 0.056315
0.580803 -0.058543 0.030241
0.512902 0.059273 0.054071
0.597533 0.039926 0.047091
0.603670 0.010237 0.031472
0.581564 -0.032804 0.056957
0.600894 0.023638 0.054678
0.573954 -0.023363 0.066278
0.517869 0.071252 0.067145
0.558880 -0.004165 -0.007987
0.598821 0.034173 0.057203
0.511745 0.068834 0.051617
0.583912 0.047770 0.030464
0.557396 -0.060395 0.028924
0.555277 -0.045928 0.048820
0.537282 -0.028167 -0.004043
0.553214 -0.017974 -0.010358
0.531053 0.046405 0.018493
0.599829 0.005250 0.056046
0.567940 -0.063068 0.007193
0.535596 0.032312 0.077223
0.569898 -0.012887 -0.009844
0.542751 -0.051279 0.005808
0.580336 0.002980 -0.001022
0.594920 0.035711 0.034870
0.517005 0.053170 0.062609
0.541627 -0.051740 0.027188
0.520825 0.036154 0.020020
0.513634 -0.000164 0.027494
0.518049 0.053542 0.064378
0.554959 -0.012644 0.072586
0.546691 0.036557 0.010513
0.595801 0.030222 0.063974
0.597777 -0.034951 0.007791
0.555085 -0.002526 0.076477
0.569780 0.004535 0.077625
0.560042 -0.052758 -0.003674
0.547302 -0.056239 0.026272
0.562402 0.084704 0.073293
0.575703 -0.036305 -0.009403
0.554258 0.091202 0.047059
0.515626 0.039188 0.028497
0.518318 -0.017806 0.019049
0.583804 0.064761 0.059065
0.597881 0.020895 0.061145
0.587591 0.034039 0.023228
0.578027 0.018155 0.005703
0.581225 0.060283 0.070968
0.552537 0.042565 0.084059
0.565852 0.035377 0.011795
0.542787 -0.031966 0.056078
0.560768 0.028275 0.083072
0.587929 -0.055282 0.010421
0.584177 0.050711 0.033522
0.586560 0.045875 0.031954
0.567781 0.048133 0.081766
0.592572 -0.045562 0.034212
0.538244 0.049570 0.018156
0.564737 0.079445 0.044069
0.550951 0.019671 0.001910
0.596121 0.020986 0.023664
0.513719 0.005514 0.023168
0.544821 -0.055140 0.024325
0.575958 0.068694 0.044024
0.523349 -0.026234 0.011124
0.560836 -0.034914 0.060827
0.553561 0.027854 0.005851
0.587800 0.041458 0.071097
0.581545 0.029997 0.076007
0.515242 0.036921 0.054680
0.603250 -0.003003 0.046459
0.559863 0.074388 0.079257
0.539601 0.021079 0.077346
0.569814 -0.025400 -0.011465
0.604766 0.002613 0.031117
0.512824 0.096572 0.048748
0.522232 -0.008430 0.007017
0.594923 -0.034089 0.042371
0.598174 -0.024266 0.044960
0.532595 -0.022602 0.054953
0.575995 0.033651 0.014032
0.579575 0.068430 0.051296
0.551609 0.012847 0.079842
0.524312 0.052932 0.071832
0.545936 0.017009 0.079138
0.601249 -0.019012 0.042133
0.542447 -0.046113 0.039938
0.598579 0.034350 0.057796
0.555869 -0.000170 0.077337
0.524005 0.017632 0.010074
0.558115 0.055717 0.022547
0.582466 0.057838 0.038947
0.589672 -0.010314 -0.000494
0.551420 0.096494 0.069436
0.533057 -0.011513 -0.002327
0.600469 0.029499 0.054267
0.562070 0.087317 0.070878
0.545645 -0.056359 0.021307
0.512762 0.095510 0.055451
0.574654 0.038324 0.079613
0.535005 0.076845 0.030311
0.560076 -0.039424 0.056807
0.513040 0.056710 0.041720
0.590981 0.052699 0.049264
0.558387 -0.053627 0.040872
0.530125 -0.037646 0.032360
0.514316 0.020569 0.022814
0.513124 0.018340 0.043505
0.574763 0.046969 0.078793
0.600623 0.017504 0.055549
0.542170 -0.003819 -0.005246
0.542475 -0.043705 0.043572
0.592976 -0.001299 0.006247
0.560183 0.090662 0.057511
0.559817 -0.035416 0.060264
0.539607 -0.016994 -0.006211
0.590564 0.053728 0.050312
0.569938 0.030486 0.081435
0.523998 0.063853 0.028278
0.566271 -0.060626 0.032276
0.581127 0.062222 0.042756
0.522202 0.067900 0.071680
0.593701 0.043576 0.063678
0.601755 0.024412 0.050860
0.569226 -0.024656 -0.011498
0.536591 0.024608 0.006738
0.586020 -0.032446 -0.005587
0.531799 -0.043079 0.015816
0.601776 -0.022196 0.015110
0.572805 0.068192 0.039266
0.515429 0.040959 0.056275
0.513209 0.082485 0.041377
0.602482 0.013656 0.049377
0.574405 -0.064159 0.022274
0.534108 0.096902 0.038632
0.543983 0.006086 0.075784
0.521445 0.049073 0.025156
0.536260 -0.042635 0.036450
0.591590 -0.031619 -0.001398
0.539001 0.021583 0.004770
0.601930 -0.012496 0.016347
0.583472 0.065124 0.056896
0.560272 0.063652 0.081819
0.572715 0.057455 0.029386
0.531838 0.076048 0.030036
0.530652 -0.039251 0.009999
0.564967 0.052008 0.082290
0.525711 0.062498 0.074298
0.567262 -0.051601 -0.005287
0.597017 -0.040465 0.009905
0.577658 0.072236 0.063092
0.600227 0.031837 0.053471
0.591084 -0.016577 0.059453
0.540084 0.102146 0.046487
0.524360 -0.032067 0.023281
0.594763 0.005840 0.063491
0.527975 0.088702 0.034571
0.599271 0.034730 0.044602
0.536373 -0.048377 0.013547
0.562620 0.041769 0.083630
0.523496 -0.029654 0.027856
0.561055 0.052911 0.083271
0.530011 0.003485 0.002000
0.540910 0.084017 0.078184
0.599482 0.028439 0.057724
0.592736 -0.016498 0.000453
0.538545 0.091385 0.037547
0.524802 0.104608 0.059319
0.536745 0.101622 0.068235
0.604539 -0.007609 0.027664
0.527374 -0.026554 0.004628
0.545115 -0.048907 0.000647
0.591792 -0.052696 0.018538
0.553611 -0.031580 0.061773
0.523580 -0.013486 0.049232
0.526045 -0.034899 0.021218
0.556293 0.045136 0.015480
0.524924 -0.027845 0.037098
0.544710 -0.015757 -0.008110
0.517131 -0.012126 0.018466
0.558599 0.014357 0.080844
0.541582 0.004196 0.074080
0.536748 0.017625 0.074921
0.567662 -0.063304 0.027153
0.578224 0.017641 0.005509
0.520534 -0.010689 0.045809
0.582869 0.025907 0.013235
0.512840 0.080966 0.041975
0.595277 -0.003840 0.007686
0.517373 0.039143 0.059682
0.570083 0.078349 0.050454
0.520556 -0.014258 0.010195
0.522757 -0.014710 0.046968
0.573482 0.039990 0.017073
0.523327 -0.018494 0.006865
0.563501 -0.063472 0.025552
0.562003 -0.057539 -0.000006
0.562132 0.089481 0.062425
0.556366 -0.021192 0.068753
0.558938 -0.061724 0.026998
0.596233 0.022747 0.063567
0.590129 -0.026610 0.054318
0.516412 0.077807 0.036757
0.601678 -0.022158 0.014726
0.521096 0.100280 0.041178
0.512482 0.059602 0.051950
0.569703 0.081183 0.066278
0.517512 -0.009264 0.040053
0.599836 -0.029925 0.035532
0.518534 0.103525 0.052576
0.531062 -0.009362 0.060968
0.599425 0.023891 0.058396
0.548380 -0.032258 -0.008680
0.518522 0.076561 0.034650
0.590346 -0.003991 0.002492
0.595156 0.039346 0.039144
0.538450 0.101261 0.068607
0.565812 0.085675 0.065163
0.599712 -0.014738 0.048916
0.586863 0.015208 0.009700
0.584796 0.009774 0.072382
0.567935 -0.052258 -0.004868
0.516974 0.078432 0.066283
0.568259 0.059742 0.079575
0.566649 0.063026 0.030654
0.530241 -0.038320 0.009612
0.537886 -0.014740 -0.005257
0.583637 -0.002697 -0.001870
0.515568 0.032730 0.054211
0.526896 -0.035938 0.023895
0.519233 -0.016191 0.037562
0.588994 -0.050127 0.033734
0.571639 -0.003592 -0.006417
0.604684 0.007129 0.036025
0.580882 0.025989 0.011894
0.530312 0.040356 0.074991
0.603067 0.012033 0.047065
0.536982 0.074357 0.079733
0.545690 0.092432 0.074393
0.541671 0.043114 0.081561
0.521685 -0.018438 0.041494
0.528806 -0.018681 0.000946
0.539808 -0.017730 -0.006330
0.571971 0.034872 0.080837
0.513808 0.036693 0.032235
0.590307 0.042427 0.033917
0.603432 0.015966 0.039619
0.569369 0.007989 -0.001844
0.580441 -0.052565 0.039009
0.532449 0.012499 0.003441
0.525251 0.097022 0.068632
0.527590 0.011792 0.005768
0.513806 0.096927 0.056723
0.565750 0.018831 0.002663
0.535691 -0.039512 0.041020
0.520300 0.010250 0.055796
0.585780 0.040659 0.072793
0.532448 0.101395 0.041228
0.582026 -0.037224 0.053267
0.523499 0.104755 0.057878
0.594271 -0.018106 0.055115
0.531447 0.105943 0.060143
0.593855 -0.008355 0.004163
0.582703 -0.024681 0.061528
0.536042 -0.019476 0.060098
0.522092 -0.010179 0.007257
0.555016 0.012767 0.080343
0.600333 -0.033880 0.027748
0.552676 0.089120 0.043567
0.512699 0.022862 0.042487
0.592637 -0.051246 0.015395
0.546244 -0.055583 0.026116
0.547816 0.051004 0.083569
0.539272 0.093549 0.073845
0.529203 -0.032157 0.040496
0.517893 0.068872 0.066932
0.602788 -0.022129 0.030948
0.545285 -0.054371 0.008129
0.598383 0.015476 0.059918
0.514644 0.017652 0.047915
0.522104 0.013400 0.010330
0.577095 -0.053470 0.039909
0.590881 0.045854 0.038511
0.560074 -0.063919 0.017269
0.548986 0.094126 0.072890
0.598894 0.034627 0.042856
0.518379 0.066487 0.067243
0.581222 0.068096 0.059416
0.521024 -0.008107 0.048401
0.563777 0.036008 0.083303
0.525267 0.031796 0.014702
0.531608 0.046802 0.018483
0.601737 0.019973 0.052039
0.523712 -0.030863 0.018726
0.597452 0.025228 0.061881
0.578827 0.060261 0.036965
0.536371 0.030788 0.077413
0.515732 -0.002867 0.018547
0.519528 -0.021649 0.028478
0.554515 -0.061125 0.023032
0.519104 0.089043 0.037017
0.513198 0.065663 0.057318
0.531141 0.008570 0.002785
0.512966 0.092923 0.058151
0.515459 -0.007203 0.034607
0.542445 0.099624 0.069803
0.534435 0.047103 0.017791
0.589055 0.019271 0.070415
0.555748 0.015184 -0.000332
0.588635 -0.021840 -0.003987
0.526025 -0.019428 0.003759
0.600593 0.004830 0.054483
0.569815 0.081600 0.062044
0.559387 0.078870 0.039262
0.530006 -0.017617 0.055354
0.584355 0.036366 0.074147
0.542859 0.077232 0.080310
0.525934 -0.034606 0.022898
0.512415 0.029656 0.037681
0.527571 -0.007372 0.001864
0.535876 0.105801 0.060689
0.572135 0.060456 0.077422
0.570318 0.020663 0.004698
0.538568 0.094928 0.039399
0.560112 0.068699 0.080762
0.528556 -0.038396 0.023542
0.589049 -0.000082 0.067569
0.530093 -0.017814 0.055331
0.515450 0.038676 0.055675
0.535282 0.037148 0.012844
0.514891 0.026575 0.050869
0.599195 -0.039339 0.018917
0.525449 -0.031009 0.011461
0.564861 0.073158 0.077506
0.519426 0.004170 0.011215
0.576025 0.072131 0.068207
0.521186 -0.026148 0.024372
0.555371 0.025671 0.004795
0.513206 0.018845 0.025383
0.588235 -0.035399 -0.003471
0.590407 -0.013090 -0.000740
0.569552 -0.017301 0.070366
0.551262 -0.002199 -0.006803
0.591260 0.044875 0.038064
0.539139 -0.048072 0.030864
0.594028 -0.000694 0.062841
0.598510 -0.029109 0.039961
0.534859 -0.031488 0.050119
0.520381 0.057659 0.029188
0.598215 -0.035859 0.033552
0.596107 0.017726 0.063416
0.516849 -0.000547 0.045029
0.530526 0.056989 0.077232
0.532136 -0.007778 0.062738
0.552440 0.004581 0.078103
0.556687 -0.055170 -0.000237
0.555818 0.001617 0.077850
0.548696 -0.002786 -0.006563
0.570148 -0.003536 -0.006707
0.567643 -0.037008 -0.010510
0.555685 0.027087 0.005538
0.604003 0.008699 0.043221
0.541351 -0.048636 0.033834
0.527490 0.008493 0.064327
0.538924 -0.012727 -0.005582
0.583767 -0.046156 -0.002543
0.549876 0.089702 0.042115
0.604242 0.007248 0.031593
0.535708 -0.026948 0.054802
0.512091 0.014401 0.031013
0.544191 0.103027 0.059480
0.529707 0.029430 0.011327
0.561250 0.075985 0.078226
0.528502 0.018634 0.068384
0.595286 0.022160 0.023411
0.542892 0.026481 0.079844
0.572192 -0.036677 0.058651
0.602921 -0.008125 0.045243
0.547164 -0.011665 0.070700
0.598412 0.032782 0.058995
0.580173 -0.009443 0.070168
0.603536 -0.007557 0.022615
0.517818 0.019274 0.054818
0.602535 0.020086 0.038179
0.562581 0.083919 0.073750
0.574706 -0.064449 0.019845
0.526747 0.080152 0.074755
0.593873 -0.028173 0.000496
0.536158 -0.043026 0.035494
0.523767 -0.026908 0.035425
0.579422 0.061736 0.039437
0.515770 0.012877 0.049018
0.519260 -0.007244 0.045741
0.523967 0.090408 0.070764
0.512194 0.015577 0.037757
0.567677 -0.038543 -0.010164
0.545831 0.050328 0.083174
0.540763 0.103569 0.064763
0.562119 -0.047622 -0.007074
0.531714 -0.025896 -0.000232
0.546445 0.067941 0.082327
0.538545 -0.039139 -0.001122
0.517266 0.012247 0.051664
0.545195 0.087102 0.077090
0.602574 0.006583 0.049579
0.573596 0.050327 0.078864
0.585025 -0.019877 0.062707
0.553188 0.024932 0.004381
0.595878 -0.008854 0.006330
0.534950 0.103750 0.065533
0.534715 -0.005111 -0.002446
0.576647 -0.038920 -0.008472
0.569537 0.044797 0.081429
0.570696 0.039227 0.015516
0.561823 0.040738 0.013985
0.529913 0.058537 0.076956
0.531991 -0.043291 0.021459
0.512766 0.038038 0.040825
0.519784 -0.017453 0.037634
0.594130 -0.049222 0.022803
0.567319 0.052155 0.023085
0.569607 -0.002274 -0.006312
0.582010 0.053339 0.033500
0.583842 0.044006 0.073768
0.512833 0.004666 0.030030
0.512296 0.010275 0.030564
0.563136 0.076738 0.077111
0.565749 0.034422 0.011214
0.514885 0.063494 0.060968
0.529476 0.054104 0.076273
0.513930 0.088983 0.041366
0.575232 0.073295 0.068141
0.587017 0.028261 0.018384
0.596523 0.037431 0.039912
0.581289 -0.053037 0.037848
0.575136 -0.058185 0.034482
0.596102 -0.008327 0.006818
0.522376 0.104657 0.046448
0.580877 0.041584 0.076025
0.603664 0.012078 0.043519
0.523008 0.027001 0.064542
0.588140 -0.039889 -0.002155
0.551713 0.095498 0.049762
0.542571 -0.046445 0.000456
0.543819 0.001392 0.074284
0.529667 -0.039918 0.015257
0.534330 -0.020134 -0.003157
0.559172 0.055627 0.022803
0.558687 -0.060458 0.029769
0.562519 -0.064572 0.019136
0.559956 0.064961 0.029295
0.595176 0.019096 0.064632
0.546151 -0.043601 0.046749
0.564389 -0.039735 -0.009964
0.597525 -0.043348 0.017146
0.598006 0.012621 0.060206
0.595587 0.023898 0.025252
0.603299 0.013488 0.033284
0.578409 -0.017048 0.067804
0.601816 -0.028837 0.025762
0.565929 -0.060535 0.032395
0.599729 0.022674 0.031380
0.578301 -0.007177 0.071798
0.572868 0.024429 0.079892
0.581975 -0.046436 -0.003467
0.586343 0.044025 0.030001
0.564566 0.021212 0.003654
0.581033 -0.000476 -0.002268
0.542575 0.087135 0.077080
0.603666 0.007825 0.045358
0.579806 -0.024711 0.063155
0.601716 -0.024354 0.015431
0.542275 0.007814 0.075482
0.527469 -0.035698 0.028196
0.599126 0.020775 0.028385
0.551648 0.032478 0.008206
0.570045 0.067052 0.035803
0.542472 0.088129 0.037365
0.552845 0.051138 0.018521
0.530155 -0.028373 0.002113
0.528774 -0.038300 0.025373
0.571970 -0.041309 0.054936
0.549797 -0.059140 0.019192
0.532572 0.064574 0.025716
0.514631 0.005669 0.020058
0.560708 -0.024268 -0.011562
0.576732 -0.034182 0.058682
0.586821 -0.026552 0.057396
0.523355 0.102449 0.062120
0.540391 -0.045987 0.002069
0.513721 0.009292 0.022617
0.569133 -0.043511 0.053552
0.533413 -0.023536 0.055140
