ply
format ascii 1.0
element vertex 1024
property float x
property float y
property float z
end_header
0.564396 0.038020 0.084536
0.593904 -0.034222 0.050674
0.594810 -0.039083 0.049146
0.547982 0.095562 0.032720
0.545757 -0.035631 0.006220
0.594280 0.018776 0.046140
0.558224 0.090600 0.033261
0.505870 0.021963 0.039149
0.599229 -0.033045 0.024523
0.585137 0.013452 0.023441
0.512025 0.052815 0.020071
0.514424 0.089435 0.049416
0.532145 -0.032994 0.018159
0.529844 -0.005394 0.002445
0.520089 0.042457 0.009057
0.575321 0.014893 0.013625
0.595943 -0.001873 0.042540
0.541332 0.091104 0.025120
0.565218 0.074093 0.078618
0.542091 0.055518 0.007254
0.524643 -0.007585 0.005897
0.586759 -0.059331 0.012964
0.548933 0.101003 0.059169
0.570048 -0.044597 0.054202
0.604798 -0.050393 0.034918
0.563580 0.009290 0.078170
0.549938 0.074399 0.082580
0.525183 0.046022 0.079902
0.536619 -0.000740 0.071310
0.541471 0.069264 0.083529
0.578190 0.005226 0.014180
0.544514 0.041123 0.004249
0.544161 -0.043606 0.011969
0.552960 -0.053658 0.035564
0.513463 0.035020 0.068326
0.522543 -0.009254 0.053639
0.572165 0.003867 0.009550
0.539898 0.066612 0.010569
0.533153 0.062786 0.082824
0.552860 -0.041440 0.006617
0.519842 0.086050 0.029092
0.505223 0.051811 0.051537
0.531591 0.023176 0.079097
0.523231 0.079674 0.021433
0.543414 0.093111 0.027661
0.532107 0.057574 0.008504
0.538782 -0.031670 0.007430
0.526806 0.013915 0.073164
0.561569 0.091244 0.039101
0.603493 -0.046790 0.038520
0.604376 -0.044655 0.035878
0.514749 0.058761 0.019293
0.511351 0.013681 0.054150
0.572433 -0.001856 0.072355
0.521571 0.070281 0.017996
0.526299 -0.002125 0.063980
0.521324 0.079415 0.072286
0.572835 0.079054 0.067864
0.529717 0.040549 0.081969
0.581551 0.040196 0.075769
0.505801 0.025362 0.046040
0.519500 -0.014296 0.021891
0.538069 -0.026657 0.005326
0.574035 0.078167 0.041157
0.506478 0.064132 0.041002
0.552216 0.091005 0.028667
0.550199 0.100413 0.044938
0.531145 0.093308 0.028643
0.523078 0.089039 0.028785
0.504652 0.044442 0.035343
0.566858 -0.064038 0.020058
0.504610 0.041131 0.034559
0.520143 0.020557 0.006574
0.572223 0.028382 0.014071
0.563140 -0.045689 0.006768
0.549645 0.085542 0.078085
0.594707 -0.000695 0.052194
0.558747 -0.038122 0.056398
0.534442 0.099527 0.036762
0.509922 0.032960 0.018958
0.546782 -0.037548 0.051373
0.557352 0.046882 0.008650
0.553660 -0.035522 0.056594
0.546777 -0.032621 0.004788
0.596029 -0.041709 0.016550
0.553729 0.009587 0.001265
0.579189 -0.029148 0.009275
0.562300 0.088275 0.034979
0.526900 0.002870 0.002600
0.538007 -0.033311 0.048217
0.541509 -0.038983 0.010391
0.541116 0.064334 0.009840
0.521429 0.043675 0.077610
0.525264 0.026057 0.003985
0.551881 0.092887 0.071387
0.537208 -0.040864 0.030024
0.531352 0.070852 0.080652
0.518959 0.037067 0.008997
0.553563 0.085326 0.023546
0.564581 -0.015547 0.003309
0.536456 0.102220 0.061169
0.536877 0.021593 0.080531
0.578258 0.073157 0.064112
0.579287 0.040760 0.077665
0.593343 0.028923 0.051093
0.535867 0.065639 0.083198
0.504526 0.037412 0.034748
0.514497 0.018188 0.012343
0.579646 -0.021119 0.063043
0.544857 0.039046 0.086113
0.532303 0.049976 0.083432
0.510968 0.065067 0.027805
0.568150 0.074348 0.027455
0.515854 0.075006 0.068303
0.586237 0.029465 0.030392
0.562691 0.014437 0.004995
0.534781 0.084323 0.019475
0.590163 0.044926 0.051350
0.582203 0.062456 0.068012
0.543251 0.033200 0.084934
0.522899 0.034854 0.077542
0.577338 0.054810 0.077642
0.553789 -0.007954 0.071665
0.525931 0.022132 0.075785
0.515464 0.018164 0.064718
0.582136 -0.017823 0.062920
0.577597 0.028066 0.018702
0.535759 -0.023218 0.004932
0.541140 0.048605 0.086212
0.582825 -0.010407 0.064721
0.556964 0.098004 0.053125
0.590767 0.032776 0.063887
0.555136 -0.014408 0.068862
0.550981 0.005351 0.000439
0.522350 0.045709 0.078233
0.531965 0.071560 0.013267
0.557132 0.078169 0.020360
0.563045 -0.018621 0.067177
0.520604 0.056875 0.076588
0.556918 -0.003728 0.001122
0.552103 0.093132 0.031489
0.540907 0.097099 0.069218
0.514278 0.029116 0.012975
0.586152 -0.002730 0.020204
0.566387 0.085282 0.036766
0.588988 -0.026945 0.016007
0.565199 -0.063421 0.023162
0.539432 -0.027673 0.005184
0.597336 -0.058823 0.017556
0.545766 0.040244 0.004249
0.533087 0.098408 0.066953
0.517136 0.088703 0.061707
0.532713 0.101068 0.062491
0.575581 0.079755 0.057558
0.546450 0.086249 0.077919
0.509561 0.009145 0.039499
0.568077 0.023759 0.009851
0.588370 -0.066743 0.022701
0.534576 0.009119 0.075151
0.580718 -0.039999 0.055627
0.585573 0.032974 0.072027
0.539502 0.033345 0.084220
0.527351 0.076657 0.077267
0.581232 0.070012 0.058085
0.554117 -0.055976 0.031114
0.559414 0.011578 0.003170
0.530719 0.024999 0.079286
0.516647 0.077032 0.026185
0.540893 -0.045097 0.029023
0.569441 0.061444 0.080998
0.581068 0.061368 0.070975
0.505967 0.061245 0.049295
0.596635 -0.025606 0.024911
0.549545 0.076684 0.016241
0.533705 0.075359 0.080349
0.566358 0.035092 0.083781
0.541209 -0.025179 0.058279
0.544331 0.081293 0.080259
0.560828 -0.009562 0.071082
0.515270 0.087414 0.058999
0.559988 -0.028975 0.003001
0.556575 0.049475 0.086182
0.532293 0.071715 0.080804
0.517647 0.050364 0.013035
0.577013 -0.024561 0.008678
0.575694 0.001711 0.072528
0.578710 -0.051010 0.008442
0.531084 0.076221 0.015518
0.578804 0.016023 0.075571
0.600825 -0.042951 0.020810
0.514895 0.070882 0.068799
0.544504 0.001653 -0.000182
0.533079 0.037870 0.003439
0.563024 -0.003835 0.073282
0.582120 0.068638 0.053919
0.569901 0.075285 0.074715
0.572657 0.032636 0.081360
0.529798 -0.028741 0.015646
0.571255 0.039416 0.016089
0.564077 0.009461 0.005109
0.560179 0.055044 0.012385
0.553381 0.086786 0.024771
0.505808 0.042403 0.054876
0.560497 0.075600 0.021052
0.509728 0.020971 0.056259
0.547866 0.100296 0.061943
0.538905 -0.039582 0.040426
0.506060 0.022654 0.032825
0.520493 -0.016983 0.032890
0.523143 0.051144 0.078602
0.519529 0.026802 0.072608
0.589053 0.049650 0.054082
0.567486 -0.064316 0.020157
0.571001 0.070742 0.028364
0.533853 0.089941 0.074435
0.514615 0.084803 0.035775
0.535825 -0.039158 0.030861
0.518898 0.001472 0.057897
0.597192 -0.016350 0.044534
0.588517 0.021401 0.031390
0.570889 0.074861 0.031455
0.605432 -0.048990 0.030461
0.560835 0.087708 0.032178
0.556458 0.027323 0.084050
0.572576 -0.063715 0.035501
0.587885 -0.066901 0.022916
0.554218 0.064584 0.012571
0.589473 0.044735 0.061864
0.569381 0.003594 0.007636
0.504981 0.048971 0.051023
0.592658 -0.012696 0.054671
0.513072 0.040112 0.069125
0.535529 -0.016929 0.060753
0.577032 0.071495 0.038846
0.514760 0.003678 0.051908
0.516961 -0.006513 0.017336
0.511736 0.069013 0.028638
0.566237 0.042765 0.013049
0.528559 0.019695 0.002241
0.600050 -0.028465 0.040968
0.535932 0.017295 0.000901
0.568524 0.006445 0.007433
0.522000 0.034434 0.006623
0.518835 0.007740 0.062832
0.521113 0.050553 0.010591
0.575758 -0.053200 0.048869
0.545680 0.101524 0.060649
0.567367 -0.006577 0.071700
0.576619 0.062011 0.030356
0.583386 0.051754 0.035444
0.581924 -0.063595 0.015354
0.585623 -0.001305 0.019974
0.597274 -0.012838 0.040579
0.590612 0.038741 0.045421
0.553860 0.098962 0.058560
0.510947 0.007809 0.045278
0.508327 0.070469 0.054357
0.509524 0.053787 0.064868
0.509120 0.075927 0.050984
0.578554 0.074272 0.060571
0.587160 -0.056008 0.046061
0.592912 0.023637 0.059912
0.517460 0.037003 0.073486
0.552114 -0.020368 0.001371
0.519135 0.000618 0.057502
0.560128 0.061649 0.084082
0.526305 0.010165 0.071156
0.506113 0.021873 0.042861
0.509179 0.009711 0.034616
0.574407 -0.060739 0.012956
0.593682 0.021122 0.044527
0.558574 -0.059828 0.025165
0.509129 0.019172 0.022231
0.540149 0.102227 0.042614
0.550750 -0.006068 0.072253
0.520517 0.037330 0.076272
0.591690 -0.031002 0.053104
0.536279 0.018038 0.079185
0.593222 0.020438 0.042172
0.514711 0.000160 0.017169
0.530091 -0.030221 0.018154
0.567971 -0.058712 0.012269
0.545130 0.071129 0.083383
0.575241 0.072470 0.036298
0.578587 0.046296 0.077846
0.539868 -0.026072 0.004389
0.575167 0.078563 0.045303
0.550942 -0.028163 0.060647
0.585581 0.051738 0.068142
0.564413 0.092395 0.056205
0.595128 -0.056148 0.043386
0.518978 0.094430 0.057052
0.518024 0.073613 0.022777
0.566641 -0.052262 0.008904
0.545787 -0.001015 -0.000184
0.557641 0.070931 0.016774
0.545981 0.067539 0.011442
0.508456 0.012332 0.039127
0.584395 -0.011773 0.015922
0.506597 0.062058 0.053182
0.537554 0.028047 0.082549
0.523406 -0.017755 0.013874
0.589613 0.044691 0.061328
0.508692 0.066130 0.058983
0.555826 0.094117 0.067432
0.583011 0.055771 0.070916
0.591651 0.025567 0.039956
0.594783 0.009547 0.042419
0.509999 0.047499 0.065771
0.529887 -0.000363 0.001771
0.585437 -0.024193 0.013902
0.567021 0.000495 0.005792
0.508809 0.044135 0.022215
0.522324 -0.010082 0.052474
0.593382 0.022030 0.043781
0.560892 -0.039772 0.055830
0.538784 0.078610 0.080577
0.512096 0.084546 0.051391
0.590722 -0.020429 0.055861
0.525662 -0.020912 0.045616
0.561620 -0.038969 0.056513
0.544046 0.099218 0.065772
0.526770 0.101148 0.047696
0.527366 0.068413 0.013736
0.546994 0.059849 0.085676
0.531251 -0.024566 0.050224
0.588119 0.041603 0.039782
0.590379 -0.021398 0.019017
0.554881 0.093647 0.068855
0.580318 -0.045283 0.008224
0.558633 0.096906 0.053072
0.507538 0.015148 0.037378
0.540454 0.006475 0.000011
0.543979 -0.035119 0.006643
0.546952 -0.035438 0.053416
0.582613 0.033703 0.026313
0.507534 0.025553 0.053519
0.532205 0.099812 0.064602
0.564737 0.028402 0.083195
0.508441 0.022766 0.023011
0.509621 0.058289 0.026635
0.511304 0.028213 0.016926
0.530820 0.057008 0.082463
0.511808 0.062700 0.067140
0.564673 0.080137 0.028229
0.569171 -0.065166 0.022962
0.580853 0.038293 0.076482
0.589226 -0.064516 0.018283
0.522436 -0.019795 0.036391
0.593106 -0.008847 0.054515
0.558118 -0.026412 0.063228
0.506135 0.028906 0.028279
0.590090 0.042842 0.060927
0.506653 0.019699 0.032534
0.510185 0.072955 0.058870
0.592541 0.017412 0.061127
0.531606 0.100153 0.063706
0.525072 0.048770 0.007995
0.592262 0.029463 0.060570
0.541979 0.102779 0.059298
0.539733 0.051920 0.006243
0.505501 0.058619 0.041889
0.519899 0.022176 0.071320
0.593071 -0.064317 0.036149
0.551454 -0.029296 0.003099
0.516119 0.065513 0.071761
0.581315 0.005740 0.071007
0.600526 -0.034777 0.042215
0.521516 -0.007408 0.053775
0.583978 -0.032005 0.011470
0.506828 0.063052 0.053649
0.567223 -0.034759 0.059494
0.541266 0.024229 0.001485
0.563576 0.028217 0.083383
0.568580 0.029332 0.082410
0.561307 0.092584 0.064334
0.567617 -0.036880 0.005004
0.595921 -0.020335 0.048749
0.562315 0.009653 0.004221
0.535220 0.065694 0.010550
0.546846 0.036801 0.003787
0.549118 0.076704 0.016125
0.595298 -0.003745 0.049776
0.537346 -0.039212 0.016911
0.569867 -0.039525 0.005664
0.542052 0.074364 0.082324
0.595939 -0.060393 0.017693
0.522415 0.057703 0.012336
0.519372 0.010860 0.065487
0.597844 -0.057419 0.040966
0.545003 -0.044739 0.041018
0.598890 -0.034233 0.044926
0.588405 0.015818 0.067541
0.573622 0.075358 0.036447
0.511386 0.046605 0.067916
0.548224 0.050812 0.086717
0.584441 0.011496 0.070485
0.526225 0.076322 0.017712
0.556949 0.058498 0.011719
0.523825 0.011995 0.003704
0.536101 0.065684 0.010431
0.505044 0.038631 0.031724
0.555270 0.057659 0.010735
0.527694 0.049198 0.007154
0.548243 0.100578 0.060989
0.549870 0.091653 0.028168
0.583786 -0.039479 0.010093
0.529765 -0.016683 0.056116
0.595558 -0.039629 0.017033
0.543542 0.018562 0.081099
0.557931 -0.032021 0.060052
0.581084 -0.040120 0.008844
0.521895 0.097013 0.058307
0.590028 -0.005636 0.059534
0.557978 0.032364 0.005794
0.593333 -0.004164 0.054891
0.520231 0.055005 0.076482
0.533441 -0.003751 0.068064
0.577852 -0.063236 0.038908
0.601451 -0.040454 0.041618
0.557963 0.018399 0.003514
0.595699 -0.050235 0.045830
0.585699 0.004379 0.021622
0.580327 0.055679 0.032290
0.517531 0.020458 0.008914
0.535895 0.069887 0.082351
0.524551 -0.022095 0.040171
0.567730 0.007207 0.007016
0.578282 0.072762 0.043824
0.557971 -0.001907 0.074325
0.558325 0.052078 0.010481
0.515640 0.040337 0.012281
0.552323 -0.043331 0.049416
0.601710 -0.047818 0.041202
0.572032 -0.064606 0.032647
0.505456 0.039875 0.030076
0.511525 0.043882 0.017730
0.537762 -0.019518 0.060353
0.533589 0.053822 0.083862
0.507375 0.061025 0.057340
0.531919 0.012559 0.075412
0.554504 -0.046944 0.047117
0.543646 -0.040021 0.046084
0.586085 -0.067421 0.023952
0.600649 -0.035836 0.042225
0.581870 -0.055025 0.009953
0.507874 0.013939 0.035989
0.570755 -0.036728 0.058479
0.584699 -0.061072 0.042193
0.568893 0.087734 0.049117
0.591985 0.036031 0.057336
0.537905 0.099797 0.036964
0.568961 0.071751 0.026607
0.529586 0.005572 0.001509
0.533360 0.074665 0.080430
0.560227 0.081768 0.025180
0.570004 -0.000909 0.073346
0.540592 0.057484 0.007729
0.545279 -0.016021 0.066159
0.550274 -0.017299 0.000918
0.573510 0.066282 0.076732
0.594028 -0.018372 0.024848
0.513404 0.027726 0.014029
0.541549 0.031935 0.084372
0.526288 -0.025608 0.037360
0.512732 0.041746 0.069034
0.525024 0.073274 0.076882
0.515532 0.072370 0.069000
0.514849 0.002442 0.050658
0.533639 -0.005515 0.067116
0.516221 0.088737 0.059748
0.526534 -0.011606 0.056882
0.584369 0.016901 0.023391
0.596016 -0.003617 0.045473
0.521427 0.056930 0.012663
0.552694 0.064408 0.011964
0.548647 0.008026 0.000357
0.580317 0.027976 0.076627
0.584280 0.011306 0.021697
0.539737 0.089314 0.023248
0.594602 0.015194 0.045394
0.574573 -0.030615 0.006871
0.587537 0.017518 0.068856
0.542008 0.047449 0.086358
0.545057 -0.035291 0.006314
0.531196 0.075239 0.079478
0.512486 0.082673 0.038377
0.534335 -0.022448 0.005305
0.542814 0.096807 0.032695
0.527579 0.005952 0.002154
0.504927 0.045843 0.034199
0.566109 0.090146 0.060675
0.581565 -0.011567 0.065146
0.528009 0.090972 0.071454
0.504653 0.047039 0.036583
0.523546 0.050037 0.078886
0.560568 0.042891 0.009221
0.511774 0.002596 0.029683
0.550732 0.101171 0.049222
0.529102 0.080867 0.018772
0.548871 0.005726 0.000229
0.535932 0.063197 0.083652
0.540156 -0.010314 0.000625
0.566884 -0.051070 0.049033
0.595371 -0.000304 0.049637
0.516492 0.006696 0.010503
0.579821 0.030925 0.077202
0.524120 -0.006477 0.005967
0.545528 0.027913 0.084045
0.540805 0.055280 0.007131
0.595787 -0.004859 0.047590
0.508093 0.023119 0.023861
0.581565 -0.008640 0.014243
0.544877 0.015223 0.000705
0.522920 -0.018588 0.042283
0.518207 0.046561 0.011409
0.595727 -0.021317 0.025931
0.600706 -0.060599 0.023817
0.566902 0.009494 0.077769
0.598275 -0.022754 0.043690
0.505710 0.060753 0.045643
0.522224 0.033574 0.076774
0.520283 0.092953 0.037362
0.537824 0.102882 0.059578
0.567839 -0.060911 0.037617
0.514999 0.010137 0.058761
0.541421 0.079668 0.016326
0.557325 -0.049919 0.045743
0.512822 0.006363 0.017863
0.544223 0.103292 0.055748
0.579797 -0.004824 0.013625
0.589343 -0.041270 0.052067
0.515061 0.087812 0.057937
0.586166 -0.030519 0.056947
0.528454 0.004495 0.001911
0.524105 0.038075 0.005980
0.506096 0.051872 0.055739
0.515334 0.013151 0.011244
0.508287 0.037505 0.060505
0.578550 -0.046771 0.052824
0.574436 0.064711 0.028956
0.518814 0.003079 0.008398
0.592004 -0.036657 0.051748
0.551247 0.005925 0.000514
0.530582 0.085669 0.075474
0.523966 0.062043 0.078249
0.577283 0.076879 0.058989
0.574736 0.075779 0.039243
0.593293 0.004343 0.034704
0.508485 0.026365 0.022180
0.537162 0.102844 0.059591
0.546201 -0.019394 0.064494
0.565314 0.074647 0.024598
0.558816 0.089846 0.071317
0.558348 0.058976 0.012579
0.536764 0.014658 0.000648
0.575604 -0.030187 0.060861
0.545176 0.077069 0.081772
0.595270 0.009447 0.048197
0.581900 0.031712 0.075621
0.573880 -0.031349 0.060680
0.520391 0.021842 0.071626
0.584811 0.019715 0.024855
0.514864 0.001481 0.015639
0.527391 0.086282 0.023378
0.521374 0.011678 0.067985
0.513544 0.008262 0.054052
0.553273 0.099953 0.055249
0.540448 0.082167 0.079547
0.550183 -0.052584 0.015899
0.552771 0.093600 0.032706
0.575292 -0.043281 0.006968
0.594132 0.001002 0.054153
0.578081 0.051354 0.077645
0.538440 -0.024541 0.004327
0.512017 0.010804 0.017718
0.548693 0.021620 0.001774
0.560865 0.042728 0.009340
0.530600 -0.028750 0.013772
0.534274 -0.028301 0.049753
0.570998 0.023433 0.011989
0.532352 0.044510 0.083336
0.524388 -0.015100 0.050713
0.524749 0.098598 0.042314
0.550102 0.001849 0.000135
0.547839 0.006987 0.000213
0.527835 -0.028379 0.034681
0.509406 0.077558 0.044311
0.589954 0.003439 0.027642
0.566181 -0.030411 0.004084
0.581648 0.038788 0.026728
0.538112 0.033060 0.002498
0.586769 0.029945 0.070708
0.543762 0.082029 0.079940
0.554989 -0.019961 0.001427
0.577015 0.063611 0.074857
0.516324 0.047294 0.073726
0.580274 0.030556 0.022295
0.519419 -0.013020 0.018792
0.516112 -0.008281 0.031488
0.576164 -0.013140 0.067113
0.509640 0.039191 0.019750
0.544158 -0.048675 0.025739
0.539445 -0.010021 0.067449
0.561930 0.085301 0.030450
0.520872 0.044398 0.008982
0.603216 -0.056202 0.035284
0.586902 0.052097 0.064621
0.506587 0.064180 0.040210
0.506284 0.055616 0.033860
0.543147 0.036033 0.085445
0.562252 0.025313 0.006435
0.547695 -0.023477 0.002108
0.526959 -0.002911 0.064023
0.564608 -0.034212 0.059680
0.532641 -0.006768 0.065708
0.508047 0.053829 0.027635
0.538196 0.065158 0.083847
0.518642 0.002538 0.008744
0.521139 0.009480 0.066564
0.593116 0.030397 0.051121
0.576254 -0.000263 0.011813
0.550188 -0.007269 0.000069
0.547091 0.070697 0.012876
0.564186 -0.061436 0.016126
0.584917 0.062156 0.054185
0.518000 0.008781 0.008330
0.552949 -0.053210 0.013723
0.544788 0.084951 0.078643
0.598418 -0.059442 0.038826
0.521229 -0.018197 0.033795
0.593838 -0.025636 0.021181
0.517865 0.053074 0.074861
0.593359 -0.021043 0.052752
0.535906 -0.007935 0.001030
0.524435 0.073391 0.076479
0.554350 0.060879 0.085148
0.592047 0.018612 0.062292
0.578271 0.007609 0.073412
0.524822 -0.024376 0.028863
0.512719 0.017325 0.015012
0.583672 0.059664 0.042227
0.536632 0.061102 0.084171
0.543703 0.060258 0.008732
0.564275 -0.048073 0.007497
0.517183 0.047833 0.074486
0.581235 0.069971 0.050527
0.535853 -0.009442 0.001262
0.520275 -0.014109 0.042124
0.597702 -0.016403 0.035106
0.522464 0.085480 0.070562
0.550114 -0.013217 0.000445
0.571491 -0.046106 0.053382
0.521254 -0.009073 0.010108
0.517587 0.015020 0.008533
0.562605 0.084635 0.030480
0.589616 0.029363 0.036808
0.544878 0.090232 0.024816
0.562289 0.075399 0.079478
0.524513 0.072728 0.017034
0.560034 -0.017285 0.001909
0.576438 -0.017196 0.065579
0.602779 -0.040766 0.039085
0.514216 0.024383 0.012938
0.522515 0.095781 0.062044
0.596133 -0.046366 0.015071
0.532206 0.003353 0.071342
0.596113 -0.003547 0.043285
0.545818 0.063417 0.085041
0.538749 0.088101 0.022144
0.588255 0.033346 0.035749
0.527091 0.064497 0.012424
0.540230 -0.023573 0.003429
0.538312 -0.041832 0.032143
0.562784 -0.003015 0.003215
0.595806 -0.025445 0.023795
0.568288 0.075736 0.075775
0.530726 -0.032222 0.034960
0.565506 -0.042850 0.054767
0.550038 0.101381 0.048648
0.524493 0.089133 0.027728
0.542482 -0.033912 0.006716
0.519531 0.007407 0.006942
0.504065 0.039575 0.041427
0.588895 -0.054059 0.011417
0.566169 0.060969 0.082487
0.507064 0.020462 0.028856
0.599885 -0.038708 0.022043
0.527096 0.010348 0.002244
0.558893 0.081728 0.077883
0.527675 -0.025541 0.042589
0.564565 0.056174 0.083876
0.532959 -0.034245 0.037789
0.589446 0.047356 0.050525
0.560746 -0.059024 0.034154
0.515966 0.007328 0.011122
0.542225 0.075486 0.014260
0.591960 -0.040609 0.014210
0.591254 -0.066577 0.026974
0.576437 -0.067422 0.023689
0.519626 0.054360 0.012943
0.578584 0.068538 0.069220
0.561556 0.091569 0.066085
0.517760 0.092411 0.041705
0.521625 0.042791 0.077704
0.556138 0.030748 0.084802
0.565416 0.064724 0.081817
0.578324 0.011863 0.015542
0.558141 0.049454 0.085949
0.579604 0.071115 0.045311
0.581296 0.047086 0.075308
0.522265 -0.003380 0.058556
0.534227 0.005399 0.073336
0.541677 -0.006413 0.070269
0.523993 0.090911 0.068684
0.560680 0.043280 0.009377
0.561415 0.030082 0.084077
0.555489 0.033076 0.005071
0.602075 -0.040019 0.040407
0.540324 0.061786 0.008998
0.572247 -0.017486 0.066594
0.558044 -0.032422 0.003539
0.583782 0.054376 0.070273
0.557739 0.032910 0.085047
0.564162 0.018096 0.006319
0.582654 0.060187 0.068980
0.527718 0.091231 0.071118
0.547826 0.101804 0.057907
0.559307 -0.049764 0.008840
0.518932 0.031041 0.073353
0.530373 0.088150 0.074189
0.512154 0.007597 0.019027
0.504482 0.050271 0.045085
0.602066 -0.033752 0.037138
0.524847 0.072913 0.016917
0.604173 -0.052953 0.023971
0.587969 -0.029571 0.056152
0.548798 -0.044253 0.009296
0.567732 0.031892 0.083023
0.509420 0.066007 0.031442
0.599445 -0.062834 0.029168
0.544931 0.021858 0.082331
0.513915 0.010434 0.013822
0.571627 0.084924 0.050945
0.601636 -0.031118 0.035314
0.546948 0.064121 0.010408
0.535081 0.009304 0.000464
0.574943 -0.067049 0.022790
0.553706 -0.047785 0.009324
0.506087 0.046133 0.029520
0.551365 0.044245 0.006150
0.509096 0.010179 0.038021
0.549083 0.101762 0.048681
0.582300 -0.051977 0.049370
0.533168 -0.035956 0.027336
0.567920 -0.009229 0.005322
0.569150 0.075173 0.075422
0.582540 0.067327 0.051036
0.554703 0.064502 0.012737
0.574749 -0.009550 0.068846
0.562705 0.064070 0.082909
0.565761 0.039084 0.084267
0.510418 0.080714 0.049095
0.565252 0.065702 0.019998
0.519293 0.037919 0.008852
0.557710 0.033452 0.005896
0.554045 -0.025261 0.063206
0.514784 0.027146 0.012338
0.558799 -0.053213 0.042733
0.563175 -0.062356 0.024614
0.543242 -0.029246 0.056334
0.560734 0.038906 0.085365
0.582936 0.064934 0.062462
0.580917 0.070651 0.050710
0.520925 -0.016765 0.038093
0.591938 0.000335 0.058424
0.542840 0.009171 0.000121
0.520914 0.028669 0.006756
0.567877 0.053545 0.017652
0.511628 0.077815 0.058947
0.590147 0.039960 0.044687
0.582033 -0.066247 0.034677
0.591524 0.038192 0.049638
0.597401 -0.061114 0.037883
0.571162 0.041747 0.016651
0.544279 0.058130 0.085843
0.562487 0.007786 0.077755
0.519325 -0.013803 0.021433
0.597116 -0.051725 0.015094
0.506651 0.057613 0.056076
0.593118 -0.066063 0.027219
0.504311 0.043977 0.037980
0.586840 -0.066867 0.021772
0.541967 0.067146 0.010838
0.505244 0.043032 0.052691
0.538601 0.031147 0.083554
0.586202 0.053280 0.065738
0.524368 -0.002515 0.061788
0.512842 0.073868 0.029713
0.577897 -0.039853 0.007675
0.580857 0.004642 0.070927
0.519819 0.093346 0.038952
0.541480 0.081556 0.079913
0.540734 -0.035422 0.048612
0.568142 -0.064089 0.028496
0.551527 0.051538 0.086546
0.577817 -0.044794 0.053950
0.513349 0.063292 0.023214
0.554501 0.091311 0.072086
0.510549 0.015835 0.019627
0.574097 0.005760 0.074592
0.592662 0.033165 0.054826
0.512892 0.077347 0.062264
0.540647 0.003848 -0.000063
0.535304 0.095943 0.070224
0.562629 -0.062144 0.020658
0.528465 0.011413 0.001807
0.576432 -0.043045 0.054970
0.541100 -0.027818 0.004641
0.560304 0.026607 0.083516
0.525057 -0.020666 0.044591
0.594326 0.016867 0.044870
0.593080 0.004145 0.034086
0.515214 0.017742 0.011371
0.570055 0.062669 0.080335
0.513372 0.006923 0.016105
0.554760 -0.008627 0.000606
0.545018 -0.018183 0.064801
0.585498 0.039606 0.071558
0.569636 0.048857 0.082898
0.536119 0.089258 0.075377
0.604186 -0.042107 0.029441
0.586121 -0.037375 0.054835
0.590021 0.043155 0.047399
0.595556 -0.059033 0.041206
0.573438 0.033205 0.081065
0.570944 -0.065758 0.021238
0.591798 0.004859 0.031554
0.511044 0.004809 0.029101
0.578380 0.044514 0.024560
0.545932 0.081541 0.018091
0.582616 0.063292 0.066125
0.508873 0.027778 0.021151
0.551690 -0.041996 0.007138
0.572669 -0.028059 0.006192
0.546374 0.031447 0.084928
0.517809 -0.011564 0.025303
0.555609 -0.054690 0.037185
0.564478 0.063461 0.082484
0.586688 0.002233 0.065494
0.587215 0.055390 0.057895
0.583529 -0.066260 0.018839
0.532321 -0.034483 0.023179
0.567482 0.039953 0.013245
0.591993 -0.044468 0.013165
0.540941 -0.045132 0.029174
0.560966 0.066497 0.082815
0.505955 0.021515 0.037912
0.546261 0.031630 0.084957
0.575999 -0.015062 0.066486
0.590940 0.015716 0.033933
0.575192 -0.002890 0.071072
0.517485 0.083221 0.029505
0.573694 0.067498 0.075947
0.541607 -0.045729 0.021947
0.590494 0.039278 0.061973
0.540113 -0.037228 0.010214
0.569657 0.055133 0.082217
0.579004 0.033223 0.021639
0.590443 0.018187 0.065130
0.540957 0.091654 0.025657
0.545772 0.073132 0.013672
0.510638 0.029517 0.062376
0.579342 0.061049 0.034038
0.540343 0.004947 -0.000029
0.545684 0.071542 0.083304
0.505619 0.025778 0.032505
0.507639 0.062450 0.033935
0.541672 0.046260 0.086280
0.597228 -0.012832 0.041375
0.509655 0.071496 0.034843
0.510524 0.011553 0.021663
0.568005 0.022010 0.081166
0.558418 -0.039458 0.055391
0.543623 0.019762 0.081498
0.524588 0.004697 0.066945
0.552312 0.099116 0.060471
0.521477 0.007776 0.065898
0.580650 0.060879 0.036328
0.566441 0.065555 0.020934
0.558527 0.093308 0.038492
0.578816 0.031736 0.020999
0.515522 0.032227 0.011696
0.542059 0.070597 0.083280
0.551479 0.005333 0.077146
0.582804 0.066159 0.049086
0.539381 0.098589 0.034928
0.580903 -0.039949 0.008787
0.522571 0.040423 0.007167
0.539642 0.040072 0.085355
0.585827 0.018017 0.070729
0.577891 -0.061827 0.013656
0.592810 0.021568 0.041363
0.544512 -0.049029 0.023439
0.551780 -0.004784 0.072917
0.539250 0.032147 0.002388
0.537582 -0.015100 0.063328
0.509703 0.052097 0.065364
0.508815 0.043831 0.022119
0.527097 0.020768 0.076002
0.517389 0.002996 0.010207
0.506656 0.025535 0.050422
0.523656 0.057184 0.011434
0.568018 0.000924 0.074455
0.523944 0.026181 0.004640
0.549479 -0.052219 0.016375
0.523827 0.097530 0.060907
0.570896 -0.056604 0.045036
0.537240 0.084714 0.019513
0.546378 0.064278 0.084899
0.560348 0.049523 0.085574
0.553260 -0.011153 0.000489
0.570904 0.009001 0.076733
0.563537 0.027217 0.083191
0.579069 -0.062653 0.039991
0.581702 0.013049 0.073004
0.557721 0.094293 0.039416
0.542052 -0.035031 0.050245
0.576818 -0.066081 0.018208
0.556027 0.098419 0.049564
0.579212 0.071777 0.063564
0.548569 -0.048044 0.040271
0.570555 0.083847 0.065047
0.567939 0.008169 0.077126
0.559782 -0.059952 0.028931
0.511469 0.029755 0.016635
0.526751 -0.027237 0.028005
0.504675 0.039033 0.049011
0.580440 0.033637 0.023441
0.539023 0.066601 0.010567
0.580175 -0.067773 0.022712
0.586221 0.057579 0.049592
0.550592 0.095239 0.033782
0.525706 -0.025264 0.034980
0.566745 0.019107 0.008073
0.574112 0.017205 0.013118
0.559561 -0.040604 0.054914
0.558337 0.072189 0.081927
0.587395 -0.006093 0.062262
0.564898 0.040121 0.084551
0.514649 0.087579 0.040060
0.568589 0.003890 0.007155
0.566987 0.064238 0.020848
0.552483 -0.000578 0.000348
0.521153 -0.017348 0.021542
0.582482 0.026288 0.074811
0.584502 0.021522 0.072525
0.544291 -0.048585 0.021177
0.571106 0.024505 0.012305
0.581808 -0.037586 0.056329
0.558701 -0.036840 0.057238
0.604660 -0.045656 0.035175
0.541097 -0.038237 0.010161
0.550203 0.028916 0.003070
0.532985 0.010578 0.000794
0.511674 0.079041 0.058060
0.516079 0.083912 0.063767
0.538742 0.065940 0.010343
0.601412 -0.059288 0.023073
0.520719 -0.017390 0.025965
0.516766 0.029366 0.010319
0.560948 -0.009968 0.070909
0.538524 0.094318 0.028637
0.576712 -0.048717 0.007788
0.564236 0.089303 0.066586
0.531615 0.007865 0.073243
0.565196 0.072891 0.079153
0.581524 0.069572 0.057367
0.575360 -0.000151 0.011198
0.529152 0.085448 0.074933
0.532228 0.095777 0.069591
0.573900 -0.011157 0.008625
0.510820 0.009583 0.022167
0.532153 0.059787 0.082818
0.559309 0.094481 0.042533
0.518307 0.087084 0.032035
0.509573 0.017802 0.021513
0.538457 0.029744 0.002073
0.524316 0.034393 0.005358
0.506637 0.032524 0.054628
0.515011 0.071440 0.025135
0.522641 0.085274 0.070818
0.531232 0.027762 0.002365
0.507616 0.022445 0.051333
0.517197 -0.007938 0.042446
0.541067 0.099029 0.035981
0.548612 0.009560 0.000475
0.572138 0.039084 0.016716
0.557473 0.062536 0.013316
0.561515 -0.060461 0.030829
0.514007 0.031548 0.013336
0.506047 0.041531 0.055544
0.523560 0.074194 0.018340
0.534147 0.001878 0.071564
0.559558 0.061391 0.084254
0.532932 0.030930 0.002478
0.581629 0.025194 0.022329
0.563729 -0.014824 0.003003
0.588337 -0.037244 0.012944
0.580725 0.004732 0.016286
0.577780 0.071987 0.067023
0.559642 0.065357 0.083409
0.510647 0.057888 0.066302
0.542474 0.089159 0.076117
0.594055 -0.013811 0.027322
0.588295 0.031875 0.068593
0.568361 0.082782 0.036493
0.507614 0.050994 0.060754
0.504622 0.047748 0.048831
0.589560 -0.066868 0.030386
0.564756 0.087567 0.068654
0.588498 0.027353 0.068501
0.512628 0.059900 0.068917
0.542151 0.036797 0.085412
