ply
format ascii 1.0
element vertex 1024
property float x
property float y
property float z
end_header
0.487309 0.145869 0.012325
0.510863 0.064131 0.011628
0.513157 0.059542 0.010950
0.479571 0.178343 0.084094
0.559806 0.075596 0.053693
0.482107 0.100449 0.037773
0.473973 0.168897 0.081053
0.552928 0.152593 0.049635
0.511479 0.052388 0.035615
0.497234 0.093838 0.056606
0.534903 0.164287 0.079502
0.506418 0.199833 0.067973
0.566756 0.089866 0.044592
0.556623 0.105440 0.070453
0.536505 0.148074 0.084815
0.506413 0.097150 0.066584
0.492995 0.083290 0.032375
0.489007 0.176329 0.089457
0.467882 0.169231 0.032665
0.511942 0.143798 0.090842
0.561289 0.108189 0.066653
0.538552 0.036669 0.035768
0.470172 0.191244 0.062292
0.535060 0.072062 0.005238
0.514423 0.040344 0.018694
0.505263 0.123359 0.006193
0.479160 0.179932 0.029918
0.515389 0.173189 0.021719
0.533971 0.129630 0.009528
0.488619 0.181592 0.027321
0.509353 0.088687 0.061923
0.518621 0.130910 0.087469
0.564295 0.072871 0.045230
0.557789 0.068932 0.019204
0.533380 0.168029 0.028210
0.553769 0.125458 0.022701
0.515936 0.089606 0.065848
0.506844 0.154285 0.092551
0.499054 0.181598 0.025661
0.557233 0.067347 0.050579
0.508254 0.186851 0.084765
0.534251 0.178947 0.050831
0.523088 0.152646 0.012643
0.510693 0.177487 0.088908
0.485679 0.177458 0.087885
0.518565 0.151644 0.091036
0.562960 0.083017 0.054572
0.533335 0.146668 0.014406
0.469686 0.169488 0.075859
0.512708 0.045012 0.016983
0.511373 0.045073 0.020229
0.529577 0.166675 0.082554
0.549932 0.148794 0.032308
0.505564 0.107988 0.006419
0.517971 0.170464 0.088201
0.544596 0.132100 0.016097
0.501575 0.196782 0.042708
0.461285 0.164412 0.044134
0.514342 0.167307 0.017350
0.474165 0.134111 0.020378
0.549634 0.157569 0.044794
0.565755 0.112173 0.049580
0.561198 0.086292 0.058602
0.466481 0.153425 0.067963
0.528639 0.183278 0.065465
0.479556 0.171091 0.085678
0.472502 0.184934 0.074912
0.495229 0.185222 0.087657
0.504057 0.186977 0.086134
0.542238 0.168134 0.062500
0.555664 0.047627 0.028310
0.544276 0.165490 0.061836
0.549144 0.131371 0.077957
0.501323 0.108862 0.071938
0.551292 0.058251 0.048188
0.474165 0.186511 0.038649
0.491286 0.088355 0.024156
0.540089 0.084213 0.006473
0.487402 0.190679 0.082714
0.547851 0.150828 0.072354
0.550461 0.089901 0.011842
0.504165 0.129041 0.085260
0.542695 0.089170 0.007617
0.557619 0.076642 0.056197
0.520554 0.045165 0.039402
0.529348 0.101657 0.076625
0.528670 0.061564 0.052031
0.471621 0.165429 0.078333
0.554371 0.113193 0.073889
0.555836 0.097012 0.016886
0.564197 0.077202 0.048712
0.507284 0.151660 0.092208
0.520198 0.172895 0.023002
0.542522 0.131364 0.082354
0.469712 0.188060 0.047682
0.564533 0.085480 0.030303
0.496487 0.187692 0.031074
0.540417 0.144839 0.082681
0.482711 0.164354 0.087904
0.534136 0.077861 0.063799
0.479106 0.200234 0.061574
0.519410 0.148892 0.010432
0.460993 0.155598 0.044832
0.475271 0.136541 0.018999
0.476177 0.110100 0.037540
0.495208 0.182181 0.026379
0.546367 0.162930 0.060122
0.553775 0.135090 0.072000
0.512432 0.086479 0.006521
0.502120 0.158751 0.012245
0.506719 0.173094 0.019820
0.527310 0.176529 0.077626
0.476244 0.149215 0.079096
0.509267 0.195408 0.044751
0.485986 0.107230 0.056902
0.518656 0.101188 0.074831
0.499239 0.173288 0.092072
0.469797 0.123604 0.044114
0.462932 0.146960 0.036651
0.506906 0.155066 0.010960
0.523926 0.165645 0.019325
0.469044 0.147809 0.024956
0.524090 0.114390 0.005391
0.528922 0.154051 0.015484
0.541892 0.153400 0.024380
0.508626 0.087334 0.007885
0.496192 0.107122 0.067346
0.561231 0.089995 0.060499
0.499782 0.167874 0.016307
0.503573 0.092917 0.009302
0.466660 0.182145 0.066153
0.473394 0.119018 0.027646
0.527184 0.107931 0.005188
0.534084 0.099936 0.075743
0.518195 0.174040 0.023238
0.509906 0.163523 0.092535
0.484490 0.155934 0.087651
0.523520 0.099604 0.004591
0.513752 0.182523 0.029460
0.534204 0.090125 0.071064
0.477867 0.173707 0.084006
0.476660 0.196812 0.051923
0.547752 0.143320 0.075982
0.506087 0.080413 0.052766
0.469615 0.161496 0.075272
0.518138 0.059775 0.046371
0.555998 0.050174 0.025827
0.560696 0.084701 0.058244
0.528788 0.032426 0.031308
0.518103 0.129534 0.087045
0.482704 0.201569 0.054895
0.502034 0.202135 0.056378
0.482476 0.202098 0.060071
0.460875 0.159572 0.053655
0.476378 0.188853 0.039245
0.556999 0.141299 0.043811
0.508119 0.106465 0.074043
0.539304 0.033889 0.023766
0.529326 0.139328 0.010237
0.523623 0.069568 0.005352
0.475733 0.125176 0.020582
0.509993 0.157134 0.011845
0.497200 0.193021 0.036752
0.461626 0.149395 0.048856
0.559090 0.064971 0.022227
0.523266 0.100411 0.075454
0.522736 0.154544 0.013271
0.516446 0.181200 0.083805
0.564131 0.079887 0.029277
0.471001 0.158476 0.025042
0.463820 0.147917 0.033562
0.528892 0.184493 0.056757
0.509355 0.059423 0.038479
0.492291 0.157873 0.091132
0.492157 0.189435 0.033113
0.487516 0.142325 0.011699
0.546611 0.104604 0.010979
0.480335 0.187383 0.035159
0.519446 0.108852 0.004919
0.504825 0.201335 0.058389
0.545349 0.070798 0.058711
0.486892 0.159347 0.015965
0.495218 0.187811 0.031250
0.533236 0.156652 0.084606
0.528002 0.065942 0.054585
0.500925 0.108688 0.007591
0.541368 0.045799 0.043717
0.507549 0.168214 0.092471
0.489834 0.118253 0.010633
0.516482 0.042967 0.034790
0.512222 0.193184 0.042630
0.541478 0.100884 0.075076
0.529796 0.135048 0.087394
0.514033 0.112470 0.005199
0.462559 0.146377 0.052025
0.464282 0.165907 0.036483
0.484327 0.135950 0.012578
0.566816 0.093413 0.048755
0.495548 0.118111 0.074740
0.520279 0.096823 0.072591
0.496569 0.134593 0.085129
0.481788 0.165955 0.087407
0.538293 0.173029 0.043858
0.483063 0.152340 0.085795
0.546743 0.155768 0.033501
0.470834 0.192368 0.059530
0.560248 0.089151 0.021309
0.553734 0.150696 0.055656
0.564112 0.113618 0.038426
0.514463 0.177618 0.025127
0.532153 0.160061 0.020615
0.467488 0.128651 0.043651
0.555293 0.047090 0.028075
0.475759 0.145257 0.076635
0.485199 0.197717 0.044542
0.511731 0.191462 0.078425
0.564521 0.087830 0.030319
0.549843 0.136881 0.023469
0.499603 0.072841 0.024482
0.488416 0.100430 0.052534
0.472906 0.149406 0.075548
0.514080 0.039370 0.023295
0.473709 0.164877 0.080711
0.499734 0.142690 0.008692
0.547608 0.050044 0.014149
0.539736 0.034139 0.023527
0.496028 0.145065 0.089211
0.468226 0.127669 0.034520
0.518733 0.090368 0.067605
0.536132 0.176859 0.050129
0.499069 0.081817 0.017012
0.530698 0.172217 0.029620
0.546075 0.114804 0.012433
0.468265 0.146010 0.067144
0.553218 0.138760 0.030022
0.564444 0.117639 0.057074
0.524326 0.179217 0.078475
0.498371 0.122399 0.079131
0.543774 0.124200 0.081135
0.504786 0.061135 0.022546
0.539460 0.117620 0.081005
0.517883 0.092855 0.069015
0.539937 0.140284 0.083597
0.545367 0.143214 0.021597
0.530862 0.153853 0.086741
0.536375 0.060558 0.006232
0.472184 0.194080 0.061319
0.512398 0.107352 0.005290
0.475664 0.136359 0.070928
0.474835 0.126798 0.061720
0.544300 0.037324 0.032053
0.505771 0.081670 0.053593
0.498427 0.073895 0.029531
0.474128 0.116743 0.046905
0.467471 0.186635 0.061763
0.555400 0.141601 0.037941
0.520800 0.191566 0.055885
0.526864 0.182633 0.039344
0.517848 0.193811 0.061181
0.460888 0.154948 0.048497
0.529359 0.050768 0.007074
0.477586 0.109730 0.027353
0.527968 0.168952 0.024159
0.547251 0.081074 0.064144
0.550210 0.135982 0.023461
0.477723 0.165254 0.022767
0.536246 0.143539 0.014693
0.551994 0.153724 0.046216
0.558029 0.140172 0.048499
0.549271 0.042968 0.035775
0.481628 0.101911 0.040242
0.558906 0.057409 0.025816
0.555447 0.142547 0.063684
0.480072 0.191355 0.078253
0.525363 0.117762 0.005786
0.524737 0.168382 0.021621
0.510341 0.068639 0.010865
0.522150 0.146199 0.010204
0.482877 0.100841 0.042118
0.562585 0.123718 0.060108
0.566869 0.093079 0.045847
0.553467 0.047993 0.037547
0.484671 0.180715 0.028057
0.469706 0.146853 0.069948
0.472723 0.141010 0.021170
0.559626 0.085309 0.059611
0.464471 0.154536 0.064309
0.539936 0.097544 0.007126
0.466137 0.137285 0.031915
0.463129 0.174803 0.060671
0.523596 0.044982 0.009068
0.498361 0.203490 0.062900
0.517959 0.176691 0.085413
0.551671 0.052213 0.043348
0.541928 0.098202 0.073906
0.488860 0.149125 0.087872
0.501252 0.151664 0.091856
0.556198 0.144115 0.045527
0.513428 0.073394 0.052977
0.527109 0.186108 0.053535
0.514855 0.153869 0.011251
0.566235 0.104475 0.055236
0.468252 0.127362 0.034981
0.521932 0.189894 0.049861
0.466696 0.185183 0.051598
0.465376 0.142713 0.031196
0.481765 0.104666 0.046338
0.487615 0.092160 0.037289
0.529781 0.178148 0.035885
0.553938 0.108796 0.073155
0.519913 0.063101 0.049595
0.522743 0.088868 0.068102
0.541852 0.160713 0.074097
0.554652 0.124571 0.023425
0.481524 0.102474 0.041312
0.539401 0.081549 0.006200
0.486219 0.188850 0.034017
0.510584 0.198404 0.064255
0.504665 0.077823 0.012806
0.559434 0.112318 0.024990
0.538224 0.081942 0.005880
0.473691 0.195236 0.055785
0.490352 0.200337 0.073822
0.515251 0.164149 0.091018
0.488947 0.172313 0.021193
0.555990 0.108038 0.019021
0.475741 0.118248 0.053334
0.513301 0.064033 0.045878
0.467414 0.185917 0.050155
0.536942 0.048893 0.046221
0.465938 0.180346 0.065666
0.555745 0.146057 0.048330
0.542018 0.106827 0.077098
0.560861 0.077170 0.053606
0.548718 0.092057 0.010855
0.487414 0.110958 0.062541
0.546546 0.159378 0.038000
0.483133 0.202255 0.057656
0.492658 0.138255 0.009525
0.553840 0.145825 0.064503
0.532405 0.172023 0.075933
0.549806 0.145857 0.072160
0.504214 0.178688 0.023696
0.519598 0.188521 0.040879
0.475662 0.155724 0.080966
0.553814 0.046492 0.025094
0.475632 0.133411 0.018973
0.538318 0.033392 0.028664
0.563368 0.111704 0.033985
0.496605 0.084269 0.018733
0.532645 0.095486 0.005171
0.551168 0.153514 0.062382
0.468980 0.125603 0.034553
0.554959 0.148111 0.054664
0.516967 0.193885 0.052732
0.481081 0.105904 0.023677
0.483615 0.202533 0.058640
0.529218 0.149286 0.088169
0.474735 0.114549 0.029210
0.474752 0.196689 0.063244
0.516050 0.142238 0.090376
0.532296 0.180205 0.062412
0.534697 0.156045 0.019843
0.531321 0.037704 0.012339
0.552370 0.075658 0.058893
0.513589 0.189661 0.037649
0.494491 0.107712 0.010382
0.507642 0.056756 0.018766
0.553542 0.127445 0.023394
0.525938 0.057461 0.048623
0.526272 0.186856 0.053514
0.530748 0.082732 0.004658
0.531198 0.119667 0.083105
0.493655 0.138877 0.009332
0.489218 0.136364 0.010442
0.463796 0.179713 0.053514
0.543176 0.061307 0.053242
0.501942 0.072244 0.019057
0.521778 0.097686 0.073561
0.511120 0.156388 0.092409
0.519243 0.126248 0.085981
0.492648 0.158098 0.091267
0.493016 0.084935 0.025055
0.566289 0.081856 0.042893
0.542694 0.058308 0.051436
0.485576 0.184486 0.030509
0.530755 0.032172 0.030597
0.525475 0.158862 0.088069
0.542640 0.146101 0.020458
0.522632 0.041584 0.010608
0.558081 0.082039 0.018338
0.508080 0.059096 0.016607
0.483931 0.109520 0.017385
0.469373 0.149946 0.071091
0.528706 0.177457 0.033500
0.492753 0.165450 0.016431
0.488892 0.109818 0.013102
0.510935 0.171957 0.090750
0.497391 0.138755 0.087324
0.551545 0.121986 0.076827
0.510443 0.155816 0.092470
0.545917 0.162410 0.063350
0.499415 0.138790 0.087948
0.527050 0.147738 0.088987
0.470576 0.192003 0.060496
0.481189 0.172767 0.086512
0.530534 0.051694 0.046774
0.551558 0.116723 0.017020
0.519677 0.047117 0.039851
0.515611 0.142965 0.008340
0.536583 0.090409 0.005731
0.533328 0.052382 0.047770
0.494315 0.204075 0.062697
0.496233 0.090215 0.015656
0.512326 0.117182 0.081785
0.493744 0.087643 0.020328
0.515112 0.181359 0.028796
0.538888 0.128172 0.011374
0.542376 0.048494 0.011004
0.510175 0.051903 0.016902
0.520574 0.106309 0.078048
0.519336 0.049785 0.009281
0.502204 0.086313 0.054457
0.475786 0.130299 0.066363
0.550803 0.133691 0.075915
0.493007 0.184918 0.028914
0.562141 0.110159 0.029496
0.518187 0.093725 0.069748
0.465500 0.147978 0.063091
0.516806 0.117229 0.005293
0.500110 0.132869 0.085712
0.540575 0.150346 0.081216
0.549629 0.081746 0.010950
0.514143 0.046295 0.014205
0.549146 0.048695 0.016396
0.545245 0.162467 0.065345
0.540760 0.157303 0.077936
0.545800 0.111472 0.011613
0.503458 0.175258 0.020969
0.526174 0.186403 0.049292
0.529499 0.143474 0.011558
0.550368 0.077023 0.011432
0.555478 0.088068 0.015764
0.541252 0.035206 0.022456
0.508129 0.055924 0.018310
0.540734 0.041580 0.040525
0.556440 0.144486 0.049072
0.529215 0.078855 0.004594
0.534971 0.047182 0.008597
0.463617 0.166235 0.064956
0.471998 0.118278 0.034892
0.484424 0.188895 0.082479
0.477212 0.146558 0.078748
0.550942 0.113154 0.075877
0.492802 0.189168 0.032767
0.478981 0.158432 0.084623
0.506782 0.110467 0.006028
0.511955 0.146274 0.091300
0.536581 0.111634 0.007439
0.547124 0.084212 0.065919
0.465949 0.158012 0.030735
0.507448 0.066156 0.041669
0.549002 0.143217 0.074488
0.509096 0.154960 0.011024
0.563290 0.105585 0.030504
0.530084 0.173563 0.030400
0.501032 0.191824 0.035805
0.510841 0.193951 0.043036
0.554098 0.137365 0.030638
0.539909 0.126442 0.011491
0.503167 0.201995 0.058214
0.551177 0.122570 0.018589
0.495948 0.096760 0.058122
0.493281 0.083049 0.028982
0.526629 0.159008 0.087497
0.497480 0.145621 0.089761
0.534494 0.103215 0.077040
0.481758 0.126348 0.014575
0.499485 0.092171 0.057337
0.491682 0.175309 0.090488
0.483994 0.097409 0.036946
0.533708 0.062374 0.053823
0.483406 0.111734 0.016940
0.499695 0.166580 0.015652
0.560160 0.076289 0.053782
0.494426 0.190520 0.033972
0.514072 0.192127 0.075277
0.561870 0.091527 0.060548
0.483042 0.182293 0.084879
0.552209 0.114850 0.075544
0.541483 0.168567 0.064109
0.462065 0.173792 0.055595
0.505141 0.092982 0.008494
0.489960 0.200846 0.047955
0.540533 0.170451 0.062454
0.514693 0.176684 0.024389
0.503672 0.124467 0.082929
0.560938 0.131729 0.049896
0.470743 0.186710 0.071311
0.505873 0.173909 0.091543
0.535618 0.101380 0.076189
0.496415 0.180547 0.024948
0.551446 0.095131 0.069570
0.542295 0.067409 0.007390
0.491078 0.087320 0.026609
0.558940 0.124966 0.068796
0.480399 0.128974 0.015302
0.561079 0.109322 0.067075
0.508198 0.149588 0.009460
0.513134 0.144344 0.090917
0.493706 0.083054 0.026553
0.553743 0.146592 0.063894
0.514322 0.076722 0.055939
0.533458 0.110758 0.079896
0.561058 0.114413 0.029114
0.535241 0.152993 0.084475
0.507487 0.063418 0.039379
0.525735 0.031410 0.024723
0.502564 0.121394 0.006486
0.502466 0.067282 0.022534
0.530147 0.182973 0.059881
0.525342 0.164846 0.019521
0.502311 0.194547 0.080105
0.477977 0.199326 0.063229
0.549413 0.055634 0.013618
0.547986 0.145744 0.026473
0.497150 0.164865 0.092682
0.550043 0.072713 0.011309
0.560514 0.129557 0.062148
0.473415 0.194448 0.066575
0.513757 0.080294 0.058171
0.518149 0.062258 0.007647
0.504997 0.201361 0.059529
0.513700 0.073645 0.007838
0.552365 0.113195 0.075117
0.536360 0.141428 0.085596
0.532622 0.179990 0.047000
0.556131 0.130570 0.070863
0.537823 0.170063 0.036592
0.529721 0.064962 0.005182
0.476218 0.139091 0.073426
0.559527 0.120226 0.069093
0.513515 0.063890 0.009730
0.533536 0.100219 0.075901
0.489981 0.196952 0.041976
0.507827 0.184854 0.029942
0.460799 0.157008 0.051079
0.467650 0.150599 0.068674
0.493340 0.086510 0.042202
0.551983 0.148091 0.066753
0.478527 0.199695 0.063233
0.538066 0.108057 0.007505
0.478965 0.150079 0.081949
0.465837 0.181736 0.046151
0.495817 0.138581 0.086675
0.540308 0.115137 0.080098
0.521179 0.081554 0.004921
0.481680 0.184385 0.031989
0.486052 0.093884 0.031978
0.478625 0.127739 0.016967
0.523250 0.081672 0.004684
0.534421 0.155624 0.019403
0.493720 0.099053 0.057942
0.562054 0.124028 0.062040
0.503266 0.180486 0.089693
0.540045 0.146406 0.018435
0.551197 0.143555 0.030038
0.468097 0.186502 0.065211
0.483124 0.190055 0.036353
0.563601 0.064254 0.037642
0.476811 0.174088 0.083064
0.540139 0.052859 0.048433
0.490390 0.090625 0.023109
0.470364 0.144880 0.023480
0.559937 0.087235 0.060371
0.558728 0.133180 0.064165
0.526610 0.113492 0.081406
0.503499 0.124217 0.082739
0.566573 0.092256 0.050415
0.555731 0.103387 0.017752
0.505497 0.105272 0.071827
0.509733 0.169092 0.017631
0.556151 0.119098 0.022839
0.494535 0.197756 0.077744
0.536800 0.097824 0.074604
0.535751 0.102893 0.076778
0.564153 0.101706 0.031712
0.518129 0.192408 0.067906
0.498026 0.085288 0.048398
0.540936 0.066487 0.056837
0.485280 0.115342 0.064324
0.528618 0.128261 0.086009
0.476733 0.121809 0.020464
0.480453 0.188134 0.035782
0.544701 0.079684 0.064127
0.465010 0.153335 0.031162
0.523119 0.177125 0.028276
0.491895 0.108626 0.064992
0.565769 0.112021 0.052929
0.563103 0.121975 0.043526
0.509940 0.095758 0.006308
0.544451 0.155769 0.074240
0.564189 0.074190 0.030617
0.537669 0.119877 0.009040
0.474531 0.161870 0.081227
0.534813 0.148981 0.085653
0.518842 0.037228 0.016020
0.465623 0.135491 0.035200
0.528693 0.182962 0.066199
0.535038 0.174681 0.068417
0.505308 0.157353 0.011679
0.512667 0.109802 0.078067
0.552374 0.081719 0.062391
0.544492 0.131159 0.015701
0.532508 0.084742 0.004840
0.541706 0.125623 0.012296
0.535933 0.170103 0.073244
0.493464 0.180688 0.025479
0.559892 0.120063 0.068563
0.541756 0.144449 0.018822
0.475535 0.111307 0.038139
0.514460 0.085025 0.061882
0.541806 0.091181 0.070867
0.498302 0.153799 0.091814
0.557204 0.049665 0.033090
0.463851 0.140146 0.048955
0.557031 0.124791 0.071566
0.562186 0.061380 0.039226
0.478280 0.189164 0.038126
0.523747 0.039014 0.011683
0.564002 0.112634 0.037065
0.512412 0.059712 0.041986
0.518430 0.180785 0.029577
0.503546 0.074697 0.015248
0.553458 0.099509 0.070394
0.501526 0.192112 0.036247
0.482571 0.168507 0.021752
0.480565 0.107482 0.023142
0.495391 0.111729 0.009119
0.565589 0.104274 0.038803
0.555118 0.136485 0.069301
0.468775 0.134774 0.058838
0.496905 0.178810 0.023572
0.507701 0.146791 0.091396
0.551548 0.056124 0.046480
0.521968 0.177278 0.027769
0.463251 0.146638 0.055703
0.554288 0.098537 0.069559
0.560733 0.119149 0.031246
0.501224 0.069099 0.032999
0.497657 0.199852 0.046743
0.545086 0.087076 0.068055
0.534911 0.069824 0.005286
0.563947 0.110644 0.062370
0.553857 0.129603 0.073996
0.474351 0.161002 0.080891
0.481963 0.107471 0.050873
0.486704 0.173491 0.089202
0.469330 0.172217 0.032566
0.514450 0.170137 0.089953
0.539056 0.078798 0.064563
0.512296 0.092120 0.006002
0.509818 0.049978 0.019010
0.550436 0.139934 0.074050
0.493707 0.204169 0.058761
0.523370 0.041215 0.038803
0.535242 0.135204 0.011411
0.493629 0.082253 0.030993
0.488047 0.175350 0.023310
0.493384 0.174622 0.091032
0.481071 0.110763 0.053556
0.517925 0.161017 0.090593
0.558151 0.086548 0.061505
0.563732 0.084893 0.027924
0.528646 0.087919 0.069183
0.510168 0.059628 0.039599
0.465104 0.167570 0.035785
0.563902 0.097326 0.029723
0.537623 0.076215 0.005667
0.471306 0.187065 0.071952
0.503091 0.185825 0.087066
0.561380 0.078953 0.054113
0.556857 0.122393 0.072181
0.544120 0.167171 0.054978
0.534236 0.038643 0.039264
0.473580 0.160610 0.023647
0.554985 0.147090 0.058302
0.514621 0.047025 0.035480
0.550138 0.118336 0.077313
0.468887 0.178212 0.036809
0.561027 0.106698 0.025718
0.477237 0.158608 0.020467
0.562628 0.095566 0.026207
0.469200 0.125481 0.045908
0.554806 0.059945 0.017884
0.558881 0.125957 0.068522
0.499264 0.160631 0.092780
0.523713 0.047523 0.042178
0.535985 0.033842 0.019818
0.549068 0.040825 0.023151
0.529445 0.158324 0.086259
0.462210 0.153920 0.038256
0.463787 0.179467 0.051490
0.503720 0.197219 0.076055
0.520511 0.172176 0.022539
0.497931 0.145618 0.009449
0.472244 0.163519 0.025853
0.505273 0.093879 0.063441
0.485694 0.158320 0.016093
0.465035 0.146544 0.060993
0.470644 0.139058 0.023676
0.549688 0.131629 0.020692
0.532057 0.136199 0.010355
0.533273 0.122171 0.007874
0.493812 0.202181 0.050634
0.503333 0.124737 0.082944
0.494210 0.141750 0.009580
0.514086 0.118908 0.082855
0.509689 0.051410 0.018154
0.509514 0.149989 0.091950
0.515613 0.094761 0.005157
0.548712 0.069661 0.056880
0.465667 0.141020 0.031163
0.495391 0.146316 0.010050
0.515161 0.103430 0.075080
0.463623 0.145408 0.034807
0.490121 0.201084 0.048381
0.470885 0.192021 0.063824
0.556197 0.058333 0.044792
0.530122 0.163737 0.021731
0.489044 0.198400 0.044185
0.560119 0.131261 0.061635
0.537071 0.175949 0.056086
0.506912 0.054751 0.023729
0.514105 0.170030 0.090120
0.518670 0.034919 0.027600
0.511892 0.072974 0.008869
0.561493 0.068693 0.047169
0.488348 0.138932 0.010991
0.527262 0.179435 0.074787
0.526854 0.032478 0.018994
0.512403 0.144961 0.008526
0.558233 0.130383 0.067459
0.462590 0.163250 0.061998
0.506183 0.056244 0.026502
0.502591 0.148256 0.091327
0.544673 0.112211 0.078118
0.550254 0.041654 0.024193
0.559500 0.063252 0.045442
0.541381 0.166400 0.068423
0.510975 0.129786 0.086717
0.557113 0.141786 0.045605
0.471856 0.187917 0.072127
0.530328 0.057745 0.005976
0.565629 0.090438 0.034977
0.527517 0.081160 0.064441
0.464799 0.166526 0.035831
0.463561 0.144143 0.054079
0.495648 0.144777 0.089003
0.508717 0.099807 0.006295
0.474555 0.165048 0.024718
0.485678 0.145729 0.012946
0.514549 0.195809 0.064826
0.484957 0.142013 0.082409
0.539707 0.145202 0.083151
0.511916 0.118162 0.082158
0.535287 0.098719 0.005862
0.548573 0.141371 0.075718
0.551324 0.068380 0.012602
0.556726 0.052663 0.025047
0.547646 0.099769 0.010957
0.489587 0.148975 0.012113
0.462145 0.146308 0.042688
0.463091 0.147381 0.055834
0.562540 0.115397 0.033772
0.491619 0.092986 0.019058
0.538580 0.107395 0.078007
0.543983 0.136823 0.081130
0.490091 0.130854 0.079358
0.513093 0.196559 0.054616
0.473981 0.117632 0.048100
0.541583 0.042322 0.013396
0.472804 0.117330 0.042804
0.525693 0.038073 0.011892
0.494210 0.120049 0.075204
0.492049 0.172743 0.020456
0.507066 0.122774 0.005996
0.565719 0.112465 0.050209
0.525549 0.036781 0.036507
0.528918 0.183918 0.049055
0.534149 0.033196 0.019720
0.542210 0.168953 0.059928
0.540800 0.034370 0.024630
0.504827 0.153541 0.092430
0.538862 0.173027 0.046131
0.512078 0.155844 0.011579
0.465292 0.137161 0.034711
0.546831 0.132172 0.018018
0.520513 0.182447 0.079465
0.535992 0.054040 0.049093
0.495485 0.107163 0.010020
0.502130 0.195679 0.078847
0.482556 0.189136 0.035717
0.554730 0.094018 0.015519
0.552870 0.049874 0.020565
0.489729 0.163955 0.016732
0.528975 0.067227 0.005017
0.527355 0.172183 0.080944
0.468332 0.185625 0.046267
0.556710 0.138363 0.064594
0.499524 0.113296 0.007476
0.473578 0.114907 0.035947
0.511631 0.196669 0.051348
0.543337 0.104793 0.076063
0.481595 0.199661 0.050794
0.557887 0.051713 0.028754
0.548538 0.118134 0.078089
0.528901 0.069676 0.004884
0.559550 0.083412 0.058598
0.497152 0.139703 0.008697
0.560003 0.112483 0.026052
0.483399 0.098588 0.038130
0.493752 0.086271 0.042691
0.553652 0.133994 0.072663
0.469968 0.158756 0.026125
0.560134 0.128999 0.063951
0.538768 0.087688 0.069598
0.538280 0.109741 0.007785
0.472212 0.129827 0.023770
0.477427 0.149980 0.018072
0.483556 0.196223 0.043294
0.511478 0.044698 0.027143
0.517990 0.067972 0.006906
0.471734 0.120987 0.046972
0.525316 0.041863 0.009827
0.483446 0.135791 0.013045
0.553083 0.044393 0.026329
0.494924 0.086630 0.045348
0.560421 0.133545 0.051380
0.485190 0.120620 0.068830
0.492108 0.164179 0.091644
0.462537 0.146636 0.038694
0.551105 0.148509 0.068257
0.558372 0.067827 0.049931
0.533965 0.065098 0.055593
0.505369 0.151952 0.010088
0.564874 0.116374 0.047698
0.555887 0.067204 0.017177
0.473558 0.163406 0.024767
0.493286 0.100013 0.013675
0.464971 0.135250 0.042663
0.543749 0.035711 0.027703
0.566375 0.090501 0.039406
0.498889 0.119707 0.077725
0.526050 0.044347 0.041520
0.564080 0.079887 0.029124
0.474627 0.167792 0.025895
0.553370 0.151774 0.050568
0.505352 0.152160 0.010143
0.511272 0.094245 0.006087
0.489083 0.095818 0.047744
0.504192 0.105146 0.007023
0.511632 0.186359 0.083325
0.465292 0.158496 0.031946
0.565410 0.076454 0.035407
0.470410 0.123173 0.032102
0.564384 0.079230 0.049669
0.474071 0.154242 0.021300
0.491575 0.111063 0.066757
0.481489 0.109150 0.020464
0.488890 0.177141 0.089216
0.497842 0.156622 0.092167
0.539969 0.163591 0.031457
0.473226 0.135381 0.067055
0.542964 0.105777 0.076503
0.484013 0.180655 0.028274
0.552423 0.153092 0.057268
0.530139 0.178828 0.071128
0.500642 0.165894 0.015245
0.498291 0.074214 0.028813
0.523304 0.184478 0.073971
0.558674 0.136027 0.060965
0.494009 0.130982 0.008554
0.541309 0.083082 0.006847
0.514795 0.143926 0.008472
0.541556 0.139098 0.016323
0.468225 0.188353 0.060165
0.542571 0.142781 0.018702
0.471782 0.135310 0.064843
0.483883 0.141541 0.081441
0.471116 0.172556 0.077415
0.492688 0.109872 0.066728
0.545296 0.144362 0.078379
0.487459 0.182113 0.028074
0.517410 0.127307 0.006050
0.464411 0.142442 0.055351
0.484340 0.186416 0.083755
0.533391 0.052591 0.047901
0.536039 0.144457 0.085568
0.505905 0.162306 0.013606
0.484106 0.113782 0.015527
0.546923 0.040373 0.034521
0.482754 0.101607 0.043343
0.564588 0.072896 0.032541
0.523681 0.118316 0.005669
0.528232 0.126890 0.085675
0.542862 0.115835 0.010758
0.527553 0.181489 0.038181
0.542036 0.160455 0.074058
0.528696 0.152456 0.014665
0.560335 0.121663 0.067483
0.547919 0.158768 0.040846
0.524957 0.157427 0.088613
0.507127 0.113364 0.005877
0.543376 0.132472 0.081873
0.563864 0.065106 0.037394
0.491922 0.204241 0.060459
0.542988 0.059603 0.008527
0.497036 0.172127 0.092085
0.487149 0.175588 0.023771
0.483960 0.156927 0.016358
0.541401 0.086715 0.068724
0.499838 0.118295 0.007031
0.494281 0.138110 0.009092
0.540844 0.048584 0.010205
0.489699 0.113468 0.011590
0.471021 0.174077 0.077024
0.553107 0.094109 0.014137
0.549181 0.039588 0.028669
0.467940 0.181714 0.069604
0.461108 0.153840 0.044710
0.557206 0.077275 0.017473
0.461057 0.168198 0.048794
0.502602 0.119593 0.006469
0.557204 0.057963 0.022287
0.548879 0.146766 0.073057
0.565808 0.100762 0.038301
0.542320 0.169156 0.047836
0.489808 0.111161 0.065225
0.507555 0.154795 0.092589
0.546464 0.038005 0.023716
0.466318 0.134419 0.051161
0.477426 0.176948 0.082872
0.564073 0.105319 0.032837
0.512150 0.103262 0.073786
0.506209 0.099348 0.068064
0.541127 0.081408 0.006750
0.473771 0.173129 0.029194
0.498025 0.092430 0.013113
0.485736 0.147090 0.013161
0.509253 0.194987 0.075687
0.519308 0.090876 0.068202
0.484193 0.140237 0.080945
0.536187 0.094743 0.073288
0.566194 0.108870 0.048549
0.481340 0.123195 0.015419
0.482845 0.117740 0.015417
0.565000 0.072529 0.034790
0.504748 0.106093 0.071981
0.521258 0.070914 0.005665
0.539236 0.085467 0.006246
0.511850 0.043930 0.020438
0.564164 0.077901 0.049250
0.521072 0.118321 0.083193
0.545581 0.114489 0.078447
0.512563 0.197094 0.055929
0.505105 0.200053 0.052564
0.508195 0.154404 0.092531
0.524597 0.031667 0.025911
0.565627 0.110692 0.044535
0.546175 0.141067 0.078381
0.519611 0.108426 0.004902
0.488735 0.181577 0.087732
0.541840 0.048398 0.045359
0.462783 0.176427 0.049965
0.532809 0.139490 0.011589
0.468453 0.168571 0.031681
0.461788 0.148646 0.049311
0.515247 0.085414 0.062529
0.491368 0.197445 0.042444
0.484295 0.201136 0.051445
0.523076 0.077422 0.060357
0.559423 0.134615 0.059673
0.501524 0.180028 0.024466
0.468978 0.174397 0.074197
0.508289 0.189568 0.082596
0.556003 0.141038 0.063745
0.530271 0.125516 0.084999
0.538366 0.138427 0.084619
0.543162 0.165332 0.039934
0.521088 0.177761 0.082510
0.497575 0.199691 0.046416
0.537119 0.128473 0.084252
0.548669 0.156303 0.038689
0.559714 0.125534 0.033666
0.482516 0.186114 0.082903
0.533646 0.104384 0.077573
0.494890 0.117576 0.073991
0.494389 0.141930 0.087528
0.555690 0.057255 0.020269
0.546542 0.145363 0.076679
0.538443 0.172500 0.042877
0.514126 0.172229 0.089422
0.534452 0.133072 0.010504
0.478288 0.165468 0.022531
0.533970 0.129789 0.085386
0.493774 0.103974 0.062666
0.534485 0.078776 0.064418
0.525028 0.051637 0.044899
0.507141 0.087589 0.059685
0.461409 0.156088 0.041724
0.476199 0.167970 0.024944
0.523381 0.185440 0.039694
0.478342 0.192654 0.042281
0.504370 0.070318 0.041318
0.474883 0.121532 0.023115
0.469474 0.158427 0.074387
0.530825 0.180268 0.042008
0.537564 0.175400 0.051627
0.536785 0.035867 0.016678
0.462890 0.175615 0.047340
0.477250 0.118121 0.021308
0.520116 0.186659 0.038062
0.505693 0.158481 0.012073
