ply
format ascii 1.0
element vertex 1024
property float x
property float y
property float z
end_header
0.513945 -0.017399 0.045219
0.512151 0.067523 0.049830
0.512244 0.072509 0.051215
0.566778 -0.047524 -0.005439
0.577289 0.070738 0.056387
0.519165 0.026312 0.016939
0.558896 -0.039951 -0.008655
0.585848 -0.005590 0.066041
0.527239 0.080102 0.031726
0.541344 0.037379 0.013357
0.597558 -0.020120 0.034333
0.577696 -0.062206 0.027842
0.578413 0.058301 0.069761
0.593348 0.041843 0.046956
0.599042 -0.003810 0.029292
0.555294 0.036953 0.013302
0.519012 0.045411 0.025733
0.576495 -0.042944 -0.002893
0.520349 -0.043986 0.020950
0.586034 -0.005634 0.007261
0.594328 0.040200 0.053289
0.542169 0.102161 0.048174
0.547621 -0.063349 0.005172
0.525418 0.065707 0.072411
0.514615 0.091728 0.043789
0.516876 0.008629 0.058657
0.528158 -0.051591 0.032371
0.545118 -0.036259 0.062413
0.539755 0.009996 0.077346
0.532974 -0.050913 0.041050
0.552167 0.045667 0.017337
0.585403 0.008362 0.012342
0.573680 0.074129 0.065028
0.549930 0.075119 0.078071
0.560703 -0.026421 0.069676
0.561525 0.019636 0.081353
0.559561 0.046624 0.019335
0.586032 -0.016984 0.004086
0.538765 -0.048349 0.049507
0.571627 0.077917 0.055518
0.588205 -0.048444 0.015431
0.579711 -0.035737 0.056127
0.539502 -0.014864 0.071036
0.590841 -0.038591 0.012827
0.573384 -0.044950 -0.003951
0.592235 -0.011528 0.012941
0.581572 0.064405 0.059099
0.546364 -0.006410 0.076066
0.552445 -0.041841 -0.007934
0.513222 0.086706 0.044490
0.514659 0.086454 0.041298
0.596674 -0.023641 0.028838
0.570683 -0.003455 0.075481
0.514034 0.023568 0.056389
0.593737 -0.029992 0.017349
0.552063 0.010597 0.080557
0.555787 -0.061617 0.041650
0.523123 -0.040488 0.007595
0.540073 -0.031036 0.063845
0.508456 -0.009008 0.028625
0.581227 -0.011450 0.067873
0.585956 0.036717 0.068944
0.583954 0.060975 0.055545
0.541317 -0.027486 -0.007082
0.587309 -0.040688 0.042632
0.566387 -0.040448 -0.007652
0.556872 -0.056095 -0.002970
0.581224 -0.050042 0.004058
0.586403 -0.049567 0.011559
0.591126 -0.022740 0.051924
0.550568 0.095576 0.067005
0.591463 -0.019699 0.053414
0.599113 0.015227 0.040399
0.558154 0.024585 0.007771
0.564052 0.085092 0.051661
0.532424 -0.058823 0.023771
0.513058 0.039715 0.031046
0.532195 0.055296 0.076900
0.573601 -0.057520 0.002863
0.598304 -0.004154 0.046349
0.544147 0.052670 0.081259
0.573772 0.006404 0.003496
0.535787 0.051218 0.078671
0.577833 0.069284 0.053266
0.534503 0.089552 0.034333
0.578733 0.038861 0.023002
0.552364 0.076329 0.033659
0.554658 -0.037317 -0.008923
0.595913 0.033935 0.044152
0.552824 0.047387 0.082566
0.577004 0.070075 0.063181
0.585534 -0.014351 0.004237
0.549187 -0.034698 0.064834
0.597823 0.013752 0.032696
0.536219 -0.061044 0.014579
0.565812 0.061337 0.077529
0.542185 -0.054645 0.044850
0.599459 0.000212 0.033031
0.568681 -0.033038 -0.008019
0.567816 0.062494 0.031719
0.554954 -0.069803 0.013279
0.534683 -0.012267 0.069443
0.521588 -0.032013 0.005572
0.508717 -0.011138 0.030730
0.517047 0.015473 0.014413
0.536829 -0.049854 0.046405
0.591104 -0.016771 0.055687
0.598731 0.012540 0.048362
0.514214 0.046098 0.057871
0.526474 -0.026096 0.057576
0.537947 -0.038450 0.057663
0.593695 -0.033959 0.032185
0.554913 -0.020444 -0.008672
0.562100 -0.058249 0.045393
0.536828 0.021600 0.007308
0.570207 0.036524 0.016709
0.584568 -0.037295 0.001974
0.520291 0.001101 0.007398
0.515243 -0.023542 0.011340
0.527988 -0.021379 0.061264
0.547543 -0.026912 0.068916
0.511157 -0.023337 0.023914
0.527020 0.022032 0.071027
0.545723 -0.014615 0.073342
0.560609 -0.010299 0.076095
0.512821 0.044368 0.054386
0.551084 0.024760 0.007130
0.586103 0.057490 0.054801
0.529714 -0.035322 0.054480
0.511619 0.037756 0.050706
0.546133 -0.055274 -0.001355
0.509983 0.005706 0.020728
0.527596 0.029048 0.072357
0.580911 0.041686 0.026670
0.548256 -0.036302 0.063442
0.589993 -0.025134 0.007634
0.567934 -0.024463 -0.007870
0.522984 0.036140 0.068954
0.551496 -0.045347 0.057269
0.575605 0.050986 0.028541
0.564610 -0.043479 -0.007270
0.545717 -0.067549 0.017796
0.599263 0.003239 0.042611
0.541722 0.052424 0.020203
0.550312 -0.034163 -0.008779
0.540909 0.075134 0.029981
0.549550 0.093088 0.069358
0.583032 0.062369 0.055204
0.531573 0.103586 0.043823
0.584467 0.009540 0.012068
0.552870 -0.070481 0.020663
0.566968 -0.066061 0.033227
0.556523 -0.070817 0.016966
0.528637 -0.035488 -0.000075
0.534818 -0.060498 0.025255
0.582057 0.006094 0.071253
0.563701 0.028718 0.010690
0.533523 0.104500 0.056667
0.539179 -0.000521 0.075067
0.517334 0.065224 0.063959
0.507787 0.000033 0.028230
0.531115 -0.022555 0.063115
0.547826 -0.059360 0.042186
0.523591 -0.025679 0.002266
0.552132 0.079412 0.076270
0.573572 0.038471 0.019380
0.540111 -0.016758 0.070638
0.591818 -0.040949 0.020976
0.563645 0.066593 0.077121
0.514751 -0.033145 0.026834
0.513831 -0.024380 0.014264
0.581515 -0.042189 0.049077
0.529330 0.072894 0.029301
0.576039 -0.024203 -0.004555
0.541109 -0.057336 0.040661
0.512898 -0.013950 0.045266
0.544023 0.037447 0.081390
0.534239 -0.058258 0.030656
0.522423 0.026185 0.067273
0.570103 -0.064490 0.033653
0.570207 0.071933 0.042048
0.519074 -0.030365 0.044419
0.541487 -0.055074 0.043858
0.598496 -0.012936 0.028448
0.554653 0.072044 0.032068
0.511916 0.021768 0.052432
0.551630 0.094409 0.045966
0.589350 -0.030268 0.006739
0.508667 0.009851 0.043996
0.528031 0.090437 0.034377
0.562098 -0.055446 0.048606
0.585575 0.042614 0.032449
0.593682 0.007192 0.020833
0.519759 0.021329 0.063839
0.525848 -0.022384 0.000248
0.519976 -0.041516 0.015263
0.510064 -0.008559 0.041459
0.582165 0.055076 0.067429
0.558223 0.014309 0.003172
0.568784 0.041052 0.018750
0.569759 -0.000893 -0.000886
0.568042 -0.034842 -0.008075
0.576201 -0.029306 0.062932
0.564905 -0.021435 -0.008113
0.570857 -0.010949 0.073471
0.546326 -0.064391 0.007735
0.557293 0.056299 0.081373
0.590289 -0.003283 0.062111
0.577196 0.034404 0.075808
0.547855 -0.040621 0.060053
0.552800 -0.019373 0.072923
0.519468 -0.004382 0.006869
0.550040 0.095990 0.066828
0.552007 -0.016853 -0.007889
0.546344 -0.066590 0.029061
0.586965 -0.052301 0.022989
0.566305 0.059063 0.077864
0.561830 0.007638 0.079797
0.515617 0.056829 0.034290
0.533916 0.028591 0.011033
0.550189 -0.021634 -0.008497
0.517468 0.092788 0.040187
0.557637 -0.036148 -0.009208
0.518995 -0.011340 0.055965
0.535578 0.090563 0.071633
0.533694 0.104357 0.057173
0.574495 -0.010965 -0.002534
0.513239 -0.003655 0.013618
0.562845 0.046675 0.020179
0.580031 -0.033274 0.057617
0.511798 0.047685 0.040493
0.560790 -0.031085 0.067448
0.546829 0.027521 0.081540
0.540379 -0.019905 -0.006382
0.569156 0.006971 0.077861
0.591569 0.031438 0.063616
0.592867 -0.037275 0.029911
0.564139 0.011078 0.002725
0.596296 0.020937 0.033341
0.515259 0.069368 0.037499
0.591948 0.026196 0.029422
0.563801 0.044119 0.018975
0.598843 0.004533 0.031367
0.558821 0.000300 0.078931
0.597849 -0.010738 0.024874
0.524608 0.077201 0.070898
0.548863 -0.065623 0.007687
0.517664 0.025865 0.061860
0.546014 -0.008535 -0.005311
0.536893 0.000081 -0.000900
0.543496 0.102819 0.054887
0.542362 0.051166 0.019594
0.518655 0.055739 0.030099
0.523748 0.008954 0.007439
0.544477 -0.059604 0.002958
0.576860 0.005134 0.074281
0.576958 -0.051114 0.045096
0.567340 -0.041686 0.059547
0.579234 -0.053794 0.039671
0.523999 -0.031248 0.002839
0.518479 0.084920 0.063927
0.510639 0.015731 0.022461
0.554386 -0.028866 0.068863
0.577500 0.062729 0.041133
0.561882 0.008599 0.079923
0.519033 -0.038093 0.034147
0.547863 -0.002637 0.077428
0.583018 -0.007072 0.067949
0.585857 0.007655 0.068526
0.550652 0.098791 0.056614
0.520913 0.024889 0.015100
0.552994 0.086834 0.072492
0.595467 0.005386 0.056468
0.565656 -0.060232 0.000958
0.528855 0.019114 0.072150
0.550295 -0.029248 0.068291
0.512198 0.063001 0.050679
0.535790 -0.008981 0.071110
0.522864 0.026323 0.014501
0.593760 0.025228 0.061114
0.580055 0.055282 0.069448
0.555770 0.095079 0.059069
0.530678 -0.051034 0.037643
0.543519 -0.020229 -0.007207
0.509495 -0.016004 0.028105
0.583418 0.061571 0.053592
0.537596 -0.029233 -0.005766
0.535339 0.042405 0.078350
0.511988 -0.013593 0.015430
0.538327 -0.049321 -0.001102
0.514843 0.089140 0.057630
0.569452 -0.068009 0.026306
0.593038 -0.036137 0.020230
0.559590 0.090806 0.054397
0.584481 0.045267 0.033176
0.569593 -0.016766 -0.005997
0.581251 -0.015900 0.000267
0.583333 0.003247 0.069918
0.545316 0.061076 0.024128
0.578360 -0.044346 0.050325
0.533260 -0.018194 0.066436
0.588710 0.044531 0.064165
0.513521 -0.003331 0.013268
0.573066 -0.049481 0.049845
0.536399 -0.058852 0.009300
0.512097 -0.019063 0.016220
0.525930 0.022534 0.011351
0.520774 0.035696 0.019877
0.565886 -0.036768 0.063326
0.594183 0.038041 0.043698
0.545091 0.072515 0.029471
0.565567 0.049164 0.022409
0.597600 -0.015147 0.042430
0.562447 0.020749 0.081330
0.521724 0.024367 0.014365
0.530985 0.057684 0.076206
0.537663 -0.058235 0.035789
0.577530 -0.059936 0.033137
0.511704 0.052774 0.046742
0.564206 0.033872 0.081730
0.530052 0.056991 0.075667
0.546160 -0.066606 0.012783
0.571238 -0.066503 0.012598
0.592613 -0.024453 0.012526
0.526884 -0.042139 0.044160
0.556749 0.036868 0.082847
0.529730 0.008197 0.004302
0.538212 0.069772 0.027586
0.536002 -0.059444 0.010921
0.551104 0.090409 0.041589
0.544927 -0.053741 -0.001791
0.585436 0.001382 0.067936
0.588618 0.037099 0.032311
0.578261 0.069479 0.057423
0.542727 0.050100 0.081055
0.542586 0.018613 0.004929
0.574690 -0.014286 0.070735
0.555271 -0.070911 0.019138
0.513934 -0.008811 0.049765
0.595661 0.001847 0.055267
0.594953 -0.028389 0.036249
0.598436 0.001137 0.047101
0.540206 -0.044316 0.054049
0.564807 -0.049148 0.054282
0.557217 -0.026798 -0.009402
0.546799 0.096059 0.067787
0.508287 -0.008022 0.030527
0.536257 0.104950 0.052479
0.573129 0.035865 0.078102
0.511891 0.044769 0.037938
0.528639 0.042458 0.074307
0.593963 -0.006355 0.056042
0.513336 -0.001466 0.013809
0.589861 -0.000519 0.063270
0.572629 -0.054467 0.044970
0.509554 0.020149 0.026896
0.556354 -0.071013 0.018829
0.596818 -0.006678 0.022037
0.511063 0.010435 0.019898
0.552497 -0.067407 0.008532
0.588121 -0.003107 0.010224
0.586934 -0.036929 0.046858
0.553112 -0.014883 0.074635
0.520825 0.098277 0.059646
0.576044 0.069026 0.047563
0.558721 -0.051918 0.052510
0.509403 0.021206 0.045836
0.513556 0.074154 0.041477
0.562281 0.017690 0.081010
0.547249 0.079448 0.033511
0.577941 -0.045282 0.049868
0.524347 0.054278 0.071413
0.588351 0.022218 0.022487
0.514593 -0.009168 0.050691
0.511895 -0.007815 0.046433
0.534688 -0.054217 0.005107
0.562871 0.080308 0.042917
0.513183 0.057755 0.039627
0.570657 0.040642 0.019251
0.589227 -0.017938 0.007493
0.583784 0.012957 0.013113
0.576420 -0.024324 -0.004366
0.514144 0.043499 0.031111
0.575218 0.065847 0.069412
0.560635 0.083004 0.043389
0.533819 -0.054338 0.037132
0.532327 0.104298 0.045657
0.596241 -0.016884 0.020936
0.556787 -0.003233 0.078256
0.514589 0.092248 0.055367
0.552239 0.062490 0.080859
0.512795 0.071907 0.043645
0.507721 0.017095 0.033831
0.544758 -0.023252 -0.007771
0.563321 -0.036479 0.064136
0.524598 -0.034755 0.049113
0.508042 0.017873 0.040338
0.591165 -0.033103 0.010874
0.572743 -0.004608 -0.001216
0.597954 0.024853 0.041450
0.588699 -0.017555 0.006891
0.592999 -0.016238 0.053038
0.574549 -0.004100 -0.000231
0.595630 -0.005695 0.019716
0.546766 -0.064061 0.006824
0.568424 -0.041616 -0.006840
0.547799 0.086103 0.037146
0.554169 0.027262 0.082458
0.534644 0.087464 0.033701
0.529414 -0.007597 0.067353
0.530613 0.048387 0.075903
0.550520 0.086192 0.038507
0.566724 -0.069609 0.023708
0.510686 0.038791 0.040726
0.574275 0.019776 0.009840
0.511820 0.040854 0.035332
0.551688 -0.043907 0.058508
0.544056 0.012734 0.079274
0.529512 0.090594 0.069938
0.512907 0.079401 0.043817
0.574853 0.032206 0.016576
0.513149 0.083429 0.055228
0.541563 0.045814 0.017197
0.541573 -0.002852 -0.002951
0.599247 0.013314 0.043337
0.537738 -0.052943 0.043507
0.568782 0.036846 0.080148
0.564709 0.043389 0.018806
0.536047 -0.022689 -0.005186
0.522672 0.017438 0.066431
0.572183 0.001698 0.000923
0.599667 -0.005135 0.034996
0.541254 0.060298 0.080068
0.512465 0.085706 0.047629
0.537929 0.092357 0.070934
0.593986 -0.016375 0.051183
0.598900 -0.011958 0.038468
0.545366 0.030634 0.081417
0.537038 -0.041316 0.054908
0.574767 -0.045058 0.052681
0.541101 -0.004424 0.074891
0.541108 0.065072 0.079535
0.549919 0.055888 0.081748
0.534165 0.103662 0.059143
0.513383 0.075061 0.042009
0.548048 0.098181 0.047116
0.586103 0.003109 0.067666
0.522468 0.057633 0.069801
0.522569 0.089877 0.066244
0.539927 -0.040725 -0.005049
0.514067 0.006393 0.014577
0.571070 -0.056561 0.000676
0.554758 -0.017647 -0.008153
0.595031 0.033192 0.040359
0.541238 -0.056930 0.041314
0.562611 -0.028410 -0.009229
0.515086 0.021464 0.057888
0.586885 -0.008002 0.007324
0.536257 0.027953 0.077913
0.579336 0.059745 0.040277
0.515341 -0.033722 0.019253
0.531737 0.066048 0.026756
0.599011 0.003589 0.044514
0.529476 -0.020719 0.062734
0.569317 0.041603 0.079556
0.561217 -0.032506 0.066677
0.549462 -0.057274 0.045346
0.561625 -0.056519 0.047473
0.569893 0.008570 0.077835
0.544461 0.014670 0.079644
0.569007 -0.065556 0.032715
0.556254 0.021586 0.081978
0.542176 0.034297 0.011839
0.516731 0.045564 0.028268
0.596634 -0.016758 0.022165
0.575974 -0.011110 -0.001819
0.582795 0.038679 0.026545
0.507770 0.000158 0.036817
0.543023 0.039593 0.014168
0.578807 -0.041235 -0.001898
0.519202 0.029692 0.018378
0.557179 0.076904 0.036051
0.507514 0.014803 0.034110
0.528918 -0.034123 0.054681
0.577734 0.070161 0.056676
0.543465 -0.057771 0.041811
0.586421 -0.052492 0.026927
0.586884 0.056173 0.055445
0.570483 -0.050425 -0.002965
0.595994 0.031860 0.041734
0.591860 -0.023278 0.050337
0.533781 -0.048840 0.001548
0.512104 0.038054 0.052377
0.552615 -0.068254 0.030476
0.590436 -0.025414 0.051114
0.547288 -0.039693 0.060589
0.570826 0.010594 0.004089
0.587039 0.016613 0.068308
0.553495 -0.058418 -0.001415
0.588754 -0.036238 0.007076
0.582556 0.040699 0.027649
0.536274 -0.048034 0.048002
0.587108 0.050453 0.042397
0.530821 0.072134 0.075264
0.514455 0.040772 0.029030
0.597786 0.023488 0.052683
0.507929 -0.002692 0.035755
0.594725 0.039070 0.053019
0.526639 -0.015825 0.062388
0.586998 -0.005857 0.008125
0.515282 0.045558 0.030262
0.595321 0.001055 0.055741
0.548722 0.058220 0.023186
0.585714 0.031255 0.024964
0.568672 0.032444 0.080300
0.598980 -0.008899 0.029389
0.529558 0.068600 0.027970
0.524619 0.103499 0.046136
0.514871 0.009856 0.056269
0.514981 0.062839 0.036814
0.584267 -0.040262 0.047541
0.548464 -0.025773 0.069648
0.582511 -0.057595 0.015695
0.555192 -0.069138 0.011195
0.537570 0.085595 0.074109
0.564581 -0.001263 0.077738
0.581851 -0.029658 -0.001185
0.539904 0.069149 0.078743
0.595049 0.019154 0.059123
0.553514 -0.065431 0.004931
0.550683 0.054725 0.021771
0.513789 0.071001 0.057424
0.571038 -0.064421 0.032980
0.513326 0.058879 0.055899
0.595448 0.033480 0.041891
0.598117 0.002610 0.027642
0.576104 -0.037329 0.057823
0.598552 0.017454 0.050121
0.570081 -0.026885 0.067234
0.520329 0.071212 0.067645
0.548738 -0.010923 -0.006257
0.597402 0.028231 0.052170
0.512519 0.068344 0.052975
0.580716 0.041280 0.026219
0.547549 -0.064754 0.034081
0.548365 -0.049079 0.053141
0.526212 -0.033145 0.001285
0.542017 -0.024427 -0.007189
0.526929 0.042827 0.019593
0.596498 -0.000713 0.052739
0.555640 -0.069355 0.011633
0.536551 0.031789 0.078364
0.558950 -0.020462 -0.008632
0.531217 -0.055984 0.011985
0.571191 -0.004867 -0.001889
0.591350 0.028770 0.030274
0.517892 0.053003 0.064361
0.532250 -0.055162 0.033358
0.516297 0.033396 0.022756
0.507674 -0.001873 0.033165
0.519132 0.053402 0.065992
0.552526 -0.014565 0.074686
0.541036 0.031509 0.010754
0.594849 0.024882 0.059439
0.587062 -0.043336 0.007539
0.553672 -0.004276 0.077902
0.568816 0.001826 0.077160
0.547328 -0.059162 0.000966
0.537513 -0.060080 0.032175
0.566003 0.081939 0.068544
0.563311 -0.044158 -0.007292
0.555647 0.087487 0.042878
0.512186 0.037248 0.031494
0.510375 -0.020239 0.025427
0.584571 0.059823 0.053569
0.596050 0.015290 0.057011
0.582784 0.026946 0.019534
0.570522 0.010784 0.004063
0.582946 0.056207 0.065925
0.554701 0.041239 0.082850
0.560118 0.029107 0.010224
0.537565 -0.033917 0.060696
0.561889 0.026392 0.081961
0.576296 -0.062773 0.012392
0.581473 0.044364 0.029046
0.583380 0.039297 0.027559
0.569946 0.045624 0.078729
0.583930 -0.052065 0.034956
0.534231 0.045474 0.018356
0.565020 0.074897 0.039620
0.543346 0.013916 0.002852
0.590491 0.013389 0.019952
0.507669 0.003534 0.028503
0.534920 -0.058926 0.030416
0.575493 0.063425 0.039152
0.514042 -0.029421 0.017592
0.555787 -0.037809 0.063830
0.546844 0.022112 0.005997
0.588324 0.037017 0.066591
0.581905 0.026301 0.072801
0.514330 0.036491 0.057678
0.598408 -0.009705 0.043400
0.563452 0.072172 0.075364
0.539846 0.020336 0.078799
0.557928 -0.033012 -0.009448
0.598699 -0.005078 0.027661
0.515011 0.095739 0.048277
0.513615 -0.011842 0.012504
0.587803 -0.040336 0.042108
0.591902 -0.030626 0.043744
0.527910 -0.023962 0.059989
0.570310 0.026827 0.011561
0.579808 0.063326 0.046037
0.551514 0.011463 0.080619
0.526072 0.052790 0.072820
0.546066 0.015953 0.080214
0.594991 -0.025760 0.040306
0.534710 -0.048894 0.045588
0.597233 0.028457 0.052772
0.554684 -0.001933 0.078532
0.517297 0.014171 0.013729
0.554788 0.050498 0.020383
0.580766 0.051884 0.034154
0.579694 -0.018712 -0.001444
0.555435 0.094211 0.065049
0.523221 -0.016173 0.002356
0.598450 0.023298 0.049386
0.565588 0.084429 0.066013
0.535355 -0.060367 0.027414
0.515566 0.095062 0.055007
0.575945 0.035266 0.076534
0.533938 0.073546 0.029031
0.554345 -0.042476 0.060196
0.512047 0.055621 0.043780
0.589954 0.046770 0.043889
0.550168 -0.057407 0.045426
0.522228 -0.040052 0.038737
0.509156 0.018470 0.027148
0.509942 0.017495 0.047954
0.576504 0.043824 0.075166
0.597993 0.011411 0.051397
0.532447 -0.009291 -0.001919
0.535257 -0.046293 0.049043
0.584218 -0.009576 0.004361
0.562560 0.087136 0.052712
0.554688 -0.038272 0.063403
0.528990 -0.022296 -0.001798
0.589710 0.047881 0.044906
0.570964 0.027881 0.079298
0.522000 0.061237 0.028907
0.556688 -0.065397 0.036555
0.580096 0.056557 0.037793
0.524887 0.067834 0.071936
0.593559 0.038309 0.058511
0.599066 0.017952 0.046196
0.557387 -0.032233 -0.009469
0.529885 0.020078 0.008745
0.574182 -0.040797 -0.004754
0.521869 -0.046509 0.022483
0.592567 -0.030489 0.013614
0.571846 0.062871 0.034766
0.514928 0.040589 0.058991
0.513772 0.081266 0.041804
0.598972 0.007105 0.045327
0.563527 -0.070031 0.026047
0.535134 0.094056 0.036124
0.543111 0.005016 0.077760
0.518234 0.046512 0.026985
0.528427 -0.045207 0.042511
0.580190 -0.040115 -0.001192
0.531890 0.016790 0.006744
0.593445 -0.020768 0.014219
0.584043 0.060085 0.051424
0.563456 0.061594 0.078543
0.570087 0.051625 0.025637
0.530716 0.072953 0.029118
0.520374 -0.042946 0.016577
0.567446 0.049703 0.079282
0.528303 0.062363 0.074531
0.554404 -0.058590 -0.001416
0.586182 -0.048658 0.010058
0.579341 0.067911 0.057701
0.598274 0.025598 0.048473
0.586813 -0.021670 0.058351
0.542191 0.099316 0.043011
0.515924 -0.034616 0.029934
0.592263 0.000637 0.060593
0.528124 0.086075 0.033207
0.596600 0.028046 0.039575
0.525852 -0.052225 0.020114
0.564619 0.039739 0.081487
0.515680 -0.031896 0.034410
0.563717 0.050923 0.080583
0.521564 -0.000784 0.006011
0.545119 0.082988 0.075550
0.597757 0.022504 0.052983
0.582451 -0.025027 -0.000415
0.539088 0.088198 0.034958
0.528477 0.103527 0.057098
0.541058 0.100246 0.064970
0.597490 -0.015439 0.024896
0.517357 -0.030379 0.010766
0.533185 -0.054071 0.006478
0.581118 -0.060002 0.019913
0.548917 -0.033945 0.065268
0.518940 -0.014592 0.054617
0.517212 -0.037667 0.027897
0.551605 0.039683 0.014207
0.518151 -0.029671 0.043336
0.533940 -0.021516 -0.004262
0.509488 -0.014533 0.024606
0.558649 0.012549 0.080835
0.540436 0.003200 0.076422
0.536553 0.016952 0.076887
0.557382 -0.068447 0.031499
0.570666 0.010248 0.003883
0.515740 -0.011793 0.051340
0.576576 0.018602 0.010583
0.513373 0.079811 0.042528
0.586492 -0.012182 0.005724
0.517093 0.038840 0.062299
0.570911 0.073803 0.045506
0.511915 -0.017355 0.016191
0.517817 -0.015884 0.052527
0.568516 0.033482 0.014430
0.514065 -0.021950 0.012878
0.553077 -0.068423 0.030327
0.549353 -0.063851 0.004718
0.564923 0.086104 0.057476
0.553005 -0.023391 0.071278
0.548802 -0.066291 0.032101
0.594774 0.017383 0.059462
0.584722 -0.031889 0.053974
0.516193 0.076129 0.037195
0.592432 -0.030466 0.013240
0.522682 0.098445 0.039715
0.512713 0.059116 0.053813
0.572320 0.077543 0.061083
0.512241 -0.010492 0.045830
0.592243 -0.036907 0.034573
0.521500 0.102494 0.051083
0.527819 -0.010331 0.065282
0.597488 0.018015 0.053941
0.536506 -0.038234 -0.004151
0.517997 0.074625 0.034974
0.581058 -0.012291 0.001058
0.592244 0.032615 0.034267
0.542767 0.099791 0.065196
0.568620 0.082218 0.060074
0.594420 -0.021017 0.046924
0.579520 0.007475 0.007352
0.583515 0.005733 0.070152
0.555074 -0.059267 -0.001025
0.519797 0.078376 0.066425
0.570915 0.057032 0.075778
0.564538 0.057657 0.027140
0.519984 -0.042013 0.016174
0.527518 -0.019880 -0.000824
0.574032 -0.010793 -0.002698
0.514348 0.032267 0.057444
0.518265 -0.038609 0.030538
0.513269 -0.017649 0.043623
0.580047 -0.056397 0.035118
0.561602 -0.011128 -0.005983
0.599396 -0.000298 0.032261
0.574471 0.018742 0.009440
0.531574 0.040034 0.076160
0.599217 0.005318 0.043075
0.540780 0.073718 0.078081
0.549999 0.090832 0.070788
0.543691 0.042381 0.081399
0.515964 -0.019833 0.047428
0.518891 -0.022841 0.006474
0.529132 -0.023049 -0.001890
0.573193 0.032078 0.078230
0.510606 0.035096 0.035541
0.587087 0.035719 0.029358
0.599064 0.008792 0.035397
0.560529 0.000819 -0.001946
0.571941 -0.057948 0.041349
0.524688 0.008111 0.006636
0.529402 0.096464 0.066780
0.520057 0.007868 0.009469
0.516821 0.096475 0.056079
0.558064 0.012119 0.002204
0.528521 -0.041801 0.046910
0.517819 0.009642 0.059967
0.586442 0.036453 0.068524
0.534028 0.098790 0.038582
0.575915 -0.041972 0.054390
0.527045 0.103681 0.055785
0.589442 -0.023654 0.053826
0.535241 0.104453 0.057181
0.584442 -0.016782 0.002648
0.578203 -0.029058 0.061742
0.532049 -0.020792 0.064565
0.513392 -0.013562 0.012866
0.554942 0.011180 0.080789
0.591699 -0.041318 0.027041
0.553592 0.085323 0.039695
0.509695 0.021972 0.046701
0.581727 -0.058791 0.016618
0.536488 -0.059364 0.032083
0.550485 0.049938 0.082296
0.543640 0.092349 0.070802
0.522479 -0.034064 0.046563
0.520184 0.068827 0.067581
0.595188 -0.029599 0.029241
0.533779 -0.059104 0.014235
0.596088 0.009790 0.056084
0.511857 0.016956 0.052228
0.515174 0.010098 0.014435
0.568654 -0.058572 0.042627
0.588337 0.039352 0.033649
0.548804 -0.069102 0.022465
0.553223 0.092211 0.068866
0.596042 0.027870 0.037884
0.520551 0.066436 0.067992
0.582249 0.063339 0.053960
0.516649 -0.009108 0.053705
0.565378 0.033904 0.081410
0.519896 0.028454 0.017312
0.527504 0.043185 0.019504
0.598894 0.013598 0.047647
0.514891 -0.033629 0.025397
0.595966 0.019677 0.057513
0.577101 0.054433 0.032389
0.537245 0.030229 0.078573
0.508679 -0.005212 0.024243
0.512299 -0.023618 0.034915
0.544043 -0.065619 0.028558
0.519587 0.087153 0.036484
0.514345 0.065407 0.058693
0.523080 0.004249 0.006359
0.515885 0.092624 0.057831
0.509776 -0.008608 0.040493
0.546754 0.097958 0.066095
0.530260 0.043254 0.018520
0.588131 0.014793 0.067185
0.547603 0.008994 0.000439
0.577596 -0.030320 -0.004088
0.516370 -0.023238 0.009588
0.597072 -0.001271 0.051138
0.572025 0.077712 0.056840
0.559183 0.074416 0.035406
0.525688 -0.018799 0.060328
0.584899 0.032350 0.070278
0.546852 0.076216 0.077897
0.517291 -0.037273 0.029558
0.509344 0.028487 0.041529
0.518457 -0.011441 0.006796
0.539686 0.104042 0.057299
0.574588 0.057359 0.073214
0.562921 0.013748 0.003663
0.539518 0.091830 0.036573
0.563501 0.066573 0.077192
0.519725 -0.041190 0.030180
0.586638 -0.004644 0.065575
0.525760 -0.019002 0.060309
0.514747 0.038280 0.058536
0.529982 0.033002 0.014150
0.512955 0.025994 0.054578
0.589333 -0.047176 0.018725
0.515867 -0.034302 0.018021
0.568160 0.070509 0.073213
0.512035 0.001135 0.016156
0.578234 0.068206 0.062948
0.513249 -0.028443 0.030956
0.548399 0.019755 0.004908
0.508209 0.016972 0.029916
0.576414 -0.043770 -0.002685
0.580227 -0.021541 -0.001586
0.566501 -0.020317 0.071344
0.541416 -0.008381 -0.004457
0.588607 0.038326 0.033229
0.530380 -0.051133 0.037023
0.591063 -0.005858 0.060430
0.591427 -0.035754 0.039051
0.529117 -0.033238 0.055524
0.518118 0.055364 0.030554
0.590065 -0.042819 0.033138
0.594324 0.012382 0.059640
0.512628 -0.001484 0.050290
0.533042 0.056715 0.077320
0.529163 -0.008726 0.066835
0.551651 0.003074 0.079331
0.544198 -0.061144 0.004860
0.554796 -0.000121 0.078934
0.538856 -0.008778 -0.003931
0.560094 -0.010987 -0.006129
0.555152 -0.044373 -0.007558
0.548874 0.021186 0.005527
0.599550 0.001717 0.039376
0.532844 -0.051677 0.039792
0.525717 0.007886 0.067846
0.528640 -0.017963 -0.001375
0.571407 -0.054130 -0.000649
0.550700 0.086011 0.038491
0.598513 -0.000399 0.027895
0.530718 -0.028510 0.059808
0.507400 0.012938 0.035896
0.547647 0.100648 0.055458
0.523815 0.025607 0.013674
0.564823 0.073611 0.074104
0.527762 0.018148 0.071139
0.589709 0.014601 0.019708
0.543701 0.025635 0.080619
0.566733 -0.040457 0.060668
0.597641 -0.014854 0.042546
0.544655 -0.013168 0.073515
0.597092 0.026975 0.054077
0.577512 -0.013221 0.069614
0.595983 -0.015604 0.019977
0.515812 0.018745 0.058672
0.598281 0.012876 0.033797
0.566179 0.081171 0.069029
0.563561 -0.070477 0.023624
0.530469 0.079903 0.073774
0.582862 -0.036731 0.000249
0.528205 -0.045644 0.041597
0.516891 -0.028753 0.041729
0.578035 0.056000 0.034694
0.512792 0.012185 0.053514
0.514680 -0.008279 0.051181
0.527936 0.090083 0.069439
0.508262 0.014483 0.042510
0.555126 -0.045885 -0.007121
0.548432 0.049377 0.082141
0.544815 0.101717 0.061007
0.549362 -0.054379 -0.002937
0.521212 -0.030291 0.005472
0.550044 0.066832 0.080133
0.527086 -0.043996 0.004751
0.514509 0.011605 0.056035
0.549453 0.085708 0.073850
0.598647 0.000064 0.045963
0.575560 0.047251 0.075140
0.580925 -0.024364 0.062383
0.546144 0.019144 0.004758
0.586640 -0.017294 0.004634
0.539133 0.102335 0.062329
0.525250 -0.009916 0.001674
0.564181 -0.046774 -0.006295
0.571449 0.042163 0.078433
0.565544 0.032824 0.013204
0.556672 0.034843 0.012458
0.532502 0.058282 0.077008
0.522621 -0.046416 0.028082
0.510530 0.036991 0.044090
0.513745 -0.018940 0.043719
0.584088 -0.056459 0.023702
0.563761 0.046357 0.020240
0.559676 -0.009671 -0.005762
0.579481 0.047127 0.029071
0.584824 0.039974 0.069472
0.507436 0.003136 0.035459
0.507303 0.008789 0.035689
0.566628 0.074170 0.072764
0.559898 0.028131 0.009718
0.516258 0.063337 0.062289
0.531724 0.053858 0.076652
0.514889 0.087688 0.041313
0.577512 0.069416 0.062886
0.581364 0.020956 0.015142
0.593561 0.030658 0.035017
0.572635 -0.058541 0.040142
0.565865 -0.063442 0.037725
0.586946 -0.016757 0.005063
0.524761 0.103015 0.044549
0.581960 0.037890 0.072156
0.599452 0.005124 0.039492
0.522432 0.026638 0.067337
0.576176 -0.048162 -0.001086
0.553660 0.092091 0.045542
0.530792 -0.051457 0.006383
0.542506 0.000267 0.076582
0.519891 -0.043248 0.021937
0.523868 -0.024894 0.001949
0.555857 0.050351 0.020540
0.548913 -0.064857 0.034799
0.551381 -0.069813 0.024121
0.557874 0.059961 0.026325
0.593607 0.013878 0.060853
0.539236 -0.046259 0.051832
0.551809 -0.046838 -0.006525
0.587246 -0.051157 0.017382
0.595567 0.006987 0.056587
0.590303 0.016416 0.021398
0.598135 0.005976 0.029274
0.575050 -0.020810 0.067916
0.593280 -0.036507 0.024608
0.556366 -0.065277 0.036702
0.594964 0.015261 0.027156
0.575959 -0.010745 0.071273
0.573342 0.021562 0.077859
0.569517 -0.054339 -0.001374
0.582852 0.037358 0.025756
0.557137 0.014626 0.003154
0.571544 -0.008427 -0.002978
0.546853 0.085918 0.074095
0.599378 0.000990 0.041586
0.575490 -0.028800 0.063643
0.592407 -0.032617 0.014075
0.541491 0.006836 0.077520
0.519287 -0.038166 0.034739
0.593942 0.013242 0.024360
0.545470 0.026980 0.008233
0.568683 0.061726 0.031668
0.542767 0.084678 0.034598
0.548862 0.046067 0.017189
0.519750 -0.032521 0.008109
0.520134 -0.041006 0.031970
0.565847 -0.045266 0.057290
0.539090 -0.063537 0.025081
0.530296 0.061230 0.025477
0.508267 0.003452 0.025315
0.548947 -0.031273 -0.008723
0.571397 -0.038278 0.060096
0.581755 -0.031434 0.057351
0.527192 0.101632 0.060157
0.528820 -0.050763 0.008169
0.507848 0.007266 0.027718
0.562754 -0.047344 0.056332
0.528684 -0.024937 0.060153
