ply
format ascii 1.0
element vertex 1024
property float x
property float y
property float z
end_header
0.562473 0.036722 0.085312
0.597148 -0.032746 0.050555
0.598356 -0.037496 0.048893
0.547007 0.095770 0.034919
0.552072 -0.034128 0.002988
0.595563 0.020372 0.048227
0.557394 0.091200 0.035934
0.507733 0.020346 0.035528
0.604094 -0.030220 0.024884
0.588139 0.015683 0.024772
0.513790 0.052220 0.018178
0.512732 0.087593 0.049089
0.537619 -0.032557 0.014096
0.535166 -0.004412 -0.000594
0.522981 0.042681 0.007307
0.578924 0.017160 0.014395
0.598331 -0.000018 0.043903
0.541057 0.091387 0.026718
0.562142 0.073023 0.080942
0.544478 0.056671 0.007503
0.529851 -0.006956 0.002413
0.593524 -0.056452 0.011460
0.546017 0.100087 0.061573
0.573577 -0.044205 0.052067
0.609713 -0.047770 0.034908
0.563292 0.008287 0.077737
0.546640 0.072549 0.083892
0.523337 0.043354 0.078421
0.537280 -0.002498 0.068701
0.538354 0.067045 0.084067
0.582159 0.007600 0.014743
0.547699 0.042529 0.004079
0.550450 -0.042403 0.008288
0.558127 -0.053116 0.031983
0.512866 0.032410 0.065653
0.524748 -0.010786 0.049802
0.576509 0.006205 0.009672
0.541606 0.067515 0.011115
0.530382 0.060279 0.082548
0.559376 -0.039663 0.003617
0.519589 0.085315 0.029048
0.505021 0.049576 0.049056
0.530748 0.020838 0.077109
0.523734 0.079418 0.021376
0.542883 0.093362 0.029472
0.534356 0.058273 0.008170
0.544873 -0.030504 0.003894
0.526754 0.011661 0.070498
0.560325 0.091722 0.042004
0.608026 -0.044382 0.038559
0.608987 -0.042100 0.036071
0.516303 0.058298 0.017825
0.512581 0.011643 0.050508
0.572967 -0.002234 0.072070
0.522699 0.070126 0.017455
0.527522 -0.003971 0.060653
0.518561 0.076868 0.071938
0.570219 0.078747 0.070928
0.527956 0.037981 0.080558
0.580050 0.039958 0.077798
0.507075 0.023436 0.042533
0.523976 -0.014556 0.017743
0.544084 -0.025436 0.001954
0.573177 0.079073 0.044345
0.506428 0.062385 0.039140
0.551683 0.091566 0.030972
0.548223 0.100169 0.047444
0.530579 0.093029 0.029646
0.522709 0.088440 0.029078
0.505809 0.042904 0.032572
0.573425 -0.062251 0.017021
0.505959 0.039630 0.031653
0.524125 0.020929 0.003940
0.575233 0.030483 0.015185
0.569796 -0.043502 0.004275
0.546164 0.083857 0.079847
0.596425 0.000688 0.053494
0.561892 -0.038285 0.053772
0.533078 0.099015 0.038213
0.512609 0.032365 0.016117
0.550263 -0.037969 0.047993
0.559971 0.048596 0.009552
0.556697 -0.035900 0.053737
0.553055 -0.031021 0.001751
0.601786 -0.038649 0.016369
0.558419 0.011544 0.000425
0.584933 -0.026461 0.008514
0.561446 0.088967 0.037822
0.531869 0.003714 -0.000297
0.541537 -0.033951 0.044438
0.547711 -0.037825 0.006728
0.542964 0.065321 0.010376
0.519842 0.040962 0.075791
0.529165 0.026736 0.001924
0.548513 0.091570 0.073617
0.542236 -0.040730 0.025939
0.528383 0.068354 0.080592
0.522087 0.037258 0.006952
0.553598 0.086174 0.025723
0.570175 -0.013205 0.002154
0.533397 0.100719 0.062790
0.535993 0.019405 0.078824
0.576119 0.073239 0.067305
0.577647 0.040348 0.079561
0.593879 0.030248 0.053517
0.532942 0.063218 0.083217
0.506021 0.035907 0.031683
0.518224 0.018088 0.009221
0.581578 -0.020772 0.062477
0.542847 0.036901 0.085632
0.530039 0.047431 0.082574
0.511717 0.064072 0.026319
0.568356 0.075623 0.030138
0.513553 0.072423 0.067424
0.588106 0.031409 0.032431
0.566908 0.016579 0.004935
0.535177 0.084603 0.020380
0.590011 0.046085 0.054217
0.580255 0.062543 0.071018
0.541571 0.031053 0.084111
0.521687 0.032218 0.075460
0.575109 0.054297 0.079983
0.554683 -0.009033 0.069898
0.525363 0.019715 0.073390
0.515810 0.015821 0.061500
0.583928 -0.017377 0.062655
0.580306 0.030179 0.020146
0.541660 -0.022078 0.001549
0.538729 0.046292 0.085875
0.584184 -0.010025 0.064799
0.554541 0.097676 0.055957
0.590321 0.033435 0.066259
0.556481 -0.015300 0.066929
0.555913 0.007242 -0.000754
0.520633 0.043003 0.076557
0.533312 0.072021 0.013482
0.557666 0.079310 0.022491
0.564654 -0.019118 0.065601
0.518524 0.054151 0.075257
0.562174 -0.001615 -0.000050
0.551299 0.093562 0.033865
0.537533 0.095433 0.070899
0.517501 0.028961 0.010284
0.590046 -0.000290 0.020951
0.565533 0.086063 0.039752
0.594174 -0.024167 0.015965
0.571544 -0.061836 0.020030
0.545495 -0.026390 0.001861
0.603752 -0.055725 0.016759
0.548985 0.041701 0.004125
0.529827 0.096527 0.068176
0.514674 0.086434 0.061493
0.529628 0.099363 0.063812
0.573592 0.080005 0.060864
0.542958 0.084443 0.079498
0.511935 0.007681 0.035598
0.571568 0.025887 0.010515
0.594817 -0.064212 0.020971
0.534576 0.007096 0.072798
0.583927 -0.039253 0.054383
0.584608 0.033072 0.074039
0.537873 0.031080 0.083157
0.524367 0.074137 0.077190
0.579607 0.070480 0.061365
0.559666 -0.055191 0.027528
0.563879 0.013674 0.002782
0.529790 0.022615 0.077315
0.516974 0.076312 0.025569
0.546154 -0.044765 0.025012
0.566737 0.060460 0.083077
0.578978 0.061283 0.073851
0.505506 0.059121 0.047256
0.601166 -0.022915 0.025403
0.550430 0.077705 0.017822
0.530558 0.072960 0.080630
0.564603 0.033910 0.084570
0.543735 -0.026144 0.055014
0.540906 0.079310 0.081488
0.561806 -0.010332 0.069717
0.513043 0.085191 0.058617
0.566186 -0.026778 0.000993
0.554083 0.047775 0.086904
0.529275 0.069246 0.080842
0.519953 0.050303 0.011435
0.582606 -0.021943 0.007962
0.576055 0.001449 0.072605
0.585437 -0.048269 0.006758
0.532091 0.076541 0.015858
0.578352 0.015726 0.076430
0.606346 -0.039884 0.020883
0.512740 0.068246 0.067687
0.549653 0.003320 -0.001954
0.536489 0.038863 0.002380
0.563611 -0.004624 0.072290
0.580819 0.069326 0.057215
0.567013 0.074569 0.077410
0.571144 0.031814 0.082473
0.535261 -0.028295 0.011609
0.573669 0.041371 0.017585
0.568494 0.011661 0.004937
0.562201 0.056693 0.013796
0.553276 0.087570 0.026993
0.505788 0.040063 0.052039
0.561086 0.076849 0.023299
0.510518 0.018764 0.052802
0.544804 0.099218 0.064239
0.543202 -0.039836 0.036475
0.508301 0.021319 0.029265
0.524372 -0.017679 0.028665
0.521169 0.048444 0.077199
0.518987 0.024261 0.069989
0.588528 0.050639 0.057060
0.574057 -0.062507 0.017150
0.571293 0.072097 0.031086
0.530467 0.087780 0.075340
0.513999 0.083572 0.035313
0.540730 -0.039117 0.026751
0.520383 -0.000409 0.054245
0.600063 -0.014507 0.045382
0.590658 0.023406 0.033246
0.570807 0.076071 0.034328
0.610573 -0.046150 0.030564
0.560190 0.088464 0.034908
0.555045 0.025750 0.083864
0.578116 -0.062375 0.032809
0.594327 -0.064398 0.021147
0.555840 0.065972 0.013978
0.588653 0.045409 0.064645
0.573868 0.005906 0.007568
0.504933 0.046754 0.048411
0.594733 -0.011481 0.055337
0.512208 0.037443 0.066633
0.537563 -0.018242 0.057442
0.576597 0.072632 0.041967
0.516550 0.001890 0.048090
0.521408 -0.006689 0.013352
0.512261 0.068006 0.027361
0.568720 0.044647 0.014359
0.532832 0.020591 0.000143
0.603657 -0.026332 0.041521
0.540372 0.018547 -0.000803
0.572906 0.008726 0.007426
0.525384 0.034853 0.004680
0.519736 0.005631 0.059417
0.523558 0.050736 0.009236
0.579979 -0.052333 0.046777
0.542656 0.100414 0.062854
0.568159 -0.007120 0.070888
0.577136 0.063518 0.033088
0.583990 0.053326 0.038190
0.588731 -0.061005 0.013347
0.589473 0.001122 0.020745
0.600251 -0.010826 0.041588
0.591105 0.040188 0.048082
0.551055 0.098272 0.061209
0.513001 0.006151 0.041396
0.507140 0.068203 0.052836
0.508365 0.051139 0.062712
0.507917 0.073830 0.049749
0.576595 0.074518 0.063840
0.591647 -0.054561 0.044619
0.593104 0.024570 0.062065
0.516434 0.034324 0.071144
0.558075 -0.018428 -0.000801
0.520681 -0.001235 0.053832
0.557243 0.060160 0.085543
0.526543 0.007986 0.068310
0.507740 0.020104 0.039241
0.511846 0.008445 0.030727
0.581269 -0.058348 0.010575
0.594971 0.022761 0.046675
0.564658 -0.058600 0.021735
0.512193 0.018427 0.018763
0.538275 0.101681 0.044535
0.551534 -0.007296 0.070360
0.519288 0.034651 0.074137
0.594647 -0.029726 0.052963
0.535635 0.015891 0.077297
0.594694 0.022162 0.044269
0.518893 -0.000110 0.013309
0.535454 -0.029871 0.014069
0.574811 -0.056550 0.009547
0.541933 0.069059 0.084239
0.574935 0.073645 0.039348
0.576702 0.045839 0.079922
0.545913 -0.024741 0.001163
0.574021 0.079333 0.048569
0.553413 -0.028839 0.057899
0.584070 0.051972 0.070933
0.562008 0.092238 0.059291
0.599770 -0.054268 0.042474
0.516568 0.092428 0.057209
0.518712 0.073103 0.022123
0.573428 -0.050018 0.006368
0.551045 0.000707 -0.001979
0.558712 0.072261 0.018654
0.547576 0.068644 0.012427
0.510722 0.010836 0.035284
0.588956 -0.009200 0.016196
0.505849 0.059789 0.051206
0.536263 0.025787 0.081145
0.528535 -0.017505 0.009868
0.588829 0.045394 0.064119
0.507390 0.063684 0.057295
0.552649 0.093127 0.069986
0.581158 0.055775 0.073693
0.593052 0.027316 0.042165
0.596697 0.011341 0.044173
0.509047 0.044841 0.063387
0.535038 0.000642 -0.001057
0.590653 -0.021469 0.013743
0.571766 0.002798 0.005447
0.510814 0.043334 0.019747
0.524640 -0.011570 0.048593
0.594681 0.023688 0.045948
0.564137 -0.039823 0.053281
0.535469 0.076396 0.081327
0.510491 0.082535 0.050705
0.593055 -0.019329 0.056079
0.528871 -0.021950 0.041534
0.564785 -0.039022 0.054042
0.540795 0.097823 0.067759
0.524655 0.099851 0.048672
0.528831 0.068677 0.013516
0.544122 0.057772 0.086188
0.534301 -0.025577 0.046349
0.588861 0.043192 0.042413
0.595131 -0.018706 0.019285
0.551635 0.092558 0.071322
0.586811 -0.042478 0.006881
0.556256 0.096648 0.055970
0.509800 0.013686 0.033594
0.545397 0.007965 -0.001833
0.550251 -0.033706 0.003313
0.550211 -0.035945 0.050128
0.584576 0.035674 0.028297
0.508313 0.023369 0.050112
0.529039 0.097996 0.065832
0.563308 0.027193 0.083605
0.511303 0.021953 0.019642
0.510736 0.057304 0.024786
0.514319 0.027769 0.013988
0.528325 0.054434 0.081796
0.510116 0.060029 0.065494
0.564593 0.081231 0.030916
0.575591 -0.063412 0.020023
0.579389 0.038000 0.078384
0.595860 -0.061762 0.016713
0.526202 -0.020562 0.032169
0.595026 -0.007614 0.055369
0.560327 -0.026918 0.061019
0.508404 0.027761 0.024993
0.589409 0.043586 0.063675
0.509037 0.018406 0.028893
0.508596 0.070561 0.057560
0.592920 0.018288 0.062997
0.528486 0.098353 0.064913
0.527749 0.049227 0.006837
0.592166 0.030331 0.062916
0.539000 0.101578 0.061313
0.542345 0.053030 0.006191
0.505631 0.056804 0.039735
0.519635 0.019714 0.068540
0.598534 -0.062189 0.034789
0.557685 -0.027442 0.000512
0.513997 0.062806 0.070501
0.581587 0.005760 0.071626
0.604319 -0.032669 0.042537
0.523637 -0.008990 0.049946
0.589687 -0.029219 0.010903
0.506007 0.060770 0.051728
0.570000 -0.034727 0.057558
0.545357 0.025655 0.000417
0.562147 0.026954 0.083708
0.567151 0.028308 0.083115
0.558379 0.091949 0.067198
0.573999 -0.034454 0.003173
0.598693 -0.018720 0.049337
0.566786 0.011822 0.003944
0.536983 0.066414 0.010749
0.550237 0.038327 0.003595
0.550011 0.077713 0.017678
0.597301 -0.002228 0.050998
0.543149 -0.038503 0.012942
0.576312 -0.037033 0.003872
0.538795 0.072211 0.083113
0.602417 -0.057354 0.016739
0.524440 0.057850 0.011354
0.519967 0.008651 0.062227
0.602688 -0.055324 0.040189
0.549462 -0.044767 0.037258
0.602490 -0.032309 0.045155
0.588451 0.016253 0.069052
0.573188 0.076457 0.039507
0.510330 0.043911 0.065581
0.545665 0.048754 0.086938
0.584492 0.011653 0.071548
0.527101 0.076353 0.017728
0.558877 0.060042 0.013060
0.528345 0.012653 0.000973
0.537869 0.066443 0.010689
0.506680 0.037275 0.028753
0.557302 0.059181 0.011933
0.530399 0.049795 0.006190
0.545230 0.099556 0.063324
0.549349 0.092141 0.030346
0.589901 -0.036628 0.009211
0.532104 -0.018023 0.052447
0.601197 -0.036613 0.016905
0.542731 0.016620 0.079708
0.560584 -0.032387 0.057610
0.587316 -0.037321 0.007761
0.519285 0.095067 0.058758
0.591497 -0.004750 0.060300
0.561395 0.034253 0.006153
0.595029 -0.002947 0.055951
0.518238 0.052274 0.075051
0.534448 -0.005488 0.065132
0.583136 -0.061835 0.036575
0.605521 -0.038273 0.041772
0.562121 0.020411 0.003307
0.599930 -0.048449 0.045190
0.589202 0.006727 0.022625
0.580977 0.057260 0.035002
0.521374 0.020624 0.006096
0.532845 0.067497 0.082548
0.528164 -0.022938 0.035984
0.572108 0.009473 0.006989
0.577469 0.073729 0.047064
0.558423 -0.002946 0.073074
0.560601 0.053742 0.011655
0.518427 0.040248 0.010141
0.556160 -0.043437 0.046173
0.606119 -0.045596 0.041073
0.577795 -0.063161 0.029891
0.507144 0.038605 0.027188
0.513822 0.043385 0.015446
0.539925 -0.020720 0.057085
0.531130 0.051303 0.083245
0.506400 0.058607 0.055361
0.531764 0.010413 0.073022
0.558636 -0.046856 0.043878
0.547583 -0.040332 0.042411
0.592487 -0.065033 0.022039
0.604486 -0.033722 0.042512
0.588661 -0.052217 0.008309
0.510276 0.012553 0.032183
0.573671 -0.036507 0.056700
0.589659 -0.059546 0.040392
0.567130 0.088072 0.052332
0.591820 0.037018 0.059942
0.536506 0.099413 0.038655
0.569330 0.073101 0.029241
0.534504 0.006566 -0.001096
0.530238 0.072249 0.080660
0.560288 0.082815 0.027649
0.570441 -0.001429 0.072936
0.542870 0.058554 0.007957
0.546896 -0.017183 0.063515
0.556139 -0.015418 -0.001249
0.570863 0.065637 0.079292
0.598264 -0.015793 0.025464
0.516621 0.027493 0.011220
0.539964 0.029747 0.083386
0.530227 -0.026253 0.033153
0.511806 0.039065 0.066586
0.522215 0.070684 0.076514
0.513298 0.069748 0.067990
0.516773 0.000714 0.046799
0.534782 -0.007200 0.064127
0.513887 0.086517 0.059481
0.528617 -0.013117 0.053204
0.587229 0.019098 0.024813
0.598289 -0.001884 0.046761
0.523467 0.057025 0.011583
0.554368 0.065762 0.013264
0.553477 0.009823 -0.000881
0.579284 0.027673 0.078072
0.587488 0.013583 0.022890
0.539663 0.089619 0.024673
0.596085 0.016842 0.047357
0.580548 -0.028005 0.005751
0.587428 0.017858 0.070375
0.539634 0.045166 0.086031
0.551354 -0.033820 0.003049
0.528118 0.072778 0.079591
0.511800 0.081247 0.037679
0.540184 -0.021383 0.001858
0.541803 0.096809 0.034602
0.532444 0.006837 -0.000571
0.506098 0.044362 0.031507
0.563506 0.089865 0.063769
0.582949 -0.011252 0.065091
0.524790 0.088707 0.072023
0.505620 0.045442 0.033915
0.521599 0.047341 0.077464
0.563310 0.044715 0.010171
0.515054 0.001660 0.025690
0.548446 0.100759 0.051782
0.529707 0.080959 0.019161
0.553806 0.007542 -0.001088
0.533081 0.060763 0.083574
0.545774 -0.008834 -0.001926
0.571030 -0.050567 0.046440
0.597236 0.001216 0.051005
0.520820 0.006776 0.007049
0.578627 0.030571 0.078733
0.529278 -0.005873 0.002494
0.544123 0.025905 0.083159
0.543214 0.056389 0.007284
0.597976 -0.003226 0.048806
0.510887 0.022254 0.020482
0.586109 -0.006111 0.014462
0.549391 0.016842 -0.000490
0.526253 -0.019594 0.038124
0.520778 0.046600 0.009695
0.600013 -0.018713 0.026536
0.606783 -0.057637 0.023152
0.566620 0.008641 0.077565
0.601469 -0.020820 0.044350
0.505507 0.058780 0.043578
0.521117 0.030947 0.074598
0.519202 0.091863 0.037604
0.534835 0.101504 0.061321
0.573137 -0.059855 0.034719
0.516072 0.008049 0.055203
0.542199 0.080358 0.017489
0.561663 -0.049654 0.042573
0.516700 0.005977 0.014130
0.541445 0.102334 0.057944
0.584224 -0.002346 0.013885
0.592810 -0.040024 0.051354
0.512887 0.085627 0.057560
0.588871 -0.029630 0.056447
0.533395 0.005428 -0.000814
0.527369 0.038600 0.004327
0.505618 0.049489 0.053306
0.519344 0.013141 0.007975
0.508105 0.035026 0.057615
0.582234 -0.045977 0.051168
0.574936 0.066188 0.031658
0.523425 0.003349 0.004956
0.595288 -0.035299 0.051400
0.556148 0.007822 -0.000638
0.527320 0.083340 0.075985
0.521549 0.059371 0.077347
0.575319 0.077139 0.062286
0.574100 0.076800 0.042385
0.595930 0.006423 0.036170
0.511248 0.025584 0.018964
0.534176 0.101439 0.061288
0.548065 -0.020441 0.061778
0.565700 0.075934 0.027114
0.555561 0.088812 0.073883
0.560196 0.060537 0.014030
0.541330 0.015959 -0.001107
0.578074 -0.029890 0.059664
0.541830 0.075061 0.082879
0.596814 0.011009 0.049961
0.580768 0.031509 0.077327
0.576416 -0.031110 0.059321
0.520120 0.019387 0.068864
0.587456 0.021860 0.026417
0.519087 0.001282 0.011848
0.527474 0.086096 0.023861
0.521767 0.009438 0.064884
0.515005 0.006324 0.050334
0.550641 0.099382 0.057909
0.537043 0.080059 0.080557
0.556582 -0.051298 0.012237
0.551866 0.094003 0.035142
0.581797 -0.040624 0.005378
0.595654 0.002274 0.055479
0.575996 0.050877 0.079895
0.544429 -0.023266 0.001069
0.515719 0.010384 0.014113
0.552855 0.023334 0.001091
0.563605 0.044559 0.010303
0.536182 -0.028190 0.009794
0.537504 -0.029164 0.045927
0.574356 0.025585 0.012827
0.530327 0.041980 0.082258
0.527025 -0.016420 0.046769
0.523095 0.097460 0.043068
0.555205 0.003724 -0.001259
0.552726 0.008760 -0.001121
0.532060 -0.028841 0.030471
0.508564 0.075760 0.043182
0.593095 0.005696 0.028870
0.572352 -0.028013 0.002425
0.583371 0.040693 0.028855
0.541772 0.034301 0.001578
0.586015 0.030153 0.072679
0.540328 0.080035 0.081162
0.560921 -0.017910 -0.000538
0.574592 0.063192 0.077545
0.514849 0.044542 0.071729
0.582637 0.032614 0.024007
0.524042 -0.013151 0.014701
0.519724 -0.009105 0.027333
0.577504 -0.013122 0.066631
0.512012 0.038539 0.017143
0.549773 -0.048064 0.021808
0.540741 -0.011482 0.064659
0.561496 0.086180 0.033160
0.523684 0.044653 0.007364
0.608359 -0.053648 0.034930
0.585599 0.052537 0.067524
0.506586 0.062472 0.038360
0.507057 0.054187 0.031659
0.541314 0.033855 0.084729
0.565915 0.027355 0.006787
0.553754 -0.021739 -0.000487
0.528212 -0.004731 0.060707
0.567358 -0.034293 0.057593
0.533931 -0.008429 0.062606
0.509293 0.052745 0.025497
0.535243 0.062802 0.083999
0.523254 0.002788 0.005268
0.521718 0.007296 0.063362
0.593587 0.031710 0.053591
0.580615 0.002146 0.012030
0.555682 -0.005371 -0.001692
0.548455 0.071777 0.014059
0.570904 -0.059588 0.013030
0.583866 0.062954 0.057400
0.522376 0.009012 0.005067
0.559506 -0.051718 0.010226
0.541311 0.083050 0.080057
0.603484 -0.057227 0.038011
0.525099 -0.018901 0.029567
0.598620 -0.022892 0.021499
0.516066 0.050324 0.073199
0.595910 -0.019702 0.053130
0.541409 -0.006645 -0.001707
0.521649 0.070795 0.076078
0.551446 0.059115 0.086192
0.592301 0.019415 0.064175
0.578317 0.007400 0.073898
0.529262 -0.024712 0.024635
0.516316 0.017040 0.011729
0.583502 0.060938 0.045294
0.533835 0.058677 0.084052
0.545788 0.061403 0.009276
0.570981 -0.045869 0.004980
0.515633 0.045080 0.072566
0.580098 0.070769 0.053829
0.541406 -0.008163 -0.001541
0.523436 -0.015221 0.037974
0.601181 -0.014129 0.036014
0.519552 0.083043 0.070542
0.555837 -0.011328 -0.001565
0.575132 -0.045619 0.051284
0.526263 -0.008759 0.006326
0.521686 0.015215 0.005498
0.562195 0.085541 0.033207
0.591065 0.031162 0.039046
0.544648 0.090671 0.026614
0.559111 0.074173 0.081659
0.525591 0.072727 0.016791
0.565805 -0.015060 0.000386
0.578049 -0.017093 0.064953
0.607022 -0.038421 0.039321
0.517642 0.024235 0.010049
0.519714 0.093700 0.062475
0.602184 -0.043230 0.014711
0.532704 0.001412 0.068608
0.598524 -0.001715 0.044589
0.542839 0.061315 0.085623
0.538800 0.088416 0.023458
0.589608 0.035130 0.038064
0.528808 0.064813 0.012030
0.546230 -0.022189 0.000332
0.543241 -0.041744 0.028085
0.567857 -0.000762 0.002453
0.600405 -0.022737 0.024243
0.565316 0.074909 0.078378
0.535087 -0.032575 0.030783
0.568937 -0.042665 0.052401
0.547782 0.100967 0.051172
0.524184 0.088637 0.028122
0.548703 -0.032564 0.003335
0.524050 0.007761 0.003730
0.505038 0.037757 0.038400
0.595530 -0.051037 0.010275
0.563398 0.059791 0.084325
0.509651 0.019344 0.025284
0.605149 -0.035739 0.022224
0.531770 0.011203 -0.000333
0.555559 0.080426 0.080102
0.531270 -0.026359 0.038461
0.561913 0.054880 0.085408
0.537217 -0.034629 0.033669
0.589247 0.048519 0.053447
0.566208 -0.058103 0.030874
0.520229 0.007359 0.007657
0.543311 0.076305 0.015312
0.597834 -0.037610 0.013812
0.597409 -0.064118 0.025428
0.582885 -0.065407 0.021137
0.521763 0.054375 0.011638
0.576311 0.068418 0.072231
0.558557 0.090870 0.068919
0.516429 0.091033 0.041745
0.520068 0.040083 0.075861
0.554532 0.029123 0.084733
0.562531 0.063539 0.083761
0.581923 0.014170 0.016381
0.555660 0.047826 0.086774
0.578761 0.072073 0.048567
0.579533 0.046846 0.077603
0.523904 -0.005147 0.054927
0.534504 0.003447 0.070813
0.542631 -0.007915 0.067767
0.520967 0.088607 0.068994
0.563395 0.045101 0.010350
0.559869 0.028699 0.084333
0.558931 0.034896 0.005296
0.606203 -0.037761 0.040623
0.542338 0.062782 0.009380
0.573817 -0.017594 0.065676
0.564360 -0.030320 0.001260
0.582027 0.054442 0.073046
0.556020 0.031335 0.085172
0.568134 0.020232 0.006502
0.580739 0.060254 0.071920
0.524510 0.088969 0.071680
0.544961 0.100898 0.060274
0.566014 -0.047813 0.005920
0.518164 0.028437 0.070865
0.527090 0.085864 0.074792
0.515907 0.007132 0.015297
0.504763 0.048291 0.042511
0.606138 -0.031363 0.037620
0.525923 0.072930 0.016704
0.609905 -0.049873 0.023848
0.590679 -0.028578 0.055813
0.555273 -0.042749 0.005904
0.566158 0.030804 0.083775
0.509898 0.064790 0.029880
0.605276 -0.060151 0.028312
0.543895 0.019911 0.081163
0.517878 0.010260 0.010340
0.569857 0.085295 0.054220
0.605715 -0.028672 0.035881
0.548752 0.065315 0.011320
0.539891 0.010555 -0.001621
0.581437 -0.065055 0.020157
0.560314 -0.046080 0.006113
0.507544 0.044902 0.026931
0.554274 0.045834 0.006556
0.511523 0.008760 0.034136
0.546811 0.101308 0.051157
0.586417 -0.050875 0.047760
0.538173 -0.035873 0.023192
0.573106 -0.006853 0.004641
0.566223 0.074397 0.078060
0.581479 0.068159 0.054315
0.556317 0.065902 0.014172
0.575829 -0.009670 0.068411
0.559786 0.062731 0.084644
0.563807 0.037850 0.085179
0.509129 0.078742 0.048147
0.566314 0.067203 0.022158
0.522393 0.038128 0.006865
0.561075 0.035324 0.006281
0.556218 -0.025931 0.060774
0.518130 0.027043 0.009601
0.563467 -0.052753 0.039536
0.569388 -0.060917 0.021387
0.546060 -0.030038 0.053044
0.558731 0.037425 0.085932
0.581238 0.065288 0.065635
0.579741 0.071427 0.054018
0.524457 -0.017670 0.033889
0.593219 0.001335 0.059564
0.547654 0.010746 -0.001455
0.524537 0.029050 0.004505
0.569600 0.055273 0.019497
0.509823 0.075467 0.057931
0.590636 0.041418 0.047370
0.587705 -0.064490 0.032511
0.591765 0.039493 0.052325
0.602602 -0.058895 0.036935
0.573441 0.043670 0.018234
0.541478 0.055941 0.086104
0.562292 0.006760 0.077190
0.523811 -0.014052 0.017295
0.603389 -0.048541 0.014580
0.505905 0.055227 0.053913
0.599230 -0.063541 0.025817
0.505319 0.042311 0.035160
0.593357 -0.064356 0.019938
0.543629 0.068118 0.011543
0.505340 0.040763 0.049849
0.537111 0.028879 0.082343
0.584779 0.053641 0.068640
0.525755 -0.004341 0.058323
0.513087 0.072849 0.028705
0.584202 -0.037130 0.006395
0.581182 0.004649 0.071471
0.518620 0.092167 0.039174
0.538075 0.079474 0.080965
0.544321 -0.035967 0.044927
0.574162 -0.062619 0.025516
0.548939 0.049618 0.087016
0.581347 -0.044082 0.052323
0.514462 0.062595 0.021827
0.551147 0.090070 0.074423
0.513918 0.015266 0.016125
0.574158 0.005337 0.074723
0.592778 0.034293 0.057367
0.510890 0.074905 0.061303
0.545706 0.005353 -0.002000
0.531930 0.094012 0.071484
0.569090 -0.060554 0.017416
0.533119 0.012340 -0.000635
0.579825 -0.042435 0.053319
0.547200 -0.026445 0.001424
0.558944 0.025211 0.083557
0.528323 -0.021684 0.040482
0.595772 0.018523 0.046885
0.595766 0.006244 0.035532
0.519020 0.017714 0.008282
0.567339 0.061737 0.082507
0.517339 0.006634 0.012436
0.560264 -0.006569 -0.000909
0.546815 -0.019293 0.062055
0.584282 0.039709 0.073837
0.567343 0.047820 0.084469
0.532695 0.087147 0.076402
0.609104 -0.039284 0.029746
0.589253 -0.036385 0.054059
0.590200 0.044484 0.050196
0.600460 -0.057036 0.040211
0.571917 0.032426 0.082255
0.577496 -0.063857 0.018398
0.594621 0.007016 0.032951
0.514269 0.003865 0.025152
0.580010 0.046374 0.026711
0.546502 0.082329 0.019625
0.580753 0.063476 0.069197
0.511641 0.027055 0.018022
0.558199 -0.040286 0.004036
0.578584 -0.025499 0.005053
0.544759 0.029428 0.084241
0.521954 -0.012045 0.021144
0.560707 -0.054112 0.033733
0.561606 0.062212 0.084312
0.587448 0.002713 0.066342
0.586205 0.056130 0.060974
0.590219 -0.063754 0.016820
0.537534 -0.034255 0.019052
0.570068 0.041881 0.014521
0.598098 -0.041416 0.012615
0.546194 -0.044804 0.025164
0.557955 0.065088 0.084534
0.507917 0.019956 0.034282
0.544637 0.029604 0.084269
0.577462 -0.015020 0.065916
0.593150 0.017717 0.035710
0.575844 -0.003101 0.070932
0.517333 0.082379 0.029187
0.571045 0.066893 0.078571
0.547350 -0.045059 0.017979
0.589896 0.039998 0.064599
0.546256 -0.036121 0.006530
0.567142 0.054116 0.084048
0.581300 0.035255 0.023378
0.590537 0.018804 0.066880
0.540625 0.091898 0.027251
0.546985 0.074122 0.014865
0.510667 0.027064 0.059310
0.579655 0.062505 0.036899
0.545354 0.006436 -0.001942
0.542473 0.069496 0.084214
0.507749 0.024434 0.029043
0.508113 0.061060 0.032103
0.539355 0.043969 0.085882
0.600153 -0.010856 0.042379
0.509680 0.070131 0.033512
0.513944 0.010902 0.017978
0.566969 0.021030 0.081537
0.561686 -0.039588 0.052692
0.542735 0.017803 0.080161
0.525335 0.002642 0.063775
0.549383 0.098281 0.063018
0.522170 0.005638 0.062651
0.580818 0.062288 0.039263
0.567446 0.067062 0.023164
0.557244 0.093687 0.041279
0.581217 0.033791 0.022667
0.518692 0.032172 0.009218
0.538900 0.068409 0.083912
0.551461 0.003901 0.075752
0.581918 0.067088 0.052341
0.538161 0.098354 0.036674
0.587132 -0.037155 0.007699
0.525663 0.040832 0.005505
0.537653 0.037752 0.084573
0.585582 0.018207 0.072150
0.584744 -0.059327 0.011460
0.594287 0.023309 0.043481
0.550290 -0.048303 0.019525
0.552464 -0.006002 0.071142
0.542953 0.033440 0.001507
0.539365 -0.016446 0.060220
0.508583 0.049437 0.063150
0.510839 0.043035 0.019639
0.526570 0.018390 0.073627
0.521891 0.003131 0.006662
0.507638 0.023452 0.046965
0.525758 0.057420 0.010516
0.568311 0.000274 0.073986
0.527801 0.026779 0.002495
0.555833 -0.050982 0.012681
0.521022 0.095547 0.061500
0.575524 -0.055758 0.042495
0.537610 0.085090 0.020596
0.543370 0.062203 0.085554
0.557881 0.047999 0.086550
0.558883 -0.009145 -0.001227
0.570698 0.008353 0.076778
0.562163 0.025963 0.083473
0.584254 -0.061252 0.037759
0.581533 0.012985 0.073942
0.556339 0.094599 0.042188
0.545512 -0.035595 0.046658
0.583561 -0.063814 0.015752
0.553819 0.098208 0.052362
0.577164 0.071923 0.066765
0.553207 -0.047892 0.036614
0.567924 0.083563 0.068164
0.567752 0.007387 0.076939
0.565624 -0.058839 0.025564
0.514437 0.029328 0.013772
0.531361 -0.027454 0.023790
0.505181 0.036909 0.045979
0.582598 0.035647 0.025287
0.540734 0.067469 0.011055
0.586690 -0.065566 0.020396
0.585657 0.058637 0.052720
0.549554 0.095505 0.036137
0.529786 -0.025829 0.030755
0.570552 0.021268 0.008464
0.577653 0.019442 0.013904
0.562905 -0.040666 0.052245
0.555149 0.070705 0.083706
0.588716 -0.005430 0.062826
0.562884 0.038839 0.085446
0.513639 0.086157 0.039701
0.573097 0.006190 0.007048
0.568052 0.065773 0.023061
0.557668 0.001387 -0.000987
0.525777 -0.017522 0.017380
0.581631 0.026153 0.076336
0.583996 0.021575 0.073996
0.550197 -0.047770 0.017273
0.574398 0.026645 0.013193
0.584866 -0.036831 0.055254
0.561737 -0.037044 0.054659
0.609357 -0.043058 0.035348
0.547283 -0.037087 0.006502
0.553966 0.030620 0.002781
0.537726 0.011730 -0.001379
0.509875 0.076731 0.057100
0.513691 0.081521 0.063281
0.540497 0.066808 0.010786
0.607479 -0.056268 0.022510
0.525060 -0.017774 0.021759
0.520143 0.029425 0.007810
0.561954 -0.010725 0.069536
0.537894 0.094330 0.030171
0.583390 -0.046030 0.006067
0.561293 0.088692 0.069503
0.531801 0.005809 0.070648
0.562137 0.071799 0.081424
0.579963 0.070083 0.060651
0.579758 0.002249 0.011363
0.525940 0.083086 0.075342
0.528911 0.093752 0.070643
0.578937 -0.008683 0.008251
0.514290 0.008925 0.018420
0.529513 0.057246 0.082353
0.557712 0.094714 0.045408
0.517825 0.086158 0.031922
0.512739 0.017108 0.018021
0.542284 0.031024 0.001042
0.527776 0.034960 0.003571
0.507050 0.030245 0.051443
0.515649 0.070711 0.024185
0.519721 0.082833 0.070801
0.535147 0.028746 0.000774
0.508667 0.020366 0.047810
0.520085 -0.009197 0.038344
0.539755 0.098815 0.037853
0.553370 0.011348 -0.000703
0.574523 0.041047 0.018255
0.559124 0.064024 0.014852
0.567251 -0.059361 0.027551
0.517105 0.031363 0.010724
0.506021 0.039172 0.052686
0.524494 0.074096 0.018090
0.534688 0.000007 0.068897
0.556675 0.059873 0.085666
0.536700 0.031971 0.001129
0.584214 0.027314 0.023912
0.569315 -0.012504 0.001822
0.594160 -0.034340 0.012447
0.584572 0.007115 0.016991
0.575504 0.071925 0.070128
0.556645 0.063872 0.084992
0.509217 0.055215 0.064385
0.538988 0.087269 0.077557
0.597938 -0.011347 0.028119
0.587591 0.032232 0.070750
0.567624 0.083657 0.039507
0.506844 0.048454 0.058370
0.504768 0.045615 0.046152
0.595513 -0.064624 0.028706
0.561751 0.086889 0.071528
0.587991 0.027730 0.070487
0.510938 0.057188 0.067204
0.540290 0.034579 0.084662
