ply
format ascii 1.0
element vertex 1024
property float x
property float y
property float z
end_header
0.509805 -0.029711 0.033748
0.506632 0.054812 0.042801
0.506412 0.059709 0.044462
0.572049 -0.057195 -0.006692
0.569034 0.057226 0.062714
0.520454 0.015527 0.009711
0.564949 -0.049400 -0.011008
0.575862 -0.019585 0.069482
0.525033 0.068320 0.028923
0.542835 0.026640 0.011387
0.593891 -0.032333 0.040052
0.576012 -0.073846 0.027212
0.567468 0.044031 0.075293
0.586843 0.028823 0.055111
0.596283 -0.015768 0.036373
0.556503 0.026129 0.014160
0.518399 0.034086 0.019377
0.581014 -0.052833 -0.001952
0.521185 -0.054892 0.009805
0.588066 -0.016234 0.012080
0.586516 0.026810 0.061404
0.536160 0.089295 0.049325
0.551215 -0.073485 -0.001157
0.515011 0.051610 0.067474
0.510145 0.079309 0.038802
0.509781 -0.004523 0.048985
0.526536 -0.063194 0.022122
0.536907 -0.049732 0.055833
0.528346 -0.004384 0.072004
0.529471 -0.063050 0.031626
0.552569 0.034615 0.017968
0.586331 -0.002551 0.017725
0.563715 0.060136 0.070616
0.537794 0.060522 0.078561
0.550622 -0.040430 0.066686
0.548782 0.004870 0.080929
0.559393 0.035407 0.021488
0.588777 -0.027380 0.008320
0.533396 -0.061015 0.041223
0.563628 0.064480 0.061122
0.588760 -0.059457 0.018030
0.572051 -0.049068 0.056794
0.529527 -0.028835 0.064348
0.591817 -0.049487 0.016594
0.578196 -0.054754 -0.003738
0.593008 -0.022486 0.018557
0.572707 0.050721 0.065873
0.535169 -0.020731 0.071156
0.558498 -0.051287 -0.011732
0.508665 0.074264 0.038912
0.510726 0.074188 0.036072
0.594169 -0.035525 0.034297
0.559076 -0.017902 0.075728
0.507379 0.010541 0.047052
0.593680 -0.041182 0.022103
0.539733 -0.004048 0.077694
0.551738 -0.073916 0.036258
0.526612 -0.050647 -0.002475
0.531647 -0.044569 0.056503
0.507779 -0.020341 0.016897
0.570998 -0.025511 0.069987
0.575139 0.022482 0.074788
0.575784 0.047486 0.062689
0.547350 -0.036934 -0.012344
0.582277 -0.053280 0.044875
0.572080 -0.050002 -0.008525
0.561895 -0.065832 -0.006801
0.584261 -0.060350 0.005396
0.587794 -0.060343 0.013813
0.584012 -0.035924 0.055774
0.540568 0.081580 0.069062
0.584021 -0.032976 0.057475
0.593975 0.002594 0.048342
0.560504 0.014083 0.008625
0.556963 0.071914 0.056220
0.532511 -0.069944 0.014172
0.511517 0.028131 0.023023
0.520784 0.040913 0.072643
0.577085 -0.067698 0.002237
0.592075 -0.017092 0.052870
0.531606 0.037964 0.079195
0.576767 -0.003920 0.006590
0.523961 0.036717 0.074873
0.570212 0.055952 0.059691
0.531558 0.077556 0.033503
0.577452 0.027323 0.028543
0.549252 0.064281 0.035732
0.560841 -0.046728 -0.011984
0.589971 0.021074 0.052437
0.539862 0.032558 0.081941
0.567368 0.056174 0.069256
0.588244 -0.024757 0.008518
0.540387 -0.048340 0.059121
0.594296 0.001575 0.040466
0.538117 -0.071654 0.005838
0.553528 0.046693 0.080482
0.537731 -0.067053 0.037007
0.595905 -0.011972 0.040344
0.574358 -0.042598 -0.007985
0.564852 0.050482 0.036195
0.556771 -0.080443 0.007891
0.525121 -0.026120 0.061956
0.525476 -0.042059 -0.004276
0.507616 -0.022591 0.018883
0.518958 0.004865 0.006182
0.532144 -0.062327 0.037708
0.583187 -0.030182 0.059791
0.591988 -0.000546 0.055890
0.507126 0.032945 0.049840
0.519590 -0.039188 0.047881
0.530872 -0.051599 0.049598
0.590627 -0.045999 0.036362
0.560945 -0.029899 -0.010710
0.557134 -0.070810 0.041402
0.539739 0.011266 0.003639
0.570406 0.025408 0.020515
0.587889 -0.047526 0.004781
0.523648 -0.009098 -0.000840
0.518038 -0.033895 0.000554
0.520292 -0.034702 0.052068
0.537899 -0.040793 0.063224
0.511466 -0.034391 0.012017
0.517105 0.008078 0.063922
0.535144 -0.028760 0.067888
0.549128 -0.024706 0.073872
0.506486 0.031428 0.046050
0.553713 0.014340 0.006563
0.578059 0.044036 0.062200
0.523446 -0.048240 0.044985
0.506098 0.025047 0.041826
0.551048 -0.065037 -0.007372
0.510806 -0.005205 0.010344
0.517359 0.015002 0.065745
0.578819 0.029917 0.032735
0.539769 -0.049854 0.057477
0.591974 -0.035748 0.012125
0.573549 -0.034041 -0.007496
0.513500 0.022307 0.061887
0.544253 -0.058548 0.051584
0.573190 0.039128 0.034017
0.570279 -0.053039 -0.008690
0.546793 -0.078395 0.010546
0.593737 -0.009502 0.049840
0.541721 0.041261 0.019024
0.556540 -0.043560 -0.012550
0.538798 0.063373 0.029726
0.539104 0.078966 0.071009
0.574943 0.048903 0.062248
0.526671 0.091037 0.042989
0.585464 -0.001353 0.017334
0.553225 -0.081534 0.014641
0.564431 -0.077937 0.030057
0.557558 -0.081679 0.011757
0.533550 -0.045247 -0.008554
0.534559 -0.071718 0.016015
0.571021 -0.008197 0.074475
0.565313 0.018005 0.012851
0.525948 0.091195 0.055991
0.528307 -0.014748 0.069052
0.508829 0.051667 0.057534
0.507155 -0.011288 0.016897
0.522980 -0.036003 0.054448
0.543824 -0.071642 0.035285
0.528078 -0.035558 -0.006730
0.540294 0.064898 0.077501
0.573143 0.027176 0.023925
0.530215 -0.030708 0.063974
0.591120 -0.052318 0.024621
0.551461 0.051978 0.079944
0.514441 -0.044374 0.015037
0.516063 -0.034892 0.003074
0.575295 -0.055113 0.049901
0.527616 0.061250 0.026565
0.580803 -0.034024 -0.002585
0.537549 -0.069491 0.032538
0.508751 -0.026264 0.033780
0.531544 0.022760 0.078417
0.532876 -0.069789 0.021304
0.513351 0.012470 0.059554
0.567403 -0.076413 0.031205
0.565027 0.059294 0.047323
0.515062 -0.042642 0.033265
0.537253 -0.067420 0.035870
0.595972 -0.024827 0.034908
0.551842 0.060080 0.034397
0.506125 0.008985 0.042648
0.545916 0.081624 0.048654
0.591557 -0.040817 0.010822
0.504737 -0.002404 0.033050
0.525208 0.078479 0.032274
0.556459 -0.068197 0.044703
0.582196 0.030480 0.039390
0.592705 -0.004262 0.027647
0.511472 0.007838 0.055373
0.530681 -0.032166 -0.008050
0.521969 -0.052095 0.004314
0.506726 -0.020645 0.029792
0.571635 0.040922 0.073595
0.561569 0.004090 0.003551
0.568571 0.029820 0.022480
0.573775 -0.010926 0.001065
0.573755 -0.044392 -0.008276
0.567188 -0.043019 0.063098
0.570617 -0.030985 -0.008179
0.559699 -0.025268 0.073366
0.549429 -0.074665 0.001023
0.544431 0.041496 0.082204
0.581001 -0.017083 0.066682
0.565173 0.019833 0.079570
0.540094 -0.053968 0.053834
0.542183 -0.033531 0.068650
0.522982 -0.014536 -0.001843
0.540085 0.082006 0.068806
0.557920 -0.026341 -0.010332
0.545098 -0.078092 0.021738
0.586021 -0.063737 0.024938
0.553955 0.044400 0.080779
0.549466 -0.007020 0.078777
0.513262 0.045011 0.027706
0.536089 0.018048 0.007088
0.556291 -0.031067 -0.011574
0.513668 0.080557 0.035928
0.563808 -0.045563 -0.011586
0.512517 -0.024316 0.045632
0.524976 0.076404 0.070229
0.526012 0.091021 0.056512
0.578804 -0.020916 -0.000160
0.515499 -0.014160 0.003520
0.562434 0.035389 0.022987
0.572046 -0.046698 0.058459
0.508307 0.035549 0.032457
0.551190 -0.044958 0.064257
0.534315 0.012824 0.078563
0.546247 -0.029401 -0.011414
0.557036 -0.007621 0.078345
0.581752 0.017484 0.070424
0.590299 -0.049173 0.033778
0.567469 0.000852 0.004136
0.592629 0.008720 0.041200
0.512185 0.057346 0.031494
0.589145 0.014224 0.036785
0.563631 0.032900 0.021858
0.595618 -0.007558 0.038842
0.546739 -0.014277 0.076891
0.596058 -0.022422 0.031411
0.514463 0.063177 0.066495
0.551929 -0.075909 0.001424
0.509801 0.012494 0.053273
0.551480 -0.018147 -0.008557
0.541602 -0.009743 -0.005614
0.536083 0.089556 0.056195
0.542479 0.040037 0.018486
0.517099 0.044146 0.024168
0.526980 -0.001283 0.000361
0.548570 -0.069598 -0.003746
0.565320 -0.009298 0.076316
0.571698 -0.063765 0.044563
0.559276 -0.055126 0.057262
0.575051 -0.066141 0.039571
0.528391 -0.041153 -0.006409
0.509846 0.071325 0.058876
0.511038 0.004698 0.012751
0.544619 -0.042784 0.064459
0.572404 0.050111 0.047388
0.549485 -0.006069 0.078967
0.517165 -0.049763 0.022772
0.536336 -0.017052 0.073011
0.572711 -0.021157 0.070681
0.575289 -0.006506 0.072677
0.542757 0.085389 0.059112
0.522549 0.014200 0.008188
0.541869 0.072520 0.074414
0.587175 -0.008136 0.062729
0.569713 -0.070244 -0.001406
0.518688 0.005089 0.065226
0.540734 -0.043106 0.063041
0.506529 0.050248 0.043378
0.525846 -0.022943 0.064002
0.524573 0.015655 0.008085
0.584443 0.011416 0.068068
0.569156 0.041025 0.075148
0.547285 0.081509 0.062343
0.527921 -0.062958 0.027821
0.549491 -0.029697 -0.011597
0.508941 -0.027302 0.016196
0.575656 0.048198 0.060706
0.543449 -0.038730 -0.011921
0.523637 0.027941 0.073957
0.513960 -0.024178 0.004459
0.543323 -0.059059 -0.008376
0.507551 0.075925 0.052224
0.568288 -0.079498 0.023690
0.592440 -0.047479 0.024419
0.552004 0.077489 0.058311
0.580963 0.033094 0.040030
0.574747 -0.026476 -0.004882
0.584872 -0.026047 0.003673
0.572559 -0.010971 0.073267
0.544388 0.049649 0.024095
0.571964 -0.057319 0.050351
0.524377 -0.031855 0.058385
0.578768 0.030542 0.071133
0.515846 -0.013818 0.003254
0.566908 -0.062384 0.048502
0.539361 -0.069163 0.000842
0.513936 -0.029686 0.004938
0.528240 0.012034 0.005416
0.521376 0.024714 0.013453
0.557053 -0.050425 0.060942
0.588347 0.025210 0.051877
0.543011 0.060761 0.029931
0.564628 0.037727 0.025866
0.592249 -0.027836 0.048259
0.549683 0.005976 0.081160
0.523496 0.013716 0.007606
0.519728 0.043345 0.071857
0.535178 -0.070085 0.027021
0.574753 -0.071884 0.032484
0.506908 0.040269 0.038838
0.551250 0.019043 0.082670
0.518929 0.042690 0.071099
0.548247 -0.077167 0.005793
0.572831 -0.077213 0.010747
0.593535 -0.035366 0.017480
0.522825 -0.054431 0.033928
0.543706 0.022016 0.082409
0.533481 -0.001895 -0.001525
0.536678 0.058175 0.026524
0.538644 -0.069845 0.002311
0.546318 0.077887 0.044038
0.549948 -0.063473 -0.007955
0.575033 -0.012732 0.071652
0.585235 0.024963 0.039558
0.569780 0.055904 0.063853
0.530273 0.035419 0.078557
0.545879 0.008385 0.002319
0.564029 -0.028466 0.071283
0.555890 -0.081890 0.013617
0.508817 -0.021401 0.038685
0.587630 -0.011600 0.061391
0.590995 -0.040682 0.040913
0.592021 -0.011855 0.053937
0.533855 -0.057261 0.046189
0.557915 -0.062256 0.051168
0.563384 -0.036215 -0.011320
0.536716 0.082041 0.069084
0.507219 -0.019466 0.018777
0.529478 0.091868 0.052484
0.560715 0.021185 0.081065
0.508936 0.032785 0.029811
0.517906 0.028270 0.068640
0.585856 -0.019822 0.061326
0.515543 -0.011987 0.003853
0.580329 -0.014388 0.067888
0.567505 -0.067077 0.043360
0.509044 0.008860 0.017118
0.557013 -0.081981 0.013531
0.595607 -0.018198 0.028663
0.512007 -0.000444 0.010027
0.555323 -0.077761 0.002889
0.589490 -0.013895 0.015548
0.581024 -0.049769 0.049145
0.542113 -0.029149 0.070647
0.512944 0.084891 0.055946
0.569629 0.056035 0.053738
0.552336 -0.064879 0.048032
0.505017 0.008821 0.035656
0.509679 0.061905 0.035309
0.549604 0.002941 0.080636
0.544258 0.067436 0.034722
0.571652 -0.058224 0.049765
0.514230 0.040264 0.065618
0.587065 0.010677 0.029043
0.509274 -0.021815 0.039704
0.507497 -0.020201 0.035070
0.538518 -0.064282 -0.003336
0.557622 0.067651 0.047157
0.509783 0.045643 0.032476
0.570305 0.029370 0.023329
0.591213 -0.028551 0.012247
0.584564 0.002002 0.018413
0.581138 -0.034159 -0.002329
0.512545 0.031897 0.023527
0.564370 0.051605 0.074735
0.555322 0.070329 0.047317
0.531119 -0.066248 0.027773
0.527030 0.091637 0.044976
0.595323 -0.028320 0.026879
0.544906 -0.017751 0.075611
0.507749 0.079159 0.050140
0.539555 0.047738 0.081028
0.508503 0.059541 0.037142
0.505849 0.005422 0.023343
0.550836 -0.032689 -0.012069
0.554374 -0.050168 0.061226
0.519533 -0.047332 0.038727
0.504828 0.005821 0.029813
0.592504 -0.043898 0.015070
0.576784 -0.014634 0.001137
0.592572 0.012151 0.049689
0.590817 -0.028129 0.011573
0.585581 -0.029509 0.057621
0.578348 -0.014196 0.002499
0.594912 -0.017075 0.026209
0.550045 -0.074286 0.000242
0.573913 -0.051228 -0.007383
0.544016 0.073866 0.038771
0.541313 0.012465 0.080947
0.531837 0.075507 0.032793
0.520365 -0.021304 0.059107
0.519479 0.034083 0.070946
0.546401 0.073858 0.040663
0.566158 -0.080927 0.020500
0.507220 0.026663 0.031942
0.575887 0.009060 0.013665
0.509422 0.029028 0.027024
0.544180 -0.057184 0.052918
0.532146 -0.001790 0.074926
0.519385 0.076571 0.067334
0.508536 0.067012 0.037767
0.575006 0.021076 0.021085
0.506417 0.070372 0.049200
0.542217 0.034837 0.015672
0.546619 -0.012583 -0.006830
0.593516 0.000514 0.051130
0.533643 -0.065249 0.034885
0.556036 0.022073 0.082232
0.564558 0.032176 0.021837
0.541778 -0.032222 -0.011292
0.513815 0.003785 0.058276
0.575763 -0.008460 0.003478
0.595736 -0.017425 0.041998
0.528976 0.045666 0.077882
0.507288 0.073089 0.041767
0.527410 0.078220 0.070131
0.586927 -0.029544 0.056002
0.594313 -0.024432 0.044839
0.532890 0.015948 0.078324
0.530562 -0.054295 0.046554
0.567969 -0.058143 0.051877
0.530246 -0.018646 0.069047
0.528915 0.050464 0.077607
0.537138 0.041111 0.081040
0.526074 0.090211 0.058494
0.509395 0.062781 0.035847
0.542153 0.085346 0.049264
0.575732 -0.010996 0.071625
0.512702 0.043718 0.063853
0.513348 0.076113 0.062264
0.545648 -0.050260 -0.011408
0.516059 -0.004190 0.005208
0.575049 -0.066599 -0.000362
0.560671 -0.027136 -0.010073
0.589888 0.020557 0.048508
0.537539 -0.069124 0.033226
0.568638 -0.037868 -0.010142
0.508114 0.008347 0.048610
0.588900 -0.018607 0.012178
0.524705 0.013533 0.072882
0.574393 0.047170 0.046754
0.516573 -0.044515 0.007716
0.530531 0.054547 0.024174
0.593099 -0.009261 0.051668
0.521444 -0.034137 0.053847
0.556654 0.026853 0.082038
0.551773 -0.046335 0.063509
0.544767 -0.069753 0.038828
0.556234 -0.069200 0.043437
0.557755 -0.006028 0.078562
0.532457 0.000119 0.075483
0.566528 -0.077416 0.030003
0.543484 0.006813 0.080575
0.543976 0.023646 0.009895
0.515648 0.034107 0.021397
0.595456 -0.028268 0.028167
0.580107 -0.021111 0.000833
0.580705 0.026911 0.032825
0.505381 -0.011660 0.025292
0.544300 0.028792 0.012650
0.583064 -0.051199 -0.000408
0.520178 0.018816 0.011320
0.553474 0.064685 0.039087
0.505602 0.003119 0.023441
0.522620 -0.047050 0.045089
0.569413 0.056631 0.063055
0.539623 -0.070006 0.034119
0.584685 -0.064151 0.028664
0.578700 0.042680 0.062913
0.575185 -0.060258 -0.003684
0.590557 0.019142 0.049971
0.585058 -0.036374 0.054342
0.538328 -0.058703 -0.006688
0.506229 0.025246 0.043575
0.550956 -0.079875 0.024307
0.583517 -0.038542 0.054687
0.539424 -0.053069 0.054295
0.573738 0.000247 0.006809
0.576441 0.002442 0.073225
0.558285 -0.068220 -0.006107
0.590938 -0.046792 0.010684
0.580234 0.028865 0.033971
0.531263 -0.060598 0.039261
0.581619 0.037722 0.049878
0.519680 0.057827 0.071738
0.513291 0.029293 0.021399
0.590118 0.010140 0.060552
0.505769 -0.014444 0.024121
0.586966 0.025696 0.061156
0.518711 -0.029214 0.053212
0.588834 -0.016512 0.013108
0.513822 0.033995 0.023050
0.587205 -0.012417 0.061738
0.547931 0.046830 0.023706
0.583926 0.019573 0.031447
0.555922 0.017671 0.082103
0.596231 -0.020854 0.036160
0.528135 0.057039 0.025061
0.519392 0.090860 0.043822
0.508299 -0.003147 0.046312
0.512090 0.050869 0.030389
0.578292 -0.053119 0.049075
0.538644 -0.039703 0.064193
0.583183 -0.068571 0.016593
0.557427 -0.079661 0.005942
0.526448 0.071288 0.072769
0.552629 -0.015805 0.076812
0.585833 -0.039702 0.001581
0.527876 0.054587 0.076822
0.586146 0.005458 0.066034
0.557045 -0.075587 -0.000307
0.550159 0.043410 0.022521
0.506663 0.057835 0.050757
0.568456 -0.076312 0.030743
0.506589 0.045824 0.048471
0.589981 0.020753 0.050107
0.595680 -0.009258 0.034943
0.568183 -0.050733 0.057622
0.591425 0.004260 0.057856
0.560304 -0.040812 0.066190
0.510973 0.057413 0.062095
0.554353 -0.020494 -0.009062
0.589820 0.014907 0.060246
0.506344 0.055447 0.045996
0.578722 0.029540 0.032232
0.545241 -0.076558 0.026996
0.542054 -0.062016 0.046695
0.530885 -0.042971 -0.007585
0.548041 -0.033879 -0.012129
0.527420 0.031810 0.014848
0.588981 -0.014015 0.058943
0.557777 -0.079906 0.006449
0.524879 0.017334 0.073605
0.564888 -0.029945 -0.009847
0.533724 -0.066421 0.002572
0.575405 -0.014844 0.000148
0.588371 0.016748 0.037644
0.509361 0.039440 0.057334
0.530359 -0.066843 0.023717
0.516417 0.022280 0.015218
0.506045 -0.013476 0.021585
0.510238 0.039736 0.059204
0.541527 -0.028831 0.070595
0.543098 0.020932 0.008440
0.585853 0.011159 0.066634
0.589226 -0.053894 0.010379
0.541935 -0.018753 0.074568
0.556876 -0.012715 0.077292
0.551765 -0.069060 -0.005084
0.535781 -0.071717 0.023352
0.555437 0.067779 0.072933
0.569015 -0.053706 -0.009016
0.550518 0.074866 0.046057
0.510585 0.025647 0.023139
0.510374 -0.031380 0.013514
0.576799 0.046447 0.060818
0.587579 0.001717 0.063952
0.582193 0.015603 0.025293
0.573444 0.000440 0.006733
0.572702 0.042134 0.072350
0.541676 0.026393 0.082247
0.561898 0.018443 0.011685
0.529852 -0.047247 0.052746
0.548977 0.011576 0.081989
0.577804 -0.073510 0.011796
0.578867 0.032450 0.035327
0.581067 0.027465 0.033971
0.557417 0.030911 0.081591
0.580602 -0.064173 0.036025
0.534805 0.034477 0.015285
0.560430 0.062426 0.044062
0.547074 0.003810 0.000174
0.589727 0.001996 0.026492
0.506963 -0.007808 0.017342
0.533595 -0.070447 0.021170
0.570841 0.050934 0.045082
0.515617 -0.040118 0.006077
0.547070 -0.051429 0.059310
0.549809 0.011788 0.004436
0.577937 0.022903 0.072991
0.570443 0.011888 0.077126
0.507333 0.023364 0.049120
0.592811 -0.022465 0.049688
0.551600 0.057650 0.078511
0.528080 0.005854 0.074041
0.564125 -0.042420 -0.011579
0.596288 -0.016938 0.034635
0.509592 0.083051 0.043501
0.516141 -0.022272 0.002034
0.582865 -0.052902 0.044485
0.586489 -0.043329 0.047483
0.520490 -0.037206 0.050657
0.571614 0.016025 0.014944
0.573657 0.050410 0.052686
0.539178 -0.003184 0.077692
0.515639 0.038687 0.067260
0.533904 0.001357 0.076442
0.590189 -0.038292 0.045036
0.530231 -0.061308 0.036533
0.589531 0.015099 0.060813
0.542783 -0.016457 0.075526
0.519350 0.003603 0.005489
0.554484 0.039245 0.021760
0.577089 0.039667 0.040609
0.583714 -0.028746 0.001520
0.545739 0.080299 0.068067
0.527644 -0.026071 -0.006168
0.591443 0.010136 0.057455
0.555535 0.070413 0.070520
0.534644 -0.071714 0.018242
0.508763 0.081983 0.050151
0.563796 0.020659 0.080073
0.532178 0.061888 0.027281
0.546427 -0.055869 0.055193
0.507834 0.043280 0.036179
0.584120 0.033940 0.051704
0.545443 -0.069895 0.039042
0.519364 -0.052005 0.027797
0.508613 0.007171 0.017186
0.505132 0.004991 0.037621
0.564575 0.029278 0.079347
0.590651 -0.001843 0.058639
0.537511 -0.019012 -0.008060
0.530045 -0.058914 0.040171
0.586904 -0.019990 0.008646
0.555276 0.073903 0.057060
0.546084 -0.051859 0.058640
0.534175 -0.031979 -0.009402
0.583667 0.034993 0.052713
0.558396 0.013159 0.081328
0.520587 0.049682 0.024006
0.553684 -0.077400 0.031246
0.575663 0.044126 0.044298
0.514576 0.053764 0.067024
0.584706 0.024626 0.066240
0.592729 0.004980 0.054154
0.563595 -0.041638 -0.011666
0.532658 0.009708 0.003535
0.579119 -0.050567 -0.004120
0.522374 -0.057510 0.011467
0.593300 -0.041456 0.018185
0.568171 0.050657 0.040019
0.507628 0.027376 0.050762
0.509784 0.068985 0.036084
0.592875 -0.005798 0.052659
0.562553 -0.081463 0.022108
0.531784 0.081945 0.035643
0.531574 -0.009401 0.072807
0.517375 0.035117 0.020505
0.524689 -0.057409 0.032454
0.584267 -0.050130 0.000630
0.535048 0.006528 0.001800
0.593982 -0.031791 0.019518
0.576719 0.046835 0.058629
0.551013 0.046906 0.081006
0.568379 0.039968 0.030088
0.529010 0.061310 0.026673
0.522098 -0.053601 0.005597
0.554834 0.034968 0.081856
0.517420 0.048130 0.069942
0.559175 -0.068397 -0.005931
0.587880 -0.059347 0.012354
0.570789 0.054316 0.064254
0.591444 0.012487 0.056660
0.578470 -0.035199 0.061234
0.537254 0.086753 0.044120
0.514964 -0.046029 0.018221
0.583222 -0.013094 0.065829
0.525564 0.074190 0.030897
0.591612 0.015455 0.047765
0.526789 -0.063104 0.009636
0.551671 0.024911 0.082856
0.513795 -0.043571 0.022702
0.550910 0.036134 0.082436
0.525188 -0.010908 -0.002045
0.533557 0.068554 0.075570
0.590034 0.009140 0.060782
0.586237 -0.035127 0.002723
0.535925 0.076139 0.034973
0.520926 0.090231 0.055324
0.531649 0.086420 0.065400
0.595728 -0.027114 0.031087
0.520263 -0.040701 0.000029
0.536766 -0.064206 -0.002295
0.580970 -0.071209 0.020291
0.540029 -0.047611 0.059533
0.512756 -0.027485 0.044115
0.516658 -0.048965 0.016317
0.552692 0.028825 0.014449
0.514376 -0.041881 0.032059
0.539519 -0.031091 -0.010752
0.509642 -0.025631 0.012861
0.546112 -0.002157 0.079425
0.529240 -0.011120 0.070848
0.525266 0.002607 0.071304
0.555414 -0.080158 0.026270
0.573626 -0.000085 0.006555
0.510279 -0.024480 0.040421
0.577993 0.007830 0.014793
0.509253 0.067492 0.036627
0.588865 -0.022685 0.010293
0.509079 0.025426 0.054336
0.564998 0.060956 0.050955
0.513754 -0.027978 0.004971
0.512092 -0.028646 0.041768
0.569235 0.022514 0.017766
0.516562 -0.032387 0.001907
0.551439 -0.080039 0.024246
0.553006 -0.073971 -0.001275
0.556621 0.072583 0.062139
0.542743 -0.037448 0.066853
0.546880 -0.077985 0.025229
0.585817 0.003673 0.066207
0.577376 -0.045135 0.055938
0.513125 0.064107 0.031779
0.593245 -0.041410 0.017793
0.518836 0.086199 0.036860
0.506415 0.046185 0.046322
0.563171 0.063780 0.066680
0.507974 -0.022841 0.034396
0.588733 -0.049071 0.038228
0.515332 0.089591 0.047960
0.519243 -0.023903 0.056599
0.589600 0.004605 0.061404
0.542102 -0.047802 -0.011086
0.515353 0.062723 0.029890
0.584501 -0.022489 0.004615
0.588408 0.020351 0.041952
0.533278 0.085942 0.065944
0.559730 0.068529 0.065209
0.588250 -0.033936 0.051661
0.581599 -0.003110 0.011595
0.572676 -0.008504 0.073676
0.559755 -0.069099 -0.005451
0.510662 0.064638 0.061208
0.558905 0.042464 0.079566
0.562606 0.045939 0.030771
0.521794 -0.052644 0.005177
0.532521 -0.029615 -0.008611
0.578384 -0.020732 -0.000405
0.507422 0.019162 0.048650
0.517154 -0.050065 0.019058
0.509471 -0.029865 0.032036
0.576792 -0.068482 0.035139
0.566890 -0.020797 -0.006176
0.596003 -0.012436 0.039549
0.576167 0.008050 0.013255
0.520413 0.025724 0.070910
0.593585 -0.007453 0.050405
0.528843 0.059181 0.076619
0.539263 0.076629 0.072368
0.531189 0.027687 0.078644
0.511343 -0.032282 0.036179
0.522600 -0.032937 -0.003415
0.534336 -0.032727 -0.009506
0.560773 0.017396 0.080983
0.508223 0.023275 0.026646
0.584347 0.023766 0.036279
0.594986 -0.003541 0.043072
0.564948 -0.009096 -0.001760
0.567592 -0.070339 0.039480
0.528069 -0.002084 -0.000280
0.519891 0.082615 0.064566
0.522958 -0.002461 0.001526
0.509763 0.083324 0.051537
0.561623 0.001960 0.002446
0.523863 -0.054263 0.036969
0.510430 -0.003593 0.050516
0.575702 0.022240 0.074461
0.530172 0.086536 0.038093
0.568725 -0.055168 0.053960
0.519792 0.090469 0.053757
0.581980 -0.036935 0.057235
0.527524 0.091107 0.056843
0.587514 -0.027085 0.006602
0.569390 -0.042716 0.062359
0.523589 -0.034332 0.056158
0.515859 -0.024008 0.002243
0.542501 -0.003498 0.078543
0.589765 -0.053036 0.030502
0.549170 0.072903 0.042402
0.505122 0.009534 0.036606
0.582233 -0.069814 0.017266
0.534792 -0.070990 0.023094
0.537614 0.035136 0.081346
0.533027 0.078183 0.071170
0.517977 -0.046480 0.035842
0.510858 0.055037 0.061864
0.592666 -0.041487 0.034043
0.535788 -0.069683 0.005115
0.587837 -0.003721 0.062735
0.506136 0.004193 0.042158
0.517150 -0.000491 0.005510
0.564117 -0.071015 0.040020
0.584673 0.027137 0.040939
0.548868 -0.080235 0.015651
0.542804 0.078096 0.071229
0.591413 0.015381 0.045988
0.511146 0.052623 0.062203
0.574426 0.049949 0.060929
0.510670 -0.021943 0.043073
0.552463 0.019085 0.082599
0.521082 0.017638 0.010349
0.527998 0.032169 0.014898
0.592287 0.000550 0.055286
0.514875 -0.044775 0.013633
0.587370 0.006068 0.064679
0.573848 0.042337 0.038283
0.525525 0.015760 0.073860
0.508873 -0.016299 0.012880
0.510336 -0.035315 0.022983
0.542943 -0.077079 0.020832
0.516531 0.075132 0.032416
0.506979 0.052174 0.051788
0.526573 -0.005913 -0.001103
0.508510 0.079384 0.052835
0.506641 -0.020636 0.028786
0.537007 0.084034 0.067532
0.530896 0.032277 0.014505
0.577750 0.000684 0.072245
0.551762 -0.000990 -0.001600
0.582266 -0.040168 -0.002164
0.519498 -0.033497 -0.000911
0.589873 -0.014483 0.057463
0.563749 0.064196 0.062484
0.555581 0.062226 0.038722
0.518218 -0.032057 0.050832
0.573856 0.018052 0.075623
0.534810 0.061647 0.077825
0.516394 -0.048668 0.017979
0.505800 0.016339 0.031857
0.522046 -0.021572 -0.002530
0.531853 0.090662 0.057842
0.563023 0.042915 0.077830
0.566069 0.003471 0.004959
0.535996 0.079669 0.036849
0.551306 0.051954 0.079983
0.518671 -0.052630 0.018858
0.576727 -0.018619 0.069242
0.518293 -0.032259 0.050817
0.507556 0.025099 0.050147
0.531575 0.022297 0.009584
0.506680 0.013073 0.045202
0.589183 -0.058389 0.021552
0.517343 -0.045026 0.006586
0.556658 0.056084 0.077276
0.513776 -0.009518 0.006031
0.568631 0.054314 0.069172
0.512102 -0.039909 0.019030
0.551567 0.009489 0.003553
0.507128 0.005522 0.019611
0.580896 -0.053669 -0.001813
0.584280 -0.031565 0.001327
0.555923 -0.034470 0.069855
0.546804 -0.018014 -0.008654
0.585029 0.026135 0.040524
0.527757 -0.063020 0.027148
0.582117 -0.019561 0.065049
0.587012 -0.048174 0.042503
0.522637 -0.046217 0.046004
0.516483 0.043748 0.024482
0.586927 -0.054877 0.036038
0.585368 -0.001328 0.066000
0.507390 -0.014108 0.039355
0.521519 0.042300 0.073309
0.520232 -0.022399 0.058485
0.539623 -0.011485 0.075976
0.547916 -0.071244 -0.002033
0.542800 -0.014671 0.076047
0.544193 -0.018425 -0.008686
0.565444 -0.020638 -0.006618
0.561084 -0.053854 -0.010957
0.551897 0.010879 0.004338
0.594687 -0.010837 0.046650
0.529606 -0.063739 0.030326
0.516560 -0.005852 0.059729
0.533721 -0.027677 -0.008809
0.575637 -0.064097 -0.001447
0.546581 0.073677 0.040673
0.596033 -0.012279 0.035096
0.523301 -0.041754 0.050790
0.505136 0.001155 0.025055
0.540041 0.087329 0.057475
0.525677 0.014981 0.007431
0.553192 0.059151 0.077643
0.517831 0.004189 0.063959
0.589005 0.003225 0.026165
0.531452 0.011014 0.076914
0.558445 -0.053960 0.058304
0.592264 -0.027550 0.048399
0.534055 -0.027319 0.067922
0.589135 0.013544 0.061974
0.567016 -0.027356 0.070826
0.595260 -0.026985 0.025962
0.508680 0.005582 0.049367
0.594525 0.000634 0.041584
0.555515 0.066983 0.073399
0.563084 -0.081769 0.019721
0.519596 0.065671 0.070660
0.586569 -0.046853 0.002780
0.524661 -0.057790 0.031490
0.513465 -0.040863 0.030284
0.574282 0.043763 0.040816
0.506815 -0.000650 0.043330
0.509255 -0.020956 0.040252
0.517947 0.076100 0.066495
0.504619 0.002309 0.031784
0.560978 -0.055388 -0.010623
0.535639 0.034598 0.080742
0.536128 0.088094 0.062380
0.554527 -0.064072 -0.008205
0.525119 -0.040332 -0.004350
0.537530 0.052129 0.080120
0.531093 -0.054009 -0.004647
0.507983 -0.001385 0.046111
0.538131 0.071340 0.074953
0.592466 -0.012861 0.052806
0.563637 0.032707 0.079326
0.571897 -0.038084 0.063814
0.549394 0.008901 0.002910
0.589262 -0.027726 0.008961
0.530293 0.088670 0.062546
0.529735 -0.019797 -0.006057
0.569678 -0.056381 -0.008016
0.558968 0.027464 0.081409
0.566580 0.021947 0.015922
0.558037 0.024063 0.013496
0.521045 0.043887 0.072985
0.521964 -0.057745 0.017097
0.506389 0.024673 0.035094
0.509924 -0.031162 0.032153
0.583083 -0.067910 0.024806
0.563320 0.035061 0.023216
0.564951 -0.019343 -0.006270
0.576897 0.035220 0.035104
0.573905 0.025710 0.075261
0.505315 -0.008606 0.024068
0.505107 -0.002975 0.024593
0.555229 0.059774 0.076736
0.561792 0.017499 0.011089
0.508127 0.049887 0.055573
0.520382 0.039495 0.072222
0.510941 0.075418 0.036205
0.567929 0.055530 0.069034
0.581734 0.009886 0.020364
0.589555 0.018346 0.042840
0.568522 -0.070866 0.038408
0.562416 -0.075575 0.034378
0.589470 -0.027217 0.009475
0.519857 0.090468 0.042273
0.570564 0.023493 0.077178
0.594549 -0.007442 0.046940
0.513344 0.012918 0.059644
0.580361 -0.058144 -0.000554
0.548003 0.079321 0.048520
0.534428 -0.061576 -0.002726
0.531249 -0.014070 0.071257
0.520531 -0.054209 0.010719
0.528409 -0.034757 -0.006938
0.555500 0.039082 0.022124
0.546429 -0.076711 0.027971
0.551056 -0.081057 0.017754
0.556237 0.048329 0.028745
0.584411 0.000101 0.067125
0.533370 -0.059067 0.043712
0.557614 -0.056353 -0.010775
0.587437 -0.062272 0.019583
0.587240 -0.006545 0.062958
0.589231 0.004935 0.028043
0.595344 -0.005993 0.036736
0.564995 -0.034818 0.068225
0.591784 -0.048103 0.028725
0.553338 -0.077287 0.031330
0.592622 0.003420 0.034555
0.565142 -0.024970 0.072274
0.561053 0.006918 0.080043
0.573936 -0.064252 -0.002554
0.580929 0.025638 0.031989
0.560507 0.004414 0.003330
0.575992 -0.018338 -0.001051
0.535535 0.071552 0.074672
0.594072 -0.011689 0.048733
0.566344 -0.042551 0.063677
0.593061 -0.043605 0.018479
0.530027 -0.007560 0.072347
0.517293 -0.049872 0.023398
0.592205 0.001572 0.031497
0.547980 0.016528 0.006622
0.565715 0.049713 0.036279
0.539620 0.072623 0.035170
0.549362 0.035043 0.017170
0.523160 -0.042701 -0.002202
0.518704 -0.052552 0.020702
0.558296 -0.058560 0.054545
0.538794 -0.074769 0.016543
0.529409 0.049821 0.022351
0.508201 -0.007710 0.014345
0.555175 -0.040669 -0.012607
0.563116 -0.051781 0.058826
0.573777 -0.044857 0.058658
0.519053 0.088170 0.057941
0.532129 -0.060973 -0.001344
0.507278 -0.004038 0.016827
0.555476 -0.060560 0.052856
0.521220 -0.038194 0.050919
