ply
format ascii 1.0
element vertex 1024
property float x
property float y
property float z
end_header
0.564452 0.039120 0.085059
0.598347 -0.032105 0.053208
0.599532 -0.036939 0.051791
0.546369 0.094846 0.031833
0.551381 -0.036731 0.007721
0.596156 0.020757 0.047704
0.556833 0.090420 0.032695
0.507884 0.019322 0.038678
0.604214 -0.031113 0.027165
0.587824 0.014582 0.024908
0.512918 0.050112 0.019175
0.512783 0.087310 0.047884
0.537379 -0.034583 0.019302
0.534056 -0.007413 0.003032
0.521749 0.039988 0.008537
0.578179 0.015352 0.014850
0.598942 0.000160 0.044525
0.540132 0.089924 0.024169
0.563592 0.075080 0.078495
0.543100 0.054118 0.006987
0.528893 -0.009805 0.006407
0.593358 -0.058195 0.015819
0.546428 0.100786 0.058191
0.574970 -0.043617 0.056393
0.610407 -0.047972 0.038002
0.565236 0.010279 0.079209
0.548228 0.074677 0.082107
0.525005 0.045036 0.079401
0.538982 -0.001226 0.071934
0.540011 0.069135 0.082961
0.581518 0.005855 0.015648
0.546315 0.039815 0.004303
0.550056 -0.044676 0.013580
0.558799 -0.053857 0.037548
0.514127 0.033253 0.067771
0.525768 -0.010750 0.054112
0.575679 0.004111 0.010910
0.540274 0.065142 0.010045
0.532049 0.062232 0.082190
0.558757 -0.042164 0.008385
0.518837 0.083853 0.027752
0.505445 0.049309 0.050494
0.532573 0.022534 0.079163
0.522721 0.077526 0.020290
0.542050 0.092078 0.026719
0.532999 0.055685 0.007974
0.544190 -0.033110 0.008702
0.528402 0.012941 0.073296
0.560004 0.091336 0.038595
0.608838 -0.044378 0.041506
0.609674 -0.042247 0.038846
0.515356 0.056175 0.018348
0.513425 0.011592 0.053948
0.574772 -0.000501 0.073800
0.521617 0.068003 0.016991
0.528918 -0.003262 0.064402
0.519645 0.078053 0.071084
0.571197 0.080235 0.067824
0.529760 0.039837 0.081670
0.581676 0.042013 0.076640
0.507483 0.022833 0.045502
0.523723 -0.016490 0.022403
0.543273 -0.028176 0.006489
0.573063 0.078947 0.041171
0.506321 0.061494 0.039763
0.550920 0.090440 0.027961
0.548053 0.100015 0.044005
0.529767 0.091668 0.027422
0.521924 0.086997 0.027462
0.505623 0.041642 0.034430
0.573560 -0.063784 0.022552
0.505766 0.038319 0.033707
0.522965 0.018080 0.006462
0.574395 0.028672 0.014976
0.569232 -0.045881 0.008844
0.547478 0.085711 0.077402
0.597422 0.001440 0.054125
0.563308 -0.037688 0.058215
0.532556 0.098187 0.035496
0.511846 0.030160 0.018383
0.551449 -0.037811 0.052913
0.558741 0.046294 0.008883
0.558093 -0.035347 0.058249
0.552282 -0.033699 0.006257
0.601642 -0.040065 0.019285
0.557176 0.008741 0.002110
0.584364 -0.028504 0.011404
0.560980 0.088337 0.034546
0.530695 0.000692 0.002968
0.542548 -0.034080 0.049484
0.547212 -0.040222 0.011858
0.541621 0.062917 0.009386
0.521429 0.042461 0.077069
0.527861 0.023787 0.003887
0.549496 0.093043 0.070620
0.542555 -0.041979 0.031421
0.529894 0.070156 0.079829
0.520894 0.034548 0.008552
0.552672 0.084749 0.022976
0.569231 -0.015770 0.004861
0.533862 0.101402 0.059889
0.537898 0.021247 0.080744
0.576997 0.074557 0.064303
0.579343 0.042493 0.078473
0.594593 0.030927 0.052446
0.534606 0.065225 0.082572
0.505866 0.034605 0.033963
0.517313 0.015527 0.012146
0.583163 -0.019532 0.065010
0.544855 0.039178 0.086179
0.531832 0.049407 0.083016
0.511065 0.062428 0.026655
0.567699 0.074596 0.027414
0.514499 0.073303 0.067061
0.587953 0.030749 0.031585
0.565793 0.014105 0.005949
0.534063 0.082721 0.018506
0.590605 0.046750 0.052336
0.581385 0.064139 0.068489
0.543574 0.033238 0.085073
0.523343 0.033726 0.077197
0.576689 0.056424 0.078147
0.556481 -0.007551 0.072807
0.527052 0.021147 0.075745
0.517059 0.016461 0.064521
0.585485 -0.016116 0.064883
0.579669 0.028710 0.019732
0.540802 -0.024867 0.005981
0.540660 0.048536 0.086017
0.585757 -0.008645 0.066561
0.554738 0.098095 0.052385
0.591528 0.034866 0.065106
0.558217 -0.013976 0.070155
0.554665 0.004358 0.001301
0.522231 0.044551 0.077675
0.532040 0.069726 0.012473
0.556670 0.077729 0.020004
0.566365 -0.017810 0.068725
0.519963 0.055583 0.075785
0.561035 -0.004395 0.002285
0.550635 0.092607 0.030739
0.538378 0.096653 0.068128
0.516528 0.026439 0.012571
0.589728 -0.001581 0.021995
0.565170 0.085587 0.036480
0.593879 -0.025690 0.018311
0.571800 -0.063199 0.025605
0.544688 -0.029124 0.006396
0.603786 -0.057070 0.020636
0.547609 0.039001 0.004347
0.530556 0.097523 0.065665
0.515241 0.086930 0.060243
0.530152 0.100083 0.061147
0.574144 0.080896 0.057570
0.544256 0.086252 0.077151
0.512208 0.006717 0.039347
0.570587 0.023771 0.010751
0.595113 -0.065346 0.025725
0.536355 0.008581 0.075545
0.585358 -0.038458 0.057971
0.586143 0.034941 0.073123
0.539840 0.033180 0.084273
0.525686 0.075691 0.076249
0.580266 0.071463 0.058404
0.560174 -0.056190 0.033168
0.562707 0.011051 0.004104
0.531607 0.024314 0.079299
0.516169 0.074635 0.024942
0.546471 -0.046035 0.030581
0.568391 0.062705 0.081202
0.580237 0.063046 0.071444
0.505763 0.058729 0.048095
0.601239 -0.023810 0.027358
0.549265 0.075788 0.015745
0.532023 0.074772 0.079495
0.566577 0.036283 0.084403
0.545100 -0.025623 0.059463
0.542336 0.081236 0.079534
0.563603 -0.008808 0.072411
0.513506 0.085501 0.057519
0.565330 -0.029417 0.004699
0.556028 0.050189 0.086317
0.530787 0.071069 0.079987
0.518819 0.047828 0.012313
0.581973 -0.024045 0.010673
0.577844 0.003229 0.073981
0.585007 -0.050374 0.010964
0.530873 0.074375 0.014617
0.580157 0.017731 0.076827
0.606393 -0.040987 0.023673
0.513738 0.069144 0.067613
0.548399 0.000324 0.000603
0.535080 0.035971 0.003297
0.565456 -0.002940 0.074553
0.581319 0.070064 0.054286
0.568299 0.076440 0.074676
0.573047 0.034108 0.082169
0.534880 -0.030500 0.016658
0.572825 0.039675 0.016768
0.567425 0.009208 0.006186
0.561064 0.054653 0.012528
0.552388 0.086219 0.024170
0.506425 0.040003 0.054019
0.560143 0.075347 0.020818
0.511387 0.018825 0.055886
0.545333 0.100074 0.060953
0.543942 -0.040432 0.041833
0.508186 0.019913 0.032348
0.524595 -0.018932 0.033470
0.522739 0.050025 0.077961
0.520499 0.025429 0.072339
0.589194 0.051459 0.054955
0.574199 -0.064028 0.022670
0.570706 0.071156 0.028453
0.531574 0.089237 0.073318
0.513525 0.082459 0.034338
0.541068 -0.040331 0.032194
0.521488 -0.000151 0.058088
0.600872 -0.014198 0.046814
0.590613 0.022829 0.032782
0.570314 0.075318 0.031463
0.611073 -0.046616 0.033535
0.559611 0.087647 0.031724
0.557077 0.028026 0.084593
0.578893 -0.062904 0.038109
0.594633 -0.065525 0.025932
0.554627 0.063880 0.012405
0.589681 0.046706 0.062833
0.572957 0.003663 0.008939
0.505358 0.046452 0.050027
0.595924 -0.010604 0.056777
0.513461 0.038331 0.068467
0.538956 -0.017631 0.061656
0.576445 0.072397 0.039052
0.517385 0.001738 0.051969
0.520902 -0.008927 0.017649
0.511613 0.066421 0.027432
0.567717 0.042711 0.013556
0.531512 0.017571 0.002335
0.604419 -0.026212 0.043537
0.539027 0.015527 0.001205
0.571963 0.006462 0.008665
0.524118 0.032032 0.006296
0.520995 0.006190 0.062905
0.522326 0.048151 0.009944
0.581229 -0.052009 0.051349
0.543119 0.101167 0.059588
0.569967 -0.005484 0.073119
0.576709 0.062758 0.030732
0.583864 0.052948 0.036159
0.588690 -0.062657 0.018178
0.589134 -0.000189 0.021727
0.600869 -0.010756 0.042797
0.591503 0.040494 0.046533
0.551464 0.098987 0.057731
0.513524 0.005553 0.045180
0.507537 0.068148 0.053037
0.509329 0.051733 0.063879
0.508132 0.073580 0.049582
0.577319 0.075624 0.060750
0.592819 -0.054282 0.048849
0.594223 0.025780 0.061350
0.517898 0.035525 0.072982
0.557072 -0.021251 0.002734
0.521778 -0.000999 0.057715
0.559010 0.062490 0.084073
0.528137 0.009136 0.071347
0.508045 0.019309 0.042395
0.511912 0.007178 0.034447
0.581096 -0.060230 0.015560
0.595477 0.023041 0.046035
0.564958 -0.059913 0.027393
0.511673 0.016408 0.021891
0.537981 0.101274 0.041423
0.553337 -0.005812 0.073292
0.520869 0.036056 0.075829
0.595918 -0.028960 0.055528
0.537512 0.017644 0.079450
0.595108 0.022294 0.043684
0.518324 -0.002380 0.017308
0.535189 -0.031919 0.019200
0.574584 -0.058544 0.014692
0.543574 0.071182 0.082862
0.574667 0.073235 0.036446
0.578360 0.047989 0.078536
0.545062 -0.027518 0.005582
0.574076 0.079472 0.045333
0.554914 -0.028066 0.062103
0.585295 0.053610 0.068892
0.562388 0.092926 0.055734
0.600845 -0.054064 0.046357
0.516900 0.092663 0.055526
0.517796 0.071233 0.021629
0.573009 -0.052230 0.011180
0.549814 -0.002275 0.000680
0.557627 0.070465 0.016565
0.546280 0.066392 0.011037
0.510953 0.009837 0.038892
0.588531 -0.010775 0.017842
0.506261 0.059640 0.051979
0.538201 0.027762 0.082657
0.527985 -0.019884 0.014541
0.589834 0.046661 0.062302
0.508012 0.063914 0.057750
0.553465 0.094404 0.066732
0.582461 0.057555 0.071533
0.593332 0.027297 0.041338
0.597209 0.011502 0.044167
0.510099 0.045493 0.064909
0.533860 -0.002398 0.002267
0.590244 -0.023159 0.016076
0.570800 0.000416 0.007101
0.510095 0.041318 0.021407
0.525619 -0.011608 0.052959
0.595149 0.023920 0.045266
0.565546 -0.039237 0.057726
0.536925 0.078280 0.079777
0.510659 0.082345 0.049897
0.594354 -0.018403 0.058067
0.529658 -0.022372 0.046378
0.566216 -0.038386 0.058410
0.541485 0.098869 0.064715
0.524559 0.099604 0.046224
0.527597 0.066359 0.012897
0.545950 0.060052 0.085405
0.535315 -0.025657 0.051177
0.589001 0.043128 0.040789
0.594918 -0.020028 0.021249
0.552513 0.093911 0.068142
0.586329 -0.044577 0.010676
0.556462 0.097082 0.052390
0.509934 0.012571 0.037071
0.544108 0.004937 0.000617
0.549571 -0.036302 0.008095
0.551466 -0.035659 0.054921
0.584215 0.034725 0.027348
0.509030 0.023241 0.053013
0.529659 0.098840 0.063269
0.565309 0.029510 0.083904
0.510786 0.019975 0.022589
0.510088 0.055570 0.025581
0.513512 0.025455 0.016470
0.530019 0.056337 0.081883
0.511107 0.060789 0.066037
0.563917 0.080213 0.028002
0.575858 -0.064743 0.025527
0.581058 0.040090 0.077371
0.595958 -0.063155 0.021286
0.526595 -0.021581 0.037064
0.596181 -0.006740 0.056560
0.561930 -0.025908 0.064812
0.508052 0.026080 0.027690
0.590413 0.044832 0.061946
0.508934 0.016987 0.032125
0.509161 0.070802 0.057544
0.594139 0.019566 0.062671
0.529065 0.099135 0.062354
0.526430 0.046527 0.007470
0.593266 0.031576 0.061885
0.539392 0.102208 0.058131
0.540950 0.050388 0.005990
0.505603 0.055955 0.040731
0.521131 0.020806 0.071146
0.599372 -0.062451 0.039228
0.556823 -0.030170 0.004611
0.515161 0.063897 0.070700
0.583289 0.007512 0.072512
0.605184 -0.032470 0.044911
0.524647 -0.008957 0.054191
0.589238 -0.031076 0.013758
0.506430 0.060653 0.052433
0.571529 -0.033845 0.061437
0.543988 0.022732 0.001780
0.564155 0.029269 0.084070
0.569118 0.030620 0.083189
0.559087 0.093098 0.063786
0.573299 -0.036888 0.007018
0.599706 -0.018169 0.051072
0.565676 0.009295 0.005256
0.535650 0.063988 0.009938
0.548872 0.035610 0.003973
0.548840 0.075785 0.015619
0.598223 -0.001617 0.051778
0.542915 -0.040549 0.018285
0.575663 -0.039403 0.007777
0.540362 0.074236 0.081676
0.602467 -0.058707 0.020771
0.523226 0.055388 0.011585
0.521312 0.009379 0.065513
0.603677 -0.055237 0.044022
0.550277 -0.045261 0.042657
0.603459 -0.031962 0.047575
0.589940 0.017875 0.069019
0.572901 0.076039 0.036506
0.511479 0.044709 0.067100
0.547610 0.051108 0.086640
0.586132 0.013410 0.071953
0.525965 0.074267 0.016700
0.557680 0.057927 0.011726
0.527140 0.009667 0.003834
0.536532 0.064020 0.009840
0.506391 0.035796 0.030929
0.556069 0.056987 0.010721
0.529046 0.047074 0.006681
0.545719 0.100358 0.060003
0.548557 0.090959 0.027397
0.589455 -0.038573 0.012515
0.533296 -0.017758 0.056888
0.601055 -0.038004 0.019718
0.544693 0.018570 0.081517
0.562100 -0.031574 0.061736
0.586819 -0.039372 0.011218
0.519653 0.095411 0.056798
0.592829 -0.003604 0.061449
0.560164 0.031780 0.006311
0.596163 -0.002047 0.056855
0.519687 0.053695 0.075706
0.536036 -0.004451 0.068674
0.584057 -0.062098 0.041625
0.606408 -0.038101 0.044440
0.560906 0.017795 0.004289
0.601060 -0.048088 0.048702
0.588885 0.005519 0.023270
0.580685 0.056657 0.032864
0.520307 0.017888 0.008744
0.534440 0.069453 0.081647
0.528734 -0.023704 0.040933
0.571141 0.007176 0.008216
0.577513 0.073811 0.044032
0.560289 -0.001254 0.075447
0.559407 0.051564 0.010639
0.517338 0.037702 0.011700
0.557320 -0.043337 0.051189
0.607047 -0.045449 0.044166
0.578461 -0.063870 0.035261
0.506778 0.037030 0.029268
0.512924 0.041127 0.016989
0.541325 -0.020109 0.061354
0.532912 0.053321 0.083403
0.506993 0.058720 0.056172
0.533523 0.011885 0.075682
0.559733 -0.046874 0.049006
0.548567 -0.040531 0.047602
0.592837 -0.066117 0.026937
0.605360 -0.033521 0.044943
0.588329 -0.054196 0.012619
0.510364 0.011357 0.035713
0.575179 -0.035649 0.060538
0.590708 -0.059532 0.045021
0.567260 0.088377 0.048836
0.592733 0.038065 0.058525
0.535995 0.098636 0.035771
0.568659 0.072030 0.026632
0.533267 0.003508 0.001887
0.531712 0.074062 0.079582
0.559466 0.081563 0.024825
0.572276 0.000338 0.074719
0.541493 0.056013 0.007391
0.548519 -0.016134 0.067262
0.555090 -0.018288 0.002183
0.572309 0.067668 0.076940
0.598273 -0.016719 0.027103
0.515701 0.025025 0.013631
0.541952 0.031879 0.084496
0.530711 -0.027173 0.038227
0.513042 0.039945 0.068338
0.523542 0.072188 0.075875
0.514294 0.070666 0.067800
0.517566 0.000486 0.050744
0.536345 -0.006219 0.067764
0.514371 0.086884 0.058265
0.529796 -0.012840 0.057487
0.586884 0.017987 0.024777
0.599034 -0.001527 0.047491
0.522271 0.054571 0.011904
0.553129 0.063616 0.011767
0.552202 0.006908 0.001118
0.581040 0.029762 0.077696
0.587117 0.012366 0.023186
0.538672 0.088023 0.022295
0.596675 0.017184 0.047031
0.579885 -0.030246 0.008924
0.588957 0.019552 0.070283
0.541581 0.047428 0.086204
0.550663 -0.036425 0.007793
0.529545 0.074509 0.078571
0.511446 0.080269 0.036931
0.539333 -0.024164 0.006307
0.541147 0.095825 0.031669
0.531228 0.003797 0.002480
0.505853 0.043034 0.033267
0.564090 0.090843 0.060282
0.584547 -0.009860 0.066979
0.525757 0.089919 0.070188
0.505464 0.044256 0.035622
0.523191 0.048944 0.078275
0.562140 0.042483 0.009599
0.514977 0.000120 0.029706
0.548448 0.100872 0.048286
0.528584 0.078970 0.017740
0.552544 0.004621 0.001037
0.534783 0.062797 0.083072
0.544642 -0.011833 0.001535
0.572257 -0.050331 0.051275
0.598125 0.001821 0.051577
0.519927 0.004121 0.010564
0.580382 0.032691 0.078205
0.528314 -0.008723 0.006444
0.546135 0.028059 0.084332
0.541831 0.053813 0.006839
0.598818 -0.002743 0.049625
0.510402 0.020325 0.023425
0.585585 -0.007819 0.016043
0.548067 0.013909 0.001248
0.526880 -0.020249 0.042942
0.519608 0.044032 0.010770
0.600093 -0.019555 0.028278
0.607095 -0.058564 0.027003
0.568551 0.010645 0.078878
0.602295 -0.020553 0.046112
0.505617 0.058162 0.044448
0.522751 0.032401 0.076439
0.518737 0.090912 0.035900
0.535232 0.102105 0.058316
0.573972 -0.060307 0.040067
0.517138 0.008318 0.058705
0.541002 0.078357 0.015592
0.562731 -0.049725 0.047751
0.516108 0.003730 0.017845
0.541690 0.102773 0.054624
0.583642 -0.004110 0.015315
0.594116 -0.039351 0.054629
0.513303 0.085870 0.056445
0.590289 -0.028692 0.059236
0.532182 0.002383 0.002284
0.526051 0.035763 0.005633
0.506215 0.049488 0.054713
0.518428 0.010521 0.011159
0.509016 0.035336 0.059791
0.583600 -0.045379 0.055246
0.574426 0.065319 0.029233
0.522477 0.000591 0.008579
0.596548 -0.034615 0.054284
0.554899 0.004945 0.001372
0.528499 0.084823 0.074362
0.523020 0.060943 0.077425
0.575955 0.078135 0.059092
0.573927 0.076565 0.039317
0.596164 0.006096 0.036518
0.510669 0.023557 0.021693
0.534572 0.102033 0.058315
0.549648 -0.019484 0.065680
0.564918 0.074701 0.024489
0.556576 0.090358 0.070762
0.559033 0.058490 0.012609
0.539996 0.012932 0.001020
0.579635 -0.028830 0.062907
0.543357 0.077087 0.081143
0.597566 0.011527 0.049955
0.582455 0.033556 0.076656
0.577976 -0.030081 0.062709
0.521632 0.020504 0.071469
0.587150 0.020844 0.026198
0.518445 -0.001080 0.015758
0.526495 0.084370 0.022205
0.523211 0.010341 0.068040
0.515891 0.006290 0.054000
0.550905 0.099890 0.054389
0.538432 0.081899 0.078720
0.556430 -0.053267 0.017808
0.551250 0.093130 0.031962
0.581239 -0.042855 0.009271
0.596718 0.003140 0.056040
0.577605 0.053011 0.078231
0.543561 -0.026062 0.005460
0.515083 0.008120 0.017600
0.551529 0.020510 0.002284
0.562442 0.042337 0.009728
0.535725 -0.030500 0.014803
0.538533 -0.029240 0.050843
0.573470 0.023632 0.012960
0.532159 0.043950 0.083022
0.527974 -0.016544 0.051337
0.522795 0.096862 0.040847
0.553971 0.000810 0.001042
0.551451 0.005827 0.000974
0.532458 -0.029907 0.035635
0.508491 0.075107 0.042888
0.593040 0.004901 0.029400
0.571560 -0.030517 0.005946
0.582986 0.039761 0.027647
0.540371 0.031407 0.002558
0.587521 0.031954 0.071887
0.541738 0.081936 0.079188
0.559921 -0.020698 0.002847
0.575987 0.065148 0.075193
0.516239 0.045749 0.073006
0.582133 0.031394 0.023337
0.523651 -0.015274 0.019280
0.519815 -0.010490 0.031809
0.579189 -0.011671 0.068853
0.511232 0.036381 0.019053
0.549988 -0.049499 0.027438
0.542361 -0.010417 0.068309
0.560866 0.085269 0.030065
0.522434 0.041965 0.008444
0.609111 -0.053847 0.038440
0.586678 0.053975 0.065395
0.506446 0.061534 0.038973
0.506724 0.052856 0.032778
0.543316 0.036071 0.085529
0.564772 0.024967 0.007178
0.552799 -0.024567 0.003429
0.529616 -0.004011 0.064473
0.568886 -0.033429 0.061555
0.535444 -0.007545 0.066357
0.508719 0.051054 0.026628
0.536941 0.064874 0.083282
0.522324 0.000048 0.008931
0.523121 0.008109 0.066654
0.594291 0.032389 0.052442
0.579917 0.000233 0.013340
0.554518 -0.008291 0.001147
0.547196 0.069627 0.012437
0.570853 -0.061390 0.018513
0.584432 0.063737 0.054734
0.521378 0.006243 0.008387
0.559274 -0.053789 0.015707
0.542646 0.084884 0.077862
0.604402 -0.057265 0.041933
0.525370 -0.020091 0.034413
0.598536 -0.024046 0.023568
0.517460 0.051619 0.074068
0.597090 -0.018937 0.055030
0.540269 -0.009666 0.001800
0.522957 0.072268 0.075456
0.553255 0.061445 0.085023
0.593557 0.020759 0.063803
0.580099 0.009265 0.074813
0.529384 -0.026164 0.029678
0.515518 0.014621 0.014790
0.583592 0.060979 0.042798
0.535576 0.060750 0.083645
0.544436 0.058959 0.008412
0.570468 -0.048192 0.009643
0.517052 0.046343 0.073775
0.580446 0.071291 0.050850
0.540288 -0.011170 0.002059
0.524017 -0.015914 0.042642
0.601603 -0.014388 0.037402
0.520518 0.084137 0.069274
0.554736 -0.014228 0.001631
0.576505 -0.045065 0.055634
0.525486 -0.011390 0.010568
0.520647 0.012455 0.008466
0.561573 0.084639 0.030122
0.591182 0.030930 0.038076
0.543723 0.089228 0.023961
0.560582 0.076250 0.079265
0.524454 0.070579 0.016050
0.564811 -0.017761 0.003392
0.579702 -0.015733 0.067401
0.607808 -0.038389 0.041943
0.516706 0.021709 0.012620
0.520247 0.094278 0.060571
0.602015 -0.044736 0.017895
0.534368 0.002637 0.071791
0.599178 -0.001490 0.045304
0.544611 0.063544 0.084678
0.537773 0.086742 0.021193
0.589647 0.034819 0.036913
0.527550 0.062411 0.011652
0.545320 -0.025020 0.004585
0.543657 -0.042852 0.033581
0.566807 -0.003349 0.004495
0.600429 -0.023710 0.026221
0.566641 0.076827 0.075691
0.535532 -0.033593 0.036049
0.570333 -0.042093 0.056824
0.547758 0.101037 0.047692
0.523357 0.087145 0.026436
0.548014 -0.035172 0.008112
0.523009 0.004923 0.007060
0.505141 0.036857 0.040589
0.595261 -0.052849 0.014223
0.565113 0.062090 0.082626
0.509392 0.017706 0.028444
0.605212 -0.036777 0.024806
0.530522 0.008164 0.002479
0.556909 0.082370 0.077477
0.531972 -0.026945 0.043484
0.563721 0.057245 0.084067
0.537798 -0.035451 0.038965
0.589786 0.049126 0.051451
0.566876 -0.058844 0.036412
0.519355 0.004736 0.011160
0.542064 0.074186 0.013623
0.597578 -0.039214 0.016834
0.597885 -0.064960 0.030057
0.583210 -0.066614 0.026458
0.520596 0.051918 0.012191
0.577437 0.070049 0.069503
0.559346 0.092127 0.065562
0.516143 0.090318 0.040196
0.521666 0.041590 0.077184
0.556568 0.031443 0.085274
0.564188 0.065790 0.081870
0.581285 0.012512 0.016889
0.557598 0.050243 0.086120
0.578882 0.072260 0.045578
0.581084 0.048872 0.076045
0.525080 -0.004814 0.058913
0.536237 0.004817 0.073792
0.544342 -0.006652 0.071112
0.521814 0.089605 0.067331
0.562228 0.042880 0.009751
0.561888 0.031033 0.084681
0.557660 0.032352 0.005519
0.607037 -0.037656 0.043235
0.540979 0.060317 0.008574
0.575509 -0.016219 0.068328
0.563550 -0.032949 0.005257
0.583316 0.056190 0.070933
0.558052 0.033687 0.085515
0.567046 0.017856 0.007238
0.581927 0.061914 0.069508
0.525461 0.090157 0.069841
0.545312 0.101508 0.056891
0.565562 -0.050110 0.010905
0.519672 0.029645 0.072992
0.528195 0.087268 0.073027
0.515352 0.004948 0.018971
0.504932 0.047623 0.044056
0.606788 -0.031455 0.039852
0.524780 0.070778 0.015937
0.610167 -0.050750 0.027093
0.592059 -0.027667 0.058465
0.554781 -0.045133 0.011024
0.568128 0.033144 0.083735
0.509387 0.063350 0.030238
0.605824 -0.060767 0.032365
0.545884 0.021953 0.082718
0.517088 0.007780 0.013755
0.570090 0.085741 0.050776
0.606268 -0.028879 0.037971
0.547442 0.063010 0.010089
0.538590 0.007497 0.000897
0.581721 -0.066333 0.025519
0.559859 -0.048409 0.011227
0.507106 0.043302 0.028611
0.552953 0.043314 0.006299
0.511726 0.007700 0.037841
0.546784 0.101370 0.047696
0.587687 -0.050447 0.051974
0.538336 -0.037330 0.028553
0.572200 -0.009256 0.006831
0.567538 0.076303 0.075368
0.581871 0.068726 0.051437
0.555112 0.063825 0.012583
0.577555 -0.008128 0.070487
0.561488 0.065018 0.082913
0.565768 0.040247 0.084801
0.509230 0.078393 0.047634
0.565414 0.065686 0.020054
0.521188 0.035413 0.008399
0.559839 0.032855 0.006387
0.557806 -0.024967 0.064677
0.517148 0.024487 0.011982
0.564440 -0.052992 0.044836
0.569692 -0.062213 0.026992
0.547380 -0.029614 0.057640
0.560732 0.039832 0.085789
0.582121 0.066555 0.062912
0.580090 0.071957 0.051013
0.524893 -0.018602 0.038676
0.594460 0.002437 0.060272
0.546351 0.007752 0.000730
0.523321 0.026222 0.006511
0.568703 0.053639 0.017993
0.510355 0.075730 0.057563
0.590994 0.041675 0.045767
0.588482 -0.064965 0.037545
0.592343 0.040066 0.050779
0.603493 -0.059002 0.040998
0.572602 0.042008 0.017284
0.543322 0.058200 0.085543
0.564229 0.008714 0.078798
0.523535 -0.016015 0.021932
0.603265 -0.050037 0.018038
0.506472 0.055254 0.054956
0.599714 -0.064347 0.030335
0.505244 0.041206 0.037068
0.593614 -0.065564 0.024764
0.542306 0.065785 0.010351
0.505881 0.040564 0.051810
0.539067 0.030928 0.083628
0.585893 0.055141 0.066474
0.527061 -0.003787 0.062174
0.512447 0.071344 0.028442
0.583650 -0.039288 0.009973
0.582889 0.006391 0.072442
0.518216 0.091308 0.037472
0.539484 0.081348 0.079120
0.545368 -0.036043 0.049979
0.574648 -0.063624 0.031016
0.550875 0.051999 0.086530
0.582742 -0.043423 0.056318
0.513639 0.060696 0.022152
0.552175 0.091614 0.071406
0.513320 0.013103 0.019382
0.575997 0.007227 0.075934
0.593611 0.035194 0.056084
0.511564 0.075385 0.060916
0.544434 0.002322 0.000596
0.532818 0.095232 0.069030
0.569228 -0.062097 0.023021
0.531846 0.009290 0.002052
0.581247 -0.041729 0.057275
0.546374 -0.029193 0.005894
0.560966 0.027497 0.084159
0.529065 -0.022175 0.045336
0.596327 0.018831 0.046471
0.595976 0.005877 0.035899
0.518073 0.015102 0.011199
0.568958 0.063948 0.080530
0.516670 0.004286 0.016089
0.559140 -0.009406 0.001811
0.548399 -0.018330 0.065938
0.585745 0.041551 0.072529
0.569176 0.050179 0.083338
0.533849 0.088687 0.074323
0.609506 -0.039825 0.032361
0.590638 -0.035577 0.057252
0.590644 0.044906 0.048416
0.601469 -0.056961 0.044240
0.573804 0.034711 0.081881
0.577699 -0.065274 0.023854
0.594719 0.006481 0.033326
0.514150 0.002282 0.029067
0.579485 0.045275 0.025301
0.545370 0.080487 0.017424
0.581799 0.064962 0.066596
0.511008 0.024970 0.020647
0.557605 -0.042769 0.008889
0.577870 -0.027802 0.008155
0.546781 0.031647 0.085169
0.521818 -0.013789 0.025725
0.561458 -0.054725 0.039247
0.563299 0.064493 0.082539
0.588959 0.004188 0.067186
0.586981 0.057163 0.058618
0.590345 -0.065177 0.021748
0.537513 -0.035974 0.024351
0.569097 0.039970 0.013831
0.597830 -0.043084 0.015862
0.546517 -0.046065 0.030733
0.559632 0.067351 0.082735
0.508021 0.018858 0.037452
0.546658 0.031824 0.085192
0.579136 -0.013609 0.068258
0.593259 0.017320 0.035484
0.577609 -0.001416 0.072599
0.516617 0.080916 0.028164
0.572450 0.068879 0.076137
0.547381 -0.046753 0.023535
0.590973 0.041312 0.063067
0.545733 -0.038544 0.011616
0.568897 0.056435 0.082542
0.580746 0.033982 0.022604
0.591912 0.020303 0.066611
0.539717 0.090464 0.024687
0.545737 0.072005 0.013158
0.511723 0.027511 0.061863
0.579391 0.061999 0.034490
0.544075 0.003405 0.000603
0.544108 0.071621 0.082788
0.507596 0.023004 0.031960
0.507730 0.059751 0.032757
0.541308 0.046222 0.086141
0.600804 -0.010738 0.043591
0.509266 0.068903 0.033542
0.513464 0.008862 0.021496
0.568942 0.023257 0.082067
0.563070 -0.039056 0.057226
0.544704 0.019779 0.081895
0.526797 0.003515 0.067201
0.549867 0.099096 0.059603
0.523559 0.006414 0.066028
0.580652 0.061936 0.036812
0.566587 0.065616 0.021020
0.556877 0.093231 0.037880
0.580647 0.032476 0.021988
0.517644 0.029586 0.011262
0.540537 0.070492 0.082701
0.553377 0.005695 0.077988
0.582238 0.067539 0.049516
0.537577 0.097469 0.033792
0.586631 -0.039212 0.011154
0.524373 0.038051 0.006742
0.539614 0.039924 0.085286
0.587181 0.019996 0.072108
0.584613 -0.061127 0.016358
0.594658 0.023387 0.042844
0.550413 -0.049875 0.025153
0.554286 -0.004466 0.073954
0.541556 0.030552 0.002491
0.540853 -0.015655 0.064242
0.509581 0.050063 0.064410
0.510119 0.041014 0.021316
0.528280 0.019847 0.076012
0.521016 0.000467 0.010357
0.508227 0.023125 0.049898
0.524512 0.054917 0.010721
0.570175 0.002086 0.075750
0.526521 0.023855 0.004510
0.555698 -0.052930 0.018263
0.521496 0.096072 0.059431
0.576635 -0.055723 0.047472
0.536498 0.083238 0.018591
0.545130 0.064430 0.084533
0.559806 0.050418 0.085793
0.557772 -0.012006 0.001708
0.572596 0.010338 0.077942
0.564171 0.028265 0.083896
0.585218 -0.061435 0.042724
0.583260 0.014865 0.074382
0.556001 0.094190 0.038768
0.546626 -0.035557 0.051634
0.583651 -0.065350 0.020962
0.553865 0.098399 0.048797
0.578032 0.073217 0.063802
0.554021 -0.048393 0.042050
0.568745 0.084855 0.064868
0.569668 0.009364 0.078284
0.566082 -0.059910 0.031186
0.513606 0.026998 0.016155
0.531474 -0.028938 0.028916
0.505601 0.036478 0.048193
0.582116 0.034500 0.024430
0.539400 0.065086 0.010024
0.586983 -0.066791 0.025571
0.586072 0.059154 0.050256
0.548966 0.094674 0.032959
0.530168 -0.026900 0.035828
0.569532 0.019028 0.009030
0.576867 0.017590 0.014274
0.564280 -0.040151 0.056795
0.556740 0.072886 0.081683
0.590160 -0.004147 0.064125
0.564848 0.041243 0.085046
0.513319 0.085307 0.038571
0.572163 0.003910 0.008435
0.567201 0.064327 0.020971
0.556465 -0.001488 0.001354
0.525536 -0.019459 0.022148
0.583328 0.028156 0.075960
0.585640 0.023459 0.073809
0.550222 -0.049482 0.022879
0.573517 0.024712 0.013259
0.586308 -0.035981 0.058653
0.563177 -0.036395 0.059030
0.610024 -0.043245 0.038168
0.546768 -0.039503 0.011605
0.552638 0.027894 0.003478
0.536425 0.008668 0.001157
0.510360 0.076941 0.056655
0.514380 0.082129 0.062368
0.539158 0.064408 0.009806
0.607751 -0.057232 0.026251
0.525002 -0.019448 0.026560
0.519062 0.026769 0.009967
0.563747 -0.009211 0.072248
0.537084 0.093052 0.027563
0.582912 -0.048197 0.010223
0.562125 0.090009 0.066164
0.533507 0.007145 0.073594
0.563619 0.073888 0.079050
0.580596 0.071026 0.057701
0.579033 0.000290 0.012703
0.527095 0.084521 0.073793
0.529769 0.094898 0.068332
0.578191 -0.010819 0.010302
0.513847 0.006918 0.022043
0.531202 0.059186 0.082218
0.557504 0.094512 0.041915
0.517184 0.084859 0.030640
0.512202 0.015050 0.021209
0.540892 0.028107 0.002203
0.526462 0.032087 0.005084
0.507757 0.030176 0.053973
0.514842 0.068950 0.023958
0.520699 0.083944 0.069538
0.533772 0.025765 0.002370
0.509319 0.020105 0.050887
0.520625 -0.009902 0.042781
0.539214 0.098013 0.034873
0.552087 0.008441 0.001206
0.573708 0.039399 0.017421
0.557963 0.062013 0.013260
0.567794 -0.060297 0.033132
0.516127 0.028861 0.012880
0.506692 0.039156 0.054708
0.523398 0.072017 0.017307
0.536375 0.001267 0.072084
0.558450 0.062206 0.084236
0.535307 0.029017 0.002462
0.583755 0.026110 0.023501
0.568351 -0.015096 0.004523
0.593820 -0.036060 0.015426
0.584025 0.005527 0.017819
0.576511 0.073414 0.067225
0.558353 0.066156 0.083321
0.510209 0.055910 0.065262
0.540182 0.088925 0.075206
0.598013 -0.012121 0.029492
0.588996 0.033922 0.069771
0.567273 0.083185 0.036296
0.507658 0.048775 0.059776
0.505112 0.045175 0.047851
0.596129 -0.065277 0.033436
0.562683 0.088338 0.068275
0.589429 0.029415 0.069768
0.512025 0.058065 0.067883
0.542283 0.036782 0.085460
