ply
format ascii 1.0
element vertex 1024
property float x
property float y
property float z
end_header
0.581536 0.024887 0.080088
0.604604 -0.046985 0.040863
0.605354 -0.051850 0.039266
0.546229 0.078800 0.034132
0.545553 -0.053404 0.013147
0.599799 0.005662 0.034982
0.556488 0.074493 0.031679
0.513385 0.003194 0.055029
0.601724 -0.046740 0.014305
0.584664 -0.001279 0.016275
0.511294 0.033415 0.034148
0.519769 0.071471 0.060373
0.536006 -0.051024 0.028573
0.527117 -0.024393 0.013547
0.516396 0.023046 0.021495
0.572274 -0.000900 0.009861
0.601779 -0.014997 0.031612
0.537939 0.073593 0.029029
0.577954 0.060620 0.073216
0.535843 0.037304 0.012753
0.523365 -0.026725 0.018472
0.588275 -0.074249 0.007793
0.554691 0.085544 0.058890
0.583719 -0.058595 0.051736
0.611389 -0.063206 0.022995
0.580908 -0.004112 0.075056
0.564591 0.060196 0.081612
0.542276 0.030287 0.087339
0.553923 -0.016059 0.076966
0.557191 0.054613 0.085223
0.575863 -0.010339 0.009784
0.538277 0.022955 0.009550
0.546336 -0.061177 0.019325
0.562515 -0.069545 0.039409
0.528439 0.018061 0.080164
0.535835 -0.026237 0.064631
0.568839 -0.012277 0.007236
0.533958 0.048393 0.016272
0.549533 0.047620 0.087249
0.552845 -0.058751 0.011532
0.519057 0.067452 0.039464
0.514353 0.033506 0.066210
0.549766 0.007855 0.085255
0.520436 0.060933 0.031315
0.540540 0.075840 0.030764
0.526576 0.038815 0.016912
0.539000 -0.049817 0.016306
0.544097 -0.001949 0.081305
0.561378 0.075616 0.036211
0.610971 -0.059520 0.026722
0.610865 -0.057465 0.023879
0.513224 0.039470 0.032418
0.523700 -0.004018 0.067884
0.588378 -0.014970 0.067138
0.518497 0.051304 0.028800
0.542004 -0.018410 0.073150
0.533923 0.062987 0.080342
0.581610 0.065511 0.060528
0.547602 0.025202 0.088083
0.595061 0.027669 0.066478
0.515147 0.006908 0.061522
0.523761 -0.032962 0.035449
0.537329 -0.044961 0.014380
0.574789 0.063424 0.034747
0.511497 0.045364 0.055458
0.549364 0.074317 0.029113
0.551661 0.084353 0.044965
0.529151 0.075347 0.035412
0.521828 0.070612 0.038108
0.509471 0.025353 0.051158
0.571818 -0.079799 0.020710
0.509433 0.022011 0.050515
0.517271 0.001096 0.019712
0.568495 0.012385 0.010855
0.562972 -0.062362 0.008676
0.562162 0.071074 0.077115
0.603420 -0.013437 0.041151
0.573166 -0.052713 0.057077
0.534281 0.082133 0.041977
0.510383 0.013439 0.034268
0.560235 -0.053100 0.055900
0.551396 0.029677 0.009693
0.568201 -0.050417 0.058734
0.545878 -0.050411 0.011392
0.596906 -0.055951 0.007918
0.548404 -0.008077 0.004776
0.577804 -0.044786 0.005748
0.561047 0.072503 0.032144
0.523771 -0.016323 0.014361
0.550638 -0.049553 0.055438
0.543008 -0.056803 0.018499
0.535060 0.046160 0.015270
0.538185 0.027612 0.086357
0.520970 0.006764 0.015543
0.561749 0.078212 0.069856
0.544952 -0.058000 0.038556
0.546588 0.055451 0.085505
0.515690 0.017602 0.021927
0.549513 0.068492 0.023980
0.561142 -0.032388 0.004121
0.543339 0.086104 0.064543
0.555338 0.006663 0.085062
0.586064 0.059778 0.055471
0.593438 0.028185 0.068955
0.599669 0.015959 0.039706
0.552021 0.050646 0.086705
0.509677 0.018308 0.050822
0.513805 -0.001331 0.026983
0.593821 -0.034188 0.056608
0.563354 0.024811 0.087483
0.549825 0.034826 0.088436
0.511735 0.045937 0.041500
0.565348 0.058608 0.023583
0.527840 0.058072 0.078325
0.586651 0.015085 0.022126
0.557702 -0.002525 0.005480
0.530498 0.066168 0.025823
0.595575 0.031736 0.040478
0.591755 0.049531 0.058284
0.561891 0.018829 0.087007
0.540195 0.018902 0.086088
0.590570 0.042075 0.069140
0.570877 -0.022204 0.072298
0.543463 0.006317 0.083844
0.530466 0.001203 0.076582
0.595916 -0.030757 0.055647
0.575021 0.012614 0.013647
0.534768 -0.041690 0.014611
0.559163 0.034123 0.088443
0.596581 -0.023236 0.056951
0.560728 0.082748 0.050780
0.600788 0.020257 0.052569
0.571778 -0.028692 0.069396
0.545846 -0.012505 0.004937
0.539102 0.029726 0.086616
0.526869 0.052978 0.021111
0.552463 0.061418 0.020060
0.579096 -0.032497 0.065509
0.536147 0.040675 0.085273
0.552349 -0.021168 0.004037
0.549952 0.076566 0.031776
0.550358 0.081649 0.071000
0.513003 0.009582 0.027353
0.585816 -0.017506 0.013327
0.565686 0.069850 0.032689
0.588988 -0.041680 0.009131
0.571128 -0.079136 0.024152
0.538656 -0.045899 0.013859
0.599679 -0.072888 0.008947
0.539530 0.022153 0.009193
0.542146 0.082376 0.071177
0.526094 0.071491 0.071279
0.540258 0.084793 0.066968
0.581074 0.065883 0.049859
0.559022 0.071579 0.077906
0.517920 -0.009347 0.054594
0.563614 0.007325 0.008219
0.593265 -0.081078 0.016782
0.552427 -0.006169 0.080975
0.593966 -0.053301 0.049734
0.598280 0.020531 0.061892
0.558101 0.018714 0.087459
0.541350 0.060837 0.083335
0.587306 0.056533 0.048914
0.562444 -0.071999 0.034883
0.554241 -0.005660 0.004813
0.548864 0.009630 0.085649
0.515791 0.058130 0.037910
0.548459 -0.062046 0.036602
0.583592 0.048375 0.074548
0.591643 0.048520 0.061479
0.513710 0.042850 0.063591
0.598840 -0.039461 0.015259
0.544116 0.059285 0.018477
0.548412 0.060072 0.084380
0.583386 0.022049 0.078854
0.556124 -0.040772 0.063830
0.558066 0.066622 0.080913
0.577511 -0.023412 0.069653
0.523598 0.069964 0.069301
0.557644 -0.046067 0.005586
0.573772 0.035916 0.083713
0.547467 0.056375 0.085342
0.514702 0.030973 0.025809
0.575225 -0.040371 0.005714
0.591276 -0.011210 0.066217
0.578664 -0.066653 0.005697
0.526374 0.057680 0.023395
0.594123 0.003392 0.067782
0.602837 -0.056698 0.010556
0.527373 0.053926 0.079201
0.539765 -0.016612 0.006409
0.527390 0.018986 0.012332
0.579851 -0.017465 0.070927
0.586998 0.055018 0.044715
0.581150 0.061903 0.068046
0.588825 0.019863 0.074706
0.532715 -0.047044 0.026774
0.567390 0.023424 0.012770
0.559410 -0.007398 0.005304
0.554622 0.038163 0.012171
0.549604 0.069995 0.025163
0.516588 0.024322 0.069471
0.556055 0.059092 0.019769
0.522268 0.003254 0.070186
0.554560 0.084907 0.061875
0.549600 -0.056123 0.047916
0.511616 0.003593 0.048929
0.528205 -0.035057 0.045699
0.539577 0.035210 0.086579
0.536085 0.010436 0.082630
0.595001 0.036511 0.043288
0.572465 -0.080034 0.020622
0.568591 0.055228 0.023684
0.545730 0.074337 0.078303
0.516183 0.066214 0.047448
0.543765 -0.056342 0.039726
0.532879 -0.015558 0.069499
0.604604 -0.029262 0.033529
0.589697 0.007230 0.022606
0.569118 0.059476 0.026549
0.610552 -0.061982 0.018518
0.558852 0.071715 0.029934
0.574607 0.013721 0.082323
0.581874 -0.078397 0.033678
0.592880 -0.081255 0.017138
0.548324 0.047327 0.013895
0.598092 0.032006 0.050707
0.565635 -0.012808 0.006264
0.514172 0.030636 0.065871
0.603076 -0.025407 0.044459
0.527942 0.023153 0.080905
0.550874 -0.032770 0.067682
0.577423 0.056842 0.031821
0.526985 -0.013893 0.064988
0.519420 -0.025572 0.031668
0.512432 0.049957 0.041953
0.561464 0.026316 0.011304
0.524035 0.000535 0.013058
0.607119 -0.041339 0.029597
0.530817 -0.001478 0.009611
0.564555 -0.010027 0.006253
0.518057 0.015046 0.018816
0.533853 -0.009077 0.074049
0.517250 0.031253 0.022425
0.588164 -0.067083 0.045161
0.552005 0.085939 0.061271
0.583702 -0.020013 0.068178
0.575159 0.046956 0.024118
0.583859 0.037378 0.027194
0.584701 -0.078677 0.011651
0.585141 -0.016128 0.013229
0.603242 -0.025944 0.029640
0.594663 0.025314 0.034862
0.559340 0.083776 0.056872
0.521071 -0.010321 0.059716
0.516815 0.052431 0.067446
0.522309 0.036372 0.077551
0.516164 0.057760 0.063843
0.585201 0.060739 0.051978
0.598365 -0.069332 0.039108
0.602288 0.011083 0.048382
0.533650 0.020525 0.083814
0.549048 -0.038036 0.006185
0.533047 -0.016415 0.069075
0.575647 0.048168 0.080304
0.543285 -0.005813 0.079647
0.514738 0.003296 0.058494
0.516049 -0.009038 0.050043
0.576626 -0.076396 0.011566
0.598577 0.007889 0.033562
0.565172 -0.075856 0.027970
0.511600 -0.000200 0.038002
0.541273 0.085447 0.045748
0.568028 -0.020478 0.073728
0.537371 0.021168 0.085532
0.602998 -0.043792 0.043760
0.554620 0.003019 0.084057
0.597481 0.007067 0.031477
0.516752 -0.019062 0.032007
0.533853 -0.048382 0.029116
0.570153 -0.074794 0.012807
0.560493 0.056685 0.083923
0.574884 0.057584 0.029909
0.592429 0.033671 0.069188
0.538717 -0.044315 0.012927
0.577083 0.064085 0.038343
0.566306 -0.043050 0.063218
0.595774 0.039054 0.057676
0.569140 0.077750 0.051609
0.605150 -0.069121 0.034149
0.526037 0.077090 0.066131
0.516321 0.054642 0.034339
0.567415 -0.068604 0.009829
0.541176 -0.019195 0.006092
0.552388 0.054061 0.016688
0.539940 0.049724 0.015235
0.516529 -0.006254 0.054487
0.583507 -0.026832 0.010027
0.515419 0.043885 0.067081
0.556126 0.013236 0.086603
0.525315 -0.036558 0.026724
0.598067 0.031945 0.050156
0.518863 0.048347 0.071861
0.564224 0.079487 0.064860
0.593875 0.043053 0.060987
0.594953 0.011980 0.029702
0.599821 -0.003687 0.031537
0.523482 0.030173 0.078440
0.526595 -0.019406 0.012756
0.584781 -0.039250 0.008126
0.563059 -0.016128 0.005308
0.509502 0.024669 0.037402
0.535336 -0.027131 0.063611
0.598002 0.008740 0.032918
0.575154 -0.054257 0.055931
0.553078 0.063628 0.082969
0.518499 0.066552 0.063094
0.602147 -0.033176 0.046391
0.537226 -0.038056 0.056362
0.575994 -0.053380 0.056338
0.552156 0.083786 0.066709
0.530154 0.083809 0.054673
0.522862 0.049587 0.023038
0.563763 0.045660 0.085851
0.544188 -0.041144 0.059158
0.590392 0.027749 0.030169
0.590818 -0.035922 0.011425
0.563787 0.079029 0.066514
0.579718 -0.060856 0.004845
0.562378 0.081751 0.050254
0.514928 -0.003585 0.053023
0.535625 -0.012037 0.007689
0.543953 -0.052980 0.014075
0.560861 -0.050888 0.057738
0.581674 0.018898 0.019223
0.519029 0.007559 0.068115
0.540500 0.083610 0.069167
0.582147 0.015253 0.078970
0.510923 0.003380 0.038855
0.510587 0.039042 0.040979
0.511427 0.008692 0.032042
0.547619 0.041702 0.087770
0.524524 0.045504 0.078780
0.561859 0.064209 0.025216
0.574971 -0.080647 0.022807
0.594748 0.025763 0.067421
0.592591 -0.079017 0.012253
0.531305 -0.037577 0.048522
0.603180 -0.021550 0.044070
0.573781 -0.040749 0.063453
0.509873 0.009614 0.044404
0.598532 0.030112 0.049680
0.512304 0.000669 0.048552
0.519760 0.055236 0.071114
0.602747 0.004913 0.049823
0.539637 0.083872 0.068486
0.520363 0.029590 0.018800
0.601450 0.016885 0.049047
0.547988 0.086903 0.061071
0.533555 0.033527 0.012603
0.511230 0.039851 0.056750
0.536381 0.005785 0.081417
0.601604 -0.077734 0.028101
0.549580 -0.046894 0.008274
0.529811 0.048788 0.081799
0.595877 -0.006928 0.062955
0.608399 -0.047545 0.030813
0.534767 -0.024452 0.065022
0.583223 -0.047242 0.006466
0.515708 0.044912 0.067429
0.581917 -0.048703 0.057365
0.535568 0.005783 0.008363
0.581113 0.015008 0.079506
0.585500 0.016374 0.077032
0.568615 0.078140 0.060289
0.566068 -0.053395 0.005398
0.604948 -0.033111 0.038038
0.557454 -0.007354 0.004988
0.529569 0.047196 0.017696
0.540665 0.018763 0.008520
0.543673 0.059274 0.018495
0.603475 -0.016557 0.038752
0.541024 -0.056970 0.025978
0.568596 -0.055865 0.005417
0.557016 0.059675 0.083760
0.598503 -0.074531 0.009544
0.518500 0.038544 0.023497
0.534938 -0.005808 0.076329
0.607096 -0.070341 0.031055
0.555947 -0.060870 0.046773
0.607619 -0.046971 0.033877
0.600855 0.003381 0.057229
0.573182 0.060374 0.030463
0.525510 0.029468 0.080087
0.565894 0.036773 0.086717
0.598280 -0.001025 0.061353
0.522405 0.057593 0.026955
0.551102 0.041382 0.012421
0.520524 -0.007357 0.016096
0.530372 0.047232 0.017317
0.509173 0.019409 0.047752
0.549270 0.040398 0.012016
0.522573 0.030134 0.017194
0.554613 0.085166 0.060844
0.546936 0.074799 0.029330
0.583161 -0.054771 0.005416
0.543980 -0.033092 0.065006
0.596454 -0.053883 0.008464
0.562065 0.004069 0.083665
0.573051 -0.046505 0.060638
0.580263 -0.055633 0.005063
0.529003 0.079900 0.066371
0.601531 -0.018294 0.049696
0.552174 0.015104 0.007180
0.603173 -0.016849 0.044232
0.535894 0.038784 0.085337
0.550140 -0.019408 0.074920
0.587881 -0.077440 0.035312
0.609507 -0.053177 0.030119
0.552475 0.001071 0.005394
0.606003 -0.063074 0.036142
0.585302 -0.010378 0.014620
0.579721 0.040957 0.025009
0.515497 0.000952 0.022735
0.551489 0.054842 0.085773
0.534618 -0.039562 0.051545
0.563619 -0.009335 0.006076
0.580017 0.058417 0.036149
0.575220 -0.015796 0.073399
0.552499 0.035004 0.011001
0.513285 0.020820 0.025972
0.565332 -0.058626 0.052515
0.610156 -0.060525 0.029845
0.580562 -0.079454 0.031149
0.508980 0.020595 0.046023
0.510755 0.024367 0.032314
0.553063 -0.035236 0.066695
0.550901 0.038759 0.088351
0.517483 0.043099 0.070834
0.549732 -0.002886 0.081934
0.566975 -0.062207 0.049763
0.555841 -0.056006 0.051880
0.591516 -0.081831 0.018685
0.608595 -0.048593 0.030814
0.582411 -0.070393 0.006288
0.514917 -0.004836 0.051631
0.585113 -0.050502 0.055381
0.595225 -0.074714 0.036307
0.571605 0.073034 0.043628
0.599744 0.023263 0.045871
0.537616 0.082619 0.041113
0.566051 0.056028 0.022601
0.525804 -0.013519 0.012434
0.548158 0.059362 0.084581
0.556597 0.065422 0.023615
0.586298 -0.014125 0.068792
0.534419 0.039198 0.013606
0.561707 -0.031020 0.069853
0.546942 -0.035108 0.006227
0.585833 0.053240 0.069120
0.595824 -0.032407 0.015791
0.512588 0.008194 0.028660
0.560195 0.017439 0.087022
0.535677 -0.043095 0.048437
0.527474 0.024758 0.080876
0.539263 0.057306 0.083766
0.527932 0.055457 0.079159
0.526783 -0.015180 0.063804
0.550170 -0.021200 0.074005
0.524633 0.071376 0.069690
0.540774 -0.028188 0.066575
0.583671 0.002112 0.016366
0.602855 -0.016592 0.034432
0.517715 0.037729 0.024129
0.546706 0.047030 0.013783
0.543410 -0.009983 0.005494
0.595022 0.015451 0.068003
0.583478 -0.003552 0.014933
0.535987 0.071623 0.027778
0.600138 0.002075 0.034271
0.572796 -0.046641 0.004897
0.600303 0.005087 0.058698
0.560115 0.033029 0.088351
0.544892 -0.053103 0.013439
0.545773 0.059759 0.084314
0.515093 0.064087 0.050630
0.533470 -0.040991 0.015377
0.541216 0.079729 0.035640
0.524061 -0.013231 0.013647
0.509288 0.026711 0.049947
0.572258 0.075822 0.055416
0.595593 -0.024448 0.057769
0.539202 0.074872 0.077207
0.509659 0.028001 0.052269
0.540126 0.034144 0.086758
0.554913 0.025919 0.009371
0.517544 -0.016212 0.044752
0.553401 0.085345 0.048864
0.525133 0.062349 0.026968
0.543750 -0.012268 0.005367
0.552394 0.048236 0.087185
0.536730 -0.028766 0.008823
0.579620 -0.065485 0.047949
0.603255 -0.013129 0.038503
0.515973 -0.012756 0.024940
0.594511 0.018389 0.068621
0.522810 -0.025648 0.018667
0.564169 0.013652 0.085614
0.534600 0.036985 0.013032
0.603362 -0.017744 0.036552
0.510823 0.003751 0.039761
0.580085 -0.023959 0.009200
0.539414 -0.003017 0.006771
0.533450 -0.036063 0.053955
0.515019 0.027138 0.024193
0.597977 -0.035190 0.016388
0.604893 -0.074158 0.013939
0.583931 -0.003727 0.073661
0.605839 -0.035622 0.032571
0.512404 0.042171 0.060203
0.539414 0.017549 0.085596
0.521467 0.074756 0.047019
0.544114 0.086770 0.062594
0.577803 -0.075785 0.037054
0.528809 -0.007112 0.071268
0.536201 0.061776 0.020937
0.569457 -0.065069 0.047680
0.514718 -0.012957 0.033072
0.549020 0.087380 0.056995
0.577945 -0.020290 0.009042
0.601189 -0.054221 0.043765
0.523052 0.070298 0.068341
0.598864 -0.043459 0.049082
0.524926 -0.014642 0.013190
0.519605 0.018772 0.017467
0.516442 0.033821 0.069947
0.514632 -0.006354 0.025820
0.520988 0.019855 0.074215
0.591547 -0.060317 0.047907
0.572469 0.049450 0.023372
0.517808 -0.016323 0.022330
0.603294 -0.049476 0.042528
0.546081 -0.011913 0.004913
0.543237 0.069931 0.080401
0.539473 0.046109 0.085695
0.583329 0.063186 0.050785
0.575051 0.060994 0.032777
0.596458 -0.009333 0.024782
0.510457 0.006931 0.037952
0.543490 0.086693 0.062808
0.562324 -0.034408 0.068079
0.561771 0.058600 0.021713
0.568542 0.075593 0.067771
0.552657 0.041983 0.012804
0.531721 -0.004070 0.009191
0.589972 -0.043576 0.056003
0.559627 0.062534 0.082212
0.602027 -0.003482 0.036896
0.595957 0.019223 0.066463
0.588360 -0.044847 0.056384
0.536965 0.005496 0.081569
0.584330 0.005014 0.017550
0.516342 -0.017808 0.030468
0.524502 0.067865 0.031727
0.537534 -0.004752 0.078080
0.526145 -0.009294 0.067274
0.557716 0.084570 0.053868
0.554096 0.067226 0.081387
0.553887 -0.069579 0.021488
0.550920 0.077131 0.032721
0.574417 -0.059221 0.005117
0.603341 -0.011685 0.043146
0.591525 0.038674 0.069012
0.537231 -0.042877 0.013258
0.513591 -0.008585 0.033056
0.542906 0.003642 0.006458
0.555243 0.025780 0.009399
0.532915 -0.047094 0.024746
0.547190 -0.044708 0.057895
0.567059 0.007278 0.009379
0.550235 0.029374 0.088479
0.537130 -0.032094 0.061445
0.526797 0.080889 0.050229
0.545170 -0.016065 0.005010
0.542673 -0.011074 0.005629
0.536542 -0.045892 0.045492
0.514314 0.059084 0.057355
0.591225 -0.010772 0.019091
0.563962 -0.047074 0.004780
0.580517 0.023930 0.019772
0.532240 0.014447 0.010041
0.599238 0.017520 0.060355
0.557376 0.067307 0.080760
0.551770 -0.037455 0.005355
0.588795 0.050698 0.066344
0.531903 0.030729 0.084106
0.578468 0.015428 0.016190
0.522662 -0.031842 0.032487
0.522993 -0.026711 0.045454
0.591161 -0.026247 0.061323
0.509906 0.019673 0.034937
0.550834 -0.065574 0.032582
0.556115 -0.025327 0.072685
0.559547 0.069299 0.028022
0.516979 0.025025 0.021133
0.610411 -0.069076 0.023981
0.595947 0.039324 0.053912
0.511359 0.045381 0.054669
0.509777 0.036520 0.048946
0.561743 0.021672 0.087448
0.556937 0.008361 0.006688
0.545289 -0.041366 0.008311
0.542701 -0.019152 0.073011
0.579447 -0.048306 0.058320
0.548888 -0.022576 0.073001
0.509711 0.034548 0.042531
0.554466 0.050337 0.086630
0.517787 -0.016856 0.022726
0.537041 -0.007026 0.076858
0.599355 0.017417 0.039762
0.573704 -0.016042 0.008266
0.545886 -0.025153 0.005170
0.541200 0.053007 0.016178
0.567908 -0.077553 0.017703
0.590202 0.048735 0.044298
0.516605 -0.010690 0.022355
0.555909 -0.070141 0.018595
0.557753 0.070220 0.079135
0.607144 -0.072425 0.028897
0.529263 -0.036180 0.046371
0.595062 -0.039836 0.012554
0.533295 0.036639 0.084562
0.603765 -0.033779 0.042647
0.532639 -0.026629 0.010432
0.538574 0.057367 0.083557
0.570527 0.047103 0.083091
0.602541 0.006135 0.051049
0.593570 -0.005132 0.066117
0.531641 -0.042360 0.040753
0.512978 -0.002170 0.030088
0.585602 0.045605 0.033352
0.553366 0.046215 0.087524
0.537480 0.042198 0.013542
0.564441 -0.064637 0.009092
0.532910 0.031354 0.084555
0.585040 0.056132 0.041716
0.532767 -0.028125 0.010710
0.530566 -0.031764 0.054483
0.602259 -0.029733 0.024395
0.534055 0.069020 0.078188
0.546355 -0.031070 0.005713
0.584953 -0.060052 0.050560
0.521514 -0.028211 0.023551
0.515826 -0.004485 0.022504
0.560246 0.068677 0.027864
0.591799 0.015493 0.027217
0.541283 0.072922 0.027688
0.575333 0.061787 0.074887
0.520831 0.053875 0.026926
0.556521 -0.034461 0.004212
0.591251 -0.030348 0.059888
0.610030 -0.053530 0.027312
0.513272 0.004858 0.027466
0.530804 0.078888 0.069777
0.596895 -0.060659 0.006604
0.549442 -0.012242 0.078222
0.602285 -0.016621 0.032317
0.562198 0.049116 0.085506
0.534803 0.070301 0.027059
0.589902 0.019331 0.026511
0.522487 0.045603 0.021978
0.538594 -0.041847 0.011834
0.546709 -0.058797 0.040266
0.558506 -0.020005 0.004233
0.597705 -0.039402 0.014442
0.579901 0.062307 0.069532
0.539650 -0.049537 0.044986
0.579444 -0.057099 0.053604
0.552554 0.085485 0.048522
0.522850 0.070740 0.036671
0.542465 -0.051863 0.014565
0.517743 -0.012035 0.020608
0.511091 0.020755 0.057265
0.589464 -0.068938 0.005528
0.580962 0.047777 0.076972
0.511535 0.001279 0.044903
0.602010 -0.052465 0.011899
0.523314 -0.008872 0.013759
0.571170 0.067818 0.074224
0.538563 -0.042695 0.052996
0.580198 0.042966 0.078912
0.542770 -0.051285 0.047059
0.594471 0.034076 0.039843
0.569881 -0.074495 0.035853
0.515613 -0.012128 0.025672
0.536645 0.057556 0.018840
0.592255 -0.055210 0.006891
0.597280 -0.080535 0.019973
0.582262 -0.082425 0.021358
0.516270 0.035072 0.025012
0.588240 0.055436 0.060365
0.569451 0.077227 0.061910
0.520411 0.074271 0.051936
0.538463 0.026747 0.086412
0.574284 0.017152 0.083042
0.579775 0.051443 0.076459
0.575924 -0.003649 0.010859
0.575193 0.035978 0.083017
0.581840 0.056925 0.037209
0.594186 0.034501 0.065928
0.536627 -0.020162 0.069239
0.551817 -0.009986 0.079453
0.558827 -0.021462 0.074597
0.534555 0.074437 0.075788
0.555038 0.026321 0.009475
0.579133 0.016770 0.080771
0.549539 0.015630 0.007226
0.609704 -0.052764 0.028764
0.534237 0.043531 0.014778
0.587591 -0.030840 0.062134
0.556204 -0.049595 0.006782
0.594515 0.041678 0.060179
0.575725 0.019416 0.082732
0.559236 0.001275 0.006195
0.592637 0.047343 0.059131
0.538806 0.075097 0.076968
0.553202 0.086216 0.058001
0.560241 -0.066557 0.011923
0.535437 0.014663 0.083404
0.542475 0.072331 0.079173
0.514345 -0.011711 0.034350
0.511819 0.031619 0.060330
0.608264 -0.046672 0.025483
0.521100 0.054073 0.026708
0.607688 -0.066318 0.012825
0.600272 -0.042443 0.047752
0.549989 -0.061672 0.015391
0.584694 0.018905 0.077803
0.511288 0.046954 0.045408
0.605462 -0.076206 0.019479
0.563520 0.007497 0.084328
0.514252 -0.009026 0.028780
0.574956 0.070483 0.044616
0.607118 -0.044159 0.023803
0.540794 0.046325 0.014050
0.530449 -0.009518 0.009672
0.580544 -0.082186 0.020945
0.554918 -0.064896 0.014027
0.508965 0.026847 0.045131
0.545139 0.026569 0.009199
0.516959 -0.008415 0.053299
0.551627 0.085810 0.048832
0.594448 -0.065448 0.043623
0.539950 -0.053477 0.037086
0.564470 -0.025792 0.004853
0.580655 0.061780 0.068950
0.586624 0.053599 0.041877
0.548842 0.047281 0.013908
0.590078 -0.022670 0.063303
0.577572 0.050681 0.078339
0.582678 0.026016 0.079389
0.516487 0.062520 0.061520
0.560970 0.049459 0.017594
0.515903 0.018464 0.021665
0.551871 0.016178 0.007328
0.569818 -0.039848 0.064635
0.513434 0.007619 0.026646
0.570192 -0.068409 0.044456
0.569563 -0.078127 0.026120
0.557764 -0.044798 0.061472
0.578239 0.025589 0.081963
0.590606 0.051781 0.052707
0.584744 0.056799 0.041968
0.530162 -0.034565 0.050519
0.602585 -0.012278 0.047897
0.537734 -0.009201 0.006997
0.517477 0.009239 0.019430
0.563634 0.037383 0.014896
0.520807 0.060172 0.070617
0.593913 0.026466 0.034271
0.590801 -0.080393 0.030097
0.596837 0.025023 0.038618
0.606013 -0.074198 0.028353
0.567303 0.025770 0.013270
0.561355 0.043791 0.086880
0.579851 -0.005697 0.075033
0.523422 -0.032503 0.035052
0.598220 -0.065942 0.006474
0.516659 0.039594 0.069943
0.599090 -0.079899 0.019628
0.509973 0.024995 0.053787
0.591540 -0.081338 0.016364
0.535969 0.049062 0.015887
0.515349 0.024810 0.067543
0.557202 0.016437 0.087158
0.595532 0.040515 0.055155
0.539537 -0.019019 0.071657
0.513459 0.054915 0.042510
0.576861 -0.055614 0.004908
0.595496 -0.008053 0.063047
0.521475 0.075195 0.048664
0.555232 0.066697 0.081440
0.553502 -0.051475 0.055045
0.575578 -0.079371 0.028360
0.568932 0.037687 0.085533
0.591046 -0.058337 0.049148
0.512747 0.044091 0.036454
0.564563 0.076831 0.069771
0.512408 -0.003566 0.035182
0.590087 -0.007170 0.068557
0.599839 0.020326 0.043353
0.523040 0.059940 0.073407
0.535975 -0.014649 0.007632
0.545414 0.080208 0.073688
0.567840 -0.078136 0.022511
0.524409 -0.007748 0.012898
0.589910 -0.056627 0.050491
0.540090 -0.045969 0.012840
0.578156 0.013212 0.080668
0.536325 -0.037896 0.055563
0.599598 0.003701 0.033810
0.596084 -0.009573 0.024263
0.514226 -0.001778 0.025853
0.583889 0.049602 0.073698
0.514673 -0.012450 0.031215
0.550493 -0.026207 0.004333
0.561205 -0.033257 0.068697
0.597592 0.027116 0.061287
0.585251 0.035928 0.076643
0.548217 0.073837 0.078533
0.608567 -0.055243 0.017736
0.598678 -0.050398 0.047272
0.594379 0.029773 0.036806
0.605108 -0.072076 0.032021
0.589438 0.020463 0.074173
0.576182 -0.081213 0.020643
0.594053 -0.009059 0.022220
0.516516 -0.014078 0.044358
0.576347 0.029339 0.018541
0.540887 0.063999 0.021201
0.591520 0.050300 0.056337
0.510415 0.008314 0.036816
0.551929 -0.059350 0.012397
0.570597 -0.044239 0.004757
0.564985 0.017269 0.086103
0.522982 -0.030177 0.039137
0.565596 -0.070337 0.040179
0.579174 0.050160 0.077413
0.599581 -0.010364 0.056170
0.593988 0.042305 0.047320
0.587466 -0.081072 0.014558
0.537789 -0.052258 0.033342
0.562908 0.023597 0.011190
0.592248 -0.059106 0.005992
0.548553 -0.062071 0.036731
0.575716 0.052991 0.078710
0.513127 0.002694 0.053837
0.564873 0.017445 0.086160
0.590953 -0.028203 0.060827
0.593173 0.001829 0.024450
0.590691 -0.015897 0.065109
0.517142 0.064509 0.040648
0.585685 0.054426 0.068283
0.547057 -0.062972 0.029661
0.599487 0.026632 0.050651
0.541500 -0.055145 0.018706
0.584617 0.042154 0.075816
0.576872 0.017980 0.015877
0.601899 0.005751 0.054250
0.537705 0.074144 0.029639
0.540010 0.055394 0.017270
0.524359 0.012121 0.075504
0.578925 0.046336 0.026826
0.535618 -0.013570 0.007727
0.560967 0.057127 0.083669
0.510876 0.006666 0.048672
0.510598 0.043420 0.048420
0.559858 0.031820 0.088410
0.603437 -0.025902 0.030412
0.512140 0.052604 0.048427
0.513303 -0.007739 0.037246
0.585104 0.008979 0.076221
0.572647 -0.054113 0.056253
0.562176 0.005289 0.083988
0.540779 -0.011569 0.076306
0.558432 0.083928 0.059157
0.537285 -0.008736 0.076168
0.580869 0.046354 0.028616
0.562393 0.049428 0.018130
0.558154 0.077461 0.036495
0.576607 0.016455 0.015366
0.513579 0.012698 0.025672
0.557580 0.055965 0.084771
0.569374 -0.008833 0.077856
0.586373 0.052357 0.039972
0.538495 0.081407 0.038759
0.580061 -0.055476 0.005058
0.518334 0.021078 0.018998
0.558093 0.025484 0.088314
0.599204 0.005571 0.060987
0.580228 -0.077238 0.011208
0.596765 0.008130 0.030800
0.550505 -0.066016 0.030293
0.569115 -0.019104 0.074013
0.533355 0.013600 0.009617
0.553469 -0.030700 0.069463
0.522749 0.034721 0.078016
0.509501 0.024362 0.037316
0.544734 0.005037 0.083734
0.517003 -0.016405 0.024487
0.517265 0.007341 0.065432
0.519447 0.038058 0.022276
0.584611 -0.012364 0.070401
0.519902 0.006839 0.016564
0.553335 -0.069235 0.022146
0.531585 0.080656 0.068249
0.582632 -0.070953 0.043077
0.532820 0.066708 0.025103
0.562627 0.050002 0.085177
0.577174 0.036161 0.081990
0.549213 -0.028821 0.004745
0.587462 -0.004028 0.071476
0.581090 0.014000 0.079362
0.589322 -0.076734 0.035959
0.596321 0.000479 0.064540
0.557594 0.078440 0.037593
0.555217 -0.050928 0.056191
0.580880 -0.081326 0.015985
0.558737 0.082935 0.047661
0.586905 0.058433 0.054697
0.559351 -0.063987 0.045070
0.578252 0.070018 0.058404
0.584819 -0.005017 0.072771
0.567462 -0.075727 0.031194
0.511385 0.010226 0.031673
0.533423 -0.045138 0.039430
0.513989 0.020613 0.064319
0.578749 0.018565 0.017147
0.533126 0.048329 0.016536
0.585548 -0.082596 0.019304
0.590390 0.044032 0.039652
0.549053 0.078685 0.034361
0.534384 -0.042900 0.046336
0.562147 0.002522 0.007056
0.570806 0.001309 0.009681
0.573672 -0.055210 0.055484
0.572540 0.058466 0.078505
0.599879 -0.018778 0.053105
0.581868 0.027012 0.079893
0.517304 0.069188 0.051444
0.564716 -0.012584 0.006038
0.562982 0.048144 0.017919
0.547673 -0.018331 0.004558
0.525447 -0.035922 0.034700
0.596656 0.013812 0.065664
0.598232 0.009072 0.063004
0.549583 -0.065695 0.028193
0.567180 0.008367 0.009618
0.595040 -0.050796 0.050008
0.573283 -0.051397 0.057855
0.610995 -0.058479 0.023151
0.542493 -0.056095 0.018385
0.544208 0.011069 0.007035
0.528463 -0.008358 0.010587
0.520497 0.061355 0.069725
0.526052 0.066749 0.073693
0.532839 0.047642 0.016426
0.605247 -0.072844 0.012980
0.526367 -0.035780 0.039045
0.514554 0.009855 0.024062
0.577602 -0.023817 0.069463
0.536095 0.076796 0.033143
0.576403 -0.064517 0.005617
0.572314 0.075152 0.061637
0.549128 -0.007688 0.080088
0.578180 0.059446 0.073764
0.587400 0.056078 0.048154
0.572660 -0.016013 0.007948
0.541731 0.069599 0.080325
0.542310 0.079827 0.074023
0.571288 -0.027197 0.006240
0.513877 -0.009661 0.037690
0.548795 0.044570 0.087629
0.560027 0.078871 0.040076
0.518407 0.068531 0.042704
0.511905 -0.001573 0.037221
0.532677 0.011142 0.009623
0.519882 0.015084 0.016911
0.518010 0.014510 0.069253
0.514320 0.052406 0.037557
0.534315 0.068837 0.078384
0.526036 0.008745 0.012145
0.518673 0.004362 0.066093
0.527293 -0.025781 0.055554
0.540383 0.081997 0.039239
0.543303 -0.008449 0.005574
0.568441 0.023176 0.013109
0.551791 0.045516 0.013674
0.569717 -0.076040 0.032492
0.512680 0.012009 0.027712
0.517078 0.023498 0.070059
0.520212 0.055341 0.028419
0.551460 -0.013585 0.077886
0.575175 0.047884 0.080647
0.527460 0.012012 0.011651
0.580151 0.010165 0.015958
0.560188 -0.031733 0.004067
0.588187 -0.052133 0.006692
0.578942 -0.010579 0.011036
0.586568 0.058721 0.058421
0.574717 0.051803 0.079709
0.523513 0.040597 0.078465
0.554491 0.074156 0.077314
0.596266 -0.027740 0.018015
0.599916 0.019435 0.057826
0.567660 0.067462 0.031898
0.519456 0.033276 0.074288
0.513259 0.029291 0.063926
0.596715 -0.080764 0.023746
0.573554 0.073550 0.063497
0.600405 0.014934 0.057800
0.526038 0.042846 0.080301
0.560731 0.022372 0.087698
