ply
format ascii 1.0
element vertex 1024
property float x
property float y
property float z
property uchar red
property uchar green
property uchar blue
end_header
0.455142 0.260732 0.154854 0 200 255
0.330779 0.381071 0.118050 0 200 255
0.460096 0.394564 0.081693 0 200 255
0.335640 0.251772 0.103838 0 200 255
0.484507 0.351205 0.164140 0 200 255
0.392004 0.328762 0.165342 0 200 255
0.402158 0.230047 0.118969 0 200 255
0.423889 0.342472 0.107359 0 200 255
0.504857 0.296141 0.147158 0 200 255
0.451178 0.389946 0.138388 0 200 255
0.444684 0.312945 0.178988 0 200 255
0.414240 0.289204 0.142594 0 200 255
0.434371 0.344623 0.057755 0 200 255
0.369747 0.355668 0.132256 0 200 255
0.494446 0.251507 0.178460 0 200 255
0.361947 0.239735 0.139613 0 200 255
0.434535 0.351010 0.156113 0 200 255
0.421031 0.397317 0.104924 0 200 255
0.463619 0.320872 0.137443 0 200 255
0.415924 0.247971 0.153014 0 200 255
0.488267 0.249148 0.136219 0 200 255
0.477434 0.287280 0.180763 0 200 255
0.426815 0.278011 0.174493 0 200 255
0.372822 0.247999 0.107139 0 200 255
0.493012 0.317785 0.174049 0 200 255
0.472818 0.362758 0.133497 0 200 255
0.425383 0.321935 0.141608 0 200 255
0.471822 0.283609 0.136899 0 200 255
0.388152 0.260307 0.139774 0 200 255
0.495961 0.328263 0.143258 0 200 255
0.422274 0.255545 0.121851 0 200 255
0.436539 0.369731 0.118298 0 200 255
0.431202 0.362844 0.083923 0 200 255
0.464554 0.240101 0.176632 0 200 255
0.413286 0.308186 0.173969 0 200 255
0.341148 0.362629 0.140583 0 200 255
0.456197 0.402547 0.111196 0 200 255
0.460433 0.340090 0.178275 0 200 255
0.354205 0.264640 0.123521 0 200 255
0.429580 0.403597 0.077710 0 200 255
0.442775 0.281240 0.135456 0 200 255
0.462026 0.370579 0.159151 0 200 255
0.372533 0.349580 0.160350 0 200 255
0.487790 0.270002 0.156574 0 200 255
0.394004 0.341745 0.138800 0 200 255
0.418669 0.353704 0.133026 0 200 255
0.392847 0.233822 0.146826 0 200 255
0.427240 0.334226 0.177247 0 200 255
0.459493 0.344674 0.148787 0 200 255
0.453398 0.270998 0.179389 0 200 255
0.461669 0.237542 0.144384 0 200 255
0.440382 0.341627 0.129783 0 200 255
0.432718 0.372230 0.142988 0 200 255
0.500709 0.285990 0.170831 0 200 255
0.351355 0.237280 0.117143 0 200 255
0.456287 0.304961 0.158414 0 200 255
0.464474 0.379937 0.117494 0 200 255
0.378577 0.228398 0.125756 0 200 255
0.429301 0.391867 0.127240 0 200 255
0.429609 0.338622 0.081566 0 200 255
0.399492 0.256450 0.113447 0 200 255
0.441721 0.326976 0.158651 0 200 255
0.402037 0.318797 0.145976 0 200 255
0.436306 0.256912 0.141341 0 200 255
0.353170 0.367869 0.121320 0 200 255
0.437170 0.257170 0.168877 0 200 255
0.331193 0.264036 0.122929 0 200 255
0.450407 0.383524 0.099406 0 200 255
0.467510 0.311272 0.180374 0 200 255
0.447171 0.304953 0.137047 0 200 255
0.483352 0.303049 0.136446 0 200 255
0.474359 0.262841 0.177968 0 200 255
0.418708 0.235663 0.132906 0 200 255
0.418484 0.363475 0.102128 0 200 255
0.360640 0.364464 0.149883 0 200 255
0.444886 0.290754 0.179186 0 200 255
0.502223 0.255339 0.152199 0 200 255
0.412746 0.326231 0.163222 0 200 255
0.451144 0.368730 0.133268 0 200 255
0.473173 0.263611 0.142806 0 200 255
0.479930 0.333825 0.174810 0 200 255
0.480815 0.342318 0.143437 0 200 255
0.427314 0.273620 0.149364 0 200 255
0.492360 0.282158 0.137290 0 200 255
0.443666 0.401863 0.093000 0 200 255
0.344616 0.249256 0.133074 0 200 255
0.410652 0.260605 0.137931 0 200 255
0.414288 0.291015 0.163341 0 200 255
0.375251 0.337221 0.144165 0 200 255
0.467958 0.379939 0.142361 0 200 255
0.430946 0.385705 0.092123 0 200 255
0.421248 0.353138 0.070008 0 200 255
0.502680 0.315066 0.157235 0 200 255
0.418054 0.308300 0.155059 0 200 255
0.374468 0.247756 0.127060 0 200 255
0.352253 0.261760 0.103704 0 200 255
0.446766 0.387608 0.119153 0 200 255
0.494138 0.333139 0.161587 0 200 255
0.444043 0.324973 0.138047 0 200 255
0.437339 0.351880 0.097999 0 200 255
0.443639 0.367357 0.157862 0 200 255
0.390475 0.240537 0.109022 0 200 255
0.336178 0.270302 0.106195 0 200 255
0.390448 0.345863 0.158752 0 200 255
0.476264 0.361551 0.151465 0 200 255
0.343609 0.378983 0.132298 0 200 255
0.366527 0.230896 0.108527 0 200 255
0.422674 0.304543 0.136796 0 200 255
0.378842 0.245357 0.145242 0 200 255
0.471269 0.255304 0.161293 0 200 255
0.429755 0.300997 0.174031 0 200 255
0.444914 0.330739 0.177242 0 200 255
0.427927 0.340722 0.142452 0 200 255
0.359812 0.347497 0.145194 0 200 255
0.468640 0.336648 0.161614 0 200 255
0.401894 0.240697 0.133010 0 200 255
0.458201 0.269456 0.136046 0 200 255
0.354845 0.244288 0.101579 0 200 255
0.447605 0.342279 0.164509 0 200 255
0.437485 0.350599 0.115301 0 200 255
0.336397 0.364203 0.124136 0 200 255
0.436873 0.401184 0.110262 0 200 255
0.466942 0.299867 0.140167 0 200 255
0.426265 0.336124 0.159724 0 200 255
0.427757 0.381141 0.109056 0 200 255
0.490008 0.273939 0.176484 0 200 255
0.501821 0.277804 0.151031 0 200 255
0.419855 0.350241 0.089179 0 200 255
0.399628 0.250528 0.147564 0 200 255
0.483369 0.303890 0.173696 0 200 255
0.405127 0.335940 0.149888 0 200 255
0.447108 0.275165 0.152143 0 200 255
0.452580 0.253393 0.139703 0 200 255
0.380459 0.353056 0.145438 0 200 255
0.352878 0.354147 0.130810 0 200 255
0.459305 0.241532 0.160405 0 200 255
0.464780 0.352860 0.162243 0 200 255
0.433899 0.356054 0.139209 0 200 255
0.463091 0.295391 0.178667 0 200 255
0.422547 0.358534 0.117672 0 200 255
0.410645 0.243785 0.115516 0 200 255
0.459233 0.360796 0.145281 0 200 255
0.453014 0.254450 0.172073 0 200 255
0.419694 0.353196 0.149514 0 200 255
0.427155 0.317884 0.177573 0 200 255
0.499702 0.302179 0.172449 0 200 255
0.424397 0.340628 0.123507 0 200 255
0.460946 0.395799 0.126807 0 200 255
0.438378 0.349356 0.072750 0 200 255
0.388798 0.327800 0.148169 0 200 255
0.427844 0.406959 0.093343 0 200 255
0.479757 0.246730 0.182246 0 200 255
0.498299 0.262840 0.166114 0 200 255
0.462008 0.324736 0.174071 0 200 255
0.445504 0.400183 0.077482 0 200 255
0.462123 0.393875 0.097915 0 200 255
0.337512 0.249858 0.119181 0 200 255
0.427675 0.258015 0.154694 0 200 255
0.432180 0.291091 0.141110 0 200 255
0.488691 0.263968 0.140773 0 200 255
0.360206 0.253669 0.114474 0 200 255
0.426543 0.320506 0.159145 0 200 255
0.421861 0.249994 0.137609 0 200 255
0.386423 0.256567 0.121525 0 200 255
0.456212 0.287126 0.139993 0 200 255
0.360021 0.254086 0.134694 0 200 255
0.448481 0.353080 0.135773 0 200 255
0.481987 0.322154 0.143481 0 200 255
0.457252 0.329481 0.154646 0 200 255
0.404228 0.313632 0.163287 0 200 255
0.379629 0.335556 0.160212 0 200 255
0.441561 0.252511 0.155170 0 200 255
0.474935 0.350029 0.175490 0 200 255
0.436331 0.386281 0.139676 0 200 255
0.399716 0.255322 0.129394 0 200 255
0.446755 0.375919 0.146150 0 200 255
0.408323 0.302728 0.145365 0 200 255
0.475041 0.243119 0.138523 0 200 255
0.407430 0.235546 0.146258 0 200 255
0.354395 0.371386 0.138622 0 200 255
0.418973 0.277297 0.160774 0 200 255
0.470112 0.333925 0.137392 0 200 255
0.390303 0.236982 0.123735 0 200 255
0.441485 0.341391 0.147600 0 200 255
0.377424 0.231625 0.141083 0 200 255
0.325398 0.261145 0.110061 0 200 255
0.459912 0.282375 0.173414 0 200 255
0.421915 0.395609 0.086994 0 200 255
0.382998 0.228896 0.112138 0 200 255
0.447086 0.388827 0.085771 0 200 255
0.439401 0.271742 0.175694 0 200 255
0.363020 0.238701 0.125591 0 200 255
0.429799 0.377110 0.130110 0 200 255
0.431883 0.363187 0.106210 0 200 255
0.342752 0.262200 0.115501 0 200 255
0.498900 0.315065 0.140329 0 200 255
0.456824 0.405148 0.090521 0 200 255
0.401445 0.338479 0.162933 0 200 255
0.427186 0.243045 0.124597 0 200 255
0.439708 0.388326 0.106448 0 200 255
0.342534 0.374673 0.115593 0 200 255
0.448830 0.401076 0.122506 0 200 255
0.425945 0.266688 0.165517 0 200 255
0.330617 0.374768 0.130324 0 200 255
0.381473 0.344789 0.134736 0 200 255
0.430123 0.362833 0.128145 0 200 255
0.468388 0.274126 0.182248 0 200 255
0.448759 0.355435 0.161429 0 200 255
0.434921 0.270527 0.136981 0 200 255
0.417965 0.295068 0.175874 0 200 255
0.414336 0.320581 0.151361 0 200 255
0.411463 0.325725 0.176367 0 200 255
0.438882 0.265426 0.155974 0 200 255
0.372279 0.257282 0.138380 0 200 255
0.469708 0.376263 0.129017 0 200 255
0.458177 0.388400 0.109212 0 200 255
0.451970 0.301838 0.181453 0 200 255
0.423370 0.262346 0.141824 0 200 255
0.488843 0.291645 0.175975 0 200 255
0.491619 0.340806 0.150693 0 200 255
0.411613 0.249591 0.129494 0 200 255
0.430362 0.337140 0.067700 0 200 255
0.503641 0.289473 0.158577 0 200 255
0.453243 0.374009 0.121561 0 200 255
0.438769 0.346909 0.085649 0 200 255
0.394925 0.228930 0.132810 0 200 255
0.481248 0.320881 0.178468 0 200 255
0.367026 0.343266 0.135368 0 200 255
0.434746 0.304963 0.141321 0 200 255
0.350875 0.356459 0.147392 0 200 255
0.461291 0.365096 0.126391 0 200 255
0.444030 0.353892 0.147763 0 200 255
0.437183 0.320504 0.147825 0 200 255
0.466987 0.252482 0.142525 0 200 255
0.495936 0.302926 0.138132 0 200 255
0.346995 0.249607 0.109968 0 200 255
0.342185 0.260648 0.128535 0 200 255
0.448262 0.342813 0.177495 0 200 255
0.443747 0.360300 0.126781 0 200 255
0.423675 0.390875 0.115585 0 200 255
0.456586 0.331089 0.137896 0 200 255
0.435606 0.393750 0.083947 0 200 255
0.352502 0.248344 0.123578 0 200 255
0.447073 0.268831 0.141335 0 200 255
0.446019 0.380087 0.129495 0 200 255
0.482350 0.263005 0.165058 0 200 255
0.369253 0.355676 0.150222 0 200 255
0.482451 0.290861 0.136300 0 200 255
0.497825 0.275651 0.162361 0 200 255
0.431866 0.355300 0.063111 0 200 255
0.360886 0.364275 0.131156 0 200 255
0.405023 0.262202 0.148536 0 200 255
0.463367 0.251964 0.178755 0 200 255
0.470673 0.311804 0.141104 0 200 255
0.432920 0.289580 0.178509 0 200 255
0.450759 0.395359 0.101531 0 200 255
0.351106 0.237808 0.129106 0 200 255
0.414037 0.234068 0.122021 0 200 255
0.479414 0.339475 0.157345 0 200 255
0.362784 0.242440 0.111410 0 200 255
0.423168 0.352456 0.100413 0 200 255
0.457233 0.381025 0.148620 0 200 255
0.503843 0.301376 0.158518 0 200 255
0.410278 0.257883 0.118032 0 200 255
0.416569 0.260382 0.151261 0 200 255
0.415615 0.311936 0.143475 0 200 255
0.422664 0.241448 0.145652 0 200 255
0.456108 0.315123 0.180735 0 200 255
0.462373 0.387789 0.135282 0 200 255
0.408824 0.301283 0.164633 0 200 255
0.434715 0.386557 0.116869 0 200 255
0.418049 0.316739 0.167423 0 200 255
0.441025 0.301460 0.176780 0 200 255
0.456149 0.385196 0.125545 0 200 255
0.382323 0.237760 0.132538 0 200 255
0.421308 0.279248 0.141211 0 200 255
0.448091 0.314524 0.143440 0 200 255
0.457858 0.386718 0.089836 0 200 255
0.397350 0.321777 0.156060 0 200 255
0.429917 0.359418 0.149766 0 200 255
0.458949 0.342726 0.160443 0 200 255
0.384913 0.332055 0.138221 0 200 255
0.345932 0.253021 0.098965 0 200 255
0.385024 0.250601 0.109234 0 200 255
0.429347 0.330370 0.150345 0 200 255
0.427994 0.363281 0.095484 0 200 255
0.331608 0.261486 0.099437 0 200 255
0.481217 0.349562 0.152202 0 200 255
0.474983 0.254455 0.134764 0 200 255
0.426716 0.246509 0.156076 0 200 255
0.368318 0.342901 0.152268 0 200 255
0.376186 0.237838 0.111017 0 200 255
0.474109 0.263840 0.154472 0 200 255
0.479524 0.275537 0.181107 0 200 255
0.438225 0.339227 0.173800 0 200 255
0.423739 0.328590 0.167719 0 200 255
0.446697 0.294125 0.140124 0 200 255
0.361257 0.357491 0.140206 0 200 255
0.472945 0.299663 0.173654 0 200 255
0.456627 0.276945 0.144712 0 200 255
0.421027 0.357968 0.080127 0 200 255
0.496021 0.321916 0.164072 0 200 255
0.435061 0.340209 0.120021 0 200 255
0.411079 0.248938 0.143016 0 200 255
0.347576 0.365389 0.131906 0 200 255
0.465893 0.370924 0.148747 0 200 255
0.440031 0.391504 0.094687 0 200 255
0.486462 0.314218 0.137193 0 200 255
0.346841 0.358869 0.122844 0 200 255
0.424266 0.361566 0.138363 0 200 255
0.428912 0.335083 0.133034 0 200 255
0.432241 0.359293 0.073575 0 200 255
0.380160 0.257352 0.130735 0 200 255
0.440876 0.390290 0.130523 0 200 255
0.453346 0.364024 0.153991 0 200 255
0.388520 0.251353 0.146068 0 200 255
0.484342 0.259153 0.175427 0 200 255
0.455297 0.404559 0.079635 0 200 255
0.453240 0.378868 0.137863 0 200 255
0.363158 0.250920 0.124721 0 200 255
0.424055 0.346040 0.061021 0 200 255
0.483916 0.333176 0.138398 0 200 255
0.461828 0.264357 0.181116 0 200 255
0.501610 0.288680 0.139959 0 200 255
0.408668 0.232387 0.135392 0 200 255
0.503724 0.306887 0.146221 0 200 255
0.372363 0.242755 0.136946 0 200 255
0.437087 0.351363 0.126357 0 200 255
0.439466 0.338500 0.158443 0 200 255
0.450902 0.269806 0.160737 0 200 255
0.441552 0.366480 0.146306 0 200 255
0.428883 0.389910 0.102903 0 200 255
0.380762 0.346094 0.154057 0 200 255
0.453062 0.283663 0.181619 0 200 255
0.472602 0.368646 0.159034 0 200 255
0.436888 0.321596 0.174911 0 200 255
0.484709 0.261387 0.151002 0 200 255
0.432134 0.343777 0.164375 0 200 255
0.433348 0.249128 0.148098 0 200 255
0.415609 0.283730 0.152941 0 200 255
0.409635 0.326977 0.144223 0 200 255
0.420054 0.285631 0.171369 0 200 255
0.468458 0.331401 0.179301 0 200 255
0.461997 0.357813 0.134105 0 200 255
0.422517 0.367104 0.111271 0 200 255
0.449590 0.331389 0.164271 0 200 255
0.435068 0.401434 0.099236 0 200 255
0.453918 0.250651 0.157992 0 200 255
0.422099 0.345415 0.156682 0 200 255
0.437483 0.396259 0.120196 0 200 255
0.452829 0.405727 0.100670 0 200 255
0.398657 0.260948 0.138656 0 200 255
0.422044 0.345593 0.077362 0 200 255
0.501491 0.312069 0.169201 0 200 255
0.399854 0.240759 0.151537 0 200 255
0.490021 0.330822 0.175380 0 200 255
0.370943 0.231581 0.119224 0 200 255
0.455200 0.330923 0.179422 0 200 255
0.383511 0.243793 0.117102 0 200 255
0.396446 0.341853 0.149997 0 200 255
0.400280 0.242090 0.115475 0 200 255
0.475534 0.357383 0.161076 0 200 255
0.439895 0.282227 0.175490 0 200 255
0.395198 0.332952 0.156279 0 200 255
0.446659 0.263649 0.176211 0 200 255
0.443112 0.378157 0.116543 0 200 255
0.434182 0.345231 0.106952 0 200 255
0.333141 0.370092 0.115969 0 200 255
0.361512 0.350794 0.155273 0 200 255
0.437493 0.331423 0.143893 0 200 255
0.449984 0.337160 0.151880 0 200 255
0.428704 0.351555 0.083025 0 200 255
0.461027 0.310471 0.137439 0 200 255
0.446559 0.396860 0.110917 0 200 255
0.388049 0.227086 0.121635 0 200 255
0.473989 0.321021 0.137045 0 200 255
0.468179 0.344225 0.154331 0 200 255
0.344145 0.242359 0.122871 0 200 255
0.450574 0.326577 0.147368 0 200 255
0.420743 0.405573 0.084686 0 200 255
0.495280 0.257153 0.144632 0 200 255
0.465225 0.348274 0.172809 0 200 255
0.420092 0.350141 0.122962 0 200 255
0.360757 0.231228 0.118654 0 200 255
0.456528 0.351754 0.155952 0 200 255
0.335533 0.383044 0.126998 0 200 255
0.489454 0.342388 0.162948 0 200 255
0.494145 0.273170 0.146213 0 200 255
0.402710 0.327766 0.163895 0 200 255
0.427393 0.353583 0.110227 0 200 255
0.422898 0.315412 0.149640 0 200 255
0.351355 0.266851 0.112811 0 200 255
0.434650 0.311755 0.173931 0 200 255
0.467208 0.286252 0.180180 0 200 255
0.452690 0.380393 0.113734 0 200 255
0.451841 0.391046 0.077069 0 200 255
0.373489 0.253145 0.118587 0 200 255
0.477932 0.343876 0.166310 0 200 255
0.387670 0.338409 0.165558 0 200 255
0.432332 0.313549 0.136683 0 200 255
0.412837 0.330560 0.153442 0 200 255
0.398657 0.328866 0.146687 0 200 255
0.464535 0.352379 0.144082 0 200 255
0.352687 0.244764 0.136934 0 200 255
0.359713 0.253329 0.104507 0 200 255
0.392214 0.239257 0.134894 0 200 255
0.432257 0.265311 0.146965 0 200 255
0.431776 0.279963 0.136515 0 200 255
0.456449 0.371187 0.145667 0 200 255
0.422526 0.344646 0.134361 0 200 255
0.462027 0.394158 0.117071 0 200 255
0.334852 0.257213 0.112082 0 200 255
0.408768 0.316779 0.171513 0 200 255
0.450481 0.344007 0.144395 0 200 255
0.370779 0.360205 0.140990 0 200 255
0.429196 0.377771 0.120258 0 200 255
0.338390 0.370772 0.134930 0 200 255
0.447304 0.262298 0.149070 0 200 255
0.441385 0.377110 0.137969 0 200 255
0.373942 0.237918 0.127006 0 200 255
0.435517 0.403022 0.087230 0 200 255
0.419344 0.360231 0.091974 0 200 255
0.429496 0.345630 0.097294 0 200 255
0.368583 0.244008 0.119489 0 200 255
0.432211 0.360941 0.118321 0 200 255
0.457591 0.243050 0.170404 0 200 255
0.493632 0.254830 0.169271 0 200 255
0.444573 0.347843 0.156884 0 200 255
0.471594 0.372010 0.137629 0 200 255
0.352055 0.258301 0.130892 0 200 255
0.429273 0.349712 0.146057 0 200 255
0.394372 0.232557 0.113633 0 200 255
0.493263 0.285286 0.146479 0 200 255
0.388459 0.347533 0.144888 0 200 255
0.470664 0.322004 0.178090 0 200 255
0.456870 0.276893 0.154431 0 200 255
0.484596 0.342320 0.174388 0 200 255
0.420070 0.401232 0.096104 0 200 255
0.438898 0.346805 0.137828 0 200 255
0.470783 0.359542 0.142395 0 200 255
0.478332 0.310256 0.178916 0 200 255
0.475098 0.272539 0.139721 0 200 255
0.462369 0.245687 0.149482 0 200 255
0.486540 0.282526 0.179112 0 200 255
0.473420 0.340132 0.178041 0 200 255
0.480650 0.281224 0.139844 0 200 255
0.338159 0.269791 0.119685 0 200 255
0.416860 0.357554 0.109508 0 200 255
0.420730 0.360969 0.127124 0 200 255
0.438780 0.277471 0.143293 0 200 255
0.400512 0.231705 0.140344 0 200 255
0.357254 0.235021 0.109032 0 200 255
0.437249 0.297463 0.135961 0 200 255
0.342914 0.262617 0.102106 0 200 255
0.385435 0.229083 0.136642 0 200 255
0.468156 0.338768 0.145324 0 200 255
0.417385 0.318475 0.177963 0 200 255
0.456126 0.345636 0.171903 0 200 255
0.347068 0.376591 0.123811 0 200 255
0.347480 0.256151 0.121728 0 200 255
0.441339 0.358383 0.155954 0 200 255
0.378248 0.353944 0.136004 0 200 255
0.444069 0.252188 0.164804 0 200 255
0.409174 0.313617 0.155066 0 200 255
0.492163 0.265370 0.173201 0 200 255
0.453309 0.289389 0.174143 0 200 255
0.328895 0.268525 0.114976 0 200 255
0.421761 0.291932 0.137637 0 200 255
0.411140 0.239684 0.129020 0 200 255
0.401303 0.238206 0.123977 0 200 255
0.335524 0.254127 0.127475 0 200 255
0.501504 0.295516 0.166130 0 200 255
0.456657 0.261643 0.141399 0 200 255
0.369765 0.350912 0.140861 0 200 255
0.470458 0.245832 0.182156 0 200 255
0.473627 0.348195 0.144407 0 200 255
0.432280 0.332898 0.166090 0 200 255
0.361005 0.349957 0.132676 0 200 255
0.490972 0.308575 0.176387 0 200 255
0.389835 0.258807 0.130729 0 200 255
0.449292 0.394138 0.129459 0 200 255
0.414030 0.239349 0.140916 0 200 255
0.358120 0.233658 0.133590 0 200 255
0.434491 0.366696 0.135382 0 200 255
0.342772 0.365370 0.117482 0 200 255
0.443512 0.401078 0.103226 0 200 255
0.386049 0.239879 0.141810 0 200 255
0.450660 0.322304 0.178516 0 200 255
0.482324 0.257273 0.141249 0 200 255
0.448914 0.297767 0.173680 0 200 255
0.465324 0.385988 0.124884 0 200 255
0.463685 0.362911 0.154288 0 200 255
0.425611 0.309235 0.173954 0 200 255
0.453964 0.305106 0.143279 0 200 255
0.428852 0.402868 0.106054 0 200 255
0.431913 0.393167 0.111098 0 200 255
0.495491 0.258565 0.157556 0 200 255
0.419421 0.246291 0.120948 0 200 255
0.455063 0.352669 0.146076 0 200 255
0.410995 0.296464 0.156785 0 200 255
0.446788 0.276578 0.173354 0 200 255
0.379399 0.254299 0.143466 0 200 255
0.452753 0.322251 0.137965 0 200 255
0.470848 0.255296 0.150296 0 200 255
0.446219 0.367750 0.122195 0 200 255
0.407688 0.259472 0.128220 0 200 255
0.432349 0.354927 0.090606 0 200 255
0.422789 0.392282 0.095376 0 200 255
0.377696 0.354611 0.153971 0 200 255
0.406865 0.230781 0.126634 0 200 255
0.361693 0.259749 0.125831 0 200 255
0.407986 0.253817 0.150027 0 200 255
0.380399 0.333572 0.150598 0 200 255
0.404379 0.327285 0.153462 0 200 255
0.448630 0.404620 0.086008 0 200 255
0.458464 0.253382 0.146520 0 200 255
0.350730 0.363738 0.141648 0 200 255
0.345655 0.373011 0.139981 0 200 255
0.438912 0.374401 0.150278 0 200 255
0.354050 0.351697 0.139745 0 200 255
0.358720 0.262339 0.110383 0 200 255
0.454918 0.295887 0.136998 0 200 255
0.416584 0.308361 0.164649 0 200 255
0.488014 0.273345 0.139704 0 200 255
0.400284 0.241394 0.141754 0 200 255
0.346461 0.356847 0.136387 0 200 255
0.386287 0.330348 0.157428 0 200 255
0.437864 0.340478 0.072523 0 200 255
0.471402 0.352494 0.154545 0 200 255
0.444199 0.253892 0.144027 0 200 255
0.429812 0.247079 0.140219 0 200 255
0.501043 0.318645 0.149304 0 200 255
0.458079 0.401568 0.119871 0 200 255
0.427969 0.394917 0.079645 0 200 255
0.425186 0.343197 0.088981 0 200 255
0.380482 0.344704 0.162761 0 200 255
0.435483 0.353924 0.106631 0 200 255
0.421755 0.350880 0.141289 0 200 255
0.408316 0.242859 0.152625 0 200 255
0.427148 0.355161 0.131182 0 200 255
0.344716 0.242050 0.113785 0 200 255
0.435344 0.320965 0.158572 0 200 255
0.367699 0.249775 0.139312 0 200 255
0.441259 0.316701 0.137412 0 200 255
0.354340 0.244963 0.110988 0 200 255
0.429480 0.386209 0.133869 0 200 255
0.355096 0.370857 0.129277 0 200 255
0.405502 0.310852 0.146798 0 200 255
0.418158 0.326975 0.146857 0 200 255
0.500477 0.254228 0.163222 0 200 255
0.431163 0.260422 0.162292 0 200 255
0.426404 0.339466 0.151693 0 200 255
0.459576 0.305707 0.179807 0 200 255
0.457354 0.394968 0.134910 0 200 255
0.449388 0.386209 0.107604 0 200 255
0.491605 0.321296 0.140446 0 200 255
0.427764 0.271788 0.157835 0 200 255
0.396205 0.258745 0.146676 0 200 255
0.460258 0.385712 0.100164 0 200 255
0.444203 0.397193 0.085543 0 200 255
0.453903 0.362582 0.138702 0 200 255
0.436078 0.354972 0.080007 0 200 255
0.367990 0.238725 0.105162 0 200 255
0.393648 0.248512 0.109847 0 200 255
0.374304 0.230136 0.133191 0 200 255
0.436073 0.378897 0.111634 0 200 255
0.419342 0.326017 0.156793 0 200 255
0.420714 0.253255 0.145473 0 200 255
0.423798 0.325769 0.177616 0 200 255
0.436554 0.379656 0.125490 0 200 255
0.429310 0.339919 0.113484 0 200 255
0.339314 0.361939 0.131855 0 200 255
0.393341 0.333768 0.142142 0 200 255
0.471501 0.292650 0.140044 0 200 255
0.431946 0.265720 0.171512 0 200 255
0.460859 0.250907 0.169766 0 200 255
0.346393 0.258051 0.108962 0 200 255
0.329229 0.255677 0.118279 0 200 255
0.440667 0.289679 0.135710 0 200 255
0.468979 0.301895 0.180834 0 200 255
0.406272 0.251331 0.113717 0 200 255
0.328449 0.373799 0.122171 0 200 255
0.359266 0.246192 0.131662 0 200 255
0.428369 0.321881 0.150156 0 200 255
0.421014 0.316199 0.137153 0 200 255
0.496866 0.293369 0.147447 0 200 255
0.491610 0.270922 0.166849 0 200 255
0.425871 0.365680 0.121288 0 200 255
0.463378 0.283444 0.136985 0 200 255
0.448051 0.256936 0.158255 0 200 255
0.425994 0.384938 0.123737 0 200 255
0.473574 0.326351 0.143566 0 200 255
0.433170 0.382513 0.099602 0 200 255
0.415712 0.302682 0.141329 0 200 255
0.460924 0.396669 0.107459 0 200 255
0.374628 0.339826 0.134483 0 200 255
0.431750 0.379348 0.138615 0 200 255
0.362848 0.365699 0.140158 0 200 255
0.357105 0.243220 0.118681 0 200 255
0.427740 0.255488 0.139909 0 200 255
0.464285 0.264875 0.140447 0 200 255
0.429195 0.396529 0.119342 0 200 255
0.418901 0.257512 0.135619 0 200 255
0.469166 0.367582 0.127311 0 200 255
0.482220 0.297399 0.178755 0 200 255
0.410623 0.318654 0.144191 0 200 255
0.490878 0.332901 0.153103 0 200 255
0.439758 0.268642 0.148171 0 200 255
0.432345 0.327455 0.178627 0 200 255
0.498297 0.327593 0.157047 0 200 255
0.453812 0.398583 0.074095 0 200 255
0.428111 0.409331 0.084262 0 200 255
0.462671 0.264153 0.154514 0 200 255
0.346698 0.243761 0.104121 0 200 255
0.390968 0.242662 0.147841 0 200 255
0.425648 0.266061 0.152270 0 200 255
0.472209 0.288619 0.174054 0 200 255
0.461995 0.245819 0.141238 0 200 255
0.423719 0.343031 0.068699 0 200 255
0.461944 0.385988 0.144008 0 200 255
0.461252 0.395394 0.089819 0 200 255
0.436986 0.365536 0.153099 0 200 255
0.475319 0.334913 0.143695 0 200 255
0.455205 0.279928 0.136123 0 200 255
0.478683 0.253585 0.177830 0 200 255
0.459170 0.336243 0.143753 0 200 255
0.492118 0.337273 0.168800 0 200 255
0.440731 0.355369 0.132612 0 200 255
0.342648 0.270115 0.111244 0 200 255
0.360817 0.356221 0.148300 0 200 255
0.337639 0.248142 0.111164 0 200 255
0.480254 0.259434 0.157634 0 200 255
0.453808 0.391040 0.116782 0 200 255
0.491424 0.264429 0.161556 0 200 255
0.493085 0.282356 0.174343 0 200 255
0.406150 0.236588 0.114579 0 200 255
0.450472 0.250440 0.147789 0 200 255
0.375742 0.339308 0.153890 0 200 255
0.437817 0.359217 0.148111 0 200 255
0.432050 0.357912 0.100102 0 200 255
0.438227 0.346915 0.064460 0 200 255
0.425256 0.298327 0.141239 0 200 255
0.469539 0.341717 0.167818 0 200 255
0.390084 0.255462 0.113195 0 200 255
0.429373 0.352130 0.070072 0 200 255
0.437967 0.259486 0.148779 0 200 255
0.382838 0.242781 0.107961 0 200 255
0.407674 0.334030 0.160507 0 200 255
0.412390 0.296553 0.148892 0 200 255
0.387341 0.235286 0.116300 0 200 255
0.460483 0.236297 0.152187 0 200 255
0.488636 0.343867 0.143877 0 200 255
0.458962 0.401214 0.098287 0 200 255
0.352119 0.252423 0.116414 0 200 255
0.453242 0.361544 0.130520 0 200 255
0.347058 0.267659 0.121687 0 200 255
0.450489 0.388729 0.093380 0 200 255
0.457395 0.373546 0.153205 0 200 255
0.464097 0.251883 0.161056 0 200 255
0.441040 0.390691 0.113916 0 200 255
0.448212 0.287217 0.135985 0 200 255
0.433080 0.369909 0.126137 0 200 255
0.467429 0.276635 0.137075 0 200 255
0.421241 0.278163 0.153139 0 200 255
0.433699 0.250255 0.155928 0 200 255
0.448155 0.370419 0.152142 0 200 255
0.434592 0.344610 0.078394 0 200 255
0.472934 0.368975 0.144786 0 200 255
0.423808 0.289870 0.176890 0 200 255
0.504789 0.289140 0.150782 0 200 255
0.500818 0.296982 0.140442 0 200 255
0.399876 0.338997 0.143282 0 200 255
0.420843 0.237724 0.123575 0 200 255
0.364743 0.247345 0.105402 0 200 255
0.463904 0.353685 0.152480 0 200 255
0.452043 0.400347 0.094517 0 200 255
0.489784 0.335399 0.145282 0 200 255
0.435081 0.395311 0.104162 0 200 255
0.412993 0.250809 0.120115 0 200 255
0.388283 0.338592 0.156733 0 200 255
0.440477 0.311711 0.143413 0 200 255
0.476069 0.300156 0.136669 0 200 255
0.382346 0.235141 0.124424 0 200 255
0.429170 0.392232 0.088205 0 200 255
0.434330 0.338293 0.137663 0 200 255
0.478614 0.265991 0.147871 0 200 255
0.454993 0.385325 0.133389 0 200 255
0.394161 0.257579 0.121544 0 200 255
0.328653 0.268484 0.107151 0 200 255
0.355891 0.234168 0.124136 0 200 255
0.332454 0.367253 0.131293 0 200 255
0.465931 0.379296 0.149850 0 200 255
0.414656 0.256873 0.125923 0 200 255
0.352247 0.250316 0.131100 0 200 255
0.397891 0.230071 0.125470 0 200 255
0.421884 0.278035 0.167934 0 200 255
0.448201 0.337790 0.171576 0 200 255
0.443751 0.384230 0.136030 0 200 255
0.354073 0.361689 0.133932 0 200 255
0.439675 0.389316 0.122936 0 200 255
0.421847 0.313712 0.159062 0 200 255
0.366960 0.250223 0.112998 0 200 255
0.395572 0.335818 0.167172 0 200 255
0.468556 0.240964 0.144855 0 200 255
0.404402 0.320669 0.166417 0 200 255
0.440649 0.381080 0.144523 0 200 255
0.366287 0.238638 0.133352 0 200 255
0.396685 0.341481 0.157678 0 200 255
0.386030 0.232024 0.143758 0 200 255
0.329579 0.256227 0.105425 0 200 255
0.504249 0.306580 0.164163 0 200 255
0.421974 0.345711 0.149008 0 200 255
0.454259 0.293745 0.180389 0 200 255
0.474546 0.294386 0.180605 0 200 255
0.479065 0.354293 0.146560 0 200 255
0.437901 0.344430 0.153651 0 200 255
0.433417 0.304504 0.179770 0 200 255
0.492266 0.301054 0.175974 0 200 255
0.460016 0.270125 0.144143 0 200 255
0.450711 0.358084 0.149248 0 200 255
0.445540 0.395317 0.118728 0 200 255
0.437114 0.363439 0.124715 0 200 255
0.412545 0.315800 0.161544 0 200 255
0.427788 0.399187 0.099209 0 200 255
0.419755 0.350784 0.107573 0 200 255
0.362288 0.261215 0.116982 0 200 255
0.455107 0.258660 0.178022 0 200 255
0.346408 0.366646 0.124501 0 200 255
0.436022 0.326106 0.138706 0 200 255
0.494519 0.329059 0.167950 0 200 255
0.427209 0.281325 0.145470 0 200 255
0.377686 0.242979 0.122178 0 200 255
0.494634 0.264367 0.146759 0 200 255
0.382353 0.253598 0.115906 0 200 255
0.431977 0.346489 0.089049 0 200 255
0.448226 0.325384 0.155174 0 200 255
0.367313 0.355750 0.157489 0 200 255
0.459338 0.287674 0.180732 0 200 255
0.435977 0.346330 0.146438 0 200 255
0.495002 0.269846 0.154583 0 200 255
0.431803 0.262679 0.139797 0 200 255
0.337744 0.256926 0.098846 0 200 255
0.422052 0.345300 0.097871 0 200 255
0.436502 0.381663 0.132679 0 200 255
0.368041 0.342196 0.144843 0 200 255
0.421666 0.253710 0.153718 0 200 255
0.380438 0.237873 0.146285 0 200 255
0.426373 0.366855 0.101803 0 200 255
0.360184 0.239247 0.103665 0 200 255
0.443332 0.257119 0.173032 0 200 255
0.426429 0.338724 0.074115 0 200 255
0.450158 0.380717 0.122399 0 200 255
0.449520 0.363504 0.160336 0 200 255
0.468999 0.374094 0.154701 0 200 255
0.375789 0.249267 0.135958 0 200 255
0.478136 0.348836 0.160796 0 200 255
0.476428 0.302358 0.179620 0 200 255
0.409137 0.313008 0.139621 0 200 255
0.339732 0.247888 0.127667 0 200 255
0.468051 0.374403 0.122038 0 200 255
0.434952 0.332443 0.173822 0 200 255
0.482383 0.253270 0.134453 0 200 255
0.435810 0.258719 0.156506 0 200 255
0.414112 0.301013 0.172381 0 200 255
0.419839 0.308431 0.178495 0 200 255
0.352895 0.253536 0.101670 0 200 255
0.417947 0.319525 0.144088 0 200 255
0.497739 0.275821 0.140345 0 200 255
0.367233 0.362740 0.134567 0 200 255
0.360023 0.357011 0.130299 0 200 255
0.485587 0.267385 0.175824 0 200 255
0.430410 0.255875 0.148139 0 200 255
0.462147 0.318865 0.178817 0 200 255
0.436168 0.362928 0.141471 0 200 255
0.424947 0.297534 0.178387 0 200 255
0.440179 0.307214 0.136829 0 200 255
0.453821 0.386896 0.083551 0 200 255
0.417210 0.356407 0.098730 0 200 255
0.338901 0.380421 0.118363 0 200 255
0.488090 0.295561 0.136435 0 200 255
0.424387 0.321370 0.166604 0 200 255
0.453130 0.309660 0.137591 0 200 255
0.416015 0.262169 0.142666 0 200 255
0.413313 0.244269 0.135548 0 200 255
0.407221 0.242795 0.145295 0 200 255
0.480709 0.351223 0.170390 0 200 255
0.476398 0.312893 0.136689 0 200 255
0.487952 0.346118 0.156843 0 200 255
0.379250 0.251699 0.122847 0 200 255
0.466911 0.382412 0.131763 0 200 255
0.384362 0.235114 0.108585 0 200 255
0.438862 0.263196 0.172613 0 200 255
0.443921 0.393836 0.103873 0 200 255
0.465908 0.333384 0.155711 0 200 255
0.385830 0.339227 0.136480 0 200 255
0.485106 0.268907 0.149372 0 200 255
0.489869 0.329099 0.139304 0 200 255
0.444728 0.332119 0.143722 0 200 255
0.413793 0.239309 0.149444 0 200 255
0.448897 0.276580 0.180476 0 200 255
0.482031 0.248784 0.140136 0 200 255
0.451094 0.271480 0.146752 0 200 255
0.461038 0.291682 0.137105 0 200 255
0.460425 0.272373 0.180444 0 200 255
0.453352 0.384428 0.143549 0 200 255
0.447393 0.387179 0.128933 0 200 255
0.424487 0.238696 0.129742 0 200 255
0.454893 0.399688 0.127420 0 200 255
0.469546 0.364346 0.150326 0 200 255
0.425404 0.398458 0.110600 0 200 255
0.454842 0.253378 0.165188 0 200 255
0.349614 0.375015 0.132007 0 200 255
0.461880 0.317299 0.143451 0 200 255
0.443585 0.323367 0.150055 0 200 255
0.427972 0.329144 0.161717 0 200 255
0.501563 0.307496 0.153051 0 200 255
0.344737 0.249389 0.121491 0 200 255
0.419691 0.350828 0.082022 0 200 255
0.421915 0.358132 0.144802 0 200 255
0.486366 0.315922 0.175996 0 200 255
0.428667 0.340348 0.061518 0 200 255
0.339573 0.260203 0.121601 0 200 255
0.452587 0.375266 0.130723 0 200 255
0.440325 0.353898 0.141510 0 200 255
0.436130 0.389200 0.100228 0 200 255
0.425885 0.360510 0.109298 0 200 255
0.439990 0.266169 0.141467 0 200 255
0.413252 0.253692 0.137737 0 200 255
0.425180 0.356671 0.089914 0 200 255
0.433363 0.275513 0.176160 0 200 255
0.450436 0.370203 0.141963 0 200 255
0.425046 0.352430 0.076977 0 200 255
0.488612 0.324025 0.176959 0 200 255
0.459555 0.335660 0.159858 0 200 255
0.366163 0.250926 0.132463 0 200 255
0.498818 0.279292 0.169360 0 200 255
0.467831 0.261125 0.146782 0 200 255
0.465011 0.259454 0.177074 0 200 255
0.344194 0.253792 0.127561 0 200 255
0.431205 0.301796 0.136048 0 200 255
0.420036 0.350339 0.115870 0 200 255
0.385017 0.228896 0.128690 0 200 255
0.441177 0.383785 0.112066 0 200 255
0.365177 0.361191 0.145207 0 200 255
0.425210 0.352603 0.063409 0 200 255
0.456068 0.355851 0.138930 0 200 255
0.461372 0.380131 0.139818 0 200 255
0.410344 0.303482 0.156375 0 200 255
0.426961 0.383520 0.115652 0 200 255
0.494104 0.325815 0.149611 0 200 255
0.458801 0.364302 0.159218 0 200 255
0.461420 0.386189 0.118662 0 200 255
0.463747 0.253920 0.151165 0 200 255
0.484512 0.256500 0.181961 0 200 255
0.463387 0.241657 0.166632 0 200 255
0.435624 0.283378 0.145482 0 200 255
0.388145 0.347645 0.152339 0 200 255
0.443168 0.381373 0.122937 0 200 255
0.468128 0.240423 0.137857 0 200 255
0.373474 0.238776 0.142636 0 200 255
0.461382 0.331456 0.148405 0 200 255
0.371536 0.349119 0.134059 0 200 255
0.444767 0.396037 0.097208 0 200 255
0.423059 0.391624 0.108492 0 200 255
0.388753 0.346217 0.137514 0 200 255
0.434318 0.357430 0.130647 0 200 255
0.485861 0.252345 0.176179 0 200 255
0.356340 0.350990 0.150185 0 200 255
0.336631 0.378343 0.132103 0 200 255
0.502113 0.280930 0.157296 0 200 255
0.457847 0.377454 0.117449 0 200 255
0.418051 0.329871 0.171598 0 200 255
0.347605 0.370466 0.117962 0 200 255
0.415630 0.283418 0.160177 0 200 255
0.412930 0.289695 0.150446 0 200 255
0.459045 0.280165 0.180675 0 200 255
0.370504 0.349574 0.153399 0 200 255
0.425646 0.386378 0.097789 0 200 255
0.354754 0.251789 0.109586 0 200 255
0.450308 0.402593 0.106375 0 200 255
0.475684 0.330065 0.178876 0 200 255
0.396426 0.238185 0.129437 0 200 255
0.408375 0.306852 0.168810 0 200 255
0.399681 0.235640 0.146030 0 200 255
0.438590 0.344512 0.161873 0 200 255
0.403577 0.317507 0.153650 0 200 255
0.363160 0.239497 0.118684 0 200 255
0.444861 0.362252 0.150714 0 200 255
0.443573 0.347943 0.143010 0 200 255
0.354611 0.362995 0.126055 0 200 255
0.404145 0.260434 0.134434 0 200 255
0.455555 0.368743 0.127791 0 200 255
0.427963 0.358813 0.079298 0 200 255
0.347183 0.267424 0.106740 0 200 255
0.428225 0.307320 0.141373 0 200 255
0.414941 0.294551 0.169663 0 200 255
0.443224 0.307611 0.174486 0 200 255
0.431088 0.321506 0.137152 0 200 255
0.346338 0.243411 0.129345 0 200 255
0.430460 0.265428 0.157506 0 200 255
0.331877 0.262388 0.107544 0 200 255
0.363537 0.257064 0.108871 0 200 255
0.475459 0.329579 0.137267 0 200 255
0.357559 0.368409 0.143969 0 200 255
0.423473 0.342751 0.115795 0 200 255
0.357487 0.254544 0.123263 0 200 255
0.432036 0.320259 0.164569 0 200 255
0.439301 0.345496 0.121214 0 200 255
0.415549 0.239712 0.118088 0 200 255
0.381266 0.259253 0.139082 0 200 255
0.434811 0.338246 0.127596 0 200 255
0.372806 0.342164 0.159408 0 200 255
0.426700 0.250382 0.122777 0 200 255
0.459706 0.371795 0.120991 0 200 255
0.342764 0.252166 0.115433 0 200 255
0.456742 0.390029 0.096163 0 200 255
0.444634 0.269128 0.156008 0 200 255
0.430125 0.349942 0.058214 0 200 255
0.461405 0.357495 0.157748 0 200 255
0.456584 0.260970 0.148175 0 200 255
0.335520 0.268532 0.113519 0 200 255
0.429238 0.365290 0.114047 0 200 255
0.454409 0.390071 0.103702 0 200 255
0.386990 0.237113 0.148134 0 200 255
0.435212 0.394574 0.091046 0 200 255
0.374174 0.254270 0.129983 0 200 255
0.394351 0.323954 0.148708 0 200 255
0.496527 0.252667 0.149553 0 200 255
0.427284 0.357597 0.122409 0 200 255
0.435502 0.386847 0.128284 0 200 255
0.434501 0.406188 0.094232 0 200 255
0.458723 0.366116 0.150469 0 200 255
0.374914 0.356881 0.145978 0 200 255
0.468468 0.270498 0.139704 0 200 255
0.376926 0.237103 0.137078 0 200 255
0.446729 0.339442 0.157334 0 200 255
0.433414 0.316243 0.179491 0 200 255
0.458779 0.400656 0.085880 0 200 255
0.431651 0.372970 0.135100 0 200 255
0.464844 0.329722 0.137538 0 200 255
0.341515 0.253092 0.108182 0 200 255
0.391989 0.232151 0.140360 0 200 255
0.460341 0.236026 0.164557 0 200 255
0.411069 0.259552 0.147238 0 200 255
0.475744 0.258687 0.165006 0 200 255
0.341448 0.379800 0.125640 0 200 255
0.354456 0.361967 0.149027 0 200 255
0.422246 0.310648 0.167442 0 200 255
0.436011 0.394348 0.128327 0 200 255
0.418376 0.244791 0.139999 0 200 255
0.479361 0.354540 0.156367 0 200 255
0.488285 0.257479 0.144283 0 200 255
0.428930 0.360772 0.143289 0 200 255
0.465762 0.359798 0.147212 0 200 255
0.473059 0.251945 0.182899 0 200 255
0.462919 0.391147 0.103964 0 200 255
0.424706 0.361233 0.084650 0 200 255
0.487258 0.348677 0.149510 0 200 255
0.487420 0.257353 0.136945 0 200 255
0.503312 0.288742 0.165198 0 200 255
0.480673 0.262374 0.180062 0 200 255
0.361962 0.350011 0.139416 0 200 255
0.457630 0.389641 0.140003 0 200 255
0.474755 0.257180 0.143478 0 200 255
0.456030 0.391739 0.128689 0 200 255
0.331868 0.262585 0.114775 0 200 255
0.414902 0.243751 0.125103 0 200 255
0.350259 0.369963 0.143918 0 200 255
0.387271 0.252823 0.126945 0 200 255
0.489615 0.303048 0.140164 0 200 255
0.435922 0.339396 0.064857 0 200 255
0.450180 0.256580 0.145286 0 200 255
0.377532 0.231844 0.119953 0 200 255
0.500608 0.301763 0.149054 0 200 255
0.364608 0.360487 0.153408 0 200 255
0.445187 0.255766 0.150678 0 200 255
0.398276 0.335134 0.148804 0 200 255
0.413315 0.310816 0.150720 0 200 255
0.453402 0.363603 0.146766 0 200 255
0.422943 0.271678 0.144784 0 200 255
0.391380 0.326460 0.159076 0 200 255
0.324960 0.262712 0.116474 0 200 255
0.427847 0.352850 0.139634 0 200 255
0.484072 0.329265 0.177796 0 200 255
0.433461 0.386973 0.108116 0 200 255
0.453876 0.377222 0.144397 0 200 255
0.349427 0.239536 0.109904 0 200 255
0.341954 0.248213 0.103056 0 200 255
0.379714 0.350336 0.159423 0 200 255
0.396976 0.324383 0.162102 0 200 255
0.411117 0.320487 0.165995 0 200 255
0.472685 0.268843 0.180089 0 200 255
0.447828 0.390329 0.112489 0 200 255
0.430112 0.295311 0.136068 0 200 255
0.434604 0.356881 0.122908 0 200 255
0.421749 0.243905 0.152642 0 200 255
0.461949 0.375103 0.144007 0 200 255
0.427733 0.285129 0.136864 0 200 255
0.437627 0.294153 0.178233 0 200 255
0.366005 0.232557 0.114938 0 200 255
0.444550 0.333907 0.167754 0 200 255
0.436676 0.352638 0.067340 0 200 255
0.415855 0.254023 0.149849 0 200 255
0.434122 0.354421 0.145614 0 200 255
0.471795 0.353533 0.164825 0 200 255
0.461075 0.333341 0.177847 0 200 255
0.435193 0.377632 0.145721 0 200 255
0.461255 0.301413 0.137335 0 200 255
0.405346 0.309300 0.158519 0 200 255
0.489787 0.337433 0.158703 0 200 255
0.424560 0.401951 0.090731 0 200 255
0.368736 0.236960 0.122203 0 200 255
0.432025 0.297775 0.179238 0 200 255
0.401360 0.318939 0.160795 0 200 255
0.420732 0.365287 0.117283 0 200 255
0.429804 0.336991 0.123131 0 200 255
0.425587 0.315697 0.143510 0 200 255
0.330520 0.379292 0.125169 0 200 255
0.401874 0.338108 0.155622 0 200 255
0.431364 0.350530 0.161792 0 200 255
0.467528 0.337502 0.177096 0 200 255
0.468112 0.345519 0.160722 0 200 255
0.347515 0.357668 0.129718 0 200 255
0.372158 0.232726 0.111219 0 200 255
