ply
format ascii 1.0
element vertex 1024
property float x
property float y
property float z
property uchar red
property uchar green
property uchar blue
end_header
0.463292 0.262656 0.184567 0 200 255
0.336956 0.390332 0.172387 0 200 255
0.329289 0.241494 0.142065 0 200 255
0.463606 0.404286 0.121807 0 200 255
0.491261 0.352885 0.199072 0 200 255
0.401542 0.329749 0.201833 0 200 255
0.406008 0.231708 0.143115 0 200 255
0.433408 0.346073 0.098923 0 200 255
0.434379 0.388868 0.183156 0 200 255
0.512342 0.299305 0.178597 0 200 255
0.448323 0.319336 0.170681 0 200 255
0.419194 0.422435 0.144952 0 200 255
0.475241 0.305351 0.212979 0 200 255
0.425439 0.355988 0.146853 0 200 255
0.414647 0.262175 0.179487 0 200 255
0.376602 0.361562 0.175629 0 200 255
0.366504 0.230197 0.170589 0 200 255
0.475141 0.377635 0.161414 0 200 255
0.502973 0.252686 0.207221 0 200 255
0.430479 0.293739 0.207776 0 200 255
0.445359 0.339542 0.209086 0 200 255
0.496417 0.252786 0.164971 0 200 255
0.448537 0.355329 0.175895 0 200 255
0.364747 0.234273 0.134785 0 200 255
0.482304 0.332777 0.171016 0 200 255
0.474397 0.292288 0.168400 0 200 255
0.457332 0.408346 0.160623 0 200 255
0.414676 0.306864 0.178977 0 200 255
0.435652 0.246216 0.154283 0 200 255
0.439435 0.282564 0.167638 0 200 255
0.505088 0.319427 0.205262 0 200 255
0.398729 0.233221 0.177320 0 200 255
0.467123 0.376155 0.193034 0 200 255
0.479529 0.273030 0.212290 0 200 255
0.473255 0.240906 0.204968 0 200 255
0.384285 0.251196 0.156553 0 200 255
0.349826 0.367973 0.189411 0 200 255
0.436463 0.367755 0.120564 0 200 255
0.428499 0.395930 0.154316 0 200 255
0.352594 0.252236 0.157363 0 200 255
0.495799 0.272358 0.186559 0 200 255
0.440183 0.266232 0.201702 0 200 255
0.399283 0.343320 0.176436 0 200 255
0.382581 0.351316 0.201960 0 200 255
0.500730 0.291646 0.205652 0 200 255
0.427039 0.320066 0.199678 0 200 255
0.459241 0.304462 0.190823 0 200 255
0.412314 0.257819 0.148616 0 200 255
0.475688 0.331930 0.213144 0 200 255
0.466946 0.345324 0.191884 0 200 255
0.470095 0.240257 0.172650 0 200 255
0.448085 0.379292 0.163185 0 200 255
0.455275 0.286873 0.210247 0 200 255
0.428706 0.347274 0.190379 0 200 255
0.440401 0.250260 0.181519 0 200 255
0.450826 0.311887 0.213377 0 200 255
0.434225 0.338855 0.164230 0 200 255
0.451436 0.394226 0.140745 0 200 255
0.381456 0.226819 0.151091 0 200 255
0.504577 0.323000 0.173472 0 200 255
0.419372 0.232830 0.165634 0 200 255
0.458989 0.393600 0.179038 0 200 255
0.444413 0.370151 0.194712 0 200 255
0.426595 0.282734 0.187324 0 200 255
0.358825 0.376189 0.169548 0 200 255
0.480399 0.362089 0.180069 0 200 255
0.350980 0.229222 0.153439 0 200 255
0.426893 0.360702 0.169469 0 200 255
0.417915 0.329586 0.178439 0 200 255
0.435195 0.416618 0.159767 0 200 255
0.437559 0.345086 0.120836 0 200 255
0.476821 0.266945 0.167686 0 200 255
0.495949 0.287376 0.170733 0 200 255
0.370248 0.367958 0.195371 0 200 255
0.484313 0.311691 0.172735 0 200 255
0.436364 0.409679 0.139724 0 200 255
0.444790 0.347793 0.144327 0 200 255
0.501322 0.335972 0.191414 0 200 255
0.459391 0.259136 0.206804 0 200 255
0.447158 0.337206 0.188223 0 200 255
0.510427 0.258233 0.181173 0 200 255
0.454156 0.296733 0.171968 0 200 255
0.392188 0.256003 0.175275 0 200 255
0.459656 0.413261 0.140142 0 200 255
0.347433 0.245660 0.134013 0 200 255
0.390227 0.243234 0.138945 0 200 255
0.432275 0.262127 0.167667 0 200 255
0.418305 0.242881 0.183087 0 200 255
0.432661 0.300495 0.173526 0 200 255
0.379846 0.343570 0.183012 0 200 255
0.468822 0.394564 0.152921 0 200 255
0.462653 0.369452 0.175377 0 200 255
0.441598 0.400327 0.168533 0 200 255
0.444660 0.269040 0.181706 0 200 255
0.416415 0.301749 0.197201 0 200 255
0.463416 0.333925 0.171903 0 200 255
0.461773 0.278786 0.172509 0 200 255
0.438270 0.364121 0.101780 0 200 255
0.399599 0.347768 0.195007 0 200 255
0.494970 0.345482 0.176194 0 200 255
0.382428 0.240018 0.171455 0 200 255
0.484024 0.260350 0.194394 0 200 255
0.476554 0.350208 0.210155 0 200 255
0.368634 0.249677 0.144255 0 200 255
0.456952 0.255270 0.168895 0 200 255
0.439874 0.362539 0.156234 0 200 255
0.400919 0.225534 0.159594 0 200 255
0.351798 0.385455 0.183696 0 200 255
0.336526 0.243666 0.159055 0 200 255
0.435476 0.323515 0.183829 0 200 255
0.437461 0.367572 0.138942 0 200 255
0.510778 0.282812 0.185958 0 200 255
0.439710 0.371105 0.177060 0 200 255
0.446817 0.410662 0.124036 0 200 255
0.512136 0.304696 0.197571 0 200 255
0.480088 0.289614 0.205275 0 200 255
0.426073 0.355812 0.112030 0 200 255
0.492959 0.333334 0.209188 0 200 255
0.417858 0.250480 0.163717 0 200 255
0.450853 0.351889 0.197900 0 200 255
0.473508 0.383807 0.178103 0 200 255
0.492497 0.306854 0.208416 0 200 255
0.458080 0.327579 0.210996 0 200 255
0.424903 0.357533 0.129539 0 200 255
0.421730 0.236840 0.148352 0 200 255
0.342558 0.372520 0.174510 0 200 255
0.359831 0.358811 0.178190 0 200 255
0.495266 0.272877 0.205398 0 200 255
0.401492 0.327616 0.182837 0 200 255
0.401076 0.252809 0.160282 0 200 255
0.437810 0.324765 0.212495 0 200 255
0.417929 0.333746 0.195683 0 200 255
0.467823 0.243229 0.188904 0 200 255
0.412319 0.318172 0.191058 0 200 255
0.364940 0.237925 0.156080 0 200 255
0.468189 0.313452 0.170154 0 200 255
0.388738 0.356690 0.186779 0 200 255
0.471788 0.359703 0.197764 0 200 255
0.387633 0.336871 0.196186 0 200 255
0.451587 0.380023 0.184030 0 200 255
0.466833 0.398464 0.136574 0 200 255
0.431980 0.387200 0.167384 0 200 255
0.428087 0.318507 0.170571 0 200 255
0.352674 0.237820 0.166787 0 200 255
0.488402 0.247439 0.210840 0 200 255
0.492050 0.272099 0.168662 0 200 255
0.506518 0.264810 0.195553 0 200 255
0.367762 0.352740 0.191891 0 200 255
0.386914 0.225313 0.168497 0 200 255
0.446951 0.347053 0.160380 0 200 255
0.443563 0.356714 0.129351 0 200 255
0.498588 0.306361 0.169334 0 200 255
0.452460 0.253338 0.194077 0 200 255
0.453826 0.393180 0.158995 0 200 255
0.464148 0.273557 0.210375 0 200 255
0.456529 0.277445 0.187057 0 200 255
0.421722 0.409875 0.156279 0 200 255
0.435819 0.308022 0.209784 0 200 255
0.440215 0.280280 0.207913 0 200 255
0.445268 0.350472 0.108852 0 200 255
0.506287 0.317286 0.190236 0 200 255
0.339860 0.253241 0.147729 0 200 255
0.479040 0.257774 0.179549 0 200 255
0.478111 0.337888 0.198826 0 200 255
0.437071 0.344665 0.178096 0 200 255
0.366927 0.224979 0.147509 0 200 255
0.456883 0.360658 0.187235 0 200 255
0.405252 0.248175 0.177903 0 200 255
0.432542 0.245940 0.169486 0 200 255
0.431773 0.342614 0.150050 0 200 255
0.474964 0.257141 0.205704 0 200 255
0.427015 0.258105 0.149726 0 200 255
0.448315 0.407448 0.148036 0 200 255
0.428869 0.260789 0.183045 0 200 255
0.483315 0.246405 0.167021 0 200 255
0.343174 0.233485 0.141043 0 200 255
0.431640 0.360910 0.183824 0 200 255
0.464272 0.331317 0.188518 0 200 255
0.468639 0.394619 0.168099 0 200 255
0.418768 0.325477 0.210374 0 200 255
0.430151 0.422232 0.135401 0 200 255
0.463053 0.346376 0.206733 0 200 255
0.453003 0.395444 0.126510 0 200 255
0.421811 0.291121 0.174422 0 200 255
0.426781 0.312237 0.185654 0 200 255
0.367651 0.373656 0.180581 0 200 255
0.427469 0.402183 0.170077 0 200 255
0.433485 0.345098 0.135964 0 200 255
0.380034 0.233222 0.138138 0 200 255
0.404647 0.245822 0.141728 0 200 255
0.474930 0.341336 0.179681 0 200 255
0.480716 0.318649 0.212456 0 200 255
0.391627 0.238818 0.152370 0 200 255
0.460476 0.379789 0.156283 0 200 255
0.446852 0.298157 0.209216 0 200 255
0.441069 0.319686 0.196157 0 200 255
0.408010 0.237648 0.158806 0 200 255
0.357268 0.240806 0.144694 0 200 255
0.430821 0.273645 0.175466 0 200 255
0.422770 0.408885 0.142374 0 200 255
0.487759 0.261986 0.210748 0 200 255
0.465373 0.315018 0.212148 0 200 255
0.393435 0.226013 0.143436 0 200 255
0.436166 0.334843 0.196229 0 200 255
0.408380 0.340325 0.187472 0 200 255
0.453386 0.329375 0.198207 0 200 255
0.479592 0.370478 0.193743 0 200 255
0.347788 0.384161 0.166933 0 200 255
0.450714 0.271350 0.208595 0 200 255
0.366609 0.245373 0.167305 0 200 255
0.503575 0.277348 0.175740 0 200 255
0.506799 0.281041 0.199788 0 200 255
0.422267 0.304912 0.209007 0 200 255
0.338447 0.381986 0.183275 0 200 255
0.487800 0.298332 0.167837 0 200 255
0.468063 0.292915 0.210512 0 200 255
0.427268 0.351485 0.159420 0 200 255
0.450374 0.366988 0.168153 0 200 255
0.426821 0.282223 0.200770 0 200 255
0.378412 0.239113 0.156627 0 200 255
0.359813 0.377116 0.190898 0 200 255
0.485303 0.351390 0.186363 0 200 255
0.469597 0.354456 0.181209 0 200 255
0.450664 0.325262 0.183684 0 200 255
0.432924 0.423591 0.148756 0 200 255
0.387973 0.350061 0.174973 0 200 255
0.495578 0.332501 0.172629 0 200 255
0.465848 0.253558 0.196721 0 200 255
0.393985 0.253039 0.147983 0 200 255
0.429506 0.368591 0.149257 0 200 255
0.441246 0.353771 0.189256 0 200 255
0.409717 0.260060 0.167631 0 200 255
0.445648 0.394474 0.179854 0 200 255
0.440323 0.391676 0.157686 0 200 255
0.444583 0.260696 0.171492 0 200 255
0.427701 0.357596 0.097766 0 200 255
0.457164 0.346321 0.179228 0 200 255
0.444637 0.307124 0.168798 0 200 255
0.457414 0.380710 0.172102 0 200 255
0.454778 0.363915 0.200015 0 200 255
0.493335 0.319597 0.210630 0 200 255
0.488647 0.345318 0.209640 0 200 255
0.459709 0.302015 0.213641 0 200 255
0.473514 0.366655 0.167618 0 200 255
0.372162 0.224319 0.160961 0 200 255
0.440215 0.258218 0.191960 0 200 255
0.449685 0.405367 0.135159 0 200 255
0.408125 0.340331 0.200416 0 200 255
0.438930 0.354767 0.091777 0 200 255
0.475141 0.279814 0.167680 0 200 255
0.345947 0.242331 0.149809 0 200 255
0.461347 0.403955 0.149667 0 200 255
0.447668 0.342492 0.172024 0 200 255
0.379955 0.252152 0.170719 0 200 255
0.419192 0.293039 0.188844 0 200 255
0.439211 0.358629 0.168443 0 200 255
0.455162 0.251855 0.180664 0 200 255
0.435791 0.405840 0.153583 0 200 255
0.411657 0.233844 0.178053 0 200 255
0.458776 0.414965 0.128021 0 200 255
0.378372 0.358940 0.193321 0 200 255
0.364791 0.251747 0.156617 0 200 255
0.450920 0.274135 0.169333 0 200 255
0.453706 0.406592 0.114807 0 200 255
0.464659 0.264406 0.171179 0 200 255
0.371050 0.236578 0.145627 0 200 255
0.355819 0.228591 0.140738 0 200 255
0.492396 0.284235 0.210420 0 200 255
0.439164 0.378761 0.187991 0 200 255
0.357013 0.252864 0.145538 0 200 255
0.474101 0.324037 0.170561 0 200 255
0.414707 0.318355 0.175721 0 200 255
0.391727 0.334427 0.183720 0 200 255
0.496793 0.346840 0.189484 0 200 255
0.429013 0.247981 0.184328 0 200 255
0.360033 0.361916 0.194355 0 200 255
0.419427 0.248283 0.146173 0 200 255
0.435767 0.273045 0.188457 0 200 255
0.426918 0.350910 0.179255 0 200 255
0.463471 0.384501 0.185100 0 200 255
0.455626 0.399055 0.169132 0 200 255
0.414937 0.312525 0.203782 0 200 255
0.441195 0.294932 0.167609 0 200 255
0.369284 0.362470 0.184806 0 200 255
0.446517 0.389678 0.168744 0 200 255
0.506098 0.310528 0.177233 0 200 255
0.424894 0.241426 0.158599 0 200 255
0.437397 0.376506 0.167005 0 200 255
0.456146 0.372457 0.191589 0 200 255
0.496378 0.260613 0.173526 0 200 255
0.361041 0.226843 0.158686 0 200 255
0.437121 0.356404 0.145319 0 200 255
0.446425 0.330470 0.173183 0 200 255
0.355850 0.370284 0.179026 0 200 255
0.483035 0.257945 0.163959 0 200 255
0.381275 0.247656 0.144731 0 200 255
0.493547 0.319624 0.173226 0 200 255
0.412680 0.229198 0.152510 0 200 255
0.392425 0.234378 0.164032 0 200 255
0.467890 0.283213 0.204365 0 200 255
0.436289 0.356031 0.117776 0 200 255
0.505193 0.329280 0.183038 0 200 255
0.503773 0.330195 0.200894 0 200 255
0.478436 0.373279 0.179970 0 200 255
0.426346 0.365355 0.138203 0 200 255
0.392300 0.242542 0.178202 0 200 255
0.494705 0.264174 0.194538 0 200 255
0.513329 0.294007 0.193972 0 200 255
0.427068 0.327078 0.190777 0 200 255
0.336394 0.235787 0.149821 0 200 255
0.432314 0.345087 0.110141 0 200 255
0.456466 0.338660 0.212530 0 200 255
0.425209 0.308969 0.198835 0 200 255
0.482429 0.359434 0.194039 0 200 255
0.377047 0.346041 0.193640 0 200 255
0.463783 0.289917 0.171328 0 200 255
0.436023 0.335183 0.184974 0 200 255
0.372587 0.350907 0.178526 0 200 255
0.395228 0.341352 0.203168 0 200 255
0.486294 0.341504 0.191623 0 200 255
0.337670 0.239706 0.133492 0 200 255
0.425636 0.238128 0.173549 0 200 255
0.428317 0.331294 0.210370 0 200 255
0.474304 0.302804 0.172181 0 200 255
0.453991 0.286784 0.166917 0 200 255
0.490887 0.295287 0.210323 0 200 255
0.408770 0.228880 0.166755 0 200 255
0.504282 0.308205 0.204630 0 200 255
0.455708 0.342042 0.199481 0 200 255
0.486605 0.268726 0.177709 0 200 255
0.467156 0.365861 0.188983 0 200 255
0.463928 0.369803 0.163146 0 200 255
0.403942 0.260015 0.176952 0 200 255
0.485239 0.283971 0.167523 0 200 255
0.419244 0.249640 0.174559 0 200 255
0.509147 0.292240 0.170987 0 200 255
0.459512 0.389730 0.150098 0 200 255
0.427989 0.363971 0.158970 0 200 255
0.411769 0.328665 0.188314 0 200 255
0.438072 0.323974 0.170803 0 200 255
0.431610 0.400881 0.143920 0 200 255
0.353475 0.236016 0.133251 0 200 255
0.390010 0.224811 0.158250 0 200 255
0.423513 0.315910 0.211187 0 200 255
0.434440 0.355799 0.134884 0 200 255
0.461792 0.356402 0.195736 0 200 255
0.434227 0.397863 0.177365 0 200 255
0.454976 0.270854 0.178631 0 200 255
0.406046 0.238849 0.169366 0 200 255
0.469298 0.325485 0.207576 0 200 255
0.335888 0.249030 0.138295 0 200 255
0.461273 0.307624 0.175720 0 200 255
0.439021 0.344569 0.199318 0 200 255
0.432613 0.364399 0.110727 0 200 255
0.429176 0.348437 0.126307 0 200 255
0.429060 0.347181 0.169618 0 200 255
0.449721 0.262195 0.187880 0 200 255
0.466555 0.336077 0.210006 0 200 255
0.474957 0.254666 0.191635 0 200 255
0.345293 0.236301 0.159492 0 200 255
0.415768 0.322456 0.199987 0 200 255
0.338344 0.379828 0.168121 0 200 255
0.426399 0.363352 0.119247 0 200 255
0.470176 0.264796 0.210941 0 200 255
0.450119 0.348534 0.187650 0 200 255
0.459033 0.359787 0.176754 0 200 255
0.396669 0.350837 0.183506 0 200 255
0.475302 0.249664 0.172745 0 200 255
0.497629 0.340541 0.199957 0 200 255
0.387959 0.347351 0.194054 0 200 255
0.443314 0.285494 0.176762 0 200 255
0.432740 0.273766 0.201151 0 200 255
0.418884 0.259942 0.156298 0 200 255
0.480639 0.300673 0.205540 0 200 255
0.438069 0.270537 0.168810 0 200 255
0.376165 0.224713 0.142548 0 200 255
0.422683 0.263249 0.173222 0 200 255
0.460952 0.388614 0.164758 0 200 255
0.465820 0.401680 0.161249 0 200 255
0.447866 0.327669 0.211338 0 200 255
0.343202 0.390587 0.180602 0 200 255
0.396100 0.235850 0.143720 0 200 255
0.391916 0.255203 0.164021 0 200 255
0.445249 0.387015 0.187807 0 200 255
0.471862 0.388186 0.160218 0 200 255
0.377735 0.232971 0.165859 0 200 255
0.442060 0.365685 0.185914 0 200 255
0.354075 0.239421 0.155130 0 200 255
0.421402 0.417193 0.136308 0 200 255
0.447111 0.258903 0.200844 0 200 255
0.434357 0.406286 0.163571 0 200 255
0.352072 0.368170 0.169908 0 200 255
0.445306 0.351665 0.118882 0 200 255
0.428733 0.253646 0.174701 0 200 255
0.362549 0.243924 0.136729 0 200 255
0.456853 0.339025 0.186288 0 200 255
0.419717 0.320856 0.184817 0 200 255
0.510772 0.307880 0.188162 0 200 255
0.444139 0.400869 0.158778 0 200 255
0.440763 0.341335 0.154988 0 200 255
0.423049 0.304674 0.173965 0 200 255
0.397734 0.329233 0.192618 0 200 255
0.432140 0.366782 0.129511 0 200 255
0.468977 0.376367 0.182958 0 200 255
0.424802 0.419364 0.152685 0 200 255
0.445511 0.360408 0.196456 0 200 255
0.410917 0.239411 0.147045 0 200 255
0.438214 0.355176 0.179060 0 200 255
0.488314 0.338276 0.177724 0 200 255
0.441623 0.359616 0.109937 0 200 255
0.422690 0.294829 0.201759 0 200 255
0.466652 0.255882 0.175774 0 200 255
0.346635 0.377047 0.185758 0 200 255
0.458159 0.296040 0.205983 0 200 255
0.488134 0.264830 0.186672 0 200 255
0.435010 0.328541 0.203723 0 200 255
0.438349 0.259685 0.179763 0 200 255
0.358938 0.380406 0.179273 0 200 255
0.502014 0.256545 0.198258 0 200 255
0.357455 0.246408 0.164016 0 200 255
0.462457 0.252532 0.187139 0 200 255
0.504430 0.256142 0.170360 0 200 255
0.331239 0.247275 0.149654 0 200 255
0.464751 0.386762 0.175066 0 200 255
0.466184 0.244108 0.198992 0 200 255
0.386598 0.232537 0.176053 0 200 255
0.426927 0.326133 0.179568 0 200 255
0.480494 0.340804 0.212373 0 200 255
0.376518 0.244860 0.165337 0 200 255
0.502637 0.267444 0.176359 0 200 255
0.443824 0.354214 0.153243 0 200 255
0.427757 0.284422 0.170750 0 200 255
0.442910 0.347800 0.099471 0 200 255
0.413387 0.251241 0.182120 0 200 255
0.499705 0.272718 0.196837 0 200 255
0.440834 0.289637 0.210127 0 200 255
0.459729 0.325036 0.171469 0 200 255
0.386178 0.340419 0.176487 0 200 255
0.463436 0.408000 0.133028 0 200 255
0.457597 0.402392 0.140950 0 200 255
0.424629 0.250352 0.154881 0 200 255
0.401039 0.225458 0.149993 0 200 255
0.378951 0.364752 0.184375 0 200 255
0.466022 0.272555 0.166298 0 200 255
0.475795 0.281826 0.213045 0 200 255
0.484827 0.345328 0.200851 0 200 255
0.469067 0.360499 0.173431 0 200 255
0.472874 0.335295 0.189741 0 200 255
0.476352 0.378142 0.170973 0 200 255
0.458754 0.391654 0.135202 0 200 255
0.437427 0.335416 0.212299 0 200 255
0.458107 0.260301 0.176846 0 200 255
0.435484 0.309513 0.174180 0 200 255
0.346724 0.246260 0.161780 0 200 255
0.455095 0.312737 0.170199 0 200 255
0.438813 0.253231 0.172275 0 200 255
0.442155 0.328501 0.192598 0 200 255
0.385406 0.359029 0.177940 0 200 255
0.425102 0.402253 0.160952 0 200 255
0.348560 0.252340 0.140569 0 200 255
0.372828 0.356720 0.200597 0 200 255
0.426647 0.427567 0.142438 0 200 255
0.474714 0.316398 0.176223 0 200 255
0.473695 0.258136 0.167045 0 200 255
0.407325 0.324167 0.196309 0 200 255
0.474266 0.347822 0.186406 0 200 255
0.479118 0.246392 0.210778 0 200 255
0.422821 0.313778 0.176669 0 200 255
0.433708 0.337150 0.173396 0 200 255
0.453678 0.397003 0.149774 0 200 255
0.387167 0.356892 0.196061 0 200 255
0.508164 0.298105 0.202823 0 200 255
0.400024 0.234896 0.154879 0 200 255
0.406459 0.333707 0.194087 0 200 255
0.374188 0.242521 0.139191 0 200 255
0.440590 0.315452 0.212708 0 200 255
0.371093 0.244022 0.151214 0 200 255
0.477312 0.296198 0.212964 0 200 255
0.457127 0.277076 0.205111 0 200 255
0.470980 0.368993 0.197484 0 200 255
0.418721 0.242119 0.168863 0 200 255
0.459741 0.375715 0.183476 0 200 255
0.408525 0.321663 0.182287 0 200 255
0.438012 0.414228 0.147573 0 200 255
0.429113 0.412438 0.134627 0 200 255
0.433989 0.383281 0.175848 0 200 255
0.446726 0.339697 0.198086 0 200 255
0.503696 0.261014 0.186776 0 200 255
0.419902 0.298043 0.181171 0 200 255
0.410526 0.334858 0.180409 0 200 255
0.455500 0.414456 0.119468 0 200 255
0.415964 0.309098 0.191734 0 200 255
0.447662 0.379016 0.192246 0 200 255
0.500342 0.280986 0.207235 0 200 255
0.396937 0.226182 0.167811 0 200 255
0.403994 0.239519 0.181352 0 200 255
0.397021 0.338264 0.194755 0 200 255
0.373291 0.231976 0.154131 0 200 255
0.480943 0.323052 0.176654 0 200 255
0.469443 0.354313 0.190617 0 200 255
0.437931 0.342761 0.189670 0 200 255
0.443960 0.355369 0.139363 0 200 255
0.365563 0.366019 0.176140 0 200 255
0.372874 0.236180 0.172907 0 200 255
0.483932 0.331594 0.209523 0 200 255
0.425665 0.254642 0.166292 0 200 255
0.435788 0.405587 0.173004 0 200 255
0.430755 0.394984 0.163067 0 200 255
0.421006 0.232871 0.156813 0 200 255
0.462316 0.298820 0.168882 0 200 255
0.362751 0.233744 0.143792 0 200 255
0.482902 0.275696 0.170004 0 200 255
0.463648 0.397006 0.128350 0 200 255
0.474928 0.347140 0.195461 0 200 255
0.494353 0.253514 0.205071 0 200 255
0.505216 0.275961 0.187223 0 200 255
0.353579 0.230264 0.162151 0 200 255
0.487988 0.262105 0.170081 0 200 255
0.387224 0.235638 0.143093 0 200 255
0.356497 0.363819 0.185245 0 200 255
0.423603 0.328262 0.199936 0 200 255
0.448123 0.342886 0.181095 0 200 255
0.434457 0.363252 0.174305 0 200 255
0.361657 0.238075 0.166708 0 200 255
0.438172 0.382766 0.160817 0 200 255
0.475890 0.366689 0.186688 0 200 255
0.435580 0.365226 0.163451 0 200 255
0.432007 0.318672 0.190321 0 200 255
0.487686 0.276254 0.211455 0 200 255
0.410542 0.258974 0.158906 0 200 255
0.499147 0.325938 0.208852 0 200 255
0.400916 0.253719 0.142580 0 200 255
0.446766 0.253494 0.175999 0 200 255
0.375159 0.354495 0.186489 0 200 255
0.454746 0.389442 0.171721 0 200 255
0.420758 0.332132 0.187433 0 200 255
0.429455 0.347661 0.143292 0 200 255
0.464151 0.267735 0.191600 0 200 255
0.456832 0.411607 0.148220 0 200 255
0.480237 0.350893 0.179290 0 200 255
0.443855 0.356123 0.101863 0 200 255
0.508808 0.256427 0.192124 0 200 255
0.429167 0.348848 0.117619 0 200 255
0.424801 0.403244 0.151418 0 200 255
0.450561 0.271284 0.188432 0 200 255
0.479677 0.264179 0.208448 0 200 255
0.472021 0.241585 0.181483 0 200 255
0.450131 0.401327 0.120703 0 200 255
0.434935 0.283304 0.176699 0 200 255
0.427256 0.411208 0.162972 0 200 255
0.422310 0.255240 0.181959 0 200 255
0.439794 0.402771 0.146559 0 200 255
0.434250 0.245092 0.177900 0 200 255
0.435008 0.265028 0.192916 0 200 255
0.347052 0.374641 0.167240 0 200 255
0.444551 0.351971 0.167327 0 200 255
0.454916 0.332652 0.172230 0 200 255
0.425908 0.354700 0.137578 0 200 255
0.366033 0.353700 0.183539 0 200 255
0.464751 0.278840 0.185111 0 200 255
0.346563 0.368867 0.181131 0 200 255
0.475842 0.378028 0.187735 0 200 255
0.434090 0.254776 0.153117 0 200 255
0.352143 0.385600 0.174114 0 200 255
0.387249 0.240818 0.159390 0 200 255
0.431041 0.315266 0.207272 0 200 255
0.455873 0.320115 0.207572 0 200 255
0.472446 0.386458 0.170099 0 200 255
0.427580 0.242869 0.149607 0 200 255
0.419846 0.316921 0.195000 0 200 255
0.334933 0.382513 0.175562 0 200 255
0.433668 0.358977 0.125290 0 200 255
0.367366 0.372970 0.189162 0 200 255
0.467283 0.343264 0.182793 0 200 255
0.438509 0.365468 0.148405 0 200 255
0.438434 0.298978 0.209648 0 200 255
0.463454 0.399591 0.172580 0 200 255
0.504400 0.296385 0.178788 0 200 255
0.443580 0.340350 0.164934 0 200 255
0.450524 0.366800 0.188804 0 200 255
0.478519 0.354952 0.200010 0 200 255
0.457022 0.385441 0.179548 0 200 255
0.468665 0.322432 0.176759 0 200 255
0.471691 0.332723 0.171390 0 200 255
0.411035 0.250242 0.145296 0 200 255
0.500411 0.266801 0.202834 0 200 255
0.338132 0.241952 0.142140 0 200 255
0.505722 0.324663 0.194943 0 200 255
0.390888 0.348729 0.201755 0 200 255
0.430829 0.343990 0.158520 0 200 255
0.485903 0.311017 0.211388 0 200 255
0.500921 0.288316 0.177363 0 200 255
0.431272 0.318825 0.178268 0 200 255
0.433034 0.358245 0.104497 0 200 255
0.467906 0.272762 0.174404 0 200 255
0.508180 0.321569 0.182140 0 200 255
0.447991 0.317487 0.207681 0 200 255
0.385254 0.247717 0.175334 0 200 255
0.412494 0.241440 0.174800 0 200 255
0.460382 0.397802 0.156318 0 200 255
0.374151 0.368789 0.178867 0 200 255
0.448667 0.356905 0.187293 0 200 255
0.450285 0.402883 0.163962 0 200 255
0.470760 0.266219 0.184369 0 200 255
0.344086 0.232755 0.149480 0 200 255
0.433691 0.267631 0.182573 0 200 255
0.432794 0.354635 0.171729 0 200 255
0.441901 0.332621 0.179807 0 200 255
0.354740 0.248409 0.136815 0 200 255
0.382565 0.232362 0.158636 0 200 255
0.453268 0.412690 0.134715 0 200 255
0.440803 0.383509 0.180318 0 200 255
0.398802 0.334154 0.178789 0 200 255
0.457571 0.328747 0.181136 0 200 255
0.447899 0.282600 0.206605 0 200 255
0.429236 0.294271 0.169573 0 200 255
0.508843 0.312033 0.198757 0 200 255
0.340959 0.248786 0.154436 0 200 255
0.350832 0.236164 0.141488 0 200 255
0.477593 0.333938 0.177527 0 200 255
0.424454 0.286498 0.194287 0 200 255
0.369433 0.227142 0.138730 0 200 255
0.455891 0.372477 0.170427 0 200 255
0.369475 0.357514 0.175030 0 200 255
0.430371 0.390963 0.175643 0 200 255
0.380066 0.348372 0.174730 0 200 255
0.467234 0.306106 0.212166 0 200 255
0.462541 0.355125 0.185597 0 200 255
0.431189 0.240569 0.163617 0 200 255
0.439441 0.316083 0.169841 0 200 255
0.499748 0.340886 0.184913 0 200 255
0.485400 0.287960 0.211843 0 200 255
0.459962 0.365259 0.193073 0 200 255
0.374203 0.223414 0.151799 0 200 255
0.443976 0.348574 0.176786 0 200 255
0.370569 0.240735 0.161089 0 200 255
0.441375 0.349696 0.132601 0 200 255
0.432000 0.356438 0.163940 0 200 255
0.435263 0.361196 0.094899 0 200 255
0.468301 0.381354 0.157187 0 200 255
0.397357 0.248340 0.175930 0 200 255
0.462630 0.396727 0.143576 0 200 255
0.508094 0.305408 0.171398 0 200 255
0.358481 0.227961 0.150925 0 200 255
0.490622 0.306483 0.168516 0 200 255
0.499956 0.302248 0.207769 0 200 255
0.439134 0.387376 0.170930 0 200 255
0.444981 0.371947 0.164976 0 200 255
0.383743 0.227807 0.143511 0 200 255
0.381458 0.237885 0.149367 0 200 255
0.480419 0.364979 0.172645 0 200 255
0.432582 0.362631 0.142833 0 200 255
0.385643 0.338919 0.186196 0 200 255
0.442750 0.358820 0.121727 0 200 255
0.465496 0.363467 0.181589 0 200 255
0.449088 0.401534 0.142784 0 200 255
0.438865 0.266503 0.175723 0 200 255
0.459518 0.280120 0.212043 0 200 255
0.404290 0.256956 0.154326 0 200 255
0.404842 0.229729 0.173659 0 200 255
0.405937 0.343928 0.180714 0 200 255
0.359792 0.244351 0.152725 0 200 255
0.450728 0.306364 0.173804 0 200 255
0.466526 0.337208 0.194075 0 200 255
0.489013 0.325101 0.176710 0 200 255
0.470425 0.343517 0.206585 0 200 255
0.481919 0.319129 0.169868 0 200 255
0.478042 0.354531 0.189689 0 200 255
0.512424 0.292096 0.181790 0 200 255
0.454004 0.302738 0.206029 0 200 255
0.448294 0.268668 0.174736 0 200 255
0.457156 0.278391 0.179173 0 200 255
0.446231 0.372683 0.185843 0 200 255
0.431106 0.359677 0.150855 0 200 255
0.444815 0.360103 0.180898 0 200 255
0.447682 0.313979 0.176375 0 200 255
0.446987 0.394647 0.162576 0 200 255
0.502247 0.332861 0.176734 0 200 255
0.498328 0.313800 0.209003 0 200 255
0.385651 0.232998 0.167678 0 200 255
0.435896 0.417832 0.140979 0 200 255
0.372416 0.234283 0.136245 0 200 255
0.439632 0.263654 0.186398 0 200 255
0.354223 0.376006 0.184292 0 200 255
0.340003 0.374372 0.182642 0 200 255
0.449485 0.387771 0.180911 0 200 255
0.431303 0.414852 0.153253 0 200 255
0.392454 0.231912 0.155870 0 200 255
0.453159 0.408829 0.141469 0 200 255
0.492805 0.264045 0.180501 0 200 255
0.420169 0.413820 0.147780 0 200 255
0.394695 0.332953 0.200048 0 200 255
0.437588 0.344913 0.144011 0 200 255
0.450313 0.303964 0.213027 0 200 255
0.497635 0.277329 0.169945 0 200 255
0.435293 0.398587 0.156916 0 200 255
0.352003 0.377403 0.173005 0 200 255
0.426523 0.283334 0.179604 0 200 255
0.468308 0.333736 0.182372 0 200 255
0.438315 0.302685 0.168367 0 200 255
0.463704 0.322437 0.213578 0 200 255
0.443777 0.362686 0.173191 0 200 255
0.464463 0.405482 0.142717 0 200 255
0.394587 0.236125 0.171245 0 200 255
0.495482 0.299091 0.168008 0 200 255
0.331037 0.240828 0.154436 0 200 255
0.429934 0.306925 0.169492 0 200 255
0.512468 0.297910 0.187380 0 200 255
0.430625 0.281089 0.193684 0 200 255
0.445795 0.387190 0.160685 0 200 255
0.445910 0.288895 0.167016 0 200 255
0.413579 0.239985 0.163571 0 200 255
0.393964 0.352439 0.190514 0 200 255
0.440812 0.407866 0.159722 0 200 255
0.450982 0.254730 0.186597 0 200 255
0.453542 0.406253 0.153530 0 200 255
0.465675 0.283615 0.167381 0 200 255
0.360821 0.369061 0.189988 0 200 255
0.382547 0.343925 0.199934 0 200 255
0.440624 0.362370 0.134287 0 200 255
0.437563 0.349297 0.113796 0 200 255
0.417322 0.312353 0.184954 0 200 255
0.367875 0.360687 0.196342 0 200 255
0.467130 0.280553 0.211486 0 200 255
0.446171 0.261523 0.181156 0 200 255
0.452086 0.337061 0.206477 0 200 255
0.431523 0.341341 0.182124 0 200 255
0.419356 0.254788 0.150708 0 200 255
0.466916 0.393952 0.160683 0 200 255
0.441743 0.400475 0.177295 0 200 255
0.347230 0.250157 0.150366 0 200 255
0.427971 0.356000 0.120346 0 200 255
0.345893 0.238384 0.132474 0 200 255
0.420863 0.317249 0.203036 0 200 255
0.507018 0.288449 0.201337 0 200 255
0.426860 0.358035 0.176709 0 200 255
0.455248 0.316914 0.176505 0 200 255
0.453360 0.409337 0.127936 0 200 255
0.430815 0.353120 0.185340 0 200 255
0.432259 0.278445 0.169714 0 200 255
0.444270 0.346645 0.192039 0 200 255
0.397278 0.257723 0.169967 0 200 255
0.431921 0.352709 0.093657 0 200 255
0.448030 0.403043 0.127736 0 200 255
0.446101 0.347098 0.152268 0 200 255
0.506583 0.296966 0.195527 0 200 255
0.484704 0.352262 0.194268 0 200 255
0.388924 0.249508 0.143685 0 200 255
0.429758 0.264726 0.175261 0 200 255
0.424754 0.363901 0.145825 0 200 255
0.458490 0.387378 0.157153 0 200 255
0.485600 0.324339 0.212146 0 200 255
0.440586 0.336206 0.204353 0 200 255
0.482400 0.289919 0.171096 0 200 255
0.444163 0.308512 0.212805 0 200 255
0.491135 0.264889 0.204725 0 200 255
0.351030 0.244360 0.142564 0 200 255
0.353308 0.363912 0.176028 0 200 255
0.428049 0.352748 0.103516 0 200 255
0.382298 0.242506 0.139405 0 200 255
0.472061 0.318341 0.211773 0 200 255
0.439401 0.344807 0.105356 0 200 255
0.405138 0.323795 0.189174 0 200 255
0.487172 0.254531 0.206858 0 200 255
0.401323 0.236410 0.162063 0 200 255
0.391707 0.225145 0.150998 0 200 255
0.457611 0.398489 0.132456 0 200 255
0.401873 0.337826 0.203601 0 200 255
0.476441 0.243638 0.166254 0 200 255
0.457609 0.257854 0.184826 0 200 255
0.475892 0.263752 0.176422 0 200 255
0.442453 0.356681 0.161959 0 200 255
0.453337 0.341484 0.192364 0 200 255
0.456844 0.364697 0.171005 0 200 255
0.473891 0.297681 0.206404 0 200 255
0.457999 0.316376 0.213630 0 200 255
0.402695 0.238133 0.141182 0 200 255
0.493908 0.351295 0.184292 0 200 255
0.471524 0.383882 0.185257 0 200 255
0.417417 0.235847 0.173820 0 200 255
0.484136 0.303060 0.211628 0 200 255
0.477930 0.372697 0.166189 0 200 255
0.450679 0.334776 0.177926 0 200 255
0.425372 0.242662 0.180675 0 200 255
0.490449 0.256907 0.163511 0 200 255
0.433481 0.254890 0.182589 0 200 255
0.457895 0.256042 0.198279 0 200 255
0.432878 0.254671 0.168128 0 200 255
0.439173 0.273937 0.181108 0 200 255
0.417692 0.239987 0.157449 0 200 255
0.482681 0.363919 0.187363 0 200 255
0.444287 0.322432 0.181342 0 200 255
0.455175 0.375832 0.177125 0 200 255
0.439265 0.394244 0.184226 0 200 255
0.344973 0.389428 0.171205 0 200 255
0.450601 0.396567 0.133839 0 200 255
0.433446 0.282891 0.206837 0 200 255
0.431905 0.339976 0.193210 0 200 255
0.467799 0.338394 0.175704 0 200 255
0.417391 0.260997 0.168691 0 200 255
0.470711 0.248089 0.178228 0 200 255
0.460159 0.339649 0.178882 0 200 255
0.425379 0.357847 0.155928 0 200 255
0.462096 0.380328 0.178261 0 200 255
0.353039 0.236023 0.148736 0 200 255
0.487524 0.352460 0.205345 0 200 255
0.458442 0.272581 0.170572 0 200 255
0.373014 0.368808 0.186081 0 200 255
0.499273 0.335863 0.205306 0 200 255
0.499531 0.267210 0.182953 0 200 255
0.429018 0.306248 0.206608 0 200 255
0.379169 0.244413 0.151625 0 200 255
0.493063 0.271655 0.179327 0 200 255
0.438115 0.351453 0.197158 0 200 255
0.502793 0.282813 0.171009 0 200 255
0.476122 0.250268 0.203650 0 200 255
0.466906 0.391630 0.180011 0 200 255
0.431602 0.388370 0.160182 0 200 255
0.492061 0.353535 0.191882 0 200 255
0.361772 0.358969 0.187949 0 200 255
0.391977 0.333752 0.190944 0 200 255
0.403142 0.345508 0.189092 0 200 255
0.466642 0.364339 0.167555 0 200 255
0.490227 0.252080 0.168913 0 200 255
0.439249 0.365663 0.113341 0 200 255
0.465085 0.386843 0.153701 0 200 255
0.464875 0.241371 0.182504 0 200 255
0.425519 0.247568 0.169305 0 200 255
0.403837 0.332755 0.187317 0 200 255
0.428977 0.405764 0.139316 0 200 255
0.507997 0.313089 0.184033 0 200 255
0.455321 0.327044 0.188875 0 200 255
0.392223 0.344164 0.175321 0 200 255
0.475433 0.260115 0.186961 0 200 255
0.485456 0.357238 0.181686 0 200 255
0.437587 0.391553 0.176572 0 200 255
0.358668 0.253160 0.153135 0 200 255
0.428742 0.324190 0.211302 0 200 255
0.443805 0.256636 0.185953 0 200 255
0.461377 0.289953 0.207982 0 200 255
0.366041 0.243173 0.146198 0 200 255
0.335537 0.235514 0.140372 0 200 255
0.443899 0.272452 0.206690 0 200 255
0.412229 0.229092 0.160489 0 200 255
0.361970 0.369689 0.182693 0 200 255
0.363823 0.374032 0.174543 0 200 255
0.459244 0.404992 0.166647 0 200 255
0.448347 0.400926 0.152472 0 200 255
0.440207 0.407425 0.167500 0 200 255
0.463261 0.406572 0.156723 0 200 255
0.374900 0.350049 0.199142 0 200 255
0.412447 0.338129 0.192904 0 200 255
0.453673 0.357378 0.181798 0 200 255
0.413129 0.328955 0.198793 0 200 255
0.508020 0.304729 0.180869 0 200 255
0.457567 0.270889 0.210350 0 200 255
0.492755 0.312600 0.172699 0 200 255
0.386143 0.245201 0.153277 0 200 255
0.472079 0.360964 0.179965 0 200 255
0.415400 0.336358 0.185571 0 200 255
0.428427 0.394860 0.170069 0 200 255
0.412866 0.232769 0.145590 0 200 255
0.441237 0.339566 0.172261 0 200 255
0.403966 0.234984 0.149023 0 200 255
0.440231 0.363725 0.126131 0 200 255
0.471971 0.256227 0.180395 0 200 255
0.471964 0.243046 0.195091 0 200 255
0.434402 0.366964 0.156654 0 200 255
0.446545 0.279785 0.174189 0 200 255
0.492993 0.257288 0.211107 0 200 255
0.434099 0.408277 0.146243 0 200 255
0.446275 0.395673 0.172414 0 200 255
0.420405 0.327593 0.193347 0 200 255
0.452774 0.358322 0.195829 0 200 255
0.457479 0.334843 0.196568 0 200 255
0.396149 0.242843 0.143051 0 200 255
0.458246 0.368888 0.185919 0 200 255
0.344857 0.385039 0.184583 0 200 255
0.417571 0.305745 0.203875 0 200 255
0.425902 0.353908 0.166258 0 200 255
0.397295 0.255236 0.154918 0 200 255
0.385750 0.253697 0.166946 0 200 255
0.505365 0.329984 0.190437 0 200 255
0.487511 0.345207 0.177901 0 200 255
0.426202 0.299170 0.209498 0 200 255
0.381686 0.351250 0.193559 0 200 255
0.461805 0.393329 0.169991 0 200 255
0.422345 0.321134 0.177940 0 200 255
0.458005 0.400696 0.125854 0 200 255
0.409505 0.244512 0.182037 0 200 255
0.411604 0.314078 0.196648 0 200 255
0.359749 0.234742 0.151869 0 200 255
0.496610 0.338343 0.179243 0 200 255
0.420569 0.291113 0.182300 0 200 255
0.338327 0.237047 0.157950 0 200 255
0.495443 0.260916 0.166202 0 200 255
0.362411 0.228001 0.165432 0 200 255
0.492311 0.292333 0.167515 0 200 255
0.461121 0.410760 0.123032 0 200 255
0.428545 0.349346 0.133149 0 200 255
0.402847 0.258417 0.165903 0 200 255
0.437450 0.395972 0.165093 0 200 255
0.392595 0.353734 0.178591 0 200 255
0.449948 0.331914 0.192761 0 200 255
0.473649 0.286469 0.206395 0 200 255
0.408270 0.328482 0.178968 0 200 255
0.458841 0.377998 0.165904 0 200 255
0.374886 0.362798 0.198025 0 200 255
0.442156 0.312075 0.206889 0 200 255
0.435895 0.378889 0.181830 0 200 255
0.372927 0.231283 0.161198 0 200 255
0.465806 0.350159 0.196680 0 200 255
0.359138 0.237293 0.137445 0 200 255
0.427849 0.312885 0.193803 0 200 255
0.330422 0.248259 0.142762 0 200 255
0.382902 0.245664 0.162866 0 200 255
0.438581 0.352557 0.123266 0 200 255
0.407743 0.254795 0.180426 0 200 255
0.437715 0.412468 0.154902 0 200 255
0.479212 0.371989 0.172902 0 200 255
0.496643 0.267308 0.170413 0 200 255
0.431500 0.401205 0.150911 0 200 255
0.429193 0.274463 0.187126 0 200 255
0.439366 0.371851 0.184710 0 200 255
0.439631 0.319555 0.189476 0 200 255
0.448521 0.352194 0.182103 0 200 255
0.491360 0.343241 0.199707 0 200 255
0.473596 0.373944 0.193579 0 200 255
0.504750 0.255631 0.178421 0 200 255
0.481387 0.346457 0.207133 0 200 255
0.467231 0.349860 0.185944 0 200 255
0.348822 0.230498 0.145127 0 200 255
0.374712 0.245599 0.156771 0 200 255
0.446132 0.301348 0.173424 0 200 255
0.436093 0.412563 0.165564 0 200 255
0.378265 0.354764 0.176233 0 200 255
0.483390 0.303459 0.168627 0 200 255
0.404147 0.342536 0.195356 0 200 255
0.451184 0.384859 0.165572 0 200 255
0.392810 0.229011 0.172414 0 200 255
0.473457 0.286041 0.170911 0 200 255
0.364029 0.252119 0.148617 0 200 255
0.464156 0.348483 0.179765 0 200 255
0.432161 0.240289 0.156899 0 200 255
0.435815 0.323278 0.198531 0 200 255
0.356694 0.238886 0.161373 0 200 255
0.418071 0.257716 0.162786 0 200 255
0.422250 0.424440 0.138331 0 200 255
0.441273 0.360932 0.142158 0 200 255
0.451240 0.384300 0.174399 0 200 255
0.437657 0.260244 0.171305 0 200 255
0.371522 0.229881 0.144852 0 200 255
0.383509 0.360572 0.188582 0 200 255
0.476306 0.273547 0.169922 0 200 255
0.394895 0.250081 0.158557 0 200 255
0.471803 0.311062 0.211838 0 200 255
0.466102 0.364058 0.195598 0 200 255
0.476888 0.337017 0.171452 0 200 255
0.468991 0.237500 0.192706 0 200 255
0.405336 0.228041 0.154479 0 200 255
0.362196 0.229272 0.138713 0 200 255
0.454351 0.269005 0.203449 0 200 255
0.359465 0.369563 0.170469 0 200 255
0.398761 0.255365 0.176509 0 200 255
0.444002 0.348005 0.184768 0 200 255
0.453297 0.359223 0.173211 0 200 255
0.404291 0.337468 0.181403 0 200 255
0.367601 0.225888 0.154110 0 200 255
0.423573 0.237877 0.167071 0 200 255
0.394436 0.231745 0.148730 0 200 255
0.450259 0.368869 0.197693 0 200 255
0.471135 0.372450 0.162741 0 200 255
0.481626 0.252492 0.211867 0 200 255
0.479691 0.253886 0.169988 0 200 255
0.388683 0.341651 0.201877 0 200 255
0.381582 0.341679 0.191411 0 200 255
0.447260 0.291919 0.211552 0 200 255
0.406842 0.255870 0.144761 0 200 255
0.475485 0.289795 0.213267 0 200 255
0.507205 0.298573 0.170272 0 200 255
0.374553 0.244781 0.145444 0 200 255
0.464634 0.263321 0.177747 0 200 255
0.453668 0.303016 0.168861 0 200 255
0.450942 0.399318 0.158378 0 200 255
0.432475 0.423853 0.141413 0 200 255
0.367044 0.233490 0.151600 0 200 255
0.336065 0.242715 0.149370 0 200 255
0.374304 0.353199 0.192964 0 200 255
0.360556 0.249566 0.139811 0 200 255
0.373983 0.347726 0.187995 0 200 255
0.459444 0.272054 0.189797 0 200 255
0.450928 0.256655 0.171317 0 200 255
0.423951 0.246763 0.162906 0 200 255
0.429938 0.314189 0.200684 0 200 255
0.440980 0.368717 0.171016 0 200 255
0.426303 0.423307 0.147587 0 200 255
0.470519 0.264991 0.167217 0 200 255
0.453648 0.403485 0.147543 0 200 255
0.375647 0.363972 0.190020 0 200 255
0.463530 0.371343 0.189424 0 200 255
0.465130 0.403487 0.128165 0 200 255
0.428664 0.409789 0.156701 0 200 255
0.367794 0.238910 0.169745 0 200 255
0.434251 0.359345 0.157411 0 200 255
0.435311 0.287630 0.168336 0 200 255
0.393984 0.344399 0.194534 0 200 255
0.426795 0.360007 0.105533 0 200 255
0.466878 0.400144 0.147227 0 200 255
0.424986 0.251017 0.148373 0 200 255
0.482201 0.266103 0.184207 0 200 255
0.402545 0.238843 0.175005 0 200 255
0.463623 0.263848 0.208450 0 200 255
0.468565 0.304422 0.169499 0 200 255
0.356305 0.381702 0.186728 0 200 255
0.417291 0.242150 0.145478 0 200 255
0.478979 0.295686 0.171579 0 200 255
0.481153 0.266565 0.172557 0 200 255
0.421168 0.248860 0.182735 0 200 255
0.337760 0.387342 0.179046 0 200 255
0.474636 0.338136 0.211321 0 200 255
0.381185 0.356973 0.199039 0 200 255
0.442170 0.405113 0.152156 0 200 255
0.438037 0.359698 0.183974 0 200 255
0.389001 0.252094 0.152057 0 200 255
