ply
format ascii 1.0
element vertex 1024
property float x
property float y
property float z
property uchar red
property uchar green
property uchar blue
end_header
0.439622 0.262697 0.154621 0 200 255
0.336422 0.376626 0.095950 0 200 255
0.458289 0.390601 0.138520 0 200 255
0.332382 0.266302 0.119292 0 200 255
0.379984 0.332670 0.164707 0 200 255
0.421749 0.347882 0.065332 0 200 255
0.484366 0.325240 0.175872 0 200 255
0.390956 0.245858 0.119197 0 200 255
0.448805 0.400478 0.079822 0 200 255
0.409531 0.361946 0.121924 0 200 255
0.438496 0.317062 0.140997 0 200 255
0.483646 0.286224 0.139275 0 200 255
0.413483 0.298812 0.180682 0 200 255
0.439196 0.343420 0.182566 0 200 255
0.353952 0.364636 0.138982 0 200 255
0.478232 0.248986 0.177171 0 200 255
0.368256 0.273319 0.147119 0 200 255
0.458654 0.290866 0.181352 0 200 255
0.406252 0.287733 0.140943 0 200 255
0.464715 0.348988 0.149628 0 200 255
0.323235 0.304912 0.119291 0 200 255
0.422342 0.397385 0.109120 0 200 255
0.471655 0.249853 0.134933 0 200 255
0.403204 0.250642 0.155816 0 200 255
0.429695 0.368984 0.153802 0 200 255
0.365287 0.271035 0.112506 0 200 255
0.381575 0.345602 0.133750 0 200 255
0.412889 0.326968 0.162249 0 200 255
0.423538 0.369840 0.090271 0 200 255
0.359657 0.244992 0.132524 0 200 255
0.486339 0.318968 0.143669 0 200 255
0.490704 0.293402 0.170321 0 200 255
0.447542 0.240037 0.174927 0 200 255
0.353473 0.353765 0.109627 0 200 255
0.453208 0.405130 0.111270 0 200 255
0.438789 0.373074 0.121491 0 200 255
0.450497 0.288824 0.138387 0 200 255
0.430815 0.346407 0.134918 0 200 255
0.438225 0.314008 0.183888 0 200 255
0.421165 0.270402 0.175435 0 200 255
0.345300 0.289486 0.129554 0 200 255
0.455782 0.370665 0.165581 0 200 255
0.466334 0.348694 0.180750 0 200 255
0.421755 0.395535 0.081246 0 200 255
0.343049 0.263942 0.144073 0 200 255
0.472271 0.266279 0.157357 0 200 255
0.395334 0.311266 0.149273 0 200 255
0.456501 0.264363 0.180851 0 200 255
0.427900 0.391455 0.137001 0 200 255
0.390145 0.269785 0.130267 0 200 255
0.444289 0.239805 0.142613 0 200 255
0.378224 0.248181 0.149673 0 200 255
0.447856 0.383765 0.098685 0 200 255
0.361864 0.342476 0.149002 0 200 255
0.417924 0.264675 0.141629 0 200 255
0.463347 0.310835 0.139436 0 200 255
0.440336 0.339327 0.156625 0 200 255
0.412568 0.351471 0.154916 0 200 255
0.460168 0.324890 0.183205 0 200 255
0.444426 0.305565 0.161824 0 200 255
0.459740 0.366687 0.132211 0 200 255
0.335411 0.288405 0.106752 0 200 255
0.416931 0.346733 0.088810 0 200 255
0.397202 0.314602 0.174871 0 200 255
0.434971 0.289787 0.176226 0 200 255
0.476552 0.276477 0.178070 0 200 255
0.344315 0.373463 0.117725 0 200 255
0.324524 0.282031 0.133825 0 200 255
0.417575 0.336497 0.181988 0 200 255
0.428072 0.291361 0.137340 0 200 255
0.395743 0.334009 0.148877 0 200 255
0.427335 0.358148 0.108643 0 200 255
0.453468 0.265767 0.137732 0 200 255
0.404902 0.285394 0.162827 0 200 255
0.351213 0.254036 0.114328 0 200 255
0.414519 0.323346 0.140692 0 200 255
0.483216 0.337184 0.155181 0 200 255
0.391953 0.270661 0.151817 0 200 255
0.454500 0.331724 0.141678 0 200 255
0.361120 0.345480 0.127711 0 200 255
0.408849 0.255922 0.124061 0 200 255
0.456528 0.383807 0.118472 0 200 255
0.447581 0.360663 0.147680 0 200 255
0.472594 0.305866 0.180306 0 200 255
0.372257 0.251037 0.112621 0 200 255
0.440572 0.356983 0.167341 0 200 255
0.458951 0.336762 0.166109 0 200 255
0.492335 0.301341 0.151946 0 200 255
0.424544 0.366211 0.134549 0 200 255
0.357732 0.267218 0.130666 0 200 255
0.399698 0.243966 0.136800 0 200 255
0.409189 0.369863 0.103756 0 200 255
0.486134 0.253910 0.151130 0 200 255
0.422074 0.255780 0.159929 0 200 255
0.443702 0.398036 0.127635 0 200 255
0.380108 0.348958 0.152724 0 200 255
0.488782 0.278331 0.156001 0 200 255
0.472199 0.270832 0.138717 0 200 255
0.434924 0.399776 0.094433 0 200 255
0.414747 0.317824 0.182632 0 200 255
0.429897 0.380187 0.104574 0 200 255
0.441224 0.378981 0.142952 0 200 255
0.343176 0.355955 0.126397 0 200 255
0.359420 0.256066 0.148463 0 200 255
0.413607 0.360591 0.076783 0 200 255
0.465937 0.368906 0.150070 0 200 255
0.347331 0.276546 0.115319 0 200 255
0.437113 0.255491 0.171423 0 200 255
0.419688 0.346221 0.120326 0 200 255
0.336725 0.361386 0.106096 0 200 255
0.378104 0.243465 0.132037 0 200 255
0.422324 0.274736 0.156208 0 200 255
0.362600 0.362982 0.122851 0 200 255
0.455320 0.255647 0.160528 0 200 255
0.438808 0.271452 0.179783 0 200 255
0.429613 0.324903 0.155368 0 200 255
0.378177 0.331631 0.145790 0 200 255
0.434962 0.384118 0.085688 0 200 255
0.319896 0.287300 0.117348 0 200 255
0.469243 0.358885 0.164448 0 200 255
0.435700 0.273083 0.140670 0 200 255
0.350794 0.365336 0.095990 0 200 255
0.397330 0.331753 0.169251 0 200 255
0.413556 0.349876 0.136807 0 200 255
0.430041 0.355240 0.080131 0 200 255
0.487879 0.315981 0.161365 0 200 255
0.423438 0.384621 0.121463 0 200 255
0.418808 0.306603 0.138749 0 200 255
0.478819 0.302975 0.139482 0 200 255
0.479666 0.344491 0.170420 0 200 255
0.432599 0.255993 0.138934 0 200 255
0.455199 0.382049 0.152916 0 200 255
0.422406 0.338888 0.149094 0 200 255
0.455781 0.401180 0.095054 0 200 255
0.423117 0.346461 0.169706 0 200 255
0.440561 0.394202 0.109561 0 200 255
0.369946 0.356634 0.138544 0 200 255
0.442328 0.242916 0.158882 0 200 255
0.466736 0.286881 0.141078 0 200 255
0.380566 0.264941 0.115768 0 200 255
0.402216 0.259992 0.141061 0 200 255
0.397716 0.300051 0.164033 0 200 255
0.442584 0.278672 0.155220 0 200 255
0.432431 0.329239 0.178511 0 200 255
0.473787 0.333649 0.142557 0 200 255
0.439566 0.359638 0.133048 0 200 255
0.412501 0.353854 0.104717 0 200 255
0.463240 0.245107 0.180796 0 200 255
0.339966 0.274608 0.131213 0 200 255
0.408450 0.267193 0.154456 0 200 255
0.453394 0.309845 0.181971 0 200 255
0.329274 0.296889 0.131552 0 200 255
0.412878 0.364255 0.145774 0 200 255
0.454266 0.353484 0.160558 0 200 255
0.374642 0.268273 0.131565 0 200 255
0.433044 0.353871 0.151904 0 200 255
0.437793 0.333214 0.142547 0 200 255
0.423864 0.368825 0.119334 0 200 255
0.337338 0.298638 0.118098 0 200 255
0.337836 0.257343 0.131192 0 200 255
0.421352 0.389759 0.095470 0 200 255
0.448746 0.303844 0.139692 0 200 255
0.405555 0.312757 0.160393 0 200 255
0.429286 0.398601 0.122934 0 200 255
0.482069 0.260340 0.167883 0 200 255
0.390131 0.322977 0.157556 0 200 255
0.351943 0.349219 0.139826 0 200 255
0.396390 0.262435 0.118563 0 200 255
0.472139 0.291133 0.175242 0 200 255
0.428798 0.302874 0.179269 0 200 255
0.458017 0.244714 0.136983 0 200 255
0.336039 0.273165 0.106644 0 200 255
0.410209 0.363009 0.090897 0 200 255
0.455807 0.388803 0.087437 0 200 255
0.413600 0.251099 0.145759 0 200 255
0.425965 0.378710 0.143823 0 200 255
0.333423 0.283021 0.119957 0 200 255
0.452873 0.339191 0.181635 0 200 255
0.485718 0.309930 0.176365 0 200 255
0.412387 0.283795 0.174892 0 200 255
0.369857 0.337780 0.135954 0 200 255
0.355661 0.368307 0.110797 0 200 255
0.379044 0.264254 0.148978 0 200 255
0.390072 0.341877 0.160793 0 200 255
0.360824 0.356526 0.150023 0 200 255
0.322652 0.296730 0.107219 0 200 255
0.417126 0.279236 0.138092 0 200 255
0.390380 0.256112 0.154273 0 200 255
0.459010 0.390538 0.103822 0 200 255
0.393362 0.254935 0.130781 0 200 255
0.442631 0.370149 0.159006 0 200 255
0.456697 0.397312 0.122666 0 200 255
0.472655 0.332368 0.178329 0 200 255
0.436373 0.386217 0.127312 0 200 255
0.469645 0.260159 0.179395 0 200 255
0.433783 0.303837 0.139076 0 200 255
0.369843 0.343019 0.160226 0 200 255
0.451361 0.255293 0.147476 0 200 255
0.446305 0.327442 0.183749 0 200 255
0.450624 0.319206 0.146811 0 200 255
0.444981 0.392739 0.140265 0 200 255
0.364062 0.258627 0.122256 0 200 255
0.429684 0.354983 0.093697 0 200 255
0.444514 0.299763 0.182467 0 200 255
0.402944 0.322279 0.149385 0 200 255
0.446145 0.282662 0.174484 0 200 255
0.354994 0.269871 0.143749 0 200 255
0.425055 0.360504 0.068942 0 200 255
0.462302 0.380194 0.129919 0 200 255
0.428929 0.355295 0.122905 0 200 255
0.366375 0.245811 0.144064 0 200 255
0.485883 0.277791 0.168921 0 200 255
0.447925 0.372664 0.133609 0 200 255
0.439272 0.331759 0.167614 0 200 255
0.463390 0.266591 0.147745 0 200 255
0.368154 0.243216 0.122743 0 200 255
0.346987 0.265631 0.108180 0 200 255
0.407920 0.300320 0.143561 0 200 255
0.415008 0.372166 0.128073 0 200 255
0.448480 0.348086 0.150123 0 200 255
0.409047 0.273600 0.165734 0 200 255
0.481465 0.270578 0.147568 0 200 255
0.345296 0.372881 0.104732 0 200 255
0.416579 0.340062 0.160380 0 200 255
0.369382 0.253188 0.132834 0 200 255
0.399736 0.295022 0.152529 0 200 255
0.462377 0.379195 0.142593 0 200 255
0.387585 0.244811 0.140564 0 200 255
0.423006 0.288135 0.180327 0 200 255
0.422736 0.369296 0.104739 0 200 255
0.338498 0.364776 0.092002 0 200 255
0.450354 0.384996 0.130403 0 200 255
0.464643 0.274300 0.181642 0 200 255
0.350919 0.256727 0.129297 0 200 255
0.425819 0.330941 0.165686 0 200 255
0.405947 0.332007 0.180689 0 200 255
0.388542 0.344089 0.144876 0 200 255
0.433831 0.398593 0.081921 0 200 255
0.348716 0.367068 0.127502 0 200 255
0.444889 0.403739 0.100759 0 200 255
0.419773 0.362202 0.156917 0 200 255
0.461148 0.358772 0.141640 0 200 255
0.430514 0.252715 0.150694 0 200 255
0.462818 0.321212 0.146892 0 200 255
0.437858 0.383191 0.114467 0 200 255
0.409191 0.318635 0.170574 0 200 255
0.384309 0.272011 0.140863 0 200 255
0.345634 0.361178 0.115499 0 200 255
0.418009 0.344914 0.076619 0 200 255
0.429755 0.344858 0.159527 0 200 255
0.438428 0.343782 0.169581 0 200 255
0.483231 0.327338 0.162315 0 200 255
0.474861 0.314670 0.140109 0 200 255
0.402557 0.304121 0.177899 0 200 255
0.421850 0.287327 0.146932 0 200 255
0.447281 0.251794 0.177821 0 200 255
0.427676 0.326666 0.141595 0 200 255
0.345064 0.289297 0.113927 0 200 255
0.409858 0.362696 0.134236 0 200 255
0.426303 0.314011 0.144546 0 200 255
0.403624 0.333301 0.158006 0 200 255
0.478371 0.348095 0.154608 0 200 255
0.407749 0.282284 0.151453 0 200 255
0.469887 0.339029 0.161917 0 200 255
0.428251 0.317732 0.178512 0 200 255
0.371407 0.354467 0.126937 0 200 255
0.318121 0.297389 0.127448 0 200 255
0.470404 0.319017 0.181780 0 200 255
0.332109 0.266669 0.135717 0 200 255
0.425016 0.361683 0.145468 0 200 255
0.335576 0.284728 0.136955 0 200 255
0.449819 0.344054 0.166886 0 200 255
0.402308 0.246215 0.124317 0 200 255
0.339999 0.256983 0.115807 0 200 255
0.348943 0.266731 0.123001 0 200 255
0.352190 0.349946 0.121722 0 200 255
0.379714 0.243032 0.120144 0 200 255
0.472358 0.257617 0.143515 0 200 255
0.445085 0.389990 0.083196 0 200 255
0.326282 0.274565 0.124641 0 200 255
0.458810 0.256242 0.133962 0 200 255
0.451242 0.333007 0.152670 0 200 255
0.453898 0.280512 0.183145 0 200 255
0.360694 0.247471 0.114342 0 200 255
0.433634 0.271980 0.157961 0 200 255
0.423738 0.380747 0.132721 0 200 255
0.419764 0.361082 0.097008 0 200 255
0.431356 0.362468 0.163132 0 200 255
0.452282 0.370989 0.151977 0 200 255
0.418429 0.357254 0.116402 0 200 255
0.483689 0.292466 0.148891 0 200 255
0.425468 0.260143 0.169968 0 200 255
0.417758 0.325627 0.151432 0 200 255
0.326774 0.277227 0.112731 0 200 255
0.490874 0.292051 0.159015 0 200 255
0.411694 0.370700 0.114827 0 200 255
0.492158 0.303961 0.166343 0 200 255
0.367013 0.272646 0.124365 0 200 255
0.437763 0.352534 0.141727 0 200 255
0.428893 0.340858 0.178754 0 200 255
0.445977 0.278738 0.140557 0 200 255
0.458008 0.360371 0.152485 0 200 255
0.420660 0.341861 0.133294 0 200 255
0.435372 0.387204 0.096490 0 200 255
0.462275 0.338572 0.146032 0 200 255
0.384075 0.254297 0.115043 0 200 255
0.395475 0.248717 0.147490 0 200 255
0.347750 0.280606 0.136485 0 200 255
0.365814 0.274015 0.135362 0 200 255
0.384810 0.333592 0.154494 0 200 255
0.422404 0.263752 0.152280 0 200 255
0.469652 0.358522 0.152222 0 200 255
0.413598 0.331775 0.172154 0 200 255
0.432577 0.400879 0.105962 0 200 255
0.364498 0.260238 0.110545 0 200 255
0.424684 0.365652 0.080176 0 200 255
0.379867 0.343939 0.164594 0 200 255
0.452582 0.393345 0.112213 0 200 255
0.424084 0.385172 0.085302 0 200 255
0.449389 0.375268 0.123032 0 200 255
0.464582 0.298980 0.176150 0 200 255
0.445062 0.399215 0.090393 0 200 255
0.394659 0.310520 0.163418 0 200 255
0.460342 0.273904 0.140070 0 200 255
0.438728 0.289145 0.137670 0 200 255
0.458151 0.343867 0.157253 0 200 255
0.443488 0.261476 0.137609 0 200 255
0.482033 0.295190 0.176819 0 200 255
0.373543 0.334074 0.155243 0 200 255
0.430345 0.389859 0.110515 0 200 255
0.451953 0.381920 0.142425 0 200 255
0.398700 0.262300 0.151280 0 200 255
0.379619 0.252185 0.138138 0 200 255
0.436789 0.377169 0.153337 0 200 255
0.462394 0.375207 0.158436 0 200 255
0.439947 0.328631 0.155810 0 200 255
0.389701 0.243899 0.129645 0 200 255
0.453807 0.398799 0.133321 0 200 255
0.345857 0.357170 0.100812 0 200 255
0.424296 0.399397 0.091916 0 200 255
0.428530 0.345564 0.074892 0 200 255
0.443819 0.390096 0.120528 0 200 255
0.484944 0.328991 0.146970 0 200 255
0.443962 0.262235 0.178475 0 200 255
0.388834 0.325468 0.168148 0 200 255
0.421303 0.326594 0.182909 0 200 255
0.356912 0.258331 0.137898 0 200 255
0.428924 0.377178 0.114694 0 200 255
0.370491 0.350541 0.148585 0 200 255
0.351452 0.283789 0.123102 0 200 255
0.399130 0.263779 0.130171 0 200 255
0.354341 0.357827 0.128437 0 200 255
0.429484 0.276776 0.174119 0 200 255
0.421951 0.351703 0.150155 0 200 255
0.355843 0.248362 0.141730 0 200 255
0.432430 0.254490 0.161062 0 200 255
0.463619 0.334851 0.183008 0 200 255
0.406068 0.310566 0.144403 0 200 255
0.345842 0.266425 0.133967 0 200 255
0.415732 0.263736 0.162276 0 200 255
0.412358 0.257252 0.154097 0 200 255
0.478392 0.270870 0.166744 0 200 255
0.456914 0.347874 0.176357 0 200 255
0.427137 0.346570 0.085170 0 200 255
0.413208 0.351480 0.126542 0 200 255
0.464575 0.259309 0.157048 0 200 255
0.369188 0.261472 0.150628 0 200 255
0.445459 0.402655 0.117705 0 200 255
0.426184 0.273034 0.144787 0 200 255
0.335954 0.275210 0.140983 0 200 255
0.324591 0.286189 0.108075 0 200 255
0.450661 0.363214 0.160658 0 200 255
0.396589 0.268590 0.140820 0 200 255
0.374081 0.251536 0.123743 0 200 255
0.427334 0.380049 0.094639 0 200 255
0.484369 0.252222 0.162077 0 200 255
0.400391 0.322939 0.179876 0 200 255
0.419922 0.320496 0.165879 0 200 255
0.421857 0.386664 0.105828 0 200 255
0.378287 0.350959 0.142013 0 200 255
0.360605 0.343552 0.138943 0 200 255
0.332164 0.369296 0.101600 0 200 255
0.334965 0.289226 0.127861 0 200 255
0.384320 0.337106 0.138591 0 200 255
0.433009 0.386040 0.143904 0 200 255
0.431624 0.364484 0.126228 0 200 255
0.482447 0.335124 0.173072 0 200 255
0.440703 0.360108 0.155083 0 200 255
0.415688 0.290170 0.138220 0 200 255
0.463412 0.353113 0.170366 0 200 255
0.441794 0.307690 0.145938 0 200 255
0.423208 0.255650 0.144361 0 200 255
0.355592 0.264239 0.113291 0 200 255
0.468797 0.342939 0.171162 0 200 255
0.426037 0.353959 0.162041 0 200 255
0.397490 0.319988 0.165459 0 200 255
0.409582 0.361477 0.111381 0 200 255
0.456440 0.297476 0.138737 0 200 255
0.478875 0.342238 0.146488 0 200 255
0.414804 0.352683 0.070772 0 200 255
0.356472 0.251041 0.122653 0 200 255
0.346876 0.357850 0.135430 0 200 255
0.428143 0.356549 0.137550 0 200 255
0.324324 0.289452 0.125954 0 200 255
0.447223 0.345991 0.177085 0 200 255
0.439459 0.283933 0.182826 0 200 255
0.446126 0.385977 0.108176 0 200 255
0.337286 0.366643 0.114449 0 200 255
0.431507 0.264859 0.176210 0 200 255
0.429758 0.345374 0.147915 0 200 255
0.431896 0.265229 0.149033 0 200 255
0.450839 0.364351 0.137980 0 200 255
0.411075 0.308405 0.180278 0 200 255
0.388946 0.326903 0.148604 0 200 255
0.439109 0.254610 0.146370 0 200 255
0.440791 0.243907 0.168975 0 200 255
0.490451 0.297204 0.143289 0 200 255
0.430712 0.388969 0.078357 0 200 255
0.464410 0.328931 0.141143 0 200 255
0.479954 0.252427 0.140320 0 200 255
0.317305 0.296503 0.115565 0 200 255
0.345519 0.372801 0.092697 0 200 255
0.412716 0.354314 0.095016 0 200 255
0.471945 0.296322 0.138148 0 200 255
0.407508 0.267312 0.144849 0 200 255
0.434973 0.278955 0.149294 0 200 255
0.372486 0.253918 0.144448 0 200 255
0.445642 0.247525 0.148217 0 200 255
0.465617 0.367935 0.163866 0 200 255
0.404074 0.250192 0.142701 0 200 255
0.348876 0.275667 0.127736 0 200 255
0.444165 0.370498 0.146409 0 200 255
0.350217 0.257586 0.144765 0 200 255
0.456726 0.300909 0.183049 0 200 255
0.470216 0.348575 0.162655 0 200 255
0.363456 0.357809 0.131371 0 200 255
0.411272 0.319242 0.156348 0 200 255
0.426716 0.372825 0.128040 0 200 255
0.476743 0.279159 0.137900 0 200 255
0.352357 0.356883 0.145434 0 200 255
0.384722 0.270178 0.122507 0 200 255
0.355243 0.272710 0.119228 0 200 255
0.415512 0.343964 0.145046 0 200 255
0.441165 0.393766 0.100090 0 200 255
0.414837 0.349060 0.163782 0 200 255
0.421027 0.395044 0.120018 0 200 255
0.418787 0.361194 0.086031 0 200 255
0.470504 0.340220 0.150329 0 200 255
0.455833 0.398715 0.085834 0 200 255
0.360431 0.357672 0.140663 0 200 255
0.373384 0.271307 0.117580 0 200 255
0.473188 0.262178 0.170333 0 200 255
0.441302 0.379257 0.132664 0 200 255
0.458429 0.360475 0.165213 0 200 255
0.420296 0.374367 0.112216 0 200 255
0.455053 0.263323 0.150514 0 200 255
0.453899 0.244930 0.180746 0 200 255
0.404779 0.326369 0.167625 0 200 255
0.489806 0.317175 0.152325 0 200 255
0.452237 0.390719 0.145742 0 200 255
0.370203 0.343509 0.128252 0 200 255
0.361675 0.353823 0.121664 0 200 255
0.368628 0.243240 0.134109 0 200 255
0.355614 0.361350 0.104663 0 200 255
0.418530 0.360379 0.138522 0 200 255
0.339975 0.268765 0.123954 0 200 255
0.480465 0.286095 0.176990 0 200 255
0.340928 0.282562 0.125291 0 200 255
0.382614 0.250749 0.128635 0 200 255
0.422183 0.389966 0.129957 0 200 255
0.412164 0.353402 0.145948 0 200 255
0.489062 0.316220 0.170580 0 200 255
0.455396 0.399058 0.103968 0 200 255
0.465301 0.371360 0.138871 0 200 255
0.458841 0.258404 0.142835 0 200 255
0.436363 0.298799 0.175855 0 200 255
0.435044 0.391537 0.118503 0 200 255
0.469865 0.284167 0.180661 0 200 255
0.447395 0.316445 0.183837 0 200 255
0.430662 0.334094 0.148149 0 200 255
0.477852 0.257721 0.150762 0 200 255
0.338063 0.272331 0.115461 0 200 255
0.355285 0.359695 0.118594 0 200 255
0.404592 0.295967 0.174463 0 200 255
0.436791 0.388881 0.135973 0 200 255
0.413120 0.353497 0.084123 0 200 255
0.332396 0.295819 0.111037 0 200 255
0.449215 0.312868 0.140381 0 200 255
0.420954 0.350679 0.095954 0 200 255
0.438714 0.382566 0.103499 0 200 255
0.427700 0.361952 0.088313 0 200 255
0.459410 0.388590 0.125562 0 200 255
0.424893 0.310032 0.183055 0 200 255
0.456114 0.281834 0.137963 0 200 255
0.426130 0.302861 0.143645 0 200 255
0.434020 0.394796 0.129500 0 200 255
0.399527 0.317479 0.142657 0 200 255
0.444830 0.291550 0.178963 0 200 255
0.396209 0.253082 0.119103 0 200 255
0.340188 0.363548 0.122301 0 200 255
0.359778 0.253887 0.130438 0 200 255
0.469723 0.250622 0.175039 0 200 255
0.417371 0.371051 0.097837 0 200 255
0.379846 0.256345 0.153016 0 200 255
0.385450 0.252045 0.145320 0 200 255
0.429401 0.395273 0.099791 0 200 255
0.435696 0.350236 0.163432 0 200 255
0.482608 0.272024 0.157252 0 200 255
0.473208 0.349736 0.174874 0 200 255
0.479470 0.284762 0.147443 0 200 255
0.409866 0.329722 0.151885 0 200 255
0.437627 0.320511 0.177843 0 200 255
0.456089 0.322853 0.140814 0 200 255
0.396968 0.303496 0.153279 0 200 255
0.478839 0.316945 0.179903 0 200 255
0.487879 0.301334 0.174167 0 200 255
0.411020 0.258924 0.141314 0 200 255
0.439914 0.334603 0.183206 0 200 255
0.437243 0.393125 0.089064 0 200 255
0.486696 0.306394 0.147383 0 200 255
0.443679 0.269452 0.141805 0 200 255
0.416778 0.363510 0.127999 0 200 255
0.429259 0.352785 0.069830 0 200 255
0.441874 0.325185 0.141751 0 200 255
0.472611 0.342540 0.179943 0 200 255
0.445320 0.356392 0.139329 0 200 255
0.370788 0.336353 0.146706 0 200 255
0.421518 0.296730 0.177711 0 200 255
0.414157 0.350377 0.112957 0 200 255
0.418157 0.361981 0.106427 0 200 255
0.443241 0.254819 0.156092 0 200 255
0.393622 0.331046 0.157392 0 200 255
0.352372 0.349152 0.130473 0 200 255
0.459102 0.345686 0.165795 0 200 255
0.444221 0.366309 0.128823 0 200 255
0.372664 0.261868 0.113543 0 200 255
0.409915 0.361419 0.099508 0 200 255
0.401508 0.323860 0.158705 0 200 255
0.415111 0.369337 0.136409 0 200 255
0.327660 0.273882 0.133424 0 200 255
0.356268 0.349125 0.148183 0 200 255
0.364125 0.350175 0.155011 0 200 255
0.440961 0.267648 0.161671 0 200 255
0.336649 0.297899 0.127021 0 200 255
0.425105 0.342226 0.140777 0 200 255
0.393759 0.257129 0.146065 0 200 255
0.490447 0.288242 0.145418 0 200 255
0.468597 0.304641 0.142502 0 200 255
0.388384 0.247506 0.152345 0 200 255
0.470710 0.270150 0.177040 0 200 255
0.430333 0.340896 0.168442 0 200 255
0.426377 0.345756 0.127508 0 200 255
0.462884 0.352776 0.160044 0 200 255
0.437969 0.346241 0.150513 0 200 255
0.439456 0.296574 0.142044 0 200 255
0.401015 0.292526 0.166703 0 200 255
0.375846 0.245108 0.141962 0 200 255
0.477624 0.252950 0.168223 0 200 255
0.465013 0.309641 0.181934 0 200 255
0.397181 0.337134 0.162523 0 200 255
0.427310 0.370206 0.143696 0 200 255
0.447908 0.382551 0.118709 0 200 255
0.447889 0.389413 0.092216 0 200 255
0.448074 0.352589 0.166433 0 200 255
0.380219 0.272737 0.149490 0 200 255
0.388744 0.335864 0.166765 0 200 255
0.373804 0.273526 0.138407 0 200 255
0.372748 0.342849 0.152175 0 200 255
0.426984 0.351477 0.115496 0 200 255
0.447598 0.378595 0.148975 0 200 255
0.398488 0.316463 0.155264 0 200 255
0.444650 0.251517 0.168810 0 200 255
0.480080 0.336117 0.163032 0 200 255
0.340288 0.281494 0.107761 0 200 255
0.338532 0.265032 0.108989 0 200 255
0.337471 0.372419 0.108215 0 200 255
0.413191 0.275593 0.158596 0 200 255
0.453472 0.296499 0.176564 0 200 255
0.357570 0.365369 0.130598 0 200 255
0.431484 0.321477 0.147122 0 200 255
0.421290 0.397675 0.100372 0 200 255
0.459550 0.367262 0.157636 0 200 255
0.438163 0.367875 0.151785 0 200 255
0.414823 0.269660 0.148408 0 200 255
0.404276 0.263154 0.121533 0 200 255
0.359977 0.351007 0.134996 0 200 255
0.361530 0.264068 0.146771 0 200 255
0.444142 0.390868 0.132074 0 200 255
0.422399 0.295459 0.142068 0 200 255
0.331900 0.280460 0.105742 0 200 255
0.457552 0.388312 0.095653 0 200 255
0.466980 0.262219 0.164664 0 200 255
0.345327 0.272307 0.139949 0 200 255
0.395855 0.253609 0.138690 0 200 255
0.336931 0.260317 0.139620 0 200 255
0.382262 0.271614 0.132635 0 200 255
0.445756 0.400764 0.109008 0 200 255
0.422641 0.389344 0.114088 0 200 255
0.446375 0.333690 0.142210 0 200 255
0.430491 0.380228 0.127102 0 200 255
0.451493 0.324606 0.177842 0 200 255
0.452409 0.392929 0.080458 0 200 255
0.427272 0.362223 0.100487 0 200 255
0.355215 0.367817 0.122325 0 200 255
0.453378 0.375989 0.159626 0 200 255
0.417952 0.304421 0.176433 0 200 255
0.409891 0.317845 0.148171 0 200 255
0.471044 0.322500 0.146941 0 200 255
0.334663 0.275862 0.123996 0 200 255
0.431031 0.381088 0.136686 0 200 255
0.387094 0.263324 0.151785 0 200 255
0.489858 0.286218 0.166239 0 200 255
0.447390 0.265548 0.154423 0 200 255
0.327614 0.289808 0.135486 0 200 255
0.456493 0.349833 0.151140 0 200 255
0.345310 0.355457 0.108877 0 200 255
0.445233 0.248220 0.140003 0 200 255
0.426693 0.358701 0.153958 0 200 255
0.387264 0.343957 0.153332 0 200 255
0.416290 0.311981 0.144449 0 200 255
0.452791 0.338747 0.146980 0 200 255
0.469130 0.261342 0.150509 0 200 255
0.468069 0.362779 0.143546 0 200 255
0.418180 0.277945 0.176748 0 200 255
0.411333 0.359300 0.152131 0 200 255
0.328444 0.302651 0.125212 0 200 255
0.416925 0.343962 0.153171 0 200 255
0.483926 0.261290 0.154932 0 200 255
0.332543 0.266636 0.127463 0 200 255
0.430886 0.397205 0.114046 0 200 255
0.420838 0.318169 0.140126 0 200 255
0.420652 0.353790 0.104233 0 200 255
0.387687 0.260889 0.118213 0 200 255
0.491404 0.306073 0.158519 0 200 255
0.405157 0.285520 0.170957 0 200 255
0.443675 0.339667 0.149215 0 200 255
0.423400 0.365374 0.111822 0 200 255
0.428831 0.284214 0.141115 0 200 255
0.336977 0.260858 0.123879 0 200 255
0.363244 0.350701 0.144358 0 200 255
0.436133 0.301121 0.183618 0 200 255
0.438784 0.365304 0.164713 0 200 255
0.388114 0.335975 0.146983 0 200 255
0.408304 0.276700 0.145616 0 200 255
0.454212 0.370239 0.127489 0 200 255
0.367968 0.251219 0.150567 0 200 255
0.413303 0.285928 0.146876 0 200 255
0.413496 0.328320 0.181848 0 200 255
0.419230 0.334246 0.154872 0 200 255
0.460272 0.341334 0.172616 0 200 255
0.421393 0.358548 0.076934 0 200 255
0.445465 0.384211 0.138268 0 200 255
0.441086 0.262424 0.145214 0 200 255
0.344530 0.265097 0.115804 0 200 255
0.329108 0.282965 0.126720 0 200 255
0.372930 0.350173 0.156208 0 200 255
0.476850 0.264241 0.143621 0 200 255
0.450570 0.405359 0.085914 0 200 255
0.377082 0.334362 0.135623 0 200 255
0.443055 0.238150 0.150332 0 200 255
0.458314 0.314640 0.146390 0 200 255
0.327460 0.302348 0.113023 0 200 255
0.448287 0.348120 0.158098 0 200 255
0.453740 0.384838 0.106089 0 200 255
0.400962 0.294944 0.144649 0 200 255
0.435348 0.390130 0.104157 0 200 255
0.416441 0.366093 0.120462 0 200 255
0.335724 0.290232 0.117505 0 200 255
0.483172 0.275401 0.140666 0 200 255
0.352726 0.271826 0.111754 0 200 255
0.449702 0.268248 0.182082 0 200 255
0.449069 0.405200 0.093878 0 200 255
0.450076 0.404027 0.123966 0 200 255
0.325015 0.294823 0.115254 0 200 255
0.323185 0.281006 0.120790 0 200 255
0.419419 0.367598 0.142911 0 200 255
0.340737 0.282957 0.115688 0 200 255
0.449808 0.336586 0.164388 0 200 255
0.441615 0.398284 0.083067 0 200 255
0.388741 0.251438 0.136119 0 200 255
0.469881 0.261344 0.137042 0 200 255
0.441480 0.353279 0.150692 0 200 255
0.376429 0.352733 0.134579 0 200 255
0.403139 0.313756 0.167804 0 200 255
0.366706 0.252134 0.118717 0 200 255
0.449010 0.356556 0.155602 0 200 255
0.402645 0.330294 0.148576 0 200 255
0.383592 0.327124 0.158790 0 200 255
0.357045 0.260192 0.125382 0 200 255
0.427547 0.359511 0.116456 0 200 255
0.487552 0.325128 0.153256 0 200 255
0.428691 0.354544 0.145461 0 200 255
0.478907 0.345020 0.161753 0 200 255
0.399463 0.257534 0.124568 0 200 255
0.438716 0.338811 0.176337 0 200 255
0.395816 0.323575 0.173638 0 200 255
0.425909 0.374505 0.136779 0 200 255
0.418692 0.253528 0.151637 0 200 255
0.447007 0.330952 0.158814 0 200 255
0.415284 0.272017 0.170687 0 200 255
0.435607 0.374087 0.144977 0 200 255
0.362234 0.275119 0.142636 0 200 255
0.440610 0.380187 0.123862 0 200 255
0.464552 0.289914 0.175917 0 200 255
0.394099 0.339810 0.153683 0 200 255
0.447761 0.285132 0.182063 0 200 255
0.451422 0.242653 0.143231 0 200 255
0.432807 0.332866 0.163085 0 200 255
0.466046 0.362220 0.158287 0 200 255
0.374553 0.338179 0.163902 0 200 255
0.464482 0.328996 0.178111 0 200 255
0.395927 0.267843 0.124498 0 200 255
0.452366 0.405608 0.101345 0 200 255
0.430448 0.338837 0.154816 0 200 255
0.359083 0.255291 0.112784 0 200 255
0.458600 0.378168 0.123219 0 200 255
0.353562 0.369555 0.103558 0 200 255
0.462231 0.316717 0.182679 0 200 255
0.455397 0.356312 0.146564 0 200 255
0.475688 0.350877 0.167455 0 200 255
0.436294 0.292650 0.183165 0 200 255
0.445431 0.365762 0.153174 0 200 255
0.400336 0.268852 0.147772 0 200 255
0.419210 0.264845 0.168953 0 200 255
0.347373 0.259626 0.137001 0 200 255
0.395898 0.248138 0.128464 0 200 255
0.458638 0.386641 0.145392 0 200 255
0.431048 0.380378 0.149216 0 200 255
0.422437 0.335515 0.170716 0 200 255
0.420758 0.272616 0.138884 0 200 255
0.425741 0.266504 0.158518 0 200 255
0.426968 0.360227 0.130563 0 200 255
0.415621 0.368319 0.090774 0 200 255
0.404902 0.259455 0.154590 0 200 255
0.420401 0.355606 0.065500 0 200 255
0.410528 0.357810 0.140004 0 200 255
0.379484 0.342275 0.156230 0 200 255
0.419450 0.275633 0.147961 0 200 255
0.410265 0.369941 0.122616 0 200 255
0.343183 0.293327 0.120045 0 200 255
0.428931 0.386485 0.131056 0 200 255
0.437484 0.278361 0.177012 0 200 255
0.419435 0.312243 0.178325 0 200 255
0.393398 0.264828 0.134975 0 200 255
0.455111 0.252489 0.139983 0 200 255
0.414797 0.373663 0.107091 0 200 255
0.458609 0.374902 0.150721 0 200 255
0.422765 0.352048 0.087959 0 200 255
0.452338 0.399698 0.116844 0 200 255
0.338417 0.372181 0.090200 0 200 255
0.462838 0.372535 0.128608 0 200 255
0.425108 0.334356 0.178374 0 200 255
0.465508 0.294728 0.141721 0 200 255
0.450992 0.272861 0.137255 0 200 255
0.449511 0.391615 0.104522 0 200 255
0.327353 0.286452 0.117127 0 200 255
0.456352 0.353146 0.167820 0 200 255
0.440915 0.397248 0.120239 0 200 255
0.336536 0.267535 0.141706 0 200 255
0.410176 0.281366 0.139879 0 200 255
0.471689 0.352481 0.156447 0 200 255
0.407430 0.319806 0.177748 0 200 255
0.462671 0.252297 0.176842 0 200 255
0.439920 0.254057 0.163618 0 200 255
0.339479 0.360513 0.098867 0 200 255
0.345399 0.354560 0.118897 0 200 255
0.344863 0.255499 0.121241 0 200 255
0.450936 0.391704 0.135929 0 200 255
0.352904 0.247722 0.134011 0 200 255
0.420065 0.393795 0.089369 0 200 255
0.349582 0.372289 0.112327 0 200 255
0.413520 0.295473 0.143132 0 200 255
0.422361 0.317987 0.183006 0 200 255
0.430879 0.397508 0.088652 0 200 255
0.450540 0.291824 0.183671 0 200 255
0.478863 0.257897 0.174093 0 200 255
0.416961 0.344014 0.127254 0 200 255
0.410716 0.250673 0.157060 0 200 255
0.433261 0.308091 0.182030 0 200 255
0.466095 0.254518 0.133497 0 200 255
0.429875 0.258590 0.155141 0 200 255
0.367417 0.357411 0.146794 0 200 255
0.423487 0.381751 0.112648 0 200 255
0.434806 0.372389 0.158604 0 200 255
0.323478 0.296009 0.122559 0 200 255
0.428225 0.293350 0.180522 0 200 255
0.340129 0.377716 0.102644 0 200 255
0.479204 0.305834 0.177037 0 200 255
0.449534 0.257291 0.137065 0 200 255
0.469570 0.295561 0.180545 0 200 255
0.431207 0.371912 0.122270 0 200 255
0.351746 0.360813 0.110887 0 200 255
0.458305 0.286064 0.175591 0 200 255
0.454173 0.392407 0.129015 0 200 255
0.399396 0.300825 0.171135 0 200 255
0.468966 0.331595 0.147691 0 200 255
0.338877 0.359346 0.112789 0 200 255
0.343610 0.263489 0.127451 0 200 255
0.433723 0.362944 0.154825 0 200 255
0.433794 0.380052 0.098413 0 200 255
0.419271 0.328630 0.168838 0 200 255
0.454954 0.390850 0.119442 0 200 255
0.428841 0.273384 0.151554 0 200 255
0.455944 0.334106 0.160036 0 200 255
0.470095 0.268899 0.149362 0 200 255
0.418343 0.268828 0.157786 0 200 255
0.424888 0.377402 0.122697 0 200 255
0.446632 0.386172 0.146546 0 200 255
0.344660 0.258879 0.109442 0 200 255
0.417729 0.373964 0.121597 0 200 255
0.465431 0.249712 0.138883 0 200 255
0.385173 0.249670 0.121947 0 200 255
0.354126 0.357681 0.137024 0 200 255
0.391181 0.268475 0.119085 0 200 255
0.372829 0.267728 0.147355 0 200 255
0.447354 0.334381 0.182039 0 200 255
0.454803 0.316771 0.183410 0 200 255
0.412081 0.325148 0.169463 0 200 255
0.456795 0.271409 0.182353 0 200 255
0.405708 0.246810 0.148852 0 200 255
0.350537 0.283100 0.130333 0 200 255
0.395284 0.323536 0.148033 0 200 255
0.436329 0.263179 0.139865 0 200 255
0.350922 0.271623 0.133319 0 200 255
0.413992 0.261794 0.148766 0 200 255
0.361084 0.244340 0.125507 0 200 255
0.445941 0.358003 0.162156 0 200 255
0.421215 0.285689 0.137251 0 200 255
0.356556 0.265493 0.137778 0 200 255
0.457239 0.256832 0.152642 0 200 255
0.342845 0.271867 0.110136 0 200 255
0.333037 0.369838 0.094309 0 200 255
0.444663 0.321393 0.178815 0 200 255
0.438351 0.327346 0.182052 0 200 255
0.367379 0.338213 0.153075 0 200 255
0.375812 0.340852 0.131797 0 200 255
0.491322 0.299182 0.160380 0 200 255
0.331018 0.271705 0.114495 0 200 255
0.410885 0.360273 0.084143 0 200 255
0.424318 0.281398 0.177871 0 200 255
0.446922 0.374936 0.141542 0 200 255
0.425328 0.385364 0.139659 0 200 255
0.403464 0.315050 0.149446 0 200 255
0.419983 0.354088 0.156569 0 200 255
0.398532 0.255244 0.152179 0 200 255
0.439350 0.400158 0.103422 0 200 255
0.481806 0.258285 0.144887 0 200 255
0.463416 0.301506 0.138791 0 200 255
0.408494 0.278657 0.170688 0 200 255
0.454446 0.358383 0.139323 0 200 255
0.348139 0.364883 0.134914 0 200 255
0.399604 0.308142 0.172854 0 200 255
0.421850 0.344798 0.160053 0 200 255
0.428106 0.396064 0.078142 0 200 255
0.333687 0.277613 0.134711 0 200 255
0.430817 0.335035 0.182511 0 200 255
0.417843 0.365292 0.150717 0 200 255
0.462958 0.282687 0.180655 0 200 255
0.446442 0.242324 0.165061 0 200 255
0.429597 0.285987 0.179123 0 200 255
0.348436 0.367905 0.120450 0 200 255
0.461997 0.330210 0.147625 0 200 255
0.450914 0.242603 0.136218 0 200 255
0.328209 0.291520 0.105261 0 200 255
0.443348 0.385283 0.127857 0 200 255
0.420622 0.344362 0.083319 0 200 255
0.365761 0.254746 0.142596 0 200 255
0.343666 0.273898 0.120693 0 200 255
0.432352 0.258719 0.146497 0 200 255
0.383745 0.243450 0.125853 0 200 255
0.410742 0.292649 0.178814 0 200 255
0.401963 0.288721 0.154607 0 200 255
0.491162 0.310362 0.151015 0 200 255
0.419305 0.357678 0.145900 0 200 255
0.444917 0.291531 0.141600 0 200 255
0.419641 0.333315 0.163464 0 200 255
0.366062 0.339822 0.141439 0 200 255
0.417423 0.323539 0.177984 0 200 255
0.384025 0.338705 0.162493 0 200 255
0.449267 0.253758 0.164098 0 200 255
0.479846 0.334965 0.149509 0 200 255
0.382707 0.247526 0.115770 0 200 255
0.457925 0.394385 0.092313 0 200 255
0.470268 0.282174 0.137417 0 200 255
0.484208 0.317246 0.175538 0 200 255
0.411268 0.356563 0.130825 0 200 255
0.485586 0.284237 0.171407 0 200 255
0.350967 0.263787 0.128918 0 200 255
0.461327 0.382467 0.136606 0 200 255
0.438214 0.328588 0.147653 0 200 255
0.437107 0.341964 0.163056 0 200 255
0.445287 0.391457 0.113774 0 200 255
0.430305 0.351072 0.129476 0 200 255
0.358585 0.361649 0.111022 0 200 255
0.428944 0.387599 0.104009 0 200 255
0.428535 0.349750 0.167031 0 200 255
0.422543 0.366486 0.125661 0 200 255
0.432424 0.355092 0.159773 0 200 255
0.431804 0.383169 0.111058 0 200 255
0.378884 0.271497 0.125874 0 200 255
0.427659 0.361681 0.075432 0 200 255
0.406777 0.277623 0.157281 0 200 255
0.449674 0.370241 0.159156 0 200 255
0.368079 0.246120 0.114926 0 200 255
0.384448 0.331605 0.143039 0 200 255
0.449074 0.257911 0.175338 0 200 255
0.463438 0.281935 0.137615 0 200 255
0.463297 0.265893 0.155720 0 200 255
0.463745 0.263527 0.178641 0 200 255
0.390145 0.270411 0.137695 0 200 255
0.404630 0.258263 0.147211 0 200 255
0.436766 0.390281 0.082875 0 200 255
0.464099 0.362379 0.149391 0 200 255
0.362719 0.264411 0.126973 0 200 255
0.375602 0.251693 0.130496 0 200 255
0.411698 0.356295 0.116161 0 200 255
0.437104 0.346567 0.157251 0 200 255
0.428139 0.392467 0.127005 0 200 255
0.338367 0.291855 0.133128 0 200 255
0.451111 0.342587 0.153127 0 200 255
0.342419 0.368251 0.110297 0 200 255
0.378505 0.257800 0.113358 0 200 255
0.417405 0.343174 0.168083 0 200 255
0.341597 0.281419 0.133755 0 200 255
0.344097 0.361362 0.093717 0 200 255
0.478124 0.271679 0.173559 0 200 255
0.342749 0.375628 0.110977 0 200 255
0.349357 0.363914 0.104447 0 200 255
0.359131 0.365093 0.117243 0 200 255
0.480235 0.251858 0.148378 0 200 255
0.445585 0.310097 0.182428 0 200 255
0.346681 0.283241 0.111430 0 200 255
0.347642 0.360318 0.121881 0 200 255
0.431237 0.347748 0.141781 0 200 255
0.378987 0.330556 0.152971 0 200 255
0.425174 0.308768 0.139042 0 200 255
0.442961 0.237088 0.162660 0 200 255
0.479414 0.329079 0.143137 0 200 255
0.460062 0.258431 0.164404 0 200 255
0.354098 0.271859 0.125801 0 200 255
0.418393 0.260828 0.156826 0 200 255
0.407835 0.324327 0.145250 0 200 255
0.429309 0.385827 0.089478 0 200 255
0.437921 0.382253 0.138101 0 200 255
0.424161 0.381485 0.100385 0 200 255
0.423035 0.358079 0.091965 0 200 255
0.411142 0.368535 0.097468 0 200 255
0.485940 0.292779 0.165628 0 200 255
0.439597 0.278943 0.142623 0 200 255
0.402496 0.320940 0.173358 0 200 255
0.435441 0.259474 0.176853 0 200 255
0.430265 0.351968 0.087611 0 200 255
0.317901 0.301396 0.121305 0 200 255
0.424533 0.323897 0.162414 0 200 255
0.437193 0.273242 0.151974 0 200 255
0.344146 0.361308 0.130286 0 200 255
0.456967 0.250766 0.181853 0 200 255
0.383911 0.346170 0.159375 0 200 255
0.330637 0.289175 0.122772 0 200 255
0.443264 0.374075 0.128940 0 200 255
0.441971 0.399505 0.096509 0 200 255
0.388125 0.271668 0.146451 0 200 255
0.375587 0.242205 0.125313 0 200 255
0.379368 0.334906 0.158354 0 200 255
0.431175 0.307426 0.144035 0 200 255
0.416791 0.359198 0.071109 0 200 255
0.360765 0.249766 0.146807 0 200 255
0.425048 0.399992 0.084908 0 200 255
0.400672 0.243639 0.130238 0 200 255
0.351883 0.281089 0.116969 0 200 255
0.410796 0.366339 0.128509 0 200 255
0.428272 0.349751 0.155301 0 200 255
0.430179 0.362749 0.136373 0 200 255
0.401197 0.330265 0.163633 0 200 255
0.418328 0.298947 0.138173 0 200 255
0.463975 0.341439 0.182411 0 200 255
0.412837 0.278000 0.150264 0 200 255
0.433524 0.315199 0.146601 0 200 255
0.320873 0.301881 0.112788 0 200 255
0.421242 0.268330 0.147599 0 200 255
0.350713 0.264879 0.144349 0 200 255
0.442803 0.373396 0.152176 0 200 255
0.420523 0.350220 0.114662 0 200 255
0.384076 0.244154 0.146105 0 200 255
0.442765 0.388001 0.102847 0 200 255
0.441056 0.283008 0.137164 0 200 255
0.340190 0.292921 0.111392 0 200 255
0.393292 0.242696 0.137614 0 200 255
0.431237 0.386290 0.119632 0 200 255
0.418947 0.340154 0.139748 0 200 255
0.362327 0.273453 0.128909 0 200 255
0.456207 0.399109 0.110486 0 200 255
0.384374 0.241857 0.133142 0 200 255
0.409753 0.316176 0.164108 0 200 255
0.334166 0.278025 0.111399 0 200 255
0.438060 0.366044 0.126584 0 200 255
0.434757 0.335475 0.172312 0 200 255
0.491282 0.287436 0.151863 0 200 255
0.425851 0.393535 0.105152 0 200 255
0.439062 0.387842 0.109149 0 200 255
0.453729 0.326673 0.183638 0 200 255
0.411477 0.306911 0.144071 0 200 255
0.449763 0.366765 0.146863 0 200 255
0.457753 0.264967 0.142594 0 200 255
0.426574 0.299482 0.138077 0 200 255
0.476799 0.261818 0.164326 0 200 255
0.320659 0.292176 0.130601 0 200 255
0.358845 0.272721 0.137619 0 200 255
0.427403 0.325608 0.180876 0 200 255
0.367295 0.349163 0.126881 0 200 255
0.414813 0.352960 0.077265 0 200 255
0.427944 0.272437 0.178702 0 200 255
0.425446 0.367218 0.096765 0 200 255
0.414799 0.357938 0.089975 0 200 255
0.382912 0.347574 0.147045 0 200 255
0.403824 0.310068 0.180145 0 200 255
0.423696 0.338729 0.182943 0 200 255
0.462947 0.322401 0.140530 0 200 255
0.466403 0.302263 0.181407 0 200 255
0.418063 0.368730 0.114794 0 200 255
0.460981 0.381232 0.150155 0 200 255
0.408135 0.264836 0.138917 0 200 255
0.416686 0.288007 0.179031 0 200 255
0.363830 0.246216 0.137289 0 200 255
