ply
format ascii 1.0
element vertex 1024
property float x
property float y
property float z
property uchar red
property uchar green
property uchar blue
end_header
0.445452 0.260549 0.153751 0 200 255
0.327623 0.376322 0.105731 0 200 255
0.458513 0.391276 0.081210 0 200 255
0.336133 0.258447 0.107959 0 200 255
0.476110 0.349588 0.169438 0 200 255
0.382873 0.329230 0.162984 0 200 255
0.417970 0.343788 0.107159 0 200 255
0.385021 0.238852 0.145266 0 200 255
0.495231 0.296014 0.140825 0 200 255
0.450217 0.389596 0.137852 0 200 255
0.435886 0.311834 0.179970 0 200 255
0.415114 0.296969 0.136336 0 200 255
0.429687 0.343006 0.058502 0 200 255
0.492196 0.253347 0.164138 0 200 255
0.365553 0.354867 0.125824 0 200 255
0.428894 0.351654 0.155965 0 200 255
0.456591 0.320436 0.136982 0 200 255
0.420843 0.393540 0.104431 0 200 255
0.474865 0.292683 0.178078 0 200 255
0.380384 0.261006 0.109994 0 200 255
0.416386 0.252791 0.122935 0 200 255
0.413724 0.276341 0.168776 0 200 255
0.357646 0.263463 0.138452 0 200 255
0.459052 0.239372 0.179370 0 200 255
0.466058 0.358073 0.135217 0 200 255
0.472314 0.252101 0.133232 0 200 255
0.324709 0.290249 0.112301 0 200 255
0.426324 0.392242 0.071191 0 200 255
0.489031 0.319742 0.163576 0 200 255
0.452625 0.287739 0.136216 0 200 255
0.415464 0.247260 0.155379 0 200 255
0.429329 0.368234 0.126736 0 200 255
0.410541 0.328039 0.145519 0 200 255
0.426644 0.362883 0.083452 0 200 255
0.364355 0.236155 0.120766 0 200 255
0.442616 0.279567 0.180291 0 200 255
0.405802 0.309461 0.172060 0 200 255
0.448815 0.381940 0.108392 0 200 255
0.463813 0.324820 0.179035 0 200 255
0.337055 0.360499 0.128382 0 200 255
0.395493 0.265495 0.139777 0 200 255
0.362939 0.347417 0.153270 0 200 255
0.384224 0.335451 0.135026 0 200 255
0.457892 0.368798 0.159793 0 200 255
0.392770 0.236478 0.118565 0 200 255
0.420881 0.334967 0.176979 0 200 255
0.431310 0.339541 0.130627 0 200 255
0.332194 0.271745 0.131424 0 200 255
0.448575 0.304641 0.157789 0 200 255
0.483686 0.340663 0.144728 0 200 255
0.454590 0.342753 0.155527 0 200 255
0.450927 0.237206 0.143020 0 200 255
0.469374 0.263447 0.177811 0 200 255
0.484964 0.271326 0.145191 0 200 255
0.351727 0.276887 0.115971 0 200 255
0.494834 0.286266 0.164331 0 200 255
0.424924 0.272452 0.146300 0 200 255
0.435007 0.327281 0.158285 0 200 255
0.424005 0.338657 0.082470 0 200 255
0.350149 0.368601 0.109886 0 200 255
0.479114 0.312773 0.136628 0 200 255
0.436672 0.373038 0.149741 0 200 255
0.413487 0.353775 0.136382 0 200 255
0.342573 0.248650 0.128516 0 200 255
0.428986 0.258613 0.170060 0 200 255
0.432006 0.391087 0.124207 0 200 255
0.432248 0.311975 0.136349 0 200 255
0.442266 0.342604 0.177291 0 200 255
0.441413 0.398561 0.094903 0 200 255
0.418201 0.366337 0.104074 0 200 255
0.403282 0.293747 0.156144 0 200 255
0.358593 0.257398 0.106607 0 200 255
0.470484 0.258101 0.156481 0 200 255
0.464127 0.378235 0.123714 0 200 255
0.449869 0.401769 0.117266 0 200 255
0.474063 0.289629 0.135487 0 200 255
0.364078 0.243135 0.141044 0 200 255
0.456582 0.303796 0.179002 0 200 255
0.424765 0.293622 0.178229 0 200 255
0.353547 0.363149 0.141296 0 200 255
0.403744 0.239656 0.135855 0 200 255
0.445377 0.354522 0.132128 0 200 255
0.376101 0.259986 0.146694 0 200 255
0.404085 0.328427 0.165046 0 200 255
0.432580 0.251989 0.140637 0 200 255
0.428013 0.382464 0.089045 0 200 255
0.449719 0.259110 0.176157 0 200 255
0.465902 0.271618 0.138719 0 200 255
0.331867 0.276836 0.099270 0 200 255
0.382715 0.346924 0.152207 0 200 255
0.416639 0.352811 0.069836 0 200 255
0.398093 0.312921 0.146308 0 200 255
0.399383 0.258468 0.115079 0 200 255
0.433112 0.287855 0.134888 0 200 255
0.464473 0.376150 0.142996 0 200 255
0.450572 0.243177 0.161333 0 200 255
0.483860 0.270606 0.165608 0 200 255
0.478044 0.246569 0.176429 0 200 255
0.369008 0.254245 0.123896 0 200 255
0.465733 0.336541 0.141187 0 200 255
0.365940 0.339324 0.136267 0 200 255
0.431882 0.352521 0.098324 0 200 255
0.397647 0.251905 0.152094 0 200 255
0.461326 0.280233 0.179717 0 200 255
0.480040 0.310486 0.176718 0 200 255
0.414782 0.258680 0.140036 0 200 255
0.443058 0.331824 0.142034 0 200 255
0.377272 0.241891 0.109622 0 200 255
0.413468 0.313277 0.155624 0 200 255
0.473733 0.354045 0.152196 0 200 255
0.441295 0.270037 0.139239 0 200 255
0.413018 0.361981 0.120511 0 200 255
0.414235 0.351958 0.091878 0 200 255
0.431205 0.352951 0.118045 0 200 255
0.349703 0.243284 0.112207 0 200 255
0.457886 0.395185 0.100058 0 200 255
0.495576 0.303952 0.159512 0 200 255
0.432253 0.376223 0.107821 0 200 255
0.324585 0.270715 0.113896 0 200 255
0.382506 0.265197 0.128135 0 200 255
0.334137 0.360968 0.110801 0 200 255
0.448006 0.381286 0.090999 0 200 255
0.419959 0.337139 0.159503 0 200 255
0.442146 0.395863 0.077205 0 200 255
0.449201 0.372340 0.130092 0 200 255
0.447377 0.357632 0.150599 0 200 255
0.445087 0.324924 0.173703 0 200 255
0.455650 0.254528 0.136562 0 200 255
0.459452 0.347352 0.172641 0 200 255
0.442269 0.295216 0.173435 0 200 255
0.486431 0.250703 0.148305 0 200 255
0.479278 0.330427 0.175067 0 200 255
0.337412 0.375796 0.119484 0 200 255
0.349632 0.351829 0.121094 0 200 255
0.379051 0.236609 0.129019 0 200 255
0.396775 0.337581 0.153233 0 200 255
0.424942 0.398604 0.086976 0 200 255
0.487746 0.322748 0.147352 0 200 255
0.429316 0.356449 0.140100 0 200 255
0.439598 0.275830 0.155445 0 200 255
0.338705 0.285612 0.120757 0 200 255
0.473220 0.338098 0.157063 0 200 255
0.410817 0.281610 0.148190 0 200 255
0.420067 0.318642 0.177128 0 200 255
0.374283 0.352912 0.139624 0 200 255
0.433495 0.348446 0.073308 0 200 255
0.446021 0.304152 0.139867 0 200 255
0.428488 0.381622 0.136856 0 200 255
0.409247 0.293694 0.171590 0 200 255
0.417306 0.264696 0.158144 0 200 255
0.375775 0.332470 0.148260 0 200 255
0.420541 0.340068 0.142620 0 200 255
0.417676 0.343578 0.123555 0 200 255
0.345270 0.263748 0.124544 0 200 255
0.352479 0.347891 0.137177 0 200 255
0.436474 0.393944 0.109108 0 200 255
0.461701 0.299840 0.139481 0 200 255
0.427745 0.277864 0.175101 0 200 255
0.440269 0.342129 0.161127 0 200 255
0.400476 0.253556 0.129599 0 200 255
0.349530 0.369944 0.126782 0 200 255
0.447394 0.386418 0.123285 0 200 255
0.487958 0.334373 0.159913 0 200 255
0.389497 0.326645 0.145971 0 200 255
0.459607 0.389791 0.115200 0 200 255
0.429257 0.326884 0.138340 0 200 255
0.412250 0.311096 0.140905 0 200 255
0.432753 0.253533 0.156169 0 200 255
0.441393 0.367245 0.118380 0 200 255
0.345106 0.268721 0.102672 0 200 255
0.393932 0.320107 0.158727 0 200 255
0.450565 0.376182 0.147342 0 200 255
0.418010 0.359551 0.148783 0 200 255
0.339949 0.371536 0.100111 0 200 255
0.422847 0.383851 0.115519 0 200 255
0.450630 0.329133 0.154287 0 200 255
0.440617 0.344997 0.146573 0 200 255
0.406638 0.243474 0.119107 0 200 255
0.453940 0.335160 0.178732 0 200 255
0.389170 0.245970 0.132474 0 200 255
0.389887 0.248418 0.112043 0 200 255
0.343629 0.258882 0.137819 0 200 255
0.363091 0.244545 0.108998 0 200 255
0.463510 0.241767 0.139698 0 200 255
0.398930 0.307304 0.159725 0 200 255
0.370715 0.266629 0.135448 0 200 255
0.325690 0.282875 0.124352 0 200 255
0.356194 0.248811 0.130012 0 200 255
0.331378 0.261434 0.122438 0 200 255
0.438983 0.363592 0.159600 0 200 255
0.421681 0.323361 0.164451 0 200 255
0.451881 0.402700 0.087382 0 200 255
0.488807 0.284620 0.137376 0 200 255
0.463142 0.361727 0.148767 0 200 255
0.441612 0.252938 0.167297 0 200 255
0.491835 0.299770 0.171733 0 200 255
0.414721 0.243353 0.142593 0 200 255
0.478833 0.276933 0.176276 0 200 255
0.426444 0.319594 0.149193 0 200 255
0.338501 0.285366 0.107128 0 200 255
0.452473 0.363958 0.140006 0 200 255
0.358088 0.261016 0.120456 0 200 255
0.431035 0.325963 0.176536 0 200 255
0.337730 0.270033 0.114592 0 200 255
0.430762 0.299609 0.140553 0 200 255
0.376382 0.344725 0.129568 0 200 255
0.406573 0.262230 0.151014 0 200 255
0.425385 0.364303 0.114849 0 200 255
0.459008 0.391069 0.128245 0 200 255
0.425068 0.336316 0.068744 0 200 255
0.430147 0.266839 0.156931 0 200 255
0.496315 0.286754 0.149919 0 200 255
0.373016 0.341276 0.158788 0 200 255
0.433421 0.346761 0.086334 0 200 255
0.484694 0.258069 0.173649 0 200 255
0.374418 0.246451 0.148179 0 200 255
0.441227 0.379351 0.137945 0 200 255
0.438071 0.267998 0.176585 0 200 255
0.495470 0.309584 0.147832 0 200 255
0.469594 0.339811 0.175389 0 200 255
0.436147 0.378376 0.122549 0 200 255
0.433979 0.384267 0.077817 0 200 255
0.461206 0.365797 0.124984 0 200 255
0.448870 0.314557 0.180219 0 200 255
0.492555 0.274973 0.154852 0 200 255
0.405311 0.321609 0.176103 0 200 255
0.474157 0.259907 0.144341 0 200 255
0.477419 0.331812 0.138042 0 200 255
0.415876 0.347497 0.152081 0 200 255
0.348084 0.275264 0.128953 0 200 255
0.457401 0.257394 0.156368 0 200 255
0.457707 0.350756 0.145690 0 200 255
0.412897 0.355275 0.106781 0 200 255
0.430952 0.369038 0.139313 0 200 255
0.453904 0.373968 0.116621 0 200 255
0.455240 0.291534 0.181238 0 200 255
0.439789 0.386502 0.098845 0 200 255
0.457872 0.354100 0.159612 0 200 255
0.467645 0.312761 0.141489 0 200 255
0.485446 0.287049 0.173330 0 200 255
0.420331 0.305155 0.178624 0 200 255
0.483447 0.301194 0.136653 0 200 255
0.348185 0.256765 0.114422 0 200 255
0.405852 0.290951 0.141857 0 200 255
0.423800 0.382116 0.100867 0 200 255
0.424788 0.278827 0.135488 0 200 255
0.447286 0.384778 0.078446 0 200 255
0.457441 0.382440 0.098754 0 200 255
0.427530 0.354085 0.063146 0 200 255
0.462984 0.250666 0.181674 0 200 255
0.393929 0.339116 0.141359 0 200 255
0.365398 0.357892 0.146224 0 200 255
0.345345 0.356038 0.110554 0 200 255
0.387908 0.256952 0.146963 0 200 255
0.489776 0.260587 0.154359 0 200 255
0.452541 0.276004 0.138869 0 200 255
0.414102 0.357260 0.081166 0 200 255
0.462334 0.335709 0.161316 0 200 255
0.418676 0.363888 0.132768 0 200 255
0.356574 0.361978 0.121425 0 200 255
0.442566 0.258539 0.141584 0 200 255
0.321317 0.281537 0.105104 0 200 255
0.369682 0.254131 0.110945 0 200 255
0.451201 0.281754 0.172538 0 200 255
0.395107 0.264020 0.128109 0 200 255
0.438505 0.389411 0.087520 0 200 255
0.385267 0.340727 0.162497 0 200 255
0.451273 0.271663 0.179458 0 200 255
0.413306 0.326474 0.156827 0 200 255
0.374162 0.264029 0.119975 0 200 255
0.363283 0.254531 0.143598 0 200 255
0.464994 0.298439 0.172948 0 200 255
0.429702 0.398975 0.097619 0 200 255
0.478483 0.268333 0.155526 0 200 255
0.452252 0.393573 0.071662 0 200 255
0.422213 0.252001 0.147182 0 200 255
0.410985 0.319155 0.166035 0 200 255
0.463121 0.282853 0.136022 0 200 255
0.374281 0.244115 0.120574 0 200 255
0.448141 0.395323 0.107822 0 200 255
0.435932 0.360961 0.148788 0 200 255
0.491991 0.311581 0.171162 0 200 255
0.433855 0.336255 0.149785 0 200 255
0.416286 0.363573 0.093093 0 200 255
0.398978 0.241776 0.146073 0 200 255
0.455725 0.249498 0.172867 0 200 255
0.422790 0.331315 0.150033 0 200 255
0.428451 0.343630 0.111963 0 200 255
0.374530 0.237565 0.139510 0 200 255
0.404916 0.320101 0.152078 0 200 255
0.414706 0.285343 0.137254 0 200 255
0.418524 0.319520 0.136439 0 200 255
0.422002 0.388164 0.081225 0 200 255
0.466787 0.325398 0.143150 0 200 255
0.361692 0.343922 0.126831 0 200 255
0.361023 0.362582 0.132746 0 200 255
0.344800 0.356039 0.138693 0 200 255
0.344219 0.362979 0.119650 0 200 255
0.468328 0.347202 0.144227 0 200 255
0.328384 0.369756 0.114951 0 200 255
0.432076 0.339510 0.173571 0 200 255
0.426117 0.261954 0.142364 0 200 255
0.360708 0.238489 0.131174 0 200 255
0.427556 0.362806 0.096939 0 200 255
0.423655 0.351682 0.083141 0 200 255
0.433188 0.301626 0.176137 0 200 255
0.355071 0.352648 0.147005 0 200 255
0.348467 0.253118 0.103813 0 200 255
0.432024 0.400573 0.078314 0 200 255
0.398101 0.242559 0.126620 0 200 255
0.429989 0.355768 0.128938 0 200 255
0.412372 0.282596 0.159619 0 200 255
0.473948 0.319844 0.176499 0 200 255
0.435046 0.286708 0.173513 0 200 255
0.458138 0.260463 0.145666 0 200 255
0.454652 0.335329 0.141166 0 200 255
0.440800 0.314723 0.142931 0 200 255
0.354841 0.267542 0.110815 0 200 255
0.469150 0.309689 0.178614 0 200 255
0.389641 0.263240 0.118500 0 200 255
0.476739 0.270540 0.136771 0 200 255
0.481466 0.344823 0.161019 0 200 255
0.425529 0.379311 0.125444 0 200 255
0.422078 0.346111 0.097003 0 200 255
0.401172 0.301277 0.148383 0 200 255
0.457947 0.381731 0.136118 0 200 255
0.427801 0.358676 0.073366 0 200 255
0.370157 0.246184 0.132444 0 200 255
0.426960 0.394366 0.114540 0 200 255
0.420809 0.389558 0.093275 0 200 255
0.426865 0.354583 0.107826 0 200 255
0.412629 0.241516 0.128047 0 200 255
0.466433 0.372290 0.132593 0 200 255
0.363142 0.352683 0.136895 0 200 255
0.419362 0.345070 0.061368 0 200 255
0.407750 0.250109 0.136968 0 200 255
0.468195 0.367790 0.156348 0 200 255
0.455158 0.311354 0.142805 0 200 255
0.438877 0.383359 0.112651 0 200 255
0.441977 0.294101 0.139378 0 200 255
0.399690 0.329701 0.143933 0 200 255
0.385262 0.345564 0.140813 0 200 255
0.426957 0.284145 0.144652 0 200 255
0.381774 0.266887 0.138780 0 200 255
0.473156 0.302691 0.139528 0 200 255
0.338836 0.254366 0.119166 0 200 255
0.405782 0.260885 0.123902 0 200 255
0.426186 0.344429 0.164204 0 200 255
0.379959 0.235203 0.117493 0 200 255
0.430144 0.346951 0.146274 0 200 255
0.445735 0.239130 0.152763 0 200 255
0.351344 0.251876 0.139965 0 200 255
0.334432 0.266501 0.101220 0 200 255
0.443071 0.331277 0.163942 0 200 255
0.443782 0.250499 0.156781 0 200 255
0.442080 0.395709 0.121181 0 200 255
0.480277 0.248490 0.139247 0 200 255
0.416886 0.345692 0.077639 0 200 255
0.445799 0.322294 0.137534 0 200 255
0.464850 0.259606 0.137385 0 200 255
0.435152 0.267913 0.147507 0 200 255
0.387742 0.235875 0.135029 0 200 255
0.367297 0.338264 0.150485 0 200 255
0.319234 0.281060 0.116269 0 200 255
0.341534 0.375527 0.109859 0 200 255
0.453585 0.366085 0.150185 0 200 255
0.455990 0.358739 0.130652 0 200 255
0.373138 0.351015 0.151464 0 200 255
0.421297 0.337043 0.132139 0 200 255
0.490009 0.278413 0.169721 0 200 255
0.414199 0.328636 0.169377 0 200 255
0.433788 0.343352 0.121025 0 200 255
0.487587 0.324498 0.172686 0 200 255
0.476673 0.261794 0.163940 0 200 255
0.450931 0.402752 0.097689 0 200 255
0.431734 0.376743 0.096822 0 200 255
0.427277 0.312225 0.173409 0 200 255
0.330211 0.367321 0.101346 0 200 255
0.359395 0.343750 0.143653 0 200 255
0.470434 0.357814 0.161193 0 200 255
0.438406 0.386106 0.130523 0 200 255
0.449670 0.389206 0.098231 0 200 255
0.437438 0.350089 0.136868 0 200 255
0.455082 0.237553 0.170107 0 200 255
0.436393 0.323687 0.145152 0 200 255
0.450411 0.265010 0.140583 0 200 255
0.420844 0.269156 0.137413 0 200 255
0.407697 0.251898 0.150426 0 200 255
0.325200 0.272474 0.123904 0 200 255
0.460862 0.375745 0.152502 0 200 255
0.392904 0.333492 0.161690 0 200 255
0.336917 0.257638 0.130048 0 200 255
0.424393 0.257445 0.160390 0 200 255
0.455188 0.323969 0.173652 0 200 255
0.426723 0.374226 0.116462 0 200 255
0.356827 0.242922 0.121275 0 200 255
0.374356 0.333706 0.136624 0 200 255
0.390227 0.245053 0.151423 0 200 255
0.422517 0.266386 0.170494 0 200 255
0.400507 0.315590 0.165999 0 200 255
0.475596 0.302196 0.173021 0 200 255
0.414296 0.352127 0.118739 0 200 255
0.469908 0.274389 0.180230 0 200 255
0.364607 0.259856 0.131141 0 200 255
0.461105 0.269519 0.179525 0 200 255
0.413766 0.273031 0.143845 0 200 255
0.469135 0.365355 0.141406 0 200 255
0.484974 0.261326 0.144364 0 200 255
0.440342 0.332400 0.178344 0 200 255
0.463766 0.287435 0.173229 0 200 255
0.430663 0.389356 0.101700 0 200 255
0.341474 0.268437 0.132745 0 200 255
0.416873 0.318661 0.146684 0 200 255
0.458870 0.385536 0.089313 0 200 255
0.405424 0.331819 0.153147 0 200 255
0.416790 0.283662 0.174737 0 200 255
0.384553 0.243475 0.120358 0 200 255
0.438209 0.353406 0.158771 0 200 255
0.476753 0.280174 0.138920 0 200 255
0.465759 0.343853 0.165907 0 200 255
0.382434 0.246567 0.139656 0 200 255
0.440629 0.359248 0.124894 0 200 255
0.491693 0.312664 0.157049 0 200 255
0.474628 0.254715 0.180770 0 200 255
0.444144 0.301463 0.180799 0 200 255
0.350533 0.254992 0.124880 0 200 255
0.448071 0.354357 0.160205 0 200 255
0.443711 0.337159 0.151614 0 200 255
0.445115 0.275705 0.146289 0 200 255
0.420045 0.355767 0.100077 0 200 255
0.451066 0.396337 0.126020 0 200 255
0.397123 0.263853 0.149257 0 200 255
0.407616 0.253127 0.118176 0 200 255
0.364220 0.262293 0.112992 0 200 255
0.445689 0.251052 0.146973 0 200 255
0.422010 0.358688 0.122274 0 200 255
0.458708 0.316556 0.179651 0 200 255
0.403598 0.299811 0.163721 0 200 255
0.452779 0.401316 0.077464 0 200 255
0.405291 0.317833 0.141019 0 200 255
0.343518 0.363011 0.104122 0 200 255
0.354349 0.356047 0.130287 0 200 255
0.414136 0.273914 0.155815 0 200 255
0.398939 0.247926 0.115216 0 200 255
0.491580 0.313029 0.139755 0 200 255
0.417625 0.343788 0.087479 0 200 255
0.396675 0.327829 0.153733 0 200 255
0.341890 0.276287 0.107608 0 200 255
0.379906 0.251090 0.109089 0 200 255
0.488586 0.291369 0.146641 0 200 255
0.449879 0.353220 0.140755 0 200 255
0.329381 0.286657 0.104513 0 200 255
0.423357 0.302844 0.135425 0 200 255
0.400466 0.252089 0.142845 0 200 255
0.434744 0.398912 0.087305 0 200 255
0.450244 0.345133 0.171719 0 200 255
0.423857 0.292052 0.140369 0 200 255
0.415500 0.257960 0.151678 0 200 255
0.437831 0.276550 0.172433 0 200 255
0.350627 0.265994 0.132381 0 200 255
0.424249 0.261658 0.151635 0 200 255
0.441211 0.370360 0.141917 0 200 255
0.334054 0.364292 0.120140 0 200 255
0.473877 0.338682 0.145431 0 200 255
0.383624 0.328021 0.153683 0 200 255
0.475004 0.320832 0.143008 0 200 255
0.388606 0.267000 0.145974 0 200 255
0.425731 0.338822 0.122884 0 200 255
0.456005 0.382578 0.121970 0 200 255
0.444981 0.368166 0.153243 0 200 255
0.359892 0.252044 0.118477 0 200 255
0.339155 0.275587 0.126182 0 200 255
0.346286 0.363373 0.132592 0 200 255
0.417045 0.344926 0.134816 0 200 255
0.425847 0.333538 0.165801 0 200 255
0.448306 0.382347 0.132278 0 200 255
0.347053 0.268827 0.116616 0 200 255
0.457641 0.395840 0.090018 0 200 255
0.419035 0.351671 0.143921 0 200 255
0.491553 0.325388 0.156610 0 200 255
0.346975 0.246385 0.120628 0 200 255
0.369774 0.237403 0.129074 0 200 255
0.407289 0.311453 0.148769 0 200 255
0.369166 0.237961 0.111789 0 200 255
0.339785 0.369938 0.126255 0 200 255
0.423073 0.398441 0.077621 0 200 255
0.458715 0.259326 0.178185 0 200 255
0.478832 0.265660 0.172017 0 200 255
0.472364 0.347468 0.160617 0 200 255
0.382529 0.337877 0.153862 0 200 255
0.326307 0.271951 0.104732 0 200 255
0.392402 0.246256 0.141464 0 200 255
0.405834 0.289727 0.164009 0 200 255
0.449757 0.389237 0.114498 0 200 255
0.415685 0.367409 0.113640 0 200 255
0.408135 0.310545 0.162543 0 200 255
0.496923 0.300669 0.149255 0 200 255
0.457013 0.397065 0.109050 0 200 255
0.455313 0.252448 0.163744 0 200 255
0.469356 0.356670 0.144176 0 200 255
0.378962 0.246028 0.130092 0 200 255
0.333737 0.289052 0.113946 0 200 255
0.438123 0.381272 0.091607 0 200 255
0.341806 0.251698 0.110140 0 200 255
0.427242 0.355337 0.090618 0 200 255
0.478539 0.340523 0.174129 0 200 255
0.443340 0.375771 0.116060 0 200 255
0.494994 0.296146 0.164082 0 200 255
0.452425 0.367129 0.122330 0 200 255
0.412268 0.302278 0.175804 0 200 255
0.443830 0.286004 0.135391 0 200 255
0.418372 0.265547 0.146046 0 200 255
0.458163 0.381423 0.112239 0 200 255
0.447179 0.234877 0.160807 0 200 255
0.444146 0.398256 0.086365 0 200 255
0.331045 0.265819 0.110070 0 200 255
0.346195 0.372592 0.118929 0 200 255
0.344140 0.353730 0.130095 0 200 255
0.412990 0.357467 0.128277 0 200 255
0.486079 0.327147 0.139782 0 200 255
0.450848 0.342813 0.144154 0 200 255
0.434235 0.341744 0.138747 0 200 255
0.440328 0.259658 0.174431 0 200 255
0.484624 0.283466 0.145590 0 200 255
0.432581 0.339602 0.073586 0 200 255
0.342367 0.260133 0.101858 0 200 255
0.426885 0.364129 0.106106 0 200 255
0.485823 0.335205 0.168475 0 200 255
0.451620 0.245494 0.139964 0 200 255
0.457206 0.387826 0.105787 0 200 255
0.469233 0.348643 0.175328 0 200 255
0.458794 0.382582 0.144956 0 200 255
0.422812 0.362298 0.140956 0 200 255
0.373400 0.352978 0.129934 0 200 255
0.472320 0.282578 0.177936 0 200 255
0.387952 0.236416 0.126274 0 200 255
0.356242 0.249003 0.105629 0 200 255
0.428368 0.321562 0.158150 0 200 255
0.427395 0.359459 0.150068 0 200 255
0.432966 0.377909 0.143479 0 200 255
0.447644 0.362996 0.128514 0 200 255
0.421707 0.355430 0.133936 0 200 255
0.367179 0.262329 0.143155 0 200 255
0.350656 0.261392 0.105499 0 200 255
0.353675 0.267878 0.123542 0 200 255
0.446586 0.265913 0.160529 0 200 255
0.432707 0.343057 0.155103 0 200 255
0.466363 0.293020 0.179839 0 200 255
0.484375 0.331065 0.152734 0 200 255
0.465952 0.257476 0.163852 0 200 255
0.464749 0.255802 0.150397 0 200 255
0.434342 0.375710 0.134177 0 200 255
0.375622 0.342214 0.150595 0 200 255
0.431259 0.354583 0.080152 0 200 255
0.465794 0.351491 0.154415 0 200 255
0.402926 0.257719 0.136736 0 200 255
0.442119 0.353355 0.145168 0 200 255
0.435875 0.254848 0.148043 0 200 255
0.480742 0.340148 0.152774 0 200 255
0.411970 0.357969 0.098183 0 200 255
0.484182 0.301208 0.175339 0 200 255
0.453684 0.361389 0.157903 0 200 255
0.419210 0.339181 0.151205 0 200 255
0.441613 0.399048 0.103694 0 200 255
0.417066 0.326668 0.177261 0 200 255
0.337872 0.279855 0.114284 0 200 255
0.424695 0.315702 0.140997 0 200 255
0.453361 0.301105 0.136666 0 200 255
0.448493 0.374344 0.139236 0 200 255
0.470236 0.265189 0.149821 0 200 255
0.470160 0.329262 0.175414 0 200 255
0.441035 0.290698 0.180569 0 200 255
0.407537 0.264318 0.142808 0 200 255
0.447123 0.242606 0.169104 0 200 255
0.495712 0.291732 0.156808 0 200 255
0.382119 0.249697 0.149809 0 200 255
0.469442 0.245163 0.180955 0 200 255
0.353889 0.347182 0.127788 0 200 255
0.488278 0.251204 0.156909 0 200 255
0.334073 0.379341 0.111211 0 200 255
0.419334 0.250044 0.139441 0 200 255
0.398351 0.246493 0.134125 0 200 255
0.418459 0.282470 0.144629 0 200 255
0.428219 0.387997 0.131130 0 200 255
0.461983 0.336093 0.175547 0 200 255
0.352004 0.359104 0.114788 0 200 255
0.445579 0.392212 0.130968 0 200 255
0.388907 0.342956 0.147979 0 200 255
0.466958 0.320127 0.136571 0 200 255
0.433818 0.361803 0.120646 0 200 255
0.376544 0.331890 0.156613 0 200 255
0.453213 0.335146 0.159562 0 200 255
0.420198 0.366939 0.120915 0 200 255
0.408229 0.243558 0.149775 0 200 255
0.441312 0.339348 0.169628 0 200 255
0.453742 0.253400 0.149976 0 200 255
0.478301 0.349147 0.147183 0 200 255
0.433442 0.369665 0.114505 0 200 255
0.430080 0.267909 0.173687 0 200 255
0.370146 0.338713 0.129120 0 200 255
0.462650 0.343547 0.157390 0 200 255
0.427967 0.346508 0.104184 0 200 255
0.395992 0.236628 0.135646 0 200 255
0.367049 0.244700 0.124897 0 200 255
0.345154 0.247652 0.136335 0 200 255
0.454510 0.383635 0.082519 0 200 255
0.423087 0.250476 0.155744 0 200 255
0.332916 0.269832 0.122478 0 200 255
0.417215 0.359327 0.112727 0 200 255
0.387227 0.257324 0.112830 0 200 255
0.443075 0.376950 0.126828 0 200 255
0.451995 0.245256 0.148206 0 200 255
0.418678 0.342545 0.069196 0 200 255
0.401964 0.314781 0.157632 0 200 255
0.439407 0.387103 0.121395 0 200 255
0.420631 0.308437 0.140814 0 200 255
0.407738 0.288417 0.151745 0 200 255
0.486847 0.262956 0.165943 0 200 255
0.394317 0.320135 0.147324 0 200 255
0.451310 0.350477 0.151400 0 200 255
0.384417 0.328670 0.139616 0 200 255
0.409411 0.330042 0.175867 0 200 255
0.435470 0.393084 0.096201 0 200 255
0.365781 0.348535 0.145442 0 200 255
0.481926 0.318955 0.174991 0 200 255
0.351010 0.274431 0.108223 0 200 255
0.430873 0.382808 0.114066 0 200 255
0.438410 0.300583 0.135976 0 200 255
0.459224 0.308146 0.136526 0 200 255
0.492417 0.290568 0.170803 0 200 255
0.475856 0.259226 0.136422 0 200 255
0.418436 0.342080 0.115087 0 200 255
0.371560 0.261731 0.108783 0 200 255
0.463208 0.291864 0.139265 0 200 255
0.458210 0.329222 0.137172 0 200 255
0.434073 0.280950 0.139048 0 200 255
0.453126 0.263634 0.153437 0 200 255
0.468375 0.364791 0.130247 0 200 255
0.414831 0.311744 0.166925 0 200 255
0.378910 0.349678 0.145625 0 200 255
0.367815 0.264708 0.124933 0 200 255
0.433460 0.345522 0.065175 0 200 255
0.420694 0.324643 0.154034 0 200 255
0.432389 0.273196 0.142104 0 200 255
0.424704 0.351450 0.070203 0 200 255
0.417193 0.294419 0.175657 0 200 255
0.470573 0.361551 0.151819 0 200 255
0.435660 0.351938 0.149729 0 200 255
0.389739 0.341657 0.155862 0 200 255
0.423588 0.387001 0.124222 0 200 255
0.443668 0.326427 0.151377 0 200 255
0.407923 0.304363 0.140737 0 200 255
0.433430 0.317303 0.173979 0 200 255
0.434248 0.252614 0.164236 0 200 255
0.340589 0.262776 0.116270 0 200 255
0.434265 0.331169 0.143385 0 200 255
0.449866 0.315451 0.137188 0 200 255
0.442393 0.388956 0.107221 0 200 255
0.338545 0.357657 0.117965 0 200 255
0.364164 0.251414 0.132209 0 200 255
0.439146 0.324579 0.179191 0 200 255
0.413031 0.317547 0.173587 0 200 255
0.424892 0.347329 0.089656 0 200 255
0.420191 0.357535 0.075277 0 200 255
0.461357 0.250072 0.139763 0 200 255
0.454025 0.394165 0.118980 0 200 255
0.433244 0.359073 0.156410 0 200 255
0.429343 0.344218 0.079104 0 200 255
0.372136 0.235162 0.121539 0 200 255
0.326772 0.280670 0.110712 0 200 255
0.449960 0.396913 0.092527 0 200 255
0.460524 0.343630 0.149836 0 200 255
0.427286 0.361259 0.133848 0 200 255
0.486187 0.277548 0.139534 0 200 255
0.466709 0.370802 0.148281 0 200 255
0.481833 0.250741 0.170981 0 200 255
0.428584 0.337169 0.144059 0 200 255
0.333230 0.282536 0.126411 0 200 255
0.396071 0.322016 0.166362 0 200 255
0.430548 0.367311 0.146915 0 200 255
0.361174 0.361702 0.140651 0 200 255
0.441724 0.390615 0.114842 0 200 255
0.447900 0.276620 0.153500 0 200 255
0.422899 0.351233 0.150659 0 200 255
0.359074 0.351531 0.123103 0 200 255
0.490411 0.275179 0.162668 0 200 255
0.392279 0.333642 0.147794 0 200 255
0.454839 0.330990 0.148061 0 200 255
0.456609 0.270124 0.135917 0 200 255
0.437219 0.325401 0.137657 0 200 255
0.418398 0.330202 0.162965 0 200 255
0.370766 0.252399 0.144856 0 200 255
0.451594 0.347591 0.161440 0 200 255
0.425023 0.384761 0.108162 0 200 255
0.484571 0.319578 0.139951 0 200 255
0.345282 0.281608 0.121285 0 200 255
0.468671 0.252108 0.176615 0 200 255
0.464785 0.302554 0.179466 0 200 255
0.461553 0.356522 0.142327 0 200 255
0.447727 0.329753 0.179093 0 200 255
0.449819 0.380491 0.116716 0 200 255
0.466243 0.352400 0.164706 0 200 255
0.402045 0.248510 0.122676 0 200 255
0.404592 0.246268 0.129636 0 200 255
0.355707 0.355895 0.139965 0 200 255
0.476486 0.260700 0.151614 0 200 255
0.325969 0.368298 0.107812 0 200 255
0.400718 0.237585 0.121392 0 200 255
0.433583 0.339040 0.163280 0 200 255
0.379719 0.349391 0.135515 0 200 255
0.441957 0.317344 0.178430 0 200 255
0.415009 0.349827 0.101829 0 200 255
0.491114 0.303598 0.145218 0 200 255
0.426962 0.373916 0.133259 0 200 255
0.356192 0.261959 0.129037 0 200 255
0.450242 0.279506 0.179775 0 200 255
0.410169 0.283097 0.168657 0 200 255
0.415526 0.277440 0.137873 0 200 255
0.426375 0.381934 0.080852 0 200 255
0.400202 0.335122 0.160249 0 200 255
0.448344 0.381919 0.139918 0 200 255
0.422429 0.396206 0.096588 0 200 255
0.352440 0.368357 0.119667 0 200 255
0.384615 0.242710 0.112818 0 200 255
0.411901 0.362776 0.107171 0 200 255
0.454094 0.402494 0.104650 0 200 255
0.440424 0.310252 0.136840 0 200 255
0.433679 0.383027 0.104538 0 200 255
0.371244 0.247000 0.108972 0 200 255
0.415060 0.350274 0.084558 0 200 255
0.412336 0.309517 0.177957 0 200 255
0.413219 0.245973 0.121817 0 200 255
0.372533 0.247164 0.139733 0 200 255
0.428502 0.332879 0.173524 0 200 255
0.446123 0.276744 0.135001 0 200 255
0.419866 0.352807 0.109958 0 200 255
0.348849 0.361091 0.125278 0 200 255
0.334693 0.377489 0.103426 0 200 255
0.433415 0.392207 0.073716 0 200 255
0.427862 0.286786 0.177961 0 200 255
0.434179 0.393166 0.116224 0 200 255
0.428307 0.393911 0.091763 0 200 255
0.431190 0.397970 0.105627 0 200 255
0.485679 0.267877 0.153523 0 200 255
0.415689 0.359599 0.140526 0 200 255
0.325606 0.277710 0.118273 0 200 255
0.381384 0.263658 0.118103 0 200 255
0.466139 0.316701 0.178961 0 200 255
0.414957 0.305961 0.136214 0 200 255
0.432486 0.349925 0.109372 0 200 255
0.434242 0.366232 0.153786 0 200 255
0.423752 0.362720 0.090527 0 200 255
0.481163 0.293119 0.172765 0 200 255
0.379866 0.345128 0.158852 0 200 255
0.334356 0.264481 0.131500 0 200 255
0.425143 0.254551 0.140602 0 200 255
0.465171 0.244500 0.132983 0 200 255
0.458070 0.295912 0.173904 0 200 255
0.421038 0.338453 0.074933 0 200 255
0.344582 0.363268 0.112064 0 200 255
0.459921 0.276775 0.138871 0 200 255
0.425037 0.342209 0.154649 0 200 255
0.336393 0.362794 0.102091 0 200 255
0.423742 0.270560 0.156818 0 200 255
0.449574 0.290823 0.176523 0 200 255
0.433740 0.346414 0.127762 0 200 255
0.355257 0.366225 0.129604 0 200 255
0.418135 0.310112 0.173417 0 200 255
0.392195 0.243208 0.121557 0 200 255
0.495708 0.282072 0.158315 0 200 255
0.454539 0.372351 0.154243 0 200 255
0.444555 0.385320 0.085283 0 200 255
0.457369 0.355528 0.151307 0 200 255
0.449469 0.258539 0.136848 0 200 255
0.359003 0.241570 0.114356 0 200 255
0.376244 0.266806 0.143922 0 200 255
0.449836 0.382384 0.101123 0 200 255
0.369104 0.356485 0.134763 0 200 255
0.337917 0.264873 0.124582 0 200 255
0.389670 0.325277 0.161735 0 200 255
0.479906 0.294071 0.135665 0 200 255
0.420709 0.358759 0.084742 0 200 255
0.349033 0.258835 0.132096 0 200 255
0.443761 0.399112 0.114189 0 200 255
0.472632 0.329883 0.143255 0 200 255
0.388716 0.341368 0.135894 0 200 255
0.455552 0.372535 0.143399 0 200 255
0.448249 0.374882 0.122067 0 200 255
0.468809 0.328608 0.136884 0 200 255
0.432910 0.292170 0.177900 0 200 255
0.450023 0.330952 0.137556 0 200 255
0.333665 0.259110 0.114821 0 200 255
0.447993 0.257992 0.146622 0 200 255
0.393695 0.253887 0.115526 0 200 255
0.447158 0.250397 0.171336 0 200 255
0.436138 0.394446 0.081125 0 200 255
0.326263 0.287986 0.119074 0 200 255
0.390393 0.334002 0.154840 0 200 255
0.442715 0.391302 0.094190 0 200 255
0.439546 0.256147 0.154215 0 200 255
0.404799 0.310531 0.138420 0 200 255
0.358897 0.250727 0.139207 0 200 255
0.459453 0.332634 0.155381 0 200 255
0.389594 0.323123 0.153749 0 200 255
0.361317 0.251304 0.110953 0 200 255
0.395186 0.235694 0.128501 0 200 255
0.471856 0.265817 0.160309 0 200 255
0.471768 0.247573 0.138866 0 200 255
0.460882 0.367346 0.153357 0 200 255
0.461501 0.384663 0.130541 0 200 255
0.332807 0.274826 0.116849 0 200 255
0.429043 0.257974 0.147643 0 200 255
0.454887 0.388087 0.075563 0 200 255
0.447823 0.395890 0.100257 0 200 255
0.452885 0.238855 0.151792 0 200 255
0.493033 0.313112 0.164125 0 200 255
0.442909 0.310253 0.180419 0 200 255
0.465934 0.306013 0.139635 0 200 255
0.419721 0.393770 0.085858 0 200 255
0.447546 0.365377 0.146329 0 200 255
0.448881 0.269332 0.135034 0 200 255
0.417329 0.343743 0.158046 0 200 255
0.431471 0.384396 0.096550 0 200 255
0.429031 0.308847 0.179511 0 200 255
0.454083 0.393704 0.132768 0 200 255
0.405411 0.302361 0.173071 0 200 255
0.338404 0.278670 0.101574 0 200 255
0.423693 0.339220 0.062336 0 200 255
0.345584 0.265971 0.110212 0 200 255
0.394870 0.242039 0.114579 0 200 255
0.421929 0.367161 0.096186 0 200 255
0.444582 0.285333 0.176564 0 200 255
0.369992 0.336492 0.141535 0 200 255
0.456567 0.284464 0.176503 0 200 255
0.462285 0.382946 0.118610 0 200 255
0.360325 0.343121 0.134054 0 200 255
0.464539 0.262811 0.153376 0 200 255
0.439689 0.343114 0.153718 0 200 255
0.464975 0.253612 0.133566 0 200 255
0.401899 0.316160 0.173076 0 200 255
0.468103 0.299195 0.135966 0 200 255
0.495970 0.302709 0.166616 0 200 255
0.414471 0.271045 0.164105 0 200 255
0.451608 0.322752 0.179661 0 200 255
0.478341 0.339925 0.165092 0 200 255
0.425528 0.377384 0.105857 0 200 255
0.377191 0.337556 0.131390 0 200 255
0.346004 0.281561 0.114232 0 200 255
0.461693 0.373351 0.119191 0 200 255
0.465896 0.371102 0.124697 0 200 255
0.420752 0.351708 0.063402 0 200 255
0.448335 0.294276 0.136283 0 200 255
0.493889 0.316411 0.148766 0 200 255
0.339399 0.264676 0.106390 0 200 255
0.478477 0.264443 0.141070 0 200 255
0.433051 0.383705 0.126590 0 200 255
0.358847 0.255055 0.124778 0 200 255
0.457503 0.239867 0.136516 0 200 255
0.474571 0.257444 0.174265 0 200 255
0.400712 0.256976 0.147916 0 200 255
0.450196 0.271140 0.144569 0 200 255
0.406810 0.322525 0.161477 0 200 255
0.335616 0.371201 0.114471 0 200 255
0.411781 0.320530 0.140904 0 200 255
0.371455 0.251126 0.117044 0 200 255
0.427956 0.338641 0.137217 0 200 255
0.479283 0.255193 0.143490 0 200 255
0.362660 0.361382 0.126036 0 200 255
0.488136 0.317552 0.171912 0 200 255
0.377502 0.260377 0.127220 0 200 255
0.342186 0.356765 0.123882 0 200 255
0.377544 0.266212 0.133239 0 200 255
0.349387 0.250473 0.131526 0 200 255
0.367923 0.239067 0.135617 0 200 255
0.441771 0.349680 0.163506 0 200 255
0.454979 0.357590 0.145072 0 200 255
0.420966 0.324141 0.145260 0 200 255
0.431448 0.306560 0.140736 0 200 255
0.379375 0.337213 0.161186 0 200 255
0.421174 0.328918 0.169367 0 200 255
0.483387 0.333694 0.144942 0 200 255
0.434368 0.274083 0.177958 0 200 255
0.414887 0.350411 0.130441 0 200 255
0.351433 0.251512 0.118909 0 200 255
0.424105 0.363354 0.127002 0 200 255
0.328856 0.267057 0.127396 0 200 255
0.416039 0.316976 0.160914 0 200 255
0.455304 0.398249 0.083163 0 200 255
0.431435 0.347939 0.161313 0 200 255
0.328193 0.266382 0.117947 0 200 255
0.446773 0.361859 0.157476 0 200 255
0.427555 0.357030 0.101341 0 200 255
0.387406 0.265843 0.134881 0 200 255
0.448334 0.397095 0.080690 0 200 255
0.435658 0.307696 0.173907 0 200 255
0.343407 0.271572 0.122482 0 200 255
0.432745 0.272605 0.151975 0 200 255
0.444191 0.270615 0.178398 0 200 255
0.484341 0.280243 0.173421 0 200 255
0.436173 0.384208 0.136765 0 200 255
0.457961 0.240312 0.143519 0 200 255
0.470528 0.297965 0.177190 0 200 255
0.440275 0.357119 0.152500 0 200 255
0.448679 0.282786 0.139060 0 200 255
0.442707 0.270853 0.150525 0 200 255
0.474731 0.347423 0.153752 0 200 255
0.363563 0.266917 0.138982 0 200 255
0.453829 0.386128 0.130727 0 200 255
0.483520 0.271772 0.172367 0 200 255
0.449734 0.360148 0.134396 0 200 255
0.427822 0.386167 0.073992 0 200 255
0.484326 0.249321 0.177201 0 200 255
0.429371 0.368269 0.119833 0 200 255
0.424927 0.379786 0.094533 0 200 255
0.406847 0.238903 0.124179 0 200 255
0.423691 0.325423 0.178340 0 200 255
0.401674 0.322937 0.143748 0 200 255
0.492243 0.253088 0.150972 0 200 255
0.361959 0.256972 0.136728 0 200 255
0.451384 0.366813 0.133442 0 200 255
0.425679 0.348525 0.058521 0 200 255
0.366656 0.353093 0.151098 0 200 255
0.356921 0.261625 0.113482 0 200 255
0.426494 0.391980 0.107901 0 200 255
0.396866 0.262658 0.119814 0 200 255
0.437252 0.383332 0.084732 0 200 255
0.397477 0.317889 0.152916 0 200 255
0.380471 0.236006 0.135643 0 200 255
0.389908 0.260241 0.130323 0 200 255
0.422557 0.391010 0.118830 0 200 255
0.491568 0.273553 0.148285 0 200 255
0.449097 0.388925 0.105765 0 200 255
0.487585 0.307499 0.174320 0 200 255
0.454359 0.318233 0.142990 0 200 255
0.495772 0.289744 0.143309 0 200 255
0.483847 0.256606 0.150357 0 200 255
0.410292 0.253315 0.144346 0 200 255
0.460056 0.388922 0.121923 0 200 255
0.330568 0.276598 0.124587 0 200 255
0.436076 0.353963 0.131503 0 200 255
0.447087 0.337206 0.144214 0 200 255
0.433461 0.322350 0.151085 0 200 255
0.426247 0.316703 0.179019 0 200 255
0.464929 0.286468 0.180573 0 200 255
0.473444 0.268674 0.176573 0 200 255
0.464318 0.377500 0.136405 0 200 255
0.330127 0.373887 0.099890 0 200 255
0.428689 0.342006 0.088103 0 200 255
0.425655 0.327330 0.160276 0 200 255
0.382262 0.264172 0.145332 0 200 255
0.439188 0.302038 0.173108 0 200 255
0.404207 0.260849 0.130431 0 200 255
0.367066 0.347876 0.127493 0 200 255
0.428517 0.265802 0.147298 0 200 255
0.343666 0.369441 0.108052 0 200 255
0.344227 0.353838 0.117697 0 200 255
0.391638 0.238593 0.144365 0 200 255
0.429323 0.357743 0.113790 0 200 255
0.442943 0.391586 0.082258 0 200 255
0.405569 0.259424 0.117398 0 200 255
0.410310 0.282780 0.141561 0 200 255
0.401741 0.236908 0.128531 0 200 255
0.423249 0.389431 0.099767 0 200 255
0.436647 0.270259 0.157605 0 200 255
0.439226 0.272844 0.145045 0 200 255
0.443743 0.372005 0.147942 0 200 255
0.386500 0.236283 0.116337 0 200 255
0.418133 0.352256 0.078765 0 200 255
0.497344 0.298018 0.155371 0 200 255
0.454698 0.386794 0.094542 0 200 255
0.400222 0.264150 0.135301 0 200 255
0.422382 0.385789 0.087882 0 200 255
0.430802 0.338150 0.065941 0 200 255
0.423354 0.356876 0.145484 0 200 255
0.418223 0.274726 0.148439 0 200 255
0.412892 0.264384 0.149565 0 200 255
0.490895 0.320709 0.141908 0 200 255
0.438752 0.252787 0.138414 0 200 255
0.459307 0.263150 0.136789 0 200 255
0.385412 0.334687 0.159828 0 200 255
0.442244 0.362753 0.149535 0 200 255
0.381496 0.328725 0.145535 0 200 255
0.438151 0.333979 0.167459 0 200 255
0.420939 0.365179 0.109963 0 200 255
0.421975 0.296414 0.135376 0 200 255
0.327198 0.278846 0.103909 0 200 255
0.430193 0.354684 0.146519 0 200 255
0.438568 0.377131 0.109408 0 200 255
0.422968 0.272198 0.173534 0 200 255
0.425715 0.351238 0.161696 0 200 255
0.414228 0.323907 0.162795 0 200 255
0.349962 0.352713 0.142891 0 200 255
0.368583 0.344697 0.155211 0 200 255
0.430299 0.266699 0.140631 0 200 255
0.381226 0.243223 0.149261 0 200 255
0.358937 0.358767 0.146896 0 200 255
0.432095 0.351470 0.067666 0 200 255
0.350176 0.262780 0.116081 0 200 255
0.353618 0.271731 0.128834 0 200 255
0.457317 0.326415 0.179338 0 200 255
0.453352 0.385426 0.142694 0 200 255
0.417201 0.344303 0.146308 0 200 255
0.431350 0.295951 0.135178 0 200 255
0.339441 0.358854 0.107066 0 200 255
0.416301 0.363261 0.125992 0 200 255
0.435060 0.353599 0.141815 0 200 255
0.405178 0.328079 0.158476 0 200 255
0.386354 0.247131 0.144827 0 200 255
0.359508 0.351182 0.142470 0 200 255
0.468757 0.279600 0.135849 0 200 255
0.335921 0.272616 0.102862 0 200 255
0.416310 0.321168 0.169173 0 200 255
0.460088 0.310205 0.179800 0 200 255
0.403627 0.245798 0.139549 0 200 255
0.353785 0.269829 0.117345 0 200 255
0.434941 0.336008 0.156186 0 200 255
0.436920 0.366108 0.144288 0 200 255
0.428386 0.375545 0.139537 0 200 255
0.436350 0.394718 0.102414 0 200 255
0.343602 0.248444 0.115488 0 200 255
0.426921 0.337443 0.177842 0 200 255
0.435132 0.341607 0.145945 0 200 255
0.373228 0.265457 0.128410 0 200 255
0.421026 0.259478 0.138525 0 200 255
