ply
format ascii 1.0
element vertex 1024
property float x
property float y
property float z
property uchar red
property uchar green
property uchar blue
end_header
0.476633 0.244899 0.255039 0 200 255
0.359749 0.383313 0.250354 0 200 255
0.345629 0.230765 0.207206 0 200 255
0.453749 0.340036 0.162943 0 200 255
0.493622 0.355626 0.266285 0 200 255
0.414308 0.314997 0.268480 0 200 255
0.446527 0.406423 0.216025 0 200 255
0.420002 0.209768 0.216772 0 200 255
0.525030 0.295760 0.251543 0 200 255
0.458266 0.325728 0.223860 0 200 255
0.473134 0.298454 0.284671 0 200 255
0.435961 0.274693 0.245449 0 200 255
0.449507 0.370527 0.249828 0 200 255
0.523709 0.238568 0.264450 0 200 255
0.393327 0.356857 0.269516 0 200 255
0.378321 0.213910 0.236384 0 200 255
0.483061 0.286639 0.240354 0 200 255
0.434378 0.232045 0.251500 0 200 255
0.482540 0.382797 0.226943 0 200 255
0.457440 0.332987 0.266366 0 200 255
0.505081 0.270427 0.281177 0 200 255
0.507554 0.316369 0.280288 0 200 255
0.452949 0.266494 0.279372 0 200 255
0.512558 0.263792 0.238276 0 200 255
0.494390 0.322112 0.246875 0 200 255
0.441126 0.343713 0.197860 0 200 255
0.491214 0.222660 0.279176 0 200 255
0.436946 0.242262 0.217280 0 200 255
0.380183 0.219294 0.201132 0 200 255
0.405568 0.237474 0.231838 0 200 255
0.472752 0.395694 0.196952 0 200 255
0.442738 0.297255 0.270419 0 200 255
0.496567 0.230760 0.233119 0 200 255
0.474126 0.350869 0.240905 0 200 255
0.398590 0.333996 0.248973 0 200 255
0.454303 0.299161 0.241003 0 200 255
0.373900 0.357729 0.247057 0 200 255
0.477063 0.378647 0.255416 0 200 255
0.442942 0.343216 0.241527 0 200 255
0.456298 0.256197 0.238213 0 200 255
0.374003 0.237900 0.221688 0 200 255
0.406232 0.211192 0.242433 0 200 255
0.450354 0.378496 0.217969 0 200 255
0.482442 0.254624 0.281306 0 200 255
0.436066 0.317524 0.252239 0 200 255
0.470623 0.309448 0.260042 0 200 255
0.526255 0.267688 0.260338 0 200 255
0.453373 0.243185 0.266506 0 200 255
0.440354 0.219326 0.229541 0 200 255
0.466061 0.357473 0.264087 0 200 255
0.483278 0.322879 0.283836 0 200 255
0.481596 0.220648 0.250567 0 200 255
0.517559 0.291836 0.277943 0 200 255
0.453446 0.349861 0.218545 0 200 255
0.508157 0.334798 0.263072 0 200 255
0.460011 0.332678 0.186361 0 200 255
0.403029 0.231770 0.207943 0 200 255
0.501542 0.246307 0.257003 0 200 255
0.410772 0.339585 0.271335 0 200 255
0.450078 0.316969 0.283002 0 200 255
0.474254 0.285881 0.263325 0 200 255
0.395601 0.209028 0.220374 0 200 255
0.503811 0.243914 0.280624 0 200 255
0.488885 0.261865 0.238246 0 200 255
0.470514 0.401947 0.219763 0 200 255
0.361803 0.217491 0.218268 0 200 255
0.458084 0.389905 0.237155 0 200 255
0.480713 0.337396 0.259160 0 200 255
0.517469 0.237302 0.240498 0 200 255
0.427585 0.296099 0.251308 0 200 255
0.503890 0.300636 0.244109 0 200 255
0.377057 0.372024 0.264767 0 200 255
0.495945 0.348560 0.245088 0 200 255
0.455195 0.234693 0.244186 0 200 255
0.457064 0.323691 0.246201 0 200 255
0.463858 0.368459 0.232220 0 200 255
0.518831 0.315367 0.259473 0 200 255
0.476574 0.276024 0.282858 0 200 255
0.494769 0.289093 0.283071 0 200 255
0.440786 0.261465 0.262666 0 200 255
0.420013 0.333000 0.253678 0 200 255
0.457310 0.276584 0.242782 0 200 255
0.455877 0.287066 0.283320 0 200 255
0.488708 0.364695 0.234291 0 200 255
0.364566 0.232911 0.200266 0 200 255
0.449821 0.349067 0.180412 0 200 255
0.432487 0.279457 0.264881 0 200 255
0.437912 0.245703 0.237484 0 200 255
0.460168 0.335135 0.206036 0 200 255
0.440690 0.392087 0.228392 0 200 255
0.414536 0.228800 0.246787 0 200 255
0.516154 0.282825 0.239817 0 200 255
0.493276 0.321867 0.267212 0 200 255
0.390346 0.227972 0.224205 0 200 255
0.469825 0.382356 0.210565 0 200 255
0.391268 0.337446 0.266421 0 200 255
0.424836 0.227956 0.213031 0 200 255
0.394023 0.352493 0.250611 0 200 255
0.425478 0.214303 0.241034 0 200 255
0.485696 0.306009 0.241804 0 200 255
0.452256 0.314047 0.264448 0 200 255
0.446506 0.391694 0.204207 0 200 255
0.433254 0.313581 0.270488 0 200 255
0.474664 0.237437 0.271800 0 200 255
0.355962 0.235210 0.223807 0 200 255
0.472410 0.261859 0.246123 0 200 255
0.456429 0.353741 0.247912 0 200 255
0.376807 0.351434 0.264268 0 200 255
0.443047 0.335498 0.225152 0 200 255
0.514863 0.255435 0.267055 0 200 255
0.465294 0.253843 0.274792 0 200 255
0.361246 0.366803 0.257306 0 200 255
0.473234 0.240091 0.238382 0 200 255
0.490339 0.365842 0.252280 0 200 255
0.395291 0.225716 0.240939 0 200 255
0.378192 0.209555 0.218065 0 200 255
0.497958 0.332243 0.281644 0 200 255
0.466041 0.320862 0.275638 0 200 255
0.422245 0.241773 0.228763 0 200 255
0.474815 0.390856 0.243260 0 200 255
0.443082 0.334757 0.256758 0 200 255
0.458510 0.339561 0.235542 0 200 255
0.373913 0.374747 0.245692 0 200 255
0.510726 0.326821 0.247287 0 200 255
0.461033 0.252874 0.254896 0 200 255
0.419307 0.311559 0.252703 0 200 255
0.447583 0.330105 0.175231 0 200 255
0.493326 0.308080 0.283962 0 200 255
0.466089 0.337716 0.250832 0 200 255
0.475773 0.322004 0.250143 0 200 255
0.366637 0.225275 0.232407 0 200 255
0.444879 0.247465 0.252763 0 200 255
0.468788 0.365355 0.249587 0 200 255
0.460347 0.402355 0.205823 0 200 255
0.447103 0.375800 0.234292 0 200 255
0.527174 0.285368 0.266106 0 200 255
0.426313 0.298736 0.268194 0 200 255
0.500376 0.278592 0.242250 0 200 255
0.423715 0.328496 0.269878 0 200 255
0.495645 0.246950 0.240141 0 200 255
0.466190 0.310308 0.242994 0 200 255
0.415238 0.219580 0.229338 0 200 255
0.384152 0.232930 0.209227 0 200 255
0.438203 0.283433 0.279560 0 200 255
0.420999 0.243699 0.246425 0 200 255
0.444528 0.299306 0.254456 0 200 255
0.403162 0.326160 0.264872 0 200 255
0.404687 0.215784 0.208984 0 200 255
0.445456 0.329976 0.209474 0 200 255
0.513582 0.232246 0.276126 0 200 255
0.407179 0.345065 0.256896 0 200 255
0.488097 0.236492 0.261950 0 200 255
0.517056 0.309354 0.244499 0 200 255
0.449940 0.230338 0.223550 0 200 255
0.457884 0.392584 0.218452 0 200 255
0.518876 0.306627 0.272663 0 200 255
0.521219 0.272718 0.274372 0 200 255
0.459516 0.304414 0.279632 0 200 255
0.456564 0.346650 0.194197 0 200 255
0.469851 0.295345 0.241225 0 200 255
0.485014 0.378584 0.241634 0 200 255
0.468242 0.343697 0.270748 0 200 255
0.478531 0.352682 0.256314 0 200 255
0.514014 0.252527 0.250746 0 200 255
0.461417 0.380042 0.248947 0 200 255
0.439360 0.306026 0.282391 0 200 255
0.445533 0.330970 0.190799 0 200 255
0.445693 0.287307 0.244909 0 200 255
0.463734 0.237205 0.256604 0 200 255
0.389437 0.208747 0.206579 0 200 255
0.467124 0.384070 0.226700 0 200 255
0.489413 0.268398 0.281922 0 200 255
0.440232 0.345542 0.213219 0 200 255
0.443273 0.261936 0.242416 0 200 255
0.408960 0.206418 0.226275 0 200 255
0.447664 0.324428 0.234849 0 200 255
0.434501 0.232931 0.231034 0 200 255
0.413490 0.237452 0.216344 0 200 255
0.365081 0.218650 0.203204 0 200 255
0.525693 0.273676 0.245798 0 200 255
0.384894 0.366831 0.250867 0 200 255
0.408531 0.321914 0.252261 0 200 255
0.488266 0.238822 0.276042 0 200 255
0.481169 0.221305 0.269212 0 200 255
0.480176 0.365341 0.262475 0 200 255
0.464736 0.322278 0.260814 0 200 255
0.358399 0.240569 0.211023 0 200 255
0.497719 0.343534 0.259730 0 200 255
0.377171 0.223035 0.223525 0 200 255
0.478981 0.394433 0.211826 0 200 255
0.439040 0.225093 0.217026 0 200 255
0.469804 0.272744 0.238201 0 200 255
0.512750 0.323522 0.269811 0 200 255
0.459525 0.345847 0.260393 0 200 255
0.482105 0.347023 0.268770 0 200 255
0.458983 0.368486 0.259435 0 200 255
0.499211 0.256620 0.282260 0 200 255
0.483084 0.230904 0.240298 0 200 255
0.453384 0.361263 0.237036 0 200 255
0.401828 0.221749 0.227776 0 200 255
0.481280 0.250299 0.242111 0 200 255
0.475937 0.395469 0.230308 0 200 255
0.447838 0.230983 0.254862 0 200 255
0.474374 0.311577 0.280691 0 200 255
0.471775 0.377445 0.239527 0 200 255
0.391207 0.214577 0.232631 0 200 255
0.447642 0.349615 0.230707 0 200 255
0.397768 0.345663 0.275422 0 200 255
0.465682 0.269479 0.276463 0 200 255
0.450449 0.350784 0.205364 0 200 255
0.446060 0.404994 0.202729 0 200 255
0.439385 0.394354 0.215280 0 200 255
0.411982 0.326943 0.276061 0 200 255
0.459667 0.339540 0.174900 0 200 255
0.468684 0.285019 0.276960 0 200 255
0.442524 0.343093 0.170985 0 200 255
0.428264 0.214238 0.226227 0 200 255
0.385875 0.342971 0.255117 0 200 255
0.349219 0.224896 0.218790 0 200 255
0.473596 0.405387 0.206741 0 200 255
0.509993 0.302113 0.281280 0 200 255
0.365395 0.378761 0.261276 0 200 255
0.505724 0.286244 0.276458 0 200 255
0.373098 0.226213 0.211070 0 200 255
0.451437 0.400026 0.227029 0 200 255
0.439587 0.221616 0.242355 0 200 255
0.391956 0.222589 0.205615 0 200 255
0.446175 0.326539 0.267052 0 200 255
0.481336 0.326943 0.266997 0 200 255
0.482733 0.273307 0.239104 0 200 255
0.490449 0.238928 0.248872 0 200 255
0.446416 0.384784 0.243548 0 200 255
0.449210 0.256587 0.272007 0 200 255
0.476703 0.369108 0.231021 0 200 255
0.381730 0.228252 0.234322 0 200 255
0.482048 0.287927 0.283044 0 200 255
0.459409 0.305245 0.252535 0 200 255
0.425991 0.222547 0.250750 0 200 255
0.509257 0.246879 0.239201 0 200 255
0.409038 0.239818 0.243917 0 200 255
0.456202 0.302447 0.267343 0 200 255
0.369422 0.361533 0.265440 0 200 255
0.512723 0.260839 0.278427 0 200 255
0.523593 0.239103 0.251293 0 200 255
0.362053 0.369875 0.245211 0 200 255
0.503070 0.314309 0.242557 0 200 255
0.442134 0.269010 0.273807 0 200 255
0.441583 0.340290 0.183686 0 200 255
0.453872 0.337719 0.216341 0 200 255
0.431330 0.283492 0.253283 0 200 255
0.494169 0.337364 0.271154 0 200 255
0.489682 0.332328 0.251754 0 200 255
0.461015 0.351660 0.236754 0 200 255
0.445258 0.329410 0.245766 0 200 255
0.423195 0.321011 0.260212 0 200 255
0.484520 0.344291 0.245990 0 200 255
0.435753 0.305207 0.260595 0 200 255
0.521445 0.301091 0.261945 0 200 255
0.495514 0.291755 0.243474 0 200 255
0.450452 0.245350 0.240608 0 200 255
0.488710 0.279507 0.277045 0 200 255
0.451047 0.343483 0.252026 0 200 255
0.443982 0.233297 0.238606 0 200 255
0.476832 0.264880 0.275598 0 200 255
0.400104 0.333077 0.274290 0 200 255
0.448442 0.298151 0.283530 0 200 255
0.354214 0.223682 0.202026 0 200 255
0.463294 0.326050 0.236193 0 200 255
0.382968 0.361630 0.262752 0 200 255
0.501440 0.228671 0.280993 0 200 255
0.463660 0.390848 0.203085 0 200 255
0.448090 0.322408 0.255966 0 200 255
0.470332 0.259857 0.257721 0 200 255
0.417185 0.219789 0.209054 0 200 255
0.434442 0.295580 0.280065 0 200 255
0.454899 0.384793 0.226797 0 200 255
0.361815 0.228951 0.215743 0 200 255
0.475153 0.234119 0.260594 0 200 255
0.432109 0.306722 0.249531 0 200 255
0.385441 0.221656 0.215430 0 200 255
0.443031 0.301916 0.241832 0 200 255
0.521174 0.259755 0.245125 0 200 255
0.385264 0.346114 0.271289 0 200 255
0.398186 0.348357 0.263498 0 200 255
0.428155 0.222941 0.234025 0 200 255
0.370288 0.214288 0.226104 0 200 255
0.514968 0.269493 0.247845 0 200 255
0.484601 0.354154 0.237887 0 200 255
0.456909 0.288171 0.239566 0 200 255
0.384824 0.207025 0.226961 0 200 255
0.495275 0.354391 0.254822 0 200 255
0.434650 0.243685 0.249665 0 200 255
0.444361 0.308488 0.270348 0 200 255
0.493098 0.318459 0.279467 0 200 255
0.463674 0.394832 0.228647 0 200 255
0.357018 0.223093 0.226884 0 200 255
0.405971 0.222444 0.243062 0 200 255
0.403198 0.234407 0.219743 0 200 255
0.501503 0.265884 0.237974 0 200 255
0.415667 0.209840 0.236513 0 200 255
0.473061 0.317101 0.267797 0 200 255
0.437542 0.293480 0.261288 0 200 255
0.507631 0.331605 0.276144 0 200 255
0.421173 0.318600 0.276460 0 200 255
0.458377 0.276289 0.282175 0 200 255
0.409651 0.333043 0.248694 0 200 255
0.484787 0.301088 0.282949 0 200 255
0.396324 0.219949 0.216625 0 200 255
0.470377 0.361772 0.238178 0 200 255
0.454439 0.348240 0.170409 0 200 255
0.471151 0.342880 0.259911 0 200 255
0.456122 0.356716 0.259363 0 200 255
0.505164 0.288050 0.239248 0 200 255
0.371234 0.237756 0.207567 0 200 255
0.400192 0.206817 0.232921 0 200 255
0.458354 0.378927 0.236545 0 200 255
0.447532 0.325602 0.221495 0 200 255
0.430558 0.216191 0.215680 0 200 255
0.416694 0.215891 0.247361 0 200 255
0.423086 0.307264 0.262179 0 200 255
0.383734 0.356190 0.252920 0 200 255
0.484620 0.296552 0.247082 0 200 255
0.373075 0.212636 0.208979 0 200 255
0.472178 0.390970 0.220004 0 200 255
0.453630 0.336493 0.197481 0 200 255
0.493493 0.247460 0.281208 0 200 255
0.472454 0.284588 0.239945 0 200 255
0.504636 0.234256 0.239381 0 200 255
0.470326 0.333120 0.270213 0 200 255
0.417233 0.334934 0.263926 0 200 255
0.465151 0.253984 0.244799 0 200 255
0.449457 0.256066 0.259212 0 200 255
0.394963 0.233460 0.232257 0 200 255
0.411575 0.216172 0.219793 0 200 255
0.447628 0.276478 0.279268 0 200 255
0.510237 0.246406 0.270606 0 200 255
0.477075 0.235839 0.247696 0 200 255
0.479412 0.383103 0.215314 0 200 255
0.459935 0.330725 0.256192 0 200 255
0.458961 0.244751 0.247081 0 200 255
0.446013 0.240436 0.222621 0 200 255
0.437401 0.268481 0.255360 0 200 255
0.483763 0.315816 0.253520 0 200 255
0.479855 0.367701 0.251919 0 200 255
0.511565 0.277379 0.275592 0 200 255
0.457280 0.369793 0.242082 0 200 255
0.437983 0.403163 0.209417 0 200 255
0.426372 0.241087 0.217195 0 200 255
0.526860 0.278636 0.257882 0 200 255
0.442786 0.309401 0.250894 0 200 255
0.434259 0.294400 0.243216 0 200 255
0.456726 0.266790 0.237904 0 200 255
0.522141 0.258817 0.256326 0 200 255
0.525123 0.285980 0.244356 0 200 255
0.477149 0.245836 0.278929 0 200 255
0.409234 0.207182 0.212990 0 200 255
0.354556 0.236189 0.202280 0 200 255
0.486787 0.240248 0.237404 0 200 255
0.509429 0.325489 0.258491 0 200 255
0.448886 0.339412 0.206573 0 200 255
0.488135 0.344921 0.255762 0 200 255
0.446303 0.348960 0.190237 0 200 255
0.521910 0.262803 0.269248 0 200 255
0.488590 0.330856 0.277285 0 200 255
0.452985 0.368543 0.229601 0 200 255
0.471218 0.325246 0.283538 0 200 255
0.463905 0.243549 0.275256 0 200 255
0.493309 0.359402 0.244679 0 200 255
0.470975 0.258966 0.281811 0 200 255
0.513859 0.297828 0.243701 0 200 255
0.452131 0.240414 0.255095 0 200 255
0.482231 0.315702 0.242824 0 200 255
0.459930 0.336841 0.224649 0 200 255
0.414573 0.235129 0.227007 0 200 255
0.455980 0.331802 0.169212 0 200 255
0.443022 0.385069 0.220931 0 200 255
0.496869 0.276386 0.282811 0 200 255
0.356051 0.375635 0.257156 0 200 255
0.481667 0.387543 0.236442 0 200 255
0.453804 0.346045 0.241798 0 200 255
0.456222 0.324061 0.271023 0 200 255
0.392874 0.229165 0.214187 0 200 255
0.418240 0.221282 0.238926 0 200 255
0.457231 0.344590 0.209579 0 200 255
0.392101 0.359643 0.258932 0 200 255
0.500261 0.335468 0.254249 0 200 255
0.476697 0.265374 0.237715 0 200 255
0.443563 0.333738 0.236851 0 200 255
0.461299 0.332777 0.243373 0 200 255
0.428770 0.289714 0.264351 0 200 255
0.481913 0.327363 0.256998 0 200 255
0.415802 0.229927 0.209172 0 200 255
0.476000 0.358952 0.246915 0 200 255
0.451634 0.264356 0.247334 0 200 255
0.457515 0.344075 0.184387 0 200 255
0.467341 0.404708 0.198997 0 200 255
0.461312 0.295377 0.284193 0 200 255
0.373674 0.377050 0.256000 0 200 255
0.455364 0.393932 0.208171 0 200 255
0.397140 0.332285 0.259862 0 200 255
0.418487 0.322937 0.251671 0 200 255
0.488818 0.332542 0.262247 0 200 255
0.496061 0.306053 0.241259 0 200 255
0.491139 0.280778 0.239323 0 200 255
0.465592 0.237089 0.267783 0 200 255
0.433678 0.233221 0.214848 0 200 255
0.450539 0.385319 0.210636 0 200 255
0.376733 0.363132 0.255105 0 200 255
0.434581 0.318453 0.261983 0 200 255
0.421438 0.219116 0.219649 0 200 255
0.441111 0.345119 0.223997 0 200 255
0.485630 0.374299 0.232809 0 200 255
0.482387 0.227273 0.261498 0 200 255
0.497348 0.241874 0.264706 0 200 255
0.449878 0.391753 0.232052 0 200 255
0.448755 0.304907 0.261530 0 200 255
0.482678 0.356314 0.265831 0 200 255
0.446753 0.290046 0.278382 0 200 255
0.454326 0.328455 0.213362 0 200 255
0.521001 0.277785 0.266057 0 200 255
0.347906 0.235811 0.215216 0 200 255
0.449847 0.339579 0.189057 0 200 255
0.444021 0.333673 0.200401 0 200 255
0.462517 0.296746 0.247462 0 200 255
0.372596 0.232453 0.229659 0 200 255
0.374710 0.230462 0.202155 0 200 255
0.355984 0.220021 0.210848 0 200 255
0.500075 0.250338 0.248089 0 200 255
0.466607 0.385715 0.242820 0 200 255
0.456234 0.345291 0.227616 0 200 255
0.463990 0.238778 0.241350 0 200 255
0.513055 0.247643 0.261433 0 200 255
0.473117 0.351349 0.266569 0 200 255
0.474968 0.388668 0.203204 0 200 255
0.475397 0.341835 0.247944 0 200 255
0.433920 0.303993 0.271055 0 200 255
0.451900 0.328133 0.183900 0 200 255
0.399690 0.343520 0.249688 0 200 255
0.425545 0.233062 0.247912 0 200 255
0.385700 0.217423 0.224023 0 200 255
0.381988 0.234278 0.225544 0 200 255
0.442704 0.238352 0.250796 0 200 255
0.403641 0.232259 0.241649 0 200 255
0.469498 0.374948 0.248899 0 200 255
0.468518 0.328601 0.252313 0 200 255
0.457319 0.315517 0.251118 0 200 255
0.419073 0.209088 0.226230 0 200 255
0.448404 0.276617 0.239434 0 200 255
0.454124 0.400831 0.214951 0 200 255
0.446557 0.334867 0.167091 0 200 255
0.398050 0.216699 0.241081 0 200 255
0.502518 0.324251 0.251149 0 200 255
0.485819 0.374955 0.252691 0 200 255
0.489598 0.363090 0.262191 0 200 255
0.515240 0.237493 0.268414 0 200 255
0.463388 0.316347 0.283460 0 200 255
0.452279 0.334002 0.251812 0 200 255
0.458585 0.383213 0.217995 0 200 255
0.500738 0.326720 0.272007 0 200 255
0.370066 0.366820 0.249065 0 200 255
0.453752 0.361900 0.251899 0 200 255
0.467298 0.399010 0.211177 0 200 255
0.433814 0.242203 0.229821 0 200 255
0.433235 0.232687 0.242228 0 200 255
0.460183 0.344985 0.250804 0 200 255
0.414845 0.324262 0.267552 0 200 255
0.365385 0.233156 0.223249 0 200 255
0.429608 0.244564 0.241542 0 200 255
0.500287 0.296293 0.280992 0 200 255
0.519006 0.271272 0.239670 0 200 255
0.475908 0.289994 0.246655 0 200 255
0.454496 0.377012 0.254329 0 200 255
0.489349 0.368547 0.243499 0 200 255
0.466146 0.317427 0.249201 0 200 255
0.452300 0.312727 0.275121 0 200 255
0.400009 0.340442 0.267859 0 200 255
0.443569 0.262445 0.252137 0 200 255
0.470644 0.375881 0.228977 0 200 255
0.410140 0.319747 0.261055 0 200 255
0.406788 0.223236 0.216358 0 200 255
0.522011 0.284415 0.274845 0 200 255
0.468737 0.246972 0.249500 0 200 255
0.436972 0.294677 0.252131 0 200 255
0.427285 0.315647 0.250440 0 200 255
0.387217 0.206358 0.217865 0 200 255
0.386434 0.218014 0.239632 0 200 255
0.496097 0.239810 0.234255 0 200 255
0.474860 0.307487 0.242588 0 200 255
0.515084 0.242383 0.250985 0 200 255
0.480398 0.336249 0.268205 0 200 255
0.443536 0.385809 0.234816 0 200 255
0.443558 0.399651 0.221410 0 200 255
0.418081 0.241954 0.236867 0 200 255
0.461200 0.370253 0.250764 0 200 255
0.448175 0.340552 0.231309 0 200 255
0.478766 0.382505 0.246959 0 200 255
0.387585 0.351870 0.260291 0 200 255
0.496534 0.257493 0.240478 0 200 255
0.445411 0.227458 0.246155 0 200 255
0.526899 0.287010 0.254437 0 200 255
0.368429 0.359642 0.255788 0 200 255
0.464390 0.359714 0.255099 0 200 255
0.479041 0.328358 0.278041 0 200 255
0.423316 0.314692 0.268523 0 200 255
0.438589 0.269791 0.265250 0 200 255
0.479245 0.218916 0.260509 0 200 255
0.397595 0.210427 0.210243 0 200 255
0.466872 0.345583 0.240945 0 200 255
0.438920 0.234901 0.222008 0 200 255
0.432142 0.223368 0.226007 0 200 255
0.367385 0.370055 0.263557 0 200 255
0.374698 0.222160 0.234741 0 200 255
0.460343 0.262625 0.244942 0 200 255
0.478157 0.359635 0.234337 0 200 255
0.489628 0.225719 0.243462 0 200 255
0.440750 0.313145 0.277199 0 200 255
0.482425 0.233967 0.269129 0 200 255
0.523892 0.294487 0.272279 0 200 255
0.502031 0.322947 0.262731 0 200 255
0.467154 0.369485 0.241880 0 200 255
0.492191 0.313981 0.242153 0 200 255
0.459306 0.260526 0.277817 0 200 255
0.464722 0.337650 0.264469 0 200 255
0.430716 0.290508 0.272936 0 200 255
0.368952 0.225599 0.220402 0 200 255
0.434012 0.216416 0.234985 0 200 255
0.368634 0.381065 0.248852 0 200 255
0.488419 0.317162 0.260875 0 200 255
0.461436 0.332366 0.217220 0 200 255
0.454926 0.385300 0.246199 0 200 255
0.515572 0.316986 0.274965 0 200 255
0.471559 0.380784 0.219035 0 200 255
0.442037 0.337245 0.248003 0 200 255
0.376071 0.352383 0.254740 0 200 255
0.428758 0.225024 0.242485 0 200 255
0.404063 0.215620 0.233575 0 200 255
0.506422 0.273866 0.238094 0 200 255
0.477689 0.249878 0.262116 0 200 255
0.518697 0.277440 0.249328 0 200 255
0.421039 0.236813 0.211834 0 200 255
0.450178 0.376602 0.243672 0 200 255
0.384927 0.355111 0.270794 0 200 255
0.507290 0.254161 0.277378 0 200 255
0.450809 0.306335 0.252372 0 200 255
0.437122 0.278094 0.272816 0 200 255
0.375311 0.219214 0.215970 0 200 255
0.381206 0.209689 0.209178 0 200 255
0.507373 0.256878 0.238348 0 200 255
0.467887 0.307197 0.284346 0 200 255
0.499337 0.335887 0.263395 0 200 255
0.519205 0.245152 0.268107 0 200 255
0.449312 0.320152 0.244857 0 200 255
0.501093 0.321987 0.281284 0 200 255
0.455903 0.321647 0.235698 0 200 255
0.408896 0.331924 0.267702 0 200 255
0.442587 0.248332 0.244518 0 200 255
0.430339 0.322955 0.255835 0 200 255
0.452880 0.330508 0.203608 0 200 255
0.394101 0.342375 0.258883 0 200 255
0.371894 0.222834 0.199412 0 200 255
0.480285 0.391095 0.224361 0 200 255
0.478580 0.261025 0.255735 0 200 255
0.378546 0.365089 0.245392 0 200 255
0.407891 0.223361 0.206640 0 200 255
0.445459 0.339176 0.216059 0 200 255
0.361809 0.239809 0.219268 0 200 255
0.465318 0.289070 0.244795 0 200 255
0.401256 0.215211 0.221897 0 200 255
0.499485 0.312931 0.280546 0 200 255
0.494825 0.233913 0.282115 0 200 255
0.401202 0.350933 0.254907 0 200 255
0.429135 0.312598 0.259075 0 200 255
0.452712 0.249654 0.250291 0 200 255
0.474413 0.284049 0.284527 0 200 255
0.487611 0.230329 0.279183 0 200 255
0.428018 0.321334 0.271230 0 200 255
0.467232 0.391521 0.236717 0 200 255
0.490123 0.348201 0.264345 0 200 255
0.490871 0.299429 0.240908 0 200 255
0.451187 0.338241 0.244634 0 200 255
0.428769 0.302193 0.256958 0 200 255
0.402749 0.327164 0.256328 0 200 255
0.391900 0.338143 0.251880 0 200 255
0.463815 0.350501 0.268134 0 200 255
0.516418 0.309683 0.253826 0 200 255
0.398601 0.227144 0.220231 0 200 255
0.412831 0.339890 0.253548 0 200 255
0.447677 0.250457 0.266540 0 200 255
0.490454 0.256142 0.283108 0 200 255
0.382116 0.235973 0.216716 0 200 255
0.460854 0.378855 0.228415 0 200 255
0.434691 0.223822 0.250258 0 200 255
0.382677 0.220432 0.231156 0 200 255
0.496387 0.270250 0.277229 0 200 255
0.504557 0.279425 0.281062 0 200 255
0.470233 0.324909 0.266446 0 200 255
0.455107 0.310053 0.283821 0 200 255
0.437650 0.227093 0.236010 0 200 255
0.453717 0.325669 0.261107 0 200 255
0.440445 0.227028 0.226495 0 200 255
0.423370 0.211538 0.233522 0 200 255
0.484204 0.248238 0.254827 0 200 255
0.446990 0.380173 0.227267 0 200 255
0.455343 0.251971 0.275094 0 200 255
0.484389 0.360565 0.256307 0 200 255
0.483574 0.230181 0.248506 0 200 255
0.449648 0.343905 0.222815 0 200 255
0.493372 0.268777 0.238498 0 200 255
0.472875 0.311163 0.252305 0 200 255
0.519916 0.243880 0.258872 0 200 255
0.484919 0.321679 0.247864 0 200 255
0.377166 0.210100 0.227798 0 200 255
0.465422 0.314437 0.264011 0 200 255
0.445539 0.351842 0.217460 0 200 255
0.354440 0.230036 0.207714 0 200 255
0.370097 0.212774 0.218041 0 200 255
0.417251 0.332731 0.272608 0 200 255
0.489145 0.222041 0.270874 0 200 255
0.478518 0.373096 0.238015 0 200 255
0.458406 0.321115 0.278495 0 200 255
0.423198 0.329477 0.260306 0 200 255
0.452113 0.321654 0.228492 0 200 255
0.466786 0.281079 0.283827 0 200 255
0.475124 0.361909 0.257098 0 200 255
0.472497 0.321405 0.257564 0 200 255
0.440524 0.342091 0.205807 0 200 255
0.458196 0.311495 0.243854 0 200 255
0.475541 0.349890 0.248998 0 200 255
0.471376 0.254465 0.251178 0 200 255
0.512218 0.318887 0.262604 0 200 255
0.485436 0.309924 0.284469 0 200 255
0.463007 0.399098 0.218571 0 200 255
0.488053 0.352048 0.271172 0 200 255
0.466379 0.381200 0.234233 0 200 255
0.475978 0.370864 0.258310 0 200 255
0.386958 0.343845 0.263710 0 200 255
0.381324 0.370192 0.258145 0 200 255
0.396166 0.223888 0.233108 0 200 255
0.467813 0.351028 0.259567 0 200 255
0.417634 0.236234 0.246450 0 200 255
0.363188 0.217863 0.227411 0 200 255
0.466186 0.238824 0.249094 0 200 255
0.449875 0.368456 0.239224 0 200 255
0.509655 0.292928 0.278987 0 200 255
0.449117 0.347299 0.197584 0 200 255
0.450876 0.398304 0.202967 0 200 255
0.407063 0.322931 0.271088 0 200 255
0.387165 0.215597 0.203090 0 200 255
0.459472 0.339501 0.190669 0 200 255
0.475254 0.265895 0.283389 0 200 255
0.366193 0.216240 0.210917 0 200 255
0.491974 0.246529 0.250871 0 200 255
0.440382 0.311426 0.258248 0 200 255
0.403875 0.347318 0.269169 0 200 255
0.444181 0.298091 0.262605 0 200 255
0.499773 0.342368 0.268014 0 200 255
0.475771 0.245000 0.244367 0 200 255
0.479131 0.300810 0.241783 0 200 255
0.448686 0.389262 0.224587 0 200 255
0.512170 0.319605 0.250253 0 200 255
0.478054 0.303635 0.279612 0 200 255
0.444358 0.241164 0.236608 0 200 255
0.457024 0.234831 0.251891 0 200 255
0.482159 0.319219 0.265269 0 200 255
0.492671 0.235791 0.240266 0 200 255
0.477544 0.396631 0.204364 0 200 255
0.376878 0.363221 0.267540 0 200 255
0.477885 0.344167 0.255983 0 200 255
0.444710 0.333260 0.181916 0 200 255
0.500951 0.305602 0.283086 0 200 255
0.456693 0.246626 0.256999 0 200 255
0.504013 0.246091 0.264964 0 200 255
0.450603 0.405931 0.209097 0 200 255
0.441720 0.295051 0.245648 0 200 255
0.440133 0.394998 0.207436 0 200 255
0.496243 0.344795 0.252102 0 200 255
0.363049 0.377623 0.244394 0 200 255
0.444923 0.269655 0.240417 0 200 255
0.463283 0.302139 0.241817 0 200 255
0.450729 0.304054 0.278910 0 200 255
0.429177 0.300599 0.276288 0 200 255
0.471996 0.255106 0.241175 0 200 255
0.477665 0.397499 0.218901 0 200 255
0.416656 0.313496 0.261176 0 200 255
0.425872 0.307468 0.270045 0 200 255
0.459005 0.332028 0.176885 0 200 255
0.392559 0.348131 0.269407 0 200 255
0.447992 0.344732 0.165675 0 200 255
0.445382 0.224400 0.232655 0 200 255
0.466534 0.366915 0.257117 0 200 255
0.506149 0.245446 0.250793 0 200 255
0.349052 0.237720 0.207736 0 200 255
0.431417 0.223900 0.215401 0 200 255
0.363867 0.223460 0.209276 0 200 255
0.509429 0.253603 0.256914 0 200 255
0.500398 0.235836 0.277091 0 200 255
0.479695 0.313456 0.259669 0 200 255
0.413294 0.207253 0.219703 0 200 255
0.410362 0.341520 0.263855 0 200 255
0.509889 0.332581 0.255449 0 200 255
0.408495 0.209148 0.233725 0 200 255
0.442110 0.338448 0.191169 0 200 255
0.443809 0.261655 0.269815 0 200 255
0.380571 0.220810 0.209504 0 200 255
0.462359 0.392567 0.212166 0 200 255
0.455652 0.256573 0.248551 0 200 255
0.474432 0.382113 0.233989 0 200 255
0.482688 0.222429 0.242854 0 200 255
0.448273 0.347191 0.211964 0 200 255
0.398113 0.225991 0.209219 0 200 255
0.515986 0.247489 0.245277 0 200 255
0.384004 0.208787 0.235708 0 200 255
0.452992 0.328728 0.191477 0 200 255
0.381536 0.228514 0.214938 0 200 255
0.448767 0.302224 0.269829 0 200 255
0.378724 0.372937 0.251392 0 200 255
0.502793 0.321897 0.243672 0 200 255
0.497845 0.285242 0.239376 0 200 255
0.510922 0.313864 0.243588 0 200 255
0.435572 0.294827 0.268867 0 200 255
0.473393 0.271723 0.275726 0 200 255
0.452085 0.284023 0.277404 0 200 255
0.457729 0.342993 0.200817 0 200 255
0.464450 0.389969 0.221373 0 200 255
0.495814 0.310911 0.248147 0 200 255
0.480752 0.237257 0.256440 0 200 255
0.442727 0.299545 0.278649 0 200 255
0.407515 0.216001 0.226263 0 200 255
0.394379 0.338092 0.273662 0 200 255
0.385356 0.226602 0.205146 0 200 255
0.503568 0.242066 0.240811 0 200 255
0.454203 0.350424 0.188009 0 200 255
0.442405 0.387730 0.213021 0 200 255
0.393762 0.221167 0.223975 0 200 255
0.432004 0.298671 0.262888 0 200 255
0.422887 0.220735 0.226943 0 200 255
0.488115 0.341508 0.269149 0 200 255
0.486143 0.353088 0.259887 0 200 255
0.456211 0.393829 0.227620 0 200 255
0.396903 0.331915 0.267500 0 200 255
0.362176 0.226000 0.198215 0 200 255
0.475352 0.402654 0.213830 0 200 255
0.478244 0.279690 0.239614 0 200 255
0.516669 0.308686 0.262349 0 200 255
0.448395 0.342985 0.176107 0 200 255
0.432145 0.218772 0.245121 0 200 255
0.473292 0.389191 0.210579 0 200 255
0.464278 0.266889 0.237332 0 200 255
0.463377 0.376039 0.242253 0 200 255
0.470169 0.299451 0.247571 0 200 255
0.510477 0.241243 0.244096 0 200 255
0.462237 0.324397 0.252599 0 200 255
0.405005 0.205276 0.219933 0 200 255
0.389385 0.226753 0.234804 0 200 255
0.386813 0.349822 0.250282 0 200 255
0.438253 0.309794 0.266029 0 200 255
0.470529 0.240150 0.255209 0 200 255
0.498088 0.283387 0.279443 0 200 255
0.424768 0.306562 0.251307 0 200 255
0.527645 0.274642 0.264428 0 200 255
0.457127 0.294697 0.277991 0 200 255
0.467534 0.289616 0.282785 0 200 255
0.375866 0.358089 0.260601 0 200 255
0.368558 0.239523 0.215990 0 200 255
0.442560 0.280506 0.244369 0 200 255
0.441861 0.344714 0.231454 0 200 255
0.481573 0.269879 0.282693 0 200 255
0.367500 0.230678 0.208876 0 200 255
0.479185 0.375166 0.248253 0 200 255
0.408462 0.333470 0.274991 0 200 255
0.519231 0.236575 0.257517 0 200 255
0.477974 0.343586 0.263614 0 200 255
0.397447 0.235668 0.239327 0 200 255
0.434437 0.237895 0.237069 0 200 255
0.458343 0.337976 0.256124 0 200 255
0.450438 0.237397 0.238595 0 200 255
0.445344 0.329965 0.230487 0 200 255
0.478198 0.316714 0.284431 0 200 255
0.516189 0.242469 0.274313 0 200 255
0.483530 0.370562 0.258443 0 200 255
0.520240 0.300180 0.276026 0 200 255
0.443080 0.349079 0.207052 0 200 255
0.507505 0.294057 0.243478 0 200 255
0.418194 0.239836 0.222607 0 200 255
0.381372 0.347095 0.260137 0 200 255
0.395927 0.214240 0.226971 0 200 255
0.369085 0.217834 0.232693 0 200 255
0.448467 0.333923 0.261728 0 200 255
0.480490 0.244038 0.238002 0 200 255
0.375628 0.228946 0.219410 0 200 255
0.478058 0.375687 0.228007 0 200 255
0.470179 0.395908 0.225084 0 200 255
0.411941 0.213329 0.209994 0 200 255
0.357491 0.374533 0.248606 0 200 255
0.407385 0.342671 0.249470 0 200 255
0.472311 0.315782 0.245556 0 200 255
0.481894 0.261402 0.241058 0 200 255
0.394352 0.215489 0.206027 0 200 255
0.451747 0.315007 0.255865 0 200 255
0.403082 0.340683 0.274610 0 200 255
0.383016 0.227250 0.222223 0 200 255
0.489508 0.284075 0.283950 0 200 255
0.526721 0.280123 0.249114 0 200 255
0.458308 0.339666 0.242855 0 200 255
0.480928 0.256167 0.246462 0 200 255
0.471024 0.389727 0.229202 0 200 255
0.447687 0.300906 0.248067 0 200 255
0.446525 0.308552 0.282824 0 200 255
0.437602 0.288206 0.245120 0 200 255
0.520327 0.299918 0.246322 0 200 255
0.511478 0.287704 0.242860 0 200 255
0.363780 0.238383 0.204995 0 200 255
0.457165 0.345999 0.177120 0 200 255
0.506627 0.253056 0.249694 0 200 255
0.372767 0.219122 0.205704 0 200 255
0.453358 0.347414 0.234626 0 200 255
0.443145 0.337676 0.175785 0 200 255
0.466164 0.330811 0.259923 0 200 255
0.419530 0.326100 0.275306 0 200 255
0.450027 0.248138 0.260080 0 200 255
0.451020 0.242925 0.247417 0 200 255
0.349540 0.231682 0.221318 0 200 255
0.450419 0.386014 0.218344 0 200 255
0.498351 0.297940 0.240293 0 200 255
0.436025 0.217407 0.220276 0 200 255
0.475382 0.253418 0.280263 0 200 255
0.348991 0.224493 0.211568 0 200 255
0.487514 0.292644 0.282653 0 200 255
0.514366 0.285390 0.278617 0 200 255
0.461204 0.333523 0.232634 0 200 255
0.385310 0.214663 0.213658 0 200 255
0.350650 0.229914 0.201416 0 200 255
0.436873 0.301040 0.248758 0 200 255
0.478375 0.225436 0.254875 0 200 255
0.465881 0.307860 0.254864 0 200 255
0.479545 0.254896 0.236852 0 200 255
0.468444 0.279360 0.242841 0 200 255
0.488708 0.241971 0.257327 0 200 255
0.463801 0.326165 0.244693 0 200 255
0.426883 0.239833 0.249923 0 200 255
0.486639 0.337893 0.255125 0 200 255
0.503474 0.238555 0.233748 0 200 255
0.512074 0.256005 0.243704 0 200 255
0.482010 0.380857 0.233835 0 200 255
0.520828 0.289807 0.248620 0 200 255
0.471083 0.302316 0.278664 0 200 255
0.471002 0.382360 0.247364 0 200 255
0.465986 0.398260 0.196202 0 200 255
0.439727 0.302349 0.266393 0 200 255
0.458942 0.362517 0.232710 0 200 255
0.513856 0.267891 0.278357 0 200 255
0.478958 0.334343 0.252951 0 200 255
0.461291 0.294839 0.240696 0 200 255
0.490814 0.352021 0.240655 0 200 255
0.365135 0.382345 0.255133 0 200 255
0.465285 0.384475 0.215612 0 200 255
0.467060 0.253840 0.259635 0 200 255
0.403752 0.329093 0.248695 0 200 255
0.471846 0.369012 0.236199 0 200 255
0.356222 0.225917 0.218835 0 200 255
0.483743 0.246563 0.281387 0 200 255
0.460332 0.386467 0.231396 0 200 255
0.490296 0.327655 0.257030 0 200 255
0.414255 0.320026 0.273454 0 200 255
0.519623 0.258697 0.262933 0 200 255
0.523251 0.302465 0.252906 0 200 255
0.418463 0.223071 0.248034 0 200 255
0.462875 0.325188 0.266961 0 200 255
0.468015 0.352514 0.237803 0 200 255
0.481261 0.349593 0.242694 0 200 255
0.470284 0.246718 0.277628 0 200 255
0.451862 0.364382 0.244614 0 200 255
0.461203 0.280890 0.238802 0 200 255
0.377756 0.234711 0.206888 0 200 255
0.409374 0.218516 0.238321 0 200 255
0.489092 0.225683 0.236451 0 200 255
0.428417 0.324241 0.263630 0 200 255
0.507494 0.324508 0.279852 0 200 255
0.371386 0.223478 0.227555 0 200 255
0.432623 0.240333 0.222467 0 200 255
0.461778 0.343233 0.267539 0 200 255
0.391392 0.214617 0.220660 0 200 255
0.450177 0.292669 0.245302 0 200 255
0.434769 0.274641 0.253335 0 200 255
0.462709 0.327748 0.228981 0 200 255
0.450663 0.327208 0.249621 0 200 255
0.481174 0.262397 0.282109 0 200 255
0.458583 0.312056 0.266628 0 200 255
0.459231 0.335854 0.249282 0 200 255
0.454576 0.251086 0.243723 0 200 255
0.450242 0.402745 0.220630 0 200 255
0.457301 0.268402 0.247592 0 200 255
0.515419 0.321996 0.255927 0 200 255
0.504165 0.306623 0.247637 0 200 255
0.368072 0.221822 0.214613 0 200 255
0.428899 0.243924 0.234655 0 200 255
0.444436 0.340806 0.253464 0 200 255
0.453410 0.367916 0.255345 0 200 255
0.447625 0.347711 0.238498 0 200 255
0.468816 0.311741 0.269409 0 200 255
0.453176 0.307080 0.242053 0 200 255
0.496591 0.351079 0.260749 0 200 255
0.464005 0.297235 0.278099 0 200 255
0.386505 0.365283 0.257411 0 200 255
0.473031 0.365959 0.242994 0 200 255
0.468366 0.385901 0.204822 0 200 255
0.439540 0.401630 0.215966 0 200 255
0.442690 0.336235 0.210342 0 200 255
0.492338 0.324567 0.273485 0 200 255
0.420595 0.321457 0.270123 0 200 255
0.495079 0.227577 0.239674 0 200 255
0.474368 0.381781 0.225249 0 200 255
0.472896 0.355648 0.260079 0 200 255
0.382075 0.367642 0.266612 0 200 255
0.443224 0.407612 0.209069 0 200 255
0.443450 0.346192 0.179658 0 200 255
0.394145 0.354332 0.263169 0 200 255
0.475277 0.345700 0.269843 0 200 255
0.472944 0.339120 0.254442 0 200 255
0.483517 0.293743 0.240907 0 200 255
0.412718 0.326901 0.249003 0 200 255
0.466760 0.405721 0.207341 0 200 255
0.404727 0.238386 0.238746 0 200 255
0.509796 0.280521 0.238634 0 200 255
0.478238 0.293864 0.284700 0 200 255
0.458846 0.272303 0.276608 0 200 255
0.367471 0.373075 0.248002 0 200 255
0.451984 0.340594 0.237314 0 200 255
0.407866 0.234979 0.213337 0 200 255
0.455612 0.355969 0.240747 0 200 255
0.377752 0.213543 0.203896 0 200 255
0.434753 0.215875 0.227545 0 200 255
0.500166 0.265713 0.280845 0 200 255
0.441265 0.231358 0.253099 0 200 255
0.461073 0.266301 0.280964 0 200 255
0.453386 0.334672 0.185067 0 200 255
0.445429 0.328432 0.257651 0 200 255
0.442023 0.237228 0.243794 0 200 255
0.469028 0.242627 0.243795 0 200 255
0.421303 0.214821 0.211175 0 200 255
0.463076 0.244810 0.258436 0 200 255
0.456655 0.242614 0.240939 0 200 255
0.468677 0.340530 0.245090 0 200 255
0.483612 0.303379 0.247692 0 200 255
0.446597 0.224245 0.225973 0 200 255
0.459166 0.362158 0.262000 0 200 255
0.514576 0.256180 0.273876 0 200 255
0.351840 0.229909 0.214449 0 200 255
0.517823 0.236699 0.248551 0 200 255
0.455098 0.373817 0.247920 0 200 255
0.465002 0.337342 0.257721 0 200 255
0.457817 0.341787 0.168799 0 200 255
0.489877 0.255544 0.240418 0 200 255
0.448912 0.258500 0.250899 0 200 255
0.427961 0.221317 0.221118 0 200 255
0.479357 0.327721 0.250381 0 200 255
0.439318 0.393875 0.222014 0 200 255
0.448537 0.346051 0.246313 0 200 255
0.485749 0.339537 0.263151 0 200 255
0.510116 0.329680 0.266995 0 200 255
0.481090 0.389324 0.217278 0 200 255
0.487409 0.268107 0.241551 0 200 255
0.433779 0.302363 0.280870 0 200 255
0.356751 0.230522 0.198658 0 200 255
0.514519 0.306830 0.279719 0 200 255
0.525737 0.278678 0.270734 0 200 255
0.388362 0.361822 0.266745 0 200 255
0.445152 0.397028 0.227537 0 200 255
0.424433 0.328087 0.252555 0 200 255
0.461872 0.285095 0.281079 0 200 255
0.441045 0.345509 0.187962 0 200 255
0.421890 0.317519 0.254297 0 200 255
0.477352 0.392651 0.236535 0 200 255
0.376579 0.366010 0.261139 0 200 255
0.408919 0.232383 0.246214 0 200 255
0.414603 0.240218 0.231427 0 200 255
0.411409 0.219971 0.247693 0 200 255
0.428849 0.304319 0.264960 0 200 255
0.448721 0.320472 0.265900 0 200 255
0.363902 0.364502 0.251626 0 200 255
0.457949 0.341596 0.220397 0 200 255
0.459564 0.352115 0.262759 0 200 255
0.361329 0.372103 0.261334 0 200 255
0.475863 0.399866 0.224852 0 200 255
0.465370 0.374683 0.235092 0 200 255
0.505278 0.333748 0.269060 0 200 255
0.407543 0.237043 0.225506 0 200 255
0.442813 0.385397 0.228222 0 200 255
0.363722 0.225653 0.226450 0 200 255
0.479581 0.382369 0.240041 0 200 255
0.468765 0.259497 0.274739 0 200 255
0.444571 0.230461 0.219659 0 200 255
0.419152 0.212406 0.241634 0 200 255
0.468097 0.234408 0.260737 0 200 255
0.470683 0.278823 0.278967 0 200 255
0.491530 0.357181 0.259519 0 200 255
0.443384 0.397859 0.202429 0 200 255
0.355121 0.236714 0.217418 0 200 255
0.484574 0.279796 0.282930 0 200 255
0.472538 0.370399 0.252686 0 200 255
0.484373 0.317273 0.280527 0 200 255
0.478961 0.351741 0.262862 0 200 255
0.368957 0.364964 0.259672 0 200 255
0.460441 0.399370 0.212510 0 200 255
0.445060 0.380017 0.238919 0 200 255
0.402255 0.209539 0.215735 0 200 255
0.398368 0.233267 0.224059 0 200 255
0.460491 0.241789 0.253181 0 200 255
0.381359 0.347442 0.253074 0 200 255
0.415571 0.317057 0.252569 0 200 255
0.507534 0.234624 0.275247 0 200 255
0.460034 0.363995 0.252338 0 200 255
0.465348 0.310691 0.279414 0 200 255
0.487552 0.372895 0.238915 0 200 255
0.448465 0.373124 0.228375 0 200 255
0.473521 0.401694 0.199464 0 200 255
0.526608 0.272883 0.252234 0 200 255
0.447588 0.336257 0.194967 0 200 255
0.458816 0.240581 0.269045 0 200 255
0.460321 0.374009 0.256052 0 200 255
0.506099 0.241488 0.275001 0 200 255
0.478356 0.389401 0.230550 0 200 255
0.448209 0.264092 0.275567 0 200 255
0.374703 0.356548 0.267741 0 200 255
