ply
format ascii 1.0
element vertex 1024
property float x
property float y
property float z
property uchar red
property uchar green
property uchar blue
end_header
0.474798 0.256288 0.220379 0 200 255
0.357629 0.392722 0.220133 0 200 255
0.339246 0.249835 0.183050 0 200 255
0.481317 0.403772 0.166085 0 200 255
0.508609 0.343934 0.237955 0 200 255
0.417909 0.325951 0.239037 0 200 255
0.412780 0.225136 0.186147 0 200 255
0.448307 0.345681 0.139603 0 200 255
0.453722 0.384086 0.226850 0 200 255
0.525926 0.290060 0.214887 0 200 255
0.453652 0.337093 0.195158 0 200 255
0.472616 0.303170 0.251542 0 200 255
0.438447 0.422455 0.191945 0 200 255
0.437951 0.288725 0.210829 0 200 255
0.390624 0.365523 0.242557 0 200 255
0.492944 0.372242 0.202676 0 200 255
0.514184 0.242950 0.241781 0 200 255
0.373113 0.231733 0.208785 0 200 255
0.483088 0.305307 0.207681 0 200 255
0.432009 0.245128 0.219905 0 200 255
0.461119 0.342701 0.236244 0 200 255
0.506880 0.245222 0.199715 0 200 255
0.504377 0.280057 0.246917 0 200 255
0.450581 0.366694 0.171687 0 200 255
0.447800 0.272697 0.242481 0 200 255
0.432841 0.255805 0.185738 0 200 255
0.477075 0.403922 0.205035 0 200 255
0.372820 0.237440 0.174020 0 200 255
0.402403 0.253774 0.202734 0 200 255
0.518018 0.311378 0.242698 0 200 255
0.512321 0.324282 0.210857 0 200 255
0.485256 0.367558 0.234544 0 200 255
0.406142 0.349242 0.218740 0 200 255
0.447467 0.314040 0.229200 0 200 255
0.497721 0.276903 0.203763 0 200 255
0.483752 0.233131 0.239668 0 200 255
0.447082 0.394393 0.199206 0 200 255
0.373506 0.367214 0.217602 0 200 255
0.467586 0.358936 0.210873 0 200 255
0.484386 0.332505 0.251576 0 200 255
0.476001 0.267630 0.248264 0 200 255
0.466704 0.281660 0.203920 0 200 255
0.485480 0.332952 0.215482 0 200 255
0.401306 0.227324 0.212862 0 200 255
0.368947 0.256160 0.195033 0 200 255
0.515025 0.263604 0.219884 0 200 255
0.450617 0.259615 0.206686 0 200 255
0.442929 0.349976 0.217056 0 200 255
0.435310 0.296148 0.244392 0 200 255
0.479971 0.234030 0.207423 0 200 255
0.434930 0.232379 0.197352 0 200 255
0.446736 0.364901 0.196766 0 200 255
0.454703 0.323526 0.251405 0 200 255
0.397417 0.248878 0.179046 0 200 255
0.469431 0.392353 0.184424 0 200 255
0.399425 0.341818 0.242805 0 200 255
0.458607 0.305059 0.207280 0 200 255
0.431099 0.328490 0.218268 0 200 255
0.475845 0.382726 0.216902 0 200 255
0.473556 0.298028 0.228278 0 200 255
0.388790 0.226697 0.191714 0 200 255
0.355944 0.236099 0.192677 0 200 255
0.457122 0.346261 0.161706 0 200 255
0.498185 0.354103 0.219728 0 200 255
0.458712 0.252862 0.236822 0 200 255
0.374688 0.382064 0.235303 0 200 255
0.496190 0.309883 0.250152 0 200 255
0.495521 0.252299 0.229672 0 200 255
0.460239 0.328445 0.217169 0 200 255
0.456146 0.414181 0.205413 0 200 255
0.504517 0.298979 0.205558 0 200 255
0.524588 0.280568 0.235154 0 200 255
0.463071 0.366500 0.236086 0 200 255
0.452235 0.364763 0.150024 0 200 255
0.482753 0.345826 0.232646 0 200 255
0.428253 0.305039 0.220268 0 200 255
0.472529 0.324759 0.236037 0 200 255
0.478799 0.410830 0.185480 0 200 255
0.443672 0.349022 0.179976 0 200 255
0.452381 0.408371 0.185038 0 200 255
0.462892 0.285555 0.247619 0 200 255
0.357566 0.251480 0.174504 0 200 255
0.434762 0.320600 0.249634 0 200 255
0.440416 0.272470 0.222608 0 200 255
0.488132 0.259155 0.205543 0 200 255
0.386647 0.354029 0.225131 0 200 255
0.523713 0.311166 0.220867 0 200 255
0.484944 0.287929 0.247350 0 200 255
0.460462 0.380594 0.204270 0 200 255
0.421829 0.257870 0.208555 0 200 255
0.453487 0.304231 0.246290 0 200 255
0.487353 0.390313 0.195618 0 200 255
0.420592 0.228575 0.209945 0 200 255
0.518488 0.327138 0.231436 0 200 255
0.417231 0.345040 0.235849 0 200 255
0.385168 0.245783 0.196131 0 200 255
0.506051 0.326011 0.246251 0 200 255
0.419075 0.242845 0.182286 0 200 255
0.409945 0.244886 0.217948 0 200 255
0.452594 0.245706 0.219444 0 200 255
0.460632 0.397522 0.213145 0 200 255
0.412160 0.331485 0.220190 0 200 255
0.513314 0.265751 0.239052 0 200 255
0.442903 0.314740 0.209396 0 200 255
0.467725 0.249970 0.204555 0 200 255
0.493308 0.260976 0.245791 0 200 255
0.351089 0.253958 0.198698 0 200 255
0.465159 0.410759 0.171060 0 200 255
0.459027 0.354104 0.188850 0 200 255
0.492016 0.330433 0.234423 0 200 255
0.496042 0.315758 0.214561 0 200 255
0.359336 0.376320 0.227290 0 200 255
0.458197 0.263982 0.222777 0 200 255
0.391771 0.242874 0.212472 0 200 255
0.387574 0.373022 0.226800 0 200 255
0.480292 0.250501 0.239589 0 200 255
0.468854 0.343932 0.220121 0 200 255
0.492272 0.377112 0.219855 0 200 255
0.371996 0.364685 0.235513 0 200 255
0.403795 0.357293 0.234124 0 200 255
0.526221 0.298711 0.232875 0 200 255
0.485004 0.357629 0.208944 0 200 255
0.441855 0.354507 0.161606 0 200 255
0.517130 0.246531 0.222032 0 200 255
0.476573 0.376944 0.199347 0 200 255
0.507195 0.339662 0.217093 0 200 255
0.372206 0.384538 0.216098 0 200 255
0.437001 0.248654 0.203868 0 200 255
0.514110 0.294788 0.244700 0 200 255
0.428337 0.310599 0.236468 0 200 255
0.372045 0.227812 0.188335 0 200 255
0.515228 0.274520 0.206835 0 200 255
0.450106 0.330936 0.231011 0 200 255
0.432768 0.289128 0.226800 0 200 255
0.478185 0.236454 0.223828 0 200 255
0.481714 0.288607 0.205702 0 200 255
0.362716 0.244337 0.205612 0 200 255
0.456047 0.370916 0.217165 0 200 255
0.457409 0.355185 0.223870 0 200 255
0.410026 0.235083 0.199199 0 200 255
0.473916 0.272188 0.216568 0 200 255
0.443586 0.349019 0.200075 0 200 255
0.377844 0.250943 0.181743 0 200 255
0.474902 0.319262 0.209902 0 200 255
0.434426 0.329622 0.235318 0 200 255
0.484854 0.396143 0.179929 0 200 255
0.444548 0.274569 0.206826 0 200 255
0.461392 0.401798 0.196713 0 200 255
0.441228 0.408717 0.203429 0 200 255
0.499381 0.238466 0.245485 0 200 255
0.503274 0.256512 0.210280 0 200 255
0.401911 0.232763 0.177462 0 200 255
0.468874 0.335138 0.249599 0 200 255
0.414425 0.255100 0.192540 0 200 255
0.445050 0.242536 0.190759 0 200 255
0.455184 0.358921 0.134664 0 200 255
0.481693 0.315845 0.251745 0 200 255
0.499542 0.339648 0.249724 0 200 255
0.472235 0.354818 0.240339 0 200 255
0.475390 0.365276 0.222596 0 200 255
0.485776 0.393617 0.212520 0 200 255
0.386445 0.229885 0.176923 0 200 255
0.439684 0.258072 0.217799 0 200 255
0.460624 0.350327 0.147498 0 200 255
0.454457 0.290546 0.205207 0 200 255
0.462847 0.343601 0.205221 0 200 255
0.498614 0.294162 0.248620 0 200 255
0.448774 0.335464 0.209229 0 200 255
0.453635 0.421281 0.192422 0 200 255
0.468613 0.378477 0.229143 0 200 255
0.402252 0.222667 0.196469 0 200 255
0.493445 0.239581 0.201776 0 200 255
0.465996 0.245903 0.225861 0 200 255
0.463525 0.266269 0.240228 0 200 255
0.470479 0.391260 0.201779 0 200 255
0.400014 0.339674 0.228331 0 200 255
0.422503 0.341595 0.222321 0 200 255
0.448406 0.389511 0.213115 0 200 255
0.421488 0.320591 0.225878 0 200 255
0.357942 0.237204 0.177386 0 200 255
0.498140 0.360792 0.234338 0 200 255
0.441309 0.363316 0.183424 0 200 255
0.387824 0.349726 0.239236 0 200 255
0.446180 0.262407 0.232430 0 200 255
0.447132 0.288002 0.245961 0 200 255
0.470407 0.395079 0.170346 0 200 255
0.453202 0.359686 0.208446 0 200 255
0.457315 0.347271 0.176294 0 200 255
0.461495 0.269953 0.210253 0 200 255
0.352562 0.259278 0.185752 0 200 255
0.505294 0.253754 0.244569 0 200 255
0.474211 0.262297 0.206232 0 200 255
0.386384 0.232349 0.204452 0 200 255
0.516930 0.253584 0.209831 0 200 255
0.470846 0.299254 0.210637 0 200 255
0.367226 0.243265 0.186525 0 200 255
0.441992 0.355563 0.147135 0 200 255
0.398509 0.361054 0.221793 0 200 255
0.497864 0.328702 0.209819 0 200 255
0.397915 0.240663 0.193986 0 200 255
0.442148 0.310583 0.241535 0 200 255
0.513579 0.308329 0.210198 0 200 255
0.491210 0.275647 0.247849 0 200 255
0.433199 0.238524 0.185069 0 200 255
0.495519 0.347591 0.239124 0 200 255
0.434860 0.316592 0.224838 0 200 255
0.480442 0.352636 0.221147 0 200 255
0.376027 0.246816 0.206178 0 200 255
0.522714 0.274023 0.223503 0 200 255
0.442552 0.239514 0.211995 0 200 255
0.468436 0.317882 0.251720 0 200 255
0.445128 0.299963 0.211983 0 200 255
0.449618 0.345914 0.230203 0 200 255
0.439358 0.280039 0.235218 0 200 255
0.422170 0.228568 0.194961 0 200 255
0.343659 0.243843 0.194282 0 200 255
0.517513 0.254767 0.232882 0 200 255
0.411335 0.335909 0.244831 0 200 255
0.464984 0.404629 0.182852 0 200 255
0.362979 0.388427 0.231305 0 200 255
0.473176 0.332770 0.225334 0 200 255
0.455534 0.340424 0.219202 0 200 255
0.497043 0.365441 0.213509 0 200 255
0.450260 0.320392 0.218344 0 200 255
0.470422 0.407161 0.159896 0 200 255
0.489990 0.343495 0.221209 0 200 255
0.445948 0.420467 0.181769 0 200 255
0.458003 0.358876 0.159862 0 200 255
0.447506 0.344213 0.153545 0 200 255
0.490116 0.250658 0.214841 0 200 255
0.492180 0.321335 0.246294 0 200 255
0.422690 0.236511 0.219704 0 200 255
0.446946 0.323791 0.240971 0 200 255
0.410351 0.252441 0.180871 0 200 255
0.465196 0.389273 0.223569 0 200 255
0.428556 0.238986 0.205970 0 200 255
0.478327 0.369438 0.209294 0 200 255
0.462884 0.318073 0.223686 0 200 255
0.485260 0.276679 0.207157 0 200 255
0.360520 0.379316 0.215206 0 200 255
0.456148 0.280621 0.213923 0 200 255
0.379668 0.237004 0.184777 0 200 255
0.427764 0.254292 0.197776 0 200 255
0.482260 0.377836 0.227164 0 200 255
0.408705 0.331429 0.232776 0 200 255
0.454501 0.365112 0.183342 0 200 255
0.483050 0.402489 0.193573 0 200 255
0.513577 0.337965 0.228016 0 200 255
0.474784 0.282864 0.242524 0 200 255
0.476578 0.414919 0.169233 0 200 255
0.396807 0.355538 0.245982 0 200 255
0.515338 0.293390 0.205819 0 200 255
0.439392 0.305333 0.226519 0 200 255
0.441705 0.408195 0.190823 0 200 255
0.426024 0.335957 0.241339 0 200 255
0.407013 0.255849 0.213748 0 200 255
0.505703 0.267796 0.203662 0 200 255
0.459078 0.323591 0.234287 0 200 255
0.347155 0.242533 0.177150 0 200 255
0.422441 0.332193 0.229780 0 200 255
0.484531 0.248771 0.226389 0 200 255
0.451458 0.247650 0.206730 0 200 255
0.408752 0.349552 0.243019 0 200 255
0.364981 0.232647 0.199753 0 200 255
0.502806 0.333203 0.230153 0 200 255
0.498378 0.260185 0.221234 0 200 255
0.374265 0.239826 0.195447 0 200 255
0.447761 0.400843 0.209409 0 200 255
0.394831 0.346466 0.220192 0 200 255
0.356052 0.247560 0.190160 0 200 255
0.421539 0.249921 0.217711 0 200 255
0.486811 0.302894 0.249411 0 200 255
0.400165 0.251512 0.190128 0 200 255
0.398381 0.232296 0.202175 0 200 255
0.502668 0.350778 0.230347 0 200 255
0.490796 0.296724 0.209404 0 200 255
0.387640 0.241868 0.177794 0 200 255
0.493830 0.251235 0.199191 0 200 255
0.471134 0.264888 0.227273 0 200 255
0.462212 0.354279 0.234402 0 200 255
0.463752 0.369110 0.206809 0 200 255
0.456300 0.372467 0.228791 0 200 255
0.472932 0.290760 0.250820 0 200 255
0.477568 0.249693 0.211249 0 200 255
0.472387 0.393961 0.212890 0 200 255
0.490231 0.382994 0.206054 0 200 255
0.464587 0.252218 0.216258 0 200 255
0.515265 0.280092 0.243002 0 200 255
0.380187 0.359360 0.241703 0 200 255
0.471728 0.405208 0.192703 0 200 255
0.440545 0.357781 0.173105 0 200 255
0.506250 0.256590 0.229906 0 200 255
0.487555 0.356291 0.234541 0 200 255
0.471347 0.336665 0.238480 0 200 255
0.506643 0.314610 0.247506 0 200 255
0.437556 0.259860 0.206267 0 200 255
0.522599 0.310006 0.232285 0 200 255
0.458188 0.358497 0.174173 0 200 255
0.380797 0.377341 0.218472 0 200 255
0.464157 0.308251 0.245219 0 200 255
0.445837 0.418847 0.200423 0 200 255
0.392397 0.363075 0.231536 0 200 255
0.410876 0.235924 0.210924 0 200 255
0.433909 0.307469 0.210662 0 200 255
0.459076 0.383340 0.215987 0 200 255
0.379332 0.224988 0.199354 0 200 255
0.493444 0.367764 0.226636 0 200 255
0.503040 0.286923 0.204200 0 200 255
0.520344 0.299938 0.214772 0 200 255
0.352074 0.241809 0.201674 0 200 255
0.402369 0.231186 0.188667 0 200 255
0.458629 0.332041 0.245067 0 200 255
0.374154 0.372861 0.227380 0 200 255
0.446765 0.364866 0.161225 0 200 255
0.447716 0.348845 0.169457 0 200 255
0.451627 0.252976 0.228062 0 200 255
0.391520 0.250804 0.203957 0 200 255
0.475175 0.386542 0.192173 0 200 255
0.475068 0.274138 0.203186 0 200 255
0.410059 0.225190 0.206175 0 200 255
0.383378 0.372341 0.237169 0 200 255
0.378978 0.362059 0.226570 0 200 255
0.446580 0.314802 0.250908 0 200 255
0.485999 0.320063 0.209211 0 200 255
0.516645 0.319771 0.220651 0 200 255
0.501972 0.267965 0.245465 0 200 255
0.458580 0.354630 0.199963 0 200 255
0.441642 0.355107 0.190962 0 200 255
0.473946 0.366260 0.233805 0 200 255
0.472550 0.354161 0.229254 0 200 255
0.484942 0.387313 0.221618 0 200 255
0.442363 0.302824 0.249752 0 200 255
0.463409 0.333256 0.230554 0 200 255
0.466946 0.308840 0.214491 0 200 255
0.435739 0.318706 0.237633 0 200 255
0.364969 0.256124 0.181202 0 200 255
0.423799 0.230522 0.184292 0 200 255
0.480138 0.324533 0.227095 0 200 255
0.461882 0.344038 0.191979 0 200 255
0.447403 0.341350 0.186776 0 200 255
0.472288 0.328339 0.215322 0 200 255
0.522158 0.283529 0.207064 0 200 255
0.505168 0.302794 0.247920 0 200 255
0.460665 0.320299 0.210023 0 200 255
0.516296 0.326429 0.242016 0 200 255
0.444057 0.356138 0.136534 0 200 255
0.450905 0.403512 0.194510 0 200 255
0.453705 0.395641 0.221134 0 200 255
0.434761 0.246958 0.193513 0 200 255
0.470105 0.253721 0.239258 0 200 255
0.525184 0.287055 0.225112 0 200 255
0.475232 0.325193 0.247919 0 200 255
0.401862 0.237770 0.216309 0 200 255
0.439230 0.326311 0.224783 0 200 255
0.461668 0.296097 0.247848 0 200 255
0.489425 0.340986 0.246834 0 200 255
0.442883 0.357091 0.206880 0 200 255
0.459067 0.392287 0.200679 0 200 255
0.433220 0.295961 0.218286 0 200 255
0.414040 0.348804 0.226544 0 200 255
0.367290 0.374086 0.235580 0 200 255
0.347861 0.255025 0.177374 0 200 255
0.434423 0.301344 0.235312 0 200 255
0.408650 0.242392 0.178566 0 200 255
0.449896 0.260001 0.217815 0 200 255
0.429684 0.256435 0.215569 0 200 255
0.448912 0.358411 0.217871 0 200 255
0.485756 0.243085 0.207792 0 200 255
0.461084 0.276204 0.243523 0 200 255
0.480366 0.407585 0.175766 0 200 255
0.496767 0.305695 0.206702 0 200 255
0.480164 0.384756 0.207221 0 200 255
0.380848 0.224794 0.183889 0 200 255
0.353896 0.384993 0.226859 0 200 255
0.517306 0.267223 0.229177 0 200 255
0.453870 0.312381 0.213237 0 200 255
0.460931 0.347900 0.214956 0 200 255
0.390288 0.237576 0.188075 0 200 255
0.422770 0.255500 0.184848 0 200 255
0.450875 0.383715 0.205204 0 200 255
0.476098 0.400076 0.185196 0 200 255
0.501749 0.336721 0.239558 0 200 255
0.468704 0.382809 0.209636 0 200 255
0.419426 0.236190 0.202665 0 200 255
0.404460 0.337890 0.219291 0 200 255
0.484838 0.242271 0.243702 0 200 255
0.442766 0.247682 0.218815 0 200 255
0.442704 0.252341 0.190558 0 200 255
0.476175 0.246295 0.231506 0 200 255
0.484988 0.397512 0.202119 0 200 255
0.453995 0.263405 0.240925 0 200 255
0.371502 0.386917 0.226367 0 200 255
0.365381 0.232421 0.182571 0 200 255
0.431829 0.309889 0.245748 0 200 255
0.456396 0.314046 0.234735 0 200 255
0.428511 0.247182 0.183452 0 200 255
0.415358 0.234233 0.189032 0 200 255
0.521530 0.289359 0.238435 0 200 255
0.456710 0.349232 0.135869 0 200 255
0.429007 0.318249 0.217101 0 200 255
0.455402 0.279335 0.204198 0 200 255
0.457774 0.411822 0.196003 0 200 255
0.457613 0.314255 0.249925 0 200 255
0.459727 0.361668 0.216863 0 200 255
0.426902 0.237280 0.194557 0 200 255
0.387584 0.247137 0.186058 0 200 255
0.466658 0.264742 0.217922 0 200 255
0.396044 0.226580 0.182795 0 200 255
0.412762 0.255895 0.202121 0 200 255
0.388118 0.363012 0.221634 0 200 255
0.482281 0.256894 0.246670 0 200 255
0.485299 0.380920 0.197632 0 200 255
0.342342 0.254798 0.190835 0 200 255
0.364928 0.371760 0.220762 0 200 255
0.446313 0.427234 0.188803 0 200 255
0.367764 0.248750 0.175511 0 200 255
0.491644 0.338876 0.229629 0 200 255
0.349578 0.238804 0.185786 0 200 255
0.424688 0.319505 0.235306 0 200 255
0.482628 0.361225 0.227596 0 200 255
0.526446 0.297095 0.221725 0 200 255
0.400757 0.248555 0.212594 0 200 255
0.394124 0.223770 0.203812 0 200 255
0.520802 0.269737 0.215054 0 200 255
0.481030 0.275676 0.240896 0 200 255
0.449745 0.332360 0.221470 0 200 255
0.434259 0.236424 0.216389 0 200 255
0.458272 0.335367 0.207607 0 200 255
0.455627 0.362077 0.193055 0 200 255
0.476787 0.237010 0.233975 0 200 255
0.483582 0.370061 0.201256 0 200 255
0.497022 0.328026 0.251161 0 200 255
0.459890 0.296397 0.211175 0 200 255
0.377133 0.252311 0.198186 0 200 255
0.503712 0.311441 0.210825 0 200 255
0.436358 0.281093 0.221953 0 200 255
0.455439 0.254054 0.212805 0 200 255
0.501516 0.345573 0.222405 0 200 255
0.480629 0.342591 0.222806 0 200 255
0.476306 0.390008 0.178249 0 200 255
0.379609 0.238726 0.209721 0 200 255
0.412544 0.224339 0.195639 0 200 255
0.452541 0.336204 0.239079 0 200 255
0.393043 0.345545 0.232502 0 200 255
0.459565 0.406003 0.209038 0 200 255
0.480193 0.338862 0.245928 0 200 255
0.519754 0.272606 0.236876 0 200 255
0.393626 0.233631 0.212260 0 200 255
0.363263 0.244231 0.195239 0 200 255
0.457820 0.359599 0.143690 0 200 255
0.416458 0.335396 0.236237 0 200 255
0.450092 0.357618 0.166137 0 200 255
0.495652 0.283852 0.247461 0 200 255
0.464226 0.327195 0.251179 0 200 255
0.381476 0.232733 0.192874 0 200 255
0.430305 0.326028 0.227763 0 200 255
0.489695 0.355481 0.223317 0 200 255
0.470946 0.320808 0.227464 0 200 255
0.445347 0.344112 0.208864 0 200 255
0.509686 0.247814 0.208197 0 200 255
0.451372 0.269170 0.217882 0 200 255
0.449350 0.296308 0.249457 0 200 255
0.449710 0.353287 0.185584 0 200 255
0.411009 0.233075 0.179125 0 200 255
0.484485 0.369608 0.223572 0 200 255
0.454471 0.375313 0.209189 0 200 255
0.441810 0.309250 0.218504 0 200 255
0.454635 0.268756 0.204184 0 200 255
0.395295 0.354823 0.228572 0 200 255
0.508060 0.338105 0.246139 0 200 255
0.444654 0.325812 0.249668 0 200 255
0.504367 0.330441 0.216097 0 200 255
0.448211 0.354357 0.226105 0 200 255
0.449093 0.361899 0.141633 0 200 255
0.454576 0.400330 0.202665 0 200 255
0.460120 0.343862 0.227216 0 200 255
0.477045 0.374289 0.220531 0 200 255
0.396403 0.240200 0.181748 0 200 255
0.473376 0.290599 0.209126 0 200 255
0.471367 0.411848 0.177665 0 200 255
0.489402 0.309526 0.213990 0 200 255
0.376408 0.229442 0.177416 0 200 255
0.406359 0.340541 0.237040 0 200 255
0.398019 0.350732 0.238027 0 200 255
0.477719 0.359261 0.215615 0 200 255
0.448877 0.356133 0.197246 0 200 255
0.491663 0.363765 0.206463 0 200 255
0.378823 0.380918 0.226509 0 200 255
0.361514 0.254608 0.199891 0 200 255
0.381090 0.355841 0.232743 0 200 255
0.422512 0.328861 0.220961 0 200 255
0.468502 0.394154 0.193487 0 200 255
0.485558 0.267461 0.203245 0 200 255
0.474448 0.276416 0.249383 0 200 255
0.447507 0.288639 0.210570 0 200 255
0.505966 0.290374 0.245124 0 200 255
0.392648 0.239022 0.203721 0 200 255
0.429895 0.334727 0.224597 0 200 255
0.439092 0.287655 0.242031 0 200 255
0.494916 0.268691 0.205954 0 200 255
0.438858 0.320129 0.217668 0 200 255
0.481204 0.395809 0.171776 0 200 255
0.482678 0.337398 0.235623 0 200 255
0.510630 0.249694 0.235461 0 200 255
0.469488 0.340416 0.230602 0 200 255
0.460095 0.379967 0.231779 0 200 255
0.437132 0.234267 0.205786 0 200 255
0.451613 0.350364 0.215137 0 200 255
0.450263 0.354666 0.175670 0 200 255
0.406410 0.355742 0.225775 0 200 255
0.454264 0.343927 0.145954 0 200 255
0.451500 0.279912 0.246101 0 200 255
0.459965 0.353669 0.166778 0 200 255
0.461240 0.361297 0.229030 0 200 255
0.467245 0.402821 0.174481 0 200 255
0.428785 0.229980 0.203253 0 200 255
0.471008 0.374369 0.208336 0 200 255
0.366628 0.390723 0.218994 0 200 255
0.513624 0.333211 0.237105 0 200 255
0.370334 0.240375 0.207977 0 200 255
0.492829 0.291683 0.242499 0 200 255
0.360817 0.248000 0.182800 0 200 255
0.404608 0.224509 0.182999 0 200 255
0.444414 0.360216 0.154173 0 200 255
0.477002 0.247842 0.221202 0 200 255
0.464204 0.339767 0.212982 0 200 255
0.410318 0.351379 0.234600 0 200 255
0.471563 0.353077 0.216309 0 200 255
0.510214 0.261791 0.209771 0 200 255
0.441241 0.323707 0.233052 0 200 255
0.468772 0.369929 0.227405 0 200 255
0.430200 0.246084 0.210767 0 200 255
0.446634 0.340292 0.219602 0 200 255
0.356648 0.258406 0.193673 0 200 255
0.414763 0.326327 0.229153 0 200 255
0.384409 0.246325 0.209351 0 200 255
0.520084 0.317280 0.213055 0 200 255
0.454088 0.417110 0.184799 0 200 255
0.442988 0.412427 0.183238 0 200 255
0.391545 0.357561 0.238688 0 200 255
0.379619 0.245795 0.189445 0 200 255
0.482136 0.234866 0.216261 0 200 255
0.450085 0.409171 0.210189 0 200 255
0.438592 0.311203 0.233642 0 200 255
0.484579 0.251872 0.202475 0 200 255
0.446776 0.341054 0.198885 0 200 255
0.447648 0.278956 0.213945 0 200 255
0.458821 0.252189 0.222685 0 200 255
0.493851 0.253087 0.242356 0 200 255
0.414298 0.232522 0.218057 0 200 255
0.513819 0.279857 0.213444 0 200 255
0.447613 0.367297 0.188001 0 200 255
0.457296 0.262356 0.211622 0 200 255
0.505788 0.277192 0.206686 0 200 255
0.516968 0.318499 0.229135 0 200 255
0.364514 0.241208 0.173021 0 200 255
0.459694 0.378616 0.223319 0 200 255
0.474677 0.306772 0.208240 0 200 255
0.451300 0.323627 0.226750 0 200 255
0.469078 0.295822 0.243609 0 200 255
0.462835 0.337280 0.222508 0 200 255
0.494225 0.357444 0.211587 0 200 255
0.415251 0.257457 0.215238 0 200 255
0.449657 0.352749 0.158660 0 200 255
0.505594 0.244398 0.239846 0 200 255
0.513399 0.304106 0.246141 0 200 255
0.492955 0.243879 0.246858 0 200 255
0.521756 0.248160 0.228963 0 200 255
0.477944 0.391220 0.218846 0 200 255
0.444535 0.253712 0.206420 0 200 255
0.481561 0.394488 0.191049 0 200 255
0.517822 0.287630 0.215124 0 200 255
0.495350 0.346783 0.228922 0 200 255
0.454879 0.365529 0.164000 0 200 255
0.512677 0.329932 0.217445 0 200 255
0.395132 0.232264 0.192859 0 200 255
0.478597 0.356500 0.234644 0 200 255
0.468718 0.399540 0.200180 0 200 255
0.465708 0.350156 0.226463 0 200 255
0.519124 0.256269 0.219950 0 200 255
0.415118 0.342989 0.218579 0 200 255
0.454908 0.343822 0.183959 0 200 255
0.472112 0.399133 0.163212 0 200 255
0.507362 0.260791 0.222746 0 200 255
0.492975 0.375787 0.211628 0 200 255
0.479350 0.267678 0.212101 0 200 255
0.465352 0.388704 0.214785 0 200 255
0.376546 0.254023 0.189380 0 200 255
0.439430 0.279548 0.211111 0 200 255
0.479145 0.327881 0.210620 0 200 255
0.444140 0.276160 0.229613 0 200 255
0.498942 0.359982 0.226095 0 200 255
0.418563 0.331691 0.245019 0 200 255
0.452080 0.298423 0.206340 0 200 255
0.423158 0.339863 0.233198 0 200 255
0.366888 0.369093 0.228775 0 200 255
0.369812 0.247524 0.200723 0 200 255
0.438977 0.415665 0.197032 0 200 255
0.438914 0.310733 0.249959 0 200 255
0.506439 0.253338 0.201295 0 200 255
0.417629 0.226196 0.202591 0 200 255
0.482469 0.259389 0.220171 0 200 255
0.503010 0.342395 0.229880 0 200 255
0.445912 0.264145 0.224362 0 200 255
0.372054 0.375747 0.219674 0 200 255
0.449764 0.352030 0.132246 0 200 255
0.371863 0.228269 0.200847 0 200 255
0.483429 0.278228 0.248550 0 200 255
0.465588 0.249832 0.233478 0 200 255
0.368769 0.379940 0.229723 0 200 255
0.348045 0.248865 0.182798 0 200 255
0.364054 0.231158 0.191736 0 200 255
0.464611 0.393016 0.207573 0 200 255
0.375344 0.373358 0.238359 0 200 255
0.491047 0.375486 0.227869 0 200 255
0.432989 0.241013 0.198826 0 200 255
0.454589 0.337521 0.229257 0 200 255
0.407634 0.249883 0.197835 0 200 255
0.432113 0.300601 0.227527 0 200 255
0.452725 0.379174 0.219126 0 200 255
0.471403 0.313082 0.245848 0 200 255
0.478988 0.395665 0.208443 0 200 255
0.483706 0.380277 0.217720 0 200 255
0.467878 0.348291 0.234081 0 200 255
0.447313 0.315832 0.237130 0 200 255
0.448674 0.343992 0.176023 0 200 255
0.492280 0.288802 0.208421 0 200 255
0.509555 0.258779 0.237276 0 200 255
0.475947 0.337807 0.218216 0 200 255
0.489290 0.294103 0.250320 0 200 255
0.439491 0.249711 0.211677 0 200 255
0.469479 0.246994 0.212443 0 200 255
0.394225 0.250463 0.195508 0 200 255
0.493941 0.253057 0.208140 0 200 255
0.427154 0.326991 0.237663 0 200 255
0.379113 0.241547 0.176989 0 200 255
0.446946 0.338790 0.232916 0 200 255
0.493303 0.334793 0.241081 0 200 255
0.358121 0.236411 0.201667 0 200 255
0.441741 0.236474 0.196048 0 200 255
0.427973 0.232281 0.213540 0 200 255
0.447032 0.344425 0.161567 0 200 255
0.454760 0.286971 0.248271 0 200 255
0.470397 0.267707 0.210769 0 200 255
0.443431 0.347917 0.224787 0 200 255
0.521495 0.249112 0.215832 0 200 255
0.513841 0.326597 0.224936 0 200 255
0.457332 0.350427 0.154792 0 200 255
0.379748 0.370376 0.222237 0 200 255
0.379318 0.226751 0.208139 0 200 255
0.433395 0.293543 0.234008 0 200 255
0.398201 0.361674 0.240145 0 200 255
0.443788 0.401993 0.197726 0 200 255
0.523847 0.303771 0.238522 0 200 255
0.416837 0.341838 0.243096 0 200 255
0.455499 0.390977 0.209889 0 200 255
0.485391 0.389864 0.204162 0 200 255
0.460006 0.337904 0.200305 0 200 255
0.447284 0.366446 0.179282 0 200 255
0.359616 0.241180 0.187028 0 200 255
0.450993 0.346243 0.222433 0 200 255
0.457291 0.403779 0.189877 0 200 255
0.525615 0.282732 0.217782 0 200 255
0.482856 0.330035 0.232839 0 200 255
0.468825 0.362014 0.239025 0 200 255
0.459265 0.306337 0.251190 0 200 255
0.473375 0.256211 0.212571 0 200 255
0.486140 0.348883 0.225675 0 200 255
0.361321 0.387082 0.214356 0 200 255
0.483579 0.314717 0.214760 0 200 255
0.444382 0.362776 0.168437 0 200 255
0.488460 0.266957 0.247238 0 200 255
0.493395 0.326785 0.215945 0 200 255
0.455037 0.402386 0.215615 0 200 255
0.443884 0.245355 0.205473 0 200 255
0.370124 0.247170 0.192623 0 200 255
0.422565 0.238488 0.212162 0 200 255
0.451240 0.388077 0.220234 0 200 255
0.447854 0.398854 0.217116 0 200 255
0.469599 0.413179 0.165137 0 200 255
0.429069 0.257979 0.205717 0 200 255
0.455818 0.315503 0.221713 0 200 255
0.342892 0.256693 0.183283 0 200 255
0.472461 0.383779 0.201147 0 200 255
0.425391 0.238115 0.184054 0 200 255
0.466243 0.269817 0.223815 0 200 255
0.459771 0.353569 0.180093 0 200 255
0.478951 0.307634 0.251612 0 200 255
0.457818 0.366088 0.223996 0 200 255
0.427751 0.314576 0.229850 0 200 255
0.386951 0.237227 0.195999 0 200 255
0.484204 0.326953 0.220969 0 200 255
0.403488 0.232135 0.196297 0 200 255
0.464754 0.373834 0.234311 0 200 255
0.459894 0.350891 0.207906 0 200 255
0.402655 0.225263 0.203971 0 200 255
0.477731 0.279782 0.207722 0 200 255
0.466259 0.320276 0.217110 0 200 255
0.380427 0.241414 0.200363 0 200 255
0.401589 0.348424 0.246141 0 200 255
0.459934 0.250813 0.207457 0 200 255
0.465958 0.325833 0.231655 0 200 255
0.483221 0.402702 0.183967 0 200 255
0.519710 0.320459 0.238593 0 200 255
0.478338 0.392960 0.201288 0 200 255
0.417300 0.243534 0.216219 0 200 255
0.390415 0.369490 0.235256 0 200 255
0.442070 0.359038 0.199254 0 200 255
0.393629 0.347954 0.243912 0 200 255
0.497170 0.252923 0.219137 0 200 255
0.469973 0.379047 0.220135 0 200 255
0.521937 0.296708 0.208031 0 200 255
0.442917 0.269630 0.212407 0 200 255
0.469921 0.270188 0.241615 0 200 255
0.398544 0.223701 0.189394 0 200 255
0.478405 0.408434 0.194651 0 200 255
0.483695 0.337828 0.228084 0 200 255
0.370955 0.236795 0.189290 0 200 255
0.471760 0.407516 0.184782 0 200 255
0.466289 0.400973 0.189477 0 200 255
0.453378 0.419861 0.200423 0 200 255
0.461586 0.395692 0.221676 0 200 255
0.454698 0.361422 0.201200 0 200 255
0.354820 0.244642 0.172666 0 200 255
0.429223 0.334541 0.232843 0 200 255
0.486710 0.352605 0.216901 0 200 255
0.446506 0.402806 0.188390 0 200 255
0.504973 0.263645 0.214893 0 200 255
0.488738 0.385963 0.215225 0 200 255
0.455639 0.327861 0.239542 0 200 255
0.427975 0.247541 0.201113 0 200 255
0.450536 0.396222 0.192665 0 200 255
0.468802 0.362567 0.229741 0 200 255
0.448449 0.351858 0.208476 0 200 255
0.372013 0.245472 0.181157 0 200 255
0.458057 0.390215 0.226492 0 200 255
0.457557 0.358683 0.152365 0 200 255
0.363078 0.257944 0.189825 0 200 255
0.450035 0.409420 0.202686 0 200 255
0.467980 0.328148 0.240945 0 200 255
0.453212 0.319567 0.209643 0 200 255
0.443453 0.260182 0.211671 0 200 255
0.436822 0.247672 0.186343 0 200 255
0.514123 0.267805 0.211923 0 200 255
0.508731 0.270530 0.243527 0 200 255
0.380014 0.368863 0.229749 0 200 255
0.407096 0.253012 0.187781 0 200 255
0.498525 0.245780 0.241821 0 200 255
0.488883 0.362184 0.238932 0 200 255
0.434736 0.309156 0.220848 0 200 255
0.491476 0.361238 0.229647 0 200 255
0.475470 0.397163 0.176337 0 200 255
0.486398 0.237278 0.201039 0 200 255
0.443333 0.356106 0.182256 0 200 255
0.467967 0.261606 0.243967 0 200 255
0.427448 0.306385 0.230394 0 200 255
0.393461 0.367810 0.225893 0 200 255
0.394765 0.252602 0.210833 0 200 255
0.435219 0.251711 0.217432 0 200 255
0.449270 0.393445 0.206239 0 200 255
0.510882 0.342804 0.223070 0 200 255
0.522550 0.303846 0.220967 0 200 255
0.452439 0.334208 0.202911 0 200 255
0.419126 0.256495 0.198373 0 200 255
0.474959 0.397712 0.192766 0 200 255
0.411836 0.330537 0.239424 0 200 255
0.507103 0.304772 0.209942 0 200 255
0.461244 0.287663 0.204700 0 200 255
0.446682 0.254517 0.221578 0 200 255
0.442228 0.295814 0.246944 0 200 255
0.387631 0.352455 0.232313 0 200 255
0.364448 0.236209 0.206421 0 200 255
0.478416 0.255841 0.203274 0 200 255
0.500731 0.244735 0.203753 0 200 255
0.359067 0.233676 0.186145 0 200 255
0.434477 0.314501 0.213910 0 200 255
0.406144 0.224688 0.190192 0 200 255
0.468019 0.252629 0.223676 0 200 255
0.355696 0.383865 0.218381 0 200 255
0.462853 0.353672 0.219176 0 200 255
0.468425 0.395504 0.177871 0 200 255
0.427580 0.253586 0.190477 0 200 255
0.444143 0.294156 0.207100 0 200 255
0.478718 0.383505 0.224148 0 200 255
0.497113 0.296404 0.205696 0 200 255
0.481177 0.241569 0.213300 0 200 255
0.447712 0.361800 0.203338 0 200 255
0.513513 0.252030 0.216103 0 200 255
0.477746 0.297978 0.251309 0 200 255
0.367989 0.378029 0.214056 0 200 255
0.450372 0.360302 0.187494 0 200 255
0.437073 0.301114 0.212329 0 200 255
0.477222 0.391090 0.185395 0 200 255
0.452657 0.320955 0.237448 0 200 255
0.487522 0.310139 0.249637 0 200 255
0.510861 0.298318 0.209074 0 200 255
0.520703 0.309830 0.210190 0 200 255
0.495361 0.369338 0.219791 0 200 255
0.488992 0.327918 0.228300 0 200 255
0.357341 0.256961 0.179283 0 200 255
0.513658 0.260871 0.231646 0 200 255
0.498316 0.261190 0.213291 0 200 255
0.435699 0.303337 0.245415 0 200 255
0.444565 0.348847 0.148794 0 200 255
0.493096 0.279415 0.241945 0 200 255
0.344383 0.250612 0.196773 0 200 255
0.479981 0.369040 0.229223 0 200 255
0.429708 0.231097 0.188444 0 200 255
0.467261 0.309719 0.251598 0 200 255
0.371696 0.365401 0.224822 0 200 255
0.342798 0.243463 0.187107 0 200 255
0.455185 0.365111 0.156787 0 200 255
0.473157 0.322692 0.219755 0 200 255
0.447143 0.425011 0.195633 0 200 255
0.475010 0.235051 0.217420 0 200 255
0.525538 0.291738 0.230596 0 200 255
0.471074 0.283844 0.249950 0 200 255
0.449526 0.358304 0.147867 0 200 255
0.452365 0.382303 0.212112 0 200 255
0.392472 0.353832 0.220896 0 200 255
0.343724 0.248861 0.176850 0 200 255
0.392010 0.242983 0.197750 0 200 255
0.516630 0.317985 0.245175 0 200 255
0.478840 0.350873 0.228127 0 200 255
0.401418 0.354568 0.219725 0 200 255
0.447760 0.308523 0.245677 0 200 255
0.449756 0.283599 0.205424 0 200 255
0.409565 0.342820 0.245477 0 200 255
0.442162 0.362368 0.191881 0 200 255
0.478945 0.312480 0.208834 0 200 255
0.382451 0.366415 0.241051 0 200 255
0.482396 0.298243 0.206913 0 200 255
0.457003 0.330643 0.251863 0 200 255
0.403933 0.355793 0.241088 0 200 255
0.466819 0.332130 0.219629 0 200 255
0.433156 0.309892 0.227985 0 200 255
0.362852 0.391951 0.225123 0 200 255
0.442718 0.273614 0.236103 0 200 255
0.439521 0.414859 0.189664 0 200 255
0.417053 0.250771 0.182543 0 200 255
0.489427 0.344198 0.234455 0 200 255
0.511014 0.286970 0.241465 0 200 255
0.469818 0.398633 0.208201 0 200 255
0.485134 0.317609 0.245791 0 200 255
0.465095 0.302384 0.249080 0 200 255
0.444764 0.321278 0.225349 0 200 255
0.399160 0.361405 0.230269 0 200 255
0.407915 0.332819 0.225695 0 200 255
0.350665 0.244673 0.193723 0 200 255
0.475637 0.256457 0.244278 0 200 255
0.362123 0.381496 0.232422 0 200 255
0.478611 0.368302 0.217075 0 200 255
0.382568 0.232478 0.211134 0 200 255
0.482982 0.249516 0.215770 0 200 255
0.482418 0.235757 0.229915 0 200 255
0.461222 0.347246 0.185745 0 200 255
0.371322 0.252904 0.179964 0 200 255
0.423284 0.322520 0.218016 0 200 255
0.475526 0.376238 0.213949 0 200 255
0.404231 0.234354 0.209273 0 200 255
0.431557 0.319358 0.243235 0 200 255
0.509372 0.258240 0.215769 0 200 255
0.383823 0.239434 0.190085 0 200 255
0.454709 0.349087 0.169948 0 200 255
0.381920 0.235294 0.175499 0 200 255
0.446244 0.314470 0.217024 0 200 255
0.490132 0.257557 0.216061 0 200 255
0.449788 0.305164 0.212482 0 200 255
0.471541 0.344145 0.238369 0 200 255
0.457200 0.354541 0.214699 0 200 255
0.474597 0.387361 0.211835 0 200 255
0.400972 0.239833 0.187003 0 200 255
0.475695 0.400076 0.170006 0 200 255
0.450534 0.359654 0.157464 0 200 255
0.433903 0.287396 0.220156 0 200 255
0.504224 0.317302 0.214533 0 200 255
0.495838 0.341198 0.218243 0 200 255
0.501156 0.249761 0.198547 0 200 255
0.459572 0.407071 0.202175 0 200 255
0.454354 0.343922 0.154606 0 200 255
0.454261 0.269753 0.243695 0 200 255
0.458013 0.248121 0.215862 0 200 255
0.481636 0.387383 0.213461 0 200 255
0.380148 0.225955 0.192318 0 200 255
0.462072 0.400715 0.203522 0 200 255
0.391429 0.233446 0.199692 0 200 255
0.466727 0.406443 0.165882 0 200 255
0.442468 0.353612 0.154759 0 200 255
0.381223 0.231715 0.199907 0 200 255
0.500155 0.322717 0.247681 0 200 255
0.520341 0.287374 0.231824 0 200 255
0.457665 0.347647 0.221424 0 200 255
0.398756 0.340157 0.235089 0 200 255
0.458174 0.283556 0.243023 0 200 255
0.454535 0.257528 0.223275 0 200 255
0.419755 0.335372 0.221391 0 200 255
0.508895 0.291329 0.204649 0 200 255
0.404014 0.247828 0.180585 0 200 255
0.477809 0.266755 0.202474 0 200 255
0.391895 0.233692 0.178529 0 200 255
0.385816 0.355747 0.243127 0 200 255
0.499281 0.256961 0.244037 0 200 255
0.462597 0.385817 0.229085 0 200 255
0.487624 0.380729 0.224079 0 200 255
0.358181 0.249387 0.202767 0 200 255
0.445384 0.281398 0.243457 0 200 255
0.366835 0.234499 0.175473 0 200 255
0.457062 0.412301 0.189232 0 200 255
0.509317 0.344834 0.230782 0 200 255
0.428873 0.229535 0.195769 0 200 255
0.499308 0.275516 0.246505 0 200 255
0.518911 0.298343 0.241421 0 200 255
0.474159 0.350552 0.222757 0 200 255
0.489989 0.317316 0.251337 0 200 255
0.463326 0.333571 0.237357 0 200 255
0.417165 0.235474 0.196285 0 200 255
0.434881 0.238284 0.191654 0 200 255
0.491704 0.369350 0.233362 0 200 255
0.484699 0.325814 0.250447 0 200 255
0.435121 0.307783 0.238361 0 200 255
0.440981 0.361528 0.160067 0 200 255
0.493987 0.261995 0.203656 0 200 255
0.511444 0.330753 0.243924 0 200 255
0.382370 0.377064 0.232429 0 200 255
0.346032 0.248793 0.189731 0 200 255
0.489554 0.237702 0.245316 0 200 255
0.422162 0.235755 0.189996 0 200 255
0.512735 0.310742 0.247132 0 200 255
0.488306 0.282744 0.250036 0 200 255
0.496814 0.309406 0.212452 0 200 255
0.409109 0.232703 0.187032 0 200 255
0.408452 0.231019 0.215067 0 200 255
0.378875 0.361865 0.235593 0 200 255
0.499535 0.353889 0.235428 0 200 255
0.479061 0.230510 0.227368 0 200 255
0.517915 0.324223 0.214599 0 200 255
0.423578 0.258480 0.217517 0 200 255
0.458773 0.388838 0.219947 0 200 255
0.459423 0.353642 0.140158 0 200 255
0.349579 0.249309 0.173575 0 200 255
0.495325 0.282860 0.207633 0 200 255
0.436538 0.280038 0.229117 0 200 255
0.513714 0.316334 0.211150 0 200 255
0.472151 0.288999 0.243235 0 200 255
0.502065 0.331689 0.248679 0 200 255
0.439036 0.240549 0.218653 0 200 255
0.387055 0.244178 0.202360 0 200 255
0.494947 0.333112 0.214382 0 200 255
0.455768 0.298188 0.250229 0 200 255
0.440804 0.363557 0.176754 0 200 255
0.446311 0.340746 0.226264 0 200 255
0.490349 0.247141 0.205119 0 200 255
0.359856 0.250232 0.194959 0 200 255
0.443775 0.355733 0.213359 0 200 255
0.435633 0.287321 0.233074 0 200 255
0.457440 0.336537 0.214123 0 200 255
0.479522 0.400854 0.198989 0 200 255
0.401305 0.240067 0.177231 0 200 255
0.480788 0.363244 0.209277 0 200 255
0.515377 0.333596 0.223322 0 200 255
0.385858 0.362106 0.230736 0 200 255
0.405928 0.333515 0.238710 0 200 255
0.457229 0.385984 0.202088 0 200 255
0.450002 0.250183 0.215265 0 200 255
0.455181 0.357409 0.182994 0 200 255
0.441078 0.422960 0.185869 0 200 255
0.428809 0.239321 0.220213 0 200 255
0.440089 0.277772 0.217590 0 200 255
0.466906 0.258787 0.215013 0 200 255
0.414177 0.227291 0.211031 0 200 255
0.475217 0.317551 0.248920 0 200 255
0.452566 0.355463 0.203172 0 200 255
0.365730 0.382696 0.218174 0 200 255
0.400141 0.342836 0.218471 0 200 255
0.349742 0.255499 0.192406 0 200 255
0.466985 0.254617 0.209172 0 200 255
0.368002 0.237965 0.196323 0 200 255
0.483082 0.402173 0.172226 0 200 255
0.498756 0.360357 0.217756 0 200 255
0.454832 0.314282 0.228085 0 200 255
0.471901 0.331451 0.245035 0 200 255
0.465952 0.321609 0.246933 0 200 255
0.462779 0.344111 0.198686 0 200 255
0.477773 0.349105 0.235365 0 200 255
0.486751 0.249605 0.240241 0 200 255
0.478403 0.409260 0.164007 0 200 255
0.466483 0.291842 0.250405 0 200 255
0.449146 0.328370 0.245644 0 200 255
0.415055 0.250790 0.217916 0 200 255
0.455451 0.345864 0.237086 0 200 255
0.463150 0.314314 0.209120 0 200 255
0.356487 0.242028 0.195378 0 200 255
0.480229 0.284726 0.250542 0 200 255
0.380576 0.244566 0.183100 0 200 255
0.453920 0.352171 0.164256 0 200 255
0.448712 0.256134 0.211856 0 200 255
0.471470 0.367874 0.208301 0 200 255
0.414866 0.237984 0.181269 0 200 255
0.446133 0.243274 0.222216 0 200 255
0.417322 0.325301 0.222608 0 200 255
0.487713 0.350008 0.231885 0 200 255
0.463124 0.277954 0.207883 0 200 255
0.479026 0.254892 0.215647 0 200 255
0.503317 0.325175 0.209709 0 200 255
0.373970 0.238925 0.182328 0 200 255
0.479529 0.241229 0.207040 0 200 255
0.386444 0.361538 0.239062 0 200 255
0.369247 0.385209 0.233738 0 200 255
0.447915 0.402844 0.203252 0 200 255
0.386664 0.239053 0.211360 0 200 255
0.496028 0.317192 0.208249 0 200 255
0.418962 0.226868 0.186968 0 200 255
0.492428 0.325208 0.209440 0 200 255
0.504968 0.343478 0.244281 0 200 255
0.512987 0.336891 0.217865 0 200 255
0.395471 0.343973 0.226124 0 200 255
0.514177 0.274088 0.240860 0 200 255
0.490622 0.310752 0.207761 0 200 255
0.478522 0.405277 0.188773 0 200 255
0.412446 0.349505 0.220125 0 200 255
0.508835 0.298060 0.242916 0 200 255
0.478553 0.382047 0.195348 0 200 255
0.476416 0.361884 0.229165 0 200 255
0.506010 0.263856 0.242586 0 200 255
