ply
format ascii 1.0
element vertex 1024
property float x
property float y
property float z
property uchar red
property uchar green
property uchar blue
end_header
0.461595 0.262248 0.175685 0 200 255
0.334309 0.388437 0.160049 0 200 255
0.327973 0.240001 0.130956 0 200 255
0.462156 0.402408 0.110215 0 200 255
0.489389 0.352747 0.188767 0 200 255
0.399345 0.329375 0.191389 0 200 255
0.403908 0.226115 0.138642 0 200 255
0.433858 0.344375 0.133434 0 200 255
0.438917 0.395170 0.168101 0 200 255
0.510620 0.298857 0.169284 0 200 255
0.455705 0.310607 0.203976 0 200 255
0.436977 0.353667 0.081151 0 200 255
0.420116 0.290479 0.164898 0 200 255
0.418695 0.418822 0.128506 0 200 255
0.370515 0.356667 0.163560 0 200 255
0.442776 0.350260 0.181948 0 200 255
0.501201 0.252717 0.198658 0 200 255
0.363154 0.231395 0.159189 0 200 255
0.467100 0.310885 0.160295 0 200 255
0.474485 0.374781 0.152085 0 200 255
0.418134 0.247084 0.173443 0 200 255
0.494809 0.252092 0.156387 0 200 255
0.488959 0.289352 0.201390 0 200 255
0.422136 0.257911 0.138485 0 200 255
0.433082 0.278135 0.196210 0 200 255
0.362874 0.235752 0.123073 0 200 255
0.390696 0.254626 0.153323 0 200 255
0.500706 0.321189 0.195618 0 200 255
0.425580 0.323720 0.169356 0 200 255
0.461584 0.405472 0.145068 0 200 255
0.494996 0.331848 0.162959 0 200 255
0.434136 0.367755 0.110277 0 200 255
0.483581 0.283300 0.158366 0 200 255
0.443457 0.366905 0.153932 0 200 255
0.464460 0.373653 0.182804 0 200 255
0.471508 0.240860 0.196490 0 200 255
0.421336 0.306531 0.200080 0 200 255
0.448745 0.283354 0.157268 0 200 255
0.465604 0.340590 0.202528 0 200 255
0.398802 0.344982 0.165988 0 200 255
0.427729 0.392999 0.139835 0 200 255
0.354879 0.377133 0.177934 0 200 255
0.461395 0.275228 0.202872 0 200 255
0.380117 0.350690 0.190588 0 200 255
0.467558 0.339029 0.166501 0 200 255
0.435886 0.331697 0.202157 0 200 255
0.390340 0.229274 0.165159 0 200 255
0.349490 0.251488 0.142937 0 200 255
0.501283 0.272088 0.175603 0 200 255
0.440321 0.256306 0.161156 0 200 255
0.468473 0.239659 0.164176 0 200 255
0.442268 0.340032 0.157790 0 200 255
0.424714 0.235067 0.151115 0 200 255
0.424661 0.367505 0.136592 0 200 255
0.386566 0.242502 0.131183 0 200 255
0.424008 0.355141 0.166367 0 200 255
0.463711 0.393049 0.167417 0 200 255
0.443041 0.306862 0.164197 0 200 255
0.433738 0.343899 0.103949 0 200 255
0.450527 0.391629 0.128515 0 200 255
0.440567 0.374263 0.179889 0 200 255
0.348317 0.368764 0.156683 0 200 255
0.459322 0.304379 0.181557 0 200 255
0.445356 0.258748 0.191961 0 200 255
0.478838 0.318728 0.202688 0 200 255
0.482292 0.260136 0.185630 0 200 255
0.374509 0.224477 0.139476 0 200 255
0.347405 0.228941 0.139191 0 200 255
0.479001 0.360746 0.169554 0 200 255
0.447012 0.328007 0.182448 0 200 255
0.488930 0.305833 0.158999 0 200 255
0.509382 0.290480 0.190043 0 200 255
0.434289 0.414007 0.144095 0 200 255
0.403222 0.323612 0.170220 0 200 255
0.436866 0.273433 0.174567 0 200 255
0.452783 0.386616 0.150171 0 200 255
0.463917 0.352271 0.184221 0 200 255
0.420257 0.291383 0.185704 0 200 255
0.436493 0.408372 0.124343 0 200 255
0.419382 0.324766 0.189958 0 200 255
0.370448 0.244101 0.144086 0 200 255
0.447206 0.292209 0.200896 0 200 255
0.416781 0.260537 0.158043 0 200 255
0.360434 0.357799 0.181446 0 200 255
0.459205 0.359282 0.165685 0 200 255
0.475084 0.265106 0.160989 0 200 255
0.506939 0.320087 0.173962 0 200 255
0.469065 0.295973 0.200950 0 200 255
0.405943 0.247482 0.132167 0 200 255
0.380597 0.340287 0.172877 0 200 255
0.456905 0.412248 0.126913 0 200 255
0.345123 0.244269 0.122358 0 200 255
0.424488 0.359842 0.095319 0 200 255
0.409731 0.230836 0.162787 0 200 255
0.500462 0.336273 0.183458 0 200 255
0.487759 0.335204 0.198050 0 200 255
0.423853 0.354617 0.119758 0 200 255
0.397596 0.246738 0.169370 0 200 255
0.410959 0.309696 0.181734 0 200 255
0.465788 0.290750 0.159002 0 200 255
0.498969 0.275220 0.194571 0 200 255
0.337671 0.373912 0.172008 0 200 255
0.479142 0.269567 0.201159 0 200 255
0.433228 0.382595 0.155916 0 200 255
0.397303 0.347178 0.184042 0 200 255
0.442024 0.355087 0.121174 0 200 255
0.425066 0.351667 0.147614 0 200 255
0.388344 0.234608 0.148024 0 200 255
0.479198 0.322524 0.166817 0 200 255
0.379314 0.243034 0.161843 0 200 255
0.466966 0.257939 0.195314 0 200 255
0.411772 0.336778 0.178400 0 200 255
0.431342 0.336939 0.184079 0 200 255
0.335295 0.241536 0.146963 0 200 255
0.458521 0.256889 0.159133 0 200 255
0.456015 0.326695 0.161718 0 200 255
0.509928 0.308530 0.186733 0 200 255
0.428707 0.401846 0.155603 0 200 255
0.473770 0.338029 0.185690 0 200 255
0.504403 0.255337 0.178797 0 200 255
0.445602 0.407457 0.109639 0 200 255
0.437055 0.248770 0.176397 0 200 255
0.438947 0.311124 0.199671 0 200 255
0.417824 0.310056 0.162112 0 200 255
0.457340 0.376318 0.163685 0 200 255
0.497799 0.304525 0.198512 0 200 255
0.450609 0.363931 0.189073 0 200 255
0.474240 0.377790 0.169456 0 200 255
0.386146 0.356234 0.170655 0 200 255
0.501122 0.282226 0.161940 0 200 255
0.452689 0.330505 0.198228 0 200 255
0.460276 0.277589 0.168729 0 200 255
0.441014 0.357945 0.098285 0 200 255
0.440939 0.354784 0.165705 0 200 255
0.487974 0.346181 0.168144 0 200 255
0.364437 0.372472 0.165031 0 200 255
0.466135 0.242902 0.180368 0 200 255
0.439504 0.358932 0.138785 0 200 255
0.465608 0.398069 0.130922 0 200 255
0.442509 0.399815 0.142072 0 200 255
0.468759 0.390167 0.149509 0 200 255
0.426767 0.261087 0.170991 0 200 255
0.349511 0.384004 0.163685 0 200 255
0.453174 0.340535 0.173647 0 200 255
0.349709 0.239783 0.153913 0 200 255
0.430599 0.277740 0.160447 0 200 255
0.417326 0.234827 0.137002 0 200 255
0.486623 0.247512 0.202308 0 200 255
0.490242 0.263717 0.166190 0 200 255
0.434688 0.245585 0.144876 0 200 255
0.431369 0.293540 0.198767 0 200 255
0.359877 0.250014 0.131364 0 200 255
0.374616 0.364320 0.181341 0 200 255
0.430918 0.338464 0.168687 0 200 255
0.420910 0.407034 0.140697 0 200 255
0.480323 0.348572 0.200576 0 200 255
0.426543 0.248657 0.159283 0 200 255
0.426958 0.313878 0.182095 0 200 255
0.407299 0.237129 0.148605 0 200 255
0.353566 0.360220 0.168212 0 200 255
0.482281 0.303133 0.202137 0 200 255
0.405822 0.253720 0.150254 0 200 255
0.386641 0.336621 0.188026 0 200 255
0.438010 0.292755 0.163404 0 200 255
0.403805 0.259892 0.165879 0 200 255
0.427678 0.364759 0.154103 0 200 255
0.361719 0.232781 0.138693 0 200 255
0.453971 0.400011 0.156444 0 200 255
0.377207 0.231335 0.126720 0 200 255
0.425171 0.277878 0.182514 0 200 255
0.481708 0.245728 0.158495 0 200 255
0.447926 0.268769 0.162748 0 200 255
0.453331 0.251651 0.181585 0 200 255
0.460123 0.373363 0.149577 0 200 255
0.449231 0.272610 0.194670 0 200 255
0.435390 0.366896 0.126681 0 200 255
0.453849 0.341864 0.189221 0 200 255
0.432173 0.339042 0.146994 0 200 255
0.451530 0.272230 0.178912 0 200 255
0.465579 0.326211 0.203530 0 200 255
0.433877 0.264276 0.185234 0 200 255
0.479082 0.362324 0.183826 0 200 255
0.448108 0.383940 0.172506 0 200 255
0.337100 0.250604 0.134002 0 200 255
0.438906 0.320101 0.173127 0 200 255
0.452464 0.296093 0.162475 0 200 255
0.422419 0.405335 0.125875 0 200 255
0.394941 0.253231 0.139121 0 200 255
0.349984 0.229993 0.124606 0 200 255
0.444363 0.347405 0.145847 0 200 255
0.462470 0.330967 0.178475 0 200 255
0.392000 0.331805 0.173005 0 200 255
0.433743 0.382112 0.170304 0 200 255
0.374919 0.232235 0.151466 0 200 255
0.450719 0.394850 0.113275 0 200 255
0.491584 0.263071 0.200616 0 200 255
0.397608 0.224756 0.151729 0 200 255
0.504061 0.261649 0.166200 0 200 255
0.370045 0.347740 0.180304 0 200 255
0.480320 0.335264 0.161358 0 200 255
0.444234 0.260999 0.175339 0 200 255
0.497269 0.315997 0.163268 0 200 255
0.476077 0.284167 0.202304 0 200 255
0.391374 0.230149 0.134725 0 200 255
0.427461 0.418997 0.117963 0 200 255
0.431836 0.421053 0.131032 0 200 255
0.429456 0.303374 0.164108 0 200 255
0.441100 0.393434 0.154437 0 200 255
0.508211 0.283170 0.178761 0 200 255
0.415444 0.298061 0.175121 0 200 255
0.383501 0.246999 0.144530 0 200 255
0.460299 0.388946 0.139292 0 200 255
0.434672 0.320183 0.160290 0 200 255
0.503999 0.264191 0.189149 0 200 255
0.433985 0.323059 0.188513 0 200 255
0.464383 0.271838 0.157261 0 200 255
0.429013 0.320489 0.202113 0 200 255
0.468405 0.364169 0.156909 0 200 255
0.469710 0.351476 0.170298 0 200 255
0.420832 0.245653 0.143501 0 200 255
0.422588 0.361752 0.108800 0 200 255
0.456412 0.413749 0.113928 0 200 255
0.433682 0.344625 0.090003 0 200 255
0.437801 0.370774 0.165217 0 200 255
0.365081 0.244453 0.155917 0 200 255
0.429866 0.349519 0.181672 0 200 255
0.474197 0.300380 0.162541 0 200 255
0.421169 0.236390 0.164759 0 200 255
0.427318 0.355727 0.132093 0 200 255
0.342301 0.379960 0.153874 0 200 255
0.477369 0.257302 0.170812 0 200 255
0.355985 0.228195 0.149106 0 200 255
0.446673 0.406859 0.132253 0 200 255
0.337732 0.234224 0.124945 0 200 255
0.450835 0.358951 0.177305 0 200 255
0.453228 0.372813 0.175812 0 200 255
0.347469 0.366499 0.177395 0 200 255
0.384110 0.224231 0.154966 0 200 255
0.408444 0.239117 0.172215 0 200 255
0.433508 0.359333 0.174729 0 200 255
0.405821 0.340000 0.189805 0 200 255
0.374047 0.243155 0.131136 0 200 255
0.435421 0.355248 0.109155 0 200 255
0.404706 0.321858 0.182514 0 200 255
0.453382 0.343123 0.201932 0 200 255
0.465480 0.362147 0.176091 0 200 255
0.437899 0.386248 0.144758 0 200 255
0.445961 0.332328 0.167686 0 200 255
0.494967 0.346548 0.179303 0 200 255
0.427553 0.345961 0.158898 0 200 255
0.459366 0.289997 0.196219 0 200 255
0.345324 0.241588 0.135710 0 200 255
0.401438 0.236109 0.130772 0 200 255
0.414272 0.316483 0.172016 0 200 255
0.379635 0.235986 0.139452 0 200 255
0.466920 0.321890 0.166886 0 200 255
0.340015 0.386084 0.171199 0 200 255
0.414473 0.330339 0.168342 0 200 255
0.467544 0.313694 0.203746 0 200 255
0.462570 0.383360 0.174802 0 200 255
0.434641 0.363311 0.088257 0 200 255
0.500071 0.300974 0.159815 0 200 255
0.453389 0.312066 0.160438 0 200 255
0.335676 0.233524 0.137851 0 200 255
0.492119 0.274734 0.158970 0 200 255
0.425684 0.281265 0.170907 0 200 255
0.378944 0.347615 0.163422 0 200 255
0.460511 0.392876 0.119969 0 200 255
0.365776 0.371202 0.176984 0 200 255
0.471630 0.255728 0.182331 0 200 255
0.433040 0.347183 0.121762 0 200 255
0.429181 0.260319 0.158808 0 200 255
0.445900 0.320195 0.203182 0 200 255
0.484466 0.341235 0.181492 0 200 255
0.431122 0.397261 0.129224 0 200 255
0.452010 0.389373 0.161723 0 200 255
0.484855 0.267691 0.176803 0 200 255
0.357403 0.242586 0.145286 0 200 255
0.410497 0.316174 0.191675 0 200 255
0.455010 0.399276 0.136856 0 200 255
0.476038 0.336033 0.198816 0 200 255
0.388038 0.354150 0.182228 0 200 255
0.485473 0.353811 0.176629 0 200 255
0.446392 0.403060 0.121175 0 200 255
0.481424 0.257215 0.155236 0 200 255
0.440897 0.355387 0.153569 0 200 255
0.439048 0.405634 0.151881 0 200 255
0.456817 0.298223 0.203994 0 200 255
0.499917 0.289860 0.197708 0 200 255
0.492722 0.265113 0.185835 0 200 255
0.365577 0.224604 0.131534 0 200 255
0.370025 0.355980 0.188359 0 200 255
0.415858 0.241352 0.155030 0 200 255
0.489035 0.323955 0.199988 0 200 255
0.424050 0.365295 0.125360 0 200 255
0.505619 0.319517 0.185402 0 200 255
0.415250 0.257199 0.168917 0 200 255
0.399560 0.237613 0.162783 0 200 255
0.442699 0.343887 0.170592 0 200 255
0.417809 0.319902 0.200140 0 200 255
0.363876 0.352370 0.171737 0 200 255
0.488247 0.293649 0.158324 0 200 255
0.504433 0.308334 0.168470 0 200 255
0.390649 0.255487 0.164575 0 200 255
0.443389 0.339520 0.198136 0 200 255
0.421386 0.329051 0.178361 0 200 255
0.475711 0.373077 0.182421 0 200 255
0.429080 0.393029 0.163123 0 200 255
0.406888 0.256310 0.139019 0 200 255
0.447061 0.376992 0.150439 0 200 255
0.431997 0.403298 0.140209 0 200 255
0.435256 0.245822 0.165794 0 200 255
0.437300 0.265984 0.166289 0 200 255
0.499352 0.328194 0.173090 0 200 255
0.487355 0.277067 0.200603 0 200 255
0.464912 0.398088 0.156910 0 200 255
0.367225 0.224349 0.150071 0 200 255
0.425108 0.315468 0.192913 0 200 255
0.452381 0.256166 0.169620 0 200 255
0.454720 0.406944 0.103407 0 200 255
0.470525 0.385912 0.162440 0 200 255
0.372744 0.366157 0.170059 0 200 255
0.445141 0.338792 0.181090 0 200 255
0.388766 0.222280 0.141976 0 200 255
0.447979 0.319827 0.166927 0 200 255
0.462931 0.404179 0.121020 0 200 255
0.441634 0.362939 0.181762 0 200 255
0.401419 0.333622 0.180115 0 200 255
0.353214 0.371162 0.167735 0 200 255
0.478479 0.369136 0.162559 0 200 255
0.425530 0.312808 0.169999 0 200 255
0.468512 0.342881 0.176940 0 200 255
0.473487 0.279132 0.158555 0 200 255
0.347549 0.251095 0.130822 0 200 255
0.426856 0.354308 0.085180 0 200 255
0.375067 0.355871 0.174457 0 200 255
0.337433 0.373188 0.161139 0 200 255
0.507464 0.291660 0.161783 0 200 255
0.419958 0.296808 0.195436 0 200 255
0.470634 0.349107 0.195696 0 200 255
0.488295 0.312113 0.201066 0 200 255
0.423841 0.329874 0.200422 0 200 255
0.418550 0.255051 0.148393 0 200 255
0.389159 0.337936 0.164534 0 200 255
0.498058 0.336034 0.194013 0 200 255
0.415636 0.230164 0.147855 0 200 255
0.433126 0.365297 0.099074 0 200 255
0.450651 0.405099 0.146815 0 200 255
0.434993 0.365404 0.146148 0 200 255
0.379942 0.251046 0.153878 0 200 255
0.456200 0.367125 0.158152 0 200 255
0.355026 0.239052 0.131859 0 200 255
0.331096 0.380199 0.166136 0 200 255
0.456609 0.260475 0.194581 0 200 255
0.509817 0.296405 0.179651 0 200 255
0.431160 0.255814 0.143799 0 200 255
0.414618 0.301484 0.187473 0 200 255
0.426167 0.285759 0.193458 0 200 255
0.437160 0.344365 0.188952 0 200 255
0.445317 0.302646 0.200478 0 200 255
0.433763 0.328195 0.177581 0 200 255
0.425833 0.351260 0.101333 0 200 255
0.430962 0.391604 0.150888 0 200 255
0.403274 0.343215 0.176104 0 200 255
0.462396 0.253011 0.168596 0 200 255
0.477498 0.312373 0.159875 0 200 255
0.387943 0.239360 0.166685 0 200 255
0.441627 0.347543 0.096166 0 200 255
0.381952 0.233133 0.159915 0 200 255
0.334803 0.245187 0.125109 0 200 255
0.430820 0.362826 0.164874 0 200 255
0.473668 0.249073 0.164132 0 200 255
0.446091 0.282540 0.197322 0 200 255
0.443258 0.349860 0.135458 0 200 255
0.389733 0.345936 0.191280 0 200 255
0.398439 0.233809 0.142816 0 200 255
0.345982 0.231313 0.149411 0 200 255
0.411049 0.330572 0.188359 0 200 255
0.407515 0.249325 0.171437 0 200 255
0.455657 0.350353 0.169333 0 200 255
0.465016 0.381728 0.145012 0 200 255
0.457637 0.410686 0.137002 0 200 255
0.503102 0.276374 0.184713 0 200 255
0.457719 0.396143 0.146362 0 200 255
0.422951 0.362017 0.145527 0 200 255
0.415166 0.251286 0.135249 0 200 255
0.380516 0.344701 0.182413 0 200 255
0.464138 0.373353 0.172690 0 200 255
0.421362 0.289505 0.174866 0 200 255
0.482959 0.345213 0.190648 0 200 255
0.394170 0.350130 0.173294 0 200 255
0.471917 0.250268 0.200000 0 200 255
0.424092 0.416272 0.136572 0 200 255
0.463323 0.253020 0.187408 0 200 255
0.439886 0.269185 0.195335 0 200 255
0.400444 0.227624 0.160841 0 200 255
0.356374 0.374559 0.157426 0 200 255
0.435955 0.302171 0.196539 0 200 255
0.434011 0.348603 0.169192 0 200 255
0.469913 0.359515 0.187268 0 200 255
0.427993 0.247163 0.172777 0 200 255
0.432746 0.337435 0.156723 0 200 255
0.362786 0.250832 0.144591 0 200 255
0.505697 0.299232 0.192735 0 200 255
0.450679 0.390548 0.140744 0 200 255
0.428970 0.347165 0.112818 0 200 255
0.454012 0.320077 0.197684 0 200 255
0.372504 0.235662 0.160385 0 200 255
0.372845 0.346151 0.170937 0 200 255
0.437873 0.409900 0.135989 0 200 255
0.458542 0.363618 0.182805 0 200 255
0.458811 0.303496 0.162859 0 200 255
0.468374 0.264843 0.202045 0 200 255
0.365120 0.241928 0.134839 0 200 255
0.461201 0.282241 0.157812 0 200 255
0.442786 0.349956 0.105515 0 200 255
0.429030 0.355269 0.155740 0 200 255
0.439600 0.401288 0.160591 0 200 255
0.418040 0.316538 0.185024 0 200 255
0.399806 0.335699 0.168546 0 200 255
0.354586 0.245128 0.124194 0 200 255
0.510529 0.306293 0.175705 0 200 255
0.361955 0.362414 0.163932 0 200 255
0.366513 0.236553 0.148676 0 200 255
0.506781 0.278291 0.170542 0 200 255
0.439746 0.279782 0.158086 0 200 255
0.466089 0.283143 0.195149 0 200 255
0.476205 0.354216 0.179306 0 200 255
0.454835 0.332314 0.188214 0 200 255
0.437336 0.377476 0.148737 0 200 255
0.346104 0.378857 0.173065 0 200 255
0.464455 0.243950 0.190433 0 200 255
0.477733 0.369365 0.173799 0 200 255
0.410982 0.327277 0.177356 0 200 255
0.356928 0.367477 0.176236 0 200 255
0.395277 0.246173 0.129738 0 200 255
0.487214 0.318500 0.163503 0 200 255
0.424159 0.399739 0.145948 0 200 255
0.439766 0.399599 0.132475 0 200 255
0.455802 0.328263 0.171112 0 200 255
0.428758 0.408766 0.118806 0 200 255
0.441618 0.284922 0.167416 0 200 255
0.461160 0.346330 0.196427 0 200 255
0.505016 0.282338 0.192130 0 200 255
0.395249 0.338019 0.191717 0 200 255
0.441704 0.354525 0.089280 0 200 255
0.397630 0.234720 0.152170 0 200 255
0.450928 0.357758 0.161458 0 200 255
0.433898 0.357402 0.125328 0 200 255
0.427557 0.293557 0.160026 0 200 255
0.407532 0.227422 0.151746 0 200 255
0.478956 0.350431 0.168975 0 200 255
0.418223 0.248913 0.163617 0 200 255
0.437512 0.333427 0.190189 0 200 255
0.412944 0.306287 0.169159 0 200 255
0.442932 0.299436 0.158512 0 200 255
0.480003 0.292604 0.201525 0 200 255
0.370605 0.225798 0.158651 0 200 255
0.442541 0.386963 0.165587 0 200 255
0.364417 0.224228 0.141191 0 200 255
0.441123 0.256008 0.184136 0 200 255
0.497236 0.255342 0.164758 0 200 255
0.434697 0.263851 0.175988 0 200 255
0.473378 0.305434 0.203415 0 200 255
0.409280 0.239175 0.134614 0 200 255
0.466959 0.395023 0.141853 0 200 255
0.434723 0.367071 0.137077 0 200 255
0.489006 0.347375 0.197267 0 200 255
0.356643 0.226477 0.130231 0 200 255
0.450737 0.274473 0.169418 0 200 255
0.343246 0.368038 0.166086 0 200 255
0.412145 0.241112 0.164085 0 200 255
0.429737 0.365888 0.118069 0 200 255
0.340685 0.248590 0.144841 0 200 255
0.331679 0.245983 0.139707 0 200 255
0.381645 0.241179 0.151310 0 200 255
0.365680 0.361177 0.173261 0 200 255
0.349116 0.238683 0.143444 0 200 255
0.437321 0.257351 0.169661 0 200 255
0.368179 0.233903 0.131928 0 200 255
0.449501 0.349163 0.175986 0 200 255
0.428984 0.407403 0.148462 0 200 255
0.455885 0.379725 0.155439 0 200 255
0.383101 0.227120 0.132738 0 200 255
0.459503 0.391153 0.129390 0 200 255
0.426398 0.238947 0.141157 0 200 255
0.475512 0.327041 0.201602 0 200 255
0.463403 0.262014 0.166855 0 200 255
0.435723 0.361708 0.157354 0 200 255
0.421848 0.308840 0.187770 0 200 255
0.459266 0.283946 0.203438 0 200 255
0.489940 0.299629 0.199025 0 200 255
0.469953 0.332093 0.161354 0 200 255
0.378425 0.359974 0.166936 0 200 255
0.481244 0.275065 0.160979 0 200 255
0.390921 0.238643 0.137978 0 200 255
0.473078 0.346919 0.185190 0 200 255
0.457781 0.365671 0.172980 0 200 255
0.497388 0.258844 0.191877 0 200 255
0.486565 0.336557 0.167585 0 200 255
0.431386 0.328719 0.195074 0 200 255
0.452383 0.350604 0.188390 0 200 255
0.382157 0.252779 0.162322 0 200 255
0.392760 0.331629 0.183923 0 200 255
0.427141 0.347364 0.128414 0 200 255
0.436232 0.285768 0.199475 0 200 255
0.426358 0.347876 0.173634 0 200 255
0.355191 0.379694 0.169176 0 200 255
0.455844 0.384607 0.168224 0 200 255
0.421132 0.413027 0.120287 0 200 255
0.418300 0.232504 0.156649 0 200 255
0.379592 0.357728 0.185261 0 200 255
0.445557 0.375491 0.172003 0 200 255
0.439849 0.387661 0.173969 0 200 255
0.439065 0.361607 0.114262 0 200 255
0.358338 0.238113 0.154553 0 200 255
0.495088 0.342337 0.188656 0 200 255
0.424041 0.400540 0.133262 0 200 255
0.476816 0.299939 0.196053 0 200 255
0.444435 0.252385 0.173325 0 200 255
0.461311 0.389197 0.154023 0 200 255
0.440744 0.321891 0.182139 0 200 255
0.462964 0.349957 0.175832 0 200 255
0.470474 0.359920 0.167786 0 200 255
0.437128 0.372570 0.156009 0 200 255
0.370002 0.235339 0.140758 0 200 255
0.449105 0.370781 0.183239 0 200 255
0.496847 0.269392 0.165515 0 200 255
0.464304 0.254022 0.177051 0 200 255
0.462421 0.267446 0.182634 0 200 255
0.447734 0.397789 0.150792 0 200 255
0.503127 0.325496 0.165728 0 200 255
0.456787 0.271927 0.161505 0 200 255
0.386281 0.335780 0.178222 0 200 255
0.470363 0.241139 0.172992 0 200 255
0.387529 0.348706 0.163879 0 200 255
0.472073 0.257445 0.158282 0 200 255
0.436110 0.342392 0.179331 0 200 255
0.428607 0.344501 0.140298 0 200 255
0.426372 0.317804 0.160608 0 200 255
0.441338 0.363221 0.167508 0 200 255
0.450098 0.400182 0.106518 0 200 255
0.480264 0.261545 0.198207 0 200 255
0.363615 0.243938 0.126539 0 200 255
0.499218 0.287833 0.168192 0 200 255
0.448674 0.410427 0.117105 0 200 255
0.461456 0.367573 0.165317 0 200 255
0.381767 0.247680 0.136070 0 200 255
0.491539 0.284274 0.161436 0 200 255
0.499545 0.327436 0.181639 0 200 255
0.419627 0.311113 0.176006 0 200 255
0.461826 0.406449 0.130850 0 200 255
0.433645 0.286904 0.158925 0 200 255
0.434946 0.352768 0.134738 0 200 255
0.472980 0.315856 0.166475 0 200 255
0.452832 0.302603 0.196418 0 200 255
0.476641 0.354812 0.189620 0 200 255
0.342823 0.229820 0.132041 0 200 255
0.494834 0.337878 0.169208 0 200 255
0.334141 0.380567 0.156780 0 200 255
0.492588 0.253497 0.196461 0 200 255
0.496469 0.313845 0.199386 0 200 255
0.433900 0.416445 0.123503 0 200 255
0.363195 0.365654 0.183240 0 200 255
0.479837 0.252572 0.203224 0 200 255
0.427882 0.311935 0.200618 0 200 255
0.446488 0.291734 0.157903 0 200 255
0.469847 0.366975 0.183178 0 200 255
0.508744 0.257656 0.185716 0 200 255
0.443728 0.324518 0.161279 0 200 255
0.456624 0.396191 0.163976 0 200 255
0.408388 0.259502 0.157409 0 200 255
0.433241 0.282720 0.167358 0 200 255
0.438928 0.362382 0.105810 0 200 255
0.502681 0.295930 0.169494 0 200 255
0.445133 0.390568 0.147135 0 200 255
0.426317 0.325654 0.184327 0 200 255
0.439960 0.349016 0.126664 0 200 255
0.449226 0.253331 0.162327 0 200 255
0.389740 0.343001 0.183374 0 200 255
0.328734 0.238057 0.139373 0 200 255
0.375075 0.223938 0.130127 0 200 255
0.471842 0.379084 0.177985 0 200 255
0.464695 0.336954 0.183940 0 200 255
0.505832 0.265047 0.176188 0 200 255
0.472378 0.323396 0.160682 0 200 255
0.443303 0.269471 0.178216 0 200 255
0.354361 0.363845 0.159781 0 200 255
0.419588 0.410412 0.131918 0 200 255
0.474612 0.377392 0.160049 0 200 255
0.440695 0.354593 0.175086 0 200 255
0.461675 0.333292 0.161815 0 200 255
0.493743 0.268958 0.178464 0 200 255
0.462487 0.317832 0.160936 0 200 255
0.411702 0.229165 0.139488 0 200 255
0.416864 0.243113 0.135623 0 200 255
0.443867 0.328281 0.202656 0 200 255
0.444597 0.347530 0.154937 0 200 255
0.383753 0.229163 0.143660 0 200 255
0.436023 0.321398 0.197679 0 200 255
0.422949 0.253683 0.170697 0 200 255
0.454689 0.286899 0.161911 0 200 255
0.466235 0.272186 0.165370 0 200 255
0.416190 0.311095 0.194975 0 200 255
0.336209 0.239465 0.131917 0 200 255
0.433058 0.355050 0.163029 0 200 255
0.407099 0.238515 0.156779 0 200 255
0.436257 0.374413 0.172815 0 200 255
0.493820 0.260240 0.157476 0 200 255
0.469059 0.265817 0.175455 0 200 255
0.430698 0.319284 0.177079 0 200 255
0.451139 0.400019 0.129590 0 200 255
0.343464 0.387222 0.159062 0 200 255
0.456901 0.380318 0.145679 0 200 255
0.392838 0.237876 0.128460 0 200 255
0.427024 0.350127 0.092294 0 200 255
0.427207 0.423724 0.124713 0 200 255
0.440689 0.357511 0.130751 0 200 255
0.345505 0.236212 0.120704 0 200 255
0.427522 0.249362 0.140204 0 200 255
0.468133 0.286280 0.202688 0 200 255
0.429691 0.360703 0.138417 0 200 255
0.452488 0.255977 0.188947 0 200 255
0.425454 0.354449 0.111225 0 200 255
0.397612 0.255796 0.149061 0 200 255
0.355897 0.226052 0.141185 0 200 255
0.419921 0.321695 0.175043 0 200 255
0.399158 0.326256 0.177337 0 200 255
0.461785 0.344959 0.168799 0 200 255
0.447102 0.314763 0.197189 0 200 255
0.423163 0.356019 0.140004 0 200 255
0.448889 0.324812 0.173692 0 200 255
0.433552 0.404797 0.131123 0 200 255
0.390321 0.247391 0.165378 0 200 255
0.446720 0.357438 0.186089 0 200 255
0.460284 0.403670 0.152884 0 200 255
0.495700 0.267930 0.193131 0 200 255
0.354347 0.359596 0.176407 0 200 255
0.460729 0.387805 0.161980 0 200 255
0.470190 0.384305 0.172040 0 200 255
0.481200 0.259552 0.164062 0 200 255
0.450526 0.381440 0.161479 0 200 255
0.424341 0.243106 0.150482 0 200 255
0.396183 0.233685 0.168972 0 200 255
0.474616 0.342838 0.192105 0 200 255
0.438987 0.293135 0.201293 0 200 255
0.444889 0.259093 0.167142 0 200 255
0.454415 0.258212 0.177099 0 200 255
0.508748 0.257832 0.172549 0 200 255
0.482837 0.352064 0.183986 0 200 255
0.496020 0.335062 0.176906 0 200 255
0.368779 0.358857 0.180931 0 200 255
0.429666 0.359028 0.105075 0 200 255
0.457111 0.335256 0.202889 0 200 255
0.427005 0.238828 0.159885 0 200 255
0.453050 0.395216 0.121542 0 200 255
0.439861 0.366687 0.174533 0 200 255
0.447665 0.351171 0.168500 0 200 255
0.369736 0.228785 0.125654 0 200 255
0.442472 0.385763 0.156018 0 200 255
0.354950 0.236186 0.123473 0 200 255
0.434377 0.386533 0.163732 0 200 255
0.507102 0.313744 0.192020 0 200 255
0.445118 0.313287 0.160025 0 200 255
0.350773 0.231413 0.132373 0 200 255
0.408394 0.335295 0.171382 0 200 255
0.465373 0.306164 0.202559 0 200 255
0.430083 0.358621 0.146104 0 200 255
0.396657 0.339191 0.183868 0 200 255
0.400299 0.253026 0.132153 0 200 255
0.455913 0.325253 0.203352 0 200 255
0.458997 0.395401 0.112067 0 200 255
0.382916 0.358255 0.177826 0 200 255
0.339201 0.234670 0.146892 0 200 255
0.426488 0.355767 0.173968 0 200 255
0.416285 0.238519 0.171482 0 200 255
0.431355 0.239519 0.150145 0 200 255
0.459557 0.357082 0.177286 0 200 255
0.510699 0.291703 0.172599 0 200 255
0.447783 0.378668 0.178866 0 200 255
0.396476 0.223740 0.142726 0 200 255
0.449743 0.344855 0.183196 0 200 255
0.453696 0.263922 0.170017 0 200 255
0.463985 0.344438 0.186281 0 200 255
0.464798 0.398998 0.148284 0 200 255
0.423445 0.255161 0.156182 0 200 255
0.481702 0.302801 0.159133 0 200 255
0.439571 0.343848 0.138877 0 200 255
0.375049 0.244271 0.154200 0 200 255
0.473893 0.275298 0.202149 0 200 255
0.430287 0.272205 0.178639 0 200 255
0.398531 0.227046 0.133029 0 200 255
0.475830 0.333419 0.167492 0 200 255
0.349772 0.378179 0.155311 0 200 255
0.453431 0.406411 0.123059 0 200 255
0.429535 0.364393 0.131193 0 200 255
0.445988 0.344259 0.163168 0 200 255
0.463031 0.278440 0.175960 0 200 255
0.481935 0.332553 0.202518 0 200 255
0.417868 0.317285 0.164950 0 200 255
0.383471 0.234844 0.132040 0 200 255
0.428112 0.278355 0.189684 0 200 255
0.416645 0.239373 0.147565 0 200 255
0.431519 0.414340 0.135421 0 200 255
0.436445 0.393597 0.160775 0 200 255
0.434480 0.395770 0.142417 0 200 255
0.466526 0.333287 0.172304 0 200 255
0.358588 0.246204 0.152087 0 200 255
0.424834 0.360009 0.160430 0 200 255
0.463973 0.401455 0.138803 0 200 255
0.411091 0.258402 0.147112 0 200 255
0.361687 0.354751 0.164635 0 200 255
0.462671 0.380168 0.167687 0 200 255
0.416635 0.249900 0.153779 0 200 255
0.431639 0.383726 0.148454 0 200 255
0.448721 0.366379 0.176951 0 200 255
0.391262 0.226397 0.156760 0 200 255
0.410742 0.317469 0.180692 0 200 255
0.501925 0.330108 0.191021 0 200 255
0.436423 0.269825 0.159700 0 200 255
0.403576 0.231306 0.167349 0 200 255
0.426058 0.412299 0.142860 0 200 255
0.424544 0.263689 0.163903 0 200 255
0.484158 0.260258 0.175113 0 200 255
0.447716 0.396979 0.136652 0 200 255
0.441287 0.354879 0.145952 0 200 255
0.506392 0.304831 0.161966 0 200 255
0.429145 0.273035 0.166274 0 200 255
0.455332 0.277005 0.195958 0 200 255
0.432616 0.359031 0.094762 0 200 255
0.345322 0.244537 0.149896 0 200 255
0.405735 0.235446 0.141350 0 200 255
0.444386 0.266680 0.169148 0 200 255
0.430992 0.317109 0.166913 0 200 255
0.431276 0.337398 0.176241 0 200 255
0.428097 0.345172 0.150148 0 200 255
0.438821 0.398481 0.148583 0 200 255
0.431207 0.360938 0.112500 0 200 255
0.433137 0.324422 0.169360 0 200 255
0.443960 0.360337 0.159921 0 200 255
0.355232 0.251735 0.137991 0 200 255
0.468653 0.355400 0.177460 0 200 255
0.433204 0.253943 0.160097 0 200 255
0.491374 0.271197 0.170409 0 200 255
0.452705 0.373087 0.153597 0 200 255
0.426085 0.283727 0.161364 0 200 255
0.395888 0.257178 0.159405 0 200 255
0.376419 0.351463 0.181856 0 200 255
0.437375 0.339085 0.163434 0 200 255
0.437954 0.345773 0.109886 0 200 255
0.410758 0.322949 0.188473 0 200 255
0.480720 0.289304 0.161828 0 200 255
0.500316 0.275758 0.167391 0 200 255
0.493985 0.279945 0.198659 0 200 255
0.421609 0.362397 0.131801 0 200 255
0.485399 0.254534 0.198203 0 200 255
0.435788 0.332837 0.169312 0 200 255
0.453375 0.338363 0.195799 0 200 255
0.474840 0.242939 0.157748 0 200 255
0.393827 0.249475 0.147973 0 200 255
0.453864 0.268464 0.198771 0 200 255
0.397785 0.254866 0.166587 0 200 255
0.436813 0.303652 0.158821 0 200 255
0.430117 0.345091 0.096800 0 200 255
0.492096 0.350911 0.174026 0 200 255
0.449961 0.392084 0.155122 0 200 255
0.506236 0.312726 0.174469 0 200 255
0.410254 0.323152 0.167952 0 200 255
0.435033 0.376748 0.161852 0 200 255
0.491038 0.312023 0.163086 0 200 255
0.359903 0.235596 0.145533 0 200 255
0.361425 0.228755 0.124896 0 200 255
0.465655 0.261050 0.158716 0 200 255
0.488605 0.251444 0.160317 0 200 255
0.354329 0.231992 0.155453 0 200 255
0.442249 0.341363 0.150542 0 200 255
0.459819 0.410809 0.120268 0 200 255
0.428882 0.402872 0.123204 0 200 255
0.483365 0.340745 0.200055 0 200 255
0.416047 0.304069 0.179311 0 200 255
0.466484 0.278526 0.161312 0 200 255
0.430064 0.270433 0.186455 0 200 255
0.360086 0.368542 0.169716 0 200 255
0.469058 0.247585 0.169622 0 200 255
0.471529 0.379975 0.147859 0 200 255
0.500594 0.260242 0.172480 0 200 255
0.430339 0.253729 0.174954 0 200 255
0.422724 0.241940 0.171044 0 200 255
0.360238 0.375664 0.173203 0 200 255
0.421338 0.304024 0.164217 0 200 255
0.452003 0.412022 0.107878 0 200 255
0.364943 0.250379 0.136597 0 200 255
0.358132 0.240997 0.138155 0 200 255
0.470299 0.255761 0.171656 0 200 255
0.456719 0.273350 0.173923 0 200 255
0.495214 0.305784 0.162680 0 200 255
0.504283 0.317949 0.163321 0 200 255
0.471062 0.334977 0.179664 0 200 255
0.499801 0.269954 0.187474 0 200 255
0.418088 0.323827 0.168125 0 200 255
0.484927 0.268232 0.168815 0 200 255
0.436253 0.351210 0.186671 0 200 255
0.441459 0.380398 0.168548 0 200 255
0.424128 0.361754 0.116052 0 200 255
0.477866 0.287703 0.196229 0 200 255
0.385945 0.240322 0.143113 0 200 255
0.480847 0.363557 0.176802 0 200 255
0.376847 0.236796 0.146182 0 200 255
0.458599 0.400254 0.128960 0 200 255
0.388333 0.232882 0.155443 0 200 255
0.454690 0.333578 0.166337 0 200 255
0.427971 0.366737 0.143336 0 200 255
0.423119 0.357534 0.152250 0 200 255
0.330658 0.246520 0.132537 0 200 255
0.388657 0.249637 0.137022 0 200 255
0.463214 0.240932 0.173989 0 200 255
0.509740 0.301408 0.184855 0 200 255
0.370947 0.238097 0.126746 0 200 255
0.425962 0.301065 0.199185 0 200 255
0.471782 0.285412 0.161674 0 200 255
0.455419 0.291163 0.203495 0 200 255
0.432800 0.330066 0.185698 0 200 255
0.364918 0.352654 0.179068 0 200 255
0.372505 0.349247 0.187667 0 200 255
0.402791 0.226945 0.145706 0 200 255
0.453524 0.326688 0.178870 0 200 255
0.498845 0.327824 0.197671 0 200 255
0.348512 0.365204 0.170054 0 200 255
0.459334 0.318650 0.202271 0 200 255
0.431573 0.348720 0.084511 0 200 255
0.353137 0.232773 0.143947 0 200 255
0.432255 0.353693 0.115383 0 200 255
0.460665 0.369124 0.178545 0 200 255
0.383009 0.354250 0.163767 0 200 255
0.438582 0.381097 0.176514 0 200 255
0.459291 0.409019 0.109401 0 200 255
0.475225 0.362972 0.160957 0 200 255
0.422827 0.358125 0.102643 0 200 255
0.348110 0.243302 0.129360 0 200 255
0.465273 0.368723 0.152384 0 200 255
0.466872 0.303759 0.159931 0 200 255
0.420950 0.234882 0.144076 0 200 255
0.342392 0.236213 0.139368 0 200 255
0.452070 0.356482 0.170739 0 200 255
0.427207 0.325423 0.176189 0 200 255
0.442727 0.252009 0.166287 0 200 255
0.457379 0.376345 0.171247 0 200 255
0.404023 0.330703 0.186046 0 200 255
0.339311 0.379851 0.167864 0 200 255
0.495281 0.296351 0.195680 0 200 255
0.344099 0.374083 0.158893 0 200 255
0.405025 0.341584 0.169430 0 200 255
0.427195 0.253125 0.165049 0 200 255
0.448310 0.309201 0.201408 0 200 255
0.428055 0.360442 0.088504 0 200 255
0.440708 0.352895 0.113231 0 200 255
0.461832 0.263844 0.199545 0 200 255
0.466923 0.392121 0.161187 0 200 255
0.433393 0.351391 0.175647 0 200 255
0.470252 0.242830 0.186574 0 200 255
0.407235 0.320375 0.175033 0 200 255
0.446402 0.252035 0.180327 0 200 255
0.443414 0.393322 0.162674 0 200 255
0.439978 0.347422 0.088520 0 200 255
0.444866 0.279175 0.164954 0 200 255
0.339410 0.239795 0.120985 0 200 255
0.471669 0.372424 0.175633 0 200 255
0.445262 0.337166 0.174252 0 200 255
0.451980 0.302322 0.159260 0 200 255
0.393158 0.235588 0.160722 0 200 255
0.375797 0.343620 0.177325 0 200 255
0.496081 0.266144 0.171693 0 200 255
0.370613 0.349732 0.164652 0 200 255
0.342271 0.251536 0.138657 0 200 255
0.427295 0.321949 0.190274 0 200 255
0.476920 0.264247 0.171622 0 200 255
0.405283 0.339095 0.182156 0 200 255
0.391006 0.228405 0.144525 0 200 255
0.433766 0.308883 0.164398 0 200 255
0.421715 0.283957 0.182204 0 200 255
0.370277 0.364022 0.163884 0 200 255
0.432345 0.399680 0.161151 0 200 255
0.401498 0.241115 0.170709 0 200 255
0.429343 0.343471 0.185473 0 200 255
0.435682 0.350579 0.103973 0 200 255
0.487265 0.324585 0.166869 0 200 255
0.416745 0.329056 0.184671 0 200 255
0.488841 0.256180 0.154834 0 200 255
0.437781 0.360961 0.150692 0 200 255
0.494696 0.344856 0.169224 0 200 255
0.446641 0.402044 0.114319 0 200 255
0.378303 0.243770 0.140629 0 200 255
0.439684 0.275685 0.197731 0 200 255
0.401569 0.257850 0.155496 0 200 255
0.453566 0.407551 0.132332 0 200 255
0.381719 0.234218 0.150378 0 200 255
0.382738 0.340332 0.165520 0 200 255
0.358429 0.377510 0.163469 0 200 255
0.460729 0.376949 0.178004 0 200 255
0.449239 0.398902 0.143369 0 200 255
0.410612 0.261036 0.165515 0 200 255
0.386858 0.252247 0.147503 0 200 255
0.387841 0.224300 0.149082 0 200 255
0.416527 0.258583 0.142441 0 200 255
0.504799 0.296797 0.186229 0 200 255
0.472701 0.364807 0.174947 0 200 255
0.361559 0.226914 0.154210 0 200 255
0.438397 0.362726 0.121021 0 200 255
0.442738 0.289650 0.196328 0 200 255
0.438202 0.408486 0.145347 0 200 255
0.417237 0.332923 0.174481 0 200 255
0.350562 0.372361 0.175526 0 200 255
0.490216 0.353277 0.181569 0 200 255
0.462282 0.296644 0.159334 0 200 255
0.421930 0.420392 0.121853 0 200 255
0.493801 0.298440 0.158635 0 200 255
0.458756 0.373615 0.156791 0 200 255
0.470720 0.385830 0.154431 0 200 255
0.332298 0.234597 0.129119 0 200 255
0.451647 0.393185 0.147585 0 200 255
0.440328 0.273077 0.168681 0 200 255
0.485396 0.265849 0.199771 0 200 255
0.338003 0.389633 0.165714 0 200 255
0.399471 0.342823 0.188926 0 200 255
0.377075 0.362733 0.174074 0 200 255
0.432689 0.358745 0.082684 0 200 255
0.484197 0.284479 0.201140 0 200 255
0.343821 0.372360 0.174515 0 200 255
0.502447 0.308186 0.195131 0 200 255
0.422476 0.357321 0.127353 0 200 255
0.436435 0.261566 0.159280 0 200 255
0.446880 0.408270 0.125519 0 200 255
0.366436 0.238073 0.158484 0 200 255
0.472724 0.291616 0.159061 0 200 255
0.445611 0.383893 0.148304 0 200 255
0.466365 0.333879 0.201802 0 200 255
0.425122 0.420167 0.130514 0 200 255
0.405369 0.231018 0.132951 0 200 255
0.458599 0.356490 0.184054 0 200 255
0.426362 0.348213 0.165191 0 200 255
0.444876 0.339483 0.187832 0 200 255
0.480795 0.268202 0.159061 0 200 255
0.492900 0.340140 0.195561 0 200 255
0.476870 0.246112 0.201979 0 200 255
0.474652 0.272907 0.160908 0 200 255
0.412351 0.237409 0.142739 0 200 255
0.458383 0.339128 0.168683 0 200 255
0.462904 0.353733 0.170237 0 200 255
0.343527 0.238282 0.151663 0 200 255
0.495365 0.320471 0.199969 0 200 255
0.472679 0.291177 0.204008 0 200 255
0.428044 0.395203 0.156523 0 200 255
0.480419 0.316123 0.165102 0 200 255
0.346501 0.384704 0.169741 0 200 255
0.393176 0.332833 0.166313 0 200 255
0.358929 0.369217 0.162939 0 200 255
0.467295 0.237240 0.184271 0 200 255
0.500488 0.332363 0.166814 0 200 255
0.430824 0.398043 0.136173 0 200 255
0.451156 0.335915 0.180228 0 200 255
0.422367 0.243044 0.157468 0 200 255
0.496878 0.324036 0.163749 0 200 255
0.456336 0.295982 0.196512 0 200 255
0.423033 0.253008 0.143616 0 200 255
0.359413 0.358020 0.170652 0 200 255
0.443291 0.350033 0.161019 0 200 255
0.424248 0.352676 0.160137 0 200 255
0.365307 0.243198 0.149338 0 200 255
0.477020 0.339733 0.165591 0 200 255
0.436739 0.255712 0.176130 0 200 255
0.439240 0.304488 0.202607 0 200 255
0.418487 0.262578 0.166528 0 200 255
0.478062 0.253254 0.161320 0 200 255
0.417439 0.292638 0.179276 0 200 255
0.458663 0.395283 0.156797 0 200 255
0.433081 0.401251 0.146618 0 200 255
0.382443 0.342583 0.188429 0 200 255
0.497152 0.342040 0.174914 0 200 255
0.438659 0.249861 0.161303 0 200 255
0.403277 0.331147 0.172338 0 200 255
0.434859 0.360798 0.132929 0 200 255
0.360274 0.226071 0.135791 0 200 255
0.364118 0.239351 0.142035 0 200 255
0.440265 0.365753 0.160972 0 200 255
0.411642 0.235322 0.167294 0 200 255
0.372060 0.243615 0.137678 0 200 255
0.464444 0.361400 0.162226 0 200 255
0.350180 0.372944 0.161472 0 200 255
0.450605 0.313762 0.166545 0 200 255
0.397858 0.327455 0.184524 0 200 255
0.386746 0.351115 0.187957 0 200 255
0.402307 0.242438 0.134407 0 200 255
0.353972 0.234076 0.137496 0 200 255
0.477029 0.342465 0.200666 0 200 255
0.473540 0.369014 0.155134 0 200 255
0.441921 0.347642 0.175940 0 200 255
0.435836 0.297152 0.158563 0 200 255
0.460110 0.263750 0.160991 0 200 255
0.370738 0.232052 0.146387 0 200 255
0.449771 0.334585 0.191830 0 200 255
0.473451 0.257498 0.196153 0 200 255
0.450325 0.298862 0.203381 0 200 255
0.456556 0.399929 0.107905 0 200 255
0.369632 0.229131 0.138733 0 200 255
0.417358 0.304066 0.192816 0 200 255
0.464483 0.292663 0.204226 0 200 255
0.347350 0.245362 0.140643 0 200 255
0.348411 0.364513 0.162352 0 200 255
0.449833 0.363176 0.182515 0 200 255
0.378066 0.237710 0.127728 0 200 255
0.394475 0.240306 0.165830 0 200 255
0.412538 0.335866 0.184874 0 200 255
0.431697 0.355409 0.169866 0 200 255
0.434853 0.267478 0.190811 0 200 255
0.376233 0.353387 0.164702 0 200 255
0.429969 0.388306 0.143732 0 200 255
0.485985 0.332093 0.161572 0 200 255
0.436580 0.412553 0.130203 0 200 255
0.437368 0.316378 0.164811 0 200 255
0.424138 0.319536 0.185149 0 200 255
0.449190 0.365080 0.156346 0 200 255
0.467590 0.246781 0.163360 0 200 255
0.464809 0.395605 0.123981 0 200 255
0.479250 0.323589 0.160432 0 200 255
