ply
format ascii 1.0
element vertex 1024
property float x
property float y
property float z
property uchar red
property uchar green
property uchar blue
end_header
0.476643 0.246084 0.252873 0 200 255
0.360535 0.385345 0.246965 0 200 255
0.345729 0.229777 0.205054 0 200 255
0.453490 0.340973 0.159714 0 200 255
0.486425 0.356711 0.265662 0 200 255
0.446068 0.407870 0.210853 0 200 255
0.411058 0.320160 0.267154 0 200 255
0.420403 0.210141 0.215003 0 200 255
0.525298 0.298084 0.259108 0 200 255
0.453058 0.324601 0.220274 0 200 255
0.466871 0.300512 0.281655 0 200 255
0.438036 0.280390 0.241701 0 200 255
0.523705 0.239909 0.262454 0 200 255
0.483875 0.383309 0.226196 0 200 255
0.483509 0.294768 0.238194 0 200 255
0.378017 0.213673 0.233952 0 200 255
0.431769 0.236152 0.249202 0 200 255
0.395561 0.358789 0.251770 0 200 255
0.499588 0.270773 0.280021 0 200 255
0.450361 0.369226 0.247434 0 200 255
0.513915 0.268067 0.236130 0 200 255
0.503216 0.327889 0.245986 0 200 255
0.448782 0.262503 0.273868 0 200 255
0.454101 0.335589 0.265436 0 200 255
0.454868 0.349979 0.194523 0 200 255
0.491195 0.224139 0.277295 0 200 255
0.499313 0.315311 0.280627 0 200 255
0.435716 0.241888 0.214589 0 200 255
0.380492 0.218842 0.199190 0 200 255
0.473786 0.394833 0.193864 0 200 255
0.433162 0.294527 0.275502 0 200 255
0.402697 0.236655 0.228899 0 200 255
0.436462 0.313120 0.246697 0 200 255
0.509387 0.235231 0.233155 0 200 255
0.471674 0.345856 0.239451 0 200 255
0.464304 0.267857 0.234888 0 200 255
0.445829 0.379313 0.220302 0 200 255
0.467008 0.318126 0.246134 0 200 255
0.373955 0.237670 0.219432 0 200 255
0.442515 0.342830 0.240704 0 200 255
0.369605 0.363053 0.261705 0 200 255
0.406584 0.211781 0.240624 0 200 255
0.414220 0.339136 0.247105 0 200 255
0.524801 0.271158 0.264291 0 200 255
0.475517 0.378574 0.251981 0 200 255
0.473334 0.273142 0.273243 0 200 255
0.455301 0.241145 0.238021 0 200 255
0.399706 0.343326 0.272789 0 200 255
0.482745 0.223481 0.240961 0 200 255
0.440839 0.220347 0.228716 0 200 255
0.483346 0.330437 0.262417 0 200 255
0.493902 0.358937 0.239145 0 200 255
0.508426 0.300145 0.238012 0 200 255
0.441476 0.348943 0.216225 0 200 255
0.446927 0.315676 0.279335 0 200 255
0.483696 0.248058 0.279215 0 200 255
0.488914 0.262868 0.235911 0 200 255
0.447805 0.329782 0.181750 0 200 255
0.501547 0.247539 0.254873 0 200 255
0.471694 0.402570 0.217103 0 200 255
0.459058 0.293681 0.237461 0 200 255
0.396007 0.209173 0.218587 0 200 255
0.509752 0.333311 0.268570 0 200 255
0.405463 0.225823 0.204564 0 200 255
0.362134 0.216986 0.216344 0 200 255
0.509567 0.294419 0.276335 0 200 255
0.506830 0.245606 0.277573 0 200 255
0.467220 0.366645 0.230021 0 200 255
0.460428 0.242823 0.269222 0 200 255
0.477596 0.291811 0.260452 0 200 255
0.463473 0.356228 0.263075 0 200 255
0.458149 0.388097 0.237149 0 200 255
0.453135 0.302953 0.258135 0 200 255
0.379739 0.373123 0.244313 0 200 255
0.472138 0.322291 0.280752 0 200 255
0.452258 0.258030 0.252126 0 200 255
0.487419 0.294155 0.279957 0 200 255
0.452952 0.283144 0.278002 0 200 255
0.436287 0.276297 0.263671 0 200 255
0.487014 0.315860 0.239558 0 200 255
0.468781 0.380901 0.211844 0 200 255
0.393558 0.337953 0.253538 0 200 255
0.422281 0.242917 0.230141 0 200 255
0.524562 0.287898 0.241167 0 200 255
0.431773 0.320886 0.264901 0 200 255
0.364629 0.232154 0.198090 0 200 255
0.443869 0.334446 0.201400 0 200 255
0.412808 0.230331 0.245728 0 200 255
0.447761 0.389578 0.202761 0 200 255
0.490069 0.240664 0.233739 0 200 255
0.517048 0.313032 0.269489 0 200 255
0.457706 0.342502 0.226155 0 200 255
0.445949 0.348384 0.177045 0 200 255
0.482400 0.228539 0.259546 0 200 255
0.496751 0.343017 0.256986 0 200 255
0.421892 0.221436 0.231038 0 200 255
0.433057 0.293836 0.254264 0 200 255
0.383533 0.350369 0.265599 0 200 255
0.414536 0.320219 0.248334 0 200 255
0.388441 0.226398 0.215246 0 200 255
0.517583 0.315120 0.244777 0 200 255
0.492542 0.333249 0.278277 0 200 255
0.450582 0.326356 0.245552 0 200 255
0.355964 0.234685 0.221585 0 200 255
0.475640 0.360394 0.249866 0 200 255
0.455289 0.394972 0.220062 0 200 255
0.423488 0.228572 0.212201 0 200 255
0.500380 0.279651 0.239746 0 200 255
0.520456 0.258191 0.249712 0 200 255
0.415507 0.338258 0.264968 0 200 255
0.460564 0.337332 0.206642 0 200 255
0.448849 0.233649 0.253162 0 200 255
0.390392 0.226014 0.236728 0 200 255
0.465398 0.258056 0.277817 0 200 255
0.456348 0.355071 0.238461 0 200 255
0.460327 0.402905 0.201733 0 200 255
0.378666 0.209350 0.216281 0 200 255
0.457756 0.341845 0.249651 0 200 255
0.439498 0.247959 0.235731 0 200 255
0.468731 0.313079 0.266455 0 200 255
0.474705 0.394337 0.235764 0 200 255
0.379451 0.353499 0.249006 0 200 255
0.514302 0.263363 0.275362 0 200 255
0.473283 0.241082 0.236265 0 200 255
0.487162 0.374385 0.240464 0 200 255
0.363725 0.367858 0.245569 0 200 255
0.423310 0.308625 0.257051 0 200 255
0.371668 0.380021 0.258345 0 200 255
0.475739 0.261566 0.246166 0 200 255
0.449492 0.319877 0.262526 0 200 255
0.367372 0.225726 0.229656 0 200 255
0.460182 0.338745 0.175587 0 200 255
0.474265 0.279817 0.240134 0 200 255
0.470945 0.341022 0.260822 0 200 255
0.385246 0.367807 0.262498 0 200 255
0.463200 0.327148 0.233037 0 200 255
0.432404 0.219697 0.243232 0 200 255
0.439230 0.394679 0.218181 0 200 255
0.448340 0.299633 0.280689 0 200 255
0.447614 0.232105 0.219251 0 200 255
0.482779 0.309451 0.281671 0 200 255
0.517855 0.237851 0.246567 0 200 255
0.509385 0.251662 0.240088 0 200 255
0.446020 0.262745 0.238124 0 200 255
0.443107 0.335953 0.226007 0 200 255
0.447653 0.304921 0.238724 0 200 255
0.511500 0.278833 0.273123 0 200 255
0.490829 0.365649 0.253198 0 200 255
0.479297 0.328849 0.247266 0 200 255
0.450136 0.368887 0.231711 0 200 255
0.437329 0.306155 0.263711 0 200 255
0.505517 0.229888 0.280085 0 200 255
0.409851 0.207084 0.226038 0 200 255
0.395880 0.213589 0.203601 0 200 255
0.453905 0.277481 0.241254 0 200 255
0.482290 0.345134 0.251093 0 200 255
0.480631 0.390527 0.210296 0 200 255
0.515153 0.252443 0.264474 0 200 255
0.410049 0.236759 0.215474 0 200 255
0.424239 0.330014 0.254953 0 200 255
0.463306 0.238294 0.251394 0 200 255
0.468393 0.381656 0.227699 0 200 255
0.498706 0.324474 0.262998 0 200 255
0.474323 0.285569 0.281903 0 200 255
0.485106 0.266701 0.281528 0 200 255
0.379101 0.233072 0.204093 0 200 255
0.464094 0.326512 0.258699 0 200 255
0.433691 0.233435 0.226929 0 200 255
0.439988 0.345893 0.190589 0 200 255
0.481102 0.361072 0.230899 0 200 255
0.470141 0.300540 0.244764 0 200 255
0.402077 0.222071 0.225810 0 200 255
0.463899 0.368381 0.254452 0 200 255
0.405390 0.348614 0.256286 0 200 255
0.400353 0.330596 0.265174 0 200 255
0.526596 0.274084 0.249851 0 200 255
0.474519 0.238371 0.268456 0 200 255
0.436336 0.221134 0.214676 0 200 255
0.440764 0.262702 0.260233 0 200 255
0.479629 0.314693 0.256718 0 200 255
0.463273 0.253310 0.240056 0 200 255
0.466727 0.256232 0.256359 0 200 255
0.442990 0.335943 0.253567 0 200 255
0.365403 0.217956 0.201264 0 200 255
0.495171 0.283610 0.273718 0 200 255
0.453860 0.351095 0.208924 0 200 255
0.441858 0.246643 0.249953 0 200 255
0.457742 0.336448 0.190411 0 200 255
0.496004 0.305932 0.244798 0 200 255
0.449073 0.248800 0.262673 0 200 255
0.462285 0.375170 0.241851 0 200 255
0.431128 0.299723 0.241367 0 200 255
0.420970 0.244510 0.244159 0 200 255
0.446374 0.381487 0.241565 0 200 255
0.522361 0.287844 0.272097 0 200 255
0.444768 0.231784 0.236934 0 200 255
0.358314 0.239875 0.208715 0 200 255
0.442341 0.402539 0.198375 0 200 255
0.403612 0.329925 0.246854 0 200 255
0.434065 0.310203 0.278770 0 200 255
0.396401 0.356703 0.265542 0 200 255
0.512218 0.320061 0.258494 0 200 255
0.458293 0.322547 0.275411 0 200 255
0.374302 0.224856 0.214059 0 200 255
0.407707 0.213536 0.211000 0 200 255
0.463976 0.389511 0.202329 0 200 255
0.495138 0.228604 0.237747 0 200 255
0.474020 0.405427 0.203928 0 200 255
0.445916 0.349743 0.229440 0 200 255
0.419589 0.215233 0.243717 0 200 255
0.492222 0.240740 0.247797 0 200 255
0.443533 0.389964 0.230082 0 200 255
0.444164 0.336231 0.170457 0 200 255
0.455035 0.357369 0.251873 0 200 255
0.381188 0.229588 0.227582 0 200 255
0.458489 0.270526 0.278503 0 200 255
0.440168 0.279553 0.276374 0 200 255
0.349416 0.224167 0.216736 0 200 255
0.444519 0.291280 0.237869 0 200 255
0.486300 0.343481 0.265167 0 200 255
0.481312 0.251339 0.239893 0 200 255
0.520302 0.301043 0.243613 0 200 255
0.358448 0.374427 0.255654 0 200 255
0.444545 0.295554 0.268827 0 200 255
0.451573 0.321132 0.232939 0 200 255
0.422170 0.326568 0.271739 0 200 255
0.448572 0.337371 0.213235 0 200 255
0.426517 0.298997 0.265090 0 200 255
0.460571 0.309085 0.239575 0 200 255
0.503017 0.258394 0.279225 0 200 255
0.484610 0.347913 0.238746 0 200 255
0.503039 0.315372 0.239647 0 200 255
0.440703 0.348203 0.203158 0 200 255
0.388675 0.215716 0.226741 0 200 255
0.401226 0.232650 0.240910 0 200 255
0.495890 0.251715 0.236190 0 200 255
0.485047 0.235811 0.276102 0 200 255
0.525869 0.285121 0.256095 0 200 255
0.513507 0.236637 0.269259 0 200 255
0.496429 0.302987 0.279041 0 200 255
0.474777 0.391461 0.222166 0 200 255
0.520135 0.300941 0.271158 0 200 255
0.488535 0.275359 0.236617 0 200 255
0.485009 0.323405 0.279482 0 200 255
0.501528 0.266896 0.235620 0 200 255
0.508870 0.307997 0.277439 0 200 255
0.497845 0.349699 0.246485 0 200 255
0.440468 0.267811 0.248030 0 200 255
0.467821 0.333388 0.248759 0 200 255
0.495503 0.292822 0.240809 0 200 255
0.362931 0.228058 0.210219 0 200 255
0.456710 0.382635 0.213817 0 200 255
0.421822 0.240449 0.215471 0 200 255
0.475745 0.374182 0.235822 0 200 255
0.469710 0.385315 0.242335 0 200 255
0.454822 0.349152 0.168637 0 200 255
0.482348 0.385570 0.240358 0 200 255
0.474679 0.352505 0.259780 0 200 255
0.465477 0.312089 0.278374 0 200 255
0.490536 0.324387 0.247823 0 200 255
0.457114 0.376172 0.224009 0 200 255
0.442938 0.299018 0.249682 0 200 255
0.513127 0.288726 0.237430 0 200 255
0.384648 0.209323 0.205313 0 200 255
0.354446 0.222768 0.199997 0 200 255
0.483714 0.305668 0.244955 0 200 255
0.487586 0.238959 0.262439 0 200 255
0.370669 0.214069 0.224236 0 200 255
0.367527 0.378295 0.240283 0 200 255
0.393014 0.347881 0.246958 0 200 255
0.476723 0.266359 0.235314 0 200 255
0.430577 0.215758 0.223569 0 200 255
0.399252 0.231930 0.216466 0 200 255
0.494587 0.245128 0.275537 0 200 255
0.506139 0.324080 0.276487 0 200 255
0.485325 0.279167 0.278596 0 200 255
0.480053 0.366609 0.258880 0 200 255
0.377328 0.365388 0.252849 0 200 255
0.457223 0.342578 0.237854 0 200 255
0.430971 0.286535 0.265641 0 200 255
0.455226 0.246601 0.250150 0 200 255
0.444829 0.331554 0.236857 0 200 255
0.471424 0.325676 0.267701 0 200 255
0.417481 0.220016 0.207137 0 200 255
0.402920 0.341453 0.245773 0 200 255
0.462651 0.307519 0.253350 0 200 255
0.408544 0.333294 0.272894 0 200 255
0.455960 0.349250 0.182777 0 200 255
0.520673 0.312171 0.258471 0 200 255
0.486092 0.372119 0.228082 0 200 255
0.394624 0.215436 0.238698 0 200 255
0.392356 0.343135 0.263876 0 200 255
0.455780 0.332300 0.166907 0 200 255
0.419453 0.319936 0.259325 0 200 255
0.512993 0.249584 0.251103 0 200 255
0.477042 0.258636 0.280258 0 200 255
0.495543 0.354301 0.258167 0 200 255
0.411131 0.241448 0.239335 0 200 255
0.357239 0.222641 0.224863 0 200 255
0.424593 0.315064 0.247508 0 200 255
0.423677 0.227133 0.245826 0 200 255
0.456519 0.378183 0.251091 0 200 255
0.523280 0.274308 0.239061 0 200 255
0.471025 0.356796 0.233997 0 200 255
0.470245 0.248157 0.275426 0 200 255
0.455303 0.253366 0.272801 0 200 255
0.445025 0.309935 0.254593 0 200 255
0.465072 0.279680 0.279297 0 200 255
0.458968 0.292512 0.281121 0 200 255
0.372772 0.361670 0.243022 0 200 255
0.407351 0.324307 0.255969 0 200 255
0.412574 0.218089 0.225691 0 200 255
0.469416 0.364988 0.241733 0 200 255
0.452450 0.350688 0.220046 0 200 255
0.472920 0.310882 0.239950 0 200 255
0.462763 0.398345 0.211812 0 200 255
0.460515 0.344792 0.261933 0 200 255
0.499052 0.336388 0.268110 0 200 255
0.502518 0.333498 0.256501 0 200 255
0.421054 0.210625 0.228485 0 200 255
0.414147 0.234754 0.225631 0 200 255
0.433176 0.321626 0.253000 0 200 255
0.388656 0.225632 0.204189 0 200 255
0.461822 0.330943 0.217899 0 200 255
0.487892 0.335944 0.253953 0 200 255
0.439455 0.395690 0.206696 0 200 255
0.431676 0.247018 0.243992 0 200 255
0.464678 0.388470 0.219141 0 200 255
0.446500 0.306801 0.269646 0 200 255
0.385579 0.345189 0.255448 0 200 255
0.477109 0.236940 0.245636 0 200 255
0.489841 0.323357 0.269277 0 200 255
0.491590 0.257969 0.280791 0 200 255
0.442254 0.339148 0.182198 0 200 255
0.405712 0.222316 0.243717 0 200 255
0.465055 0.401075 0.192060 0 200 255
0.373501 0.212186 0.207143 0 200 255
0.440551 0.228380 0.248543 0 200 255
0.454070 0.396010 0.230933 0 200 255
0.444683 0.346226 0.166211 0 200 255
0.431600 0.283283 0.253231 0 200 255
0.442081 0.270376 0.271289 0 200 255
0.477600 0.224759 0.250834 0 200 255
0.443231 0.385929 0.212394 0 200 255
0.387472 0.365212 0.249291 0 200 255
0.449907 0.328232 0.207526 0 200 255
0.458503 0.313352 0.263650 0 200 255
0.447100 0.334503 0.191195 0 200 255
0.434407 0.226051 0.234884 0 200 255
0.400607 0.207198 0.231170 0 200 255
0.447866 0.345178 0.251971 0 200 255
0.494789 0.235429 0.280112 0 200 255
0.420259 0.315188 0.268694 0 200 255
0.354559 0.235281 0.200044 0 200 255
0.377287 0.356456 0.258921 0 200 255
0.475574 0.373034 0.225401 0 200 255
0.383159 0.217533 0.211632 0 200 255
0.471338 0.235896 0.258840 0 200 255
0.446773 0.401712 0.219604 0 200 255
0.408012 0.345422 0.265850 0 200 255
0.503611 0.243114 0.238735 0 200 255
0.430494 0.243656 0.223365 0 200 255
0.396609 0.220045 0.214680 0 200 255
0.521206 0.261716 0.262072 0 200 255
0.383179 0.235351 0.213307 0 200 255
0.466426 0.397129 0.224490 0 200 255
0.460793 0.327183 0.244265 0 200 255
0.445277 0.289985 0.278390 0 200 255
0.475892 0.291079 0.243968 0 200 255
0.467653 0.290800 0.275962 0 200 255
0.487183 0.222645 0.267992 0 200 255
0.484221 0.355680 0.255729 0 200 255
0.407035 0.223448 0.214377 0 200 255
0.457777 0.360588 0.229986 0 200 255
0.454319 0.308808 0.280906 0 200 255
0.456278 0.386931 0.226824 0 200 255
0.485126 0.375254 0.251167 0 200 255
0.468993 0.347493 0.268436 0 200 255
0.437090 0.231224 0.215702 0 200 255
0.452530 0.250625 0.240442 0 200 255
0.478621 0.298822 0.281921 0 200 255
0.458050 0.342180 0.215197 0 200 255
0.381743 0.208379 0.226129 0 200 255
0.472427 0.322610 0.254508 0 200 255
0.445349 0.379721 0.231669 0 200 255
0.441970 0.239665 0.242574 0 200 255
0.503552 0.285927 0.278822 0 200 255
0.455768 0.241977 0.259549 0 200 255
0.457269 0.316633 0.248098 0 200 255
0.418136 0.329387 0.246431 0 200 255
0.513286 0.322962 0.268007 0 200 255
0.441527 0.296695 0.259364 0 200 255
0.475173 0.386798 0.202806 0 200 255
0.427858 0.216876 0.211566 0 200 255
0.428563 0.309499 0.267098 0 200 255
0.478921 0.329805 0.274916 0 200 255
0.461212 0.281870 0.236189 0 200 255
0.376360 0.372178 0.262343 0 200 255
0.500094 0.251466 0.245910 0 200 255
0.451579 0.398798 0.199648 0 200 255
0.444400 0.241435 0.219609 0 200 255
0.454812 0.391753 0.210541 0 200 255
0.468756 0.248085 0.247294 0 200 255
0.392234 0.226299 0.224335 0 200 255
0.497340 0.243191 0.262618 0 200 255
0.434927 0.305669 0.254209 0 200 255
0.522111 0.243505 0.253488 0 200 255
0.370090 0.238687 0.210493 0 200 255
0.453605 0.401643 0.210387 0 200 255
0.465250 0.239938 0.241710 0 200 255
0.514969 0.270632 0.245476 0 200 255
0.347906 0.234995 0.212981 0 200 255
0.356275 0.219286 0.208879 0 200 255
0.478025 0.355337 0.240534 0 200 255
0.488763 0.285879 0.240382 0 200 255
0.474437 0.309366 0.275956 0 200 255
0.455206 0.264546 0.235722 0 200 255
0.365424 0.232795 0.221066 0 200 255
0.411593 0.329444 0.264424 0 200 255
0.454838 0.341473 0.199079 0 200 255
0.447149 0.329057 0.258887 0 200 255
0.414758 0.233144 0.207891 0 200 255
0.434487 0.238725 0.234905 0 200 255
0.472713 0.342317 0.248315 0 200 255
0.506909 0.247054 0.262771 0 200 255
0.425805 0.303118 0.249649 0 200 255
0.488347 0.318421 0.257900 0 200 255
0.373863 0.379900 0.247518 0 200 255
0.419007 0.218865 0.218716 0 200 255
0.457303 0.269480 0.245115 0 200 255
0.465217 0.390034 0.230861 0 200 255
0.388912 0.359651 0.259305 0 200 255
0.368479 0.371561 0.255461 0 200 255
0.382547 0.219926 0.220884 0 200 255
0.481917 0.266525 0.272621 0 200 255
0.455926 0.235709 0.246085 0 200 255
0.448210 0.388360 0.221573 0 200 255
0.362947 0.382900 0.256185 0 200 255
0.452402 0.364054 0.239475 0 200 255
0.508254 0.270581 0.276344 0 200 255
0.448347 0.226302 0.226624 0 200 255
0.463565 0.337827 0.255880 0 200 255
0.491473 0.312721 0.276204 0 200 255
0.457055 0.331137 0.180063 0 200 255
0.374582 0.226097 0.199308 0 200 255
0.452769 0.286797 0.236716 0 200 255
0.496116 0.333785 0.247396 0 200 255
0.429453 0.216947 0.234820 0 200 255
0.470559 0.310681 0.257119 0 200 255
0.447151 0.350263 0.186554 0 200 255
0.490858 0.300462 0.238144 0 200 255
0.466902 0.359439 0.252887 0 200 255
0.447916 0.336902 0.245404 0 200 255
0.450544 0.341260 0.185845 0 200 255
0.478312 0.396009 0.203178 0 200 255
0.462511 0.374621 0.232599 0 200 255
0.412006 0.342125 0.256532 0 200 255
0.472026 0.256126 0.238883 0 200 255
0.512589 0.329267 0.257528 0 200 255
0.450740 0.347357 0.242431 0 200 255
0.525681 0.280091 0.268281 0 200 255
0.358175 0.376581 0.245274 0 200 255
0.490378 0.366520 0.234031 0 200 255
0.469022 0.291379 0.237826 0 200 255
0.473752 0.369571 0.252519 0 200 255
0.480192 0.339589 0.259529 0 200 255
0.516478 0.239268 0.237356 0 200 255
0.476075 0.381787 0.221620 0 200 255
0.470930 0.374643 0.244860 0 200 255
0.466115 0.258730 0.246882 0 200 255
0.466031 0.349816 0.256617 0 200 255
0.368996 0.361610 0.252469 0 200 255
0.375678 0.221890 0.229862 0 200 255
0.440905 0.341175 0.209007 0 200 255
0.466614 0.333720 0.264181 0 200 255
0.411695 0.207063 0.217097 0 200 255
0.448074 0.340530 0.232125 0 200 255
0.422724 0.331133 0.263869 0 200 255
0.518463 0.262155 0.241351 0 200 255
0.512191 0.327743 0.247426 0 200 255
0.513699 0.306955 0.241613 0 200 255
0.387748 0.206316 0.216139 0 200 255
0.452201 0.314115 0.272121 0 200 255
0.526443 0.290702 0.264249 0 200 255
0.494607 0.314861 0.245491 0 200 255
0.377981 0.374883 0.253844 0 200 255
0.435443 0.296202 0.266045 0 200 255
0.438481 0.405515 0.206527 0 200 255
0.439913 0.302800 0.279856 0 200 255
0.430252 0.289130 0.246500 0 200 255
0.446668 0.327758 0.227204 0 200 255
0.524698 0.264856 0.254039 0 200 255
0.415552 0.212379 0.236200 0 200 255
0.475184 0.267404 0.280976 0 200 255
0.413557 0.220871 0.239571 0 200 255
0.463079 0.246021 0.256242 0 200 255
0.479269 0.220169 0.258647 0 200 255
0.496218 0.323737 0.280492 0 200 255
0.429605 0.235384 0.213033 0 200 255
0.441397 0.340220 0.218304 0 200 255
0.449513 0.320130 0.253585 0 200 255
0.398590 0.227097 0.233365 0 200 255
0.452202 0.336293 0.253877 0 200 255
0.396911 0.227974 0.206602 0 200 255
0.518687 0.278599 0.246875 0 200 255
0.514287 0.286882 0.276062 0 200 255
0.393609 0.234244 0.235919 0 200 255
0.437253 0.274557 0.252796 0 200 255
0.483139 0.231926 0.238307 0 200 255
0.501156 0.340831 0.249626 0 200 255
0.454889 0.379451 0.231906 0 200 255
0.460264 0.335943 0.242832 0 200 255
0.431912 0.226969 0.249687 0 200 255
0.404895 0.214525 0.222210 0 200 255
0.478166 0.386554 0.232658 0 200 255
0.523711 0.302543 0.251682 0 200 255
0.480766 0.238462 0.254371 0 200 255
0.468739 0.407257 0.197155 0 200 255
0.458691 0.340579 0.166779 0 200 255
0.440409 0.225820 0.221756 0 200 255
0.448873 0.343299 0.223113 0 200 255
0.508986 0.255402 0.273557 0 200 255
0.429088 0.301978 0.273379 0 200 255
0.474730 0.399778 0.225245 0 200 255
0.439166 0.314333 0.259365 0 200 255
0.451628 0.374513 0.240598 0 200 255
0.404375 0.216053 0.231700 0 200 255
0.499027 0.294700 0.279889 0 200 255
0.506439 0.274884 0.235658 0 200 255
0.372641 0.232330 0.227491 0 200 255
0.401140 0.330411 0.255551 0 200 255
0.477679 0.251145 0.259894 0 200 255
0.440021 0.313039 0.268308 0 200 255
0.447862 0.351826 0.199805 0 200 255
0.448718 0.406693 0.202577 0 200 255
0.478177 0.396928 0.215637 0 200 255
0.494532 0.357125 0.250021 0 200 255
0.384460 0.219688 0.236897 0 200 255
0.454421 0.305200 0.266402 0 200 255
0.448864 0.267533 0.245090 0 200 255
0.490140 0.345745 0.247489 0 200 255
0.490813 0.365919 0.243228 0 200 255
0.455490 0.365115 0.255696 0 200 255
0.397123 0.345741 0.254712 0 200 255
0.491825 0.269603 0.276418 0 200 255
0.479864 0.376714 0.244482 0 200 255
0.476866 0.242637 0.275875 0 200 255
0.371592 0.230324 0.207312 0 200 255
0.439131 0.305356 0.244073 0 200 255
0.449640 0.275188 0.278005 0 200 255
0.522265 0.293978 0.248139 0 200 255
0.481470 0.367638 0.249272 0 200 255
0.372465 0.369918 0.240671 0 200 255
0.479120 0.320519 0.245226 0 200 255
0.459893 0.253598 0.251894 0 200 255
0.464218 0.351607 0.234536 0 200 255
0.486018 0.326441 0.255319 0 200 255
0.453992 0.301088 0.243031 0 200 255
0.449331 0.271836 0.236720 0 200 255
0.400795 0.351378 0.247652 0 200 255
0.398943 0.348581 0.264672 0 200 255
0.423765 0.236620 0.246226 0 200 255
0.451535 0.331435 0.199119 0 200 255
0.429767 0.314456 0.256151 0 200 255
0.361731 0.239314 0.216974 0 200 255
0.461100 0.334600 0.229440 0 200 255
0.471988 0.388533 0.214652 0 200 255
0.450042 0.309184 0.247737 0 200 255
0.479056 0.227479 0.267313 0 200 255
0.426193 0.224577 0.238099 0 200 255
0.483233 0.379133 0.233593 0 200 255
0.387426 0.357667 0.267631 0 200 255
0.446171 0.329409 0.215077 0 200 255
0.491322 0.285458 0.281069 0 200 255
0.476495 0.277527 0.280332 0 200 255
0.457366 0.384337 0.244699 0 200 255
0.432373 0.224014 0.224053 0 200 255
0.458647 0.349560 0.244440 0 200 255
0.488716 0.243195 0.255220 0 200 255
0.400079 0.339785 0.264420 0 200 255
0.439816 0.222586 0.240434 0 200 255
0.453775 0.348049 0.231977 0 200 255
0.379905 0.229268 0.219261 0 200 255
0.437591 0.289235 0.242374 0 200 255
0.471120 0.282006 0.273943 0 200 255
0.418417 0.336026 0.253687 0 200 255
0.402040 0.219151 0.208339 0 200 255
0.381622 0.365050 0.243031 0 200 255
0.450503 0.329638 0.172850 0 200 255
0.369900 0.220896 0.207682 0 200 255
0.462373 0.323590 0.266346 0 200 255
0.479115 0.301841 0.238978 0 200 255
0.366281 0.221958 0.221621 0 200 255
0.479444 0.336706 0.250097 0 200 255
0.448083 0.244296 0.235246 0 200 255
0.449822 0.388561 0.237136 0 200 255
0.470387 0.271147 0.239537 0 200 255
0.482855 0.348170 0.259069 0 200 255
0.469050 0.379808 0.235792 0 200 255
0.504130 0.307746 0.244818 0 200 255
0.521162 0.274168 0.271977 0 200 255
0.476791 0.346690 0.265335 0 200 255
0.493077 0.351739 0.265928 0 200 255
0.516161 0.243916 0.272256 0 200 255
0.444966 0.282302 0.237549 0 200 255
0.378214 0.363302 0.263523 0 200 255
0.424960 0.322336 0.251894 0 200 255
0.441636 0.237842 0.250651 0 200 255
0.447900 0.229988 0.245070 0 200 255
0.451481 0.325931 0.267803 0 200 255
0.483611 0.231299 0.246524 0 200 255
0.472826 0.312308 0.249368 0 200 255
0.439380 0.401776 0.214010 0 200 255
0.458444 0.370328 0.248517 0 200 255
0.457868 0.350717 0.256784 0 200 255
0.466521 0.404202 0.207456 0 200 255
0.354551 0.229218 0.205580 0 200 255
0.370513 0.212419 0.216199 0 200 255
0.511336 0.259736 0.238088 0 200 255
0.458686 0.368924 0.227476 0 200 255
0.505278 0.277935 0.278467 0 200 255
0.417920 0.314099 0.253804 0 200 255
0.432810 0.233756 0.241177 0 200 255
0.447115 0.346585 0.207950 0 200 255
0.388550 0.215321 0.217806 0 200 255
0.498468 0.237421 0.235945 0 200 255
0.478911 0.352941 0.249238 0 200 255
0.382480 0.226970 0.209700 0 200 255
0.392184 0.206695 0.206941 0 200 255
0.458627 0.261754 0.275211 0 200 255
0.456787 0.330835 0.210983 0 200 255
0.476704 0.382052 0.213230 0 200 255
0.462493 0.297826 0.244669 0 200 255
0.448418 0.335256 0.162444 0 200 255
0.484211 0.249428 0.252638 0 200 255
0.388332 0.215541 0.201376 0 200 255
0.397715 0.222636 0.240737 0 200 255
0.518410 0.306114 0.265175 0 200 255
0.440822 0.341879 0.198105 0 200 255
0.447699 0.250546 0.254889 0 200 255
0.487287 0.356990 0.234149 0 200 255
0.499656 0.343729 0.264769 0 200 255
0.463372 0.389338 0.211214 0 200 255
0.459034 0.325631 0.225596 0 200 255
0.452834 0.329657 0.188248 0 200 255
0.465623 0.270898 0.273989 0 200 255
0.491134 0.360897 0.259654 0 200 255
0.490683 0.348601 0.254958 0 200 255
0.505165 0.289079 0.236645 0 200 255
0.396612 0.216216 0.227668 0 200 255
0.395858 0.352935 0.257987 0 200 255
0.494466 0.268547 0.238995 0 200 255
0.366635 0.224280 0.196533 0 200 255
0.384476 0.208981 0.233938 0 200 255
0.403670 0.232028 0.209234 0 200 255
0.475803 0.246061 0.242198 0 200 255
0.512820 0.233206 0.276404 0 200 255
0.462586 0.321475 0.252729 0 200 255
0.387058 0.355138 0.247363 0 200 255
0.409365 0.218463 0.205000 0 200 255
0.441330 0.346323 0.223714 0 200 255
0.516014 0.248601 0.243164 0 200 255
0.508447 0.315905 0.277267 0 200 255
0.482075 0.320523 0.262258 0 200 255
0.460767 0.331224 0.252531 0 200 255
0.444857 0.249087 0.241570 0 200 255
0.436350 0.285741 0.273290 0 200 255
0.496069 0.242979 0.241053 0 200 255
0.407113 0.335932 0.264503 0 200 255
0.526709 0.281288 0.246648 0 200 255
0.415962 0.331549 0.270907 0 200 255
0.464441 0.393736 0.194828 0 200 255
0.463782 0.237881 0.259767 0 200 255
0.414625 0.240946 0.230455 0 200 255
0.482416 0.235321 0.267100 0 200 255
0.448954 0.395964 0.224585 0 200 255
0.510889 0.314947 0.240699 0 200 255
0.481763 0.388388 0.220391 0 200 255
0.415028 0.210810 0.209351 0 200 255
0.474619 0.346254 0.255073 0 200 255
0.491214 0.329321 0.260411 0 200 255
0.451183 0.384554 0.208627 0 200 255
0.435580 0.297309 0.247672 0 200 255
0.441134 0.342783 0.174522 0 200 255
0.478573 0.262219 0.253387 0 200 255
0.506167 0.246611 0.248683 0 200 255
0.397771 0.335665 0.246460 0 200 255
0.396091 0.233414 0.226382 0 200 255
0.467372 0.325970 0.275832 0 200 255
0.349024 0.236801 0.205471 0 200 255
0.520778 0.264589 0.269279 0 200 255
0.443772 0.262976 0.267386 0 200 255
0.416090 0.221320 0.247015 0 200 255
0.472439 0.294150 0.281955 0 200 255
0.500370 0.237300 0.275077 0 200 255
0.416465 0.237202 0.243709 0 200 255
0.483707 0.316986 0.250552 0 200 255
0.470543 0.241331 0.253085 0 200 255
0.449910 0.240870 0.250604 0 200 255
0.507942 0.334187 0.247001 0 200 255
0.382672 0.359806 0.252790 0 200 255
0.428952 0.325395 0.258966 0 200 255
0.501878 0.330315 0.278100 0 200 255
0.367797 0.384375 0.249399 0 200 255
0.456457 0.343992 0.207379 0 200 255
0.455719 0.345946 0.175595 0 200 255
0.466053 0.309551 0.246734 0 200 255
0.450161 0.293712 0.242531 0 200 255
0.437962 0.218347 0.221673 0 200 255
0.510513 0.242336 0.242044 0 200 255
0.438053 0.237364 0.221132 0 200 255
0.479195 0.359051 0.260457 0 200 255
0.456769 0.369793 0.235463 0 200 255
0.447702 0.306868 0.261884 0 200 255
0.497849 0.286265 0.236790 0 200 255
0.391590 0.350747 0.266027 0 200 255
0.496790 0.277910 0.280322 0 200 255
0.430659 0.301322 0.258871 0 200 255
0.430738 0.308003 0.246394 0 200 255
0.449775 0.342697 0.193455 0 200 255
0.492330 0.348555 0.240719 0 200 255
0.466685 0.340675 0.242032 0 200 255
0.365921 0.214617 0.210153 0 200 255
0.444467 0.257996 0.243889 0 200 255
0.455929 0.300288 0.281041 0 200 255
0.516367 0.310889 0.250997 0 200 255
0.467450 0.239885 0.266108 0 200 255
0.431250 0.245427 0.236413 0 200 255
0.424320 0.321288 0.266703 0 200 255
0.470984 0.260704 0.273421 0 200 255
0.458989 0.243443 0.244237 0 200 255
0.474315 0.364211 0.232166 0 200 255
0.369396 0.217701 0.230765 0 200 255
0.448049 0.373768 0.226306 0 200 255
0.459482 0.331957 0.261242 0 200 255
0.458283 0.343602 0.188044 0 200 255
0.441697 0.268851 0.239169 0 200 255
0.453368 0.294344 0.276396 0 200 255
0.476563 0.384172 0.247021 0 200 255
0.479799 0.331903 0.255916 0 200 255
0.411898 0.216491 0.217920 0 200 255
0.480537 0.245030 0.235855 0 200 255
0.448760 0.340335 0.203355 0 200 255
0.494405 0.329314 0.268903 0 200 255
0.498341 0.298974 0.237562 0 200 255
0.503799 0.319721 0.245725 0 200 255
0.445334 0.257685 0.255006 0 200 255
0.440540 0.301881 0.269237 0 200 255
0.464405 0.362934 0.259577 0 200 255
0.408518 0.234344 0.240785 0 200 255
0.509806 0.281548 0.236128 0 200 255
0.470450 0.388765 0.197360 0 200 255
0.477869 0.273300 0.239591 0 200 255
0.456333 0.257167 0.235876 0 200 255
0.441701 0.296090 0.242831 0 200 255
0.425645 0.221363 0.221037 0 200 255
0.403401 0.210331 0.216225 0 200 255
0.373095 0.218045 0.198657 0 200 255
0.475284 0.401145 0.210209 0 200 255
0.458054 0.323176 0.236689 0 200 255
0.489236 0.246803 0.244674 0 200 255
0.425084 0.219958 0.247205 0 200 255
0.496637 0.231714 0.231159 0 200 255
0.382940 0.220522 0.229192 0 200 255
0.435630 0.242446 0.248502 0 200 255
0.408349 0.345375 0.248946 0 200 255
0.407619 0.237395 0.223323 0 200 255
0.455705 0.304631 0.251391 0 200 255
0.460303 0.381019 0.237491 0 200 255
0.388440 0.351923 0.256589 0 200 255
0.375300 0.219244 0.219561 0 200 255
0.399617 0.210090 0.208942 0 200 255
0.452324 0.234586 0.239723 0 200 255
0.466817 0.381059 0.220498 0 200 255
0.396566 0.334642 0.259531 0 200 255
0.383258 0.370044 0.255679 0 200 255
0.365815 0.238245 0.204483 0 200 255
0.446073 0.347959 0.236603 0 200 255
0.405658 0.325490 0.266319 0 200 255
0.487135 0.301528 0.279961 0 200 255
0.476980 0.314010 0.281552 0 200 255
0.514144 0.254551 0.257482 0 200 255
0.412115 0.319469 0.258850 0 200 255
0.499822 0.274954 0.273967 0 200 255
0.453012 0.319600 0.280604 0 200 255
0.453717 0.383557 0.220807 0 200 255
0.481917 0.262430 0.238714 0 200 255
0.437163 0.272613 0.243558 0 200 255
0.445458 0.255050 0.264019 0 200 255
0.356645 0.225242 0.216044 0 200 255
0.401525 0.335135 0.271801 0 200 255
0.467987 0.395234 0.215904 0 200 255
0.416395 0.321018 0.272100 0 200 255
0.519187 0.246530 0.266026 0 200 255
0.424472 0.212921 0.220693 0 200 255
0.450868 0.346564 0.214220 0 200 255
0.479912 0.392182 0.228353 0 200 255
0.380601 0.349918 0.257885 0 200 255
0.461493 0.304753 0.279173 0 200 255
0.472028 0.257314 0.251481 0 200 255
0.450293 0.379255 0.214383 0 200 255
0.506640 0.254209 0.247497 0 200 255
0.394304 0.220273 0.205988 0 200 255
0.404770 0.238899 0.236540 0 200 255
0.454236 0.359628 0.244916 0 200 255
0.349611 0.230999 0.219151 0 200 255
0.429748 0.239915 0.229555 0 200 255
0.463915 0.298670 0.275302 0 200 255
0.371104 0.234236 0.201238 0 200 255
0.428570 0.224139 0.230341 0 200 255
0.349201 0.223640 0.209522 0 200 255
0.407623 0.209725 0.233024 0 200 255
0.357424 0.228138 0.196171 0 200 255
0.525548 0.273967 0.257666 0 200 255
0.406717 0.340414 0.270903 0 200 255
0.481957 0.289438 0.280391 0 200 255
0.485115 0.239400 0.248674 0 200 255
0.504140 0.335191 0.273098 0 200 255
0.517475 0.293322 0.275320 0 200 255
0.484745 0.224764 0.249784 0 200 255
0.411245 0.225742 0.208881 0 200 255
0.432411 0.227084 0.212101 0 200 255
0.460753 0.396439 0.204894 0 200 255
0.476993 0.347526 0.244886 0 200 255
0.409990 0.332980 0.245469 0 200 255
0.350769 0.228922 0.199282 0 200 255
0.458172 0.250675 0.244912 0 200 255
0.479583 0.255874 0.234578 0 200 255
0.487705 0.336058 0.261341 0 200 255
0.522556 0.286837 0.248929 0 200 255
0.462100 0.383556 0.230839 0 200 255
0.447031 0.353059 0.214258 0 200 255
0.450172 0.339581 0.239131 0 200 255
0.362639 0.368182 0.252662 0 200 255
0.473515 0.402183 0.195411 0 200 255
0.394778 0.339120 0.269696 0 200 255
0.458219 0.359111 0.259125 0 200 255
0.453576 0.333057 0.247570 0 200 255
0.469525 0.374377 0.231118 0 200 255
0.383992 0.347220 0.248761 0 200 255
0.475046 0.295973 0.238572 0 200 255
0.441239 0.346753 0.183604 0 200 255
0.496562 0.258530 0.238210 0 200 255
0.445407 0.395332 0.198783 0 200 255
0.444002 0.308629 0.279659 0 200 255
0.461788 0.286562 0.278417 0 200 255
0.486446 0.339506 0.247967 0 200 255
0.450568 0.376592 0.247537 0 200 255
0.515352 0.323225 0.252954 0 200 255
0.476400 0.305572 0.281774 0 200 255
0.486766 0.243367 0.274848 0 200 255
0.464206 0.319304 0.277650 0 200 255
0.415502 0.209756 0.222659 0 200 255
0.441309 0.341962 0.230520 0 200 255
0.477520 0.237525 0.261910 0 200 255
0.465550 0.372699 0.249080 0 200 255
0.516641 0.317487 0.263385 0 200 255
0.358032 0.380549 0.251509 0 200 255
0.393561 0.346750 0.272174 0 200 255
0.489160 0.226668 0.234534 0 200 255
0.460357 0.263676 0.242538 0 200 255
0.500883 0.308451 0.280311 0 200 255
0.480945 0.257257 0.244176 0 200 255
0.458300 0.277766 0.279607 0 200 255
0.457901 0.333998 0.200679 0 200 255
0.423946 0.244292 0.236835 0 200 255
0.454099 0.401650 0.218212 0 200 255
0.460678 0.336440 0.184024 0 200 255
0.472974 0.318424 0.264791 0 200 255
0.455800 0.348178 0.201777 0 200 255
0.508063 0.336101 0.259936 0 200 255
0.442836 0.310484 0.247911 0 200 255
0.437492 0.268886 0.260045 0 200 255
0.464237 0.358085 0.231891 0 200 255
0.450281 0.321193 0.240843 0 200 255
0.392651 0.219623 0.222305 0 200 255
0.467214 0.370200 0.237630 0 200 255
0.476434 0.389263 0.242237 0 200 255
0.441398 0.389278 0.222780 0 200 255
0.450631 0.305485 0.276006 0 200 255
0.376768 0.221997 0.204505 0 200 255
0.469186 0.328780 0.254382 0 200 255
0.379884 0.235730 0.222523 0 200 255
0.512118 0.320766 0.247301 0 200 255
0.443044 0.238957 0.235736 0 200 255
0.427037 0.242816 0.247072 0 200 255
0.424598 0.305356 0.263082 0 200 255
0.459817 0.337874 0.221438 0 200 255
0.503535 0.239522 0.231713 0 200 255
0.437062 0.279443 0.270183 0 200 255
0.402739 0.217501 0.239723 0 200 255
0.465345 0.315710 0.261019 0 200 255
0.386738 0.226801 0.230627 0 200 255
0.362735 0.373137 0.241214 0 200 255
0.471266 0.254513 0.278666 0 200 255
0.385501 0.226026 0.222206 0 200 255
0.422338 0.214828 0.237396 0 200 255
0.453635 0.326896 0.257962 0 200 255
0.407518 0.324580 0.249082 0 200 255
0.489681 0.226785 0.241545 0 200 255
0.469635 0.386704 0.208225 0 200 255
0.480365 0.372784 0.255856 0 200 255
0.489168 0.307106 0.238732 0 200 255
0.372225 0.228959 0.219176 0 200 255
0.484597 0.297650 0.244338 0 200 255
0.455373 0.237337 0.252814 0 200 255
0.474812 0.380592 0.241426 0 200 255
0.514174 0.257554 0.247013 0 200 255
0.514815 0.318245 0.273356 0 200 255
0.515864 0.258911 0.266648 0 200 255
0.481686 0.376475 0.225140 0 200 255
0.498049 0.348922 0.253758 0 200 255
0.444499 0.224159 0.233073 0 200 255
0.399838 0.224526 0.218728 0 200 255
0.396552 0.220295 0.234283 0 200 255
0.455664 0.257661 0.246207 0 200 255
0.484676 0.350077 0.265946 0 200 255
0.500723 0.248584 0.276820 0 200 255
0.438940 0.233032 0.233588 0 200 255
0.507096 0.325841 0.267778 0 200 255
0.378165 0.213094 0.202047 0 200 255
0.389031 0.215251 0.234451 0 200 255
0.488230 0.238440 0.239923 0 200 255
0.365262 0.222389 0.213212 0 200 255
0.447063 0.315187 0.266840 0 200 255
0.442132 0.396133 0.224175 0 200 255
0.381161 0.356939 0.264501 0 200 255
0.516034 0.310149 0.275573 0 200 255
0.507511 0.236073 0.273262 0 200 255
0.417659 0.313863 0.261807 0 200 255
0.487425 0.269146 0.239141 0 200 255
0.421653 0.215127 0.209334 0 200 255
0.452169 0.245001 0.244226 0 200 255
0.445798 0.383473 0.226029 0 200 255
0.510057 0.301351 0.276757 0 200 255
0.467147 0.318484 0.270229 0 200 255
0.430931 0.318741 0.247290 0 200 255
0.490102 0.248762 0.238115 0 200 255
0.469849 0.323632 0.260803 0 200 255
0.351948 0.229155 0.212314 0 200 255
0.489907 0.256573 0.238158 0 200 255
0.484287 0.361759 0.252786 0 200 255
0.447657 0.301978 0.245195 0 200 255
0.374255 0.367860 0.246846 0 200 255
0.515105 0.243560 0.248929 0 200 255
0.492334 0.320001 0.239592 0 200 255
0.494596 0.252467 0.278315 0 200 255
0.488815 0.274216 0.281550 0 200 255
0.445793 0.401190 0.212028 0 200 255
0.479827 0.368501 0.227995 0 200 255
0.422540 0.221923 0.212502 0 200 255
0.460311 0.382047 0.223349 0 200 255
0.421135 0.237121 0.209673 0 200 255
0.520956 0.279139 0.263604 0 200 255
0.438092 0.248984 0.243723 0 200 255
0.520004 0.308194 0.243564 0 200 255
0.448348 0.304250 0.253309 0 200 255
0.445803 0.328787 0.249558 0 200 255
0.373798 0.357080 0.248937 0 200 255
0.445338 0.341242 0.161801 0 200 255
0.433460 0.277737 0.257286 0 200 255
0.460031 0.336761 0.236150 0 200 255
0.519243 0.237832 0.255536 0 200 255
0.411026 0.325827 0.270685 0 200 255
0.472457 0.285592 0.237314 0 200 255
0.444968 0.333448 0.176950 0 200 255
0.508654 0.243388 0.234378 0 200 255
0.385523 0.344968 0.262111 0 200 255
0.403862 0.205574 0.223531 0 200 255
0.521519 0.280693 0.238344 0 200 255
0.363726 0.222980 0.205981 0 200 255
0.457841 0.362919 0.249434 0 200 255
0.403802 0.231954 0.223498 0 200 255
0.382159 0.225056 0.202102 0 200 255
0.510212 0.247804 0.268492 0 200 255
0.450845 0.312806 0.256010 0 200 255
0.471704 0.358562 0.257385 0 200 255
0.452073 0.395712 0.205503 0 200 255
0.430775 0.226776 0.242365 0 200 255
0.473091 0.255596 0.258104 0 200 255
0.414594 0.239063 0.219713 0 200 255
0.446043 0.350661 0.221734 0 200 255
0.456257 0.388597 0.217340 0 200 255
0.452202 0.346539 0.163147 0 200 255
0.479263 0.335173 0.264586 0 200 255
0.355101 0.236067 0.215172 0 200 255
0.442106 0.337600 0.236678 0 200 255
0.470536 0.241935 0.245648 0 200 255
0.433330 0.314998 0.267444 0 200 255
0.441763 0.339720 0.189089 0 200 255
0.417160 0.325915 0.264173 0 200 255
0.472341 0.358284 0.242106 0 200 255
0.459957 0.272791 0.235354 0 200 255
0.489337 0.308849 0.281385 0 200 255
0.363871 0.217451 0.225782 0 200 255
0.442346 0.235307 0.216581 0 200 255
0.456240 0.377515 0.244321 0 200 255
0.366521 0.377734 0.254216 0 200 255
0.442177 0.339854 0.246690 0 200 255
0.470988 0.303764 0.275823 0 200 255
0.419273 0.226480 0.207607 0 200 255
0.461408 0.395957 0.217876 0 200 255
0.453135 0.335657 0.183595 0 200 255
0.463492 0.338312 0.248370 0 200 255
0.438473 0.226456 0.228320 0 200 255
0.365202 0.367730 0.259658 0 200 255
0.457999 0.371157 0.255134 0 200 255
0.435740 0.239657 0.226847 0 200 255
0.495642 0.248981 0.252430 0 200 255
0.464578 0.342539 0.266549 0 200 255
0.453529 0.351893 0.188251 0 200 255
0.463265 0.303154 0.238964 0 200 255
0.483061 0.287659 0.237721 0 200 255
0.427521 0.294943 0.260059 0 200 255
0.485278 0.362316 0.262179 0 200 255
0.493227 0.278627 0.239772 0 200 255
0.460566 0.285241 0.241743 0 200 255
0.432475 0.302008 0.265772 0 200 255
0.488761 0.352798 0.260995 0 200 255
0.485594 0.368909 0.255893 0 200 255
0.525438 0.292181 0.256377 0 200 255
0.450187 0.251884 0.268291 0 200 255
0.480987 0.244630 0.248264 0 200 255
0.430644 0.291851 0.270147 0 200 255
