ply
format ascii 1.0
element vertex 1024
property float x
property float y
property float z
property uchar red
property uchar green
property uchar blue
end_header
0.459780 0.261358 0.168773 0 200 255
0.330824 0.384469 0.146360 0 200 255
0.327601 0.236838 0.120505 0 200 255
0.457152 0.400619 0.101015 0 200 255
0.485348 0.352714 0.180361 0 200 255
0.395451 0.327822 0.182523 0 200 255
0.403401 0.224174 0.130364 0 200 255
0.429973 0.342673 0.124979 0 200 255
0.507948 0.299010 0.161931 0 200 255
0.434548 0.392541 0.154598 0 200 255
0.452606 0.310056 0.196174 0 200 255
0.433045 0.351245 0.072739 0 200 255
0.417691 0.288395 0.157308 0 200 255
0.367471 0.353356 0.152266 0 200 255
0.436755 0.348720 0.172284 0 200 255
0.499493 0.253185 0.192081 0 200 255
0.362150 0.229103 0.149753 0 200 255
0.464197 0.309834 0.152544 0 200 255
0.415827 0.407161 0.116434 0 200 255
0.416495 0.245257 0.165538 0 200 255
0.470344 0.370609 0.145153 0 200 255
0.493317 0.251660 0.149801 0 200 255
0.486369 0.289559 0.194108 0 200 255
0.421467 0.256061 0.130698 0 200 255
0.430800 0.276920 0.188890 0 200 255
0.362786 0.233256 0.113617 0 200 255
0.389622 0.252635 0.144612 0 200 255
0.497381 0.321561 0.187821 0 200 255
0.491573 0.331501 0.154953 0 200 255
0.425548 0.314449 0.176742 0 200 255
0.429734 0.365769 0.101601 0 200 255
0.455156 0.405692 0.133576 0 200 255
0.481339 0.282621 0.151177 0 200 255
0.470101 0.240585 0.189998 0 200 255
0.461058 0.371867 0.175408 0 200 255
0.446518 0.281823 0.149929 0 200 255
0.425910 0.363426 0.146741 0 200 255
0.461795 0.340237 0.194234 0 200 255
0.395785 0.342243 0.156427 0 200 255
0.350992 0.374166 0.165277 0 200 255
0.459143 0.274809 0.195724 0 200 255
0.375982 0.348771 0.179923 0 200 255
0.463955 0.338086 0.158250 0 200 255
0.437897 0.326267 0.154349 0 200 255
0.389045 0.227297 0.156467 0 200 255
0.426358 0.384956 0.129018 0 200 255
0.348541 0.248826 0.133007 0 200 255
0.499222 0.272142 0.168686 0 200 255
0.438932 0.254778 0.153857 0 200 255
0.431852 0.334353 0.193749 0 200 255
0.467248 0.238740 0.157697 0 200 255
0.423788 0.233246 0.143430 0 200 255
0.460310 0.392747 0.155545 0 200 255
0.386103 0.240530 0.122339 0 200 255
0.409896 0.315469 0.157603 0 200 255
0.429934 0.341803 0.095692 0 200 255
0.449198 0.356317 0.151598 0 200 255
0.437743 0.373716 0.169283 0 200 255
0.454700 0.303297 0.173404 0 200 255
0.345220 0.364910 0.144165 0 200 255
0.418344 0.362882 0.123915 0 200 255
0.443552 0.257760 0.185039 0 200 255
0.439737 0.402334 0.116207 0 200 255
0.475545 0.318704 0.194840 0 200 255
0.480474 0.259919 0.178842 0 200 255
0.374186 0.222310 0.130404 0 200 255
0.415155 0.295053 0.183534 0 200 255
0.347016 0.226221 0.129341 0 200 255
0.446637 0.378960 0.140726 0 200 255
0.451021 0.330226 0.175082 0 200 255
0.437959 0.302741 0.151102 0 200 255
0.486147 0.305283 0.151431 0 200 255
0.506813 0.290975 0.182830 0 200 255
0.434797 0.271928 0.167351 0 200 255
0.424773 0.342183 0.146298 0 200 255
0.456234 0.389508 0.119745 0 200 255
0.429822 0.404961 0.134989 0 200 255
0.413263 0.331202 0.171753 0 200 255
0.474834 0.360096 0.163646 0 200 255
0.435189 0.296756 0.194138 0 200 255
0.457846 0.351240 0.174752 0 200 255
0.413466 0.323884 0.192019 0 200 255
0.369604 0.241872 0.134781 0 200 255
0.415527 0.258683 0.150087 0 200 255
0.356614 0.355144 0.169637 0 200 255
0.473266 0.264277 0.154086 0 200 255
0.405518 0.245543 0.123922 0 200 255
0.503741 0.320225 0.166214 0 200 255
0.466326 0.295694 0.193465 0 200 255
0.377367 0.337580 0.162749 0 200 255
0.344894 0.241407 0.112359 0 200 255
0.420346 0.357367 0.086744 0 200 255
0.408490 0.228953 0.154663 0 200 255
0.496835 0.336417 0.175393 0 200 255
0.484093 0.335303 0.189947 0 200 255
0.396088 0.244802 0.160865 0 200 255
0.406713 0.311839 0.178640 0 200 255
0.453466 0.373777 0.157842 0 200 255
0.420409 0.353573 0.161875 0 200 255
0.463840 0.386460 0.136607 0 200 255
0.463371 0.289653 0.151603 0 200 255
0.496745 0.275552 0.187585 0 200 255
0.470099 0.337574 0.177480 0 200 255
0.334027 0.370453 0.158954 0 200 255
0.394097 0.325535 0.164068 0 200 255
0.477028 0.269544 0.194187 0 200 255
0.426722 0.400262 0.103468 0 200 255
0.393481 0.345236 0.174281 0 200 255
0.437872 0.353486 0.112752 0 200 255
0.420037 0.352027 0.108279 0 200 255
0.387526 0.232600 0.139274 0 200 255
0.377992 0.241083 0.152782 0 200 255
0.434467 0.358951 0.131533 0 200 255
0.475983 0.321872 0.158909 0 200 255
0.428265 0.314175 0.194454 0 200 255
0.441228 0.342750 0.139667 0 200 255
0.465160 0.257527 0.188498 0 200 255
0.334443 0.238609 0.136699 0 200 255
0.456912 0.255636 0.152306 0 200 255
0.431110 0.332160 0.171948 0 200 255
0.506944 0.308971 0.179202 0 200 255
0.502725 0.255529 0.172191 0 200 255
0.435418 0.247264 0.169052 0 200 255
0.494859 0.304886 0.190999 0 200 255
0.484950 0.346790 0.159862 0 200 255
0.382786 0.353495 0.160029 0 200 255
0.498884 0.282029 0.154844 0 200 255
0.419592 0.281820 0.173849 0 200 255
0.458128 0.276538 0.161540 0 200 255
0.469790 0.376850 0.160834 0 200 255
0.436900 0.355918 0.089812 0 200 255
0.451728 0.288509 0.189274 0 200 255
0.444979 0.362162 0.179080 0 200 255
0.441756 0.406878 0.098783 0 200 255
0.361015 0.369182 0.152857 0 200 255
0.460516 0.323750 0.189596 0 200 255
0.443635 0.393328 0.132802 0 200 255
0.464757 0.242213 0.173819 0 200 255
0.455748 0.406883 0.116221 0 200 255
0.426267 0.314045 0.156850 0 200 255
0.445908 0.341335 0.188928 0 200 255
0.428076 0.380064 0.146143 0 200 255
0.454774 0.323138 0.153487 0 200 255
0.425008 0.259310 0.163284 0 200 255
0.345969 0.380417 0.150623 0 200 255
0.448476 0.342413 0.163209 0 200 255
0.348691 0.237187 0.144056 0 200 255
0.428496 0.275833 0.153129 0 200 255
0.416818 0.232951 0.129105 0 200 255
0.485026 0.247699 0.195761 0 200 255
0.448609 0.399064 0.146832 0 200 255
0.488428 0.263344 0.159376 0 200 255
0.426483 0.415475 0.108186 0 200 255
0.433888 0.243806 0.137471 0 200 255
0.359274 0.247500 0.121736 0 200 255
0.370695 0.361877 0.169831 0 200 255
0.435289 0.356817 0.158871 0 200 255
0.425387 0.246807 0.151658 0 200 255
0.476328 0.348533 0.192203 0 200 255
0.419139 0.353574 0.137141 0 200 255
0.406443 0.235216 0.140407 0 200 255
0.422853 0.391987 0.116064 0 200 255
0.479362 0.303188 0.194581 0 200 255
0.404836 0.251802 0.141989 0 200 255
0.423203 0.394457 0.144925 0 200 255
0.350232 0.356884 0.156162 0 200 255
0.382805 0.334705 0.178293 0 200 255
0.402331 0.257982 0.157539 0 200 255
0.434848 0.340761 0.157165 0 200 255
0.361259 0.230348 0.129216 0 200 255
0.377099 0.229151 0.117686 0 200 255
0.480361 0.245023 0.151965 0 200 255
0.446207 0.267420 0.155572 0 200 255
0.451743 0.250673 0.174825 0 200 255
0.447084 0.271756 0.187518 0 200 255
0.449286 0.271061 0.171804 0 200 255
0.444902 0.327896 0.194688 0 200 255
0.446732 0.391678 0.105936 0 200 255
0.463221 0.358835 0.154270 0 200 255
0.429287 0.411498 0.122137 0 200 255
0.430384 0.265806 0.179625 0 200 255
0.452526 0.361939 0.166779 0 200 255
0.336425 0.247640 0.123738 0 200 255
0.419118 0.397925 0.128497 0 200 255
0.449907 0.294737 0.154924 0 200 255
0.411218 0.301583 0.160436 0 200 255
0.394289 0.251245 0.130542 0 200 255
0.349977 0.227245 0.114827 0 200 255
0.423210 0.344524 0.172783 0 200 255
0.442485 0.321923 0.167027 0 200 255
0.430933 0.365227 0.118023 0 200 255
0.489623 0.263339 0.193813 0 200 255
0.396728 0.222799 0.143262 0 200 255
0.374106 0.230140 0.142354 0 200 255
0.502292 0.261607 0.159482 0 200 255
0.366404 0.345196 0.169369 0 200 255
0.430103 0.290738 0.151378 0 200 255
0.440708 0.365954 0.141847 0 200 255
0.476827 0.334537 0.153230 0 200 255
0.442346 0.259646 0.168109 0 200 255
0.494221 0.315717 0.155554 0 200 255
0.448418 0.386443 0.152465 0 200 255
0.473610 0.284085 0.195059 0 200 255
0.390967 0.228140 0.126076 0 200 255
0.456685 0.370054 0.143482 0 200 255
0.447609 0.312425 0.158670 0 200 255
0.471962 0.355277 0.180929 0 200 255
0.418363 0.305091 0.192203 0 200 255
0.425590 0.327483 0.183432 0 200 255
0.468512 0.346973 0.167437 0 200 255
0.420370 0.325915 0.161533 0 200 255
0.382726 0.244961 0.135622 0 200 255
0.430488 0.380780 0.159851 0 200 255
0.404125 0.337671 0.179250 0 200 255
0.441729 0.315528 0.190425 0 200 255
0.505869 0.283440 0.171676 0 200 255
0.502062 0.264553 0.182381 0 200 255
0.462425 0.270686 0.150194 0 200 255
0.406779 0.329631 0.160424 0 200 255
0.420077 0.243802 0.135690 0 200 255
0.429925 0.342283 0.081736 0 200 255
0.436793 0.353924 0.145058 0 200 255
0.363904 0.242180 0.146457 0 200 255
0.434050 0.375744 0.135480 0 200 255
0.473493 0.368454 0.174671 0 200 255
0.471532 0.299543 0.155007 0 200 255
0.419837 0.234567 0.156961 0 200 255
0.339129 0.375897 0.140755 0 200 255
0.414745 0.317944 0.170736 0 200 255
0.459042 0.381320 0.167033 0 200 255
0.435028 0.391370 0.122166 0 200 255
0.475689 0.256706 0.164056 0 200 255
0.355330 0.225703 0.139495 0 200 255
0.337638 0.231227 0.114801 0 200 255
0.467058 0.382653 0.148285 0 200 255
0.343760 0.363401 0.164912 0 200 255
0.406885 0.237239 0.164037 0 200 255
0.383143 0.222209 0.146102 0 200 255
0.446723 0.342157 0.176260 0 200 255
0.438144 0.387964 0.142902 0 200 255
0.431323 0.353278 0.100705 0 200 255
0.439307 0.283399 0.160017 0 200 255
0.386506 0.332736 0.155794 0 200 255
0.373689 0.241054 0.121962 0 200 255
0.434809 0.339897 0.180894 0 200 255
0.460339 0.396880 0.142322 0 200 255
0.447511 0.298178 0.195765 0 200 255
0.491116 0.346483 0.171033 0 200 255
0.420546 0.307971 0.166305 0 200 255
0.344778 0.238803 0.125728 0 200 255
0.426725 0.301493 0.156329 0 200 255
0.401113 0.234145 0.122411 0 200 255
0.379066 0.233923 0.130448 0 200 255
0.336214 0.382623 0.157760 0 200 255
0.445085 0.406318 0.126609 0 200 255
0.451094 0.411859 0.104957 0 200 255
0.423572 0.364922 0.134817 0 200 255
0.464369 0.313421 0.195939 0 200 255
0.430447 0.360954 0.079665 0 200 255
0.497396 0.300707 0.152381 0 200 255
0.439999 0.285608 0.193362 0 200 255
0.419461 0.353111 0.149283 0 200 255
0.433239 0.369515 0.156246 0 200 255
0.335239 0.230557 0.127650 0 200 255
0.490076 0.274273 0.151969 0 200 255
0.376022 0.344442 0.152904 0 200 255
0.457204 0.350661 0.162767 0 200 255
0.463683 0.282696 0.187881 0 200 255
0.469936 0.255199 0.175577 0 200 255
0.427773 0.258522 0.151176 0 200 255
0.429059 0.345419 0.113299 0 200 255
0.418508 0.359269 0.098894 0 200 255
0.420116 0.363380 0.111971 0 200 255
0.361999 0.368378 0.164884 0 200 255
0.480735 0.340960 0.173271 0 200 255
0.402638 0.319182 0.170174 0 200 255
0.482898 0.267376 0.169893 0 200 255
0.356563 0.240099 0.135628 0 200 255
0.420021 0.351684 0.120282 0 200 255
0.414178 0.295144 0.171687 0 200 255
0.407342 0.325452 0.180306 0 200 255
0.470839 0.329472 0.191000 0 200 255
0.430456 0.321430 0.165695 0 200 255
0.457416 0.394549 0.130530 0 200 255
0.401693 0.338019 0.166906 0 200 255
0.442227 0.381495 0.161145 0 200 255
0.384207 0.351971 0.171755 0 200 255
0.417754 0.407868 0.104900 0 200 255
0.439104 0.349933 0.125732 0 200 255
0.479819 0.256440 0.148502 0 200 255
0.427304 0.288577 0.191597 0 200 255
0.436998 0.361523 0.169375 0 200 255
0.497329 0.290264 0.190465 0 200 255
0.490781 0.265146 0.179003 0 200 255
0.365478 0.222212 0.122217 0 200 255
0.365923 0.353794 0.177027 0 200 255
0.444989 0.353232 0.165052 0 200 255
0.414789 0.239491 0.147075 0 200 255
0.427952 0.338419 0.135910 0 200 255
0.485627 0.324124 0.192091 0 200 255
0.502381 0.319826 0.177658 0 200 255
0.413695 0.255351 0.160915 0 200 255
0.398290 0.235679 0.154351 0 200 255
0.435554 0.264417 0.158839 0 200 255
0.485757 0.293076 0.150970 0 200 255
0.501541 0.308320 0.160922 0 200 255
0.360543 0.349336 0.160293 0 200 255
0.423449 0.279424 0.163504 0 200 255
0.389241 0.253510 0.155856 0 200 255
0.415833 0.315464 0.184989 0 200 255
0.436032 0.318173 0.178194 0 200 255
0.406218 0.254384 0.130787 0 200 255
0.424463 0.342349 0.160910 0 200 255
0.433841 0.244072 0.158397 0 200 255
0.465776 0.324862 0.153003 0 200 255
0.495966 0.328133 0.165167 0 200 255
0.485062 0.277227 0.193533 0 200 255
0.366615 0.222092 0.140794 0 200 255
0.446274 0.394795 0.121064 0 200 255
0.448996 0.372359 0.168188 0 200 255
0.451781 0.384630 0.132725 0 200 255
0.474478 0.367712 0.155622 0 200 255
0.450754 0.254963 0.162649 0 200 255
0.369254 0.363191 0.158370 0 200 255
0.388188 0.220266 0.133257 0 200 255
0.434718 0.337065 0.146800 0 200 255
0.349734 0.367794 0.155263 0 200 255
0.471346 0.278217 0.151396 0 200 255
0.346946 0.248327 0.120846 0 200 255
0.422893 0.351714 0.076714 0 200 255
0.371560 0.353130 0.163371 0 200 255
0.334138 0.369323 0.148117 0 200 255
0.451221 0.332327 0.158127 0 200 255
0.433736 0.323665 0.194429 0 200 255
0.505000 0.291608 0.154546 0 200 255
0.485165 0.312289 0.193376 0 200 255
0.459668 0.395985 0.111737 0 200 255
0.417607 0.253195 0.140500 0 200 255
0.494388 0.336308 0.185941 0 200 255
0.414834 0.228293 0.139911 0 200 255
0.446615 0.397391 0.096758 0 200 255
0.428835 0.363092 0.090439 0 200 255
0.378875 0.249002 0.144856 0 200 255
0.435344 0.398782 0.141880 0 200 255
0.444542 0.403002 0.137450 0 200 255
0.354632 0.236444 0.122162 0 200 255
0.433892 0.402401 0.125372 0 200 255
0.327545 0.376412 0.152651 0 200 255
0.454749 0.259802 0.187676 0 200 255
0.507155 0.296723 0.172337 0 200 255
0.430341 0.254016 0.136277 0 200 255
0.455520 0.387574 0.144375 0 200 255
0.459574 0.330663 0.164499 0 200 255
0.482129 0.352089 0.170253 0 200 255
0.466227 0.348753 0.188976 0 200 255
0.421868 0.348926 0.092914 0 200 255
0.423123 0.324092 0.172806 0 200 255
0.441752 0.335557 0.169705 0 200 255
0.460834 0.252020 0.161853 0 200 255
0.387691 0.239929 0.156714 0 200 255
0.474558 0.311562 0.152142 0 200 255
0.437902 0.384549 0.131309 0 200 255
0.437770 0.345498 0.087879 0 200 255
0.380797 0.231106 0.150974 0 200 255
0.334486 0.242130 0.114818 0 200 255
0.472218 0.248274 0.157508 0 200 255
0.385624 0.344206 0.181241 0 200 255
0.463330 0.357221 0.168371 0 200 255
0.397774 0.231844 0.134365 0 200 255
0.345262 0.228619 0.139503 0 200 255
0.415424 0.303952 0.176854 0 200 255
0.405928 0.247442 0.163219 0 200 255
0.432983 0.406398 0.109623 0 200 255
0.385975 0.331263 0.166613 0 200 255
0.456715 0.305928 0.158353 0 200 255
0.436756 0.256595 0.176129 0 200 255
0.500896 0.276631 0.177725 0 200 255
0.453520 0.334377 0.193204 0 200 255
0.422686 0.280542 0.183990 0 200 255
0.414628 0.249397 0.127268 0 200 255
0.376816 0.342423 0.172058 0 200 255
0.394620 0.338998 0.182477 0 200 255
0.425331 0.360796 0.156818 0 200 255
0.479091 0.345062 0.182349 0 200 255
0.390773 0.347645 0.163284 0 200 255
0.470270 0.250061 0.193341 0 200 255
0.423461 0.322883 0.193073 0 200 255
0.427089 0.386939 0.138830 0 200 255
0.453275 0.387499 0.161646 0 200 255
0.461672 0.252383 0.180666 0 200 255
0.432329 0.331187 0.161034 0 200 255
0.425375 0.272378 0.170643 0 200 255
0.437819 0.268121 0.188204 0 200 255
0.399280 0.225692 0.152450 0 200 255
0.353163 0.370857 0.144936 0 200 255
0.432610 0.371127 0.144339 0 200 255
0.430885 0.397685 0.114927 0 200 255
0.446491 0.409199 0.113539 0 200 255
0.399813 0.329841 0.173855 0 200 255
0.475067 0.349799 0.160569 0 200 255
0.459963 0.371188 0.164847 0 200 255
0.426498 0.245429 0.165196 0 200 255
0.439374 0.348557 0.153117 0 200 255
0.361796 0.248449 0.135033 0 200 255
0.502908 0.299682 0.185351 0 200 255
0.364580 0.239541 0.125404 0 200 255
0.428337 0.357749 0.166594 0 200 255
0.461633 0.377000 0.138163 0 200 255
0.453472 0.365023 0.153136 0 200 255
0.447618 0.376715 0.150528 0 200 255
0.461012 0.383100 0.157175 0 200 255
0.450718 0.319370 0.189706 0 200 255
0.369626 0.343226 0.160213 0 200 255
0.432733 0.262284 0.168477 0 200 255
0.425782 0.345102 0.103900 0 200 255
0.358823 0.358978 0.152009 0 200 255
0.434732 0.313622 0.152006 0 200 255
0.436941 0.362339 0.150790 0 200 255
0.466371 0.264581 0.195112 0 200 255
0.458993 0.281018 0.150545 0 200 255
0.371375 0.233566 0.151181 0 200 255
0.457972 0.402121 0.124418 0 200 255
0.441650 0.401177 0.106734 0 200 255
0.438828 0.348101 0.097190 0 200 255
0.354284 0.242467 0.114451 0 200 255
0.507649 0.306554 0.168218 0 200 255
0.365696 0.234272 0.139306 0 200 255
0.441362 0.306134 0.192674 0 200 255
0.504594 0.278384 0.163538 0 200 255
0.437602 0.278052 0.150771 0 200 255
0.430077 0.305295 0.191121 0 200 255
0.431896 0.356564 0.122171 0 200 255
0.385616 0.342167 0.154022 0 200 255
0.342349 0.375568 0.160082 0 200 255
0.463006 0.243399 0.183857 0 200 255
0.394935 0.244177 0.121183 0 200 255
0.414946 0.307859 0.154165 0 200 255
0.434349 0.395813 0.132390 0 200 255
0.458996 0.362512 0.175663 0 200 255
0.477986 0.359801 0.174124 0 200 255
0.467580 0.376567 0.170141 0 200 255
0.353201 0.364517 0.163841 0 200 255
0.484109 0.317983 0.155702 0 200 255
0.437893 0.327858 0.177078 0 200 255
0.418681 0.400130 0.110324 0 200 255
0.438944 0.291347 0.154843 0 200 255
0.457244 0.345760 0.188014 0 200 255
0.422599 0.406607 0.126729 0 200 255
0.502632 0.282768 0.185043 0 200 255
0.436696 0.383146 0.153117 0 200 255
0.427086 0.386780 0.153376 0 200 255
0.416863 0.247074 0.155716 0 200 255
0.437712 0.352358 0.080872 0 200 255
0.396687 0.232764 0.143690 0 200 255
0.427916 0.357562 0.138757 0 200 255
0.444532 0.353155 0.175183 0 200 255
0.406633 0.225515 0.143567 0 200 255
0.416747 0.324097 0.179683 0 200 255
0.446160 0.333667 0.183578 0 200 255
0.477337 0.292598 0.194148 0 200 255
0.369725 0.223657 0.149455 0 200 255
0.429933 0.360835 0.109874 0 200 255
0.364057 0.221865 0.131840 0 200 255
0.461060 0.336251 0.175711 0 200 255
0.495626 0.255114 0.158124 0 200 255
0.391611 0.335311 0.174502 0 200 255
0.470400 0.305298 0.195780 0 200 255
0.446990 0.390450 0.141660 0 200 255
0.396807 0.333104 0.159452 0 200 255
0.408824 0.237255 0.126477 0 200 255
0.485053 0.347485 0.188953 0 200 255
0.356548 0.223896 0.120656 0 200 255
0.449920 0.305651 0.152128 0 200 255
0.450134 0.405649 0.094670 0 200 255
0.339870 0.364453 0.153429 0 200 255
0.482960 0.337306 0.159510 0 200 255
0.448663 0.273208 0.162243 0 200 255
0.410814 0.239243 0.156017 0 200 255
0.439604 0.343284 0.165307 0 200 255
0.457575 0.293635 0.195156 0 200 255
0.430209 0.349320 0.162255 0 200 255
0.339747 0.245760 0.134685 0 200 255
0.330941 0.242942 0.129319 0 200 255
0.362160 0.358227 0.161534 0 200 255
0.348412 0.236019 0.133582 0 200 255
0.435676 0.255807 0.162268 0 200 255
0.474777 0.336874 0.194469 0 200 255
0.380652 0.239218 0.142329 0 200 255
0.367880 0.231564 0.122626 0 200 255
0.390377 0.236635 0.129302 0 200 255
0.467706 0.348297 0.176342 0 200 255
0.427870 0.366700 0.126396 0 200 255
0.382772 0.225066 0.123850 0 200 255
0.425743 0.237122 0.133519 0 200 255
0.456804 0.283483 0.196126 0 200 255
0.375181 0.356939 0.155817 0 200 255
0.487116 0.299814 0.191565 0 200 255
0.451645 0.394970 0.154838 0 200 255
0.458040 0.296922 0.151834 0 200 255
0.479187 0.274379 0.153925 0 200 255
0.429983 0.355060 0.150750 0 200 255
0.473360 0.368800 0.165098 0 200 255
0.495567 0.259098 0.185176 0 200 255
0.401960 0.322036 0.161703 0 200 255
0.432376 0.340922 0.170883 0 200 255
0.380832 0.250756 0.153359 0 200 255
0.422745 0.412743 0.116094 0 200 255
0.426568 0.396507 0.123854 0 200 255
0.351539 0.376404 0.156444 0 200 255
0.465424 0.365730 0.170478 0 200 255
0.417227 0.230657 0.148776 0 200 255
0.461714 0.261044 0.160148 0 200 255
0.375589 0.355550 0.174259 0 200 255
0.464113 0.318434 0.158830 0 200 255
0.425692 0.317485 0.185020 0 200 255
0.441680 0.335971 0.160851 0 200 255
0.357330 0.235697 0.144945 0 200 255
0.491294 0.342442 0.180460 0 200 255
0.436426 0.341932 0.132351 0 200 255
0.418914 0.287628 0.167297 0 200 255
0.474002 0.299757 0.188531 0 200 255
0.442796 0.251026 0.166160 0 200 255
0.369427 0.233085 0.131495 0 200 255
0.494899 0.269162 0.158629 0 200 255
0.419611 0.399388 0.119439 0 200 255
0.462678 0.253225 0.170297 0 200 255
0.460449 0.266697 0.175632 0 200 255
0.441936 0.368104 0.164100 0 200 255
0.499840 0.325395 0.157869 0 200 255
0.454809 0.270668 0.154403 0 200 255
0.448414 0.363067 0.146165 0 200 255
0.428133 0.335265 0.154606 0 200 255
0.469061 0.240421 0.166494 0 200 255
0.425285 0.410279 0.101313 0 200 255
0.418442 0.314474 0.193203 0 200 255
0.423627 0.393685 0.134624 0 200 255
0.423079 0.357926 0.129217 0 200 255
0.470450 0.256501 0.151503 0 200 255
0.446911 0.389392 0.114331 0 200 255
0.461603 0.363786 0.146826 0 200 255
0.440653 0.276753 0.190368 0 200 255
0.478354 0.261501 0.191384 0 200 255
0.363266 0.241474 0.117053 0 200 255
0.496817 0.287699 0.160987 0 200 255
0.489257 0.283838 0.154262 0 200 255
0.496138 0.327530 0.173728 0 200 255
0.443521 0.317127 0.152804 0 200 255
0.460628 0.343712 0.167932 0 200 255
0.342617 0.226967 0.122062 0 200 255
0.452049 0.297601 0.188560 0 200 255
0.330875 0.376482 0.143385 0 200 255
0.490874 0.253720 0.189834 0 200 255
0.493303 0.314186 0.191701 0 200 255
0.359186 0.363115 0.171181 0 200 255
0.478117 0.252610 0.196558 0 200 255
0.381238 0.245624 0.127115 0 200 255
0.451042 0.366853 0.174334 0 200 255
0.452301 0.326863 0.167388 0 200 255
0.506978 0.258073 0.179086 0 200 255
0.451248 0.356008 0.159964 0 200 255
0.407162 0.257606 0.149208 0 200 255
0.430986 0.280996 0.159962 0 200 255
0.434673 0.360434 0.097249 0 200 255
0.418829 0.314256 0.160883 0 200 255
0.500081 0.295898 0.162159 0 200 255
0.491238 0.337636 0.161093 0 200 255
0.328167 0.234956 0.128952 0 200 255
0.375023 0.221731 0.121077 0 200 255
0.435584 0.347217 0.118291 0 200 255
0.503934 0.265222 0.169415 0 200 255
0.411308 0.308605 0.186716 0 200 255
0.441309 0.268186 0.171096 0 200 255
0.351236 0.360207 0.147629 0 200 255
0.449469 0.398115 0.128068 0 200 255
0.420463 0.309046 0.181196 0 200 255
0.491746 0.268884 0.171570 0 200 255
0.472177 0.353699 0.170819 0 200 255
0.411152 0.227264 0.131434 0 200 255
0.392576 0.235867 0.119846 0 200 255
0.416356 0.241233 0.127703 0 200 255
0.383093 0.227126 0.134785 0 200 255
0.427253 0.279077 0.175710 0 200 255
0.453558 0.409194 0.124348 0 200 255
0.421367 0.251820 0.162935 0 200 255
0.447689 0.251914 0.155523 0 200 255
0.452353 0.285590 0.154533 0 200 255
0.458233 0.332128 0.153641 0 200 255
0.464230 0.271221 0.158303 0 200 255
0.335817 0.236474 0.121697 0 200 255
0.392234 0.326530 0.173160 0 200 255
0.459495 0.362011 0.162279 0 200 255
0.405997 0.236612 0.148569 0 200 255
0.385883 0.341438 0.173434 0 200 255
0.492128 0.259800 0.150740 0 200 255
0.467158 0.265100 0.168512 0 200 255
0.340022 0.383364 0.145700 0 200 255
0.452826 0.403326 0.141132 0 200 255
0.423128 0.347664 0.083902 0 200 255
0.406900 0.326622 0.169205 0 200 255
0.441089 0.389771 0.150378 0 200 255
0.345484 0.233350 0.110765 0 200 255
0.426843 0.247541 0.132586 0 200 255
0.465616 0.286014 0.195372 0 200 255
0.450763 0.255108 0.182105 0 200 255
0.412577 0.309858 0.167059 0 200 255
0.423469 0.345029 0.137860 0 200 255
0.454951 0.301594 0.196432 0 200 255
0.457373 0.403386 0.108742 0 200 255
0.396654 0.253835 0.140553 0 200 255
0.355506 0.223516 0.131588 0 200 255
0.399583 0.322463 0.177359 0 200 255
0.452793 0.394698 0.137229 0 200 255
0.465117 0.353919 0.160459 0 200 255
0.445957 0.325489 0.153650 0 200 255
0.493657 0.268162 0.186261 0 200 255
0.443293 0.368932 0.173245 0 200 255
0.479497 0.258927 0.157283 0 200 255
0.419321 0.359246 0.142885 0 200 255
0.423393 0.241282 0.142775 0 200 255
0.446066 0.388804 0.126576 0 200 255
0.394752 0.231741 0.160444 0 200 255
0.417713 0.289670 0.178095 0 200 255
0.423575 0.345081 0.129263 0 200 255
0.470800 0.342515 0.183811 0 200 255
0.447234 0.370634 0.141224 0 200 255
0.436855 0.379880 0.141797 0 200 255
0.408036 0.316827 0.186411 0 200 255
0.430552 0.391681 0.147679 0 200 255
0.443270 0.257704 0.159946 0 200 255
0.415550 0.295495 0.163797 0 200 255
0.444811 0.360930 0.171058 0 200 255
0.507039 0.258016 0.165918 0 200 255
0.492455 0.334985 0.168845 0 200 255
0.456429 0.400233 0.148450 0 200 255
0.364958 0.356309 0.169427 0 200 255
0.421564 0.297759 0.192118 0 200 255
0.441933 0.340976 0.153111 0 200 255
0.455550 0.393633 0.104561 0 200 255
0.423234 0.352208 0.100066 0 200 255
0.425802 0.237029 0.152257 0 200 255
0.350767 0.356578 0.164394 0 200 255
0.441255 0.398930 0.125687 0 200 255
0.452535 0.257101 0.170166 0 200 255
0.439427 0.349026 0.134406 0 200 255
0.437033 0.337411 0.188520 0 200 255
0.440262 0.310126 0.156613 0 200 255
0.369714 0.226444 0.116429 0 200 255
0.414604 0.312896 0.176883 0 200 255
0.354848 0.233531 0.113795 0 200 255
0.413871 0.331068 0.163706 0 200 255
0.503970 0.314208 0.184384 0 200 255
0.350522 0.228723 0.122604 0 200 255
0.462384 0.305821 0.194877 0 200 255
0.425898 0.315368 0.167978 0 200 255
0.412897 0.323946 0.159834 0 200 255
0.399849 0.251058 0.123735 0 200 255
0.452468 0.324690 0.195290 0 200 255
0.379222 0.355790 0.166955 0 200 255
0.338488 0.231824 0.136778 0 200 255
0.414747 0.236680 0.163536 0 200 255
0.436273 0.353466 0.165948 0 200 255
0.430431 0.237730 0.142648 0 200 255
0.508182 0.291920 0.165373 0 200 255
0.426200 0.354815 0.116516 0 200 255
0.395864 0.221766 0.134232 0 200 255
0.460162 0.343757 0.177915 0 200 255
0.451870 0.262743 0.163042 0 200 255
0.434075 0.367884 0.164361 0 200 255
0.444102 0.252440 0.174200 0 200 255
0.462475 0.391757 0.147891 0 200 255
0.420853 0.290975 0.187081 0 200 255
0.433127 0.360877 0.144089 0 200 255
0.426994 0.283644 0.152628 0 200 255
0.422230 0.253219 0.148429 0 200 255
0.478992 0.302082 0.151588 0 200 255
0.373917 0.242192 0.145017 0 200 255
0.471639 0.275165 0.195053 0 200 255
0.427762 0.336517 0.177529 0 200 255
0.470754 0.360634 0.156986 0 200 255
0.398187 0.225071 0.124594 0 200 255
0.472354 0.332694 0.159376 0 200 255
0.380402 0.335113 0.170518 0 200 255
0.346577 0.374291 0.142486 0 200 255
0.452481 0.338049 0.182224 0 200 255
0.464538 0.328013 0.195352 0 200 255
0.379976 0.351149 0.153113 0 200 255
0.460828 0.277583 0.168766 0 200 255
0.449924 0.403662 0.120255 0 200 255
0.427099 0.351918 0.126366 0 200 255
0.383123 0.232792 0.123153 0 200 255
0.415804 0.237507 0.139638 0 200 255
0.357486 0.243778 0.142437 0 200 255
0.443748 0.408935 0.106324 0 200 255
0.435249 0.387124 0.160056 0 200 255
0.452387 0.314649 0.153029 0 200 255
0.410171 0.256507 0.138997 0 200 255
0.425862 0.351378 0.156105 0 200 255
0.415560 0.248041 0.145835 0 200 255
0.390228 0.224414 0.148103 0 200 255
0.498409 0.330424 0.183071 0 200 255
0.402201 0.229398 0.159041 0 200 255
0.379823 0.337323 0.155495 0 200 255
0.454110 0.375680 0.137565 0 200 255
0.482386 0.259899 0.168333 0 200 255
0.503613 0.304751 0.154490 0 200 255
0.358541 0.351417 0.153043 0 200 255
0.427450 0.321580 0.157156 0 200 255
0.429054 0.387221 0.119859 0 200 255
0.427127 0.271199 0.159032 0 200 255
0.453072 0.276318 0.188753 0 200 255
0.424698 0.345673 0.119918 0 200 255
0.428494 0.356740 0.086235 0 200 255
0.423099 0.261882 0.156168 0 200 255
0.344322 0.241829 0.139890 0 200 255
0.405101 0.233517 0.133111 0 200 255
0.442541 0.265290 0.161887 0 200 255
0.465723 0.358987 0.178658 0 200 255
0.472292 0.314799 0.158636 0 200 255
0.433939 0.332187 0.181904 0 200 255
0.425811 0.360766 0.097466 0 200 255
0.354412 0.249162 0.128220 0 200 255
0.426402 0.394030 0.109693 0 200 255
0.431902 0.252247 0.152618 0 200 255
0.468652 0.377067 0.140975 0 200 255
0.417695 0.413033 0.110475 0 200 255
0.489362 0.270922 0.163466 0 200 255
0.394620 0.255221 0.150840 0 200 255
0.372653 0.349086 0.171017 0 200 255
0.417721 0.356993 0.115177 0 200 255
0.451208 0.395043 0.111810 0 200 255
0.460874 0.395362 0.122790 0 200 255
0.434077 0.343881 0.101613 0 200 255
0.423977 0.294512 0.156055 0 200 255
0.427273 0.336581 0.167257 0 200 255
0.478320 0.288615 0.154518 0 200 255
0.498206 0.275641 0.160406 0 200 255
0.491631 0.280228 0.191567 0 200 255
0.455955 0.386657 0.152972 0 200 255
0.440747 0.355812 0.151990 0 200 255
0.483655 0.254615 0.191526 0 200 255
0.439124 0.270754 0.151186 0 200 255
0.473565 0.242058 0.151239 0 200 255
0.392935 0.247494 0.139363 0 200 255
0.451794 0.267796 0.191711 0 200 255
0.430791 0.411353 0.114730 0 200 255
0.396318 0.252927 0.158078 0 200 255
0.426318 0.342782 0.088508 0 200 255
0.465467 0.383528 0.163106 0 200 255
0.488167 0.350682 0.165666 0 200 255
0.479074 0.350167 0.176964 0 200 255
0.470088 0.376554 0.151226 0 200 255
0.421233 0.308572 0.173662 0 200 255
0.435802 0.315254 0.194868 0 200 255
0.503211 0.312860 0.166850 0 200 255
0.432274 0.349870 0.178066 0 200 255
0.488088 0.311593 0.155416 0 200 255
0.423032 0.365586 0.118392 0 200 255
0.359196 0.233163 0.135987 0 200 255
0.444562 0.291408 0.193385 0 200 255
0.361429 0.226241 0.115441 0 200 255
0.463947 0.259958 0.151845 0 200 255
0.487111 0.250933 0.153715 0 200 255
0.353422 0.229501 0.145770 0 200 255
0.451244 0.380351 0.160309 0 200 255
0.452287 0.367138 0.160787 0 200 255
0.426005 0.330064 0.192545 0 200 255
0.464347 0.277492 0.154133 0 200 255
0.416967 0.324377 0.168022 0 200 255
0.449762 0.339657 0.169870 0 200 255
0.356623 0.365334 0.157418 0 200 255
0.467619 0.246774 0.163004 0 200 255
0.428196 0.379366 0.137970 0 200 255
0.388649 0.330685 0.180100 0 200 255
0.459417 0.316679 0.153041 0 200 255
0.498831 0.260230 0.165771 0 200 255
0.428634 0.252060 0.167393 0 200 255
0.421179 0.240132 0.163281 0 200 255
0.356517 0.372608 0.160771 0 200 255
0.418594 0.301951 0.156391 0 200 255
0.364183 0.247996 0.127104 0 200 255
0.444088 0.351358 0.157919 0 200 255
0.357523 0.238486 0.128530 0 200 255
0.468655 0.255011 0.164897 0 200 255
0.431630 0.324909 0.180277 0 200 255
0.454584 0.272268 0.166953 0 200 255
0.492413 0.305449 0.155139 0 200 255
0.501186 0.317837 0.155602 0 200 255
0.467492 0.334352 0.171497 0 200 255
0.497736 0.270183 0.180586 0 200 255
0.482994 0.267776 0.161898 0 200 255
0.424863 0.357578 0.105805 0 200 255
0.424079 0.343340 0.153442 0 200 255
0.427175 0.399012 0.140893 0 200 255
0.475343 0.287555 0.188930 0 200 255
0.385244 0.238295 0.134287 0 200 255
0.441757 0.299195 0.156153 0 200 255
0.441754 0.359968 0.145925 0 200 255
0.376088 0.234711 0.137097 0 200 255
0.443765 0.377238 0.167067 0 200 255
0.444570 0.346638 0.169369 0 200 255
0.387307 0.230882 0.146692 0 200 255
0.423688 0.401686 0.133010 0 200 255
0.330110 0.243419 0.122120 0 200 255
0.388087 0.247617 0.128266 0 200 255
0.436256 0.356890 0.106591 0 200 255
0.461914 0.240061 0.167464 0 200 255
0.506935 0.301814 0.177450 0 200 255
0.370706 0.235785 0.117497 0 200 255
0.430679 0.364027 0.135687 0 200 255
0.469478 0.284508 0.154396 0 200 255
0.440684 0.346163 0.146445 0 200 255
0.368523 0.347077 0.176752 0 200 255
0.441732 0.374371 0.160170 0 200 255
0.446707 0.316093 0.195597 0 200 255
0.402074 0.225006 0.137391 0 200 255
0.458032 0.343916 0.160417 0 200 255
0.495353 0.328185 0.189748 0 200 255
0.454737 0.371489 0.150260 0 200 255
0.414479 0.302403 0.184967 0 200 255
0.431406 0.390058 0.128785 0 200 255
0.345051 0.361853 0.157660 0 200 255
0.439712 0.358618 0.175739 0 200 255
0.456051 0.318152 0.194341 0 200 255
0.427745 0.346230 0.076163 0 200 255
0.352535 0.230194 0.134231 0 200 255
0.422867 0.390617 0.126356 0 200 255
0.439719 0.344214 0.177986 0 200 255
0.449154 0.333784 0.164819 0 200 255
0.448087 0.306255 0.190244 0 200 255
0.347705 0.240539 0.119447 0 200 255
0.408740 0.315882 0.167122 0 200 255
0.464140 0.302699 0.152306 0 200 255
0.420233 0.233033 0.136283 0 200 255
0.341855 0.233390 0.129336 0 200 255
0.361352 0.349908 0.167636 0 200 255
0.431076 0.408305 0.128829 0 200 255
0.411056 0.319386 0.179973 0 200 255
0.432979 0.375596 0.164038 0 200 255
0.441292 0.250568 0.159080 0 200 255
0.443083 0.334570 0.190933 0 200 255
0.335707 0.376260 0.154641 0 200 255
0.492549 0.296606 0.188302 0 200 255
0.442763 0.396158 0.141621 0 200 255
0.418311 0.359918 0.134076 0 200 255
0.340857 0.370240 0.146044 0 200 255
0.425769 0.251333 0.157405 0 200 255
0.423930 0.357933 0.079935 0 200 255
0.424963 0.351081 0.166682 0 200 255
0.459867 0.263381 0.192602 0 200 255
0.429203 0.378958 0.153151 0 200 255
0.399279 0.340972 0.172843 0 200 255
0.468846 0.242349 0.180042 0 200 255
0.473192 0.363353 0.169682 0 200 255
0.433168 0.317006 0.171856 0 200 255
0.436160 0.345204 0.080230 0 200 255
0.409002 0.332816 0.177737 0 200 255
0.442703 0.277688 0.157671 0 200 255
0.442383 0.385505 0.136658 0 200 255
0.387916 0.348701 0.156934 0 200 255
0.339313 0.236810 0.110856 0 200 255
0.446809 0.284211 0.192283 0 200 255
0.452019 0.392935 0.147331 0 200 255
0.391961 0.233619 0.152106 0 200 255
0.372335 0.341036 0.166831 0 200 255
0.494182 0.266007 0.164860 0 200 255
0.367617 0.346481 0.153680 0 200 255
0.341445 0.248704 0.128529 0 200 255
0.441636 0.297904 0.191631 0 200 255
0.455430 0.375127 0.168477 0 200 255
0.475072 0.263651 0.164741 0 200 255
0.390321 0.226406 0.135862 0 200 255
0.419863 0.328424 0.187351 0 200 255
0.430901 0.307108 0.156538 0 200 255
0.448406 0.349680 0.179864 0 200 255
0.455168 0.356660 0.171234 0 200 255
0.425413 0.406669 0.118907 0 200 255
0.399977 0.239200 0.162325 0 200 255
0.467269 0.362245 0.164726 0 200 255
0.444079 0.383819 0.147687 0 200 255
0.430297 0.319986 0.189603 0 200 255
0.385089 0.233520 0.157481 0 200 255
0.431719 0.348527 0.095607 0 200 255
0.483998 0.324126 0.158959 0 200 255
0.401055 0.331157 0.164598 0 200 255
0.367116 0.360713 0.152239 0 200 255
0.487261 0.255576 0.148150 0 200 255
0.452269 0.383531 0.139763 0 200 255
0.377661 0.241702 0.131575 0 200 255
0.400411 0.255917 0.147098 0 200 255
0.380892 0.232255 0.141442 0 200 255
0.432544 0.406123 0.119227 0 200 255
0.433156 0.321505 0.152683 0 200 255
0.454131 0.407148 0.100114 0 200 255
0.445857 0.323919 0.160385 0 200 255
0.354984 0.374062 0.150924 0 200 255
0.409139 0.259160 0.157374 0 200 255
0.455570 0.358597 0.154538 0 200 255
0.478462 0.331618 0.191485 0 200 255
0.385968 0.250230 0.138685 0 200 255
0.387044 0.222290 0.140330 0 200 255
0.426813 0.274118 0.184010 0 200 255
0.415741 0.256709 0.134487 0 200 255
0.502098 0.297112 0.178885 0 200 255
0.431499 0.381033 0.131387 0 200 255
0.360785 0.224564 0.144758 0 200 255
0.425816 0.354557 0.145292 0 200 255
0.444058 0.290156 0.150405 0 200 255
0.346823 0.369240 0.162920 0 200 255
0.432972 0.350893 0.108699 0 200 255
0.453907 0.397804 0.120957 0 200 255
0.491194 0.298003 0.151219 0 200 255
0.421545 0.355750 0.093527 0 200 255
0.442867 0.395435 0.115152 0 200 255
0.456289 0.368216 0.169802 0 200 255
0.436673 0.391064 0.136981 0 200 255
0.332084 0.231513 0.118821 0 200 255
0.420299 0.351645 0.127116 0 200 255
0.438295 0.271551 0.161487 0 200 255
0.483375 0.265953 0.192892 0 200 255
0.428125 0.296241 0.193291 0 200 255
0.334321 0.385933 0.152087 0 200 255
0.373508 0.359988 0.162641 0 200 255
0.428630 0.356245 0.074164 0 200 255
0.481725 0.284570 0.193924 0 200 255
0.340118 0.369093 0.161704 0 200 255
0.499434 0.308597 0.187573 0 200 255
0.397220 0.333667 0.179129 0 200 255
0.395167 0.344344 0.167297 0 200 255
0.434982 0.259936 0.151839 0 200 255
0.365316 0.235843 0.149099 0 200 255
0.470284 0.290685 0.151677 0 200 255
0.464782 0.387021 0.153099 0 200 255
0.459846 0.392873 0.136652 0 200 255
0.422471 0.347058 0.113040 0 200 255
0.467710 0.381135 0.155641 0 200 255
0.406401 0.336134 0.171425 0 200 255
0.405005 0.229077 0.124711 0 200 255
0.453110 0.389950 0.128003 0 200 255
0.478910 0.267475 0.152128 0 200 255
0.489126 0.340316 0.187393 0 200 255
0.436097 0.396015 0.148999 0 200 255
0.475311 0.246060 0.195415 0 200 255
0.472648 0.272063 0.153864 0 200 255
0.400784 0.340563 0.160715 0 200 255
0.411664 0.235515 0.134691 0 200 255
0.454770 0.338004 0.160391 0 200 255
0.342606 0.235549 0.141645 0 200 255
0.492039 0.320793 0.192161 0 200 255
0.470038 0.291041 0.196623 0 200 255
0.342762 0.381293 0.156554 0 200 255
0.438473 0.391471 0.128900 0 200 255
0.355624 0.365764 0.150722 0 200 255
0.466034 0.236650 0.177827 0 200 255
0.497033 0.332215 0.158822 0 200 255
0.408063 0.309542 0.162083 0 200 255
0.386111 0.331114 0.173671 0 200 255
0.421215 0.241218 0.149699 0 200 255
0.493637 0.323751 0.155891 0 200 255
0.422238 0.251168 0.135860 0 200 255
0.479559 0.340773 0.191835 0 200 255
0.356033 0.354870 0.158860 0 200 255
0.364338 0.240894 0.139894 0 200 255
0.473402 0.339000 0.157368 0 200 255
0.434953 0.254194 0.168731 0 200 255
0.416974 0.260744 0.158616 0 200 255
0.477118 0.317744 0.152272 0 200 255
0.442609 0.385750 0.155995 0 200 255
0.420239 0.355753 0.155556 0 200 255
0.476523 0.252508 0.154641 0 200 255
0.443862 0.406920 0.119243 0 200 255
0.422839 0.280646 0.156893 0 200 255
0.467722 0.371786 0.175332 0 200 255
0.408492 0.334890 0.164625 0 200 255
0.378511 0.340612 0.178242 0 200 255
0.449682 0.396703 0.102707 0 200 255
0.493429 0.341952 0.166734 0 200 255
0.437412 0.248297 0.154001 0 200 255
0.360030 0.223594 0.126316 0 200 255
0.420975 0.359770 0.149295 0 200 255
0.363430 0.236984 0.132585 0 200 255
0.426238 0.387057 0.145653 0 200 255
0.479102 0.353532 0.164292 0 200 255
0.410246 0.233455 0.159218 0 200 255
0.452640 0.408971 0.110750 0 200 255
0.455651 0.270830 0.173642 0 200 255
0.371508 0.241511 0.128443 0 200 255
0.433170 0.329922 0.189002 0 200 255
0.346871 0.369294 0.148849 0 200 255
0.409164 0.316815 0.174171 0 200 255
0.435369 0.375694 0.157278 0 200 255
0.436107 0.363721 0.159643 0 200 255
0.382711 0.349180 0.177558 0 200 255
0.401844 0.240484 0.126061 0 200 255
0.353523 0.231479 0.127798 0 200 255
0.441732 0.376494 0.137064 0 200 255
0.427089 0.366387 0.112799 0 200 255
0.458329 0.262564 0.154049 0 200 255
0.417205 0.405095 0.122514 0 200 255
0.423980 0.321409 0.178731 0 200 255
0.370073 0.229845 0.137162 0 200 255
0.370468 0.225805 0.126285 0 200 255
0.465388 0.386130 0.142967 0 200 255
0.409112 0.305236 0.178063 0 200 255
0.471649 0.257256 0.189373 0 200 255
0.449144 0.329771 0.190059 0 200 255
0.467380 0.362204 0.150497 0 200 255
0.432352 0.391364 0.115768 0 200 255
0.437213 0.310966 0.189192 0 200 255
0.346590 0.242645 0.130692 0 200 255
0.435256 0.402256 0.131944 0 200 255
0.345200 0.360874 0.149990 0 200 255
0.377801 0.235548 0.118679 0 200 255
0.456729 0.381109 0.135104 0 200 255
0.468542 0.348219 0.161049 0 200 255
0.439931 0.323332 0.192474 0 200 255
0.373178 0.350223 0.153799 0 200 255
0.450029 0.410048 0.118920 0 200 255
0.482565 0.331507 0.153523 0 200 255
0.470253 0.322445 0.195254 0 200 255
0.431312 0.360284 0.154359 0 200 255
0.466199 0.245823 0.156751 0 200 255
0.425996 0.360891 0.124219 0 200 255
0.471727 0.330558 0.152990 0 200 255
0.481568 0.352411 0.186614 0 200 255
