ply
format ascii 1.0
element vertex 1024
property float x
property float y
property float z
property uchar red
property uchar green
property uchar blue
end_header
0.370213 0.232355 0.081302 255 220 0
0.376991 0.120126 0.020022 255 220 0
0.370960 0.070240 0.036511 255 220 0
0.363298 0.073314 0.029676 255 220 0
0.395019 0.147492 0.023850 255 220 0
0.340518 0.126373 0.069244 255 220 0
0.387671 0.182572 0.105145 255 220 0
0.357267 0.094447 0.070633 255 220 0
0.370452 0.065557 0.044050 255 220 0
0.391061 0.163791 0.023198 255 220 0
0.404887 0.153309 0.030236 255 220 0
0.366427 0.087368 0.023841 255 220 0
0.359658 0.110475 0.077318 255 220 0
0.340168 0.149874 0.075527 255 220 0
0.408323 0.217738 0.081285 255 220 0
0.361389 0.221345 0.088675 255 220 0
0.335957 0.091649 0.031207 255 220 0
0.402063 0.194756 0.037055 255 220 0
0.408032 0.127479 0.082282 255 220 0
0.352226 0.218109 0.056426 255 220 0
0.374254 0.074622 0.034333 255 220 0
0.400015 0.208517 0.044281 255 220 0
0.362823 0.063701 0.049778 255 220 0
0.366994 0.198812 0.032057 255 220 0
0.367969 0.176666 0.024090 255 220 0
0.366626 0.077984 0.064295 255 220 0
0.337005 0.064595 0.044235 255 220 0
0.392324 0.228258 0.090212 255 220 0
0.355141 0.175810 0.027595 255 220 0
0.415066 0.133257 0.048617 255 220 0
0.408395 0.109432 0.068305 255 220 0
0.371568 0.123976 0.019444 255 220 0
0.367666 0.131054 0.019662 255 220 0
0.378114 0.155971 0.020203 255 220 0
0.331308 0.139024 0.048104 255 220 0
0.383465 0.231547 0.088840 255 220 0
0.376184 0.180398 0.024203 255 220 0
0.374995 0.090081 0.025385 255 220 0
0.347744 0.137521 0.026096 255 220 0
0.349851 0.155023 0.086302 255 220 0
0.384831 0.115564 0.084679 255 220 0
0.378799 0.073495 0.039400 255 220 0
0.337219 0.198008 0.061496 255 220 0
0.395500 0.198042 0.103875 255 220 0
0.395243 0.144430 0.024057 255 220 0
0.341180 0.117674 0.067624 255 220 0
0.338685 0.159877 0.076093 255 220 0
0.363033 0.075588 0.028111 255 220 0
0.380477 0.145225 0.019779 255 220 0
0.345290 0.100744 0.025340 255 220 0
0.333333 0.181776 0.053583 255 220 0
0.396023 0.183672 0.029195 255 220 0
0.336899 0.148224 0.035676 255 220 0
0.385535 0.112272 0.023349 255 220 0
0.410884 0.122136 0.076624 255 220 0
0.333860 0.090873 0.056651 255 220 0
0.419844 0.157397 0.076254 255 220 0
0.365753 0.211481 0.098163 255 220 0
0.373494 0.147984 0.019737 255 220 0
0.377797 0.176192 0.104187 255 220 0
0.367416 0.132294 0.019717 255 220 0
0.355430 0.138371 0.085266 255 220 0
0.343770 0.069694 0.030992 255 220 0
0.357721 0.177376 0.026991 255 220 0
0.343658 0.197292 0.044696 255 220 0
0.338027 0.186762 0.076071 255 220 0
0.406895 0.177898 0.035099 255 220 0
0.378417 0.234331 0.064962 255 220 0
0.364004 0.205690 0.099346 255 220 0
0.386534 0.205805 0.036687 255 220 0
0.373827 0.216706 0.043348 255 220 0
0.359325 0.080440 0.065574 255 220 0
0.417638 0.142023 0.051183 255 220 0
0.352744 0.075400 0.026965 255 220 0
0.406454 0.161974 0.095342 255 220 0
0.364241 0.209412 0.098146 255 220 0
0.400971 0.097256 0.063436 255 220 0
0.386358 0.124939 0.088615 255 220 0
0.333043 0.102855 0.055433 255 220 0
0.409518 0.193987 0.044096 255 220 0
0.399591 0.200951 0.101498 255 220 0
0.364614 0.130877 0.087055 255 220 0
0.406684 0.183891 0.036793 255 220 0
0.387435 0.196097 0.105823 255 220 0
0.334761 0.153460 0.068878 255 220 0
0.333915 0.084602 0.056360 255 220 0
0.386860 0.129393 0.090324 255 220 0
0.399588 0.199830 0.038190 255 220 0
0.420248 0.155555 0.054515 255 220 0
0.355257 0.091419 0.068918 255 220 0
0.342664 0.148458 0.030062 255 220 0
0.413211 0.208640 0.070016 255 220 0
0.412057 0.210282 0.066979 255 220 0
0.351390 0.191751 0.092605 255 220 0
0.385931 0.219527 0.098801 255 220 0
0.329336 0.088528 0.047460 255 220 0
0.382931 0.196468 0.030608 255 220 0
0.379152 0.140828 0.094624 255 220 0
0.346404 0.103815 0.024854 255 220 0
0.385401 0.220149 0.046911 255 220 0
0.332328 0.126271 0.053954 255 220 0
0.398897 0.222671 0.057170 255 220 0
0.409700 0.151704 0.090386 255 220 0
0.417127 0.196452 0.071619 255 220 0
0.392085 0.098622 0.032051 255 220 0
0.390266 0.083360 0.057264 255 220 0
0.407850 0.187301 0.095931 255 220 0
0.396439 0.231990 0.076566 255 220 0
0.357514 0.200557 0.036750 255 220 0
0.354788 0.063016 0.037350 255 220 0
0.340378 0.158772 0.077959 255 220 0
0.381328 0.182103 0.024845 255 220 0
0.389005 0.113121 0.082803 255 220 0
0.354233 0.140453 0.023383 255 220 0
0.382093 0.236075 0.077139 255 220 0
0.359838 0.224103 0.083604 255 220 0
0.361569 0.141092 0.089248 255 220 0
0.413656 0.207832 0.073857 255 220 0
0.364689 0.195207 0.030858 255 220 0
0.354159 0.164236 0.091771 255 220 0
0.348629 0.213482 0.055211 255 220 0
0.377432 0.207579 0.103780 255 220 0
0.328930 0.085543 0.046379 255 220 0
0.400724 0.129641 0.028868 255 220 0
0.411319 0.171370 0.038050 255 220 0
0.417091 0.196687 0.070973 255 220 0
0.342620 0.208817 0.064392 255 220 0
0.332152 0.119976 0.048570 255 220 0
0.411692 0.212428 0.076741 255 220 0
0.339194 0.198916 0.053339 255 220 0
0.377556 0.136332 0.092886 255 220 0
0.391614 0.117005 0.084120 255 220 0
0.417509 0.170888 0.047756 255 220 0
0.359805 0.153983 0.092306 255 220 0
0.367175 0.201612 0.102075 255 220 0
0.374960 0.190210 0.105364 255 220 0
0.332680 0.107443 0.054153 255 220 0
0.392334 0.143291 0.094580 255 220 0
0.331509 0.150364 0.060686 255 220 0
0.417763 0.159175 0.082057 255 220 0
0.409488 0.107797 0.059753 255 220 0
0.347600 0.125904 0.075836 255 220 0
0.342361 0.164853 0.081533 255 220 0
0.331602 0.098649 0.039473 255 220 0
0.346268 0.134917 0.077487 255 220 0
0.366372 0.205441 0.100756 255 220 0
0.338640 0.193244 0.074862 255 220 0
0.405487 0.221069 0.065882 255 220 0
0.359674 0.062577 0.049100 255 220 0
0.406593 0.173887 0.033747 255 220 0
0.335822 0.166365 0.039730 255 220 0
0.381000 0.155781 0.099439 255 220 0
0.328859 0.084349 0.046422 255 220 0
0.347915 0.181425 0.089489 255 220 0
0.363003 0.176283 0.099150 255 220 0
0.399883 0.093912 0.050574 255 220 0
0.370048 0.123006 0.085995 255 220 0
0.420549 0.174166 0.075503 255 220 0
0.396307 0.088364 0.053938 255 220 0
0.418452 0.156816 0.048954 255 220 0
0.343541 0.159280 0.081620 255 220 0
0.332874 0.085753 0.055245 255 220 0
0.372603 0.175273 0.102906 255 220 0
0.381844 0.164791 0.021439 255 220 0
0.377071 0.177920 0.104400 255 220 0
0.354776 0.139361 0.023106 255 220 0
0.364373 0.090089 0.022780 255 220 0
0.371276 0.130041 0.089193 255 220 0
0.370032 0.233338 0.074755 255 220 0
0.403240 0.101316 0.047687 255 220 0
0.346336 0.112367 0.025255 255 220 0
0.396981 0.224401 0.057333 255 220 0
0.337778 0.176010 0.040388 255 220 0
0.368779 0.186840 0.103331 255 220 0
0.332820 0.146024 0.042238 255 220 0
0.356767 0.115309 0.077927 255 220 0
0.385729 0.098858 0.074959 255 220 0
0.361758 0.075908 0.027585 255 220 0
0.383737 0.199544 0.032355 255 220 0
0.343235 0.084116 0.026720 255 220 0
0.390066 0.234951 0.076793 255 220 0
0.332507 0.152236 0.042890 255 220 0
0.360603 0.225382 0.082589 255 220 0
0.350287 0.155873 0.026166 255 220 0
0.368603 0.072541 0.059427 255 220 0
0.331316 0.105674 0.048119 255 220 0
0.355135 0.060984 0.042758 255 220 0
0.379234 0.223900 0.095696 255 220 0
0.384156 0.075666 0.051926 255 220 0
0.405246 0.103955 0.066409 255 220 0
0.396608 0.099663 0.036748 255 220 0
0.376509 0.182263 0.024702 255 220 0
0.331499 0.087000 0.053342 255 220 0
0.347129 0.157000 0.027850 255 220 0
0.376555 0.235181 0.078956 255 220 0
0.390380 0.117399 0.024469 255 220 0
0.418852 0.138927 0.071936 255 220 0
0.359797 0.085099 0.067594 255 220 0
0.396054 0.088497 0.049306 255 220 0
0.361570 0.141564 0.021230 255 220 0
0.416987 0.197105 0.070600 255 220 0
0.338115 0.106442 0.062474 255 220 0
0.345452 0.205650 0.080912 255 220 0
0.415860 0.157843 0.043570 255 220 0
0.365399 0.229076 0.082495 255 220 0
0.337985 0.129776 0.067193 255 220 0
0.405701 0.180656 0.034866 255 220 0
0.350935 0.061103 0.042426 255 220 0
0.409298 0.173488 0.094676 255 220 0
0.396496 0.107199 0.076687 255 220 0
0.367017 0.065998 0.051570 255 220 0
0.348694 0.154129 0.085113 255 220 0
0.377348 0.177918 0.104437 255 220 0
0.418396 0.181665 0.080150 255 220 0
0.374780 0.078029 0.062136 255 220 0
0.341131 0.195852 0.078928 255 220 0
0.376209 0.089391 0.070589 255 220 0
0.398235 0.109311 0.077280 255 220 0
0.388087 0.094419 0.030838 255 220 0
0.331086 0.150325 0.059102 255 220 0
0.382159 0.230455 0.057462 255 220 0
0.420437 0.145053 0.067487 255 220 0
0.337699 0.129624 0.066768 255 220 0
0.360781 0.121286 0.020566 255 220 0
0.347490 0.204016 0.085037 255 220 0
0.402236 0.182055 0.100280 255 220 0
0.383924 0.206534 0.036481 255 220 0
0.331976 0.088869 0.035531 255 220 0
0.371288 0.077643 0.063031 255 220 0
0.373158 0.189188 0.026931 255 220 0
0.339259 0.082752 0.028720 255 220 0
0.400881 0.122625 0.030499 255 220 0
0.407181 0.113662 0.043618 255 220 0
0.366184 0.069568 0.057275 255 220 0
0.401307 0.140974 0.091297 255 220 0
0.347173 0.089017 0.024799 255 220 0
0.385513 0.076720 0.051833 255 220 0
0.335610 0.094112 0.031865 255 220 0
0.393602 0.205910 0.039134 255 220 0
0.407695 0.171369 0.095795 255 220 0
0.332346 0.160252 0.064962 255 220 0
0.332592 0.177006 0.063959 255 220 0
0.421428 0.155892 0.068355 255 220 0
0.352469 0.140383 0.084015 255 220 0
0.361952 0.122037 0.020345 255 220 0
0.397219 0.129615 0.088179 255 220 0
0.413842 0.125411 0.074895 255 220 0
0.388152 0.126205 0.088890 255 220 0
0.353578 0.220956 0.078311 255 220 0
0.371197 0.167801 0.100816 255 220 0
0.357152 0.172088 0.026010 255 220 0
0.373717 0.232890 0.063711 255 220 0
0.400062 0.116478 0.080839 255 220 0
0.384956 0.229058 0.056089 255 220 0
0.376446 0.226869 0.092785 255 220 0
0.349254 0.128721 0.078034 255 220 0
0.349515 0.075044 0.062074 255 220 0
0.419984 0.151056 0.073166 255 220 0
0.399011 0.124117 0.028513 255 220 0
0.402592 0.099891 0.064840 255 220 0
0.370468 0.075518 0.061485 255 220 0
0.365796 0.229817 0.081320 255 220 0
0.381540 0.141596 0.094987 255 220 0
0.361382 0.090722 0.022433 255 220 0
0.381689 0.125238 0.088978 255 220 0
0.353146 0.085972 0.023764 255 220 0
0.404610 0.150072 0.030142 255 220 0
0.344534 0.195640 0.042630 255 220 0
0.412110 0.201262 0.054295 255 220 0
0.368405 0.082257 0.066817 255 220 0
0.358774 0.223045 0.056004 255 220 0
0.379436 0.167749 0.021693 255 220 0
0.335329 0.150269 0.037813 255 220 0
0.407776 0.201058 0.046355 255 220 0
0.403998 0.219129 0.088790 255 220 0
0.418202 0.184821 0.079258 255 220 0
0.333178 0.112638 0.040082 255 220 0
0.332001 0.170039 0.049425 255 220 0
0.401303 0.097036 0.048953 255 220 0
0.375495 0.234001 0.065699 255 220 0
0.381286 0.185922 0.105776 255 220 0
0.343864 0.210954 0.065517 255 220 0
0.363650 0.109484 0.020328 255 220 0
0.342307 0.151285 0.030503 255 220 0
0.339185 0.115583 0.065022 255 220 0
0.391059 0.138788 0.022477 255 220 0
0.397761 0.218187 0.051089 255 220 0
0.406230 0.126284 0.035427 255 220 0
0.355924 0.205797 0.041222 255 220 0
0.391194 0.157024 0.022557 255 220 0
0.397020 0.132382 0.025904 255 220 0
0.409043 0.217611 0.071414 255 220 0
0.374407 0.142239 0.094440 255 220 0
0.363006 0.107960 0.077523 255 220 0
0.339054 0.166819 0.035764 255 220 0
0.358401 0.142206 0.022124 255 220 0
0.343634 0.135143 0.075065 255 220 0
0.420515 0.162269 0.054688 255 220 0
0.352263 0.061856 0.049846 255 220 0
0.347265 0.203074 0.085204 255 220 0
0.389240 0.217642 0.045946 255 220 0
0.361933 0.126108 0.020441 255 220 0
0.355742 0.184099 0.029716 255 220 0
0.380208 0.166433 0.021538 255 220 0
0.375710 0.113704 0.020436 255 220 0
0.331455 0.142519 0.046370 255 220 0
0.415054 0.197290 0.058243 255 220 0
0.346446 0.211766 0.076768 255 220 0
0.351008 0.215320 0.054206 255 220 0
0.346280 0.110218 0.070263 255 220 0
0.336546 0.083557 0.058615 255 220 0
0.416532 0.198551 0.068720 255 220 0
0.359979 0.217831 0.090408 255 220 0
0.341049 0.156568 0.031998 255 220 0
0.331303 0.070341 0.043705 255 220 0
0.418089 0.192612 0.068529 255 220 0
0.410711 0.140356 0.038122 255 220 0
0.402063 0.100377 0.066318 255 220 0
0.354627 0.156333 0.024495 255 220 0
0.391251 0.088245 0.062895 255 220 0
0.376073 0.074663 0.035653 255 220 0
0.395032 0.086702 0.053103 255 220 0
0.339116 0.098740 0.062400 255 220 0
0.359375 0.210566 0.043020 255 220 0
0.359609 0.112971 0.078226 255 220 0
0.384727 0.222256 0.097165 255 220 0
0.407512 0.164166 0.032933 255 220 0
0.331170 0.165412 0.060869 255 220 0
0.411525 0.130177 0.042405 255 220 0
0.346829 0.118295 0.072881 255 220 0
0.337241 0.162009 0.074518 255 220 0
0.335149 0.075048 0.056379 255 220 0
0.396011 0.229909 0.084436 255 220 0
0.330353 0.149708 0.054069 255 220 0
0.394533 0.221019 0.095563 255 220 0
0.340805 0.074345 0.059572 255 220 0
0.379894 0.076418 0.037149 255 220 0
0.337769 0.070618 0.033032 255 220 0
0.415775 0.124696 0.057153 255 220 0
0.363417 0.067203 0.055581 255 220 0
0.417477 0.143359 0.077432 255 220 0
0.352315 0.150459 0.086875 255 220 0
0.383895 0.190996 0.028229 255 220 0
0.419798 0.160543 0.052250 255 220 0
0.411105 0.112756 0.054687 255 220 0
0.343864 0.079773 0.061894 255 220 0
0.418176 0.152127 0.078614 255 220 0
0.349544 0.068849 0.030554 255 220 0
0.402451 0.226932 0.072907 255 220 0
0.355818 0.155851 0.090662 255 220 0
0.403914 0.196171 0.039208 255 220 0
0.387879 0.083092 0.059616 255 220 0
0.384494 0.173659 0.103943 255 220 0
0.408022 0.209494 0.090552 255 220 0
0.338353 0.188466 0.076241 255 220 0
0.350539 0.078881 0.063502 255 220 0
0.367428 0.225764 0.053985 255 220 0
0.331596 0.174003 0.059307 255 220 0
0.392404 0.083447 0.049775 255 220 0
0.377433 0.175391 0.103987 255 220 0
0.418023 0.134225 0.057438 255 220 0
0.353228 0.161292 0.025622 255 220 0
0.362643 0.087497 0.023256 255 220 0
0.357953 0.225675 0.062341 255 220 0
0.391387 0.131978 0.090583 255 220 0
0.407330 0.214625 0.087947 255 220 0
0.355398 0.094383 0.022272 255 220 0
0.330975 0.140298 0.050297 255 220 0
0.398544 0.106174 0.074873 255 220 0
0.338494 0.150164 0.033912 255 220 0
0.356271 0.184873 0.096510 255 220 0
0.381027 0.072243 0.048410 255 220 0
0.329091 0.088432 0.044352 255 220 0
0.389511 0.132775 0.091241 255 220 0
0.353962 0.185923 0.094887 255 220 0
0.348478 0.113580 0.072758 255 220 0
0.371244 0.220513 0.047195 255 220 0
0.360821 0.120849 0.081685 255 220 0
0.345257 0.067479 0.032307 255 220 0
0.403490 0.202836 0.098278 255 220 0
0.385059 0.183175 0.025610 255 220 0
0.375819 0.116504 0.020167 255 220 0
0.417736 0.185732 0.080253 255 220 0
0.385090 0.139333 0.094114 255 220 0
0.342172 0.207913 0.067403 255 220 0
0.353794 0.132565 0.023002 255 220 0
0.384616 0.101413 0.025705 255 220 0
0.416962 0.127740 0.059229 255 220 0
0.374424 0.171934 0.022423 255 220 0
0.363745 0.121649 0.083154 255 220 0
0.344736 0.210781 0.073326 255 220 0
0.394071 0.231715 0.065517 255 220 0
0.405354 0.181455 0.034808 255 220 0
0.382438 0.088564 0.029859 255 220 0
0.419443 0.147309 0.073581 255 220 0
0.382522 0.205663 0.035642 255 220 0
0.351154 0.196385 0.091731 255 220 0
0.372331 0.228645 0.056137 255 220 0
0.405135 0.164585 0.030850 255 220 0
0.398373 0.151936 0.096137 255 220 0
0.340501 0.171261 0.080349 255 220 0
0.342014 0.164143 0.032383 255 220 0
0.361410 0.167684 0.096607 255 220 0
0.390284 0.187822 0.105279 255 220 0
0.407049 0.218204 0.064677 255 220 0
0.337214 0.067873 0.035903 255 220 0
0.375224 0.234028 0.082172 255 220 0
0.366710 0.074305 0.030312 255 220 0
0.397390 0.090814 0.048564 255 220 0
0.350927 0.160293 0.026419 255 220 0
0.401753 0.115178 0.034046 255 220 0
0.386677 0.148931 0.097221 255 220 0
0.366401 0.230256 0.063153 255 220 0
0.357653 0.124451 0.021373 255 220 0
0.382673 0.158949 0.100363 255 220 0
0.358784 0.180772 0.027495 255 220 0
0.398385 0.102498 0.037199 255 220 0
0.411436 0.190776 0.091218 255 220 0
0.414392 0.133190 0.078829 255 220 0
0.417809 0.139952 0.075525 255 220 0
0.365046 0.132541 0.087840 255 220 0
0.406526 0.219767 0.083030 255 220 0
0.392857 0.163313 0.100600 255 220 0
0.388105 0.198438 0.032800 255 220 0
0.358432 0.096473 0.071728 255 220 0
0.411656 0.125467 0.044911 255 220 0
0.336686 0.131678 0.065943 255 220 0
0.409530 0.179289 0.038146 255 220 0
0.379071 0.127182 0.089628 255 220 0
0.373742 0.234661 0.077053 255 220 0
0.348822 0.136311 0.025439 255 220 0
0.412924 0.114838 0.060275 255 220 0
0.360412 0.064081 0.037533 255 220 0
0.335357 0.188445 0.068241 255 220 0
0.331104 0.143052 0.056377 255 220 0
0.358176 0.194895 0.097721 255 220 0
0.358476 0.196832 0.034066 255 220 0
0.418104 0.160005 0.081607 255 220 0
0.413376 0.142932 0.041670 255 220 0
0.350476 0.174381 0.091020 255 220 0
0.398102 0.107398 0.076009 255 220 0
0.368872 0.111391 0.020048 255 220 0
0.332502 0.125509 0.054543 255 220 0
0.376725 0.128954 0.090034 255 220 0
0.343508 0.076302 0.028142 255 220 0
0.398675 0.117138 0.030040 255 220 0
0.388502 0.148107 0.021421 255 220 0
0.385863 0.145852 0.096274 255 220 0
0.410343 0.135363 0.038693 255 220 0
0.399688 0.229210 0.070118 255 220 0
0.344775 0.131213 0.074972 255 220 0
0.367759 0.169555 0.099822 255 220 0
0.373883 0.227429 0.091437 255 220 0
0.415096 0.173148 0.088227 255 220 0
0.393524 0.090971 0.064046 255 220 0
0.374885 0.165397 0.021328 255 220 0
0.403434 0.120959 0.081657 255 220 0
0.396547 0.192727 0.032783 255 220 0
0.383826 0.227744 0.054247 255 220 0
0.386008 0.234773 0.081600 255 220 0
0.336280 0.121128 0.035276 255 220 0
0.408316 0.148100 0.033995 255 220 0
0.400354 0.228003 0.080748 255 220 0
0.357929 0.064168 0.053245 255 220 0
0.399541 0.162186 0.026663 255 220 0
0.412555 0.209235 0.067130 255 220 0
0.385505 0.224775 0.095311 255 220 0
0.368619 0.219987 0.047385 255 220 0
0.368637 0.139648 0.019822 255 220 0
0.415363 0.151026 0.043484 255 220 0
0.399933 0.100090 0.041940 255 220 0
0.347815 0.114222 0.072473 255 220 0
0.391952 0.144800 0.095177 255 220 0
0.383654 0.084366 0.064026 255 220 0
0.337725 0.151133 0.072829 255 220 0
0.378127 0.115933 0.084851 255 220 0
0.389979 0.168833 0.023624 255 220 0
0.355984 0.097723 0.021922 255 220 0
0.336512 0.193990 0.067537 255 220 0
0.373828 0.187242 0.104949 255 220 0
0.365703 0.137981 0.020190 255 220 0
0.405899 0.222065 0.069707 255 220 0
0.395813 0.102145 0.033987 255 220 0
0.358745 0.074958 0.063047 255 220 0
0.384198 0.085668 0.064984 255 220 0
0.414918 0.165627 0.088159 255 220 0
0.412256 0.206341 0.083963 255 220 0
0.361383 0.135698 0.087390 255 220 0
0.379472 0.197233 0.030494 255 220 0
0.364716 0.230336 0.066415 255 220 0
0.396842 0.227530 0.061433 255 220 0
0.345395 0.207862 0.052817 255 220 0
0.333151 0.106501 0.038350 255 220 0
0.332143 0.177794 0.056294 255 220 0
0.330812 0.157616 0.048740 255 220 0
0.375522 0.217986 0.098752 255 220 0
0.360580 0.191701 0.099512 255 220 0
0.389053 0.145552 0.095870 255 220 0
0.406004 0.160904 0.095398 255 220 0
0.409700 0.155874 0.091623 255 220 0
0.389433 0.198169 0.105405 255 220 0
0.399703 0.197798 0.037087 255 220 0
0.405742 0.200012 0.043190 255 220 0
0.421277 0.172765 0.071902 255 220 0
0.346716 0.081743 0.025954 255 220 0
0.338669 0.180335 0.078166 255 220 0
0.375614 0.219846 0.045880 255 220 0
0.356060 0.141113 0.086487 255 220 0
0.406770 0.127786 0.035675 255 220 0
0.368706 0.129116 0.087970 255 220 0
0.382096 0.119951 0.021052 255 220 0
0.416594 0.140925 0.048894 255 220 0
0.416659 0.186927 0.082645 255 220 0
0.412825 0.155829 0.088545 255 220 0
0.390248 0.164796 0.101404 255 220 0
0.371917 0.101936 0.021500 255 220 0
0.417847 0.141560 0.052006 255 220 0
0.375247 0.128107 0.089446 255 220 0
0.363395 0.090353 0.022625 255 220 0
0.386291 0.172027 0.023298 255 220 0
0.330616 0.160418 0.058306 255 220 0
0.333140 0.144823 0.063548 255 220 0
0.389689 0.083481 0.058220 255 220 0
0.393907 0.089704 0.062100 255 220 0
0.387559 0.135536 0.092555 255 220 0
0.342217 0.107583 0.066450 255 220 0
0.402732 0.181821 0.099953 255 220 0
0.391741 0.121794 0.086320 255 220 0
0.397682 0.207577 0.042158 255 220 0
0.391901 0.230222 0.087922 255 220 0
0.379038 0.194345 0.105982 255 220 0
0.404193 0.215029 0.054728 255 220 0
0.405303 0.114744 0.039428 255 220 0
0.334395 0.189247 0.060757 255 220 0
0.333749 0.166353 0.043306 255 220 0
0.350019 0.091132 0.023730 255 220 0
0.410436 0.120777 0.045184 255 220 0
0.377974 0.102740 0.078460 255 220 0
0.348885 0.137662 0.025491 255 220 0
0.341169 0.172072 0.035090 255 220 0
0.330421 0.098559 0.046320 255 220 0
0.361832 0.158630 0.094548 255 220 0
0.342407 0.129042 0.072023 255 220 0
0.418309 0.185787 0.078348 255 220 0
0.419709 0.141099 0.060100 255 220 0
0.342367 0.135286 0.073827 255 220 0
0.385958 0.177323 0.024295 255 220 0
0.361114 0.084205 0.067414 255 220 0
0.388742 0.125633 0.022552 255 220 0
0.368972 0.149511 0.095080 255 220 0
0.395428 0.138813 0.024483 255 220 0
0.415166 0.161755 0.087139 255 220 0
0.383164 0.121230 0.021210 255 220 0
0.397697 0.180059 0.102331 255 220 0
0.364288 0.066259 0.053743 255 220 0
0.351090 0.165682 0.027154 255 220 0
0.371894 0.231746 0.084720 255 220 0
0.374176 0.125597 0.019464 255 220 0
0.332722 0.092366 0.055202 255 220 0
0.382308 0.181722 0.024830 255 220 0
0.366094 0.230154 0.063240 255 220 0
0.396317 0.218098 0.049910 255 220 0
0.411136 0.179145 0.092859 255 220 0
0.358248 0.061250 0.043681 255 220 0
0.381776 0.102430 0.024147 255 220 0
0.360553 0.096799 0.021498 255 220 0
0.364700 0.118570 0.082299 255 220 0
0.370576 0.208319 0.101737 255 220 0
0.376263 0.223131 0.095624 255 220 0
0.361831 0.063211 0.049336 255 220 0
0.367822 0.117747 0.019712 255 220 0
0.348185 0.210816 0.081398 255 220 0
0.414286 0.188087 0.048570 255 220 0
0.346904 0.113839 0.025032 255 220 0
0.418226 0.191695 0.072324 255 220 0
0.385703 0.105345 0.025045 255 220 0
0.411619 0.150731 0.037784 255 220 0
0.409561 0.208709 0.088384 255 220 0
0.352006 0.062834 0.052129 255 220 0
0.360635 0.072156 0.029650 255 220 0
0.405883 0.151840 0.093079 255 220 0
0.331868 0.111961 0.047526 255 220 0
0.388311 0.138439 0.021521 255 220 0
0.362286 0.198290 0.033278 255 220 0
0.350278 0.219488 0.064360 255 220 0
0.336709 0.184175 0.073937 255 220 0
0.330310 0.159814 0.054669 255 220 0
0.343044 0.119843 0.070020 255 220 0
0.332115 0.078794 0.034818 255 220 0
0.416597 0.154767 0.082765 255 220 0
0.355196 0.141847 0.023128 255 220 0
0.401860 0.216316 0.053152 255 220 0
0.350782 0.219974 0.072267 255 220 0
0.395357 0.183071 0.028694 255 220 0
0.398508 0.190022 0.032672 255 220 0
0.345442 0.119311 0.072023 255 220 0
0.345078 0.199473 0.083800 255 220 0
0.382877 0.122974 0.088048 255 220 0
0.362729 0.183973 0.027166 255 220 0
0.364417 0.182883 0.100933 255 220 0
0.350656 0.192943 0.091809 255 220 0
0.408151 0.186013 0.095671 255 220 0
0.328718 0.079134 0.044454 255 220 0
0.334974 0.068398 0.037679 255 220 0
0.396690 0.115142 0.028960 255 220 0
0.394362 0.086630 0.055990 255 220 0
0.405052 0.134006 0.032220 255 220 0
0.360923 0.076138 0.027268 255 220 0
0.390791 0.234852 0.075274 255 220 0
0.410772 0.121191 0.076082 255 220 0
0.359364 0.210022 0.094502 255 220 0
0.415127 0.121204 0.059059 255 220 0
0.403634 0.193062 0.099518 255 220 0
0.407018 0.109148 0.070140 255 220 0
0.361757 0.146424 0.090987 255 220 0
0.370299 0.191342 0.027971 255 220 0
0.358748 0.184322 0.028578 255 220 0
0.374379 0.170962 0.022249 255 220 0
0.410401 0.150822 0.036188 255 220 0
0.366865 0.108126 0.078822 255 220 0
0.363369 0.177156 0.025212 255 220 0
0.418215 0.182421 0.080349 255 220 0
0.344019 0.131685 0.074392 255 220 0
0.405017 0.149195 0.092692 255 220 0
0.379222 0.127677 0.089836 255 220 0
0.334360 0.108605 0.057707 255 220 0
0.388652 0.098354 0.029290 255 220 0
0.355503 0.153670 0.089866 255 220 0
0.406042 0.218547 0.062773 255 220 0
0.399620 0.104224 0.037764 255 220 0
0.360556 0.170523 0.096817 255 220 0
0.364005 0.219768 0.048815 255 220 0
0.421181 0.150898 0.063026 255 220 0
0.359070 0.068697 0.058787 255 220 0
0.369354 0.200508 0.032462 255 220 0
0.401759 0.227610 0.076622 255 220 0
0.338605 0.200582 0.066307 255 220 0
0.349644 0.203020 0.043388 255 220 0
0.333221 0.170388 0.067601 255 220 0
0.332171 0.118484 0.047376 255 220 0
0.360609 0.069788 0.059446 255 220 0
0.399943 0.118073 0.030926 255 220 0
0.377893 0.229249 0.055820 255 220 0
0.386403 0.236005 0.073649 255 220 0
0.405339 0.216602 0.058563 255 220 0
0.414307 0.200478 0.059614 255 220 0
0.387839 0.229945 0.058133 255 220 0
0.339602 0.183192 0.079473 255 220 0
0.359924 0.154600 0.092538 255 220 0
0.329185 0.077067 0.046748 255 220 0
0.390975 0.159507 0.099915 255 220 0
0.356179 0.067683 0.031936 255 220 0
0.338088 0.134957 0.068826 255 220 0
0.393725 0.092765 0.038319 255 220 0
0.394916 0.193093 0.032216 255 220 0
0.398679 0.130651 0.027170 255 220 0
0.379041 0.220532 0.046380 255 220 0
0.421933 0.166771 0.066514 255 220 0
0.393580 0.155290 0.098290 255 220 0
0.420743 0.179420 0.066122 255 220 0
0.397265 0.172760 0.101418 255 220 0
0.353451 0.084165 0.024115 255 220 0
0.402914 0.098462 0.061550 255 220 0
0.413112 0.208745 0.069481 255 220 0
0.332150 0.123207 0.050948 255 220 0
0.359526 0.114674 0.078830 255 220 0
0.356811 0.128914 0.021781 255 220 0
0.386734 0.235841 0.071524 255 220 0
0.333500 0.168297 0.068358 255 220 0
0.387821 0.094491 0.070946 255 220 0
0.375618 0.234141 0.082144 255 220 0
0.367917 0.211822 0.040650 255 220 0
0.377172 0.208581 0.103430 255 220 0
0.371561 0.118787 0.084726 255 220 0
0.360863 0.066966 0.056366 255 220 0
0.330832 0.141576 0.051251 255 220 0
0.371060 0.195506 0.104348 255 220 0
0.391305 0.082695 0.053792 255 220 0
0.379074 0.095580 0.025106 255 220 0
0.416217 0.169156 0.086552 255 220 0
0.368125 0.194753 0.103318 255 220 0
0.400910 0.101303 0.042594 255 220 0
0.343768 0.108000 0.067801 255 220 0
0.414059 0.121138 0.070596 255 220 0
0.366485 0.137064 0.090043 255 220 0
0.392053 0.219921 0.097343 255 220 0
0.385576 0.109298 0.023982 255 220 0
0.364461 0.103448 0.076228 255 220 0
0.351111 0.089026 0.066755 255 220 0
0.400974 0.166575 0.098924 255 220 0
0.350222 0.140496 0.025027 255 220 0
0.402057 0.100133 0.046359 255 220 0
0.393483 0.096325 0.069592 255 220 0
0.370988 0.078102 0.029616 255 220 0
0.390786 0.081697 0.047899 255 220 0
0.345445 0.213289 0.064472 255 220 0
0.398184 0.149032 0.025490 255 220 0
0.340975 0.107020 0.065282 255 220 0
0.333169 0.073778 0.035150 255 220 0
0.405700 0.183457 0.097908 255 220 0
0.395227 0.100517 0.072255 255 220 0
0.380240 0.178931 0.104879 255 220 0
0.354734 0.162509 0.025232 255 220 0
0.358285 0.224507 0.059017 255 220 0
0.358246 0.219526 0.051954 255 220 0
0.351051 0.118545 0.023344 255 220 0
0.391835 0.157748 0.099300 255 220 0
0.360736 0.102113 0.020993 255 220 0
0.347538 0.206880 0.048779 255 220 0
0.387240 0.183523 0.026134 255 220 0
0.363453 0.142844 0.090640 255 220 0
0.415592 0.200412 0.077006 255 220 0
0.354070 0.142281 0.085641 255 220 0
0.377415 0.144983 0.095853 255 220 0
0.411166 0.139002 0.039065 255 220 0
0.341598 0.100983 0.064713 255 220 0
0.340370 0.067264 0.034413 255 220 0
0.354933 0.147279 0.023596 255 220 0
0.385888 0.215415 0.101023 255 220 0
0.361682 0.090078 0.022577 255 220 0
0.400287 0.183123 0.031491 255 220 0
0.375770 0.115396 0.084276 255 220 0
0.334526 0.068511 0.038147 255 220 0
0.399122 0.099821 0.040706 255 220 0
0.399039 0.217007 0.050976 255 220 0
0.414266 0.147494 0.084111 255 220 0
0.355203 0.153646 0.024028 255 220 0
0.355690 0.207792 0.092365 255 220 0
0.332957 0.114611 0.041320 255 220 0
0.385629 0.228598 0.055689 255 220 0
0.372719 0.223336 0.094361 255 220 0
0.342018 0.179365 0.036828 255 220 0
0.408481 0.218705 0.072200 255 220 0
0.346826 0.157282 0.028051 255 220 0
0.397308 0.190727 0.103434 255 220 0
0.403052 0.216695 0.055107 255 220 0
0.403694 0.142323 0.090850 255 220 0
0.415577 0.154918 0.043321 255 220 0
0.391380 0.090317 0.065096 255 220 0
0.357132 0.174366 0.095710 255 220 0
0.413019 0.117411 0.055124 255 220 0
0.381696 0.190405 0.027695 255 220 0
0.342057 0.198493 0.047627 255 220 0
0.341065 0.200122 0.076076 255 220 0
0.367832 0.194581 0.029749 255 220 0
0.362130 0.191120 0.029860 255 220 0
0.395239 0.131084 0.089333 255 220 0
0.342640 0.207520 0.071597 255 220 0
0.406522 0.155013 0.031685 255 220 0
0.334957 0.150516 0.068520 255 220 0
0.344880 0.141000 0.028079 255 220 0
0.330576 0.150550 0.056566 255 220 0
0.389605 0.080632 0.046499 255 220 0
0.342466 0.071717 0.030251 255 220 0
0.360684 0.139656 0.088391 255 220 0
0.421417 0.153246 0.063523 255 220 0
0.343647 0.202604 0.079762 255 220 0
0.366502 0.080216 0.065704 255 220 0
0.357453 0.081097 0.024795 255 220 0
0.340994 0.195012 0.046347 255 220 0
0.407111 0.108790 0.048048 255 220 0
0.387145 0.141319 0.021084 255 220 0
0.346714 0.154224 0.083426 255 220 0
0.401071 0.159579 0.027409 255 220 0
0.412726 0.117434 0.069420 255 220 0
0.355857 0.183231 0.096094 255 220 0
0.330696 0.097491 0.049895 255 220 0
0.406218 0.207820 0.093860 255 220 0
0.415157 0.202208 0.066514 255 220 0
0.382960 0.142439 0.020100 255 220 0
0.417599 0.128977 0.061685 255 220 0
0.393685 0.199114 0.104344 255 220 0
0.336904 0.192486 0.051934 255 220 0
0.408423 0.178824 0.095550 255 220 0
0.379230 0.217781 0.099599 255 220 0
0.341736 0.143260 0.075477 255 220 0
0.410680 0.110446 0.063461 255 220 0
0.395733 0.224033 0.092380 255 220 0
0.371474 0.117595 0.084202 255 220 0
0.373500 0.146066 0.019646 255 220 0
0.362505 0.106668 0.020583 255 220 0
0.352785 0.070614 0.029371 255 220 0
0.343338 0.210092 0.066258 255 220 0
0.334010 0.175407 0.046782 255 220 0
0.416308 0.169667 0.086422 255 220 0
0.409066 0.197285 0.045470 255 220 0
0.392503 0.227594 0.057625 255 220 0
0.412630 0.202477 0.056899 255 220 0
0.413627 0.119566 0.054686 255 220 0
0.379578 0.136741 0.019607 255 220 0
0.361068 0.213600 0.044684 255 220 0
0.411749 0.202002 0.087685 255 220 0
0.337292 0.120292 0.033701 255 220 0
0.336260 0.087228 0.058717 255 220 0
0.337951 0.080423 0.059288 255 220 0
0.342444 0.166632 0.032542 255 220 0
0.403843 0.126840 0.032383 255 220 0
0.344259 0.065079 0.035424 255 220 0
0.395020 0.207103 0.102183 255 220 0
0.348528 0.206192 0.085267 255 220 0
0.406867 0.119652 0.078709 255 220 0
0.391886 0.166821 0.101621 255 220 0
0.414328 0.121646 0.054846 255 220 0
0.357331 0.071057 0.060865 255 220 0
0.336105 0.187900 0.049992 255 220 0
0.398464 0.091840 0.057829 255 220 0
0.361170 0.227538 0.062231 255 220 0
0.385930 0.096268 0.073040 255 220 0
0.364290 0.083313 0.067365 255 220 0
0.391065 0.133520 0.022778 255 220 0
0.348956 0.215848 0.058491 255 220 0
0.413843 0.188853 0.048159 255 220 0
0.408639 0.137249 0.035880 255 220 0
0.339461 0.201946 0.058031 255 220 0
0.418810 0.136661 0.070442 255 220 0
0.390298 0.206695 0.038417 255 220 0
0.351803 0.168868 0.091106 255 220 0
0.366530 0.192376 0.029104 255 220 0
0.373175 0.200427 0.104499 255 220 0
0.344515 0.129199 0.074125 255 220 0
0.394218 0.106679 0.030017 255 220 0
0.333484 0.185079 0.057850 255 220 0
0.357421 0.075206 0.063122 255 220 0
0.362567 0.093824 0.021866 255 220 0
0.362875 0.212819 0.095725 255 220 0
0.397408 0.136248 0.025807 255 220 0
0.404648 0.193345 0.098655 255 220 0
0.361760 0.067526 0.034040 255 220 0
0.341992 0.199439 0.078625 255 220 0
0.418751 0.162422 0.080847 255 220 0
0.394320 0.170946 0.025448 255 220 0
0.353309 0.144694 0.024007 255 220 0
0.389136 0.121566 0.086764 255 220 0
0.401615 0.204776 0.042740 255 220 0
0.331733 0.108060 0.050144 255 220 0
0.367213 0.221929 0.092682 255 220 0
0.419881 0.145130 0.071024 255 220 0
0.374445 0.070427 0.039085 255 220 0
0.409211 0.159026 0.092818 255 220 0
0.360914 0.171653 0.024737 255 220 0
0.421356 0.172592 0.062395 255 220 0
0.409088 0.140671 0.087145 255 220 0
0.376869 0.206102 0.104119 255 220 0
0.377056 0.157872 0.099742 255 220 0
0.420322 0.147305 0.058444 255 220 0
0.373435 0.234105 0.068393 255 220 0
0.357744 0.122773 0.081093 255 220 0
0.346386 0.103855 0.024864 255 220 0
0.335355 0.155756 0.070375 255 220 0
0.408413 0.218195 0.069481 255 220 0
0.410174 0.139766 0.037475 255 220 0
0.421544 0.168929 0.061296 255 220 0
0.355426 0.118626 0.078480 255 220 0
0.373467 0.169428 0.022048 255 220 0
0.353972 0.175803 0.093886 255 220 0
0.346085 0.134382 0.077159 255 220 0
0.387130 0.194196 0.030327 255 220 0
0.421773 0.165080 0.069732 255 220 0
0.357525 0.063297 0.051767 255 220 0
0.398733 0.229250 0.067485 255 220 0
0.377188 0.074815 0.057549 255 220 0
0.332815 0.072394 0.052563 255 220 0
0.357079 0.073585 0.027995 255 220 0
0.335428 0.148270 0.068745 255 220 0
0.373443 0.107954 0.080498 255 220 0
0.385821 0.149497 0.097456 255 220 0
0.367620 0.064492 0.042430 255 220 0
0.420673 0.179972 0.069256 255 220 0
0.414468 0.205520 0.072945 255 220 0
0.367972 0.073492 0.060550 255 220 0
0.354397 0.064171 0.035470 255 220 0
0.361011 0.062774 0.048766 255 220 0
0.360482 0.146088 0.090299 255 220 0
0.419254 0.148333 0.074529 255 220 0
0.339756 0.182281 0.040584 255 220 0
0.367036 0.178811 0.024755 255 220 0
0.338922 0.127661 0.067757 255 220 0
0.341550 0.164468 0.080530 255 220 0
0.337466 0.176460 0.041016 255 220 0
0.349526 0.140229 0.025343 255 220 0
0.333786 0.086767 0.056349 255 220 0
0.366797 0.066425 0.038192 255 220 0
0.359868 0.064911 0.053759 255 220 0
0.332704 0.144537 0.062425 255 220 0
0.382457 0.210898 0.039031 255 220 0
0.390064 0.112404 0.082179 255 220 0
0.345073 0.073037 0.028904 255 220 0
0.343813 0.121737 0.027466 255 220 0
0.336996 0.072381 0.056900 255 220 0
0.366932 0.099203 0.075160 255 220 0
0.341090 0.198249 0.048838 255 220 0
0.408811 0.118184 0.043564 255 220 0
0.346487 0.061510 0.042966 255 220 0
0.358414 0.085977 0.023420 255 220 0
0.395157 0.168678 0.101300 255 220 0
0.372210 0.151754 0.020066 255 220 0
0.335232 0.121047 0.060609 255 220 0
0.373884 0.072892 0.057235 255 220 0
0.342952 0.137128 0.029268 255 220 0
0.412806 0.168255 0.090994 255 220 0
0.376682 0.207834 0.103579 255 220 0
0.350959 0.109201 0.073020 255 220 0
0.403189 0.215862 0.054307 255 220 0
0.361421 0.066404 0.035098 255 220 0
0.338606 0.163964 0.076763 255 220 0
0.338165 0.176466 0.040050 255 220 0
0.339022 0.123406 0.066690 255 220 0
0.358105 0.204913 0.039398 255 220 0
0.403512 0.144627 0.091795 255 220 0
0.361400 0.211331 0.095428 255 220 0
0.334801 0.160481 0.070284 255 220 0
0.419954 0.151714 0.073555 255 220 0
0.333397 0.183436 0.055333 255 220 0
0.410756 0.111192 0.065123 255 220 0
0.381646 0.108007 0.081196 255 220 0
0.398106 0.111581 0.078831 255 220 0
0.331729 0.102254 0.040792 255 220 0
0.344058 0.117522 0.026990 255 220 0
0.418919 0.152917 0.050877 255 220 0
0.364304 0.173317 0.024161 255 220 0
0.396985 0.147202 0.024875 255 220 0
0.361880 0.115459 0.020363 255 220 0
0.376454 0.072265 0.038640 255 220 0
0.382371 0.211272 0.102960 255 220 0
0.371981 0.095130 0.074112 255 220 0
0.420017 0.140757 0.064578 255 220 0
0.347507 0.156039 0.084608 255 220 0
0.369008 0.195723 0.030033 255 220 0
0.416678 0.161730 0.044947 255 220 0
0.415344 0.198699 0.080163 255 220 0
0.340106 0.181940 0.080340 255 220 0
0.393870 0.127495 0.088237 255 220 0
0.374064 0.118735 0.085372 255 220 0
0.405500 0.138764 0.032048 255 220 0
0.349744 0.063628 0.053607 255 220 0
0.338150 0.073225 0.057967 255 220 0
0.336324 0.157457 0.037096 255 220 0
0.420669 0.152456 0.057400 255 220 0
0.354611 0.219075 0.054723 255 220 0
0.332356 0.179314 0.059822 255 220 0
0.334295 0.151576 0.039457 255 220 0
0.399331 0.109226 0.076643 255 220 0
0.360050 0.111163 0.077711 255 220 0
0.396413 0.122214 0.085199 255 220 0
0.405933 0.164638 0.031534 255 220 0
0.367196 0.067104 0.053379 255 220 0
0.331263 0.084236 0.052956 255 220 0
0.373425 0.156236 0.020323 255 220 0
0.362037 0.163128 0.023065 255 220 0
0.416377 0.135709 0.050799 255 220 0
0.352508 0.207832 0.045064 255 220 0
0.407301 0.179057 0.096508 255 220 0
0.416107 0.185369 0.050842 255 220 0
0.409985 0.201891 0.050492 255 220 0
0.333665 0.078897 0.033091 255 220 0
0.380716 0.219183 0.045272 255 220 0
0.342754 0.109687 0.067335 255 220 0
0.388036 0.203232 0.104887 255 220 0
0.331482 0.107363 0.048093 255 220 0
0.400287 0.104025 0.038994 255 220 0
0.392110 0.087498 0.041070 255 220 0
0.414879 0.203008 0.066539 255 220 0
0.353271 0.186079 0.031584 255 220 0
0.385175 0.193589 0.029619 255 220 0
0.336787 0.187581 0.048244 255 220 0
0.335953 0.194285 0.058675 255 220 0
0.330684 0.092193 0.051311 255 220 0
0.407699 0.125024 0.081213 255 220 0
0.364092 0.145100 0.020878 255 220 0
0.330590 0.146359 0.050216 255 220 0
0.368269 0.072502 0.032566 255 220 0
0.351814 0.144722 0.084864 255 220 0
0.351077 0.195773 0.091775 255 220 0
0.414166 0.119444 0.067977 255 220 0
0.412908 0.147012 0.085699 255 220 0
0.413547 0.135935 0.081171 255 220 0
0.345319 0.137735 0.077471 255 220 0
0.331339 0.167997 0.061236 255 220 0
0.403133 0.145175 0.092156 255 220 0
0.342056 0.197267 0.046618 255 220 0
0.407865 0.215006 0.061438 255 220 0
0.372687 0.143924 0.019604 255 220 0
0.420841 0.156809 0.072377 255 220 0
0.357111 0.140095 0.022373 255 220 0
0.343935 0.210801 0.069155 255 220 0
0.372635 0.213389 0.100392 255 220 0
0.363018 0.208265 0.097832 255 220 0
0.346444 0.204557 0.047714 255 220 0
0.386193 0.087250 0.033704 255 220 0
0.357183 0.163791 0.093520 255 220 0
0.411559 0.201162 0.052952 255 220 0
0.348432 0.137685 0.080184 255 220 0
0.415248 0.195966 0.057349 255 220 0
0.421975 0.164108 0.065603 255 220 0
0.344593 0.173944 0.032782 255 220 0
0.329474 0.088458 0.048219 255 220 0
0.403556 0.152279 0.029141 255 220 0
0.337546 0.154800 0.073487 255 220 0
0.393149 0.144500 0.023090 255 220 0
0.393814 0.222917 0.094466 255 220 0
0.381411 0.087548 0.029752 255 220 0
0.374297 0.193746 0.105270 255 220 0
0.331894 0.128686 0.052066 255 220 0
0.372707 0.213474 0.100375 255 220 0
0.413057 0.205439 0.062209 255 220 0
0.399228 0.144759 0.026350 255 220 0
0.421867 0.164563 0.062745 255 220 0
0.341425 0.162621 0.032591 255 220 0
0.372947 0.203123 0.103972 255 220 0
0.385231 0.135671 0.092818 255 220 0
0.385507 0.125554 0.021453 255 220 0
0.391733 0.093502 0.035020 255 220 0
0.332828 0.177473 0.064770 255 220 0
0.405353 0.117384 0.037954 255 220 0
0.381355 0.225202 0.094976 255 220 0
0.341200 0.206254 0.065556 255 220 0
0.418800 0.135524 0.069364 255 220 0
0.403852 0.104649 0.045113 255 220 0
0.393795 0.174308 0.025897 255 220 0
0.407270 0.187824 0.038728 255 220 0
0.374401 0.175236 0.023078 255 220 0
0.413320 0.125153 0.075538 255 220 0
0.349163 0.072328 0.060983 255 220 0
0.411183 0.206925 0.058390 255 220 0
