ply
format ascii 1.0
element vertex 1024
property float x
property float y
property float z
property uchar red
property uchar green
property uchar blue
end_header
0.644033 0.191889 0.262214 255 220 0
0.632552 0.081520 0.198312 255 220 0
0.602702 0.038650 0.206558 255 220 0
0.600039 0.043910 0.197608 255 220 0
0.656310 0.100382 0.211286 255 220 0
0.584801 0.104068 0.229992 255 220 0
0.631167 0.140834 0.286287 255 220 0
0.586676 0.068361 0.234811 255 220 0
0.597605 0.034990 0.212856 255 220 0
0.659206 0.116904 0.210651 255 220 0
0.664273 0.102501 0.221490 255 220 0
0.610120 0.055378 0.194745 255 220 0
0.591960 0.082738 0.243337 255 220 0
0.590671 0.126359 0.237774 255 220 0
0.670837 0.164154 0.275570 255 220 0
0.629662 0.185460 0.264570 255 220 0
0.583096 0.071171 0.190139 255 220 0
0.674430 0.142362 0.230450 255 220 0
0.637080 0.080772 0.268118 255 220 0
0.633362 0.183801 0.231134 255 220 0
0.607943 0.041338 0.206232 255 220 0
0.674924 0.156330 0.237551 255 220 0
0.588244 0.036484 0.214999 255 220 0
0.648281 0.158863 0.212698 255 220 0
0.644094 0.137485 0.203736 255 220 0
0.591014 0.049224 0.231100 255 220 0
0.568953 0.046576 0.200028 255 220 0
0.657703 0.180430 0.278552 255 220 0
0.631582 0.141699 0.201924 255 220 0
0.658311 0.081330 0.240458 255 220 0
0.636234 0.063029 0.253777 255 220 0
0.629614 0.087068 0.196041 255 220 0
0.628833 0.095089 0.195383 255 220 0
0.646582 0.114296 0.202190 255 220 0
0.589944 0.117849 0.208189 255 220 0
0.651971 0.186688 0.274174 255 220 0
0.652352 0.137885 0.207352 255 220 0
0.617743 0.054796 0.199717 255 220 0
0.611876 0.108914 0.194191 255 220 0
0.596515 0.128211 0.251874 255 220 0
0.612190 0.078542 0.260275 255 220 0
0.609381 0.038928 0.212534 255 220 0
0.611337 0.171112 0.228158 255 220 0
0.643948 0.152156 0.289557 255 220 0
0.655294 0.097477 0.211284 255 220 0
0.582802 0.095664 0.227965 255 220 0
0.592869 0.136208 0.238636 255 220 0
0.601262 0.046013 0.196278 255 220 0
0.644799 0.103441 0.201730 255 220 0
0.596605 0.075734 0.189187 255 220 0
0.605198 0.157024 0.217910 255 220 0
0.668342 0.133845 0.219889 255 220 0
0.602903 0.123482 0.199779 255 220 0
0.635578 0.071280 0.203945 255 220 0
0.639740 0.074398 0.263536 255 220 0
0.571083 0.072874 0.212615 255 220 0
0.660385 0.103677 0.269880 255 220 0
0.626011 0.175314 0.274062 255 220 0
0.639935 0.108594 0.199249 255 220 0
0.620868 0.138546 0.281012 255 220 0
0.629055 0.096333 0.195450 255 220 0
0.595518 0.110650 0.251553 255 220 0
0.581716 0.047922 0.190948 255 220 0
0.634571 0.142149 0.202508 255 220 0
0.623083 0.166967 0.215155 255 220 0
0.602188 0.161339 0.240821 255 220 0
0.673088 0.124829 0.228978 255 220 0
0.658077 0.189607 0.250562 255 220 0
0.621947 0.170681 0.273944 255 220 0
0.665524 0.158353 0.225129 255 220 0
0.656195 0.173610 0.227337 255 220 0
0.585252 0.054301 0.229680 255 220 0
0.662694 0.088651 0.244607 255 220 0
0.592959 0.049600 0.191238 255 220 0
0.643295 0.114134 0.282653 255 220 0
0.623983 0.173961 0.273274 255 220 0
0.627405 0.054211 0.245329 255 220 0
0.615379 0.086906 0.265335 255 220 0
0.575267 0.084193 0.212278 255 220 0
0.677684 0.139325 0.239720 255 220 0
0.649399 0.153171 0.289220 255 220 0
0.599818 0.100406 0.256054 255 220 0
0.674446 0.130564 0.230999 255 220 0
0.635665 0.153487 0.288055 255 220 0
0.590026 0.131265 0.229912 255 220 0
0.568942 0.067030 0.211796 255 220 0
0.616768 0.090952 0.267504 255 220 0
0.673760 0.148054 0.231001 255 220 0
0.668559 0.100420 0.249911 255 220 0
0.584540 0.066197 0.232184 255 220 0
0.610051 0.121187 0.196872 255 220 0
0.676034 0.153184 0.266280 255 220 0
0.676851 0.154938 0.263197 255 220 0
0.608825 0.162043 0.261613 255 220 0
0.645742 0.175284 0.283171 255 220 0
0.570002 0.071798 0.202218 255 220 0
0.661437 0.150661 0.217305 255 220 0
0.612777 0.104688 0.269523 255 220 0
0.598863 0.078130 0.189452 255 220 0
0.665831 0.172713 0.235390 255 220 0
0.583836 0.106040 0.212786 255 220 0
0.674131 0.170679 0.250246 255 220 0
0.644206 0.103099 0.278417 255 220 0
0.674239 0.140545 0.268148 255 220 0
0.632691 0.056764 0.213214 255 220 0
0.615688 0.044938 0.234260 255 220 0
0.653537 0.137098 0.286049 255 220 0
0.667886 0.181472 0.267955 255 220 0
0.639084 0.164314 0.213507 255 220 0
0.586075 0.038043 0.200427 255 220 0
0.593162 0.134674 0.240901 255 220 0
0.657067 0.137589 0.210082 255 220 0
0.615550 0.074605 0.259940 255 220 0
0.619489 0.109035 0.194474 255 220 0
0.657054 0.190637 0.263318 255 220 0
0.631349 0.188265 0.259569 255 220 0
0.600139 0.111138 0.257826 255 220 0
0.674610 0.152518 0.269904 255 220 0
0.645481 0.156308 0.210379 255 220 0
0.601391 0.135487 0.259399 255 220 0
0.629104 0.180780 0.228207 255 220 0
0.632237 0.167712 0.283369 255 220 0
0.568987 0.069116 0.200796 255 220 0
0.652610 0.082055 0.216462 255 220 0
0.673270 0.117327 0.232797 255 220 0
0.674548 0.140734 0.267563 255 220 0
0.618728 0.179292 0.233889 255 220 0
0.583484 0.099931 0.207200 255 220 0
0.673510 0.157690 0.272213 255 220 0
0.616529 0.170691 0.221515 255 220 0
0.610459 0.101008 0.266900 255 220 0
0.618662 0.077312 0.262511 255 220 0
0.674519 0.115199 0.244052 255 220 0
0.602184 0.123926 0.261131 255 220 0
0.622058 0.165900 0.277299 255 220 0
0.623157 0.152655 0.282280 255 220 0
0.577145 0.088492 0.211383 255 220 0
0.624822 0.102052 0.274795 255 220 0
0.589351 0.129083 0.220853 255 220 0
0.657011 0.106473 0.274566 255 220 0
0.639903 0.060557 0.246199 255 220 0
0.588026 0.101419 0.238734 255 220 0
0.595668 0.139795 0.245504 255 220 0
0.578753 0.079807 0.196687 255 220 0
0.589563 0.110365 0.240560 255 220 0
0.623302 0.169659 0.276129 255 220 0
0.605557 0.167034 0.240540 255 220 0
0.675695 0.167302 0.260641 255 220 0
0.585439 0.036573 0.213058 255 220 0
0.671890 0.121142 0.227253 255 220 0
0.607064 0.140937 0.204744 255 220 0
0.617939 0.118151 0.276024 255 220 0
0.568472 0.068039 0.200699 255 220 0
0.603323 0.153579 0.256467 255 220 0
0.610388 0.143819 0.270688 255 220 0
0.630294 0.050691 0.232796 255 220 0
0.601930 0.091026 0.256458 255 220 0
0.667429 0.118890 0.270996 255 220 0
0.623923 0.047105 0.233996 255 220 0
0.669682 0.101899 0.244229 255 220 0
0.594585 0.134202 0.245529 255 220 0
0.568922 0.068412 0.210476 255 220 0
0.616648 0.139548 0.277748 255 220 0
0.652483 0.121151 0.205571 255 220 0
0.620806 0.140429 0.281086 255 220 0
0.619656 0.107805 0.194329 255 220 0
0.609801 0.058595 0.193228 255 220 0
0.604297 0.097287 0.260511 255 220 0
0.646803 0.192444 0.256224 255 220 0
0.636974 0.056109 0.232119 255 220 0
0.601786 0.086099 0.190575 255 220 0
0.673085 0.173006 0.249815 255 220 0
0.611996 0.149180 0.206985 255 220 0
0.617500 0.151708 0.277720 255 220 0
0.596085 0.123388 0.204027 255 220 0
0.591056 0.088330 0.243223 255 220 0
0.610621 0.062116 0.250170 255 220 0
0.600510 0.046751 0.195332 255 220 0
0.662561 0.153320 0.219501 255 220 0
0.588229 0.061196 0.188140 255 220 0
0.663505 0.186603 0.265975 255 220 0
0.597845 0.129297 0.205073 255 220 0
0.632861 0.189098 0.259049 255 220 0
0.620729 0.124960 0.196916 255 220 0
0.592589 0.043135 0.226896 255 220 0
0.577706 0.086974 0.205156 255 220 0
0.583506 0.036382 0.205340 255 220 0
0.642911 0.181627 0.278136 255 220 0
0.609797 0.039749 0.226298 255 220 0
0.632308 0.059010 0.250321 255 220 0
0.635052 0.056345 0.219366 255 220 0
0.653115 0.139523 0.208105 255 220 0
0.568965 0.069956 0.208313 255 220 0
0.617819 0.127288 0.197346 255 220 0
0.651341 0.191990 0.262767 255 220 0
0.641109 0.074293 0.207312 255 220 0
0.654461 0.086670 0.263844 255 220 0
0.586571 0.058568 0.232143 255 220 0
0.625572 0.047023 0.229659 255 220 0
0.626931 0.107191 0.195430 255 220 0
0.674759 0.141136 0.267219 255 220 0
0.578108 0.086077 0.221027 255 220 0
0.613490 0.176370 0.249858 255 220 0
0.669979 0.103468 0.238379 255 220 0
0.638301 0.190724 0.261152 255 220 0
0.584715 0.108030 0.227443 255 220 0
0.673184 0.127812 0.228555 255 220 0
0.580135 0.038036 0.203425 255 220 0
0.650182 0.123690 0.284192 255 220 0
0.622092 0.065937 0.256675 255 220 0
0.591925 0.037162 0.218473 255 220 0
0.595676 0.127738 0.250254 255 220 0
0.621024 0.140327 0.281227 255 220 0
0.666545 0.126933 0.275116 255 220 0
0.598756 0.046088 0.232269 255 220 0
0.607025 0.168782 0.245473 255 220 0
0.600823 0.056619 0.241619 255 220 0
0.624102 0.067282 0.258084 255 220 0
0.628249 0.054284 0.210173 255 220 0
0.589600 0.129102 0.219232 255 220 0
0.662747 0.184142 0.244766 255 220 0
0.659788 0.091463 0.260932 255 220 0
0.584584 0.107968 0.226928 255 220 0
0.619085 0.088670 0.192662 255 220 0
0.612996 0.174364 0.254282 255 220 0
0.645173 0.134614 0.287394 255 220 0
0.663670 0.159987 0.223999 255 220 0
0.577023 0.070360 0.192318 255 220 0
0.595317 0.047090 0.231707 255 220 0
0.651956 0.147326 0.209492 255 220 0
0.583590 0.061544 0.188317 255 220 0
0.649529 0.075606 0.217379 255 220 0
0.646422 0.065806 0.231033 255 220 0
0.590299 0.041146 0.223715 255 220 0
0.632829 0.096352 0.275033 255 220 0
0.594103 0.064142 0.188344 255 220 0
0.611366 0.040213 0.226834 255 220 0
0.583449 0.073623 0.190834 255 220 0
0.670570 0.155974 0.230113 255 220 0
0.647613 0.122398 0.284407 255 220 0
0.592013 0.138200 0.226006 255 220 0
0.598761 0.153554 0.226713 255 220 0
0.664262 0.101184 0.263102 255 220 0
0.594247 0.113536 0.249446 255 220 0
0.620435 0.088915 0.192980 255 220 0
0.626431 0.087159 0.269554 255 220 0
0.644115 0.076217 0.263390 255 220 0
0.617250 0.087427 0.266396 255 220 0
0.626983 0.187343 0.252006 255 220 0
0.613538 0.133020 0.274603 255 220 0
0.632535 0.137402 0.200905 255 220 0
0.654071 0.189945 0.247468 255 220 0
0.626881 0.073465 0.262711 255 220 0
0.665133 0.181717 0.244458 255 220 0
0.642786 0.185228 0.274659 255 220 0
0.589595 0.103552 0.241648 255 220 0
0.576364 0.052737 0.222188 255 220 0
0.659385 0.097556 0.266519 255 220 0
0.649276 0.077556 0.214970 255 220 0
0.629191 0.056137 0.247484 255 220 0
0.594450 0.045329 0.229778 255 220 0
0.639368 0.191186 0.260294 255 220 0
0.614932 0.104532 0.270848 255 220 0
0.607645 0.060272 0.191812 255 220 0
0.611406 0.088946 0.263893 255 220 0
0.598431 0.059031 0.189421 255 220 0
0.662888 0.099602 0.221001 255 220 0
0.624024 0.164978 0.213446 255 220 0
0.678550 0.145752 0.250749 255 220 0
0.593096 0.052680 0.234492 255 220 0
0.640864 0.185903 0.233725 255 220 0
0.651437 0.124803 0.205146 255 220 0
0.601492 0.126097 0.201322 255 220 0
0.677925 0.146666 0.241768 255 220 0
0.664761 0.167537 0.280917 255 220 0
0.667888 0.129870 0.274512 255 220 0
0.584979 0.092209 0.199133 255 220 0
0.601393 0.146387 0.212505 255 220 0
0.633273 0.052950 0.232142 255 220 0
0.655202 0.190439 0.250081 255 220 0
0.626761 0.146356 0.284708 255 220 0
0.620121 0.180879 0.235597 255 220 0
0.617268 0.076660 0.192471 255 220 0
0.610614 0.123966 0.197398 255 220 0
0.581369 0.094304 0.224615 255 220 0
0.650311 0.093712 0.207702 255 220 0
0.673907 0.166560 0.243816 255 220 0
0.653457 0.077317 0.224301 255 220 0
0.637915 0.170046 0.217478 255 220 0
0.657086 0.110548 0.209495 255 220 0
0.651649 0.085781 0.212562 255 220 0
0.675261 0.163132 0.266775 255 220 0
0.609362 0.107750 0.267652 255 220 0
0.593782 0.079175 0.244587 255 220 0
0.611510 0.139898 0.202392 255 220 0
0.624143 0.109024 0.195087 255 220 0
0.588371 0.111400 0.237340 255 220 0
0.671180 0.106547 0.250787 255 220 0
0.578629 0.038716 0.210818 255 220 0
0.612395 0.173587 0.254262 255 220 0
0.668528 0.168899 0.235756 255 220 0
0.621876 0.092696 0.193433 255 220 0
0.634302 0.149285 0.204861 255 220 0
0.651666 0.123287 0.205180 255 220 0
0.628951 0.076079 0.197610 255 220 0
0.592029 0.120918 0.206973 255 220 0
0.678031 0.141231 0.255145 255 220 0
0.618196 0.181394 0.246997 255 220 0
0.632180 0.181530 0.228371 255 220 0
0.583336 0.087032 0.231674 255 220 0
0.569897 0.065227 0.214786 255 220 0
0.675641 0.142524 0.265449 255 220 0
0.626504 0.182844 0.265296 255 220 0
0.610906 0.129422 0.198767 255 220 0
0.566457 0.053986 0.197867 255 220 0
0.674851 0.136433 0.265331 255 220 0
0.661348 0.088848 0.229792 255 220 0
0.628344 0.056878 0.248681 255 220 0
0.625215 0.123661 0.197098 255 220 0
0.616108 0.049456 0.240257 255 220 0
0.608976 0.040783 0.208149 255 220 0
0.622564 0.045987 0.232586 255 220 0
0.576156 0.078569 0.220642 255 220 0
0.641873 0.173290 0.220897 255 220 0
0.592479 0.085125 0.244380 255 220 0
0.646368 0.178154 0.281454 255 220 0
0.669417 0.111748 0.225971 255 220 0
0.594515 0.143151 0.222266 255 220 0
0.656624 0.079398 0.233107 255 220 0
0.585739 0.094473 0.235028 255 220 0
0.593049 0.138618 0.236828 255 220 0
0.566470 0.057727 0.211416 255 220 0
0.663681 0.180212 0.274824 255 220 0
0.590725 0.128480 0.214273 255 220 0
0.654816 0.173250 0.283655 255 220 0
0.569736 0.055174 0.216466 255 220 0
0.612259 0.041081 0.211158 255 220 0
0.576193 0.051145 0.190590 255 220 0
0.652427 0.073690 0.247784 255 220 0
0.587760 0.039878 0.220876 255 220 0
0.652776 0.091640 0.268764 255 220 0
0.596695 0.123105 0.252933 255 220 0
0.661173 0.145083 0.214992 255 220 0
0.670896 0.105060 0.248114 255 220 0
0.645070 0.064219 0.242626 255 220 0
0.573401 0.059209 0.220275 255 220 0
0.656121 0.099572 0.270920 255 220 0
0.586450 0.044959 0.192698 255 220 0
0.672534 0.174313 0.266454 255 220 0
0.600148 0.127035 0.258255 255 220 0
0.675669 0.143120 0.233270 255 220 0
0.612654 0.045731 0.235474 255 220 0
0.625685 0.133689 0.283141 255 220 0
0.663931 0.157232 0.283207 255 220 0
0.603021 0.162807 0.241259 255 220 0
0.578077 0.055998 0.224245 255 220 0
0.649956 0.185065 0.235460 255 220 0
0.598639 0.150845 0.221783 255 220 0
0.620455 0.043740 0.228219 255 220 0
0.620345 0.137927 0.280615 255 220 0
0.657710 0.081693 0.249785 255 220 0
0.625413 0.128846 0.198047 255 220 0
0.607203 0.056870 0.192759 255 220 0
0.638656 0.189052 0.239466 255 220 0
0.621436 0.091675 0.269726 255 220 0
0.666250 0.162071 0.281018 255 220 0
0.604001 0.065882 0.189690 255 220 0
0.589273 0.119294 0.210190 255 220 0
0.624155 0.064107 0.255707 255 220 0
0.605651 0.124569 0.198953 255 220 0
0.608891 0.154110 0.266452 255 220 0
0.607276 0.037519 0.221550 255 220 0
0.570976 0.071599 0.199262 255 220 0
0.619887 0.093154 0.269679 255 220 0
0.607964 0.155838 0.264167 255 220 0
0.585449 0.089485 0.235120 255 220 0
0.653906 0.178344 0.230220 255 220 0
0.595039 0.092190 0.248743 255 220 0
0.581644 0.045402 0.192527 255 220 0
0.654640 0.153255 0.287941 255 220 0
0.660310 0.137240 0.212322 255 220 0
0.630176 0.078614 0.197662 255 220 0
0.667440 0.130951 0.275329 255 220 0
0.617439 0.101058 0.271210 255 220 0
0.616840 0.178817 0.236398 255 220 0
0.616374 0.101872 0.193233 255 220 0
0.629895 0.061722 0.204760 255 220 0
0.653733 0.076200 0.250426 255 220 0
0.648458 0.130592 0.204264 255 220 0
0.597225 0.091935 0.251293 255 220 0
0.617738 0.180898 0.243087 255 220 0
0.670110 0.181388 0.256873 255 220 0
0.673206 0.128677 0.228441 255 220 0
0.621716 0.050907 0.206559 255 220 0
0.657392 0.094316 0.266349 255 220 0
0.662495 0.159650 0.222609 255 220 0
0.610668 0.166365 0.261143 255 220 0
0.654308 0.186043 0.239592 255 220 0
0.668380 0.112887 0.223181 255 220 0
0.632481 0.107905 0.279346 255 220 0
0.596913 0.146344 0.244285 255 220 0
0.614349 0.136100 0.200186 255 220 0
0.606883 0.136288 0.266952 255 220 0
0.635246 0.144729 0.287898 255 220 0
0.676434 0.163990 0.259875 255 220 0
0.573593 0.048995 0.192760 255 220 0
0.648536 0.191626 0.265100 255 220 0
0.603033 0.043598 0.199600 255 220 0
0.627840 0.048623 0.229706 255 220 0
0.622792 0.128829 0.197799 255 220 0
0.646144 0.068616 0.220290 255 220 0
0.621084 0.109551 0.275552 255 220 0
0.647150 0.190196 0.243890 255 220 0
0.617290 0.092818 0.192485 255 220 0
0.620152 0.120520 0.277807 255 220 0
0.636518 0.144929 0.203692 255 220 0
0.637415 0.058336 0.220725 255 220 0
0.659683 0.138675 0.283424 255 220 0
0.645895 0.083465 0.267925 255 220 0
0.652552 0.088239 0.266829 255 220 0
0.600486 0.101835 0.257094 255 220 0
0.669382 0.166814 0.276664 255 220 0
0.630254 0.120780 0.282354 255 220 0
0.665667 0.150697 0.221494 255 220 0
0.587974 0.069873 0.236452 255 220 0
0.654025 0.075150 0.235027 255 220 0
0.584805 0.110194 0.225968 255 220 0
0.674630 0.125331 0.232919 255 220 0
0.609655 0.091763 0.263658 255 220 0
0.649521 0.192435 0.259887 255 220 0
0.612599 0.107350 0.193894 255 220 0
0.645182 0.065828 0.248649 255 220 0
0.591141 0.036945 0.202863 255 220 0
0.603616 0.163389 0.232756 255 220 0
0.588012 0.122187 0.216072 255 220 0
0.613704 0.162756 0.269215 255 220 0
0.639579 0.160334 0.211074 255 220 0
0.657779 0.107085 0.274360 255 220 0
0.663153 0.090468 0.234313 255 220 0
0.602300 0.146203 0.258216 255 220 0
0.623785 0.065479 0.256691 255 220 0
0.622484 0.076462 0.194403 255 220 0
0.583473 0.105308 0.213324 255 220 0
0.608167 0.094303 0.263287 255 220 0
0.585035 0.053952 0.188836 255 220 0
0.645834 0.071319 0.215604 255 220 0
0.651986 0.103224 0.206598 255 220 0
0.619637 0.106943 0.274087 255 220 0
0.658982 0.084400 0.229718 255 220 0
0.672131 0.177273 0.263036 255 220 0
0.587928 0.107331 0.237336 255 220 0
0.611670 0.135861 0.272525 255 220 0
0.641356 0.186614 0.272484 255 220 0
0.657474 0.120799 0.280479 255 220 0
0.618576 0.051207 0.242439 255 220 0
0.646876 0.124298 0.202839 255 220 0
0.631052 0.076409 0.265174 255 220 0
0.670703 0.142263 0.224214 255 220 0
0.664418 0.180803 0.242211 255 220 0
0.658134 0.188260 0.268805 255 220 0
0.592593 0.098602 0.196695 255 220 0
0.663784 0.096643 0.225787 255 220 0
0.668090 0.176592 0.272940 255 220 0
0.582928 0.038963 0.216336 255 220 0
0.664417 0.112480 0.216959 255 220 0
0.676828 0.153793 0.263432 255 220 0
0.648675 0.180076 0.280283 255 220 0
0.651423 0.178847 0.229333 255 220 0
0.632743 0.102693 0.196690 255 220 0
0.667091 0.097337 0.237485 255 220 0
0.635982 0.055836 0.225455 255 220 0
0.585236 0.090309 0.234661 255 220 0
0.624819 0.103630 0.275333 255 220 0
0.607830 0.048769 0.238008 255 220 0
0.590128 0.128260 0.234469 255 220 0
0.606600 0.081393 0.257878 255 220 0
0.659976 0.122001 0.211086 255 220 0
0.605859 0.068732 0.189900 255 220 0
0.606901 0.168045 0.233063 255 220 0
0.621275 0.150304 0.281191 255 220 0
0.629512 0.102266 0.195743 255 220 0
0.674911 0.168317 0.264402 255 220 0
0.636372 0.058761 0.216751 255 220 0
0.583740 0.049280 0.226636 255 220 0
0.608392 0.049834 0.239217 255 220 0
0.654590 0.113898 0.279659 255 220 0
0.668927 0.152311 0.278504 255 220 0
0.598730 0.106094 0.255555 255 220 0
0.658843 0.152650 0.215935 255 220 0
0.644480 0.191108 0.246242 255 220 0
0.672512 0.176218 0.253811 255 220 0
0.625249 0.176628 0.224247 255 220 0
0.583383 0.086426 0.196971 255 220 0
0.601671 0.153955 0.219574 255 220 0
0.596099 0.135286 0.210281 255 220 0
0.636412 0.177733 0.278968 255 220 0
0.613859 0.159018 0.271495 255 220 0
0.622378 0.105451 0.274920 255 220 0
0.642501 0.113315 0.282432 255 220 0
0.645252 0.107039 0.279934 255 220 0
0.638275 0.154633 0.288632 255 220 0
0.673542 0.146059 0.229846 255 220 0
0.677063 0.146251 0.237982 255 220 0
0.668939 0.117089 0.267843 255 220 0
0.590595 0.057653 0.188563 255 220 0
0.599552 0.155286 0.242404 255 220 0
0.657864 0.176013 0.230638 255 220 0
0.596578 0.113032 0.253167 255 220 0
0.654367 0.078523 0.224874 255 220 0
0.602267 0.097310 0.258312 255 220 0
0.636392 0.079522 0.201212 255 220 0
0.662306 0.087877 0.242003 255 220 0
0.666034 0.132613 0.277218 255 220 0
0.649077 0.105633 0.278310 255 220 0
0.628282 0.123177 0.282221 255 220 0
0.621016 0.066668 0.196047 255 220 0
0.662379 0.088198 0.245402 255 220 0
0.606839 0.094033 0.262099 255 220 0
0.609133 0.059193 0.192731 255 220 0
0.658164 0.126311 0.209655 255 220 0
0.593218 0.138569 0.219244 255 220 0
0.587574 0.123530 0.223604 255 220 0
0.614871 0.045327 0.234927 255 220 0
0.619195 0.049766 0.240685 255 220 0
0.618739 0.096522 0.270384 255 220 0
0.580433 0.085860 0.226364 255 220 0
0.645633 0.134191 0.287264 255 220 0
0.619665 0.081841 0.265018 255 220 0
0.673441 0.156192 0.234616 255 220 0
0.658962 0.182258 0.276466 255 220 0
0.627874 0.155004 0.284800 255 220 0
0.676752 0.161474 0.249349 255 220 0
0.646875 0.067237 0.226561 255 220 0
0.606028 0.164007 0.225588 255 220 0
0.603911 0.141929 0.207225 255 220 0
0.597699 0.064970 0.188655 255 220 0
0.651168 0.071281 0.234378 255 220 0
0.604131 0.068826 0.250746 255 220 0
0.613128 0.108580 0.194089 255 220 0
0.615487 0.143929 0.203070 255 220 0
0.575044 0.080605 0.202507 255 220 0
0.604722 0.127617 0.264397 255 220 0
0.586288 0.106014 0.233516 255 220 0
0.668689 0.130666 0.273806 255 220 0
0.660613 0.087599 0.253508 255 220 0
0.587838 0.111925 0.235728 255 220 0
0.659436 0.131403 0.210926 255 220 0
0.587425 0.057239 0.232404 255 220 0
0.643499 0.082402 0.205674 255 220 0
0.607194 0.116549 0.266807 255 220 0
0.653222 0.092236 0.211232 255 220 0
0.653778 0.110157 0.278465 255 220 0
0.637702 0.080318 0.201886 255 220 0
0.639806 0.134590 0.287343 255 220 0
0.588867 0.038561 0.219439 255 220 0
0.624620 0.133805 0.199030 255 220 0
0.643891 0.190920 0.265945 255 220 0
0.632402 0.087598 0.197214 255 220 0
0.571238 0.074587 0.210983 255 220 0
0.657761 0.136870 0.210412 255 220 0
0.646819 0.190223 0.243843 255 220 0
0.673117 0.166940 0.242168 255 220 0
0.654519 0.128125 0.283751 255 220 0
0.585870 0.035527 0.207413 255 220 0
0.628481 0.063621 0.202328 255 220 0
0.609541 0.066148 0.191190 255 220 0
0.597236 0.088674 0.250596 255 220 0
0.627523 0.170820 0.278915 255 220 0
0.640149 0.182018 0.276852 255 220 0
0.587400 0.036372 0.214166 255 220 0
0.624062 0.082715 0.194271 255 220 0
0.617503 0.180165 0.251831 255 220 0
0.677792 0.132374 0.245128 255 220 0
0.602893 0.087235 0.190725 255 220 0
0.673145 0.135777 0.268784 255 220 0
0.632514 0.064914 0.204934 255 220 0
0.666054 0.098093 0.230780 255 220 0
0.665791 0.155792 0.281739 255 220 0
0.577878 0.039864 0.212904 255 220 0
0.597377 0.043829 0.196451 255 220 0
0.639981 0.104820 0.279428 255 220 0
0.580711 0.092551 0.205399 255 220 0
0.648238 0.094351 0.205732 255 220 0
0.643637 0.160213 0.211955 255 220 0
0.629119 0.186315 0.237792 255 220 0
0.600961 0.159299 0.238117 255 220 0
0.594162 0.137890 0.215732 255 220 0
0.584233 0.097131 0.231082 255 220 0
0.573723 0.060936 0.190795 255 220 0
0.654133 0.102873 0.274363 255 220 0
0.620914 0.109951 0.194739 255 220 0
0.675872 0.163433 0.247120 255 220 0
0.626628 0.187086 0.245289 255 220 0
0.667755 0.133504 0.219118 255 220 0
0.671409 0.139021 0.224621 255 220 0
0.585277 0.095875 0.233797 255 220 0
0.609778 0.170977 0.251800 255 220 0
0.611942 0.086348 0.263291 255 220 0
0.641150 0.146400 0.205205 255 220 0
0.613305 0.149517 0.273474 255 220 0
0.608954 0.163370 0.260708 255 220 0
0.653421 0.135777 0.285809 255 220 0
0.567210 0.063138 0.198361 255 220 0
0.571201 0.050431 0.193574 255 220 0
0.643848 0.070141 0.213664 255 220 0
0.620842 0.046357 0.234971 255 220 0
0.656552 0.084698 0.221609 255 220 0
0.600014 0.047254 0.194740 255 220 0
0.664675 0.186143 0.264852 255 220 0
0.639511 0.073530 0.262909 255 220 0
0.621517 0.176108 0.268102 255 220 0
0.649853 0.070823 0.248964 255 220 0
0.650690 0.144233 0.288241 255 220 0
0.634249 0.063397 0.254905 255 220 0
0.601574 0.116116 0.259983 255 220 0
0.649927 0.150453 0.209540 255 220 0
0.637365 0.148298 0.204997 255 220 0
0.648131 0.129698 0.203998 255 220 0
0.665684 0.098527 0.228854 255 220 0
0.596591 0.077975 0.247284 255 220 0
0.639953 0.139726 0.203035 255 220 0
0.666592 0.127713 0.275299 255 220 0
0.587690 0.108012 0.236555 255 220 0
0.638431 0.102670 0.278497 255 220 0
0.609883 0.092178 0.263952 255 220 0
0.577599 0.089170 0.215400 255 220 0
0.630776 0.057617 0.209329 255 220 0
0.599394 0.125082 0.257202 255 220 0
0.676454 0.164560 0.257770 255 220 0
0.638869 0.059510 0.221878 255 220 0
0.607122 0.139248 0.267075 255 220 0
0.646890 0.180456 0.228845 255 220 0
0.664306 0.096310 0.257658 255 220 0
0.583384 0.043088 0.222278 255 220 0
0.650736 0.159580 0.214136 255 220 0
0.670746 0.175438 0.269659 255 220 0
0.611568 0.173289 0.233344 255 220 0
0.630748 0.169954 0.216789 255 220 0
0.595438 0.147427 0.229693 255 220 0
0.583420 0.098466 0.205974 255 220 0
0.584826 0.043567 0.223576 255 220 0
0.646901 0.071769 0.216992 255 220 0
0.659347 0.184509 0.241502 255 220 0
0.662031 0.188741 0.261771 255 220 0
0.676795 0.162750 0.253456 255 220 0
0.678035 0.144549 0.256407 255 220 0
0.667091 0.181597 0.247527 255 220 0
0.600875 0.157667 0.244225 255 220 0
0.602420 0.124468 0.261446 255 220 0
0.565947 0.061198 0.200458 255 220 0
0.627538 0.117914 0.280651 255 220 0
0.591081 0.041496 0.196421 255 220 0
0.586064 0.112893 0.229456 255 220 0
0.629472 0.051134 0.219064 255 220 0
0.669683 0.143174 0.223098 255 220 0
0.651919 0.083642 0.214207 255 220 0
0.660812 0.175404 0.232482 255 220 0
0.669401 0.110948 0.262602 255 220 0
0.628825 0.112935 0.279779 255 220 0
0.673191 0.123076 0.262939 255 220 0
0.637121 0.127935 0.285671 255 220 0
0.597888 0.057266 0.189695 255 220 0
0.630226 0.054481 0.244458 255 220 0
0.676199 0.153284 0.265760 255 220 0
0.583738 0.103077 0.209678 255 220 0
0.592798 0.086772 0.245058 255 220 0
0.618058 0.097290 0.192942 255 220 0
0.663082 0.188329 0.259933 255 220 0
0.594610 0.145436 0.230305 255 220 0
0.612354 0.057036 0.246895 255 220 0
0.648921 0.191582 0.265237 255 220 0
0.650470 0.171117 0.222133 255 220 0
0.632523 0.168713 0.283039 255 220 0
0.602156 0.086474 0.255492 255 220 0
0.585209 0.040662 0.220589 255 220 0
0.589248 0.120592 0.211127 255 220 0
0.622207 0.158947 0.280327 255 220 0
0.617679 0.043712 0.231413 255 220 0
0.623313 0.058349 0.201538 255 220 0
0.657610 0.116578 0.279009 255 220 0
0.619857 0.159277 0.278179 255 220 0
0.636996 0.056637 0.226543 255 220 0
0.581366 0.085756 0.228241 255 220 0
0.644412 0.071902 0.259136 255 220 0
0.602498 0.105629 0.260085 255 220 0
0.651624 0.173273 0.284232 255 220 0
0.634273 0.068552 0.204271 255 220 0
0.593861 0.074373 0.243547 255 220 0
0.581010 0.065387 0.228380 255 220 0
0.638957 0.120667 0.284247 255 220 0
0.615478 0.110675 0.194439 255 220 0
0.636061 0.055368 0.230335 255 220 0
0.618335 0.056536 0.248005 255 220 0
0.608310 0.045473 0.200959 255 220 0
0.619181 0.042601 0.225712 255 220 0
0.622722 0.182385 0.235462 255 220 0
0.658904 0.100734 0.214155 255 220 0
0.579635 0.085727 0.224762 255 220 0
0.572641 0.055921 0.191048 255 220 0
0.649538 0.134468 0.286682 255 220 0
0.620303 0.059938 0.251505 255 220 0
0.623663 0.140216 0.282841 255 220 0
0.627283 0.129385 0.198382 255 220 0
0.639808 0.187633 0.236436 255 220 0
0.640712 0.182581 0.229482 255 220 0
0.608781 0.089938 0.191206 255 220 0
0.627859 0.115925 0.280257 255 220 0
0.611843 0.070965 0.191283 255 220 0
0.628278 0.174660 0.221278 255 220 0
0.662073 0.136783 0.213677 255 220 0
0.601827 0.112147 0.259991 255 220 0
0.672289 0.145131 0.272863 255 220 0
0.595659 0.114801 0.251730 255 220 0
0.612354 0.109260 0.270360 255 220 0
0.660867 0.087485 0.230709 255 220 0
0.578168 0.079869 0.223928 255 220 0
0.576616 0.047160 0.192555 255 220 0
0.622503 0.115107 0.195563 255 220 0
0.643327 0.171637 0.284818 255 220 0
0.607605 0.059574 0.192002 255 220 0
0.670841 0.131895 0.223593 255 220 0
0.604639 0.081737 0.256392 255 220 0
0.570681 0.050733 0.193841 255 220 0
0.635682 0.055809 0.223984 255 220 0
0.674596 0.164984 0.244097 255 220 0
0.648970 0.097095 0.274034 255 220 0
0.624897 0.120928 0.196646 255 220 0
0.618434 0.175275 0.264518 255 220 0
0.585032 0.094198 0.200365 255 220 0
0.665689 0.181015 0.244308 255 220 0
0.637728 0.183448 0.274345 255 220 0
0.618199 0.150475 0.205661 255 220 0
0.674882 0.164405 0.267380 255 220 0
0.617588 0.127676 0.197439 255 220 0
0.642962 0.144682 0.289181 255 220 0
0.676252 0.163465 0.249410 255 220 0
0.635513 0.096682 0.275667 255 220 0
0.668764 0.100850 0.237774 255 220 0
0.616115 0.051468 0.242517 255 220 0
0.606076 0.144010 0.265088 255 220 0
0.648222 0.067843 0.244191 255 220 0
0.659309 0.145320 0.213600 255 220 0
0.621025 0.168865 0.217338 255 220 0
0.609652 0.172576 0.243220 255 220 0
0.648338 0.154486 0.210516 255 220 0
0.642213 0.153414 0.208100 255 220 0
0.624847 0.089331 0.269984 255 220 0
0.615449 0.178549 0.240393 255 220 0
0.665711 0.103563 0.223606 255 220 0
0.589250 0.128443 0.229390 255 220 0
0.609960 0.113330 0.195225 255 220 0
0.590244 0.129337 0.216728 255 220 0
0.618342 0.041965 0.223874 255 220 0
0.581648 0.050232 0.189950 255 220 0
0.599201 0.110083 0.256566 255 220 0
0.665173 0.098427 0.258420 255 220 0
0.611299 0.174149 0.247827 255 220 0
0.591176 0.051428 0.232550 255 220 0
0.599873 0.052979 0.191584 255 220 0
0.619351 0.165956 0.215434 255 220 0
0.642841 0.061608 0.234628 255 220 0
0.648482 0.097424 0.205144 255 220 0
0.594701 0.128455 0.247949 255 220 0
0.664460 0.109546 0.217995 255 220 0
0.642389 0.068895 0.257204 255 220 0
0.608103 0.152716 0.265760 255 220 0
0.573486 0.079744 0.205798 255 220 0
0.660500 0.156568 0.285394 255 220 0
0.676686 0.146279 0.263228 255 220 0
0.645747 0.099957 0.202728 255 220 0
0.653763 0.077266 0.253040 255 220 0
0.642626 0.153855 0.289385 255 220 0
0.612787 0.165502 0.218753 255 220 0
0.651059 0.129012 0.285145 255 220 0
0.639134 0.176216 0.281158 255 220 0
0.589587 0.119649 0.237728 255 220 0
0.640430 0.062804 0.250305 255 220 0
0.658180 0.175389 0.281472 255 220 0
0.601850 0.085369 0.254867 255 220 0
0.639272 0.106810 0.198992 255 220 0
0.615169 0.074497 0.192006 255 220 0
0.590296 0.045309 0.193025 255 220 0
0.619072 0.180325 0.235996 255 220 0
0.606093 0.150437 0.211345 255 220 0
0.657925 0.117009 0.278971 255 220 0
0.677975 0.142635 0.241109 255 220 0
0.670363 0.177649 0.248647 255 220 0
0.678416 0.146850 0.253451 255 220 0
0.649697 0.069583 0.244221 255 220 0
0.640994 0.095911 0.200450 255 220 0
0.643764 0.175575 0.223355 255 220 0
0.665450 0.148723 0.281328 255 220 0
0.593757 0.097350 0.195563 255 220 0
0.570963 0.068739 0.215105 255 220 0
0.569669 0.061846 0.215660 255 220 0
0.615563 0.138253 0.200725 255 220 0
0.652838 0.078525 0.220636 255 220 0
0.578701 0.043752 0.194784 255 220 0
0.647530 0.160614 0.288648 255 220 0
0.614581 0.176006 0.255092 255 220 0
0.634623 0.073730 0.263673 255 220 0
0.630323 0.124455 0.283238 255 220 0
0.650990 0.071258 0.244829 255 220 0
0.581969 0.046055 0.223730 255 220 0
0.611190 0.161429 0.216243 255 220 0
0.625497 0.049770 0.238719 255 220 0
0.642098 0.189571 0.240777 255 220 0
0.610591 0.059520 0.248250 255 220 0
0.589796 0.055225 0.233504 255 220 0
0.648265 0.088852 0.207499 255 220 0
0.628964 0.183059 0.231561 255 220 0
0.677860 0.133222 0.244650 255 220 0
0.659337 0.086600 0.226650 255 220 0
0.616030 0.173699 0.226203 255 220 0
0.654178 0.084492 0.262249 255 220 0
0.668351 0.157886 0.228252 255 220 0
0.601363 0.140610 0.258303 255 220 0
0.646683 0.152887 0.209220 255 220 0
0.625738 0.162723 0.281732 255 220 0
0.587301 0.105509 0.236273 255 220 0
0.638244 0.063297 0.212906 255 220 0
0.604867 0.160301 0.222187 255 220 0
0.582685 0.050007 0.226216 255 220 0
0.610005 0.062666 0.192033 255 220 0
0.625027 0.177468 0.270836 255 220 0
0.653434 0.089209 0.212977 255 220 0
0.651986 0.144062 0.287866 255 220 0
0.594909 0.039407 0.200492 255 220 0
0.609187 0.171762 0.245855 255 220 0
0.659510 0.109032 0.274133 255 220 0
0.663701 0.122458 0.214629 255 220 0
0.620022 0.113346 0.195078 255 220 0
0.617210 0.082629 0.264399 255 220 0
0.675505 0.152170 0.236413 255 220 0
0.578142 0.089158 0.207393 255 220 0
0.633222 0.184088 0.270550 255 220 0
0.657962 0.091971 0.263971 255 220 0
0.604705 0.037690 0.210284 255 220 0
0.645528 0.110215 0.281130 255 220 0
0.636048 0.135516 0.201148 255 220 0
0.672662 0.116287 0.259130 255 220 0
0.640908 0.092904 0.274197 255 220 0
0.631087 0.166576 0.283328 255 220 0
0.615259 0.121577 0.274971 255 220 0
0.664056 0.093009 0.252791 255 220 0
0.652447 0.191476 0.251768 255 220 0
0.593379 0.095079 0.247188 255 220 0
0.598858 0.078176 0.189458 255 220 0
0.590784 0.133265 0.231725 255 220 0
0.675701 0.163783 0.264811 255 220 0
0.660932 0.088460 0.228937 255 220 0
0.671906 0.112755 0.257859 255 220 0
0.590925 0.091936 0.243516 255 220 0
0.646877 0.128605 0.203321 255 220 0
0.604650 0.146400 0.262326 255 220 0
0.589341 0.109918 0.240138 255 220 0
0.664256 0.146975 0.218459 255 220 0
0.667386 0.109650 0.265340 255 220 0
0.582846 0.038212 0.214743 255 220 0
0.672369 0.177495 0.260254 255 220 0
0.601404 0.041920 0.228694 255 220 0
0.565020 0.055893 0.206769 255 220 0
0.595548 0.046370 0.193690 255 220 0
0.588737 0.126203 0.229572 255 220 0
0.601423 0.075472 0.251345 255 220 0
0.620477 0.110409 0.275489 255 220 0
0.595458 0.034955 0.210178 255 220 0
0.672109 0.123816 0.265840 255 220 0
0.674804 0.150016 0.269169 255 220 0
0.591967 0.044323 0.227770 255 220 0
0.586905 0.039137 0.198656 255 220 0
0.586771 0.036236 0.213286 255 220 0
0.600644 0.116236 0.258828 255 220 0
0.657237 0.095395 0.267240 255 220 0
0.615890 0.154260 0.208502 255 220 0
0.643833 0.139861 0.204182 255 220 0
0.584508 0.105759 0.228129 255 220 0
0.595235 0.139676 0.244235 255 220 0
0.611653 0.149753 0.207483 255 220 0
0.614668 0.110708 0.194435 255 220 0
0.569632 0.069082 0.211935 255 220 0
0.597132 0.036778 0.206146 255 220 0
0.584636 0.038961 0.217624 255 220 0
0.587541 0.123355 0.222378 255 220 0
0.663035 0.164738 0.226174 255 220 0
0.616425 0.073506 0.259710 255 220 0
0.584860 0.050396 0.189840 255 220 0
0.602230 0.095856 0.192488 255 220 0
0.566846 0.054603 0.212364 255 220 0
0.594806 0.069453 0.243132 255 220 0
0.619646 0.169076 0.218054 255 220 0
0.649479 0.069382 0.232026 255 220 0
0.576320 0.040105 0.202241 255 220 0
0.603013 0.057050 0.191139 255 220 0
0.633891 0.124935 0.284375 255 220 0
0.640106 0.112583 0.199400 255 220 0
0.581766 0.100551 0.219538 255 220 0
0.598032 0.041351 0.226954 255 220 0
0.606447 0.110541 0.195218 255 220 0
0.652662 0.117302 0.281687 255 220 0
0.631776 0.168214 0.282918 255 220 0
0.585833 0.084524 0.235918 255 220 0
0.676374 0.162592 0.248651 255 220 0
0.593797 0.038563 0.201229 255 220 0
0.594039 0.140064 0.239594 255 220 0
0.612622 0.149436 0.206866 255 220 0
0.583449 0.101714 0.226799 255 220 0
0.640145 0.168297 0.216565 255 220 0
0.635835 0.098944 0.276675 255 220 0
0.623353 0.176621 0.269858 255 220 0
0.592086 0.137840 0.231860 255 220 0
0.659450 0.098202 0.266925 255 220 0
0.605176 0.158650 0.219693 255 220 0
0.640117 0.063573 0.251928 255 220 0
0.608092 0.072509 0.255157 255 220 0
0.624220 0.069532 0.259666 255 220 0
0.579667 0.083182 0.198276 255 220 0
0.601077 0.091832 0.191760 255 220 0
0.667893 0.098239 0.245817 255 220 0
0.639744 0.135755 0.202080 255 220 0
0.657461 0.099447 0.212960 255 220 0
0.617953 0.082853 0.192367 255 220 0
0.607249 0.038614 0.210819 255 220 0
0.638081 0.169237 0.284860 255 220 0
0.597983 0.063734 0.243746 255 220 0
0.658995 0.087456 0.257707 255 220 0
0.595573 0.129916 0.249507 255 220 0
0.649638 0.155123 0.211335 255 220 0
0.671556 0.106850 0.240315 255 220 0
0.670215 0.143841 0.275509 255 220 0
0.600502 0.156377 0.245101 255 220 0
0.622804 0.086448 0.268120 255 220 0
0.603996 0.085535 0.257045 255 220 0
0.658744 0.088925 0.222059 255 220 0
0.575681 0.041537 0.213460 255 220 0
0.567712 0.055024 0.213866 255 220 0
0.605249 0.132334 0.201705 255 220 0
0.666647 0.097581 0.252439 255 220 0
0.636396 0.183696 0.230580 255 220 0
0.601028 0.155511 0.223034 255 220 0
0.600456 0.127798 0.202552 255 220 0
0.625246 0.066753 0.257914 255 220 0
0.592389 0.083254 0.243912 255 220 0
0.624200 0.080416 0.265830 255 220 0
0.668805 0.112682 0.224121 255 220 0
0.591773 0.038237 0.220304 255 220 0
0.567902 0.067460 0.207614 255 220 0
0.642675 0.116296 0.200515 255 220 0
0.634521 0.127098 0.199267 255 220 0
0.659464 0.083252 0.243191 255 220 0
0.634275 0.173450 0.219873 255 220 0
0.649823 0.129708 0.285612 255 220 0
0.677442 0.129326 0.247667 255 220 0
0.678476 0.146880 0.246494 255 220 0
0.575744 0.060342 0.189818 255 220 0
0.662164 0.173459 0.231988 255 220 0
0.581312 0.087665 0.227576 255 220 0
0.639157 0.159807 0.288080 255 220 0
0.578477 0.088475 0.205350 255 220 0
0.638878 0.059156 0.223247 255 220 0
0.625100 0.047038 0.220485 255 220 0
0.676736 0.147125 0.263216 255 220 0
0.632211 0.152160 0.205803 255 220 0
0.662661 0.147096 0.217000 255 220 0
0.612332 0.160767 0.214872 255 220 0
0.610006 0.167955 0.224739 255 220 0
0.570977 0.074935 0.206609 255 220 0
0.636317 0.078555 0.266784 255 220 0
0.630495 0.109502 0.196404 255 220 0
0.591203 0.125044 0.210521 255 220 0
0.602805 0.041492 0.202106 255 220 0
0.594954 0.117851 0.250369 255 220 0
0.610362 0.165831 0.261097 255 220 0
0.644906 0.070126 0.256619 255 220 0
0.647025 0.097257 0.274923 255 220 0
0.645272 0.086473 0.270001 255 220 0
0.589802 0.113327 0.240436 255 220 0
0.595464 0.145505 0.222905 255 220 0
0.635575 0.099616 0.276911 255 220 0
0.620969 0.167665 0.216300 255 220 0
0.677215 0.160517 0.256924 255 220 0
0.637816 0.105128 0.198445 255 220 0
0.662529 0.102511 0.266652 255 220 0
0.622183 0.107567 0.194624 255 220 0
0.618702 0.180946 0.238951 255 220 0
0.631647 0.174659 0.278939 255 220 0
0.622653 0.173335 0.272409 255 220 0
0.626919 0.172848 0.219666 255 220 0
0.622898 0.048539 0.211417 255 220 0
0.603095 0.134060 0.262131 255 220 0
0.678573 0.145777 0.249294 255 220 0
0.591349 0.112296 0.244124 255 220 0
0.678059 0.139876 0.254279 255 220 0
0.668816 0.108409 0.261538 255 220 0
0.619967 0.144237 0.202444 255 220 0
0.569796 0.071730 0.202962 255 220 0
0.663200 0.101973 0.219876 255 220 0
0.591064 0.131765 0.235339 255 220 0
0.653931 0.098260 0.209594 255 220 0
0.655336 0.175204 0.282544 255 220 0
0.620519 0.050342 0.205970 255 220 0
0.623932 0.156170 0.282262 255 220 0
0.585094 0.108316 0.211107 255 220 0
0.631746 0.174710 0.278959 255 220 0
0.677785 0.149775 0.258761 255 220 0
0.657881 0.096444 0.214956 255 220 0
0.670010 0.108687 0.258915 255 220 0
0.613212 0.134924 0.200011 255 220 0
0.626742 0.165270 0.281407 255 220 0
0.616721 0.097531 0.269740 255 220 0
0.641170 0.083463 0.203409 255 220 0
0.629353 0.052346 0.215335 255 220 0
0.598815 0.153949 0.227590 255 220 0
0.648462 0.069568 0.225469 255 220 0
0.645460 0.181996 0.278413 255 220 0
0.616133 0.177524 0.234175 255 220 0
0.654175 0.083374 0.261152 255 220 0
0.639720 0.058799 0.230297 255 220 0
0.664317 0.125794 0.215146 255 220 0
0.675626 0.134112 0.233361 255 220 0
0.649394 0.133699 0.205158 255 220 0
0.643328 0.076213 0.263756 255 220 0
0.575497 0.050283 0.220803 255 220 0
0.678243 0.151603 0.254668 255 220 0
