ply
format ascii 1.0
element vertex 1024
property float x
property float y
property float z
property uchar red
property uchar green
property uchar blue
end_header
0.541571 0.182769 0.078509 255 220 0
0.514235 0.075409 0.014297 255 220 0
0.513724 0.024539 0.028750 255 220 0
0.503974 0.028269 0.026323 255 220 0
0.533434 0.102056 0.011151 255 220 0
0.504225 0.078595 0.074975 255 220 0
0.565315 0.130994 0.088867 255 220 0
0.518138 0.046342 0.066736 255 220 0
0.516429 0.019308 0.035409 255 220 0
0.530450 0.118430 0.013328 255 220 0
0.545406 0.107182 0.012705 255 220 0
0.504856 0.042663 0.020546 255 220 0
0.524105 0.061767 0.072546 255 220 0
0.507952 0.101554 0.082111 255 220 0
0.574779 0.167470 0.060364 255 220 0
0.536463 0.171400 0.088415 255 220 0
0.481238 0.046954 0.041155 255 220 0
0.548091 0.148038 0.022500 255 220 0
0.570330 0.077418 0.056050 255 220 0
0.513600 0.170799 0.063689 255 220 0
0.515905 0.029010 0.025579 255 220 0
0.550228 0.161247 0.030668 255 220 0
0.512114 0.017167 0.043851 255 220 0
0.514791 0.153131 0.034181 255 220 0
0.510933 0.131639 0.025345 255 220 0
0.522779 0.030232 0.055885 255 220 0
0.486651 0.018973 0.050671 255 220 0
0.565082 0.177585 0.076175 255 220 0
0.501035 0.130764 0.034224 255 220 0
0.561729 0.085601 0.023259 255 220 0
0.563429 0.060482 0.042386 255 220 0
0.509340 0.079394 0.016468 255 220 0
0.506324 0.086509 0.018848 255 220 0
0.517160 0.111109 0.016068 255 220 0
0.487143 0.092988 0.061091 255 220 0
0.556737 0.181138 0.079162 255 220 0
0.518498 0.135193 0.021944 255 220 0
0.513328 0.045087 0.018197 255 220 0
0.491799 0.092848 0.033979 255 220 0
0.521702 0.105683 0.087613 255 220 0
0.550120 0.065801 0.067990 255 220 0
0.522180 0.027415 0.027960 255 220 0
0.501476 0.150661 0.073811 255 220 0
0.572515 0.146364 0.085104 255 220 0
0.533570 0.098983 0.011054 255 220 0
0.503639 0.070033 0.072720 255 220 0
0.507400 0.111511 0.083877 255 220 0
0.503150 0.030659 0.025186 255 220 0
0.518522 0.100383 0.013985 255 220 0
0.487381 0.056287 0.032245 255 220 0
0.493613 0.135154 0.067573 255 220 0
0.538596 0.137699 0.017589 255 220 0
0.486999 0.102998 0.048046 255 220 0
0.522945 0.067163 0.012922 255 220 0
0.570048 0.072467 0.049409 255 220 0
0.490793 0.044287 0.064692 255 220 0
0.579679 0.107476 0.047104 255 220 0
0.544120 0.160763 0.094295 255 220 0
0.512421 0.103270 0.017275 255 220 0
0.555755 0.124895 0.092111 255 220 0
0.506189 0.087745 0.019084 255 220 0
0.525351 0.089054 0.083180 255 220 0
0.486976 0.024933 0.036127 255 220 0
0.503142 0.132322 0.032610 255 220 0
0.499609 0.151101 0.055907 255 220 0
0.508185 0.138327 0.085745 255 220 0
0.550650 0.131288 0.017574 255 220 0
0.541624 0.185823 0.060375 255 220 0
0.542797 0.154933 0.095797 255 220 0
0.534652 0.159377 0.029860 255 220 0
0.526888 0.169982 0.042186 255 220 0
0.516973 0.032722 0.060476 255 220 0
0.565627 0.094096 0.024894 255 220 0
0.493454 0.030755 0.028817 255 220 0
0.576580 0.110845 0.070420 255 220 0
0.542659 0.158731 0.094843 255 220 0
0.553992 0.048854 0.040700 255 220 0
0.553736 0.074819 0.071353 255 220 0
0.490132 0.056341 0.064688 255 220 0
0.557868 0.146594 0.025339 255 220 0
0.575241 0.149367 0.081308 255 220 0
0.533958 0.081273 0.080167 255 220 0
0.551533 0.137137 0.019530 255 220 0
0.566105 0.144431 0.090376 255 220 0
0.500322 0.105736 0.078859 255 220 0
0.490388 0.038057 0.064038 255 220 0
0.555181 0.079120 0.072908 255 220 0
0.546658 0.153057 0.024930 255 220 0
0.570150 0.107283 0.027475 255 220 0
0.515419 0.043492 0.065942 255 220 0
0.489620 0.103547 0.040455 255 220 0
0.573591 0.159163 0.047588 255 220 0
0.571279 0.161052 0.045507 255 220 0
0.527802 0.141790 0.094693 255 220 0
0.562805 0.168351 0.086196 255 220 0
0.482500 0.042734 0.058428 255 220 0
0.528223 0.150599 0.025533 255 220 0
0.550837 0.090341 0.080902 255 220 0
0.488313 0.059365 0.031490 255 220 0
0.538986 0.172922 0.040315 255 220 0
0.490032 0.079811 0.065079 255 220 0
0.555767 0.174400 0.043475 255 220 0
0.576713 0.100922 0.063934 255 220 0
0.577177 0.146816 0.046519 255 220 0
0.532003 0.052769 0.016889 255 220 0
0.540956 0.035674 0.039238 255 220 0
0.579392 0.136024 0.071808 255 220 0
0.562794 0.182264 0.062393 255 220 0
0.508547 0.154695 0.042754 255 220 0
0.499318 0.017582 0.036396 255 220 0
0.509693 0.110235 0.084705 255 220 0
0.523458 0.136746 0.020285 255 220 0
0.552869 0.063428 0.064285 255 220 0
0.496510 0.095853 0.028800 255 220 0
0.550476 0.186566 0.069644 255 220 0
0.532938 0.174565 0.084770 255 220 0
0.532757 0.091347 0.084101 255 220 0
0.575677 0.158057 0.050755 255 220 0
0.512012 0.149671 0.033947 255 220 0
0.528479 0.114370 0.091071 255 220 0
0.509609 0.166347 0.063964 255 220 0
0.556860 0.156224 0.093770 255 220 0
0.481497 0.039848 0.057475 255 220 0
0.539862 0.083770 0.011976 255 220 0
0.555587 0.124471 0.017809 255 220 0
0.576866 0.147099 0.045975 255 220 0
0.508151 0.161114 0.074578 255 220 0
0.487126 0.073947 0.059997 255 220 0
0.575461 0.162457 0.054482 255 220 0
0.499608 0.152148 0.065714 255 220 0
0.548400 0.086020 0.079813 255 220 0
0.555987 0.067150 0.064504 255 220 0
0.565452 0.123135 0.023609 255 220 0
0.533225 0.104001 0.088382 255 220 0
0.546643 0.150600 0.096547 255 220 0
0.554478 0.138834 0.095272 255 220 0
0.489467 0.061019 0.063985 255 220 0
0.562692 0.092548 0.075036 255 220 0
0.493573 0.103334 0.072862 255 220 0
0.580531 0.108848 0.053314 255 220 0
0.560466 0.059480 0.034187 255 220 0
0.513484 0.077491 0.077602 255 220 0
0.513383 0.115988 0.087345 255 220 0
0.481441 0.053387 0.050895 255 220 0
0.513504 0.086377 0.080207 255 220 0
0.545530 0.154533 0.095964 255 220 0
0.508520 0.144870 0.084774 255 220 0
0.565483 0.172015 0.048145 255 220 0
0.508943 0.016159 0.044608 255 220 0
0.549565 0.127398 0.016271 255 220 0
0.488798 0.120795 0.053213 255 220 0
0.555422 0.104846 0.085231 255 220 0
0.481392 0.038656 0.057474 255 220 0
0.522769 0.131799 0.092885 255 220 0
0.540305 0.125651 0.094339 255 220 0
0.547056 0.046518 0.029553 255 220 0
0.537919 0.073403 0.076298 255 220 0
0.580832 0.124238 0.047107 255 220 0
0.545099 0.040800 0.033839 255 220 0
0.566109 0.108998 0.023416 255 220 0
0.514187 0.110403 0.086558 255 220 0
0.489017 0.039309 0.063586 255 220 0
0.550501 0.124175 0.093271 255 220 0
0.521494 0.119737 0.015999 255 220 0
0.555293 0.126615 0.092732 255 220 0
0.496813 0.094775 0.028242 255 220 0
0.502688 0.045496 0.020693 255 220 0
0.540816 0.080150 0.079001 255 220 0
0.538511 0.184249 0.072826 255 220 0
0.549128 0.054055 0.025902 255 220 0
0.488872 0.067862 0.032383 255 220 0
0.554222 0.176149 0.044591 255 220 0
0.491333 0.130323 0.053482 255 220 0
0.547880 0.135747 0.096064 255 220 0
0.486207 0.100384 0.055602 255 220 0
0.522052 0.066596 0.074683 255 220 0
0.545681 0.049867 0.057949 255 220 0
0.501793 0.031043 0.025314 255 220 0
0.529886 0.153517 0.026905 255 220 0
0.485317 0.039645 0.033422 255 220 0
0.557368 0.185320 0.065657 255 220 0
0.486541 0.106533 0.056690 255 220 0
0.533228 0.175903 0.083596 255 220 0
0.495040 0.111089 0.033974 255 220 0
0.522067 0.025137 0.050338 255 220 0
0.485442 0.059739 0.059131 255 220 0
0.501959 0.015139 0.040930 255 220 0
0.555663 0.173074 0.086726 255 220 0
0.532710 0.028526 0.036804 255 220 0
0.559486 0.055225 0.041803 255 220 0
0.538203 0.053364 0.019078 255 220 0
0.519107 0.137009 0.022350 255 220 0
0.486999 0.040723 0.062590 255 220 0
0.493042 0.112145 0.036969 255 220 0
0.546312 0.185643 0.073716 255 220 0
0.528031 0.072097 0.012026 255 220 0
0.575901 0.089410 0.042621 255 220 0
0.518544 0.037205 0.062334 255 220 0
0.542794 0.041289 0.029841 255 220 0
0.502136 0.096983 0.023626 255 220 0
0.576627 0.147547 0.045715 255 220 0
0.498009 0.059285 0.068864 255 220 0
0.517954 0.156648 0.087803 255 220 0
0.561426 0.110480 0.019862 255 220 0
0.537650 0.179501 0.081558 255 220 0
0.501219 0.082192 0.074499 255 220 0
0.549622 0.134078 0.018070 255 220 0
0.498073 0.015363 0.042545 255 220 0
0.579407 0.122320 0.069219 255 220 0
0.556485 0.057846 0.055101 255 220 0
0.516777 0.019241 0.043681 255 220 0
0.520089 0.104904 0.087027 255 220 0
0.555556 0.126605 0.092639 255 220 0
0.581391 0.131402 0.052659 255 220 0
0.529076 0.030285 0.050273 255 220 0
0.512706 0.147114 0.087417 255 220 0
0.534741 0.040943 0.057816 255 220 0
0.558411 0.059873 0.054966 255 220 0
0.527676 0.048747 0.017373 255 220 0
0.492480 0.103424 0.071642 255 220 0
0.541380 0.182457 0.051778 255 220 0
0.575624 0.095824 0.038307 255 220 0
0.500764 0.082078 0.074242 255 220 0
0.500092 0.076833 0.022194 255 220 0
0.521546 0.154667 0.090453 255 220 0
0.576078 0.130570 0.077909 255 220 0
0.532270 0.160169 0.030902 255 220 0
0.479496 0.043929 0.046641 255 220 0
0.526346 0.029899 0.052629 255 220 0
0.517482 0.143807 0.026261 255 220 0
0.482604 0.038210 0.036922 255 220 0
0.540376 0.076649 0.012941 255 220 0
0.551441 0.066596 0.021227 255 220 0
0.518789 0.022384 0.049344 255 220 0
0.569092 0.090316 0.067913 255 220 0
0.488212 0.044602 0.030218 255 220 0
0.533932 0.029558 0.036169 255 220 0
0.481352 0.049366 0.042043 255 220 0
0.542060 0.159161 0.028840 255 220 0
0.578373 0.120153 0.070816 255 220 0
0.496755 0.112851 0.076871 255 220 0
0.497383 0.129626 0.076857 255 220 0
0.577455 0.106546 0.039271 255 220 0
0.522253 0.091212 0.083528 255 220 0
0.501075 0.077577 0.021512 255 220 0
0.563459 0.079306 0.066320 255 220 0
0.572073 0.075807 0.046724 255 220 0
0.555524 0.076026 0.070860 255 220 0
0.524811 0.171950 0.082712 255 220 0
0.547922 0.116912 0.091607 255 220 0
0.501922 0.127136 0.031682 255 220 0
0.536796 0.184571 0.061306 255 220 0
0.562011 0.066712 0.057727 255 220 0
0.543183 0.181115 0.049207 255 220 0
0.552018 0.176308 0.085576 255 220 0
0.516093 0.080101 0.078975 255 220 0
0.506376 0.027796 0.061488 255 220 0
0.578087 0.101387 0.043919 255 220 0
0.537891 0.078322 0.012110 255 220 0
0.556205 0.051344 0.041369 255 220 0
0.524810 0.027914 0.051500 255 220 0
0.537512 0.180321 0.080376 255 220 0
0.553168 0.091033 0.080188 255 220 0
0.499898 0.046210 0.021777 255 220 0
0.549752 0.075178 0.073809 255 220 0
0.492913 0.041531 0.026411 255 220 0
0.544950 0.103967 0.012556 255 220 0
0.499374 0.149594 0.053575 255 220 0
0.565147 0.153023 0.033667 255 220 0
0.525720 0.034267 0.057575 255 220 0
0.519500 0.175627 0.060639 255 220 0
0.519615 0.122712 0.017491 255 220 0
0.486668 0.104904 0.050780 255 220 0
0.557696 0.153505 0.028555 255 220 0
0.574377 0.168369 0.069081 255 220 0
0.580979 0.134620 0.052140 255 220 0
0.483839 0.067257 0.051549 255 220 0
0.489949 0.123794 0.063785 255 220 0
0.547752 0.049728 0.027653 255 220 0
0.539334 0.185494 0.062334 255 220 0
0.560081 0.134408 0.092519 255 220 0
0.509875 0.163135 0.075141 255 220 0
0.501936 0.065031 0.019985 255 220 0
0.489646 0.106338 0.041176 255 220 0
0.500581 0.068184 0.071186 255 220 0
0.528838 0.093559 0.011211 255 220 0
0.551784 0.170413 0.038316 255 220 0
0.547551 0.079819 0.015117 255 220 0
0.509414 0.159609 0.047762 255 220 0
0.529932 0.111730 0.012297 255 220 0
0.535366 0.086798 0.011179 255 220 0
0.570966 0.168079 0.051250 255 220 0
0.546597 0.091852 0.082971 255 220 0
0.527052 0.059180 0.071063 255 220 0
0.489915 0.121487 0.048247 255 220 0
0.499748 0.097616 0.025895 255 220 0
0.510076 0.086836 0.079259 255 220 0
0.570811 0.113958 0.027904 255 220 0
0.502638 0.015525 0.048587 255 220 0
0.521372 0.153720 0.090648 255 220 0
0.541844 0.170423 0.037570 255 220 0
0.501311 0.081628 0.021846 255 220 0
0.502952 0.138855 0.036327 255 220 0
0.520165 0.121397 0.016925 255 220 0
0.512949 0.068999 0.014867 255 220 0
0.486672 0.096602 0.059689 255 220 0
0.569345 0.148706 0.035610 255 220 0
0.517288 0.163041 0.084028 255 220 0
0.511372 0.168211 0.062101 255 220 0
0.508990 0.062302 0.072317 255 220 0
0.493696 0.036793 0.064790 255 220 0
0.575448 0.149140 0.044335 255 220 0
0.535807 0.167793 0.090388 255 220 0
0.489469 0.111516 0.043388 255 220 0
0.481626 0.024851 0.053122 255 220 0
0.576444 0.143204 0.043108 255 220 0
0.553483 0.093558 0.016316 255 220 0
0.556424 0.051726 0.042953 255 220 0
0.498179 0.111592 0.030548 255 220 0
0.544623 0.040097 0.044089 255 220 0
0.518123 0.028916 0.025931 255 220 0
0.543501 0.039230 0.033575 255 220 0
0.498473 0.051593 0.067890 255 220 0
0.513545 0.164161 0.048080 255 220 0
0.524599 0.064187 0.073523 255 220 0
0.561135 0.171219 0.085447 255 220 0
0.549518 0.117751 0.014556 255 220 0
0.494126 0.118328 0.074067 255 220 0
0.555615 0.083070 0.019155 255 220 0
0.511074 0.070145 0.074874 255 220 0
0.505512 0.113784 0.083257 255 220 0
0.491006 0.028507 0.062932 255 220 0
0.565851 0.179599 0.069464 255 220 0
0.489528 0.103205 0.067461 255 220 0
0.569090 0.169919 0.079506 255 220 0
0.497450 0.027456 0.063168 255 220 0
0.522292 0.030479 0.025635 255 220 0
0.482595 0.025814 0.040715 255 220 0
0.565766 0.076404 0.030025 255 220 0
0.515438 0.020207 0.048951 255 220 0
0.577379 0.093438 0.048395 255 220 0
0.523921 0.101042 0.086737 255 220 0
0.527728 0.145306 0.022657 255 220 0
0.568985 0.112437 0.025958 255 220 0
0.559880 0.064778 0.029242 255 220 0
0.501502 0.032633 0.064168 255 220 0
0.578985 0.102075 0.049647 255 220 0
0.491882 0.024014 0.033072 255 220 0
0.566243 0.177384 0.056116 255 220 0
0.529027 0.106064 0.088837 255 220 0
0.550783 0.149249 0.023660 255 220 0
0.539875 0.035274 0.042396 255 220 0
0.561484 0.122260 0.088710 255 220 0
0.578262 0.158553 0.068257 255 220 0
0.508640 0.140007 0.085849 255 220 0
0.508129 0.031493 0.062521 255 220 0
0.526443 0.178326 0.055082 255 220 0
0.494244 0.127004 0.072993 255 220 0
0.539492 0.036289 0.031613 255 220 0
0.555300 0.124118 0.092051 255 220 0
0.568388 0.085840 0.029822 255 220 0
0.497694 0.116477 0.032478 255 220 0
0.501227 0.042909 0.021747 255 220 0
0.521758 0.177783 0.066803 255 220 0
0.559466 0.081591 0.071241 255 220 0
0.576736 0.163879 0.066556 255 220 0
0.494680 0.049986 0.024562 255 220 0
0.487900 0.094098 0.063268 255 220 0
0.557441 0.056922 0.052499 255 220 0
0.487726 0.105035 0.045869 255 220 0
0.533557 0.134544 0.095549 255 220 0
0.528161 0.025439 0.034891 255 220 0
0.480876 0.042879 0.055769 255 220 0
0.558131 0.082371 0.072723 255 220 0
0.530822 0.135758 0.095213 255 220 0
0.512246 0.065423 0.073739 255 220 0
0.526515 0.173534 0.047003 255 220 0
0.527643 0.071756 0.076517 255 220 0
0.488780 0.022597 0.036492 255 220 0
0.577361 0.151415 0.076789 255 220 0
0.527184 0.137686 0.019338 255 220 0
0.513069 0.071810 0.014744 255 220 0
0.581059 0.135461 0.053291 255 220 0
0.555823 0.088775 0.077669 255 220 0
0.509061 0.159993 0.077406 255 220 0
0.495542 0.088026 0.028193 255 220 0
0.522630 0.056176 0.014792 255 220 0
0.567915 0.079259 0.031513 255 220 0
0.515692 0.126925 0.020657 255 220 0
0.530951 0.072385 0.076546 255 220 0
0.514162 0.162353 0.081682 255 220 0
0.555691 0.182874 0.053621 255 220 0
0.549328 0.134885 0.018224 255 220 0
0.521900 0.043093 0.018716 255 220 0
0.577599 0.097630 0.044312 255 220 0
0.530598 0.159392 0.030741 255 220 0
0.527435 0.146481 0.094296 255 220 0
0.531931 0.180941 0.054946 255 220 0
0.546483 0.118372 0.013805 255 220 0
0.569221 0.100933 0.074196 255 220 0
0.511520 0.122502 0.087513 255 220 0
0.490892 0.119020 0.043741 255 220 0
0.537298 0.117302 0.092290 255 220 0
0.567974 0.136168 0.088112 255 220 0
0.566185 0.169220 0.046195 255 220 0
0.483252 0.022869 0.043359 255 220 0
0.546516 0.184275 0.077112 255 220 0
0.507352 0.029144 0.025401 255 220 0
0.543769 0.043630 0.028712 255 220 0
0.495951 0.115464 0.034169 255 220 0
0.542368 0.068938 0.015261 255 220 0
0.559130 0.098077 0.080281 255 220 0
0.529889 0.182127 0.063968 255 220 0
0.497831 0.079987 0.024516 255 220 0
0.557492 0.107903 0.085482 255 220 0
0.504492 0.135649 0.032777 255 220 0
0.540136 0.056122 0.018843 255 220 0
0.580643 0.139777 0.066197 255 220 0
0.574736 0.083252 0.050434 255 220 0
0.576641 0.090179 0.046346 255 220 0
0.534782 0.082863 0.080768 255 220 0
0.574068 0.169394 0.062851 255 220 0
0.566899 0.112040 0.081337 255 220 0
0.533922 0.152297 0.025256 255 220 0
0.519775 0.048256 0.067302 255 220 0
0.556619 0.078181 0.021047 255 220 0
0.499595 0.084207 0.074089 255 220 0
0.554443 0.132393 0.019173 255 220 0
0.547812 0.077117 0.075688 255 220 0
0.542921 0.185323 0.073268 255 220 0
0.492402 0.091670 0.032835 255 220 0
0.564126 0.066394 0.033511 255 220 0
0.504468 0.018523 0.034074 255 220 0
0.502364 0.140651 0.080089 255 220 0
0.490895 0.096379 0.068780 255 220 0
0.536316 0.144407 0.096354 255 220 0
0.508003 0.151166 0.039710 255 220 0
0.580674 0.109703 0.052808 255 220 0
0.557589 0.095806 0.018417 255 220 0
0.525380 0.124612 0.092670 255 220 0
0.557621 0.058065 0.053783 255 220 0
0.506561 0.066854 0.017483 255 220 0
0.490413 0.079003 0.065479 255 220 0
0.545996 0.078897 0.077216 255 220 0
0.485799 0.031742 0.034101 255 220 0
0.537921 0.071255 0.013208 255 220 0
0.526563 0.102978 0.011980 255 220 0
0.557820 0.095095 0.079626 255 220 0
0.553156 0.088545 0.016696 255 220 0
0.562642 0.179920 0.055021 255 220 0
0.510849 0.082904 0.078427 255 220 0
0.544501 0.118802 0.092384 255 220 0
0.549156 0.177018 0.085571 255 220 0
0.581652 0.122360 0.060835 255 220 0
0.547307 0.042685 0.044244 255 220 0
0.515273 0.120482 0.019089 255 220 0
0.565616 0.071054 0.057192 255 220 0
0.541145 0.146444 0.021078 255 220 0
0.541278 0.179966 0.048003 255 220 0
0.555908 0.184855 0.071761 255 220 0
0.484875 0.076026 0.046371 255 220 0
0.549887 0.101638 0.014187 255 220 0
0.567962 0.177897 0.064103 255 220 0
0.509338 0.017463 0.049181 255 220 0
0.539487 0.116404 0.012473 255 220 0
0.571736 0.159987 0.045353 255 220 0
0.561123 0.173856 0.083594 255 220 0
0.524234 0.173044 0.048331 255 220 0
0.507702 0.095045 0.019059 255 220 0
0.560594 0.103699 0.019608 255 220 0
0.543528 0.053332 0.022216 255 220 0
0.511559 0.066097 0.073824 255 220 0
0.562698 0.094013 0.075829 255 220 0
0.538161 0.036289 0.048308 255 220 0
0.504624 0.103060 0.080892 255 220 0
0.544240 0.066283 0.071201 255 220 0
0.529937 0.123444 0.014495 255 220 0
0.495217 0.053331 0.024182 255 220 0
0.503361 0.146210 0.079267 255 220 0
0.553129 0.135930 0.095240 255 220 0
0.505168 0.093411 0.020616 255 220 0
0.567625 0.172710 0.051419 255 220 0
0.536378 0.056063 0.017130 255 220 0
0.515036 0.027460 0.058167 255 220 0
0.539145 0.037505 0.048991 255 220 0
0.581076 0.114871 0.060411 255 220 0
0.578905 0.155830 0.060291 255 220 0
0.531477 0.086115 0.082214 255 220 0
0.525128 0.151436 0.027044 255 220 0
0.529862 0.181991 0.067638 255 220 0
0.556105 0.178959 0.048485 255 220 0
0.505359 0.160988 0.062968 255 220 0
0.482719 0.061271 0.049658 255 220 0
0.493569 0.131001 0.070288 255 220 0
0.487942 0.111484 0.062980 255 220 0
0.553427 0.167017 0.090777 255 220 0
0.539101 0.141040 0.096670 255 220 0
0.560466 0.094766 0.077803 255 220 0
0.576149 0.109783 0.070611 255 220 0
0.577485 0.104985 0.065281 255 220 0
0.567804 0.146490 0.089222 255 220 0
0.546158 0.151112 0.023776 255 220 0
0.554404 0.152741 0.026600 255 220 0
0.579786 0.123101 0.043491 255 220 0
0.487952 0.037272 0.031023 255 220 0
0.509371 0.131749 0.086937 255 220 0
0.529783 0.172885 0.043814 255 220 0
0.526604 0.091683 0.084142 255 220 0
0.548222 0.081288 0.015182 255 220 0
0.537927 0.079369 0.079023 255 220 0
0.519240 0.075059 0.012891 255 220 0
0.563609 0.093195 0.023266 255 220 0
0.581238 0.136491 0.055977 255 220 0
0.578881 0.105114 0.061124 255 220 0
0.565013 0.113508 0.083322 255 220 0
0.509443 0.057260 0.016837 255 220 0
0.566161 0.093568 0.025504 255 220 0
0.544369 0.078126 0.077313 255 220 0
0.501760 0.045789 0.021014 255 220 0
0.526667 0.126724 0.016064 255 220 0
0.492222 0.113555 0.071744 255 220 0
0.496032 0.097561 0.074342 255 220 0
0.540879 0.035733 0.040357 255 220 0
0.546706 0.041561 0.042265 255 220 0
0.557125 0.085061 0.074939 255 220 0
0.503515 0.060042 0.070610 255 220 0
0.576361 0.130352 0.077381 255 220 0
0.557337 0.071755 0.066687 255 220 0
0.547144 0.160515 0.029781 255 220 0
0.563774 0.179725 0.074446 255 220 0
0.558603 0.142833 0.094219 255 220 0
0.558993 0.166866 0.038452 255 220 0
0.547935 0.068029 0.018414 255 220 0
0.498176 0.142038 0.073914 255 220 0
0.488561 0.120551 0.057332 255 220 0
0.490376 0.046737 0.028103 255 220 0
0.555414 0.073508 0.021566 255 220 0
0.540546 0.053620 0.064806 255 220 0
0.492550 0.093012 0.032932 255 220 0
0.491767 0.126735 0.047000 255 220 0
0.483468 0.052800 0.057515 255 220 0
0.536281 0.108424 0.089733 255 220 0
0.507299 0.081009 0.076749 255 220 0
0.580713 0.135649 0.051340 255 220 0
0.571444 0.092458 0.031833 255 220 0
0.508396 0.087097 0.078741 255 220 0
0.527092 0.131935 0.017415 255 220 0
0.519591 0.036303 0.061524 255 220 0
0.526131 0.080482 0.011550 255 220 0
0.542416 0.099157 0.086432 255 220 0
0.533638 0.093348 0.011017 255 220 0
0.580639 0.111084 0.059163 255 220 0
0.520329 0.076301 0.012622 255 220 0
0.572854 0.128511 0.081673 255 220 0
0.515338 0.019389 0.046866 255 220 0
0.496705 0.120778 0.035068 255 220 0
0.544578 0.181870 0.080752 255 220 0
0.511756 0.080959 0.015400 255 220 0
0.489203 0.045908 0.064008 255 220 0
0.524306 0.136349 0.019805 255 220 0
0.529650 0.182025 0.064179 255 220 0
0.549962 0.170442 0.037917 255 220 0
0.580517 0.128062 0.067105 255 220 0
0.505164 0.015275 0.040356 255 220 0
0.519449 0.057362 0.014754 255 220 0
0.499050 0.052356 0.021680 255 220 0
0.531260 0.069363 0.075171 255 220 0
0.549867 0.157247 0.095102 255 220 0
0.552942 0.172369 0.087963 255 220 0
0.511006 0.016732 0.043878 255 220 0
0.505801 0.073236 0.018036 255 220 0
0.520875 0.161709 0.087302 255 220 0
0.563830 0.140281 0.026810 255 220 0
0.489353 0.069335 0.032014 255 220 0
0.578230 0.141998 0.046367 255 220 0
0.523504 0.060125 0.013945 255 220 0
0.554673 0.103910 0.016216 255 220 0
0.578617 0.157906 0.065584 255 220 0
0.503488 0.016332 0.050792 255 220 0
0.501530 0.027167 0.027438 255 220 0
0.574531 0.100925 0.068067 255 220 0
0.485990 0.066042 0.058725 255 220 0
0.525941 0.093336 0.011584 255 220 0
0.511119 0.152607 0.037370 255 220 0
0.515509 0.171609 0.071711 255 220 0
0.505916 0.135935 0.084291 255 220 0
0.490280 0.113235 0.068612 255 220 0
0.506491 0.071978 0.074135 255 220 0
0.478780 0.033937 0.045349 255 220 0
0.579584 0.104422 0.054211 255 220 0
0.497326 0.097244 0.028218 255 220 0
0.556270 0.168313 0.038183 255 220 0
0.519547 0.171483 0.078544 255 220 0
0.537747 0.137151 0.017410 255 220 0
0.542704 0.143718 0.019931 255 220 0
0.509503 0.071250 0.074799 255 220 0
0.518605 0.150278 0.090176 255 220 0
0.550277 0.072970 0.072310 255 220 0
0.508024 0.138790 0.030886 255 220 0
0.542708 0.132068 0.095675 255 220 0
0.526849 0.143053 0.094388 255 220 0
0.579477 0.134753 0.071364 255 220 0
0.480112 0.033609 0.055479 255 220 0
0.482083 0.023301 0.045984 255 220 0
0.535563 0.069385 0.013029 255 220 0
0.544201 0.038952 0.036443 255 220 0
0.545454 0.087784 0.013254 255 220 0
0.500918 0.031312 0.025424 255 220 0
0.557325 0.185323 0.063972 255 220 0
0.569655 0.071568 0.048922 255 220 0
0.536702 0.159708 0.093847 255 220 0
0.565868 0.072791 0.031807 255 220 0
0.577546 0.141574 0.077249 255 220 0
0.563014 0.060085 0.044626 255 220 0
0.533982 0.096527 0.085878 255 220 0
0.515512 0.145930 0.028608 255 220 0
0.505130 0.139106 0.033967 255 220 0
0.515523 0.125970 0.020465 255 220 0
0.552874 0.104145 0.015355 255 220 0
0.531086 0.059174 0.070480 255 220 0
0.507364 0.132130 0.028455 255 220 0
0.581359 0.132143 0.052963 255 220 0
0.509938 0.083432 0.078282 255 220 0
0.573449 0.098335 0.067959 255 220 0
0.548066 0.077592 0.075834 255 220 0
0.492626 0.061875 0.066453 255 220 0
0.527684 0.052777 0.015972 255 220 0
0.528276 0.103956 0.088142 255 220 0
0.564447 0.169726 0.044979 255 220 0
0.541580 0.057776 0.018887 255 220 0
0.536777 0.120132 0.093032 255 220 0
0.520755 0.172806 0.051680 255 220 0
0.574577 0.101976 0.034348 255 220 0
0.513085 0.021536 0.053861 255 220 0
0.517165 0.154745 0.033573 255 220 0
0.567335 0.177791 0.059773 255 220 0
0.505011 0.152836 0.077614 255 220 0
0.504649 0.156796 0.052370 255 220 0
0.499244 0.122739 0.079421 255 220 0
0.486528 0.072550 0.058839 255 220 0
0.514809 0.022544 0.053813 255 220 0
0.539499 0.072096 0.013476 255 220 0
0.536776 0.181460 0.052180 255 220 0
0.552741 0.186679 0.064582 255 220 0
0.561824 0.168120 0.041437 255 220 0
0.569461 0.151795 0.037356 255 220 0
0.546718 0.181790 0.049772 255 220 0
0.510938 0.134480 0.087846 255 220 0
0.533467 0.104596 0.088571 255 220 0
0.481456 0.031365 0.057186 255 220 0
0.564718 0.108335 0.081355 255 220 0
0.498359 0.022620 0.031226 255 220 0
0.502312 0.087231 0.076212 255 220 0
0.535987 0.046423 0.021375 255 220 0
0.539455 0.146884 0.021334 255 220 0
0.537326 0.084945 0.011452 255 220 0
0.533098 0.173466 0.042747 255 220 0
0.577635 0.117521 0.038047 255 220 0
0.566091 0.104204 0.078480 255 220 0
0.577047 0.130184 0.038985 255 220 0
0.571683 0.121312 0.080625 255 220 0
0.493250 0.039697 0.026478 255 220 0
0.554937 0.050163 0.038213 255 220 0
0.573267 0.159310 0.047163 255 220 0
0.488361 0.076988 0.062305 255 220 0
0.524885 0.065841 0.074199 255 220 0
0.497493 0.084422 0.025524 255 220 0
0.552070 0.186671 0.062532 255 220 0
0.499726 0.120591 0.079844 255 220 0
0.545514 0.045778 0.053174 255 220 0
0.546860 0.184382 0.076915 255 220 0
0.520154 0.165430 0.042176 255 220 0
0.556522 0.157254 0.093635 255 220 0
0.538479 0.069263 0.074234 255 220 0
0.513503 0.019960 0.050793 255 220 0
0.488268 0.095303 0.064257 255 220 0
0.550816 0.144266 0.096449 255 220 0
0.540284 0.035255 0.035640 255 220 0
0.517121 0.050513 0.016425 255 220 0
0.581691 0.118486 0.058603 255 220 0
0.547697 0.143650 0.096817 255 220 0
0.544756 0.054473 0.022426 255 220 0
0.505527 0.060326 0.071134 255 220 0
0.570110 0.071869 0.042549 255 220 0
0.537290 0.087178 0.082344 255 220 0
0.567626 0.168737 0.082148 255 220 0
0.523115 0.064149 0.013291 255 220 0
0.527534 0.054752 0.068985 255 220 0
0.510626 0.041350 0.065755 255 220 0
0.573547 0.115265 0.076361 255 220 0
0.493679 0.095847 0.032081 255 220 0
0.547415 0.052998 0.025187 255 220 0
0.550044 0.047601 0.049513 255 220 0
0.511047 0.032900 0.023068 255 220 0
0.537115 0.034717 0.030574 255 220 0
0.510934 0.165512 0.073634 255 220 0
0.537073 0.103406 0.011267 255 220 0
0.501853 0.059593 0.070101 255 220 0
0.479611 0.028891 0.044870 255 220 0
0.578169 0.132082 0.074314 255 220 0
0.553014 0.051545 0.051339 255 220 0
0.558385 0.127526 0.091782 255 220 0
0.498924 0.117691 0.031521 255 220 0
0.520496 0.176865 0.063627 255 220 0
0.517024 0.172437 0.057068 255 220 0
0.492531 0.074076 0.028912 255 220 0
0.565117 0.106611 0.080314 255 220 0
0.499259 0.057688 0.021462 255 220 0
0.505400 0.160275 0.058348 255 220 0
0.529382 0.137951 0.018837 255 220 0
0.535153 0.092952 0.084590 255 220 0
0.578440 0.150384 0.052240 255 220 0
0.524510 0.092950 0.084361 255 220 0
0.550056 0.094422 0.083027 255 220 0
0.554244 0.092128 0.016868 255 220 0
0.501842 0.053606 0.068956 255 220 0
0.485362 0.022316 0.040567 255 220 0
0.497581 0.102628 0.029075 255 220 0
0.563557 0.164083 0.087949 255 220 0
0.500197 0.045551 0.021731 255 220 0
0.543403 0.136896 0.017667 255 220 0
0.541853 0.065836 0.071727 255 220 0
0.481901 0.023387 0.046610 255 220 0
0.542235 0.053172 0.021470 255 220 0
0.552811 0.169221 0.037567 255 220 0
0.577739 0.097114 0.056035 255 220 0
0.498343 0.108937 0.029713 255 220 0
0.532349 0.157718 0.093478 255 220 0
0.484301 0.069134 0.052867 255 220 0
0.543579 0.180674 0.048519 255 220 0
0.549226 0.172738 0.088457 255 220 0
0.493682 0.133857 0.048592 255 220 0
0.570877 0.169121 0.052268 255 220 0
0.492877 0.112417 0.037302 255 220 0
0.573553 0.139070 0.083461 255 220 0
0.558233 0.168519 0.039405 255 220 0
0.571087 0.091649 0.066514 255 220 0
0.560911 0.107588 0.019596 255 220 0
0.545835 0.041993 0.046112 255 220 0
0.533424 0.124113 0.093825 255 220 0
0.562021 0.069348 0.029038 255 220 0
0.525497 0.144799 0.023144 255 220 0
0.499564 0.152106 0.059310 255 220 0
0.511581 0.151588 0.085162 255 220 0
0.514281 0.149072 0.031499 255 220 0
0.509071 0.145722 0.033976 255 220 0
0.562290 0.080721 0.068331 255 220 0
0.511347 0.159274 0.080902 255 220 0
0.547603 0.108740 0.013354 255 220 0
0.500184 0.102825 0.078278 255 220 0
0.490318 0.096220 0.037246 255 220 0
0.490895 0.103850 0.069631 255 220 0
0.535377 0.033784 0.029801 255 220 0
0.485584 0.027031 0.036178 255 220 0
0.531509 0.089998 0.083655 255 220 0
0.575132 0.104275 0.034821 255 220 0
0.515671 0.153733 0.087418 255 220 0
0.523417 0.032353 0.057327 255 220 0
0.496966 0.036510 0.025089 255 220 0
0.497861 0.148753 0.058448 255 220 0
0.553124 0.061404 0.024912 255 220 0
0.524852 0.096262 0.011894 255 220 0
0.517569 0.105165 0.086428 255 220 0
0.541052 0.113720 0.012290 255 220 0
0.568202 0.068292 0.041888 255 220 0
0.532916 0.132946 0.095268 255 220 0
0.485269 0.051458 0.060507 255 220 0
0.578059 0.156668 0.071918 255 220 0
0.573417 0.152979 0.043212 255 220 0
0.520737 0.097534 0.012981 255 220 0
0.569654 0.080293 0.033483 255 220 0
0.571164 0.147432 0.086407 255 220 0
0.496603 0.145889 0.065121 255 220 0
0.579295 0.127590 0.070708 255 220 0
0.557103 0.166678 0.089838 255 220 0
0.508988 0.094934 0.080965 255 220 0
0.563335 0.061816 0.037102 255 220 0
0.568880 0.173144 0.076310 255 220 0
0.538104 0.068116 0.073736 255 220 0
0.512287 0.101364 0.017077 255 220 0
0.500885 0.062227 0.020565 255 220 0
0.494328 0.025801 0.030655 255 220 0
0.509697 0.162230 0.075988 255 220 0
0.490825 0.129308 0.060841 255 220 0
0.581740 0.119004 0.058476 255 220 0
0.558254 0.149786 0.026961 255 220 0
0.550526 0.179395 0.047068 255 220 0
0.566847 0.154026 0.035819 255 220 0
0.562476 0.071518 0.028500 255 220 0
0.517208 0.091955 0.013739 255 220 0
0.515959 0.167027 0.048972 255 220 0
0.579907 0.151231 0.063575 255 220 0
0.485024 0.075293 0.044461 255 220 0
0.493676 0.040451 0.065228 255 220 0
0.495090 0.033591 0.064568 255 220 0
0.491475 0.121481 0.043834 255 220 0
0.544082 0.080651 0.013524 255 220 0
0.489172 0.019986 0.039575 255 220 0
0.571792 0.155535 0.084352 255 220 0
0.522686 0.156799 0.090315 255 220 0
0.567279 0.069909 0.052937 255 220 0
0.566675 0.115479 0.082892 255 220 0
0.563281 0.073567 0.028448 255 220 0
0.512592 0.023764 0.056636 255 220 0
0.494781 0.141479 0.063485 255 220 0
0.548954 0.043929 0.036528 255 220 0
0.524672 0.179588 0.065358 255 220 0
0.544863 0.047427 0.055998 255 220 0
0.522354 0.035355 0.059990 255 220 0
0.528709 0.088284 0.011164 255 220 0
0.511500 0.168451 0.066874 255 220 0
0.563290 0.141084 0.026690 255 220 0
0.550466 0.090671 0.015077 255 220 0
0.502115 0.154808 0.069946 255 220 0
0.575073 0.087265 0.041178 255 220 0
0.538833 0.160061 0.029746 255 220 0
0.526318 0.119084 0.091820 255 220 0
0.512717 0.146947 0.031385 255 220 0
0.553022 0.149120 0.095915 255 220 0
0.510132 0.080965 0.077673 255 220 0
0.533401 0.060916 0.014589 255 220 0
0.495840 0.138120 0.071496 255 220 0
0.513902 0.027727 0.058848 255 220 0
0.500858 0.049323 0.020919 255 220 0
0.540526 0.162337 0.093509 255 220 0
0.535867 0.090653 0.011146 255 220 0
0.578076 0.141903 0.076039 255 220 0
0.504273 0.022197 0.030560 255 220 0
0.513521 0.150696 0.086969 255 220 0
0.581033 0.112158 0.051981 255 220 0
0.534736 0.125330 0.014276 255 220 0
0.496186 0.100051 0.030024 255 220 0
0.555204 0.071544 0.068249 255 220 0
0.550768 0.157603 0.028351 255 220 0
0.486849 0.061957 0.060884 255 220 0
0.543490 0.171567 0.089375 255 220 0
0.576726 0.095644 0.041711 255 220 0
0.518001 0.024464 0.029471 255 220 0
0.577749 0.108045 0.066752 255 220 0
0.504679 0.126727 0.028820 255 220 0
0.575564 0.123649 0.034989 255 220 0
0.574140 0.090180 0.060677 255 220 0
0.556435 0.154736 0.094239 255 220 0
0.552151 0.106983 0.087411 255 220 0
0.571562 0.098759 0.030449 255 220 0
0.538717 0.185432 0.065670 255 220 0
0.524732 0.073777 0.077498 255 220 0
0.488303 0.059405 0.031510 255 220 0
0.501644 0.107900 0.080057 255 220 0
0.569564 0.168820 0.049850 255 220 0
0.552683 0.093030 0.015949 255 220 0
0.575048 0.120076 0.033710 255 220 0
0.521276 0.069886 0.075978 255 220 0
0.514541 0.124473 0.020610 255 220 0
0.529860 0.125744 0.093720 255 220 0
0.513165 0.085872 0.079966 255 220 0
0.531721 0.148275 0.023247 255 220 0
0.578855 0.115594 0.040883 255 220 0
0.508267 0.016715 0.047997 255 220 0
0.560606 0.180178 0.053114 255 220 0
0.528990 0.027384 0.044912 255 220 0
0.487070 0.026195 0.060438 255 220 0
0.497688 0.028785 0.027661 255 220 0
0.500590 0.100560 0.078131 255 220 0
0.537694 0.058749 0.068980 255 220 0
0.558502 0.098640 0.080911 255 220 0
0.513119 0.018423 0.035189 255 220 0
0.578425 0.130498 0.041837 255 220 0
0.575871 0.155806 0.049440 255 220 0
0.522060 0.026012 0.051679 255 220 0
0.498182 0.018884 0.034970 255 220 0
0.509995 0.016355 0.043717 255 220 0
0.532518 0.096269 0.085824 255 220 0
0.577910 0.098583 0.045302 255 220 0
0.493507 0.136522 0.053130 255 220 0
0.510511 0.133744 0.026486 255 220 0
0.502199 0.080022 0.074452 255 220 0
0.512188 0.115696 0.086797 255 220 0
0.491362 0.130730 0.054209 255 220 0
0.493186 0.095570 0.032662 255 220 0
0.490380 0.040219 0.064215 255 220 0
0.510576 0.020688 0.031905 255 220 0
0.511336 0.018128 0.048803 255 220 0
0.495123 0.097370 0.073523 255 220 0
0.532337 0.164354 0.034093 255 220 0
0.553495 0.062740 0.063208 255 220 0
0.487369 0.028400 0.033877 255 220 0
0.488101 0.077084 0.036046 255 220 0
0.492750 0.025774 0.062401 255 220 0
0.529037 0.050554 0.066665 255 220 0
0.499236 0.151789 0.060811 255 220 0
0.553102 0.071077 0.020707 255 220 0
0.494373 0.015813 0.045063 255 220 0
0.497454 0.041462 0.023719 255 220 0
0.569541 0.117292 0.081234 255 220 0
0.511619 0.107027 0.018372 255 220 0
0.495350 0.074042 0.069374 255 220 0
0.525804 0.025553 0.046016 255 220 0
0.488936 0.092307 0.038948 255 220 0
0.580606 0.117316 0.064046 255 220 0
0.556114 0.156508 0.093945 255 220 0
0.514350 0.060990 0.072589 255 220 0
0.557952 0.167747 0.038582 255 220 0
0.504389 0.021004 0.031588 255 220 0
0.507841 0.115536 0.084751 255 220 0
0.491549 0.130796 0.053033 255 220 0
0.501589 0.075859 0.073206 255 220 0
0.510490 0.158825 0.045099 255 220 0
0.571468 0.093877 0.067573 255 220 0
0.539000 0.160905 0.093825 255 220 0
0.501352 0.112628 0.080506 255 220 0
0.578270 0.102014 0.044318 255 220 0
0.494544 0.136675 0.069199 255 220 0
0.564189 0.062432 0.038590 255 220 0
0.545323 0.058593 0.065888 255 220 0
0.559111 0.062021 0.056538 255 220 0
0.482333 0.056879 0.052224 255 220 0
0.487888 0.072912 0.035263 255 220 0
0.567191 0.104955 0.024685 255 220 0
0.507526 0.128364 0.026871 255 220 0
0.535633 0.101651 0.011156 255 220 0
0.500681 0.071019 0.021172 255 220 0
0.519685 0.026291 0.028274 255 220 0
0.561082 0.159873 0.091021 255 220 0
0.532855 0.046477 0.063204 255 220 0
0.573718 0.091771 0.035656 255 220 0
0.518902 0.106869 0.087228 255 220 0
0.515516 0.150166 0.031286 255 220 0
0.562975 0.114234 0.020947 255 220 0
0.579553 0.148441 0.055060 255 220 0
0.511714 0.133157 0.088315 255 220 0
0.560391 0.077252 0.067764 255 220 0
0.540998 0.069115 0.073671 255 220 0
0.546020 0.092532 0.013179 255 220 0
0.502178 0.017054 0.053178 255 220 0
0.494303 0.026512 0.062877 255 220 0
0.487601 0.112105 0.050116 255 220 0
0.571666 0.103967 0.029668 255 220 0
0.515009 0.171846 0.061151 255 220 0
0.495427 0.132245 0.073420 255 220 0
0.486554 0.106101 0.052787 255 220 0
0.559096 0.059815 0.053897 255 220 0
0.524667 0.062416 0.072759 255 220 0
0.561018 0.072169 0.063598 255 220 0
0.547505 0.118357 0.014055 255 220 0
0.517809 0.020203 0.045275 255 220 0
0.486472 0.038001 0.062191 255 220 0
0.513048 0.111453 0.018315 255 220 0
0.504488 0.118334 0.026320 255 220 0
0.564007 0.087855 0.024751 255 220 0
0.508204 0.161411 0.052848 255 220 0
0.578739 0.127772 0.072082 255 220 0
0.566337 0.137364 0.027845 255 220 0
0.561572 0.153979 0.031283 255 220 0
0.479389 0.034141 0.043117 255 220 0
0.534022 0.172173 0.040923 255 220 0
0.504500 0.062063 0.071278 255 220 0
0.566586 0.151604 0.089693 255 220 0
0.485666 0.061422 0.059132 255 220 0
0.542719 0.057471 0.019668 255 220 0
0.535516 0.040993 0.024242 255 220 0
0.573222 0.153781 0.043406 255 220 0
0.501693 0.140734 0.039226 255 220 0
0.529629 0.147762 0.023467 255 220 0
0.494584 0.141281 0.061602 255 220 0
0.498885 0.147188 0.071654 255 220 0
0.485625 0.046069 0.061460 255 220 0
0.569426 0.075059 0.055105 255 220 0
0.504408 0.100488 0.022379 255 220 0
0.487831 0.100155 0.063729 255 220 0
0.509666 0.027145 0.026594 255 220 0
0.522274 0.095485 0.084836 255 220 0
0.527355 0.145869 0.094333 255 220 0
0.568939 0.070377 0.040072 255 220 0
0.577219 0.096539 0.058034 255 220 0
0.575180 0.085827 0.053063 255 220 0
0.512795 0.089205 0.080790 255 220 0
0.494576 0.120875 0.074470 255 220 0
0.571322 0.094404 0.068098 255 220 0
0.499046 0.150960 0.058341 255 220 0
0.565288 0.166263 0.042756 255 220 0
0.511434 0.099248 0.017282 255 220 0
0.578791 0.107166 0.043169 255 220 0
0.498602 0.095518 0.026576 255 220 0
0.511570 0.162705 0.078336 255 220 0
0.551356 0.162364 0.093272 255 220 0
0.541368 0.157634 0.095049 255 220 0
0.503826 0.158060 0.057759 255 220 0
0.526911 0.041419 0.020357 255 220 0
0.531939 0.113736 0.091229 255 220 0
0.564046 0.153035 0.032716 255 220 0
0.516790 0.088890 0.081790 255 220 0
0.569048 0.147450 0.034649 255 220 0
0.577125 0.114935 0.037060 255 220 0
0.493875 0.128712 0.043506 255 220 0
0.482961 0.042604 0.059036 255 220 0
0.543672 0.106264 0.012273 255 220 0
0.504949 0.106669 0.081775 255 220 0
0.531271 0.099166 0.011146 255 220 0
0.568053 0.171909 0.078968 255 220 0
0.520884 0.042108 0.019025 255 220 0
0.554026 0.142380 0.095698 255 220 0
0.488919 0.082370 0.063740 255 220 0
0.551418 0.162449 0.093229 255 220 0
0.569772 0.156567 0.040524 255 220 0
0.538171 0.099061 0.011307 255 220 0
0.575764 0.115608 0.034594 255 220 0
0.490383 0.117498 0.044103 255 220 0
0.552720 0.151852 0.095709 255 220 0
0.555176 0.085220 0.076237 255 220 0
0.522749 0.080549 0.012033 255 220 0
0.532763 0.047446 0.019387 255 220 0
0.497982 0.130024 0.077498 255 220 0
0.547451 0.070771 0.017237 255 220 0
0.557296 0.174386 0.085202 255 220 0
0.507277 0.158498 0.076106 255 220 0
0.574521 0.086214 0.040156 255 220 0
0.548685 0.057561 0.023532 255 220 0
0.534644 0.128658 0.015111 255 220 0
0.553129 0.140900 0.021218 255 220 0
0.516136 0.130167 0.021445 255 220 0
0.571885 0.075510 0.047518 255 220 0
0.505431 0.025178 0.060517 255 220 0
0.566457 0.158375 0.038064 255 220 0
