ply
format ascii 1.0
element vertex 1024
property float x
property float y
property float z
property uchar red
property uchar green
property uchar blue
end_header
0.370127 0.231808 0.081804 255 220 0
0.376748 0.119891 0.019938 255 220 0
0.370698 0.069926 0.036177 255 220 0
0.363030 0.073040 0.029367 255 220 0
0.394801 0.147223 0.023885 255 220 0
0.340337 0.125912 0.069235 255 220 0
0.387576 0.181889 0.105370 255 220 0
0.357064 0.093967 0.070439 255 220 0
0.370196 0.065204 0.043693 255 220 0
0.390854 0.163529 0.023322 255 220 0
0.404681 0.153000 0.030291 255 220 0
0.366163 0.087122 0.023601 255 220 0
0.359475 0.109958 0.077204 255 220 0
0.340013 0.149381 0.075640 255 220 0
0.408226 0.217162 0.081666 255 220 0
0.361305 0.220766 0.089130 255 220 0
0.335705 0.091388 0.031025 255 220 0
0.401896 0.194414 0.037327 255 220 0
0.407868 0.126900 0.082198 255 220 0
0.352101 0.217704 0.056876 255 220 0
0.373993 0.074316 0.034018 255 220 0
0.399868 0.208139 0.044625 255 220 0
0.362572 0.063324 0.049420 255 220 0
0.366825 0.198522 0.032390 255 220 0
0.367774 0.176416 0.024309 255 220 0
0.366403 0.077529 0.064006 255 220 0
0.336748 0.064266 0.043912 255 220 0
0.392246 0.227648 0.090666 255 220 0
0.354949 0.175552 0.027824 255 220 0
0.414866 0.132846 0.048556 255 220 0
0.408201 0.108925 0.068128 255 220 0
0.371327 0.123748 0.019387 255 220 0
0.367431 0.130828 0.019646 255 220 0
0.377898 0.155734 0.020303 255 220 0
0.331112 0.138679 0.048172 255 220 0
0.383388 0.230951 0.089322 255 220 0
0.375992 0.180141 0.024431 255 220 0
0.374735 0.089821 0.025149 255 220 0
0.347521 0.137277 0.026137 255 220 0
0.349713 0.154467 0.086430 255 220 0
0.384661 0.114990 0.084562 255 220 0
0.378542 0.073160 0.039073 255 220 0
0.337084 0.197588 0.061861 255 220 0
0.395415 0.197360 0.104169 255 220 0
0.395023 0.144160 0.024077 255 220 0
0.340991 0.117221 0.067569 255 220 0
0.338539 0.159381 0.076259 255 220 0
0.362765 0.075322 0.027815 255 220 0
0.380252 0.144989 0.019820 255 220 0
0.345038 0.100506 0.025194 255 220 0
0.333177 0.181400 0.053868 255 220 0
0.395839 0.183374 0.029416 255 220 0
0.336696 0.147939 0.035784 255 220 0
0.385290 0.112013 0.023214 255 220 0
0.410709 0.121584 0.076510 255 220 0
0.333637 0.090483 0.056467 255 220 0
0.419695 0.156839 0.076311 255 220 0
0.365672 0.210851 0.098563 255 220 0
0.373271 0.147753 0.019801 255 220 0
0.377696 0.175522 0.104390 255 220 0
0.367182 0.132067 0.019708 255 220 0
0.355277 0.137816 0.085301 255 220 0
0.343501 0.069429 0.030687 255 220 0
0.357529 0.177119 0.027225 255 220 0
0.343503 0.196954 0.045049 255 220 0
0.337901 0.186267 0.076376 255 220 0
0.406714 0.177562 0.035278 255 220 0
0.378314 0.233862 0.065465 255 220 0
0.363920 0.205055 0.099718 255 220 0
0.386376 0.205476 0.037033 255 220 0
0.373685 0.216353 0.043765 255 220 0
0.359105 0.079984 0.065306 255 220 0
0.417448 0.141596 0.051163 255 220 0
0.352474 0.075148 0.026680 255 220 0
0.406332 0.161328 0.095438 255 220 0
0.364158 0.208783 0.098537 255 220 0
0.400761 0.096780 0.063205 255 220 0
0.386200 0.124344 0.088544 255 220 0
0.332828 0.102471 0.055312 255 220 0
0.409359 0.193603 0.044354 255 220 0
0.399506 0.200278 0.101803 255 220 0
0.364458 0.130306 0.087040 255 220 0
0.406509 0.183546 0.037002 255 220 0
0.387351 0.195411 0.106117 255 220 0
0.334601 0.153005 0.069016 255 220 0
0.333687 0.084213 0.056144 255 220 0
0.386707 0.128788 0.090275 255 220 0
0.399427 0.199483 0.038490 255 220 0
0.420072 0.155109 0.054562 255 220 0
0.355049 0.090949 0.068711 255 220 0
0.342454 0.148197 0.030165 255 220 0
0.413094 0.208119 0.070345 255 220 0
0.411938 0.209777 0.067318 255 220 0
0.351288 0.191160 0.092920 255 220 0
0.385856 0.218878 0.099218 255 220 0
0.329101 0.088189 0.047270 255 220 0
0.382759 0.196174 0.030911 255 220 0
0.379013 0.140207 0.094644 255 220 0
0.346154 0.103578 0.024723 255 220 0
0.385266 0.219768 0.047333 255 220 0
0.332130 0.125895 0.053954 255 220 0
0.398776 0.222227 0.057588 255 220 0
0.409564 0.151082 0.090426 255 220 0
0.417003 0.195920 0.071880 255 220 0
0.391840 0.098314 0.031839 255 220 0
0.390039 0.082924 0.056974 255 220 0
0.407748 0.186651 0.096156 255 220 0
0.396348 0.231448 0.077035 255 220 0
0.357352 0.200250 0.037104 255 220 0
0.354521 0.062710 0.036998 255 220 0
0.340233 0.158265 0.078117 255 220 0
0.381137 0.181839 0.025076 255 220 0
0.388831 0.112554 0.082668 255 220 0
0.354009 0.140218 0.023432 255 220 0
0.382006 0.235540 0.077646 255 220 0
0.359749 0.223552 0.084076 255 220 0
0.361424 0.140512 0.089290 255 220 0
0.413543 0.207291 0.074181 255 220 0
0.364516 0.194925 0.031176 255 220 0
0.354034 0.163648 0.091941 255 220 0
0.348498 0.213086 0.055641 255 220 0
0.377354 0.206911 0.104146 255 220 0
0.328691 0.085209 0.046174 255 220 0
0.400498 0.129343 0.028805 255 220 0
0.411136 0.171015 0.038190 255 220 0
0.416967 0.196158 0.071236 255 220 0
0.342497 0.208378 0.064806 255 220 0
0.331942 0.119628 0.048538 255 220 0
0.411586 0.211873 0.077091 255 220 0
0.339050 0.198537 0.053706 255 220 0
0.377411 0.135721 0.092884 255 220 0
0.391444 0.116429 0.084002 255 220 0
0.417337 0.170479 0.047885 255 220 0
0.359673 0.153389 0.092416 255 220 0
0.367091 0.200961 0.102422 255 220 0
0.374871 0.189535 0.105643 255 220 0
0.332467 0.107066 0.054057 255 220 0
0.392197 0.142660 0.094597 255 220 0
0.331337 0.149953 0.060812 255 220 0
0.417623 0.158589 0.082126 255 220 0
0.409283 0.107333 0.059567 255 220 0
0.347427 0.125404 0.075816 255 220 0
0.342224 0.164327 0.081720 255 220 0
0.331365 0.098348 0.039333 255 220 0
0.346104 0.134409 0.077515 255 220 0
0.366289 0.204797 0.101123 255 220 0
0.338517 0.192755 0.075200 255 220 0
0.405375 0.220575 0.066284 255 220 0
0.359421 0.062206 0.048739 255 220 0
0.406407 0.173559 0.033905 255 220 0
0.335637 0.166059 0.039934 255 220 0
0.380878 0.155133 0.099534 255 220 0
0.328620 0.084015 0.046211 255 220 0
0.347801 0.180853 0.089755 255 220 0
0.362897 0.175650 0.099371 255 220 0
0.399656 0.093503 0.050327 255 220 0
0.369884 0.122437 0.085934 255 220 0
0.420413 0.173612 0.075645 255 220 0
0.396079 0.087940 0.053667 255 220 0
0.418271 0.156401 0.049010 255 220 0
0.343401 0.158753 0.081777 255 220 0
0.332646 0.085371 0.055036 255 220 0
0.372499 0.174614 0.103111 255 220 0
0.381636 0.164545 0.021580 255 220 0
0.376972 0.177249 0.104613 255 220 0
0.354550 0.139127 0.023148 255 220 0
0.364110 0.089850 0.022557 255 220 0
0.371122 0.129454 0.089166 255 220 0
0.369939 0.232824 0.075262 255 220 0
0.403015 0.100919 0.047475 255 220 0
0.346093 0.112129 0.025167 255 220 0
0.396861 0.223958 0.057763 255 220 0
0.337601 0.175699 0.040639 255 220 0
0.368686 0.186181 0.103600 255 220 0
0.332622 0.145708 0.042340 255 220 0
0.356589 0.114792 0.077842 255 220 0
0.385534 0.098334 0.074754 255 220 0
0.361489 0.075646 0.027291 255 220 0
0.383568 0.199239 0.032673 255 220 0
0.342972 0.083872 0.026491 255 220 0
0.389977 0.234412 0.077285 255 220 0
0.332315 0.151917 0.043024 255 220 0
0.360514 0.224836 0.083066 255 220 0
0.350078 0.155626 0.026298 255 220 0
0.368370 0.072110 0.059108 255 220 0
0.331095 0.105329 0.048015 255 220 0
0.354873 0.060650 0.042396 255 220 0
0.379160 0.223272 0.096143 255 220 0
0.383916 0.075262 0.051604 255 220 0
0.405045 0.103459 0.066208 255 220 0
0.396369 0.099328 0.036535 255 220 0
0.376318 0.182003 0.024939 255 220 0
0.331270 0.086629 0.053141 255 220 0
0.346923 0.156747 0.027992 255 220 0
0.376469 0.234641 0.079465 255 220 0
0.390139 0.117132 0.024355 255 220 0
0.418685 0.138392 0.071899 255 220 0
0.359583 0.084633 0.067350 255 220 0
0.395821 0.088097 0.049036 255 220 0
0.361344 0.141334 0.021275 255 220 0
0.416862 0.196578 0.070865 255 220 0
0.337911 0.106018 0.062365 255 220 0
0.345345 0.205124 0.081306 255 220 0
0.415673 0.157457 0.043634 255 220 0
0.365313 0.228526 0.082986 255 220 0
0.337805 0.129328 0.067205 255 220 0
0.405521 0.180322 0.035060 255 220 0
0.350673 0.060774 0.042069 255 220 0
0.409184 0.172843 0.094828 255 220 0
0.396310 0.106658 0.076513 255 220 0
0.366770 0.065608 0.051219 255 220 0
0.348554 0.153580 0.085238 255 220 0
0.377248 0.177247 0.104650 255 220 0
0.418271 0.181088 0.080333 255 220 0
0.374555 0.077579 0.061838 255 220 0
0.341015 0.195340 0.079277 255 220 0
0.376002 0.088897 0.070347 255 220 0
0.398051 0.108765 0.077115 255 220 0
0.387836 0.094120 0.030609 255 220 0
0.330912 0.149923 0.059228 255 220 0
0.382044 0.230022 0.057940 255 220 0
0.420269 0.144540 0.067479 255 220 0
0.337518 0.129178 0.066779 255 220 0
0.360539 0.121060 0.020508 255 220 0
0.347387 0.203467 0.085420 255 220 0
0.402135 0.181387 0.100484 255 220 0
0.383766 0.206208 0.036834 255 220 0
0.331727 0.088589 0.035340 255 220 0
0.371063 0.077191 0.062735 255 220 0
0.372976 0.188919 0.027208 255 220 0
0.338997 0.082502 0.028489 255 220 0
0.400652 0.122319 0.030400 255 220 0
0.406960 0.113283 0.043465 255 220 0
0.365946 0.069150 0.056943 255 220 0
0.401164 0.140353 0.091291 255 220 0
0.346911 0.088780 0.024590 255 220 0
0.385274 0.076316 0.051515 255 220 0
0.335360 0.093848 0.031696 255 220 0
0.393447 0.205563 0.039472 255 220 0
0.407580 0.170720 0.095938 255 220 0
0.332187 0.159819 0.065138 255 220 0
0.332444 0.176578 0.064221 255 220 0
0.421269 0.155374 0.068402 255 220 0
0.352317 0.139837 0.084065 255 220 0
0.361710 0.121812 0.020289 255 220 0
0.397063 0.129013 0.088119 255 220 0
0.413667 0.124866 0.074794 255 220 0
0.387995 0.125607 0.088824 255 220 0
0.353480 0.220437 0.078774 255 220 0
0.371085 0.167153 0.100983 255 220 0
0.356956 0.171837 0.026217 255 220 0
0.373611 0.232431 0.064212 255 220 0
0.399887 0.115912 0.080708 255 220 0
0.384839 0.228630 0.056557 255 220 0
0.376370 0.226258 0.093251 255 220 0
0.349086 0.128208 0.078027 255 220 0
0.349287 0.074614 0.061790 255 220 0
0.419827 0.150514 0.073190 255 220 0
0.398780 0.123822 0.028423 255 220 0
0.402386 0.099406 0.064621 255 220 0
0.370239 0.075075 0.061179 255 220 0
0.365709 0.229273 0.081814 255 220 0
0.381402 0.140971 0.095007 255 220 0
0.361119 0.090487 0.022216 255 220 0
0.381531 0.124644 0.088914 255 220 0
0.352881 0.085737 0.023532 255 220 0
0.404401 0.149764 0.030180 255 220 0
0.344375 0.195312 0.042974 255 220 0
0.411969 0.200823 0.054587 255 220 0
0.368188 0.081788 0.066548 255 220 0
0.358651 0.222637 0.056472 255 220 0
0.379231 0.167503 0.021852 255 220 0
0.335130 0.149974 0.037934 255 220 0
0.407625 0.200663 0.046651 255 220 0
0.403912 0.218518 0.089183 255 220 0
0.418078 0.184249 0.079458 255 220 0
0.332953 0.112333 0.040011 255 220 0
0.331830 0.169686 0.049652 255 220 0
0.401076 0.096634 0.048721 255 220 0
0.375393 0.233531 0.066204 255 220 0
0.381194 0.185241 0.106025 255 220 0
0.343743 0.210508 0.065940 255 220 0
0.363399 0.109258 0.020206 255 220 0
0.342100 0.151022 0.030621 255 220 0
0.338991 0.115145 0.064959 255 220 0
0.390832 0.138530 0.022473 255 220 0
0.397629 0.217775 0.051486 255 220 0
0.406009 0.125947 0.035340 255 220 0
0.355771 0.205468 0.041604 255 220 0
0.390982 0.156765 0.022646 255 220 0
0.396792 0.132101 0.025859 255 220 0
0.408934 0.217086 0.071794 255 220 0
0.374269 0.141623 0.094472 255 220 0
0.362821 0.107439 0.077393 255 220 0
0.338865 0.166531 0.035966 255 220 0
0.358177 0.141974 0.022176 255 220 0
0.343467 0.134649 0.075098 255 220 0
0.420345 0.161822 0.054769 255 220 0
0.352010 0.061487 0.049491 255 220 0
0.347162 0.202525 0.085583 255 220 0
0.389101 0.217263 0.046350 255 220 0
0.361695 0.125882 0.020406 255 220 0
0.355559 0.183830 0.029987 255 220 0
0.380001 0.166188 0.021689 255 220 0
0.375462 0.113468 0.020320 255 220 0
0.331260 0.142183 0.046456 255 220 0
0.414914 0.196828 0.058511 255 220 0
0.346340 0.211261 0.077192 255 220 0
0.350878 0.214928 0.054644 255 220 0
0.346088 0.109748 0.070164 255 220 0
0.336321 0.083154 0.058390 255 220 0
0.416406 0.198034 0.068993 255 220 0
0.359894 0.217245 0.090847 255 220 0
0.340847 0.156298 0.032144 255 220 0
0.331049 0.070020 0.043419 255 220 0
0.417958 0.192096 0.068769 255 220 0
0.410504 0.140002 0.038103 255 220 0
0.401859 0.099885 0.066102 255 220 0
0.354416 0.156092 0.024624 255 220 0
0.391034 0.087779 0.062630 255 220 0
0.375814 0.074349 0.035336 255 220 0
0.394802 0.086283 0.052826 255 220 0
0.338907 0.098316 0.062251 255 220 0
0.359228 0.210225 0.043424 255 220 0
0.359429 0.112449 0.078125 255 220 0
0.384653 0.221617 0.097597 255 220 0
0.407317 0.163841 0.033040 255 220 0
0.331009 0.165000 0.061072 255 220 0
0.411316 0.129801 0.042332 255 220 0
0.346646 0.117811 0.072823 255 220 0
0.337094 0.161523 0.074696 255 220 0
0.334914 0.074658 0.056112 255 220 0
0.395928 0.229326 0.084894 255 220 0
0.330172 0.149333 0.054193 255 220 0
0.394456 0.220380 0.095977 255 220 0
0.340573 0.073935 0.059295 255 220 0
0.379637 0.076093 0.036837 255 220 0
0.337503 0.070347 0.032739 255 220 0
0.415579 0.124240 0.057047 255 220 0
0.363176 0.066796 0.055240 255 220 0
0.417319 0.142798 0.077420 255 220 0
0.352173 0.149898 0.086976 255 220 0
0.383715 0.190713 0.028502 255 220 0
0.419624 0.160109 0.052323 255 220 0
0.410897 0.112317 0.054525 255 220 0
0.343640 0.079348 0.061641 255 220 0
0.418027 0.151558 0.078645 255 220 0
0.349274 0.068581 0.030239 255 220 0
0.402351 0.226404 0.073343 255 220 0
0.355686 0.155268 0.090787 255 220 0
0.403751 0.195816 0.039484 255 220 0
0.387654 0.082645 0.059328 255 220 0
0.384391 0.172985 0.104125 255 220 0
0.407930 0.208871 0.090892 255 220 0
0.338228 0.187970 0.076555 255 220 0
0.350315 0.078442 0.063236 255 220 0
0.367305 0.225360 0.054456 255 220 0
0.331440 0.173600 0.059555 255 220 0
0.392168 0.083048 0.049483 255 220 0
0.377332 0.174722 0.104186 255 220 0
0.417835 0.133767 0.057378 255 220 0
0.353022 0.161046 0.025779 255 220 0
0.362378 0.087257 0.023021 255 220 0
0.357840 0.225235 0.062823 255 220 0
0.391237 0.131369 0.090543 255 220 0
0.407239 0.214016 0.088313 255 220 0
0.355137 0.094153 0.022082 255 220 0
0.330783 0.139941 0.050372 255 220 0
0.398355 0.105640 0.074691 255 220 0
0.338290 0.149886 0.034028 255 220 0
0.356167 0.184259 0.096784 255 220 0
0.380780 0.071859 0.048074 255 220 0
0.328852 0.088108 0.044162 255 220 0
0.389362 0.132163 0.091207 255 220 0
0.353858 0.185319 0.095169 255 220 0
0.348292 0.113096 0.072674 255 220 0
0.371109 0.220141 0.047635 255 220 0
0.360652 0.120309 0.081623 255 220 0
0.344988 0.067206 0.031989 255 220 0
0.403402 0.202176 0.098588 255 220 0
0.384871 0.182904 0.025842 255 220 0
0.375573 0.116270 0.020066 255 220 0
0.417614 0.185155 0.080459 255 220 0
0.384949 0.138710 0.094119 255 220 0
0.342052 0.207459 0.067813 255 220 0
0.353564 0.132332 0.023010 255 220 0
0.384365 0.101144 0.025516 255 220 0
0.416770 0.127273 0.059136 255 220 0
0.374223 0.171688 0.022609 255 220 0
0.363577 0.121099 0.083093 255 220 0
0.344625 0.210295 0.073747 255 220 0
0.393967 0.231231 0.065988 255 220 0
0.405175 0.181122 0.035007 255 220 0
0.382182 0.088275 0.029607 255 220 0
0.419284 0.146766 0.073587 255 220 0
0.382362 0.205343 0.035993 255 220 0
0.351054 0.195799 0.092070 255 220 0
0.372213 0.228226 0.056618 255 220 0
0.404939 0.164273 0.030962 255 220 0
0.398244 0.151293 0.096191 255 220 0
0.340368 0.170742 0.080571 255 220 0
0.341818 0.163870 0.032568 255 220 0
0.361294 0.167066 0.096786 255 220 0
0.390193 0.187137 0.105527 255 220 0
0.406934 0.217715 0.065062 255 220 0
0.336949 0.067587 0.035597 255 220 0
0.375141 0.233473 0.082677 255 220 0
0.366443 0.074026 0.030004 255 220 0
0.397158 0.090417 0.048305 255 220 0
0.350722 0.160044 0.026573 255 220 0
0.401522 0.114852 0.033907 255 220 0
0.386547 0.148290 0.097273 255 220 0
0.366293 0.229805 0.063649 255 220 0
0.357414 0.124224 0.021335 255 220 0
0.382554 0.158296 0.100471 255 220 0
0.358596 0.180512 0.027745 255 220 0
0.398148 0.102159 0.036999 255 220 0
0.411330 0.190147 0.091457 255 220 0
0.414229 0.132623 0.078767 255 220 0
0.417647 0.139400 0.075494 255 220 0
0.364893 0.131965 0.087834 255 220 0
0.406433 0.219183 0.083424 255 220 0
0.392741 0.162650 0.100719 255 220 0
0.387936 0.198128 0.033107 255 220 0
0.358232 0.095986 0.071544 255 220 0
0.411446 0.125077 0.044814 255 220 0
0.336505 0.131237 0.065966 255 220 0
0.409353 0.178936 0.038329 255 220 0
0.378915 0.126587 0.089578 255 220 0
0.373653 0.234134 0.077563 255 220 0
0.348598 0.136069 0.025473 255 220 0
0.412724 0.114369 0.060121 255 220 0
0.360146 0.063769 0.037180 255 220 0
0.335222 0.187993 0.068558 255 220 0
0.330921 0.142664 0.056465 255 220 0
0.358082 0.194273 0.098044 255 220 0
0.358308 0.196538 0.034399 255 220 0
0.417964 0.159421 0.081679 255 220 0
0.413175 0.142557 0.041661 255 220 0
0.350359 0.173800 0.091247 255 220 0
0.397915 0.106859 0.075834 255 220 0
0.368621 0.111163 0.019929 255 220 0
0.332304 0.125130 0.054540 255 220 0
0.376572 0.128358 0.089995 255 220 0
0.343241 0.076051 0.027872 255 220 0
0.398441 0.116835 0.029915 255 220 0
0.388281 0.147856 0.021468 255 220 0
0.385729 0.145217 0.096312 255 220 0
0.410133 0.135007 0.038648 255 220 0
0.399588 0.228699 0.070569 255 220 0
0.344605 0.130719 0.074983 255 220 0
0.367648 0.168915 0.100003 255 220 0
0.373806 0.226827 0.091909 255 220 0
0.414974 0.172532 0.088370 255 220 0
0.393310 0.090498 0.063791 255 220 0
0.374677 0.165157 0.021480 255 220 0
0.403265 0.120387 0.081545 255 220 0
0.396374 0.192410 0.033050 255 220 0
0.383706 0.227326 0.054709 255 220 0
0.385925 0.234213 0.082096 255 220 0
0.336055 0.120845 0.035246 255 220 0
0.408111 0.147769 0.034018 255 220 0
0.400265 0.227436 0.081191 255 220 0
0.357682 0.063777 0.052896 255 220 0
0.399338 0.161899 0.026770 255 220 0
0.412435 0.208729 0.067463 255 220 0
0.385431 0.224144 0.095756 255 220 0
0.368484 0.219616 0.047826 255 220 0
0.368408 0.139420 0.019849 255 220 0
0.415171 0.150640 0.043513 255 220 0
0.399700 0.099725 0.041726 255 220 0
0.347629 0.113739 0.072393 255 220 0
0.391816 0.144166 0.095201 255 220 0
0.383435 0.083900 0.063749 255 220 0
0.337568 0.150655 0.072951 255 220 0
0.377957 0.115363 0.084743 255 220 0
0.389777 0.168569 0.023776 255 220 0
0.355726 0.097494 0.021748 255 220 0
0.336381 0.193540 0.067882 255 220 0
0.373736 0.186571 0.105213 255 220 0
0.365474 0.137753 0.020211 255 220 0
0.405792 0.221551 0.070114 255 220 0
0.395572 0.101824 0.033788 255 220 0
0.358518 0.074516 0.062752 255 220 0
0.383981 0.085197 0.064714 255 220 0
0.414790 0.165011 0.088263 255 220 0
0.412154 0.205749 0.084281 255 220 0
0.361232 0.135128 0.087404 255 220 0
0.379300 0.196941 0.030804 255 220 0
0.364612 0.229869 0.066913 255 220 0
0.396730 0.227065 0.061878 255 220 0
0.345257 0.207481 0.053222 255 220 0
0.332919 0.106205 0.038248 255 220 0
0.331987 0.177405 0.056560 255 220 0
0.330631 0.157267 0.048904 255 220 0
0.375446 0.217345 0.099173 255 220 0
0.360485 0.191067 0.099816 255 220 0
0.388919 0.144917 0.095902 255 220 0
0.405880 0.160258 0.095489 255 220 0
0.409568 0.155245 0.091684 255 220 0
0.389350 0.197483 0.105708 255 220 0
0.399539 0.197457 0.037376 255 220 0
0.405586 0.199635 0.043484 255 220 0
0.421136 0.172229 0.072036 255 220 0
0.346450 0.081501 0.025709 255 220 0
0.338540 0.179829 0.078437 255 220 0
0.375477 0.219477 0.046311 255 220 0
0.355911 0.140551 0.086535 255 220 0
0.406551 0.127448 0.035595 255 220 0
0.368550 0.128538 0.087941 255 220 0
0.381854 0.119707 0.020962 255 220 0
0.416400 0.140511 0.048870 255 220 0
0.416540 0.186339 0.082858 255 220 0
0.412690 0.155213 0.088602 255 220 0
0.390135 0.164131 0.101534 255 220 0
0.371661 0.101698 0.021329 255 220 0
0.417658 0.141129 0.051984 255 220 0
0.375091 0.127516 0.089404 255 220 0
0.363132 0.090116 0.022404 255 220 0
0.386091 0.171767 0.023471 255 220 0
0.330449 0.160020 0.058485 255 220 0
0.332967 0.144396 0.063644 255 220 0
0.389463 0.083040 0.057932 255 220 0
0.393690 0.089240 0.061839 255 220 0
0.387413 0.134919 0.092537 255 220 0
0.342019 0.107135 0.066342 255 220 0
0.402630 0.181154 0.100156 255 220 0
0.391577 0.121207 0.086227 255 220 0
0.397531 0.207211 0.042501 255 220 0
0.391822 0.229624 0.088387 255 220 0
0.378953 0.193665 0.106278 255 220 0
0.404063 0.214594 0.055100 255 220 0
0.405079 0.114388 0.039282 255 220 0
0.334253 0.188834 0.061079 255 220 0
0.333568 0.166030 0.043512 255 220 0
0.349758 0.090899 0.023529 255 220 0
0.410223 0.120387 0.045064 255 220 0
0.377786 0.102204 0.078284 255 220 0
0.348662 0.137420 0.025531 255 220 0
0.340983 0.171786 0.035316 255 220 0
0.330192 0.098224 0.046180 255 220 0
0.361706 0.158022 0.094680 255 220 0
0.342232 0.128566 0.072025 255 220 0
0.418184 0.185219 0.078553 255 220 0
0.419529 0.140625 0.060073 255 220 0
0.342198 0.134800 0.073862 255 220 0
0.385763 0.177059 0.024495 255 220 0
0.360900 0.083739 0.067163 255 220 0
0.388506 0.125376 0.022483 255 220 0
0.368840 0.148895 0.095156 255 220 0
0.395204 0.138541 0.024474 255 220 0
0.415034 0.161145 0.087224 255 220 0
0.382923 0.120984 0.021125 255 220 0
0.397596 0.179383 0.102531 255 220 0
0.364044 0.065861 0.053397 255 220 0
0.350890 0.165430 0.027336 255 220 0
0.371812 0.231181 0.085217 255 220 0
0.373936 0.125367 0.019412 255 220 0
0.332499 0.091984 0.055028 255 220 0
0.382117 0.181458 0.025058 255 220 0
0.365986 0.229703 0.063736 255 220 0
0.396184 0.217694 0.050308 255 220 0
0.411024 0.178508 0.093038 255 220 0
0.357988 0.060909 0.043316 255 220 0
0.381524 0.102170 0.023967 255 220 0
0.360293 0.096570 0.021314 255 220 0
0.364530 0.118024 0.082221 255 220 0
0.370497 0.207667 0.102114 255 220 0
0.376187 0.222505 0.096071 255 220 0
0.361579 0.062838 0.048976 255 220 0
0.367576 0.117521 0.019627 255 220 0
0.348084 0.210285 0.081815 255 220 0
0.414129 0.187676 0.048792 255 220 0
0.346662 0.113601 0.024952 255 220 0
0.418099 0.191158 0.072559 255 220 0
0.385455 0.105078 0.024875 255 220 0
0.411420 0.150378 0.037816 255 220 0
0.409466 0.208096 0.088717 255 220 0
0.351757 0.062454 0.051780 255 220 0
0.360366 0.071885 0.029338 255 220 0
0.405751 0.151206 0.093123 255 220 0
0.331650 0.111619 0.047454 255 220 0
0.388083 0.138188 0.021518 255 220 0
0.362118 0.197997 0.033615 255 220 0
0.350163 0.219044 0.064820 255 220 0
0.336578 0.183692 0.074231 255 220 0
0.330138 0.159435 0.054845 255 220 0
0.342860 0.119376 0.069974 255 220 0
0.331858 0.078518 0.034574 255 220 0
0.416454 0.154179 0.082812 255 220 0
0.354973 0.141613 0.023182 255 220 0
0.401729 0.215890 0.053534 255 220 0
0.350677 0.219488 0.072728 255 220 0
0.395172 0.182776 0.028913 255 220 0
0.398333 0.189705 0.032923 255 220 0
0.345259 0.118832 0.071972 255 220 0
0.344971 0.198933 0.084163 255 220 0
0.382716 0.122384 0.087971 255 220 0
0.362543 0.183711 0.027428 255 220 0
0.364317 0.182240 0.101187 255 220 0
0.350553 0.192357 0.092131 255 220 0
0.408048 0.185364 0.095889 255 220 0
0.328472 0.078811 0.044216 255 220 0
0.334712 0.068105 0.037378 255 220 0
0.396453 0.114846 0.028827 255 220 0
0.394135 0.086197 0.055713 255 220 0
0.404833 0.133686 0.032174 255 220 0
0.360655 0.075878 0.026977 255 220 0
0.390701 0.234320 0.075765 255 220 0
0.410595 0.120642 0.075963 255 220 0
0.359277 0.209415 0.094902 255 220 0
0.414930 0.120740 0.058935 255 220 0
0.403540 0.192396 0.099778 255 220 0
0.406826 0.108632 0.069964 255 220 0
0.361618 0.145835 0.091056 255 220 0
0.370119 0.191070 0.028262 255 220 0
0.358564 0.184056 0.028847 255 220 0
0.374177 0.170717 0.022430 255 220 0
0.410200 0.150478 0.036223 255 220 0
0.366682 0.107596 0.078688 255 220 0
0.363176 0.176904 0.025438 255 220 0
0.418091 0.181843 0.080537 255 220 0
0.343849 0.131195 0.074406 255 220 0
0.404882 0.148564 0.092724 255 220 0
0.379067 0.127081 0.089788 255 220 0
0.334153 0.108208 0.057614 255 220 0
0.388403 0.098063 0.029080 255 220 0
0.355368 0.153091 0.089979 255 220 0
0.405924 0.218069 0.063162 255 220 0
0.399385 0.103881 0.037571 255 220 0
0.360442 0.169904 0.097011 255 220 0
0.363872 0.219393 0.049260 255 220 0
0.421012 0.150408 0.063048 255 220 0
0.358833 0.068277 0.058459 255 220 0
0.369187 0.200214 0.032802 255 220 0
0.401665 0.227063 0.077062 255 220 0
0.338477 0.200137 0.066683 255 220 0
0.349491 0.202684 0.043764 255 220 0
0.333072 0.169940 0.067828 255 220 0
0.331959 0.118142 0.047336 255 220 0
0.360374 0.069363 0.059121 255 220 0
0.399711 0.117765 0.030804 255 220 0
0.377775 0.228827 0.056297 255 220 0
0.386312 0.235485 0.074151 255 220 0
0.405215 0.216146 0.058943 255 220 0
0.414172 0.200010 0.059899 255 220 0
0.387724 0.229505 0.058602 255 220 0
0.339477 0.182678 0.079758 255 220 0
0.359793 0.154004 0.092651 255 220 0
0.328941 0.076731 0.046499 255 220 0
0.390856 0.158850 0.100017 255 220 0
0.355910 0.067404 0.031606 255 220 0
0.337913 0.134500 0.068865 255 220 0
0.393483 0.092423 0.038074 255 220 0
0.394743 0.192781 0.032487 255 220 0
0.398452 0.130363 0.027115 255 220 0
0.378905 0.220158 0.046811 255 220 0
0.421780 0.166261 0.066617 255 220 0
0.393456 0.154639 0.098366 255 220 0
0.420599 0.178913 0.066291 255 220 0
0.397159 0.172090 0.101581 255 220 0
0.353185 0.083927 0.023874 255 220 0
0.402703 0.097994 0.061324 255 220 0
0.412995 0.208227 0.069810 255 220 0
0.331946 0.122847 0.050933 255 220 0
0.359348 0.114150 0.078738 255 220 0
0.356576 0.128686 0.021766 255 220 0
0.386640 0.235332 0.072025 255 220 0
0.333350 0.167845 0.068574 255 220 0
0.387618 0.093986 0.070717 255 220 0
0.375535 0.233585 0.082649 255 220 0
0.367768 0.211487 0.041050 255 220 0
0.377095 0.207915 0.103801 255 220 0
0.371394 0.118223 0.084642 255 220 0
0.360622 0.066557 0.056027 255 220 0
0.330642 0.141215 0.051332 255 220 0
0.370974 0.194840 0.104659 255 220 0
0.391073 0.082276 0.053498 255 220 0
0.378818 0.095318 0.024893 255 220 0
0.416089 0.168548 0.086674 255 220 0
0.368037 0.194094 0.103628 255 220 0
0.400679 0.100934 0.042384 255 220 0
0.343572 0.107545 0.067694 255 220 0
0.413876 0.120614 0.070473 255 220 0
0.366337 0.136476 0.090059 255 220 0
0.391978 0.219275 0.097755 255 220 0
0.385329 0.109036 0.023832 255 220 0
0.364271 0.102933 0.076073 255 220 0
0.350899 0.088571 0.066541 255 220 0
0.400859 0.165915 0.099051 255 220 0
0.350001 0.140255 0.025080 255 220 0
0.401830 0.099744 0.046143 255 220 0
0.393280 0.095822 0.069365 255 220 0
0.370724 0.077823 0.029322 255 220 0
0.390546 0.081309 0.047600 255 220 0
0.345325 0.212848 0.064906 255 220 0
0.397969 0.148753 0.025530 255 220 0
0.340775 0.106579 0.065173 255 220 0
0.332908 0.073499 0.034879 255 220 0
0.405597 0.182798 0.098116 255 220 0
0.395030 0.099999 0.072048 255 220 0
0.380141 0.178255 0.105093 255 220 0
0.354529 0.162263 0.025394 255 220 0
0.358167 0.224084 0.059493 255 220 0
0.358116 0.219140 0.052405 255 220 0
0.350810 0.118313 0.023283 255 220 0
0.391714 0.157092 0.099391 255 220 0
0.360480 0.101886 0.020836 255 220 0
0.347395 0.206518 0.049177 255 220 0
0.387052 0.183248 0.026365 255 220 0
0.363310 0.142255 0.090689 255 220 0
0.415478 0.199854 0.077289 255 220 0
0.353922 0.141725 0.085698 255 220 0
0.377280 0.144356 0.095896 255 220 0
0.410960 0.138642 0.039037 255 220 0
0.341393 0.100544 0.064572 255 220 0
0.340103 0.066984 0.034100 255 220 0
0.354715 0.147042 0.023678 255 220 0
0.385813 0.214755 0.101419 255 220 0
0.361418 0.089842 0.022357 255 220 0
0.400105 0.182810 0.031704 255 220 0
0.375599 0.114831 0.084169 255 220 0
0.334265 0.068216 0.037848 255 220 0
0.398888 0.099463 0.040491 255 220 0
0.398906 0.216595 0.051365 255 220 0
0.414120 0.146900 0.084124 255 220 0
0.354990 0.153406 0.024143 255 220 0
0.355599 0.207199 0.092757 255 220 0
0.332735 0.114300 0.041260 255 220 0
0.385511 0.228171 0.056153 255 220 0
0.372643 0.222720 0.094814 255 220 0
0.341840 0.179069 0.037091 255 220 0
0.408375 0.218176 0.072586 255 220 0
0.346620 0.157029 0.028194 255 220 0
0.397217 0.190046 0.103689 255 220 0
0.402924 0.216258 0.055490 255 220 0
0.403551 0.141703 0.090848 255 220 0
0.415388 0.154534 0.043371 255 220 0
0.391167 0.089839 0.064841 255 220 0
0.357020 0.173755 0.095928 255 220 0
0.412815 0.116968 0.054983 255 220 0
0.381515 0.190126 0.027968 255 220 0
0.341906 0.198142 0.047988 255 220 0
0.340949 0.199625 0.076446 255 220 0
0.367657 0.194302 0.030060 255 220 0
0.361952 0.190845 0.030159 255 220 0
0.395086 0.130478 0.089284 255 220 0
0.342524 0.207044 0.072004 255 220 0
0.406319 0.154696 0.031746 255 220 0
0.334794 0.150062 0.068643 255 220 0
0.344662 0.140748 0.028141 255 220 0
0.330399 0.150162 0.056694 255 220 0
0.389363 0.080251 0.046196 255 220 0
0.342198 0.071456 0.029958 255 220 0
0.360537 0.139081 0.088426 255 220 0
0.421251 0.152752 0.063557 255 220 0
0.343537 0.202085 0.080143 255 220 0
0.366282 0.079755 0.065427 255 220 0
0.357186 0.080853 0.024533 255 220 0
0.340839 0.194668 0.046692 255 220 0
0.406892 0.108388 0.047870 255 220 0
0.386919 0.141071 0.021098 255 220 0
0.346572 0.153685 0.083553 255 220 0
0.400866 0.159288 0.027500 255 220 0
0.412539 0.116918 0.069279 255 220 0
0.355752 0.182619 0.096359 255 220 0
0.330471 0.097137 0.049749 255 220 0
0.406128 0.207181 0.094193 255 220 0
0.415031 0.201703 0.066808 255 220 0
0.382734 0.142199 0.020124 255 220 0
0.417411 0.128496 0.061598 255 220 0
0.393602 0.198431 0.104646 255 220 0
0.336753 0.192117 0.052270 255 220 0
0.408314 0.178175 0.095730 255 220 0
0.379155 0.217133 0.100015 255 220 0
0.341576 0.142766 0.075554 255 220 0
0.410481 0.109962 0.063287 255 220 0
0.395654 0.223410 0.092809 255 220 0
0.371305 0.117033 0.084111 255 220 0
0.373276 0.145835 0.019700 255 220 0
0.362252 0.106442 0.020447 255 220 0
0.352515 0.070350 0.029061 255 220 0
0.343218 0.209643 0.066677 255 220 0
0.333841 0.175066 0.047034 255 220 0
0.416181 0.169060 0.086546 255 220 0
0.408912 0.196894 0.045746 255 220 0
0.392386 0.227152 0.058076 255 220 0
0.412493 0.202024 0.057197 255 220 0
0.413424 0.119125 0.054555 255 220 0
0.379346 0.136506 0.019606 255 220 0
0.360925 0.213249 0.045101 255 220 0
0.411648 0.201391 0.087981 255 220 0
0.337065 0.120016 0.033665 255 220 0
0.336037 0.086825 0.058512 255 220 0
0.337724 0.080016 0.059046 255 220 0
0.342251 0.166358 0.032739 255 220 0
0.403619 0.126521 0.032302 255 220 0
0.343992 0.064790 0.035096 255 220 0
0.394940 0.206430 0.102525 255 220 0
0.348428 0.205641 0.085659 255 220 0
0.406693 0.119092 0.078587 255 220 0
0.391775 0.166154 0.101759 255 220 0
0.414127 0.121204 0.054726 255 220 0
0.357098 0.070627 0.060551 255 220 0
0.335949 0.187541 0.050306 255 220 0
0.398244 0.091395 0.057574 255 220 0
0.361058 0.227097 0.062719 255 220 0
0.385731 0.095753 0.072822 255 220 0
0.364075 0.082844 0.067106 255 220 0
0.390835 0.133260 0.022747 255 220 0
0.348831 0.215435 0.058934 255 220 0
0.413686 0.188444 0.048386 255 220 0
0.408427 0.136909 0.035847 255 220 0
0.339325 0.201543 0.058413 255 220 0
0.418638 0.136134 0.070394 255 220 0
0.390143 0.206355 0.038764 255 220 0
0.351681 0.168286 0.091302 255 220 0
0.366353 0.192101 0.029405 255 220 0
0.373093 0.199758 0.104833 255 220 0
0.344342 0.128710 0.074125 255 220 0
0.393977 0.106380 0.029843 255 220 0
0.333335 0.184681 0.058153 255 220 0
0.357194 0.074764 0.062829 255 220 0
0.362305 0.093591 0.021664 255 220 0
0.362792 0.212203 0.096135 255 220 0
0.397183 0.135968 0.025782 255 220 0
0.404553 0.192683 0.098915 255 220 0
0.361493 0.067231 0.033704 255 220 0
0.341879 0.198927 0.078991 255 220 0
0.418612 0.161841 0.080931 255 220 0
0.394121 0.170670 0.025606 255 220 0
0.353089 0.144457 0.024078 255 220 0
0.388973 0.120978 0.086673 255 220 0
0.401464 0.204404 0.043063 255 220 0
0.331516 0.107705 0.050052 255 220 0
0.367134 0.221325 0.093134 255 220 0
0.419717 0.144600 0.071018 255 220 0
0.374187 0.070097 0.038748 255 220 0
0.409083 0.158391 0.092896 255 220 0
0.360716 0.171406 0.024938 255 220 0
0.421203 0.172105 0.062528 255 220 0
0.408939 0.140066 0.087129 255 220 0
0.376791 0.205432 0.104478 255 220 0
0.376936 0.157226 0.099852 255 220 0
0.420145 0.146839 0.058448 255 220 0
0.373336 0.233622 0.068900 255 220 0
0.357574 0.122238 0.081045 255 220 0
0.346136 0.103619 0.024733 255 220 0
0.335199 0.155292 0.070524 255 220 0
0.408303 0.217680 0.069865 255 220 0
0.409966 0.139416 0.037453 255 220 0
0.421386 0.168447 0.061411 255 220 0
0.355251 0.118107 0.078413 255 220 0
0.373263 0.169185 0.022223 255 220 0
0.353859 0.175204 0.094116 255 220 0
0.345920 0.133876 0.077184 255 220 0
0.386955 0.193900 0.030613 255 220 0
0.421623 0.164554 0.069827 255 220 0
0.357276 0.062914 0.051413 255 220 0
0.398629 0.228752 0.067937 255 220 0
0.376955 0.074388 0.057231 255 220 0
0.332573 0.072025 0.052285 255 220 0
0.356809 0.073325 0.027695 255 220 0
0.335264 0.147815 0.068855 255 220 0
0.373262 0.107410 0.080355 255 220 0
0.385692 0.148856 0.097512 255 220 0
0.367361 0.064149 0.042071 255 220 0
0.420533 0.179450 0.069428 255 220 0
0.414352 0.204983 0.073257 255 220 0
0.367741 0.073056 0.060236 255 220 0
0.354129 0.063875 0.035125 255 220 0
0.360758 0.062404 0.048405 255 220 0
0.360342 0.145503 0.090367 255 220 0
0.419096 0.147785 0.074540 255 220 0
0.339584 0.181967 0.040864 255 220 0
0.366843 0.178558 0.024986 255 220 0
0.338740 0.127209 0.067757 255 220 0
0.341412 0.163948 0.080716 255 220 0
0.337290 0.176146 0.041270 255 220 0
0.349304 0.139987 0.025395 255 220 0
0.333560 0.086378 0.056145 255 220 0
0.366534 0.066105 0.037843 255 220 0
0.359622 0.064516 0.053411 255 220 0
0.332530 0.144117 0.062519 255 220 0
0.382306 0.210560 0.039408 255 220 0
0.389889 0.111839 0.082039 255 220 0
0.344804 0.072782 0.028615 255 220 0
0.343579 0.121489 0.027430 255 220 0
0.336760 0.071987 0.056618 255 220 0
0.366738 0.098692 0.074980 255 220 0
0.340941 0.197891 0.049199 255 220 0
0.408594 0.117804 0.043432 255 220 0
0.346226 0.061181 0.042616 255 220 0
0.358148 0.085740 0.023183 255 220 0
0.395047 0.168010 0.101444 255 220 0
0.371991 0.151522 0.020151 255 220 0
0.335038 0.120635 0.060579 255 220 0
0.373648 0.072468 0.056911 255 220 0
0.342732 0.136871 0.029312 255 220 0
0.412683 0.167627 0.091115 255 220 0
0.376604 0.207168 0.103947 255 220 0
0.350770 0.108713 0.072911 255 220 0
0.403059 0.215430 0.054685 255 220 0
0.361154 0.066104 0.034756 255 220 0
0.338463 0.163465 0.076950 255 220 0
0.337988 0.176157 0.040303 255 220 0
0.338836 0.122959 0.066668 255 220 0
0.357949 0.204592 0.039774 255 220 0
0.403372 0.144002 0.091805 255 220 0
0.361315 0.210718 0.095832 255 220 0
0.334648 0.160018 0.070458 255 220 0
0.419798 0.151171 0.073583 255 220 0
0.333244 0.183051 0.055627 255 220 0
0.410559 0.110699 0.064952 255 220 0
0.381466 0.107454 0.081043 255 220 0
0.397926 0.111027 0.078677 255 220 0
0.331496 0.101947 0.040670 255 220 0
0.343821 0.117276 0.026932 255 220 0
0.418737 0.152491 0.050912 255 220 0
0.364106 0.173070 0.024367 255 220 0
0.396767 0.146927 0.024907 255 220 0
0.361634 0.115234 0.020274 255 220 0
0.376196 0.071936 0.038310 255 220 0
0.382295 0.210604 0.103339 255 220 0
0.371783 0.094620 0.073904 255 220 0
0.419842 0.140260 0.064549 255 220 0
0.347368 0.155493 0.084744 255 220 0
0.368834 0.195442 0.030349 255 220 0
0.416496 0.161336 0.045031 255 220 0
0.415232 0.198124 0.080438 255 220 0
0.339981 0.181422 0.080618 255 220 0
0.393712 0.126896 0.088170 255 220 0
0.373897 0.118166 0.085283 255 220 0
0.405285 0.138446 0.032026 255 220 0
0.349497 0.063241 0.053264 255 220 0
0.337915 0.072825 0.057688 255 220 0
0.336129 0.157164 0.037253 255 220 0
0.420494 0.151995 0.057431 255 220 0
0.354485 0.218677 0.055176 255 220 0
0.332205 0.178907 0.060096 255 220 0
0.334099 0.151273 0.039586 255 220 0
0.399146 0.108682 0.076475 255 220 0
0.359868 0.110644 0.077601 255 220 0
0.396248 0.121628 0.085102 255 220 0
0.405738 0.164321 0.031645 255 220 0
0.366951 0.066705 0.053034 255 220 0
0.331031 0.083866 0.052741 255 220 0
0.373210 0.156001 0.020430 255 220 0
0.361830 0.162889 0.023220 255 220 0
0.416182 0.135286 0.050749 255 220 0
0.352361 0.207486 0.045462 255 220 0
0.407194 0.178404 0.096691 255 220 0
0.415950 0.184945 0.051047 255 220 0
0.409840 0.201473 0.050790 255 220 0
0.333405 0.078628 0.032847 255 220 0
0.380578 0.218814 0.045694 255 220 0
0.342558 0.109235 0.067237 255 220 0
0.387956 0.202551 0.105217 255 220 0
0.331262 0.107019 0.047998 255 220 0
0.400054 0.103675 0.038800 255 220 0
0.391867 0.087143 0.040800 255 220 0
0.414754 0.202504 0.066837 255 220 0
0.353091 0.185802 0.031868 255 220 0
0.384999 0.193298 0.029904 255 220 0
0.336628 0.187230 0.048555 255 220 0
0.335812 0.193881 0.059021 255 220 0
0.330456 0.091832 0.051138 255 220 0
0.407532 0.124451 0.081118 255 220 0
0.363868 0.144871 0.020939 255 220 0
0.330402 0.146004 0.050322 255 220 0
0.368004 0.072210 0.032247 255 220 0
0.351666 0.144172 0.084936 255 220 0
0.350976 0.195187 0.092111 255 220 0
0.413979 0.118934 0.067845 255 220 0
0.412763 0.146411 0.085710 255 220 0
0.413388 0.135357 0.081125 255 220 0
0.345157 0.137228 0.077515 255 220 0
0.331181 0.167584 0.061453 255 220 0
0.402994 0.144548 0.092170 255 220 0
0.341903 0.196920 0.046974 255 220 0
0.407743 0.214533 0.061806 255 220 0
0.372462 0.143694 0.019649 255 220 0
0.420688 0.156271 0.072430 255 220 0
0.356885 0.139863 0.022416 255 220 0
0.343819 0.210337 0.069577 255 220 0
0.372558 0.212741 0.100793 255 220 0
0.362934 0.207638 0.098218 255 220 0
0.346298 0.204201 0.048102 255 220 0
0.385941 0.086938 0.033440 255 220 0
0.357060 0.163191 0.093684 255 220 0
0.411416 0.200730 0.053245 255 220 0
0.348273 0.137162 0.080224 255 220 0
0.415107 0.195508 0.057611 255 220 0
0.421819 0.163604 0.065692 255 220 0
0.344406 0.173668 0.033014 255 220 0
0.329240 0.088115 0.048028 255 220 0
0.403347 0.151977 0.029191 255 220 0
0.337392 0.154319 0.073628 255 220 0
0.392927 0.144237 0.023113 255 220 0
0.393738 0.222284 0.094891 255 220 0
0.381154 0.087260 0.029495 255 220 0
0.374211 0.193073 0.105568 255 220 0
0.331695 0.128320 0.052080 255 220 0
0.372630 0.212827 0.100776 255 220 0
0.412929 0.204958 0.062521 255 220 0
0.399011 0.144474 0.026366 255 220 0
0.421708 0.164074 0.062837 255 220 0
0.341229 0.162348 0.032769 255 220 0
0.372866 0.202457 0.104320 255 220 0
0.385086 0.135054 0.092804 255 220 0
0.385269 0.125305 0.021387 255 220 0
0.391487 0.093179 0.034782 255 220 0
0.332682 0.177040 0.065033 255 220 0
0.405128 0.117035 0.037822 255 220 0
0.381281 0.224576 0.095428 255 220 0
0.341076 0.205811 0.065958 255 220 0
0.418627 0.135003 0.069309 255 220 0
0.403626 0.104264 0.044917 255 220 0
0.393600 0.174030 0.026073 255 220 0
0.407100 0.187469 0.038957 255 220 0
0.374204 0.174986 0.023281 255 220 0
0.413147 0.124604 0.075436 255 220 0
0.348932 0.071904 0.060686 255 220 0
0.411051 0.206466 0.058713 255 220 0
