ply
format ascii 1.0
element vertex 1024
property float x
property float y
property float z
property uchar red
property uchar green
property uchar blue
end_header
0.371293 0.233639 0.083202 255 220 0
0.374499 0.122248 0.020130 255 220 0
0.371106 0.072068 0.036482 255 220 0
0.362764 0.075047 0.030449 255 220 0
0.392240 0.149958 0.022568 255 220 0
0.342781 0.127170 0.072683 255 220 0
0.391979 0.183996 0.104635 255 220 0
0.360243 0.095604 0.072060 255 220 0
0.371420 0.067295 0.043975 255 220 0
0.387901 0.166173 0.022505 255 220 0
0.402552 0.155920 0.028058 255 220 0
0.365029 0.089228 0.024522 255 220 0
0.362931 0.111608 0.078690 255 220 0
0.342547 0.150590 0.079270 255 220 0
0.409521 0.219858 0.079363 255 220 0
0.363446 0.222361 0.091242 255 220 0
0.335321 0.092764 0.034815 255 220 0
0.399535 0.197220 0.035643 255 220 0
0.411195 0.129609 0.079232 255 220 0
0.351308 0.219272 0.059976 255 220 0
0.374086 0.076544 0.034056 255 220 0
0.397904 0.210855 0.043206 255 220 0
0.364413 0.065211 0.050381 255 220 0
0.364073 0.200564 0.034065 255 220 0
0.364740 0.178531 0.025761 255 220 0
0.369292 0.079418 0.064650 255 220 0
0.338170 0.065601 0.047338 255 220 0
0.394235 0.229930 0.089909 255 220 0
0.352326 0.177357 0.030462 255 220 0
0.414855 0.135900 0.045127 255 220 0
0.410593 0.111725 0.065056 255 220 0
0.368968 0.125984 0.020121 255 220 0
0.364958 0.132973 0.020801 255 220 0
0.374892 0.158104 0.020660 255 220 0
0.331331 0.139842 0.052682 255 220 0
0.385220 0.233040 0.089430 255 220 0
0.372849 0.182439 0.025137 255 220 0
0.373648 0.092111 0.025276 255 220 0
0.345614 0.138934 0.029188 255 220 0
0.353108 0.155833 0.089137 255 220 0
0.388582 0.117166 0.083681 255 220 0
0.379117 0.075463 0.038651 255 220 0
0.337274 0.198795 0.066199 255 220 0
0.399328 0.199647 0.102820 255 220 0
0.392546 0.146899 0.022715 255 220 0
0.343465 0.118506 0.070896 255 220 0
0.340919 0.160551 0.080102 255 220 0
0.362303 0.077331 0.028946 255 220 0
0.377425 0.147418 0.019875 255 220 0
0.343860 0.102122 0.028201 255 220 0
0.332986 0.182567 0.058486 255 220 0
0.393002 0.186092 0.028254 255 220 0
0.335516 0.149295 0.039895 255 220 0
0.383483 0.114546 0.022526 255 220 0
0.413603 0.124390 0.073261 255 220 0
0.335684 0.091670 0.060331 255 220 0
0.421754 0.159840 0.072487 255 220 0
0.368900 0.212494 0.100145 255 220 0
0.370415 0.150024 0.020535 255 220 0
0.382192 0.177413 0.104541 255 220 0
0.364689 0.134206 0.020896 255 220 0
0.358905 0.139318 0.087361 255 220 0
0.343530 0.070989 0.033576 255 220 0
0.354803 0.178986 0.029635 255 220 0
0.342090 0.198400 0.048853 255 220 0
0.339705 0.187413 0.080486 255 220 0
0.404507 0.180494 0.033020 255 220 0
0.377855 0.235969 0.066181 255 220 0
0.367393 0.206653 0.101415 255 220 0
0.383817 0.207931 0.036898 255 220 0
0.371584 0.218481 0.044880 255 220 0
0.362097 0.081700 0.066651 255 220 0
0.417479 0.144691 0.047547 255 220 0
0.351958 0.076931 0.028785 255 220 0
0.410160 0.163919 0.092822 255 220 0
0.367437 0.210392 0.100246 255 220 0
0.402990 0.099443 0.060763 255 220 0
0.390284 0.126530 0.087572 255 220 0
0.334507 0.103644 0.059350 255 220 0
0.407644 0.196539 0.041929 255 220 0
0.403113 0.202670 0.100101 255 220 0
0.368372 0.132008 0.088169 255 220 0
0.404335 0.186462 0.034802 255 220 0
0.391529 0.197506 0.105504 255 220 0
0.336456 0.154127 0.073214 255 220 0
0.335841 0.085405 0.059956 255 220 0
0.390854 0.130975 0.089282 255 220 0
0.397077 0.202226 0.037073 255 220 0
0.420115 0.158240 0.050787 255 220 0
0.358141 0.092552 0.070507 255 220 0
0.340712 0.149715 0.033760 255 220 0
0.413496 0.210991 0.067564 255 220 0
0.412023 0.212639 0.064672 255 220 0
0.354483 0.192515 0.095732 255 220 0
0.388875 0.220971 0.098957 255 220 0
0.330352 0.089326 0.051585 255 220 0
0.379844 0.198584 0.031073 255 220 0
0.383359 0.142192 0.094443 255 220 0
0.344859 0.105222 0.027650 255 220 0
0.383372 0.222136 0.047366 255 220 0
0.333170 0.127053 0.058244 255 220 0
0.397732 0.224843 0.056322 255 220 0
0.413129 0.153777 0.087449 255 220 0
0.417799 0.198874 0.068630 255 220 0
0.391117 0.100951 0.030389 255 220 0
0.392034 0.085383 0.055464 255 220 0
0.411082 0.189264 0.093598 255 220 0
0.396948 0.233898 0.075981 255 220 0
0.355052 0.202051 0.039663 255 220 0
0.355242 0.064485 0.038768 255 220 0
0.342805 0.159463 0.081784 255 220 0
0.377994 0.184249 0.025307 255 220 0
0.392606 0.114835 0.081384 255 220 0
0.351751 0.142036 0.025906 255 220 0
0.382642 0.237662 0.077973 255 220 0
0.361359 0.225139 0.086379 255 220 0
0.365340 0.142130 0.090773 255 220 0
0.414323 0.210152 0.071334 255 220 0
0.361739 0.196922 0.033047 255 220 0
0.357728 0.165078 0.094287 255 220 0
0.347708 0.214580 0.059051 255 220 0
0.381141 0.208788 0.104572 255 220 0
0.329906 0.086344 0.050510 255 220 0
0.398767 0.132183 0.026792 255 220 0
0.409327 0.174032 0.035452 255 220 0
0.417697 0.199115 0.067994 255 220 0
0.342703 0.209687 0.068704 255 220 0
0.332610 0.120813 0.052822 255 220 0
0.412549 0.214672 0.074451 255 220 0
0.338441 0.199833 0.057903 255 220 0
0.381696 0.137681 0.092808 255 220 0
0.395249 0.118760 0.082495 255 220 0
0.416425 0.173581 0.044516 255 220 0
0.363610 0.154946 0.094150 255 220 0
0.370894 0.202617 0.103777 255 220 0
0.379192 0.191352 0.106162 255 220 0
0.333928 0.108236 0.058169 255 220 0
0.396422 0.144942 0.093173 255 220 0
0.332500 0.151049 0.065330 255 220 0
0.420202 0.161510 0.078485 255 220 0
0.410897 0.110206 0.056419 255 220 0
0.350469 0.126785 0.078562 255 220 0
0.344994 0.165547 0.085230 255 220 0
0.331633 0.099578 0.043548 255 220 0
0.349115 0.135749 0.080448 255 220 0
0.369889 0.206441 0.102589 255 220 0
0.340065 0.193921 0.079306 255 220 0
0.405157 0.223292 0.064345 255 220 0
0.361237 0.064026 0.049992 255 220 0
0.404159 0.176492 0.031652 255 220 0
0.334457 0.167364 0.044264 255 220 0
0.385349 0.157129 0.099251 255 220 0
0.329865 0.085148 0.050544 255 220 0
0.350940 0.182151 0.092830 255 220 0
0.366986 0.177236 0.100941 255 220 0
0.400747 0.096214 0.048021 255 220 0
0.373841 0.124269 0.086496 255 220 0
0.422038 0.176628 0.071886 255 220 0
0.397624 0.090553 0.051641 255 220 0
0.417770 0.159522 0.045439 255 220 0
0.346293 0.160001 0.085132 255 220 0
0.334674 0.086545 0.058961 255 220 0
0.376920 0.176395 0.103751 255 220 0
0.378540 0.166990 0.021647 255 220 0
0.381455 0.179122 0.104845 255 220 0
0.352287 0.140960 0.025564 255 220 0
0.362827 0.091915 0.023697 255 220 0
0.375224 0.131295 0.089651 255 220 0
0.370466 0.234688 0.076715 255 220 0
0.403658 0.103720 0.044923 255 220 0
0.344652 0.113766 0.028165 255 220 0
0.395805 0.226529 0.056690 255 220 0
0.336266 0.177041 0.044855 255 220 0
0.372916 0.187871 0.104685 255 220 0
0.332129 0.146937 0.046787 255 220 0
0.360012 0.116371 0.079635 255 220 0
0.388891 0.100588 0.073707 255 220 0
0.360977 0.077629 0.028548 255 220 0
0.380749 0.201657 0.032775 255 220 0
0.342292 0.085440 0.029559 255 220 0
0.390566 0.236716 0.076853 255 220 0
0.331752 0.153133 0.047545 255 220 0
0.361997 0.226445 0.085311 255 220 0
0.347771 0.157336 0.029249 255 220 0
0.370906 0.074072 0.059546 255 220 0
0.332030 0.106502 0.052271 255 220 0
0.356147 0.062403 0.044093 255 220 0
0.381823 0.225229 0.096561 255 220 0
0.385602 0.077616 0.050636 255 220 0
0.407391 0.106201 0.063400 255 220 0
0.396046 0.102040 0.034645 255 220 0
0.373181 0.184305 0.025626 255 220 0
0.333099 0.087782 0.057214 255 220 0
0.344767 0.158375 0.031241 255 220 0
0.377322 0.236628 0.080298 255 220 0
0.388305 0.119766 0.023244 255 220 0
0.420737 0.141400 0.068048 255 220 0
0.362664 0.086347 0.068675 255 220 0
0.396927 0.090730 0.047056 255 220 0
0.358824 0.143330 0.023077 255 220 0
0.417549 0.199535 0.067638 255 220 0
0.340154 0.107265 0.065920 255 220 0
0.347166 0.206406 0.084837 255 220 0
0.414654 0.160550 0.040340 255 220 0
0.366685 0.230244 0.084807 255 220 0
0.339994 0.130539 0.070927 255 220 0
0.403239 0.183228 0.032937 255 220 0
0.351933 0.062434 0.044165 255 220 0
0.412689 0.175499 0.092034 255 220 0
0.399599 0.109143 0.074506 255 220 0
0.368711 0.067580 0.051794 255 220 0
0.351861 0.154926 0.088052 255 220 0
0.381734 0.179127 0.104855 255 220 0
0.420184 0.184028 0.076812 255 220 0
0.377199 0.079664 0.061724 255 220 0
0.342880 0.196539 0.083149 255 220 0
0.379194 0.090963 0.070145 255 220 0
0.401342 0.111286 0.074958 255 220 0
0.387108 0.096674 0.029510 255 220 0
0.331928 0.151018 0.063793 255 220 0
0.380940 0.232256 0.058309 255 220 0
0.421762 0.147606 0.063547 255 220 0
0.339671 0.130385 0.070529 255 220 0
0.358395 0.123047 0.022233 255 220 0
0.349623 0.204773 0.088728 255 220 0
0.406020 0.183850 0.098395 255 220 0
0.381185 0.208605 0.036952 255 220 0
0.331831 0.089852 0.039464 255 220 0
0.373817 0.079192 0.062942 255 220 0
0.369917 0.191132 0.028253 255 220 0
0.338554 0.083968 0.031912 255 220 0
0.399225 0.125155 0.028311 255 220 0
0.406935 0.116191 0.040653 255 220 0
0.368354 0.071070 0.057597 255 220 0
0.405086 0.142857 0.089020 255 220 0
0.345925 0.090446 0.027333 255 220 0
0.386922 0.078700 0.050427 255 220 0
0.334988 0.095212 0.035535 255 220 0
0.391084 0.208165 0.038661 255 220 0
0.411244 0.173334 0.093275 255 220 0
0.333538 0.160907 0.069633 255 220 0
0.333340 0.177672 0.068824 255 220 0
0.422606 0.158455 0.064454 255 220 0
0.355798 0.141279 0.086424 255 220 0
0.359523 0.123827 0.021911 255 220 0
0.400954 0.131445 0.086161 255 220 0
0.416313 0.127748 0.071299 255 220 0
0.392069 0.127831 0.087691 255 220 0
0.354688 0.221913 0.081667 255 220 0
0.375475 0.168917 0.101709 255 220 0
0.354253 0.173698 0.028645 255 220 0
0.373087 0.234440 0.065366 255 220 0
0.403353 0.118453 0.078417 255 220 0
0.383622 0.230935 0.056657 255 220 0
0.378708 0.228168 0.093967 255 220 0
0.352268 0.129613 0.080629 255 220 0
0.352111 0.076129 0.064034 255 220 0
0.421729 0.153537 0.069319 255 220 0
0.397143 0.126627 0.026531 255 220 0
0.404683 0.102098 0.062039 255 220 0
0.372897 0.077067 0.061455 255 220 0
0.366952 0.231006 0.083609 255 220 0
0.385753 0.143008 0.094586 255 220 0
0.359804 0.092486 0.023645 255 220 0
0.385665 0.126722 0.088383 255 220 0
0.351833 0.087544 0.025694 255 220 0
0.402334 0.152679 0.027950 255 220 0
0.342798 0.196789 0.046692 255 220 0
0.411049 0.203759 0.051927 255 220 0
0.371215 0.083702 0.067045 255 220 0
0.357682 0.224353 0.058995 255 220 0
0.376107 0.169892 0.022167 255 220 0
0.334116 0.151282 0.042198 255 220 0
0.405980 0.203546 0.044434 255 220 0
0.405907 0.221074 0.087263 255 220 0
0.419840 0.187188 0.075983 255 220 0
0.332971 0.113591 0.044182 255 220 0
0.331505 0.170849 0.054326 255 220 0
0.401940 0.099385 0.046313 255 220 0
0.375024 0.235568 0.067189 255 220 0
0.385616 0.187200 0.105914 255 220 0
0.344004 0.211839 0.069732 255 220 0
0.361472 0.111314 0.021572 255 220 0
0.340339 0.152528 0.034269 255 220 0
0.341274 0.116400 0.068471 255 220 0
0.388348 0.141185 0.021469 255 220 0
0.396112 0.220400 0.050321 255 220 0
0.404943 0.128876 0.032752 255 220 0
0.353789 0.207207 0.044333 255 220 0
0.388113 0.159418 0.021768 255 220 0
0.394741 0.134874 0.024230 255 220 0
0.409296 0.219853 0.069467 255 220 0
0.378589 0.143501 0.094731 255 220 0
0.366334 0.109164 0.078544 255 220 0
0.337284 0.167931 0.040014 255 220 0
0.355742 0.143893 0.024278 255 220 0
0.346257 0.135943 0.078291 255 220 0
0.420259 0.164956 0.051019 255 220 0
0.353949 0.063136 0.051433 255 220 0
0.349435 0.203825 0.088903 255 220 0
0.387151 0.219724 0.046007 255 220 0
0.359430 0.127895 0.022060 255 220 0
0.352956 0.185635 0.032622 255 220 0
0.376887 0.168595 0.021922 255 220 0
0.373396 0.115795 0.020582 255 220 0
0.331239 0.143359 0.050986 255 220 0
0.414439 0.199810 0.055525 255 220 0
0.347633 0.212587 0.080695 255 220 0
0.349942 0.216481 0.057848 255 220 0
0.348947 0.111135 0.072942 255 220 0
0.338697 0.084394 0.061937 255 220 0
0.416886 0.200991 0.065829 255 220 0
0.362281 0.218799 0.093058 255 220 0
0.339121 0.157766 0.035944 255 220 0
0.332326 0.071227 0.047428 255 220 0
0.418540 0.195090 0.065414 255 220 0
0.409370 0.143014 0.035187 255 220 0
0.404288 0.102556 0.063567 255 220 0
0.351921 0.157908 0.027177 255 220 0
0.393452 0.090228 0.061037 255 220 0
0.376022 0.076610 0.035197 255 220 0
0.396310 0.088873 0.050911 255 220 0
0.341303 0.099588 0.065653 255 220 0
0.357296 0.212030 0.045855 255 220 0
0.362917 0.114092 0.079631 255 220 0
0.387464 0.223691 0.097478 255 220 0
0.405197 0.166803 0.030630 255 220 0
0.331868 0.166083 0.065736 255 220 0
0.410801 0.132809 0.039242 255 220 0
0.349576 0.119193 0.075599 255 220 0
0.339286 0.162668 0.078699 255 220 0
0.337269 0.075881 0.059736 255 220 0
0.397318 0.231723 0.083829 255 220 0
0.330730 0.150439 0.058846 255 220 0
0.397095 0.222684 0.094932 255 220 0
0.343218 0.075267 0.062366 255 220 0
0.379931 0.078433 0.036344 255 220 0
0.337735 0.071760 0.036191 255 220 0
0.416554 0.127265 0.053447 255 220 0
0.365488 0.068663 0.056145 255 220 0
0.419802 0.145743 0.073707 255 220 0
0.355709 0.151317 0.089414 255 220 0
0.380688 0.193159 0.028543 255 220 0
0.419347 0.163242 0.048639 255 220 0
0.411918 0.115253 0.051285 255 220 0
0.346372 0.080736 0.064455 255 220 0
0.420430 0.154510 0.074928 255 220 0
0.349253 0.070274 0.032579 255 220 0
0.402686 0.229011 0.071701 255 220 0
0.359446 0.156744 0.092918 255 220 0
0.401554 0.198652 0.037627 255 220 0
0.389889 0.085038 0.058030 255 220 0
0.388886 0.175030 0.103627 255 220 0
0.410279 0.211511 0.088511 255 220 0
0.340010 0.189122 0.080646 255 220 0
0.353187 0.079972 0.065406 255 220 0
0.366045 0.227282 0.056194 255 220 0
0.331965 0.174698 0.064251 255 220 0
0.393443 0.085597 0.047807 255 220 0
0.381828 0.176607 0.104367 255 220 0
0.418622 0.136837 0.053637 255 220 0
0.350534 0.162823 0.028496 255 220 0
0.361204 0.089281 0.024302 255 220 0
0.357417 0.226897 0.065414 255 220 0
0.395331 0.133655 0.089141 255 220 0
0.409235 0.216653 0.086049 255 220 0
0.353757 0.096017 0.024102 255 220 0
0.331183 0.141085 0.054912 255 220 0
0.401485 0.108183 0.072492 255 220 0
0.336894 0.151288 0.038011 255 220 0
0.359856 0.185705 0.099065 255 220 0
0.382222 0.074162 0.047391 255 220 0
0.329812 0.089257 0.048514 255 220 0
0.393510 0.134403 0.089985 255 220 0
0.357381 0.186722 0.097683 255 220 0
0.351304 0.114517 0.075258 255 220 0
0.369302 0.222189 0.049004 255 220 0
0.364291 0.121958 0.083059 255 220 0
0.345182 0.068793 0.034715 255 220 0
0.406645 0.204673 0.096548 255 220 0
0.381759 0.185394 0.025726 255 220 0
0.373421 0.118600 0.020340 255 220 0
0.419453 0.188078 0.077030 255 220 0
0.389250 0.140832 0.093350 255 220 0
0.342563 0.208742 0.071732 255 220 0
0.351441 0.134145 0.025468 255 220 0
0.383018 0.103646 0.024820 255 220 0
0.417871 0.130312 0.055438 255 220 0
0.371102 0.173959 0.023425 255 220 0
0.367324 0.122805 0.084252 255 220 0
0.345622 0.211601 0.077419 255 220 0
0.393540 0.233689 0.065206 255 220 0
0.402871 0.184019 0.032923 255 220 0
0.381514 0.090708 0.029000 255 220 0
0.421309 0.149775 0.069736 255 220 0
0.379727 0.207713 0.036240 255 220 0
0.354068 0.197153 0.094943 255 220 0
0.371071 0.230246 0.057905 255 220 0
0.402624 0.167192 0.028789 255 220 0
0.402402 0.153700 0.094257 255 220 0
0.342897 0.171926 0.084310 255 220 0
0.339961 0.165356 0.036332 255 220 0
0.365336 0.168632 0.098452 255 220 0
0.394484 0.189301 0.104585 255 220 0
0.406655 0.220474 0.062959 255 220 0
0.337514 0.068972 0.039067 255 220 0
0.376329 0.235412 0.083611 255 220 0
0.366200 0.076106 0.030769 255 220 0
0.398137 0.093084 0.046220 255 220 0
0.348341 0.161765 0.029496 255 220 0
0.400586 0.117691 0.031663 255 220 0
0.390928 0.150428 0.096413 255 220 0
0.365808 0.231652 0.065474 255 220 0
0.355294 0.126135 0.023375 255 220 0
0.387036 0.160323 0.100050 255 220 0
0.355840 0.182399 0.030078 255 220 0
0.397798 0.104908 0.034962 255 220 0
0.414127 0.192866 0.088610 255 220 0
0.417076 0.135494 0.075261 255 220 0
0.420021 0.142364 0.071733 255 220 0
0.368843 0.133672 0.088931 255 220 0
0.407858 0.221829 0.081297 255 220 0
0.397103 0.164905 0.099370 255 220 0
0.385161 0.200642 0.032786 255 220 0
0.361465 0.097644 0.073066 255 220 0
0.411268 0.128077 0.041664 255 220 0
0.338541 0.132425 0.069831 255 220 0
0.407392 0.181909 0.035819 255 220 0
0.383082 0.128602 0.089305 255 220 0
0.374351 0.236068 0.078666 255 220 0
0.346649 0.137755 0.028416 255 220 0
0.414220 0.117314 0.056701 255 220 0
0.360835 0.065670 0.038428 255 220 0
0.336264 0.189122 0.072968 255 220 0
0.331836 0.143776 0.060986 255 220 0
0.361660 0.195753 0.100216 255 220 0
0.355829 0.198377 0.036852 255 220 0
0.420481 0.162352 0.078014 255 220 0
0.412308 0.145609 0.038497 255 220 0
0.353781 0.175148 0.094020 255 220 0
0.401128 0.109385 0.073681 255 220 0
0.366602 0.113338 0.020819 255 220 0
0.333415 0.126289 0.058804 255 220 0
0.380750 0.130317 0.089955 255 220 0
0.342861 0.077619 0.030849 255 220 0
0.397099 0.119626 0.027994 255 220 0
0.385509 0.150457 0.020781 255 220 0
0.390091 0.147343 0.095509 255 220 0
0.409162 0.138008 0.035726 255 220 0
0.399623 0.231259 0.069218 255 220 0
0.347466 0.132040 0.078040 255 220 0
0.371923 0.170606 0.101070 255 220 0
0.376017 0.228686 0.092877 255 220 0
0.417849 0.175355 0.085058 255 220 0
0.395767 0.092991 0.062000 255 220 0
0.371591 0.167445 0.022208 255 220 0
0.406695 0.122998 0.078966 255 220 0
0.393679 0.195117 0.031891 255 220 0
0.382349 0.229616 0.054915 255 220 0
0.386992 0.236398 0.082022 255 220 0
0.335422 0.122198 0.039211 255 220 0
0.406432 0.150747 0.031406 255 220 0
0.401327 0.229953 0.079719 255 220 0
0.359865 0.065534 0.054305 255 220 0
0.396706 0.164716 0.025125 255 220 0
0.412555 0.211602 0.064761 255 220 0
0.388010 0.226245 0.095591 255 220 0
0.366718 0.221603 0.049437 255 220 0
0.365762 0.141583 0.020977 255 220 0
0.414292 0.153724 0.040215 255 220 0
0.399842 0.102484 0.039502 255 220 0
0.350603 0.115148 0.075046 255 220 0
0.396067 0.146436 0.093823 255 220 0
0.386079 0.086172 0.062838 255 220 0
0.339832 0.151823 0.076833 255 220 0
0.381918 0.117386 0.084496 255 220 0
0.386762 0.171185 0.023096 255 220 0
0.354238 0.099372 0.023740 255 220 0
0.337232 0.194698 0.072228 255 220 0
0.378087 0.188366 0.105819 255 220 0
0.362912 0.139849 0.021602 255 220 0
0.405912 0.224255 0.068125 255 220 0
0.394938 0.104533 0.032005 255 220 0
0.361391 0.076234 0.064121 255 220 0
0.386686 0.087476 0.063757 255 220 0
0.417821 0.167833 0.084911 255 220 0
0.413928 0.208522 0.081508 255 220 0
0.365089 0.136753 0.088873 255 220 0
0.376375 0.199274 0.031299 255 220 0
0.364441 0.231660 0.068883 255 220 0
0.395994 0.229610 0.060823 255 220 0
0.344376 0.208917 0.056905 255 220 0
0.332905 0.107474 0.042382 255 220 0
0.332143 0.178531 0.061247 255 220 0
0.330513 0.158411 0.053599 255 220 0
0.378544 0.219203 0.099882 255 220 0
0.364290 0.192592 0.101729 255 220 0
0.393233 0.147118 0.094799 255 220 0
0.409739 0.162839 0.092907 255 220 0
0.413161 0.157932 0.088733 255 220 0
0.393434 0.199624 0.104924 255 220 0
0.397127 0.200209 0.035938 255 220 0
0.403675 0.202489 0.041465 255 220 0
0.422447 0.175282 0.068214 255 220 0
0.345731 0.083152 0.028434 255 220 0
0.340678 0.180981 0.082427 255 220 0
0.373539 0.221631 0.047270 255 220 0
0.359593 0.142060 0.088551 255 220 0
0.405474 0.130388 0.032966 255 220 0
0.372568 0.130327 0.088667 255 220 0
0.379682 0.122173 0.020666 255 220 0
0.416243 0.143596 0.045354 255 220 0
0.418585 0.189224 0.079528 255 220 0
0.415978 0.157988 0.085370 255 220 0
0.394553 0.166322 0.100439 255 220 0
0.369967 0.103937 0.021854 255 220 0
0.417775 0.144224 0.048341 255 220 0
0.379239 0.129445 0.089500 255 220 0
0.361833 0.092159 0.023639 255 220 0
0.382994 0.174301 0.023165 255 220 0
0.331175 0.161106 0.063175 255 220 0
0.334511 0.145514 0.067953 255 220 0
0.391549 0.085482 0.056472 255 220 0
0.395988 0.091753 0.060011 255 220 0
0.391636 0.137107 0.091514 255 220 0
0.344593 0.108452 0.069500 255 220 0
0.406486 0.183630 0.098020 255 220 0
0.395486 0.123528 0.084735 255 220 0
0.395398 0.209887 0.041304 255 220 0
0.393555 0.231909 0.087695 255 220 0
0.383224 0.195569 0.106442 255 220 0
0.402927 0.217345 0.053288 255 220 0
0.404643 0.117277 0.036676 255 220 0
0.334575 0.189983 0.065621 255 220 0
0.332735 0.167268 0.048021 255 220 0
0.348612 0.092634 0.026025 255 220 0
0.410177 0.123359 0.041993 255 220 0
0.381428 0.104263 0.077981 255 220 0
0.346689 0.139106 0.028478 255 220 0
0.339216 0.173236 0.039208 255 220 0
0.331114 0.099389 0.050474 255 220 0
0.365745 0.159612 0.096247 255 220 0
0.344872 0.129850 0.075303 255 220 0
0.419839 0.188166 0.075080 255 220 0
0.420412 0.143717 0.056213 255 220 0
0.344875 0.136072 0.077182 255 220 0
0.382648 0.179578 0.024256 255 220 0
0.363976 0.085484 0.068359 255 220 0
0.386322 0.127982 0.021598 255 220 0
0.373091 0.150646 0.095979 255 220 0
0.392888 0.141284 0.023049 255 220 0
0.418051 0.163979 0.083823 255 220 0
0.380734 0.123473 0.020737 255 220 0
0.401739 0.181733 0.100845 255 220 0
0.366198 0.067758 0.054221 255 220 0
0.348462 0.167149 0.030281 255 220 0
0.373306 0.233031 0.086436 255 220 0
0.371531 0.127661 0.019913 255 220 0
0.334383 0.093153 0.059017 255 220 0
0.378976 0.183890 0.025194 255 220 0
0.365512 0.231543 0.065590 255 220 0
0.394565 0.220293 0.049284 255 220 0
0.414227 0.181214 0.090123 255 220 0
0.359328 0.062727 0.044718 255 220 0
0.380022 0.104617 0.023554 255 220 0
0.358764 0.098554 0.022871 255 220 0
0.368258 0.119758 0.083271 255 220 0
0.374107 0.209400 0.103201 255 220 0
0.378875 0.224397 0.096763 255 220 0
0.363394 0.064705 0.050029 255 220 0
0.365393 0.119673 0.020666 255 220 0
0.349827 0.211625 0.085125 255 220 0
0.412940 0.190696 0.045853 255 220 0
0.345166 0.115252 0.027908 255 220 0
0.419059 0.194135 0.069166 255 220 0
0.383956 0.107607 0.024110 255 220 0
0.410026 0.153409 0.034895 255 220 0
0.411619 0.210784 0.086196 255 220 0
0.353892 0.064084 0.053742 255 220 0
0.360135 0.073832 0.030662 255 220 0
0.409585 0.153800 0.090495 255 220 0
0.332392 0.112806 0.051708 255 220 0
0.385529 0.140786 0.020775 255 220 0
0.359515 0.199926 0.035724 255 220 0
0.350100 0.220523 0.068077 255 220 0
0.338243 0.184821 0.078455 255 220 0
0.330535 0.160534 0.059576 255 220 0
0.345504 0.120689 0.073131 255 220 0
0.332109 0.079791 0.038613 255 220 0
0.419200 0.157071 0.079244 255 220 0
0.352656 0.143454 0.025578 255 220 0
0.400427 0.218597 0.051959 255 220 0
0.351348 0.220935 0.075905 255 220 0
0.392304 0.185481 0.027812 255 220 0
0.395677 0.192457 0.031559 255 220 0
0.348093 0.120188 0.074889 255 220 0
0.347199 0.200192 0.087668 255 220 0
0.386806 0.124495 0.087315 255 220 0
0.359668 0.185688 0.029415 255 220 0
0.368427 0.183845 0.102665 255 220 0
0.353651 0.193700 0.095025 255 220 0
0.411383 0.187985 0.093294 255 220 0
0.329643 0.079953 0.048532 255 220 0
0.335444 0.069430 0.041055 255 220 0
0.395062 0.117599 0.027084 255 220 0
0.395920 0.088755 0.053847 255 220 0
0.403305 0.136605 0.029771 255 220 0
0.360112 0.077844 0.028315 255 220 0
0.391145 0.236649 0.075271 255 220 0
0.413459 0.123449 0.072720 255 220 0
0.362222 0.210935 0.097092 255 220 0
0.416164 0.123740 0.055360 255 220 0
0.407110 0.194892 0.097644 255 220 0
0.409404 0.111391 0.067011 255 220 0
0.365583 0.147446 0.092554 255 220 0
0.367126 0.193212 0.029588 255 220 0
0.355834 0.185935 0.031205 255 220 0
0.371061 0.172988 0.023243 255 220 0
0.408660 0.153490 0.033425 255 220 0
0.370295 0.109401 0.079470 255 220 0
0.360259 0.178908 0.027322 255 220 0
0.420008 0.184777 0.077037 255 220 0
0.346648 0.132501 0.077541 255 220 0
0.408741 0.151142 0.090159 255 220 0
0.383242 0.129098 0.089504 255 220 0
0.335916 0.109396 0.061561 255 220 0
0.387441 0.100637 0.027965 255 220 0
0.359102 0.154565 0.092127 255 220 0
0.405463 0.220816 0.061165 255 220 0
0.399046 0.106654 0.035428 255 220 0
0.364447 0.171449 0.098778 255 220 0
0.362269 0.221268 0.051298 255 220 0
0.421954 0.153514 0.059110 255 220 0
0.361437 0.070028 0.059770 255 220 0
0.366426 0.202306 0.034265 255 220 0
0.402339 0.229634 0.075474 255 220 0
0.339060 0.201347 0.070888 255 220 0
0.347803 0.204270 0.047053 255 220 0
0.334451 0.171030 0.072305 255 220 0
0.332545 0.119335 0.051612 255 220 0
0.363009 0.071145 0.060292 255 220 0
0.398427 0.120579 0.028767 255 220 0
0.376563 0.230974 0.057066 255 220 0
0.386598 0.237724 0.074086 255 220 0
0.404402 0.218901 0.057017 255 220 0
0.413761 0.202966 0.057001 255 220 0
0.386668 0.231863 0.058428 255 220 0
0.341672 0.183842 0.083676 255 220 0
0.363738 0.155563 0.094377 255 220 0
0.330371 0.077872 0.050745 255 220 0
0.395244 0.161067 0.098820 255 220 0
0.356012 0.069239 0.033306 255 220 0
0.340144 0.135703 0.072609 255 220 0
0.393470 0.095064 0.036397 255 220 0
0.391995 0.195454 0.031487 255 220 0
0.396549 0.133166 0.025309 255 220 0
0.376983 0.222386 0.047449 255 220 0
0.422708 0.169361 0.062712 255 220 0
0.397768 0.156925 0.096899 255 220 0
0.421224 0.181985 0.062597 255 220 0
0.401374 0.174437 0.099885 255 220 0
0.352208 0.085740 0.025992 255 220 0
0.404719 0.100711 0.058716 255 220 0
0.413344 0.211099 0.067042 255 220 0
0.332768 0.124019 0.055230 255 220 0
0.362857 0.115787 0.080262 255 220 0
0.354402 0.130574 0.023918 255 220 0
0.386728 0.237590 0.071938 255 220 0
0.334844 0.168938 0.073005 255 220 0
0.390679 0.096311 0.069458 255 220 0
0.376716 0.235533 0.083547 255 220 0
0.365544 0.213498 0.042697 255 220 0
0.380829 0.209787 0.104260 255 220 0
0.375313 0.120098 0.085035 255 220 0
0.363025 0.068362 0.057167 255 220 0
0.331106 0.142350 0.055892 255 220 0
0.375104 0.196573 0.105591 255 220 0
0.392749 0.084779 0.051901 255 220 0
0.377567 0.097700 0.024678 255 220 0
0.418886 0.171407 0.083233 255 220 0
0.372100 0.195767 0.104836 255 220 0
0.400852 0.103711 0.040075 255 220 0
0.346257 0.108889 0.070703 255 220 0
0.416206 0.123526 0.066945 255 220 0
0.370391 0.138202 0.091045 255 220 0
0.394821 0.221514 0.096927 255 220 0
0.383646 0.111568 0.023115 255 220 0
0.367751 0.104699 0.077058 255 220 0
0.353858 0.090092 0.068719 255 220 0
0.404954 0.168361 0.096970 255 220 0
0.347916 0.141974 0.027925 255 220 0
0.402378 0.102525 0.043699 255 220 0
0.396146 0.098282 0.067593 255 220 0
0.370313 0.080002 0.029716 255 220 0
0.391690 0.083833 0.046072 255 220 0
0.345429 0.214219 0.068571 255 220 0
0.395515 0.151549 0.023919 255 220 0
0.343257 0.107875 0.068450 255 220 0
0.333294 0.074796 0.038778 255 220 0
0.409211 0.185352 0.095722 255 220 0
0.398050 0.102483 0.070130 255 220 0
0.384633 0.180197 0.105032 255 220 0
0.351970 0.164076 0.027980 255 220 0
0.357453 0.225772 0.062059 255 220 0
0.356842 0.220868 0.054969 255 220 0
0.349034 0.120066 0.025892 255 220 0
0.396078 0.159333 0.098103 255 220 0
0.358787 0.103875 0.022418 255 220 0
0.346144 0.208026 0.052670 255 220 0
0.383972 0.185784 0.026044 255 220 0
0.367312 0.143907 0.092001 255 220 0
0.416705 0.202742 0.074189 255 220 0
0.357508 0.143193 0.087914 255 220 0
0.381661 0.146294 0.095885 255 220 0
0.409942 0.141659 0.036064 255 220 0
0.343947 0.101859 0.067747 255 220 0
0.340524 0.068448 0.037275 255 220 0
0.352327 0.148873 0.026138 255 220 0
0.389130 0.216835 0.101120 255 220 0
0.360130 0.091847 0.023751 255 220 0
0.397477 0.185611 0.030126 255 220 0
0.379529 0.116804 0.084142 255 220 0
0.335040 0.069528 0.041565 255 220 0
0.398923 0.102210 0.038348 255 220 0
0.397397 0.219250 0.050071 255 220 0
0.417160 0.149734 0.080714 255 220 0
0.352505 0.155239 0.026624 255 220 0
0.358407 0.208648 0.095286 255 220 0
0.332828 0.115546 0.045460 255 220 0
0.384263 0.230494 0.056189 255 220 0
0.375224 0.224538 0.095847 255 220 0
0.340076 0.180526 0.040950 255 220 0
0.408790 0.220926 0.070317 255 220 0
0.344478 0.158649 0.031473 255 220 0
0.401237 0.192378 0.102116 255 220 0
0.401793 0.218981 0.053796 255 220 0
0.407391 0.144262 0.088364 255 220 0
0.414409 0.157622 0.040083 255 220 0
0.393748 0.092279 0.063242 255 220 0
0.360854 0.175228 0.098052 255 220 0
0.413768 0.119943 0.051597 255 220 0
0.378461 0.192526 0.028214 255 220 0
0.340752 0.199534 0.051938 255 220 0
0.342452 0.200836 0.080371 255 220 0
0.364774 0.196377 0.031635 255 220 0
0.359181 0.192792 0.032245 255 220 0
0.399064 0.132858 0.087518 255 220 0
0.343438 0.208314 0.075857 255 220 0
0.404282 0.157644 0.029365 255 220 0
0.336677 0.151192 0.072801 255 220 0
0.342881 0.142328 0.031480 255 220 0
0.331173 0.151259 0.061321 255 220 0
0.390403 0.082757 0.044777 255 220 0
0.342120 0.072990 0.032989 255 220 0
0.364407 0.140684 0.089986 255 220 0
0.422188 0.155861 0.059612 255 220 0
0.345324 0.203334 0.083826 255 220 0
0.369256 0.081632 0.066093 255 220 0
0.356319 0.082753 0.026247 255 220 0
0.339643 0.196044 0.050722 255 220 0
0.407390 0.111272 0.045008 255 220 0
0.384267 0.143645 0.020488 255 220 0
0.349728 0.154997 0.086563 255 220 0
0.398353 0.162136 0.025688 255 220 0
0.414844 0.119807 0.065854 255 220 0
0.359439 0.184058 0.098669 255 220 0
0.331753 0.098289 0.053993 255 220 0
0.408834 0.209763 0.091954 255 220 0
0.415231 0.204640 0.063811 255 220 0
0.379985 0.144684 0.019923 255 220 0
0.418714 0.131536 0.057838 255 220 0
0.397545 0.200674 0.103474 255 220 0
0.336160 0.193370 0.056641 255 220 0
0.411791 0.180805 0.093056 255 220 0
0.382319 0.219071 0.100368 255 220 0
0.344240 0.144012 0.078986 255 220 0
0.412383 0.112840 0.060029 255 220 0
0.397923 0.225758 0.091688 255 220 0
0.375201 0.118910 0.084506 255 220 0
0.370452 0.148108 0.020419 255 220 0
0.360415 0.108472 0.021899 255 220 0
0.352328 0.072122 0.031115 255 220 0
0.343570 0.210958 0.070508 255 220 0
0.333141 0.176288 0.051571 255 220 0
0.418954 0.171921 0.083102 255 220 0
0.407258 0.199811 0.043383 255 220 0
0.391310 0.229620 0.057448 255 220 0
0.411791 0.204957 0.054485 255 220 0
0.414287 0.122116 0.051130 255 220 0
0.376690 0.138919 0.019682 255 220 0
0.359078 0.215083 0.047388 255 220 0
0.413869 0.204133 0.085206 255 220 0
0.336296 0.121401 0.037535 255 220 0
0.338346 0.088056 0.062113 255 220 0
0.340224 0.081284 0.062433 255 220 0
0.340353 0.167852 0.036481 255 220 0
0.402266 0.129413 0.029957 255 220 0
0.344537 0.066338 0.037882 255 220 0
0.398502 0.208713 0.101298 255 220 0
0.350634 0.206968 0.088884 255 220 0
0.409856 0.121798 0.075688 255 220 0
0.396163 0.168380 0.100524 255 220 0
0.414957 0.124209 0.051249 255 220 0
0.359856 0.072327 0.062034 255 220 0
0.335274 0.188789 0.054726 255 220 0
0.400072 0.094034 0.055353 255 220 0
0.360569 0.228831 0.065021 255 220 0
0.388961 0.098024 0.071745 255 220 0
0.367150 0.084661 0.067996 255 220 0
0.388492 0.135915 0.021701 255 220 0
0.348298 0.216918 0.062315 255 220 0
0.412444 0.191457 0.045496 255 220 0
0.407157 0.139886 0.033113 255 220 0
0.339092 0.202818 0.062586 255 220 0
0.420598 0.139150 0.066537 255 220 0
0.387711 0.208885 0.038273 255 220 0
0.355224 0.169665 0.093908 255 220 0
0.363462 0.194151 0.031089 255 220 0
0.377121 0.201537 0.105603 255 220 0
0.347167 0.130030 0.077196 255 220 0
0.392878 0.109074 0.028263 255 220 0
0.333476 0.185827 0.062762 255 220 0
0.360076 0.076452 0.064325 255 220 0
0.360865 0.095619 0.023007 255 220 0
0.365775 0.213794 0.098010 255 220 0
0.395038 0.138749 0.024145 255 220 0
0.408030 0.195206 0.096692 255 220 0
0.361771 0.069181 0.034867 255 220 0
0.343634 0.200146 0.082811 255 220 0
0.421002 0.164791 0.077227 255 220 0
0.391212 0.173373 0.024525 255 220 0
0.350803 0.146249 0.026669 255 220 0
0.392941 0.123238 0.085422 255 220 0
0.399427 0.207166 0.041472 255 220 0
0.332590 0.108876 0.054277 255 220 0
0.369613 0.223029 0.094683 255 220 0
0.421545 0.147634 0.067122 255 220 0
0.374818 0.072304 0.038714 255 220 0
0.412723 0.161059 0.090010 255 220 0
0.357884 0.173359 0.027014 255 220 0
0.421619 0.175212 0.058742 255 220 0
0.412438 0.142768 0.084141 255 220 0
0.380644 0.207295 0.104944 255 220 0
0.381409 0.159131 0.099955 255 220 0
0.420735 0.149953 0.054585 255 220 0
0.373229 0.235597 0.070068 255 220 0
0.361132 0.123820 0.082788 255 220 0
0.344841 0.105262 0.027663 255 220 0
0.337143 0.156419 0.074676 255 220 0
0.408472 0.220444 0.067611 255 220 0
0.408786 0.142419 0.034586 255 220 0
0.421776 0.171566 0.057584 255 220 0
0.358661 0.119652 0.080355 255 220 0
0.370165 0.171437 0.023111 255 220 0
0.357505 0.176615 0.096557 255 220 0
0.348912 0.135214 0.080132 255 220 0
0.384042 0.196407 0.030364 255 220 0
0.422892 0.167633 0.065909 255 220 0
0.359339 0.064671 0.052860 255 220 0
0.398419 0.231305 0.066689 255 220 0
0.379223 0.076553 0.056887 255 220 0
0.334636 0.073217 0.056127 255 220 0
0.356408 0.075200 0.029373 255 220 0
0.337215 0.148955 0.072951 255 220 0
0.377005 0.109354 0.080509 255 220 0
0.390087 0.150973 0.096736 255 220 0
0.368468 0.066185 0.042620 255 220 0
0.421443 0.182502 0.065730 255 220 0
0.415092 0.207868 0.070320 255 220 0
0.370366 0.074997 0.060736 255 220 0
0.354649 0.065651 0.036949 255 220 0
0.362532 0.064256 0.049534 255 220 0
0.364255 0.147089 0.091986 255 220 0
0.421190 0.150785 0.070711 255 220 0
0.338124 0.183351 0.044941 255 220 0
0.363830 0.180647 0.026539 255 220 0
0.341023 0.128439 0.071372 255 220 0
0.344099 0.165156 0.084303 255 220 0
0.336007 0.177478 0.045516 255 220 0
0.347259 0.141688 0.028303 255 220 0
0.335667 0.087567 0.059986 255 220 0
0.367204 0.068146 0.038504 255 220 0
0.361828 0.066314 0.054641 255 220 0
0.333976 0.145231 0.066873 255 220 0
0.379879 0.212908 0.039686 255 220 0
0.393616 0.114147 0.080652 255 220 0
0.344558 0.074382 0.031416 255 220 0
0.342159 0.123055 0.030725 255 220 0
0.339212 0.073249 0.060045 255 220 0
0.370196 0.100521 0.075705 255 220 0
0.339911 0.199255 0.053233 255 220 0
0.408459 0.120748 0.040502 255 220 0
0.347550 0.062738 0.045131 255 220 0
0.357043 0.087667 0.024850 255 220 0
0.399349 0.170311 0.099916 255 220 0
0.369091 0.153761 0.021033 255 220 0
0.336805 0.121823 0.064524 255 220 0
0.375944 0.074561 0.056865 255 220 0
0.341156 0.138403 0.032797 255 220 0
0.415936 0.170384 0.087968 255 220 0
0.380370 0.209028 0.104446 255 220 0
0.353888 0.110191 0.075227 255 220 0
0.401870 0.218160 0.052976 255 220 0
0.361558 0.068040 0.035937 255 220 0
0.340819 0.164628 0.080828 255 220 0
0.336609 0.177509 0.044488 255 220 0
0.341109 0.124198 0.070246 255 220 0
0.355803 0.206391 0.042299 255 220 0
0.407251 0.146552 0.089351 255 220 0
0.364309 0.212278 0.097836 255 220 0
0.336485 0.161132 0.074699 255 220 0
0.421724 0.154191 0.069718 255 220 0
0.333182 0.184210 0.060243 255 220 0
0.412601 0.113570 0.061686 255 220 0
0.385235 0.109579 0.080421 255 220 0
0.401316 0.113536 0.076542 255 220 0
0.331811 0.103171 0.044895 255 220 0
0.342445 0.118851 0.030175 255 220 0
0.418499 0.155613 0.047259 255 220 0
0.361168 0.175102 0.026138 255 220 0
0.394301 0.149700 0.023398 255 220 0
0.359590 0.117249 0.021852 255 220 0
0.376736 0.074190 0.038103 255 220 0
0.385901 0.212596 0.103331 255 220 0
0.375205 0.096571 0.074128 255 220 0
0.421154 0.143335 0.060637 255 220 0
0.350593 0.156815 0.087687 255 220 0
0.365947 0.197541 0.031820 255 220 0
0.415519 0.164438 0.041683 255 220 0
0.416796 0.200990 0.077334 255 220 0
0.342282 0.182593 0.084475 255 220 0
0.397670 0.129252 0.086511 255 220 0
0.377867 0.120093 0.085438 255 220 0
0.403636 0.141374 0.029617 255 220 0
0.351765 0.064812 0.055439 255 220 0
0.340445 0.074107 0.061008 255 220 0
0.334888 0.158497 0.041481 255 220 0
0.420874 0.155121 0.053579 255 220 0
0.353499 0.220307 0.058066 255 220 0
0.332661 0.180018 0.064758 255 220 0
0.333217 0.152548 0.043949 255 220 0
0.402374 0.111232 0.074217 255 220 0
0.363344 0.112300 0.079054 255 220 0
0.400020 0.124061 0.083178 255 220 0
0.403483 0.167255 0.029394 255 220 0
0.369039 0.068670 0.053592 255 220 0
0.332884 0.085018 0.056817 255 220 0
0.370232 0.158265 0.021230 255 220 0
0.359018 0.164878 0.025133 255 220 0
0.416318 0.138356 0.047205 255 220 0
0.350714 0.209126 0.048510 255 220 0
0.410762 0.181004 0.094119 255 220 0
0.415026 0.187994 0.047906 255 220 0
0.408558 0.204382 0.048352 255 220 0
0.333485 0.079946 0.036748 255 220 0
0.378572 0.221086 0.046170 255 220 0
0.345169 0.110559 0.070357 255 220 0
0.391890 0.204662 0.104606 255 220 0
0.332158 0.108195 0.052251 255 220 0
0.399831 0.106456 0.036586 255 220 0
0.392234 0.089733 0.039222 255 220 0
0.414941 0.205434 0.063872 255 220 0
0.350634 0.187540 0.034742 255 220 0
0.382042 0.195765 0.029838 255 220 0
0.335792 0.188503 0.052916 255 220 0
0.335821 0.195075 0.063464 255 220 0
0.331986 0.092977 0.055337 255 220 0
0.410813 0.127159 0.078170 255 220 0
0.361227 0.146924 0.022531 255 220 0
0.330666 0.147138 0.054946 255 220 0
0.368005 0.074313 0.032842 255 220 0
0.355137 0.145593 0.087387 255 220 0
0.354009 0.196539 0.094986 255 220 0
0.416098 0.121864 0.064307 255 220 0
0.415970 0.149206 0.082417 255 220 0
0.416403 0.138195 0.077709 255 220 0
0.348111 0.138545 0.080559 255 220 0
0.332019 0.168668 0.066119 255 220 0
0.406898 0.147087 0.089754 255 220 0
0.340680 0.198319 0.050919 255 220 0
0.407223 0.217330 0.059617 255 220 0
0.369684 0.145949 0.020428 255 220 0
0.422388 0.159316 0.068525 255 220 0
0.354526 0.141752 0.024621 255 220 0
0.344426 0.211649 0.073344 255 220 0
0.375923 0.214527 0.101731 255 220 0
0.366213 0.209222 0.100035 255 220 0
0.345001 0.205690 0.051684 255 220 0
0.385646 0.089436 0.032452 255 220 0
0.360914 0.164680 0.095733 255 220 0
0.410374 0.203661 0.050642 255 220 0
0.351470 0.138534 0.082962 255 220 0
0.414574 0.198500 0.054600 255 220 0
0.422718 0.166710 0.061767 255 220 0
0.342364 0.175207 0.036608 255 220 0
0.330564 0.089251 0.052326 255 220 0
0.401143 0.154873 0.027082 255 220 0
0.339640 0.155478 0.077552 255 220 0
0.390368 0.146934 0.021953 255 220 0
0.396236 0.224578 0.093933 255 220 0
0.380503 0.089671 0.028978 255 220 0
0.378450 0.194874 0.106177 255 220 0
0.332507 0.129478 0.056438 255 220 0
0.375991 0.214614 0.101708 255 220 0
0.412663 0.207870 0.059767 255 220 0
0.396725 0.147290 0.024620 255 220 0
0.422327 0.167193 0.058939 255 220 0
0.339427 0.163820 0.036576 255 220 0
0.376788 0.204233 0.105134 255 220 0
0.389342 0.137188 0.092000 255 220 0
0.382999 0.127844 0.020811 255 220 0
0.391156 0.095792 0.033313 255 220 0
0.333643 0.178135 0.069614 255 220 0
0.404497 0.119933 0.035238 255 220 0
0.383839 0.226585 0.095659 255 220 0
0.341453 0.207082 0.069965 255 220 0
0.420509 0.138025 0.065450 255 220 0
0.403952 0.107092 0.042344 255 220 0
0.390664 0.176718 0.025065 255 220 0
0.405021 0.190386 0.036722 255 220 0
0.371074 0.177252 0.024121 255 220 0
0.415861 0.127471 0.071986 255 220 0
0.351713 0.073418 0.062947 255 220 0
0.410401 0.209356 0.056163 255 220 0
