ply
format ascii 1.0
element vertex 1024
property float x
property float y
property float z
property uchar red
property uchar green
property uchar blue
end_header
0.527314 0.202464 0.244518 255 220 0
0.530421 0.091869 0.180055 255 220 0
0.536405 0.041739 0.195806 255 220 0
0.526702 0.043671 0.191684 255 220 0
0.544906 0.121503 0.179298 255 220 0
0.509934 0.093303 0.238110 255 220 0
0.557673 0.155755 0.260276 255 220 0
0.530468 0.064029 0.233299 255 220 0
0.538823 0.037082 0.202982 255 220 0
0.538776 0.137088 0.180438 255 220 0
0.555359 0.128680 0.182651 255 220 0
0.526009 0.057985 0.185685 255 220 0
0.532576 0.080278 0.239531 255 220 0
0.508325 0.116568 0.245043 255 220 0
0.565262 0.193296 0.232606 255 220 0
0.522683 0.190382 0.253792 255 220 0
0.498876 0.058031 0.201958 255 220 0
0.549156 0.169374 0.191473 255 220 0
0.577451 0.103884 0.230431 255 220 0
0.504775 0.185689 0.225655 255 220 0
0.538270 0.046523 0.192902 255 220 0
0.547539 0.182764 0.199465 255 220 0
0.533591 0.034218 0.210656 255 220 0
0.513995 0.168475 0.197318 255 220 0
0.515506 0.146628 0.188641 255 220 0
0.539620 0.048988 0.223874 255 220 0
0.507427 0.031473 0.213108 255 220 0
0.551421 0.201545 0.246270 255 220 0
0.504562 0.144017 0.195782 255 220 0
0.573196 0.110363 0.196430 255 220 0
0.576025 0.085972 0.216350 255 220 0
0.524609 0.094922 0.181260 255 220 0
0.520036 0.101390 0.182884 255 220 0
0.526706 0.127521 0.181168 255 220 0
0.493180 0.104408 0.221147 255 220 0
0.542201 0.203559 0.247723 255 220 0
0.522794 0.151467 0.186429 255 220 0
0.534198 0.061875 0.184696 255 220 0
0.502288 0.105062 0.195197 255 220 0
0.520013 0.123086 0.252613 255 220 0
0.557871 0.088871 0.239219 255 220 0
0.544236 0.046073 0.196338 255 220 0
0.494837 0.163728 0.234255 255 220 0
0.562598 0.172156 0.257278 255 220 0
0.545592 0.118503 0.179321 255 220 0
0.511245 0.084770 0.236057 255 220 0
0.505747 0.126270 0.246381 255 220 0
0.525675 0.045875 0.190352 255 220 0
0.530257 0.117207 0.179676 255 220 0
0.504700 0.068297 0.193900 255 220 0
0.490978 0.147061 0.227289 255 220 0
0.542584 0.157505 0.185384 255 220 0
0.493484 0.114215 0.207952 255 220 0
0.540547 0.085303 0.180398 255 220 0
0.579163 0.098953 0.223994 255 220 0
0.504647 0.057139 0.226823 255 220 0
0.582760 0.135114 0.222222 255 220 0
0.530983 0.181285 0.261188 255 220 0
0.523279 0.118966 0.181819 255 220 0
0.548921 0.148057 0.262082 255 220 0
0.519649 0.102583 0.183056 255 220 0
0.527213 0.107366 0.249367 255 220 0
0.509147 0.037377 0.198639 255 220 0
0.506605 0.145923 0.194491 255 220 0
0.495965 0.163804 0.216284 255 220 0
0.501496 0.152800 0.247514 255 220 0
0.555403 0.153340 0.187565 255 220 0
0.529884 0.205455 0.226556 255 220 0
0.530468 0.175315 0.262632 255 220 0
0.532894 0.178150 0.196150 255 220 0
0.521429 0.187220 0.206684 255 220 0
0.532779 0.050412 0.227361 255 220 0
0.575214 0.119418 0.198421 255 220 0
0.515641 0.044249 0.192323 255 220 0
0.575237 0.137909 0.244586 255 220 0
0.529830 0.179025 0.261550 255 220 0
0.569192 0.072848 0.213489 255 220 0
0.559232 0.098394 0.242851 255 220 0
0.501895 0.068882 0.226332 255 220 0
0.558415 0.169697 0.195935 255 220 0
0.565355 0.175591 0.253893 255 220 0
0.537432 0.101236 0.248065 255 220 0
0.554905 0.159257 0.189456 255 220 0
0.555830 0.169121 0.261474 255 220 0
0.500738 0.119321 0.240444 255 220 0
0.505457 0.050935 0.226306 255 220 0
0.559619 0.102885 0.244489 255 220 0
0.546477 0.174061 0.193474 255 220 0
0.576857 0.133203 0.201302 255 220 0
0.528464 0.060740 0.232155 255 220 0
0.497210 0.115211 0.200886 255 220 0
0.567717 0.184893 0.220076 255 220 0
0.565494 0.186338 0.217582 255 220 0
0.518411 0.159711 0.259472 255 220 0
0.549143 0.192066 0.256060 255 220 0
0.497930 0.054126 0.219325 255 220 0
0.528923 0.168363 0.191095 255 220 0
0.552093 0.113164 0.251298 255 220 0
0.505192 0.071490 0.193213 255 220 0
0.532964 0.192264 0.206750 255 220 0
0.497620 0.091961 0.225968 255 220 0
0.548450 0.196709 0.212596 255 220 0
0.578196 0.128159 0.238525 255 220 0
0.573539 0.173380 0.220001 255 220 0
0.551187 0.072756 0.186257 255 220 0
0.559103 0.057556 0.210303 255 220 0
0.573319 0.163188 0.245633 255 220 0
0.550703 0.205723 0.232160 255 220 0
0.506220 0.168914 0.204685 255 220 0
0.522361 0.032340 0.201177 255 220 0
0.508056 0.125423 0.247616 255 220 0
0.527613 0.153876 0.185566 255 220 0
0.561577 0.087021 0.236097 255 220 0
0.507204 0.108851 0.190778 255 220 0
0.536779 0.207775 0.237134 255 220 0
0.519322 0.192864 0.249517 255 220 0
0.533840 0.110941 0.251429 255 220 0
0.569400 0.184181 0.223577 255 220 0
0.511944 0.164576 0.196735 255 220 0
0.524482 0.132844 0.256871 255 220 0
0.501636 0.180597 0.225405 255 220 0
0.544224 0.179084 0.262921 255 220 0
0.497624 0.051107 0.218309 255 220 0
0.554206 0.104654 0.181746 255 220 0
0.561346 0.147511 0.188827 255 220 0
0.573279 0.173603 0.219405 255 220 0
0.499351 0.175202 0.235789 255 220 0
0.496684 0.085666 0.220661 255 220 0
0.567793 0.188477 0.227078 255 220 0
0.494129 0.164848 0.225918 255 220 0
0.550669 0.108477 0.249957 255 220 0
0.563913 0.091239 0.236712 255 220 0
0.570173 0.147960 0.196218 255 220 0
0.531356 0.123482 0.255331 255 220 0
0.534832 0.171736 0.264143 255 220 0
0.544708 0.161551 0.264550 255 220 0
0.500549 0.073366 0.225383 255 220 0
0.564194 0.117438 0.247410 255 220 0
0.495623 0.115748 0.233491 255 220 0
0.582300 0.136624 0.228441 255 220 0
0.574708 0.084448 0.207809 255 220 0
0.518666 0.093868 0.242266 255 220 0
0.510182 0.131745 0.250650 255 220 0
0.496305 0.064410 0.211391 255 220 0
0.516690 0.102618 0.244559 255 220 0
0.533161 0.175407 0.263261 255 220 0
0.500838 0.159297 0.246408 255 220 0
0.557507 0.196098 0.218881 255 220 0
0.530565 0.032663 0.210909 255 220 0
0.555251 0.149318 0.186223 255 220 0
0.491242 0.132055 0.212786 255 220 0
0.553270 0.128260 0.255872 255 220 0
0.497731 0.049915 0.218328 255 220 0
0.515585 0.148981 0.257170 255 220 0
0.533427 0.146054 0.261697 255 220 0
0.564751 0.069300 0.201427 255 220 0
0.543305 0.094191 0.245152 255 220 0
0.580941 0.151814 0.221891 255 220 0
0.563133 0.063331 0.205506 255 220 0
0.573320 0.134165 0.196579 255 220 0
0.512074 0.126392 0.250182 255 220 0
0.503984 0.051922 0.225594 255 220 0
0.543756 0.146415 0.262378 255 220 0
0.529410 0.136783 0.181548 255 220 0
0.548067 0.149668 0.262564 255 220 0
0.507780 0.107844 0.190312 255 220 0
0.523384 0.060387 0.185383 255 220 0
0.544477 0.101350 0.248085 255 220 0
0.525043 0.203369 0.238363 255 220 0
0.566055 0.077081 0.197936 255 220 0
0.504095 0.079952 0.193920 255 220 0
0.546457 0.198157 0.213385 255 220 0
0.491986 0.141882 0.213173 255 220 0
0.538715 0.157340 0.264336 255 220 0
0.491901 0.111512 0.215350 255 220 0
0.529378 0.084667 0.241147 255 220 0
0.558048 0.072389 0.229086 255 220 0
0.524270 0.046011 0.190241 255 220 0
0.529795 0.171532 0.192631 255 220 0
0.505415 0.051555 0.195238 255 220 0
0.544354 0.207769 0.234384 255 220 0
0.490965 0.117623 0.216286 255 220 0
0.519567 0.194230 0.248366 255 220 0
0.502237 0.123590 0.195158 255 220 0
0.540757 0.043841 0.218448 255 220 0
0.497687 0.071384 0.219972 255 220 0
0.524588 0.030412 0.206159 255 220 0
0.541297 0.195443 0.255253 255 220 0
0.552766 0.049052 0.206762 255 220 0
0.573220 0.080096 0.215287 255 220 0
0.556728 0.074448 0.189423 255 220 0
0.522999 0.153363 0.186874 255 220 0
0.501946 0.052953 0.224234 255 220 0
0.499609 0.124277 0.197747 255 220 0
0.532216 0.206130 0.240488 255 220 0
0.544767 0.091062 0.180203 255 220 0
0.583015 0.116658 0.217741 255 220 0
0.533204 0.055105 0.229312 255 220 0
0.561484 0.063396 0.201169 255 220 0
0.513335 0.110958 0.186574 255 220 0
0.573012 0.174000 0.219095 255 220 0
0.508317 0.073187 0.231661 255 220 0
0.507416 0.172570 0.250587 255 220 0
0.569116 0.134786 0.192254 255 220 0
0.523569 0.198555 0.246976 255 220 0
0.506468 0.096307 0.237031 255 220 0
0.553833 0.155904 0.187797 255 220 0
0.520507 0.029943 0.207100 255 220 0
0.576171 0.149702 0.243511 255 220 0
0.567610 0.082159 0.227817 255 220 0
0.537780 0.037089 0.211195 255 220 0
0.518683 0.122031 0.251793 255 220 0
0.548340 0.149705 0.262516 255 220 0
0.579293 0.158970 0.227233 255 220 0
0.546664 0.050154 0.219383 255 220 0
0.504061 0.162253 0.249636 255 220 0
0.549022 0.061660 0.227423 255 220 0
0.569146 0.084496 0.227939 255 220 0
0.547613 0.068029 0.186144 255 220 0
0.494753 0.115640 0.232105 255 220 0
0.531684 0.202088 0.218147 255 220 0
0.582349 0.122915 0.213243 255 220 0
0.506090 0.096113 0.236705 255 220 0
0.515123 0.090764 0.185454 255 220 0
0.510800 0.171263 0.253855 255 220 0
0.570032 0.157240 0.251269 255 220 0
0.530269 0.178507 0.196758 255 220 0
0.496792 0.054752 0.207171 255 220 0
0.543687 0.049291 0.221265 255 220 0
0.519572 0.159769 0.190247 255 220 0
0.502446 0.049664 0.198284 255 220 0
0.555790 0.097739 0.183005 255 220 0
0.566889 0.089827 0.193318 255 220 0
0.538227 0.040547 0.217011 255 220 0
0.571992 0.116371 0.241517 255 220 0
0.507895 0.056943 0.192404 255 220 0
0.553878 0.050284 0.206306 255 220 0
0.498414 0.060426 0.202776 255 220 0
0.540289 0.179255 0.196377 255 220 0
0.575279 0.147388 0.244982 255 220 0
0.496367 0.125685 0.237671 255 220 0
0.494039 0.142303 0.237237 255 220 0
0.582085 0.133792 0.214161 255 220 0
0.523770 0.108938 0.249129 255 220 0
0.516061 0.091669 0.184920 255 220 0
0.568725 0.104533 0.239359 255 220 0
0.580995 0.102597 0.221578 255 220 0
0.560838 0.099899 0.242623 255 220 0
0.512244 0.188841 0.246225 255 220 0
0.542807 0.138807 0.260538 255 220 0
0.506486 0.140602 0.193537 255 220 0
0.525263 0.203366 0.226714 255 220 0
0.570974 0.091871 0.231043 255 220 0
0.534101 0.201085 0.215953 255 220 0
0.537389 0.197976 0.253415 255 220 0
0.520509 0.096902 0.243969 255 220 0
0.523192 0.043680 0.226759 255 220 0
0.582819 0.128835 0.219009 255 220 0
0.553226 0.098943 0.181722 255 220 0
0.570790 0.075693 0.214438 255 220 0
0.542735 0.047063 0.219960 255 220 0
0.523491 0.199336 0.245763 255 220 0
0.554353 0.114259 0.250959 255 220 0
0.520370 0.060594 0.185968 255 220 0
0.554892 0.098042 0.244601 255 220 0
0.513634 0.054753 0.189526 255 220 0
0.555505 0.125435 0.182529 255 220 0
0.496393 0.162277 0.213993 255 220 0
0.562947 0.177330 0.205148 255 220 0
0.541481 0.053484 0.225901 255 220 0
0.510165 0.191485 0.223474 255 220 0
0.526814 0.139379 0.182614 255 220 0
0.492369 0.116035 0.210532 255 220 0
0.556496 0.176471 0.198861 255 220 0
0.563247 0.194121 0.241104 255 220 0
0.578417 0.162062 0.226553 255 220 0
0.496091 0.078487 0.211998 255 220 0
0.490052 0.135225 0.223304 255 220 0
0.565183 0.072581 0.199569 255 220 0
0.527391 0.204727 0.228119 255 220 0
0.551382 0.158189 0.262902 255 220 0
0.500575 0.177499 0.236567 255 220 0
0.519351 0.079475 0.183950 255 220 0
0.496623 0.117964 0.201513 255 220 0
0.508861 0.082405 0.234097 255 220 0
0.541927 0.112324 0.178862 255 220 0
0.546154 0.192070 0.206975 255 220 0
0.561828 0.102139 0.186239 255 220 0
0.505356 0.173911 0.209612 255 220 0
0.539621 0.130401 0.179546 255 220 0
0.549448 0.106832 0.180123 255 220 0
0.562992 0.193205 0.222972 255 220 0
0.547367 0.113899 0.252589 255 220 0
0.536138 0.078255 0.238638 255 220 0
0.493040 0.132928 0.208055 255 220 0
0.510525 0.111159 0.188395 255 220 0
0.513444 0.102459 0.243043 255 220 0
0.576256 0.139890 0.201625 255 220 0
0.523889 0.030923 0.213807 255 220 0
0.510765 0.170300 0.254048 255 220 0
0.536636 0.190310 0.204594 255 220 0
0.515524 0.095699 0.185162 255 220 0
0.504650 0.152323 0.197920 255 220 0
0.527673 0.138182 0.182189 255 220 0
0.530201 0.085334 0.180603 255 220 0
0.492327 0.107878 0.219574 255 220 0
0.567448 0.173832 0.207893 255 220 0
0.506286 0.178737 0.246555 255 220 0
0.503333 0.182743 0.223802 255 220 0
0.517858 0.078115 0.236787 255 220 0
0.508760 0.050281 0.227634 255 220 0
0.571823 0.175356 0.217489 255 220 0
0.522345 0.186718 0.255741 255 220 0
0.495173 0.123030 0.203502 255 220 0
0.501109 0.036366 0.214509 255 220 0
0.574035 0.169691 0.216631 255 220 0
0.564973 0.116716 0.187973 255 220 0
0.570669 0.076110 0.216023 255 220 0
0.505770 0.124638 0.192285 255 220 0
0.561067 0.062568 0.215554 255 220 0
0.540379 0.046825 0.193619 255 220 0
0.561902 0.061502 0.205032 255 220 0
0.510278 0.065699 0.231018 255 220 0
0.508512 0.179126 0.210467 255 220 0
0.532466 0.082749 0.240501 255 220 0
0.547146 0.194590 0.254956 255 220 0
0.557184 0.139814 0.184826 255 220 0
0.493330 0.130603 0.234302 255 220 0
0.568401 0.106778 0.191452 255 220 0
0.518075 0.086206 0.239408 255 220 0
0.503623 0.128170 0.245386 255 220 0
0.507916 0.041646 0.225616 255 220 0
0.552944 0.203655 0.239719 255 220 0
0.492631 0.114895 0.227502 255 220 0
0.556090 0.194719 0.250457 255 220 0
0.514310 0.041759 0.226948 255 220 0
0.544200 0.049105 0.193968 255 220 0
0.503970 0.037470 0.202409 255 220 0
0.577584 0.102040 0.204055 255 220 0
0.535424 0.037808 0.216138 255 220 0
0.582771 0.120892 0.223552 255 220 0
0.523126 0.118912 0.252262 255 220 0
0.529856 0.163063 0.188344 255 220 0
0.575079 0.138065 0.199453 255 220 0
0.574043 0.089550 0.202672 255 220 0
0.517165 0.047575 0.228443 255 220 0
0.582605 0.129679 0.224782 255 220 0
0.514582 0.037341 0.196468 255 220 0
0.555961 0.201527 0.226696 255 220 0
0.526845 0.124765 0.255020 255 220 0
0.551360 0.171047 0.193024 255 220 0
0.557592 0.056974 0.213250 255 220 0
0.555512 0.146479 0.259760 255 220 0
0.568874 0.185152 0.241241 255 220 0
0.501625 0.154534 0.247640 255 220 0
0.524071 0.047631 0.227952 255 220 0
0.517363 0.195369 0.219061 255 220 0
0.492105 0.139160 0.232991 255 220 0
0.558859 0.057891 0.202526 255 220 0
0.548626 0.147212 0.261971 255 220 0
0.578509 0.111791 0.203994 255 220 0
0.504119 0.129362 0.193955 255 220 0
0.522243 0.057582 0.186261 255 220 0
0.510940 0.194017 0.229856 255 220 0
0.563623 0.106077 0.243477 255 220 0
0.566747 0.190119 0.239145 255 220 0
0.514178 0.063386 0.187731 255 220 0
0.493354 0.105637 0.223383 255 220 0
0.569137 0.081417 0.225439 255 220 0
0.494199 0.116346 0.205863 255 220 0
0.525119 0.153606 0.261495 255 220 0
0.549217 0.045203 0.204221 255 220 0
0.496777 0.053976 0.216430 255 220 0
0.561942 0.106609 0.244693 255 220 0
0.522310 0.154313 0.260673 255 220 0
0.520231 0.081767 0.238630 255 220 0
0.519633 0.190656 0.211259 255 220 0
0.533589 0.090742 0.243718 255 220 0
0.511245 0.035399 0.199371 255 220 0
0.567814 0.177979 0.249725 255 220 0
0.531222 0.155463 0.185220 255 220 0
0.529846 0.088120 0.180414 255 220 0
0.578153 0.162906 0.227673 255 220 0
0.557748 0.112507 0.248986 255 220 0
0.499954 0.174265 0.238763 255 220 0
0.507738 0.100976 0.190264 255 220 0
0.541851 0.074438 0.182533 255 220 0
0.578919 0.105233 0.205788 255 220 0
0.521737 0.142830 0.184955 255 220 0
0.536682 0.091951 0.244275 255 220 0
0.503769 0.177501 0.243748 255 220 0
0.545183 0.205048 0.222319 255 220 0
0.553380 0.156646 0.187874 255 220 0
0.542774 0.061438 0.186688 255 220 0
0.582938 0.125052 0.219433 255 220 0
0.528811 0.177445 0.196346 255 220 0
0.517300 0.164261 0.258874 255 220 0
0.522251 0.198919 0.219753 255 220 0
0.554258 0.139884 0.183564 255 220 0
0.569199 0.126850 0.247400 255 220 0
0.507206 0.137824 0.250304 255 220 0
0.495179 0.130668 0.203852 255 220 0
0.532318 0.137301 0.259441 255 220 0
0.559473 0.161319 0.259810 255 220 0
0.559005 0.193470 0.217163 255 220 0
0.504678 0.034693 0.205215 255 220 0
0.532082 0.204825 0.243912 255 220 0
0.529981 0.045132 0.191307 255 220 0
0.562210 0.065872 0.200145 255 220 0
0.502321 0.128057 0.195365 255 220 0
0.558683 0.090509 0.185863 255 220 0
0.558886 0.122252 0.251817 255 220 0
0.518544 0.199735 0.228271 255 220 0
0.511986 0.093468 0.187270 255 220 0
0.554700 0.131636 0.256366 255 220 0
0.507304 0.149438 0.194775 255 220 0
0.558159 0.077505 0.189425 255 220 0
0.574820 0.167097 0.240191 255 220 0
0.581649 0.110402 0.225442 255 220 0
0.582971 0.117552 0.221512 255 220 0
0.537852 0.102948 0.248744 255 220 0
0.563816 0.195066 0.234879 255 220 0
0.563798 0.137376 0.253707 255 220 0
0.534202 0.171048 0.191712 255 220 0
0.531625 0.066206 0.234068 255 220 0
0.569912 0.102149 0.193636 255 220 0
0.504609 0.098000 0.236294 255 220 0
0.558619 0.155105 0.189734 255 220 0
0.552354 0.099607 0.246072 255 220 0
0.529058 0.205211 0.239495 255 220 0
0.503271 0.104010 0.194206 255 220 0
0.577160 0.091902 0.207533 255 220 0
0.527583 0.034178 0.199711 255 220 0
0.496395 0.154044 0.240903 255 220 0
0.494931 0.108423 0.229241 255 220 0
0.525931 0.163803 0.262437 255 220 0
0.506823 0.165341 0.201706 255 220 0
0.582374 0.137490 0.227939 255 220 0
0.568209 0.119661 0.190653 255 220 0
0.519412 0.142373 0.257615 255 220 0
0.568895 0.082575 0.226698 255 220 0
0.523940 0.082089 0.182192 255 220 0
0.498064 0.091234 0.226451 255 220 0
0.550022 0.101037 0.247222 255 220 0
0.507153 0.043864 0.196234 255 220 0
0.554309 0.091995 0.183030 255 220 0
0.537939 0.121189 0.178949 255 220 0
0.558248 0.119084 0.251048 255 220 0
0.565470 0.111725 0.188450 255 220 0
0.552207 0.203380 0.224941 255 220 0
0.515024 0.098726 0.242474 255 220 0
0.539026 0.140058 0.260679 255 220 0
0.534489 0.198164 0.252914 255 220 0
0.579753 0.150130 0.235618 255 220 0
0.563191 0.065592 0.216070 255 220 0
0.522724 0.136413 0.183541 255 220 0
0.573801 0.096784 0.230976 255 220 0
0.542937 0.166568 0.188972 255 220 0
0.532658 0.199614 0.214487 255 220 0
0.541992 0.207060 0.240173 255 220 0
0.496431 0.087294 0.206792 255 220 0
0.560428 0.124024 0.185027 255 220 0
0.556193 0.202348 0.234838 255 220 0
0.529949 0.034023 0.215440 255 220 0
0.548041 0.136702 0.181155 255 220 0
0.566150 0.185371 0.217540 255 220 0
0.546985 0.197180 0.253045 255 220 0
0.517282 0.189770 0.212206 255 220 0
0.519842 0.110035 0.183053 255 220 0
0.569539 0.127965 0.192077 255 220 0
0.561370 0.075368 0.193398 255 220 0
0.519432 0.082308 0.238579 255 220 0
0.563809 0.118882 0.248146 255 220 0
0.554756 0.057677 0.218762 255 220 0
0.505039 0.117456 0.243243 255 220 0
0.551542 0.088304 0.241397 255 220 0
0.537203 0.141932 0.181347 255 220 0
0.514177 0.066772 0.187341 255 220 0
0.496527 0.159690 0.240084 255 220 0
0.543914 0.158452 0.264386 255 220 0
0.517408 0.107979 0.184220 255 220 0
0.558911 0.197167 0.222441 255 220 0
0.554813 0.076776 0.187116 255 220 0
0.532211 0.044886 0.224929 255 220 0
0.555382 0.059049 0.219560 255 220 0
0.580578 0.142657 0.235338 255 220 0
0.571317 0.182576 0.233580 255 220 0
0.533833 0.105562 0.249520 255 220 0
0.525520 0.168638 0.192046 255 220 0
0.517922 0.199601 0.231888 255 220 0
0.547136 0.201263 0.217447 255 220 0
0.498621 0.174566 0.223887 255 220 0
0.496372 0.072395 0.210136 255 220 0
0.491206 0.142969 0.230088 255 220 0
0.490397 0.122753 0.222564 255 220 0
0.539508 0.189090 0.259065 255 220 0
0.529170 0.160986 0.263314 255 220 0
0.561179 0.119229 0.249699 255 220 0
0.574973 0.136787 0.244736 255 220 0
0.578006 0.132296 0.239854 255 220 0
0.557312 0.171447 0.260553 255 220 0
0.546527 0.172057 0.192316 255 220 0
0.553765 0.175131 0.196413 255 220 0
0.580735 0.150504 0.218190 255 220 0
0.508791 0.049685 0.193384 255 220 0
0.503598 0.146540 0.249091 255 220 0
0.523454 0.190595 0.208677 255 220 0
0.527805 0.110176 0.250440 255 220 0
0.562210 0.103704 0.186367 255 220 0
0.541808 0.100068 0.247653 255 220 0
0.535575 0.092413 0.179507 255 220 0
0.573688 0.118170 0.196511 255 220 0
0.577694 0.163956 0.230318 255 220 0
0.580038 0.132666 0.235983 255 220 0
0.561377 0.138488 0.255306 255 220 0
0.528526 0.073160 0.182332 255 220 0
0.575722 0.118994 0.199127 255 220 0
0.548563 0.099989 0.247073 255 220 0
0.522378 0.060511 0.185536 255 220 0
0.533193 0.144579 0.182250 255 220 0
0.492710 0.125564 0.231846 255 220 0
0.498770 0.110507 0.235537 255 220 0
0.558829 0.057603 0.211392 255 220 0
0.563139 0.064377 0.214055 255 220 0
0.560122 0.109080 0.246627 255 220 0
0.513231 0.074914 0.234269 255 220 0
0.570434 0.157074 0.250801 255 220 0
0.564048 0.096014 0.238944 255 220 0
0.544825 0.181494 0.198104 255 220 0
0.550069 0.203415 0.244282 255 220 0
0.548187 0.166218 0.264070 255 220 0
0.553746 0.189863 0.208413 255 220 0
0.563711 0.090609 0.189921 255 220 0
0.493130 0.154655 0.234080 255 220 0
0.490360 0.131778 0.216815 255 220 0
0.509976 0.059427 0.190610 255 220 0
0.569475 0.097337 0.194094 255 220 0
0.551255 0.075177 0.234878 255 220 0
0.503164 0.105356 0.194284 255 220 0
0.494126 0.138420 0.206967 255 220 0
0.497259 0.064202 0.218270 255 220 0
0.533317 0.128380 0.257030 255 220 0
0.512194 0.096227 0.240291 255 220 0
0.578114 0.163028 0.225687 255 220 0
0.579975 0.118850 0.206275 255 220 0
0.511856 0.102416 0.242246 255 220 0
0.532464 0.149784 0.183489 255 220 0
0.534514 0.054402 0.228715 255 220 0
0.541535 0.098975 0.179157 255 220 0
0.541448 0.120348 0.255081 255 220 0
0.546652 0.112970 0.179472 255 220 0
0.581028 0.138851 0.234154 255 220 0
0.536458 0.093829 0.179384 255 220 0
0.566632 0.154644 0.254510 255 220 0
0.535821 0.036982 0.214091 255 220 0
0.501970 0.133421 0.196210 255 220 0
0.530010 0.202118 0.247255 255 220 0
0.526858 0.096891 0.180558 255 220 0
0.502937 0.058449 0.225834 255 220 0
0.528586 0.153636 0.185246 255 220 0
0.518294 0.199592 0.228443 255 220 0
0.544449 0.191774 0.206279 255 220 0
0.576598 0.155548 0.241432 255 220 0
0.527769 0.031115 0.206120 255 220 0
0.538564 0.075039 0.181931 255 220 0
0.518487 0.066491 0.185540 255 220 0
0.537743 0.089030 0.243065 255 220 0
0.537038 0.178849 0.263044 255 220 0
0.538574 0.194267 0.256043 255 220 0
0.532588 0.033593 0.210513 255 220 0
0.521991 0.088234 0.182412 255 220 0
0.509447 0.178069 0.250418 255 220 0
0.565057 0.164548 0.198569 255 220 0
0.504366 0.081487 0.193591 255 220 0
0.575429 0.168827 0.220176 255 220 0
0.542149 0.078478 0.181719 255 220 0
0.564330 0.127114 0.187748 255 220 0
0.569781 0.184575 0.238686 255 220 0
0.524201 0.031870 0.216096 255 220 0
0.524336 0.042154 0.192412 255 220 0
0.575384 0.127780 0.242238 255 220 0
0.497182 0.077683 0.219466 255 220 0
0.539092 0.111589 0.178758 255 220 0
0.509987 0.167310 0.199870 255 220 0
0.505134 0.186836 0.233853 255 220 0
0.499959 0.150041 0.245781 255 220 0
0.491409 0.124899 0.228447 255 220 0
0.513433 0.087193 0.237863 255 220 0
0.498066 0.044791 0.206091 255 220 0
0.582005 0.132102 0.229307 255 220 0
0.507849 0.110364 0.190296 255 220 0
0.550896 0.190802 0.207653 255 220 0
0.507921 0.187439 0.241260 255 220 0
0.541886 0.156813 0.185084 255 220 0
0.545120 0.164162 0.188184 255 220 0
0.516370 0.087014 0.239039 255 220 0
0.508764 0.166420 0.253233 255 220 0
0.556040 0.095959 0.243279 255 220 0
0.510498 0.153154 0.193398 255 220 0
0.534408 0.152798 0.263211 255 220 0
0.517317 0.160784 0.258975 255 220 0
0.573699 0.161952 0.245249 255 220 0
0.497709 0.044718 0.216307 255 220 0
0.503027 0.034913 0.207596 255 220 0
0.552379 0.089735 0.182522 255 220 0
0.562147 0.061356 0.207983 255 220 0
0.558712 0.109600 0.183807 255 220 0
0.523356 0.046121 0.190196 255 220 0
0.544596 0.207762 0.232716 255 220 0
0.579022 0.097998 0.223477 255 220 0
0.524047 0.178926 0.259551 255 220 0
0.578016 0.098505 0.205941 255 220 0
0.569640 0.168329 0.250517 255 220 0
0.575315 0.085510 0.218501 255 220 0
0.533821 0.116259 0.253221 255 220 0
0.516894 0.161511 0.192169 255 220 0
0.507116 0.152955 0.195946 255 220 0
0.521774 0.141860 0.184768 255 220 0
0.562689 0.127024 0.186593 255 220 0
0.540149 0.078966 0.238731 255 220 0
0.511434 0.146480 0.191101 255 220 0
0.579081 0.159695 0.227504 255 220 0
0.514072 0.099084 0.242164 255 220 0
0.574806 0.125038 0.242033 255 220 0
0.552492 0.100119 0.246243 255 220 0
0.503048 0.074774 0.228312 255 220 0
0.547151 0.071994 0.184638 255 220 0
0.526603 0.122557 0.254276 255 220 0
0.557436 0.193657 0.215661 255 220 0
0.559263 0.079390 0.189656 255 220 0
0.531192 0.139994 0.259997 255 220 0
0.513386 0.188921 0.214939 255 220 0
0.580923 0.128778 0.208975 255 220 0
0.532081 0.038704 0.220546 255 220 0
0.516117 0.170485 0.197060 255 220 0
0.556333 0.202127 0.230469 255 220 0
0.497244 0.166502 0.238521 255 220 0
0.500451 0.170301 0.213454 255 220 0
0.496619 0.135861 0.240288 255 220 0
0.496544 0.084184 0.219464 255 220 0
0.533585 0.040002 0.220754 255 220 0
0.555647 0.093104 0.183530 255 220 0
0.527326 0.200289 0.217812 255 220 0
0.539809 0.208282 0.232516 255 220 0
0.555770 0.191605 0.211785 255 220 0
0.566725 0.176894 0.209537 255 220 0
0.537318 0.202379 0.217074 255 220 0
0.504486 0.149507 0.250161 255 220 0
0.531454 0.124110 0.255538 255 220 0
0.499118 0.042751 0.218283 255 220 0
0.562329 0.133342 0.253480 255 220 0
0.521419 0.037119 0.195764 255 220 0
0.506357 0.101462 0.238742 255 220 0
0.555408 0.067226 0.191537 255 220 0
0.541178 0.166700 0.188931 255 220 0
0.551629 0.105358 0.180773 255 220 0
0.526747 0.191755 0.208155 255 220 0
0.580542 0.144623 0.212642 255 220 0
0.564868 0.129518 0.251002 255 220 0
0.577596 0.156980 0.213073 255 220 0
0.566934 0.147351 0.253508 255 220 0
0.514271 0.053008 0.189705 255 220 0
0.570298 0.074301 0.211154 255 220 0
0.567448 0.184980 0.219598 255 220 0
0.496962 0.088882 0.223045 255 220 0
0.532340 0.084428 0.241162 255 220 0
0.510711 0.097773 0.188069 255 220 0
0.539505 0.208152 0.230385 255 220 0
0.497392 0.133834 0.240852 255 220 0
0.559406 0.068329 0.224479 255 220 0
0.532430 0.204991 0.243771 255 220 0
0.515696 0.181543 0.205701 255 220 0
0.543739 0.180038 0.262699 255 220 0
0.544921 0.090215 0.243340 255 220 0
0.533280 0.037223 0.217641 255 220 0
0.493333 0.106890 0.224381 255 220 0
0.540006 0.166246 0.264935 255 220 0
0.559130 0.057020 0.206658 255 220 0
0.537224 0.067887 0.183408 255 220 0
0.580845 0.146322 0.233544 255 220 0
0.537026 0.165084 0.264801 255 220 0
0.562326 0.076710 0.193773 255 220 0
0.515045 0.075552 0.235110 255 220 0
0.580484 0.098366 0.217261 255 220 0
0.539263 0.107643 0.250577 255 220 0
0.554433 0.193299 0.252856 255 220 0
0.541177 0.082368 0.180884 255 220 0
0.537730 0.073981 0.236808 255 220 0
0.524222 0.057779 0.231245 255 220 0
0.570519 0.141726 0.249802 255 220 0
0.503906 0.108346 0.193544 255 220 0
0.564699 0.075735 0.196981 255 220 0
0.564098 0.070924 0.221563 255 220 0
0.533300 0.049483 0.189501 255 220 0
0.557003 0.055920 0.201157 255 220 0
0.501440 0.180025 0.235181 255 220 0
0.548180 0.123479 0.179973 255 220 0
0.511783 0.074176 0.233507 255 220 0
0.499837 0.039972 0.205914 255 220 0
0.572401 0.159095 0.248024 255 220 0
0.565980 0.075336 0.223731 255 220 0
0.551066 0.151114 0.262110 255 220 0
0.505261 0.130773 0.193177 255 220 0
0.510412 0.192884 0.226545 255 220 0
0.508924 0.187900 0.219643 255 220 0
0.507140 0.086714 0.190910 255 220 0
0.563193 0.131715 0.252574 255 220 0
0.517792 0.071775 0.185192 255 220 0
0.499564 0.173866 0.219361 255 220 0
0.533392 0.156115 0.185081 255 220 0
0.535800 0.112948 0.252257 255 220 0
0.573175 0.177123 0.225738 255 220 0
0.525515 0.111051 0.250269 255 220 0
0.550262 0.117044 0.253136 255 220 0
0.565869 0.115444 0.188687 255 220 0
0.513014 0.068280 0.232563 255 220 0
0.507292 0.034520 0.202830 255 220 0
0.507009 0.115709 0.191014 255 220 0
0.550324 0.188003 0.258045 255 220 0
0.520784 0.059999 0.185993 255 220 0
0.547375 0.157570 0.186282 255 220 0
0.549217 0.087440 0.241533 255 220 0
0.502729 0.034966 0.208180 255 220 0
0.560270 0.074980 0.192454 255 220 0
0.547486 0.191079 0.206444 255 220 0
0.581190 0.124584 0.231028 255 220 0
0.506536 0.122054 0.191572 255 220 0
0.520236 0.176192 0.258530 255 220 0
0.495988 0.080418 0.213315 255 220 0
0.534679 0.200721 0.215354 255 220 0
0.534821 0.193969 0.255904 255 220 0
0.494468 0.145771 0.208632 255 220 0
0.562551 0.194216 0.223928 255 220 0
0.499345 0.124516 0.198039 255 220 0
0.565159 0.165162 0.256058 255 220 0
0.552559 0.191356 0.209175 255 220 0
0.573930 0.118036 0.240427 255 220 0
0.569168 0.131848 0.191997 255 220 0
0.561571 0.064652 0.217689 255 220 0
0.527108 0.143315 0.260100 255 220 0
0.575354 0.094428 0.202683 255 220 0
0.527699 0.162167 0.188470 255 220 0
0.495171 0.164790 0.219600 255 220 0
0.502565 0.166453 0.247087 255 220 0
0.514663 0.164387 0.194716 255 220 0
0.509778 0.160166 0.196400 255 220 0
0.567005 0.105720 0.241104 255 220 0
0.501709 0.173969 0.242609 255 220 0
0.557108 0.130605 0.183605 255 220 0
0.501213 0.116431 0.239939 255 220 0
0.499711 0.108121 0.198068 255 220 0
0.493479 0.115775 0.229847 255 220 0
0.555612 0.054692 0.200136 255 220 0
0.507421 0.039193 0.198393 255 220 0
0.532940 0.109391 0.250824 255 220 0
0.580979 0.131139 0.209462 255 220 0
0.505777 0.169295 0.249921 255 220 0
0.539625 0.051191 0.225335 255 220 0
0.518668 0.050532 0.189050 255 220 0
0.494252 0.161186 0.218573 255 220 0
0.568811 0.085022 0.197391 255 220 0
0.537472 0.114276 0.178792 255 220 0
0.516294 0.121839 0.250777 255 220 0
0.550060 0.134339 0.181317 255 220 0
0.579371 0.094506 0.216405 255 220 0
0.524825 0.151919 0.261163 255 220 0
0.498738 0.063207 0.221560 255 220 0
0.568390 0.183265 0.244875 255 220 0
0.569368 0.178771 0.215926 255 220 0
0.533074 0.114796 0.179142 255 220 0
0.580092 0.106563 0.207985 255 220 0
0.560881 0.172969 0.258305 255 220 0
0.492410 0.158153 0.225032 255 220 0
0.574888 0.154870 0.244796 255 220 0
0.543291 0.189409 0.258759 255 220 0
0.510682 0.110236 0.244292 255 220 0
0.576590 0.087261 0.211084 255 220 0
0.555861 0.197850 0.247171 255 220 0
0.544842 0.089019 0.242823 255 220 0
0.523517 0.117067 0.181661 255 220 0
0.518726 0.076529 0.184435 255 220 0
0.517048 0.039532 0.194435 255 220 0
0.500418 0.176577 0.237399 255 220 0
0.490431 0.140803 0.220374 255 220 0
0.580824 0.146840 0.233411 255 220 0
0.557957 0.172909 0.197498 255 220 0
0.541886 0.200697 0.215113 255 220 0
0.564057 0.178623 0.207519 255 220 0
0.575506 0.096644 0.202160 255 220 0
0.530500 0.108679 0.179479 255 220 0
0.510202 0.182377 0.211656 255 220 0
0.572541 0.178233 0.237127 255 220 0
0.497026 0.086596 0.204957 255 220 0
0.508026 0.053877 0.227948 255 220 0
0.510711 0.047378 0.227745 255 220 0
0.495297 0.133194 0.203963 255 220 0
0.558585 0.102338 0.184068 255 220 0
0.511563 0.032904 0.202556 255 220 0
0.560416 0.181052 0.256130 255 220 0
0.511557 0.173564 0.253841 255 220 0
0.576332 0.095948 0.227093 255 220 0
0.562716 0.140722 0.255096 255 220 0
0.575936 0.098803 0.202178 255 220 0
0.530746 0.040812 0.223131 255 220 0
0.491691 0.153487 0.223255 255 220 0
0.565871 0.067099 0.208697 255 220 0
0.513693 0.196309 0.228857 255 220 0
0.558011 0.069839 0.227104 255 220 0
0.537619 0.053960 0.227690 255 220 0
0.542734 0.107110 0.178959 255 220 0
0.502612 0.183008 0.228520 255 220 0
0.564412 0.165242 0.198337 255 220 0
0.562761 0.113336 0.186342 255 220 0
0.495382 0.167917 0.230421 255 220 0
0.582831 0.114398 0.216249 255 220 0
0.536848 0.179568 0.196708 255 220 0
0.521434 0.137099 0.257104 255 220 0
0.513537 0.162017 0.194411 255 220 0
0.541385 0.171414 0.264622 255 220 0
0.514794 0.096690 0.241672 255 220 0
0.551503 0.081018 0.183967 255 220 0
0.491957 0.150381 0.231432 255 220 0
0.530950 0.044948 0.225404 255 220 0
0.520901 0.063828 0.185184 255 220 0
0.527353 0.182193 0.259770 255 220 0
0.549265 0.110715 0.180052 255 220 0
0.570300 0.168744 0.249402 255 220 0
0.527342 0.037754 0.196100 255 220 0
0.504300 0.165923 0.249217 255 220 0
0.582431 0.139969 0.227107 255 220 0
0.541565 0.144642 0.181867 255 220 0
0.505947 0.112926 0.191799 255 220 0
0.561753 0.095428 0.240136 255 220 0
0.549092 0.179271 0.197385 255 220 0
0.498368 0.073819 0.221864 255 220 0
0.529307 0.191798 0.255897 255 220 0
0.582876 0.122938 0.216786 255 220 0
0.540444 0.042427 0.197227 255 220 0
0.577479 0.135357 0.241251 255 220 0
0.509715 0.140686 0.191185 255 220 0
0.577975 0.150280 0.209093 255 220 0
0.578131 0.117127 0.235224 255 220 0
0.543994 0.177545 0.263359 255 220 0
0.549355 0.129784 0.257412 255 220 0
0.579219 0.125070 0.204733 255 220 0
0.526241 0.204560 0.231307 255 220 0
0.530245 0.092214 0.244141 255 220 0
0.505172 0.071528 0.193230 255 220 0
0.501440 0.121687 0.241776 255 220 0
0.561738 0.193683 0.221337 255 220 0
0.564351 0.116053 0.187495 255 220 0
0.578316 0.146672 0.207859 255 220 0
0.527831 0.087768 0.242193 255 220 0
0.521059 0.140213 0.184794 255 220 0
0.523383 0.144286 0.259355 255 220 0
0.516490 0.102061 0.244282 255 220 0
0.533109 0.166696 0.189493 255 220 0
0.581586 0.142948 0.215699 255 220 0
0.529240 0.033094 0.214119 255 220 0
0.550508 0.203269 0.222717 255 220 0
0.547992 0.047276 0.214175 255 220 0
0.504922 0.038667 0.222578 255 220 0
0.520288 0.043062 0.191947 255 220 0
0.502028 0.114274 0.239932 255 220 0
0.546887 0.079722 0.238360 255 220 0
0.558073 0.122695 0.252317 255 220 0
0.535805 0.035621 0.202244 255 220 0
0.578397 0.157539 0.216103 255 220 0
0.570205 0.181998 0.222383 255 220 0
0.540371 0.044703 0.219741 255 220 0
0.521271 0.033417 0.199541 255 220 0
0.531700 0.033042 0.210198 255 220 0
0.532456 0.115744 0.252933 255 220 0
0.582906 0.126046 0.220430 255 220 0
0.493067 0.148369 0.212992 255 220 0
0.514536 0.148626 0.189630 255 220 0
0.507807 0.094346 0.237214 255 220 0
0.509167 0.131244 0.249921 255 220 0
0.491820 0.142289 0.213882 255 220 0
0.503379 0.107986 0.194043 255 220 0
0.505040 0.053061 0.226412 255 220 0
0.533494 0.037393 0.198516 255 220 0
0.531834 0.035032 0.215378 255 220 0
0.498060 0.110156 0.234585 255 220 0
0.529063 0.182641 0.199784 255 220 0
0.562486 0.086454 0.235160 255 220 0
0.509299 0.040855 0.196377 255 220 0
0.501114 0.088894 0.197115 255 220 0
0.510175 0.039266 0.225467 255 220 0
0.540314 0.070114 0.234901 255 220 0
0.494656 0.164421 0.221035 255 220 0
0.567803 0.094532 0.192941 255 220 0
0.516414 0.029730 0.208957 255 220 0
0.518504 0.055490 0.187626 255 220 0
0.565458 0.143014 0.253879 255 220 0
0.521658 0.122522 0.182650 255 220 0
0.503067 0.087236 0.231262 255 220 0
0.545037 0.044910 0.214793 255 220 0
0.498769 0.104027 0.199639 255 220 0
0.579081 0.144984 0.238767 255 220 0
0.543422 0.179231 0.262961 255 220 0
0.523242 0.077777 0.237984 255 220 0
0.552559 0.190545 0.208341 255 220 0
0.527491 0.036603 0.197170 255 220 0
0.505323 0.130311 0.247190 255 220 0
0.492188 0.142386 0.212752 255 220 0
0.508154 0.090139 0.236015 255 220 0
0.506986 0.173327 0.207190 255 220 0
0.573731 0.120299 0.241464 255 220 0
0.526071 0.180512 0.259873 255 220 0
0.500253 0.126288 0.242022 255 220 0
0.582819 0.129485 0.219412 255 220 0
0.491340 0.148725 0.228999 255 220 0
0.577060 0.088021 0.212673 255 220 0
0.554835 0.080922 0.236579 255 220 0
0.569184 0.086737 0.229537 255 220 0
0.496335 0.068007 0.212739 255 220 0
0.501771 0.084751 0.196439 255 220 0
0.574864 0.130382 0.198135 255 220 0
0.512518 0.142802 0.189683 255 220 0
0.547109 0.121496 0.179679 255 220 0
0.516885 0.085146 0.184725 255 220 0
0.541960 0.044524 0.196269 255 220 0
0.548144 0.183423 0.260795 255 220 0
0.545316 0.066777 0.232249 255 220 0
0.581657 0.118584 0.210442 255 220 0
0.517154 0.123754 0.251733 255 220 0
0.515704 0.165683 0.194677 255 220 0
0.569778 0.138757 0.193462 255 220 0
0.574121 0.175413 0.228763 255 220 0
0.505392 0.148344 0.250793 255 220 0
0.565866 0.101967 0.240339 255 220 0
0.547485 0.090517 0.243206 255 220 0
0.558442 0.114374 0.183678 255 220 0
0.522402 0.032351 0.218209 255 220 0
0.511472 0.040269 0.226170 255 220 0
0.492124 0.123286 0.209807 255 220 0
0.578538 0.130212 0.203818 255 220 0
0.506385 0.186966 0.223353 255 220 0
0.492262 0.144528 0.233444 255 220 0
0.491711 0.117196 0.212455 255 220 0
0.570000 0.084560 0.227001 255 220 0
0.532972 0.081017 0.239814 255 220 0
0.568066 0.097072 0.236495 255 220 0
0.555210 0.140052 0.183980 255 220 0
0.538343 0.038222 0.212906 255 220 0
0.501979 0.050180 0.223838 255 220 0
0.522279 0.127131 0.182692 255 220 0
0.511421 0.132389 0.188951 255 220 0
0.574760 0.112988 0.198207 255 220 0
0.503011 0.175476 0.214369 255 220 0
0.574085 0.154951 0.246053 255 220 0
0.567825 0.162125 0.200095 255 220 0
0.559713 0.177631 0.202177 255 220 0
0.498997 0.045097 0.203985 255 220 0
0.528177 0.190645 0.206551 255 220 0
0.513720 0.077079 0.235027 255 220 0
0.555155 0.176264 0.260656 255 220 0
0.497608 0.073080 0.219958 255 220 0
0.560289 0.079294 0.190623 255 220 0
0.555420 0.061803 0.194455 255 220 0
0.569006 0.179525 0.216060 255 220 0
0.502611 0.153952 0.200510 255 220 0
0.531133 0.165818 0.189380 255 220 0
0.491852 0.153255 0.221373 255 220 0
0.493296 0.159846 0.231809 255 220 0
0.499866 0.057968 0.222726 255 220 0
0.577146 0.101400 0.229424 255 220 0
0.515134 0.114809 0.185611 255 220 0
0.492148 0.111586 0.223637 255 220 0
0.532374 0.043578 0.192928 255 220 0
0.522822 0.113149 0.250289 255 220 0
0.517323 0.163645 0.258917 255 220 0
0.580026 0.096687 0.214672 255 220 0
0.580449 0.123928 0.232930 255 220 0
0.581185 0.113018 0.228027 255 220 0
0.515409 0.105276 0.244928 255 220 0
0.493252 0.133190 0.234693 255 220 0
0.573408 0.120791 0.241941 255 220 0
0.495033 0.163569 0.218595 255 220 0
0.559233 0.190395 0.213716 255 220 0
0.523025 0.114833 0.181788 255 220 0
0.582616 0.134646 0.218205 255 220 0
0.509666 0.108891 0.188942 255 220 0
0.501757 0.177382 0.240010 255 220 0
0.537894 0.184147 0.261327 255 220 0
0.528735 0.177717 0.261574 255 220 0
0.498524 0.171406 0.218590 255 220 0
0.547652 0.060686 0.189188 255 220 0
0.527923 0.132836 0.257620 255 220 0
0.562036 0.177144 0.204028 255 220 0
0.519171 0.105679 0.246584 255 220 0
0.567541 0.172542 0.206936 255 220 0
0.580667 0.141987 0.211665 255 220 0
0.496413 0.140736 0.203811 255 220 0
0.498298 0.054081 0.220004 255 220 0
0.553911 0.127467 0.181967 255 220 0
0.504572 0.121067 0.244055 255 220 0
0.543315 0.118275 0.179026 255 220 0
0.554827 0.196491 0.249693 255 220 0
0.541909 0.060289 0.186856 255 220 0
0.543577 0.164960 0.264785 255 220 0
0.496318 0.094278 0.224383 255 220 0
0.537946 0.184241 0.261293 255 220 0
0.565657 0.181650 0.212561 255 220 0
0.550000 0.119399 0.180329 255 220 0
0.579644 0.142403 0.208988 255 220 0
0.494890 0.129081 0.204172 255 220 0
0.540648 0.174049 0.264283 255 220 0
0.557985 0.108891 0.247578 255 220 0
0.538161 0.098439 0.179071 255 220 0
0.552436 0.067656 0.189012 255 220 0
0.494443 0.142803 0.237956 255 220 0
0.562959 0.093221 0.188594 255 220 0
0.542908 0.197023 0.253980 255 220 0
0.498705 0.172475 0.237232 255 220 0
0.582652 0.113265 0.215183 255 220 0
0.565410 0.080448 0.195417 255 220 0
0.540752 0.147901 0.182571 255 220 0
0.555509 0.163245 0.191267 255 220 0
0.521468 0.146100 0.185704 255 220 0
0.580731 0.102272 0.222338 255 220 0
0.522898 0.040934 0.225727 255 220 0
0.562539 0.182835 0.209531 255 220 0
