ply
format ascii 1.0
element vertex 1024
property float x
property float y
property float z
property uchar red
property uchar green
property uchar blue
end_header
0.486575 0.221572 0.246371 255 220 0
0.507867 0.104575 0.198883 255 220 0
0.486792 0.057361 0.209999 255 220 0
0.484412 0.060752 0.200115 255 220 0
0.525007 0.129779 0.211515 255 220 0
0.452375 0.119334 0.221131 255 220 0
0.481344 0.172233 0.276204 255 220 0
0.460973 0.085845 0.231442 255 220 0
0.481718 0.053428 0.216148 255 220 0
0.524436 0.146324 0.208741 255 220 0
0.530784 0.134876 0.222129 255 220 0
0.492172 0.073780 0.196736 255 220 0
0.461833 0.101972 0.238260 255 220 0
0.452251 0.143151 0.226098 255 220 0
0.516371 0.202494 0.266725 255 220 0
0.473684 0.212375 0.248003 255 220 0
0.463397 0.082330 0.186742 255 220 0
0.530953 0.176787 0.226104 255 220 0
0.502284 0.113346 0.268063 255 220 0
0.482456 0.207561 0.215843 255 220 0
0.491343 0.061112 0.209876 255 220 0
0.527474 0.191255 0.231036 255 220 0
0.472041 0.053001 0.216956 255 220 0
0.504781 0.184627 0.203195 255 220 0
0.506512 0.161932 0.197126 255 220 0
0.469716 0.067893 0.231170 255 220 0
0.453443 0.056547 0.198527 255 220 0
0.499826 0.215592 0.265703 255 220 0
0.493793 0.162937 0.193280 255 220 0
0.526706 0.115363 0.243252 255 220 0
0.507263 0.094272 0.256549 255 220 0
0.504193 0.108991 0.195484 255 220 0
0.501852 0.116484 0.193542 255 220 0
0.514003 0.139906 0.199377 255 220 0
0.457620 0.131176 0.198240 255 220 0
0.493607 0.219803 0.259807 255 220 0
0.513890 0.164636 0.201563 255 220 0
0.498944 0.075555 0.202580 255 220 0
0.482730 0.125838 0.188352 255 220 0
0.455470 0.147980 0.240335 255 220 0
0.479820 0.104576 0.257843 255 220 0
0.492326 0.059875 0.216591 255 220 0
0.464249 0.189928 0.212301 255 220 0
0.490856 0.186477 0.279180 255 220 0
0.524633 0.126741 0.211832 255 220 0
0.452497 0.110513 0.220174 255 220 0
0.452187 0.153271 0.225717 255 220 0
0.485347 0.062901 0.198633 255 220 0
0.514620 0.128956 0.200351 255 220 0
0.475642 0.089698 0.186671 255 220 0
0.462751 0.173676 0.203650 255 220 0
0.528381 0.165892 0.216315 255 220 0
0.470190 0.138548 0.190622 255 220 0
0.512123 0.096053 0.206301 255 220 0
0.506856 0.107237 0.264827 255 220 0
0.448166 0.083967 0.207181 255 220 0
0.519764 0.140994 0.269024 255 220 0
0.470904 0.202892 0.258430 255 220 0
0.509196 0.132527 0.196583 255 220 0
0.472629 0.167039 0.270188 255 220 0
0.501796 0.117744 0.193447 255 220 0
0.458233 0.130746 0.242543 255 220 0
0.466819 0.059651 0.190872 255 220 0
0.496504 0.164122 0.194128 255 220 0
0.478361 0.187020 0.201502 255 220 0
0.455615 0.179938 0.225155 255 220 0
0.533543 0.159362 0.227138 255 220 0
0.502322 0.221151 0.236882 255 220 0
0.467963 0.197476 0.258543 255 220 0
0.519761 0.189565 0.217456 255 220 0
0.507222 0.202450 0.216262 255 220 0
0.463286 0.071315 0.228353 255 220 0
0.528809 0.123938 0.246729 255 220 0
0.477296 0.063866 0.192193 255 220 0
0.499195 0.148756 0.278037 255 220 0
0.469340 0.201028 0.257627 255 220 0
0.501799 0.082718 0.248565 255 220 0
0.480417 0.113996 0.261921 255 220 0
0.449889 0.095813 0.205630 255 220 0
0.533392 0.175717 0.236036 255 220 0
0.495963 0.188658 0.279322 255 220 0
0.463886 0.122373 0.248995 255 220 0
0.533361 0.165458 0.228417 255 220 0
0.482786 0.185696 0.276556 255 220 0
0.451738 0.146791 0.217566 255 220 0
0.447440 0.077733 0.207009 255 220 0
0.480597 0.118484 0.263603 255 220 0
0.529032 0.182200 0.225713 255 220 0
0.531244 0.137286 0.250842 255 220 0
0.459742 0.082950 0.228943 255 220 0
0.478004 0.137606 0.188931 255 220 0
0.525042 0.191952 0.259846 255 220 0
0.525911 0.193459 0.256649 255 220 0
0.458871 0.184650 0.246228 255 220 0
0.488670 0.208458 0.269641 255 220 0
0.448853 0.081420 0.197009 255 220 0
0.518554 0.180254 0.210459 255 220 0
0.473567 0.131092 0.263065 255 220 0
0.477285 0.092559 0.186830 255 220 0
0.515560 0.204753 0.225410 255 220 0
0.453522 0.118934 0.203828 255 220 0
0.521859 0.206478 0.241256 255 220 0
0.503002 0.137787 0.275640 255 220 0
0.525684 0.179558 0.263374 255 220 0
0.511030 0.082494 0.217252 255 220 0
0.494016 0.069750 0.237746 255 220 0
0.503794 0.173686 0.279097 255 220 0
0.510991 0.217632 0.256308 255 220 0
0.494629 0.187898 0.202117 255 220 0
0.471730 0.052248 0.202163 255 220 0
0.452464 0.152130 0.228205 255 220 0
0.518116 0.165754 0.204829 255 220 0
0.483943 0.101496 0.258491 255 220 0
0.490025 0.127722 0.189484 255 220 0
0.499268 0.223459 0.249136 255 220 0
0.475452 0.214863 0.242864 255 220 0
0.461690 0.133030 0.249161 255 220 0
0.523279 0.191423 0.263342 255 220 0
0.502946 0.181239 0.200981 255 220 0
0.457569 0.157031 0.247191 255 220 0
0.479396 0.203318 0.212934 255 220 0
0.477168 0.198092 0.269425 255 220 0
0.448640 0.078425 0.195899 255 220 0
0.524519 0.111857 0.218926 255 220 0
0.534738 0.152619 0.232037 255 220 0
0.526028 0.179740 0.262806 255 220 0
0.468851 0.200208 0.217548 255 220 0
0.455272 0.112274 0.199220 255 220 0
0.520797 0.196450 0.264707 255 220 0
0.470321 0.189897 0.206437 255 220 0
0.472477 0.126691 0.260776 255 220 0
0.486011 0.105132 0.260966 255 220 0
0.534760 0.152212 0.243551 255 220 0
0.460508 0.146252 0.250720 255 220 0
0.468586 0.193290 0.262570 255 220 0
0.471702 0.181347 0.269576 255 220 0
0.450933 0.100287 0.204320 255 220 0
0.485002 0.131926 0.270019 255 220 0
0.452857 0.143430 0.208921 255 220 0
0.515236 0.143495 0.272820 255 220 0
0.512428 0.091800 0.249900 255 220 0
0.454781 0.118568 0.230483 255 220 0
0.453146 0.158206 0.232243 255 220 0
0.456439 0.090479 0.191377 255 220 0
0.454128 0.127783 0.231109 255 220 0
0.469170 0.197062 0.260998 255 220 0
0.457720 0.186174 0.224410 255 220 0
0.522572 0.204831 0.252149 255 220 0
0.469592 0.052214 0.214715 255 220 0
0.533407 0.155318 0.225861 255 220 0
0.469835 0.156962 0.193353 255 220 0
0.474794 0.146063 0.268018 255 220 0
0.448382 0.077256 0.195907 255 220 0
0.456071 0.174596 0.241815 255 220 0
0.462887 0.168498 0.258056 255 220 0
0.507147 0.078456 0.237118 255 220 0
0.467835 0.113840 0.251044 255 220 0
0.523225 0.157430 0.268643 255 220 0
0.501564 0.073686 0.238106 255 220 0
0.532845 0.138282 0.245168 255 220 0
0.453268 0.152559 0.232984 255 220 0
0.447322 0.078903 0.205503 255 220 0
0.468812 0.166652 0.266348 255 220 0
0.517781 0.148282 0.202343 255 220 0
0.472164 0.168854 0.269971 255 220 0
0.490465 0.126553 0.189545 255 220 0
0.491409 0.076631 0.194726 255 220 0
0.468225 0.120919 0.254354 255 220 0
0.490005 0.222012 0.240723 255 220 0
0.512568 0.085128 0.236406 255 220 0
0.478279 0.101060 0.187071 255 220 0
0.520422 0.208436 0.240363 255 220 0
0.472552 0.166320 0.194880 255 220 0
0.467091 0.178591 0.264592 255 220 0
0.463000 0.137421 0.194026 255 220 0
0.459804 0.107156 0.237205 255 220 0
0.483210 0.087123 0.250208 255 220 0
0.484602 0.063328 0.197506 255 220 0
0.518766 0.183346 0.212345 255 220 0
0.470741 0.073618 0.186867 255 220 0
0.505966 0.221352 0.253090 255 220 0
0.463312 0.143657 0.194367 255 220 0
0.476815 0.215949 0.242402 255 220 0
0.487533 0.143686 0.189632 255 220 0
0.473125 0.061859 0.228138 255 220 0
0.452697 0.098192 0.198497 255 220 0
0.468882 0.050653 0.206943 255 220 0
0.485332 0.213332 0.263419 255 220 0
0.490561 0.062431 0.230032 255 220 0
0.504810 0.089076 0.253309 255 220 0
0.512509 0.083373 0.223626 255 220 0
0.514175 0.166484 0.202145 255 220 0
0.447354 0.080143 0.203152 255 220 0
0.484168 0.145326 0.189371 255 220 0
0.493540 0.223400 0.247737 255 220 0
0.516352 0.100632 0.209788 255 220 0
0.518475 0.122482 0.264973 255 220 0
0.463310 0.076036 0.230282 255 220 0
0.503803 0.073457 0.234048 255 220 0
0.497469 0.127749 0.191553 255 220 0
0.526198 0.180135 0.262432 255 220 0
0.450973 0.099341 0.214263 255 220 0
0.462084 0.198129 0.233067 255 220 0
0.533650 0.139157 0.239223 255 220 0
0.481430 0.219013 0.244846 255 220 0
0.451831 0.122834 0.218023 255 220 0
0.533071 0.162215 0.226286 255 220 0
0.465553 0.051252 0.204428 255 220 0
0.503628 0.159743 0.278902 255 220 0
0.492558 0.094214 0.257337 255 220 0
0.474955 0.054916 0.220687 255 220 0
0.454993 0.147135 0.238719 255 220 0
0.472376 0.168822 0.270149 255 220 0
0.520087 0.165500 0.271379 255 220 0
0.477691 0.066767 0.233677 255 220 0
0.458058 0.188795 0.229160 255 220 0
0.476127 0.078545 0.241514 255 220 0
0.494016 0.096142 0.258749 255 220 0
0.507695 0.078719 0.214128 255 220 0
0.453328 0.143309 0.207355 255 220 0
0.508824 0.216230 0.232547 255 220 0
0.523043 0.127972 0.262004 255 220 0
0.451791 0.122681 0.217512 255 220 0
0.494165 0.107733 0.190717 255 220 0
0.461385 0.196614 0.237656 255 220 0
0.496031 0.169546 0.279832 255 220 0
0.517788 0.190585 0.215888 255 220 0
0.457379 0.080428 0.188308 255 220 0
0.474236 0.066884 0.232581 255 220 0
0.511218 0.173928 0.202201 255 220 0
0.466157 0.072920 0.186456 255 220 0
0.522759 0.105037 0.220441 255 220 0
0.519830 0.096516 0.234966 255 220 0
0.471789 0.059030 0.225050 255 220 0
0.493906 0.128269 0.272026 255 220 0
0.475774 0.077826 0.187298 255 220 0
0.491903 0.063301 0.230668 255 220 0
0.463124 0.084864 0.187097 255 220 0
0.524416 0.189020 0.223286 255 220 0
0.501384 0.157936 0.279013 255 220 0
0.452773 0.153470 0.212917 255 220 0
0.455978 0.169926 0.212078 255 220 0
0.525017 0.138646 0.263187 255 220 0
0.456705 0.132990 0.239895 255 220 0
0.495373 0.108316 0.191147 255 220 0
0.490439 0.117267 0.267293 255 220 0
0.510727 0.109972 0.264911 255 220 0
0.481963 0.115054 0.263099 255 220 0
0.472520 0.212062 0.235075 255 220 0
0.467628 0.159256 0.263884 255 220 0
0.495762 0.158878 0.193033 255 220 0
0.498826 0.220191 0.233333 255 220 0
0.494737 0.103309 0.262683 255 220 0
0.511683 0.214393 0.232882 255 220 0
0.484961 0.216361 0.259450 255 220 0
0.455429 0.121339 0.233204 255 220 0
0.456105 0.066872 0.220212 255 220 0
0.520567 0.134445 0.266529 255 220 0
0.522455 0.106571 0.217754 255 220 0
0.502809 0.085246 0.250597 255 220 0
0.474047 0.064751 0.230851 255 220 0
0.482489 0.219598 0.244056 255 220 0
0.475491 0.131592 0.264635 255 220 0
0.489177 0.077590 0.192837 255 220 0
0.476356 0.114888 0.259743 255 220 0
0.480875 0.074003 0.189619 255 220 0
0.530123 0.131700 0.221925 255 220 0
0.479935 0.185105 0.200230 255 220 0
0.531284 0.183460 0.246000 255 220 0
0.470513 0.072117 0.234221 255 220 0
0.488894 0.211613 0.218931 255 220 0
0.516066 0.151521 0.201257 255 220 0
0.468053 0.140941 0.191583 255 220 0
0.531789 0.183113 0.236972 255 220 0
0.509011 0.205028 0.270772 255 220 0
0.520858 0.168570 0.270498 255 220 0
0.459506 0.104175 0.192630 255 220 0
0.462084 0.161878 0.199505 255 220 0
0.509649 0.081236 0.236478 255 220 0
0.499438 0.221242 0.235955 255 220 0
0.476155 0.176374 0.273320 255 220 0
0.469618 0.202266 0.219147 255 220 0
0.494953 0.095693 0.192126 255 220 0
0.477890 0.140482 0.189095 255 220 0
0.451881 0.108468 0.216925 255 220 0
0.521123 0.121535 0.208309 255 220 0
0.523438 0.201668 0.235534 255 220 0
0.525196 0.108423 0.227432 255 220 0
0.491722 0.193651 0.205021 255 220 0
0.523886 0.139561 0.208317 255 220 0
0.523375 0.114766 0.214427 255 220 0
0.522138 0.201447 0.258750 255 220 0
0.469894 0.133047 0.260375 255 220 0
0.464160 0.099096 0.240233 255 220 0
0.474694 0.156685 0.191709 255 220 0
0.494439 0.128844 0.190621 255 220 0
0.453225 0.128121 0.227655 255 220 0
0.532368 0.143909 0.251082 255 220 0
0.462882 0.052463 0.211412 255 220 0
0.460970 0.195724 0.237685 255 220 0
0.518915 0.201727 0.226651 255 220 0
0.495908 0.112352 0.191189 255 220 0
0.494407 0.171241 0.195336 255 220 0
0.516601 0.150112 0.201545 255 220 0
0.505627 0.098414 0.198599 255 220 0
0.459169 0.134469 0.196825 255 220 0
0.531092 0.179508 0.250937 255 220 0
0.465996 0.203707 0.230043 255 220 0
0.482189 0.204763 0.213335 255 220 0
0.454285 0.102744 0.225174 255 220 0
0.448307 0.076571 0.210326 255 220 0
0.527017 0.181461 0.260587 255 220 0
0.471073 0.209217 0.248746 255 220 0
0.476830 0.145986 0.189653 255 220 0
0.449789 0.062877 0.195005 255 220 0
0.527546 0.175383 0.261295 255 220 0
0.529613 0.122026 0.231997 255 220 0
0.501662 0.085915 0.251564 255 220 0
0.492116 0.143474 0.190521 255 220 0
0.492606 0.074938 0.243004 255 220 0
0.492182 0.061043 0.211960 255 220 0
0.500688 0.072126 0.236733 255 220 0
0.450715 0.091596 0.214789 255 220 0
0.494373 0.198101 0.208345 255 220 0
0.461684 0.104523 0.238986 255 220 0
0.488922 0.211165 0.267595 255 220 0
0.533170 0.145524 0.225730 255 220 0
0.454697 0.158369 0.208788 255 220 0
0.526545 0.112221 0.236130 255 220 0
0.454562 0.110887 0.227625 255 220 0
0.452118 0.155422 0.223599 255 220 0
0.447054 0.068136 0.207750 255 220 0
0.506193 0.216290 0.262760 255 220 0
0.455265 0.142363 0.202708 255 220 0
0.497800 0.208617 0.271462 255 220 0
0.450015 0.067025 0.213467 255 220 0
0.494857 0.062442 0.215246 255 220 0
0.460854 0.061465 0.189402 255 220 0
0.521555 0.107531 0.250919 255 220 0
0.470010 0.056883 0.222161 255 220 0
0.515090 0.127497 0.268864 255 220 0
0.456561 0.143215 0.242163 255 220 0
0.519803 0.174524 0.208996 255 220 0
0.532793 0.142083 0.248648 255 220 0
0.517174 0.096080 0.246433 255 220 0
0.452161 0.072219 0.217021 255 220 0
0.516350 0.136183 0.270174 255 220 0
0.471764 0.058078 0.193578 255 220 0
0.517204 0.211591 0.256442 255 220 0
0.458305 0.148444 0.247194 255 220 0
0.531583 0.178143 0.228902 255 220 0
0.490740 0.069973 0.238471 255 220 0
0.477997 0.163702 0.273561 255 220 0
0.510037 0.195160 0.274473 255 220 0
0.456050 0.181599 0.225460 255 220 0
0.456780 0.070663 0.221938 255 220 0
0.497610 0.213083 0.221803 255 220 0
0.457142 0.166683 0.207630 255 220 0
0.499752 0.068945 0.232540 255 220 0
0.472311 0.166274 0.269831 255 220 0
0.524697 0.116708 0.252287 255 220 0
0.491083 0.148644 0.190696 255 220 0
0.489326 0.074317 0.194228 255 220 0
0.485268 0.214849 0.223842 255 220 0
0.484638 0.120515 0.266211 255 220 0
0.511582 0.200099 0.271862 255 220 0
0.484786 0.081923 0.189493 255 220 0
0.456378 0.132662 0.199912 255 220 0
0.495077 0.092798 0.256897 255 220 0
0.472739 0.140124 0.189962 255 220 0
0.459897 0.177586 0.252179 255 220 0
0.489279 0.059127 0.225415 255 220 0
0.450265 0.081091 0.194247 255 220 0
0.482837 0.121585 0.265765 255 220 0
0.458969 0.178768 0.249570 255 220 0
0.455314 0.106014 0.228432 255 220 0
0.503598 0.206853 0.218120 255 220 0
0.462046 0.112461 0.242503 255 220 0
0.467048 0.057391 0.192793 255 220 0
0.501199 0.189777 0.278654 255 220 0
0.521000 0.166426 0.207454 255 220 0
0.506273 0.101148 0.198409 255 220 0
0.520079 0.169612 0.271087 255 220 0
0.478591 0.128850 0.265801 255 220 0
0.466761 0.199623 0.219867 255 220 0
0.488694 0.119941 0.188984 255 220 0
0.508513 0.085624 0.207885 255 220 0
0.521910 0.110573 0.253286 255 220 0
0.512100 0.156329 0.199180 255 220 0
0.463844 0.113021 0.245296 255 220 0
0.466224 0.202649 0.226225 255 220 0
0.514766 0.216713 0.245694 255 220 0
0.532928 0.163042 0.226047 255 220 0
0.502609 0.073531 0.210338 255 220 0
0.519343 0.130839 0.266620 255 220 0
0.516925 0.189823 0.214439 255 220 0
0.459816 0.189188 0.245328 255 220 0
0.501015 0.215520 0.226213 255 220 0
0.532334 0.146050 0.222700 255 220 0
0.490523 0.139876 0.274486 255 220 0
0.453154 0.164670 0.230205 255 220 0
0.478554 0.153394 0.190438 255 220 0
0.461618 0.159971 0.255117 255 220 0
0.484239 0.177121 0.277669 255 220 0
0.524092 0.201706 0.251980 255 220 0
0.458476 0.059059 0.191559 255 220 0
0.490566 0.222693 0.249761 255 220 0
0.487084 0.061373 0.202460 255 220 0
0.505654 0.075524 0.234113 255 220 0
0.488589 0.148001 0.190154 255 220 0
0.520529 0.097865 0.223962 255 220 0
0.479706 0.138412 0.269206 255 220 0
0.492599 0.218424 0.228989 255 220 0
0.491586 0.111311 0.189715 255 220 0
0.476179 0.149072 0.269666 255 220 0
0.497632 0.167395 0.195096 255 220 0
0.514179 0.085999 0.224933 255 220 0
0.509786 0.176290 0.276987 255 220 0
0.510271 0.117931 0.268480 255 220 0
0.515867 0.123925 0.267450 255 220 0
0.464082 0.124032 0.249878 255 220 0
0.514248 0.204866 0.267234 255 220 0
0.485235 0.152173 0.275250 255 220 0
0.522030 0.181760 0.215052 255 220 0
0.461674 0.087801 0.232976 255 220 0
0.524644 0.107758 0.238356 255 220 0
0.451678 0.124766 0.216260 255 220 0
0.534357 0.160676 0.231110 255 220 0
0.474107 0.117183 0.258888 255 220 0
0.492104 0.223066 0.244633 255 220 0
0.483800 0.124455 0.188378 255 220 0
0.516072 0.098391 0.252118 255 220 0
0.476505 0.052635 0.205301 255 220 0
0.457735 0.181266 0.217092 255 220 0
0.453700 0.135884 0.205109 255 220 0
0.462338 0.187370 0.254145 255 220 0
0.496294 0.183870 0.200382 255 220 0
0.515880 0.144236 0.272614 255 220 0
0.530364 0.124549 0.236400 255 220 0
0.456374 0.167448 0.244524 255 220 0
0.494290 0.094159 0.257615 255 220 0
0.499758 0.096923 0.194651 255 220 0
0.453246 0.118209 0.204426 255 220 0
0.472190 0.119254 0.257972 255 220 0
0.469070 0.065977 0.188272 255 220 0
0.520342 0.099838 0.218919 255 220 0
0.520910 0.130973 0.205988 255 220 0
0.479067 0.135386 0.267994 255 220 0
0.528269 0.117180 0.232321 255 220 0
0.516689 0.213944 0.252595 255 220 0
0.453651 0.124089 0.228211 255 220 0
0.465528 0.161323 0.261202 255 220 0
0.483603 0.217111 0.256942 255 220 0
0.511824 0.158159 0.276526 255 220 0
0.494309 0.077456 0.245167 255 220 0
0.512096 0.149715 0.198545 255 220 0
0.497796 0.107402 0.265137 255 220 0
0.528273 0.175087 0.219568 255 220 0
0.511510 0.213075 0.230730 255 220 0
0.500015 0.222074 0.255005 255 220 0
0.465881 0.111790 0.190149 255 220 0
0.530916 0.129626 0.227172 255 220 0
0.511489 0.213568 0.261960 255 220 0
0.466188 0.054349 0.217287 255 220 0
0.529489 0.144001 0.216197 255 220 0
0.526095 0.192376 0.257049 255 220 0
0.490920 0.213405 0.266421 255 220 0
0.501220 0.206667 0.216889 255 220 0
0.503850 0.124879 0.194133 255 220 0
0.532273 0.132467 0.238934 255 220 0
0.512632 0.083831 0.229789 255 220 0
0.455002 0.106705 0.227833 255 220 0
0.484591 0.133515 0.270309 255 220 0
0.485072 0.072118 0.239950 255 220 0
0.451806 0.144463 0.222505 255 220 0
0.474164 0.105768 0.254421 255 220 0
0.524050 0.151477 0.208490 255 220 0
0.485954 0.085125 0.189484 255 220 0
0.459892 0.186550 0.217071 255 220 0
0.470533 0.178514 0.268644 255 220 0
0.500952 0.123616 0.192896 255 220 0
0.521056 0.206090 0.255601 255 220 0
0.513658 0.085690 0.220847 255 220 0
0.463318 0.065750 0.225944 255 220 0
0.485217 0.073421 0.241042 255 220 0
0.510600 0.150736 0.276428 255 220 0
0.516580 0.190972 0.271167 255 220 0
0.461714 0.127561 0.247527 255 220 0
0.515828 0.181420 0.208518 255 220 0
0.489486 0.218983 0.230856 255 220 0
0.518615 0.211893 0.243738 255 220 0
0.477113 0.197949 0.209227 255 220 0
0.459487 0.097963 0.191193 255 220 0
0.459742 0.170111 0.205342 255 220 0
0.459614 0.149678 0.198382 255 220 0
0.479743 0.208191 0.264076 255 220 0
0.462941 0.184070 0.256963 255 220 0
0.481909 0.134669 0.269350 255 220 0
0.498630 0.147757 0.277853 255 220 0
0.502968 0.142016 0.276658 255 220 0
0.484986 0.187467 0.277249 255 220 0
0.529407 0.180083 0.224854 255 220 0
0.531591 0.182057 0.233218 255 220 0
0.525519 0.155652 0.265990 255 220 0
0.473711 0.070785 0.188086 255 220 0
0.454105 0.173682 0.227317 255 220 0
0.507853 0.205552 0.219334 255 220 0
0.458525 0.133484 0.243892 255 220 0
0.525740 0.109864 0.227919 255 220 0
0.466576 0.120212 0.251959 255 220 0
0.511579 0.103870 0.202472 255 220 0
0.528973 0.122785 0.244243 255 220 0
0.518097 0.171126 0.272531 255 220 0
0.507197 0.141332 0.275712 255 220 0
0.482844 0.154025 0.274534 255 220 0
0.500153 0.087325 0.197568 255 220 0
0.528484 0.123524 0.247541 255 220 0
0.471134 0.118546 0.256694 255 220 0
0.490710 0.076997 0.194073 255 220 0
0.521601 0.155056 0.206230 255 220 0
0.454841 0.153281 0.206359 255 220 0
0.451903 0.137994 0.212253 255 220 0
0.493048 0.070021 0.238248 255 220 0
0.495465 0.075992 0.243732 255 220 0
0.480919 0.124663 0.265820 255 220 0
0.452493 0.100308 0.219803 255 220 0
0.496583 0.169226 0.279821 255 220 0
0.485669 0.110039 0.262862 255 220 0
0.526494 0.190429 0.228005 255 220 0
0.500964 0.217392 0.263525 255 220 0
0.475406 0.184995 0.272239 255 220 0
0.526452 0.198072 0.242058 255 220 0
0.520616 0.097460 0.230411 255 220 0
0.460977 0.181543 0.210237 255 220 0
0.466218 0.157504 0.195278 255 220 0
0.479033 0.079482 0.187891 255 220 0
0.522786 0.103291 0.237972 255 220 0
0.475445 0.092199 0.249022 255 220 0
0.484025 0.125788 0.188445 255 220 0
0.477596 0.161567 0.192225 255 220 0
0.451842 0.091112 0.196548 255 220 0
0.461715 0.150791 0.253663 255 220 0
0.452893 0.121980 0.224470 255 220 0
0.521568 0.169435 0.269777 255 220 0
0.525727 0.123526 0.255389 255 220 0
0.452834 0.128312 0.225932 255 220 0
0.521580 0.160419 0.206859 255 220 0
0.464377 0.074978 0.230836 255 220 0
0.517200 0.108811 0.207235 255 220 0
0.466076 0.140952 0.257975 255 220 0
0.523736 0.121200 0.212331 255 220 0
0.510772 0.146791 0.275724 255 220 0
0.512580 0.105019 0.203164 255 220 0
0.490854 0.168295 0.279170 255 220 0
0.471565 0.055689 0.221075 255 220 0
0.489135 0.153374 0.190825 255 220 0
0.486100 0.221055 0.250164 255 220 0
0.506607 0.110280 0.196875 255 220 0
0.448193 0.085459 0.205339 255 220 0
0.518889 0.165257 0.205341 255 220 0
0.492280 0.218369 0.228901 255 220 0
0.522833 0.201655 0.233769 255 220 0
0.506957 0.164961 0.278300 255 220 0
0.471046 0.050617 0.209378 255 220 0
0.507100 0.086842 0.205049 255 220 0
0.489870 0.083622 0.191561 255 220 0
0.464639 0.109789 0.245102 255 220 0
0.472604 0.199482 0.264043 255 220 0
0.482766 0.212926 0.261783 255 220 0
0.471370 0.052600 0.216058 255 220 0
0.499992 0.103308 0.193763 255 220 0
0.464883 0.202947 0.234895 255 220 0
0.534169 0.169681 0.242403 255 220 0
0.479089 0.102427 0.187175 255 220 0
0.525533 0.174779 0.264589 255 220 0
0.510351 0.089325 0.207877 255 220 0
0.532084 0.132148 0.232118 255 220 0
0.512349 0.194015 0.273461 255 220 0
0.461613 0.053654 0.213202 255 220 0
0.482023 0.059928 0.198685 255 220 0
0.498409 0.138612 0.275890 255 220 0
0.454399 0.104294 0.198243 255 220 0
0.519270 0.121442 0.206041 255 220 0
0.500116 0.184784 0.201730 255 220 0
0.476861 0.209832 0.221516 255 220 0
0.455248 0.177360 0.222666 255 220 0
0.456405 0.152414 0.203121 255 220 0
0.453121 0.112635 0.223179 255 220 0
0.456384 0.070387 0.187850 255 220 0
0.513236 0.139337 0.272831 255 220 0
0.491173 0.128963 0.189770 255 220 0
0.525514 0.199494 0.239473 255 220 0
0.473204 0.210919 0.228477 255 220 0
0.527997 0.165336 0.215542 255 220 0
0.529576 0.172165 0.220536 255 220 0
0.454001 0.111988 0.226154 255 220 0
0.459343 0.192309 0.235359 255 220 0
0.477506 0.112427 0.259604 255 220 0
0.501584 0.170054 0.196892 255 220 0
0.464109 0.175004 0.260271 255 220 0
0.458849 0.185851 0.245154 255 220 0
0.503993 0.172354 0.279046 255 220 0
0.448527 0.071949 0.194202 255 220 0
0.455744 0.060001 0.191868 255 220 0
0.518950 0.098013 0.216963 255 220 0
0.498600 0.072380 0.238822 255 220 0
0.527031 0.115932 0.224035 255 220 0
0.484102 0.063630 0.196793 255 220 0
0.507357 0.221038 0.252191 255 220 0
0.506907 0.106271 0.264315 255 220 0
0.467256 0.201914 0.251943 255 220 0
0.519497 0.104318 0.252213 255 220 0
0.499227 0.180198 0.279851 255 220 0
0.505103 0.094312 0.257373 255 220 0
0.461721 0.138427 0.250695 255 220 0
0.508594 0.176493 0.201546 255 220 0
0.497557 0.171001 0.195969 255 220 0
0.512010 0.155358 0.199016 255 220 0
0.531914 0.132250 0.230119 255 220 0
0.466738 0.098903 0.243383 255 220 0
0.502140 0.163069 0.195627 255 220 0
0.519942 0.166286 0.271447 255 220 0
0.453390 0.124598 0.227315 255 220 0
0.497496 0.136069 0.275120 255 220 0
0.474198 0.117672 0.259141 255 220 0
0.450648 0.101532 0.208214 255 220 0
0.509562 0.082412 0.213089 255 220 0
0.458138 0.146257 0.246368 255 220 0
0.524297 0.202007 0.249830 255 220 0
0.515173 0.087604 0.226055 255 220 0
0.461211 0.162900 0.254820 255 220 0
0.496570 0.207130 0.215649 255 220 0
0.526870 0.133286 0.258579 255 220 0
0.464903 0.059159 0.222554 255 220 0
0.506796 0.186052 0.204781 255 220 0
0.514774 0.212659 0.259216 255 220 0
0.463265 0.192713 0.217094 255 220 0
0.484910 0.191848 0.203536 255 220 0
0.453616 0.163611 0.215544 255 220 0
0.455695 0.110696 0.198230 255 220 0
0.466009 0.060107 0.223922 255 220 0
0.521078 0.100684 0.220337 255 220 0
0.505932 0.215416 0.228897 255 220 0
0.504703 0.222573 0.248473 255 220 0
0.525632 0.199813 0.245904 255 220 0
0.530217 0.182867 0.251678 255 220 0
0.513158 0.215095 0.236139 255 220 0
0.454622 0.176504 0.228899 255 220 0
0.460577 0.146867 0.250975 255 220 0
0.447409 0.070042 0.196409 255 220 0
0.483455 0.148580 0.273698 255 220 0
0.476428 0.056238 0.198284 255 220 0
0.451824 0.128083 0.219424 255 220 0
0.508249 0.077032 0.223474 255 220 0
0.527258 0.175599 0.218218 255 220 0
0.523846 0.112960 0.216393 255 220 0
0.510564 0.205858 0.221575 255 220 0
0.528013 0.149188 0.261819 255 220 0
0.485870 0.143956 0.273736 255 220 0
0.529087 0.161810 0.260763 255 220 0
0.489895 0.161051 0.278220 255 220 0
0.480680 0.072208 0.190092 255 220 0
0.504596 0.083516 0.247993 255 220 0
0.525255 0.192023 0.259340 255 220 0
0.454499 0.115672 0.201210 255 220 0
0.461548 0.106269 0.239441 255 220 0
0.491325 0.115862 0.189580 255 220 0
0.506072 0.222191 0.246850 255 220 0
0.453144 0.161574 0.216349 255 220 0
0.486426 0.082212 0.247954 255 220 0
0.490927 0.222754 0.249946 255 220 0
0.502963 0.198108 0.210870 255 220 0
0.477283 0.199085 0.268983 255 220 0
0.469148 0.109376 0.250804 255 220 0
0.467421 0.057025 0.221470 255 220 0
0.455946 0.134024 0.200634 255 220 0
0.469748 0.186972 0.266604 255 220 0
0.496611 0.068674 0.235363 255 220 0
0.503322 0.080476 0.204473 255 220 0
0.513053 0.153934 0.275733 255 220 0
0.467717 0.186496 0.264176 255 220 0
0.513287 0.084967 0.230853 255 220 0
0.453145 0.100647 0.221769 255 220 0
0.512535 0.105356 0.261416 255 220 0
0.464798 0.128517 0.252477 255 220 0
0.494625 0.207982 0.271659 255 220 0
0.511386 0.093160 0.206880 255 220 0
0.465394 0.094348 0.239942 255 220 0
0.457049 0.080903 0.224924 255 220 0
0.493400 0.154274 0.278124 255 220 0
0.485807 0.128389 0.188743 255 220 0
0.512099 0.083988 0.234661 255 220 0
0.492153 0.083225 0.249804 255 220 0
0.491596 0.064551 0.204119 255 220 0
0.499123 0.067251 0.230104 255 220 0
0.471837 0.204296 0.219086 255 220 0
0.527026 0.131057 0.214576 255 220 0
0.451981 0.099803 0.218158 255 220 0
0.456353 0.065326 0.188728 255 220 0
0.500386 0.170312 0.279655 255 220 0
0.492835 0.087384 0.252956 255 220 0
0.474717 0.169511 0.272054 255 220 0
0.492730 0.149631 0.191158 255 220 0
0.487118 0.213373 0.221213 255 220 0
0.490059 0.207855 0.215246 255 220 0
0.484146 0.106437 0.187916 255 220 0
0.484240 0.146683 0.273646 255 220 0
0.491073 0.088812 0.191192 255 220 0
0.480884 0.196377 0.206955 255 220 0
0.522604 0.166551 0.209054 255 220 0
0.462797 0.134652 0.251328 255 220 0
0.522154 0.184116 0.267091 255 220 0
0.457474 0.134810 0.242110 255 220 0
0.472079 0.135515 0.263151 255 220 0
0.529301 0.120710 0.233047 255 220 0
0.451911 0.093708 0.218051 255 220 0
0.461814 0.057949 0.191979 255 220 0
0.491508 0.134406 0.189987 255 220 0
0.486860 0.204584 0.271529 255 220 0
0.489258 0.076929 0.193124 255 220 0
0.530669 0.165026 0.220531 255 220 0
0.472411 0.105474 0.252685 255 220 0
0.455139 0.060206 0.192025 255 220 0
0.512561 0.083558 0.228314 255 220 0
0.524393 0.200336 0.236126 255 220 0
0.509503 0.132540 0.272784 255 220 0
0.492447 0.140707 0.190451 255 220 0
0.464969 0.199973 0.248195 255 220 0
0.458962 0.106258 0.193547 255 220 0
0.512390 0.213823 0.232904 255 220 0
0.480489 0.213452 0.258829 255 220 0
0.478471 0.168823 0.194096 255 220 0
0.521416 0.202664 0.259109 255 220 0
0.483850 0.145659 0.189377 255 220 0
0.491523 0.178987 0.279821 255 220 0
0.525543 0.199889 0.241761 255 220 0
0.496340 0.129276 0.272907 255 220 0
0.533112 0.136277 0.238883 255 220 0
0.491864 0.077158 0.244922 255 220 0
0.459489 0.167022 0.252034 255 220 0
0.519236 0.100488 0.247787 255 220 0
0.518153 0.174161 0.207379 255 220 0
0.475657 0.188650 0.203124 255 220 0
0.460130 0.192785 0.226679 255 220 0
0.506070 0.180146 0.201717 255 220 0
0.500722 0.177423 0.198803 255 220 0
0.488390 0.119057 0.267207 255 220 0
0.464893 0.199532 0.223670 255 220 0
0.531645 0.136486 0.224212 255 220 0
0.451656 0.143825 0.217388 255 220 0
0.479801 0.129793 0.188484 255 220 0
0.454265 0.143379 0.204935 255 220 0
0.498711 0.066223 0.228298 255 220 0
0.466413 0.061747 0.189537 255 220 0
0.461186 0.131645 0.247974 255 220 0
0.527154 0.135622 0.259109 255 220 0
0.460725 0.195238 0.231156 255 220 0
0.469201 0.070235 0.232281 255 220 0
0.483224 0.068746 0.192818 255 220 0
0.474924 0.185227 0.201500 255 220 0
0.516726 0.092081 0.238716 255 220 0
0.518947 0.124395 0.205030 255 220 0
0.454233 0.147327 0.236237 255 220 0
0.529995 0.141301 0.217660 255 220 0
0.511489 0.101755 0.259739 255 220 0
0.459527 0.175977 0.251618 255 220 0
0.450038 0.090324 0.199730 255 220 0
0.506540 0.194003 0.276328 255 220 0
0.527562 0.185058 0.257962 255 220 0
0.516122 0.125927 0.201964 255 220 0
0.521337 0.111927 0.255696 255 220 0
0.489247 0.187798 0.278604 255 220 0
0.468190 0.183697 0.204075 255 220 0
0.503223 0.165201 0.279139 255 220 0
0.482377 0.207611 0.266766 255 220 0
0.452616 0.136415 0.226937 255 220 0
0.511871 0.094588 0.253654 255 220 0
0.500922 0.211184 0.269383 255 220 0
0.469174 0.108163 0.250322 255 220 0
0.508966 0.130622 0.196523 255 220 0
0.493444 0.093069 0.191753 255 220 0
0.475362 0.059331 0.194287 255 220 0
0.468662 0.201540 0.219501 255 220 0
0.465949 0.166720 0.198296 255 220 0
0.513273 0.154417 0.275667 255 220 0
0.532778 0.179150 0.236937 255 220 0
0.516987 0.212161 0.238206 255 220 0
0.530532 0.184819 0.248473 255 220 0
0.520293 0.102509 0.247724 255 220 0
0.512704 0.120660 0.199789 255 220 0
0.495366 0.201038 0.210632 255 220 0
0.513560 0.187057 0.274080 255 220 0
0.467434 0.110707 0.189358 255 220 0
0.448556 0.080245 0.210234 255 220 0
0.448668 0.073358 0.211665 255 220 0
0.479199 0.155816 0.190784 255 220 0
0.524875 0.109005 0.223581 255 220 0
0.464221 0.055401 0.194919 255 220 0
0.492679 0.195355 0.277427 255 220 0
0.462456 0.198659 0.238387 255 220 0
0.502028 0.105444 0.264474 255 220 0
0.484403 0.155847 0.275574 255 220 0
0.521104 0.104496 0.248218 255 220 0
0.462703 0.061879 0.223372 255 220 0
0.467863 0.179094 0.202039 255 220 0
0.501842 0.077192 0.242524 255 220 0
0.488297 0.216293 0.225447 255 220 0
0.484004 0.084375 0.248709 255 220 0
0.466932 0.073706 0.232490 255 220 0
0.520193 0.116349 0.208605 255 220 0
0.478297 0.205895 0.215869 255 220 0
0.534127 0.170458 0.241814 255 220 0
0.528595 0.119014 0.229018 255 220 0
0.468528 0.193258 0.210531 255 220 0
0.518888 0.120120 0.263701 255 220 0
0.522139 0.190136 0.220917 255 220 0
0.456628 0.161842 0.245342 255 220 0
0.504993 0.178068 0.200494 255 220 0
0.472167 0.191595 0.267822 255 220 0
0.453579 0.122057 0.227370 255 220 0
0.515075 0.090033 0.216605 255 220 0
0.461124 0.177285 0.207321 255 220 0
0.462206 0.066162 0.225302 255 220 0
0.490926 0.080466 0.192965 255 220 0
0.469969 0.204358 0.254825 255 220 0
0.524322 0.118535 0.214523 255 220 0
0.500571 0.180282 0.279658 255 220 0
0.479977 0.055583 0.203035 255 220 0
0.459468 0.192212 0.229336 255 220 0
0.517178 0.146484 0.272297 255 220 0
0.527042 0.153196 0.212328 255 220 0
0.489549 0.132081 0.189490 255 220 0
0.483219 0.110167 0.261855 255 220 0
0.529072 0.187231 0.230609 255 220 0
0.452336 0.100673 0.200416 255 220 0
0.476547 0.212585 0.254490 255 220 0
0.520730 0.128416 0.264703 255 220 0
0.488390 0.057341 0.214031 255 220 0
0.502396 0.145293 0.277387 255 220 0
0.499520 0.157884 0.193959 255 220 0
0.530551 0.154668 0.257982 255 220 0
0.502562 0.126676 0.272649 255 220 0
0.476301 0.196728 0.269423 255 220 0
0.471638 0.148635 0.266162 255 220 0
0.528026 0.129450 0.254267 255 220 0
0.496311 0.221821 0.237140 255 220 0
0.460061 0.114686 0.240351 255 220 0
0.477270 0.092602 0.186829 255 220 0
0.451789 0.149115 0.219133 255 220 0
0.522711 0.201938 0.256773 255 220 0
0.529416 0.121452 0.231168 255 220 0
0.530744 0.150929 0.257178 255 220 0
0.458879 0.110645 0.236936 255 220 0
0.511125 0.153935 0.198372 255 220 0
0.458010 0.168672 0.248800 255 220 0
0.454068 0.127249 0.230737 255 220 0
0.521886 0.177474 0.212470 255 220 0
0.525939 0.147807 0.264472 255 220 0
0.466497 0.053412 0.215826 255 220 0
0.517276 0.213876 0.249857 255 220 0
0.481643 0.062909 0.231096 255 220 0
0.446709 0.065471 0.203296 255 220 0
0.480122 0.061632 0.195383 255 220 0
0.451602 0.141565 0.217845 255 220 0
0.471346 0.098077 0.248301 255 220 0
0.478949 0.139096 0.268947 255 220 0
0.480037 0.052581 0.213278 255 220 0
0.527465 0.162630 0.263376 255 220 0
0.524097 0.188961 0.263018 255 220 0
0.472147 0.062971 0.228746 255 220 0
0.472560 0.053279 0.200355 255 220 0
0.470917 0.052218 0.215142 255 220 0
0.460964 0.138191 0.249436 255 220 0
0.518837 0.131955 0.267315 255 220 0
0.475033 0.172299 0.196053 255 220 0
0.505698 0.164223 0.197178 255 220 0
0.452007 0.120675 0.219014 255 220 0
0.452937 0.157839 0.230965 255 220 0
0.472028 0.166856 0.195243 255 220 0
0.485018 0.128236 0.188642 255 220 0
0.447656 0.079889 0.206916 255 220 0
0.481858 0.054235 0.209237 255 220 0
0.467653 0.054892 0.218748 255 220 0
0.452086 0.137669 0.211071 255 220 0
0.515864 0.195294 0.217237 255 220 0
0.485052 0.100605 0.258531 255 220 0
0.469500 0.062623 0.189773 255 220 0
0.476386 0.110820 0.187535 255 220 0
0.447935 0.065319 0.209193 255 220 0
0.467399 0.089760 0.240382 255 220 0
0.474175 0.188627 0.203638 255 220 0
0.521892 0.100787 0.235754 255 220 0
0.461602 0.052239 0.202517 255 220 0
0.485471 0.073341 0.192129 255 220 0
0.487587 0.157260 0.277028 255 220 0
0.508503 0.136439 0.196152 255 220 0
0.451692 0.113977 0.211046 255 220 0
0.478754 0.061381 0.229086 255 220 0
0.476990 0.126298 0.188493 255 220 0
0.507729 0.153831 0.277687 255 220 0
0.476683 0.198418 0.268853 255 220 0
0.456610 0.101404 0.230005 255 220 0
0.525954 0.198982 0.241161 255 220 0
0.478972 0.054604 0.203759 255 220 0
0.452372 0.157380 0.226212 255 220 0
0.473121 0.166696 0.194797 255 220 0
0.452023 0.116365 0.218195 255 220 0
0.494376 0.192359 0.204643 255 220 0
0.496031 0.131657 0.273593 255 220 0
0.468669 0.203041 0.253800 255 220 0
0.452070 0.153848 0.218728 255 220 0
0.520435 0.135132 0.266838 255 220 0
0.462130 0.175458 0.205154 255 220 0
0.511172 0.095457 0.255097 255 220 0
0.477863 0.097194 0.253254 255 220 0
0.493429 0.098534 0.259977 255 220 0
0.456385 0.094141 0.192536 255 220 0
0.476219 0.106581 0.187293 255 220 0
0.531651 0.134531 0.247073 255 220 0
0.502908 0.159070 0.195261 255 220 0
0.526073 0.129341 0.213430 255 220 0
0.494333 0.101820 0.191172 255 220 0
0.490579 0.058878 0.214709 255 220 0
0.482284 0.201077 0.271330 255 220 0
0.471581 0.085031 0.242208 255 220 0
0.523584 0.123529 0.259348 255 220 0
0.454545 0.149125 0.237647 255 220 0
0.507075 0.181157 0.202574 255 220 0
0.534186 0.143018 0.240796 255 220 0
0.520036 0.182719 0.269646 255 220 0
0.454404 0.175279 0.229911 255 220 0
0.487289 0.115581 0.265576 255 220 0
0.470899 0.109076 0.252682 255 220 0
0.528200 0.120570 0.224093 255 220 0
0.459058 0.054838 0.213245 255 220 0
0.448466 0.066104 0.210704 255 220 0
0.470324 0.147868 0.191452 255 220 0
0.529625 0.134415 0.253531 255 220 0
0.485492 0.208083 0.215662 255 220 0
0.458293 0.171887 0.208432 255 220 0
0.466517 0.142497 0.192416 255 220 0
0.495257 0.095871 0.258792 255 220 0
0.462057 0.102639 0.238797 255 220 0
0.490236 0.109793 0.264394 255 220 0
0.532651 0.146063 0.223703 255 220 0
0.474318 0.056141 0.222307 255 220 0
0.446949 0.077405 0.202719 255 220 0
0.510048 0.140746 0.196983 255 220 0
0.500081 0.149175 0.193200 255 220 0
0.527022 0.117814 0.245779 255 220 0
0.487141 0.196403 0.206444 255 220 0
0.501814 0.165648 0.279352 255 220 0
0.534102 0.166964 0.245315 255 220 0
0.531592 0.184018 0.241645 255 220 0
0.458604 0.070155 0.187211 255 220 0
0.512351 0.204227 0.221537 255 220 0
0.452789 0.102399 0.220823 255 220 0
0.484834 0.192601 0.276031 255 220 0
0.453099 0.099841 0.198551 255 220 0
0.515057 0.087430 0.227454 255 220 0
0.504674 0.072251 0.224982 255 220 0
0.527435 0.185886 0.257829 255 220 0
0.491647 0.173657 0.195590 255 220 0
0.520530 0.177051 0.210836 255 220 0
0.469305 0.178548 0.200923 255 220 0
0.464120 0.186160 0.209266 255 220 0
0.448502 0.085205 0.200961 255 220 0
0.502204 0.110868 0.266999 255 220 0
0.500290 0.130912 0.192571 255 220 0
0.456992 0.138697 0.199594 255 220 0
0.486942 0.059591 0.205212 255 220 0
0.456350 0.137432 0.240235 255 220 0
0.459639 0.188596 0.245329 255 220 0
0.513750 0.103447 0.259268 255 220 0
0.507459 0.132362 0.273409 255 220 0
0.508737 0.120946 0.269995 255 220 0
0.453756 0.130684 0.230570 255 220 0
0.455028 0.160937 0.209170 255 220 0
0.495605 0.132276 0.273694 255 220 0
0.476005 0.187351 0.202279 255 220 0
0.526003 0.198171 0.249693 255 220 0
0.507990 0.128599 0.196071 255 220 0
0.522549 0.139964 0.266275 255 220 0
0.492916 0.126934 0.190161 255 220 0
0.467745 0.202414 0.222267 255 220 0
0.475784 0.204133 0.263963 255 220 0
0.468311 0.200015 0.256718 255 220 0
0.480183 0.194122 0.205488 255 220 0
0.503545 0.072101 0.215600 255 220 0
0.459121 0.156372 0.250283 255 220 0
0.531512 0.183314 0.244570 255 220 0
0.454934 0.130487 0.234524 255 220 0
0.531529 0.178099 0.250293 255 220 0
0.528133 0.146473 0.261089 255 220 0
0.481954 0.162808 0.192077 255 220 0
0.448561 0.081397 0.197726 255 220 0
0.530091 0.133926 0.220501 255 220 0
0.451851 0.148168 0.222940 255 220 0
0.523396 0.126982 0.209898 255 220 0
0.498054 0.210488 0.270137 255 220 0
0.501656 0.072641 0.209708 255 220 0
0.471717 0.184917 0.269119 255 220 0
0.454505 0.121215 0.201982 255 220 0
0.475866 0.204207 0.263986 255 220 0
0.528540 0.188144 0.253176 255 220 0
0.526819 0.126777 0.215889 255 220 0
0.529610 0.146695 0.258608 255 220 0
0.477727 0.151978 0.190312 255 220 0
0.472651 0.194245 0.267235 255 220 0
0.478849 0.125101 0.264804 255 220 0
0.515054 0.109032 0.204585 255 220 0
0.508420 0.077724 0.219616 255 220 0
0.455819 0.170427 0.212887 255 220 0
0.521820 0.099940 0.229170 255 220 0
0.487680 0.214302 0.263928 255 220 0
0.466671 0.197944 0.217797 255 220 0
0.519279 0.118906 0.262791 255 220 0
0.514925 0.088132 0.234527 255 220 0
0.526864 0.156622 0.212405 255 220 0
0.533416 0.169440 0.230339 255 220 0
0.512224 0.159652 0.199699 255 220 0
0.509914 0.109834 0.265181 255 220 0
0.455983 0.064136 0.219121 255 220 0
0.529193 0.189519 0.248934 255 220 0
