ply
format ascii 1.0
element vertex 1024
property float x
property float y
property float z
property uchar red
property uchar green
property uchar blue
end_header
0.370653 0.232169 0.082433 255 220 0
0.377137 0.120577 0.019969 255 220 0
0.370462 0.070567 0.035820 255 220 0
0.362909 0.073787 0.028932 255 220 0
0.395366 0.147732 0.024316 255 220 0
0.340146 0.126605 0.068830 255 220 0
0.387380 0.181963 0.105913 255 220 0
0.356589 0.094514 0.070053 255 220 0
0.369824 0.065804 0.043300 255 220 0
0.391563 0.164073 0.023803 255 220 0
0.405210 0.153387 0.030883 255 220 0
0.366234 0.087876 0.023294 255 220 0
0.359046 0.110443 0.076946 255 220 0
0.339935 0.150037 0.075375 255 220 0
0.408627 0.217204 0.082694 255 220 0
0.361645 0.221158 0.089577 255 220 0
0.335719 0.092354 0.030352 255 220 0
0.402680 0.194779 0.038138 255 220 0
0.407510 0.126947 0.082666 255 220 0
0.352832 0.218368 0.057189 255 220 0
0.373822 0.074942 0.033731 255 220 0
0.400672 0.208476 0.045494 255 220 0
0.362112 0.063953 0.048917 255 220 0
0.367711 0.199212 0.032777 255 220 0
0.368580 0.177148 0.024572 255 220 0
0.365873 0.078038 0.063639 255 220 0
0.336369 0.065147 0.043084 255 220 0
0.392620 0.227770 0.091552 255 220 0
0.355704 0.176370 0.027917 255 220 0
0.414991 0.133037 0.049153 255 220 0
0.407874 0.109055 0.068490 255 220 0
0.371757 0.124482 0.019372 255 220 0
0.367917 0.131594 0.019624 255 220 0
0.378582 0.156406 0.020569 255 220 0
0.331300 0.139576 0.047730 255 220 0
0.383808 0.231155 0.090115 255 220 0
0.376826 0.180803 0.024823 255 220 0
0.374808 0.090493 0.024968 255 220 0
0.347980 0.138170 0.025899 255 220 0
0.349537 0.154976 0.086320 255 220 0
0.384176 0.115218 0.084658 255 220 0
0.378296 0.073717 0.038838 255 220 0
0.337586 0.198350 0.061856 255 220 0
0.395362 0.197375 0.104909 255 220 0
0.395559 0.144665 0.024492 255 220 0
0.340749 0.117920 0.067120 255 220 0
0.338536 0.160046 0.076036 255 220 0
0.362683 0.076080 0.027391 255 220 0
0.380852 0.145645 0.020051 255 220 0
0.345203 0.101427 0.024698 255 220 0
0.333647 0.182244 0.053715 255 220 0
0.396633 0.183839 0.030082 255 220 0
0.337120 0.148864 0.035472 255 220 0
0.385571 0.112608 0.023306 255 220 0
0.410380 0.121641 0.076981 255 220 0
0.333316 0.091311 0.055759 255 220 0
0.419661 0.156820 0.077115 255 220 0
0.365807 0.211149 0.099003 255 220 0
0.373895 0.148467 0.019959 255 220 0
0.377460 0.175685 0.104767 255 220 0
0.367677 0.132834 0.019691 255 220 0
0.354977 0.138286 0.085160 255 220 0
0.343336 0.070332 0.029979 255 220 0
0.358304 0.177920 0.027361 255 220 0
0.344215 0.197764 0.045125 255 220 0
0.338121 0.186934 0.076312 255 220 0
0.407383 0.177900 0.036047 255 220 0
0.379067 0.234253 0.066214 255 220 0
0.363993 0.205361 0.100100 255 220 0
0.387257 0.205972 0.037713 255 220 0
0.374572 0.216915 0.044349 255 220 0
0.358579 0.080546 0.064860 255 220 0
0.417611 0.141750 0.051847 255 220 0
0.352407 0.075999 0.026123 255 220 0
0.406090 0.161305 0.096096 255 220 0
0.364277 0.209094 0.098946 255 220 0
0.400398 0.097003 0.063398 255 220 0
0.385741 0.124535 0.088717 255 220 0
0.332622 0.103313 0.054668 255 220 0
0.410045 0.193862 0.045255 255 220 0
0.399508 0.200273 0.102613 255 220 0
0.364071 0.130689 0.086971 255 220 0
0.407206 0.183875 0.037806 255 220 0
0.387258 0.195482 0.106741 255 220 0
0.334639 0.153746 0.068705 255 220 0
0.333318 0.085044 0.055398 255 220 0
0.386263 0.128964 0.090481 255 220 0
0.400239 0.199861 0.039301 255 220 0
0.420304 0.155219 0.055363 255 220 0
0.354572 0.091524 0.068280 255 220 0
0.342953 0.149108 0.029929 255 220 0
0.413565 0.208189 0.071381 255 220 0
0.412462 0.209875 0.068350 255 220 0
0.351334 0.191614 0.093056 255 220 0
0.386048 0.219002 0.099968 255 220 0
0.328880 0.089112 0.046491 255 220 0
0.383642 0.196738 0.031487 255 220 0
0.378609 0.140421 0.094821 255 220 0
0.346350 0.104493 0.024260 255 220 0
0.386134 0.220210 0.048085 255 220 0
0.332136 0.126750 0.053446 255 220 0
0.399531 0.222494 0.058529 255 220 0
0.409301 0.151063 0.091063 255 220 0
0.417352 0.195948 0.072891 255 220 0
0.391894 0.098802 0.031929 255 220 0
0.389642 0.083275 0.056944 255 220 0
0.407708 0.186611 0.096989 255 220 0
0.396929 0.231617 0.077999 255 220 0
0.358193 0.200991 0.037379 255 220 0
0.354217 0.063482 0.036390 255 220 0
0.340197 0.158904 0.077909 255 220 0
0.381977 0.182453 0.025544 255 220 0
0.388349 0.112759 0.082803 255 220 0
0.354526 0.141073 0.023295 255 220 0
0.382615 0.235826 0.078451 255 220 0
0.360178 0.223987 0.084521 255 220 0
0.361093 0.140905 0.089244 255 220 0
0.413958 0.207334 0.075218 255 220 0
0.365388 0.195641 0.031511 255 220 0
0.353863 0.164087 0.091942 255 220 0
0.349208 0.213788 0.055880 255 220 0
0.377384 0.207077 0.104712 255 220 0
0.328459 0.086143 0.045372 255 220 0
0.400850 0.129775 0.029198 255 220 0
0.411713 0.171299 0.038975 255 220 0
0.417326 0.196191 0.072248 255 220 0
0.343050 0.209076 0.064937 255 220 0
0.331967 0.120517 0.047989 255 220 0
0.412001 0.211915 0.078130 255 220 0
0.339665 0.199331 0.053734 255 220 0
0.376992 0.135958 0.093014 255 220 0
0.390978 0.116603 0.084194 255 220 0
0.417783 0.170651 0.048746 255 220 0
0.359410 0.153777 0.092427 255 220 0
0.367094 0.201224 0.102820 255 220 0
0.374737 0.189715 0.106070 255 220 0
0.332315 0.107918 0.053436 255 220 0
0.391812 0.142763 0.094959 255 220 0
0.331456 0.150772 0.060440 255 220 0
0.417529 0.158552 0.082913 255 220 0
0.409053 0.107506 0.059934 255 220 0
0.347146 0.125997 0.075499 255 220 0
0.342192 0.164927 0.081575 255 220 0
0.331331 0.099300 0.038646 255 220 0
0.345876 0.135003 0.077236 255 220 0
0.366341 0.205075 0.101535 255 220 0
0.338807 0.193424 0.075183 255 220 0
0.406003 0.220734 0.067298 255 220 0
0.358960 0.062866 0.048190 255 220 0
0.407060 0.173908 0.034646 255 220 0
0.336159 0.166967 0.039719 255 220 0
0.380535 0.155300 0.099827 255 220 0
0.328378 0.084949 0.045400 255 220 0
0.347802 0.181357 0.089783 255 220 0
0.362729 0.175969 0.099559 255 220 0
0.399431 0.093813 0.050487 255 220 0
0.369445 0.122781 0.085885 255 220 0
0.420527 0.173590 0.076562 255 220 0
0.395766 0.088261 0.053746 255 220 0
0.418586 0.156559 0.049796 255 220 0
0.343321 0.159343 0.081613 255 220 0
0.332301 0.086217 0.054284 255 220 0
0.372274 0.174829 0.103416 255 220 0
0.382376 0.165177 0.021949 255 220 0
0.376748 0.177417 0.104992 255 220 0
0.355062 0.139979 0.023012 255 220 0
0.364217 0.090628 0.022240 255 220 0
0.370700 0.129768 0.089176 255 220 0
0.370558 0.233226 0.075896 255 220 0
0.402889 0.101219 0.047724 255 220 0
0.346354 0.113041 0.024756 255 220 0
0.397629 0.224240 0.058689 255 220 0
0.338194 0.176586 0.040508 255 220 0
0.368550 0.186425 0.103927 255 220 0
0.332944 0.146628 0.041961 255 220 0
0.356192 0.115297 0.077577 255 220 0
0.385037 0.098615 0.074760 255 220 0
0.361418 0.076418 0.026853 255 220 0
0.384455 0.199786 0.033279 255 220 0
0.342982 0.084805 0.025866 255 220 0
0.390580 0.234633 0.078185 255 220 0
0.332679 0.152835 0.042679 255 220 0
0.360967 0.225270 0.083529 255 220 0
0.350687 0.156496 0.026206 255 220 0
0.367858 0.072632 0.058733 255 220 0
0.331006 0.106230 0.047367 255 220 0
0.354482 0.061387 0.041778 255 220 0
0.379428 0.223470 0.096834 255 220 0
0.383525 0.075698 0.051449 255 220 0
0.404698 0.103628 0.066496 255 220 0
0.396371 0.099749 0.036689 255 220 0
0.377161 0.182659 0.025346 255 220 0
0.330960 0.087498 0.052379 255 220 0
0.347520 0.157633 0.027866 255 220 0
0.377048 0.234963 0.080193 255 220 0
0.390448 0.117678 0.024541 255 220 0
0.418554 0.138410 0.072577 255 220 0
0.359070 0.085178 0.066938 255 220 0
0.395569 0.088448 0.049113 255 220 0
0.361897 0.142140 0.021240 255 220 0
0.417230 0.196614 0.071879 255 220 0
0.337643 0.106774 0.061808 255 220 0
0.345658 0.205698 0.081452 255 220 0
0.416066 0.157670 0.044394 255 220 0
0.365796 0.228921 0.083533 255 220 0
0.337669 0.130055 0.066789 255 220 0
0.406217 0.180671 0.035831 255 220 0
0.350288 0.061548 0.041399 255 220 0
0.409046 0.172799 0.095593 255 220 0
0.395858 0.106837 0.076708 255 220 0
0.366305 0.066192 0.050784 255 220 0
0.348386 0.154105 0.085107 255 220 0
0.377024 0.177413 0.105032 255 220 0
0.418387 0.181056 0.081268 255 220 0
0.374052 0.078032 0.061576 255 220 0
0.341273 0.195963 0.079307 255 220 0
0.375484 0.089285 0.070172 255 220 0
0.397608 0.108926 0.077345 255 220 0
0.387873 0.094649 0.030622 255 220 0
0.331051 0.150755 0.058851 255 220 0
0.382861 0.230427 0.058713 255 220 0
0.420246 0.144570 0.068216 255 220 0
0.337386 0.129909 0.066359 255 220 0
0.360934 0.121879 0.020337 255 220 0
0.347633 0.203999 0.085582 255 220 0
0.401996 0.181368 0.101211 255 220 0
0.384656 0.206727 0.037485 255 220 0
0.331663 0.089562 0.034598 255 220 0
0.370546 0.077668 0.062425 255 220 0
0.373848 0.189589 0.027615 255 220 0
0.338970 0.083455 0.027803 255 220 0
0.400924 0.122740 0.030751 255 220 0
0.406988 0.113572 0.043840 255 220 0
0.365437 0.069706 0.056519 255 220 0
0.400802 0.140401 0.091754 255 220 0
0.346986 0.089691 0.024046 255 220 0
0.384893 0.076741 0.051384 255 220 0
0.335387 0.094812 0.031034 255 220 0
0.394297 0.205986 0.040243 255 220 0
0.407410 0.170683 0.096670 255 220 0
0.332332 0.160604 0.064838 255 220 0
0.332741 0.177365 0.064027 255 220 0
0.421325 0.155390 0.069218 255 220 0
0.352049 0.140339 0.083898 255 220 0
0.362113 0.122622 0.020139 255 220 0
0.396648 0.129115 0.088460 255 220 0
0.413387 0.124909 0.075324 255 220 0
0.387543 0.125781 0.089027 255 220 0
0.353952 0.220957 0.079119 255 220 0
0.370825 0.167394 0.101224 255 220 0
0.357700 0.172649 0.026313 255 220 0
0.374368 0.232870 0.064892 255 220 0
0.399458 0.116036 0.081006 255 220 0
0.385662 0.229020 0.057358 255 220 0
0.376701 0.226498 0.093925 255 220 0
0.348800 0.128774 0.077748 255 220 0
0.348763 0.075280 0.061185 255 220 0
0.419780 0.150514 0.073958 255 220 0
0.399091 0.124271 0.028761 255 220 0
0.402026 0.099607 0.064850 255 220 0
0.369725 0.075569 0.060846 255 220 0
0.366214 0.229671 0.082370 255 220 0
0.380999 0.141162 0.095220 255 220 0
0.361236 0.091292 0.021865 255 220 0
0.381070 0.124872 0.089029 255 220 0
0.352943 0.086603 0.023046 255 220 0
0.404905 0.150153 0.030749 255 220 0
0.345100 0.196127 0.043051 255 220 0
0.412582 0.200999 0.055566 255 220 0
0.367660 0.082266 0.066229 255 220 0
0.359429 0.223248 0.056900 255 220 0
0.379992 0.168154 0.022208 255 220 0
0.335544 0.150899 0.037614 255 220 0
0.408340 0.200923 0.047574 255 220 0
0.404228 0.218550 0.090163 255 220 0
0.418232 0.184223 0.080410 255 220 0
0.333026 0.113266 0.039431 255 220 0
0.332257 0.170567 0.049410 255 220 0
0.400898 0.096942 0.048918 255 220 0
0.376134 0.233942 0.066912 255 220 0
0.381018 0.185365 0.106507 255 220 0
0.344299 0.211188 0.066100 255 220 0
0.363698 0.110055 0.019999 255 220 0
0.342615 0.151933 0.030398 255 220 0
0.338766 0.115877 0.064472 255 220 0
0.391343 0.139081 0.022799 255 220 0
0.398426 0.218089 0.052384 255 220 0
0.406247 0.126293 0.035782 255 220 0
0.356598 0.206195 0.041891 255 220 0
0.391643 0.157313 0.023087 255 220 0
0.397205 0.132582 0.026222 255 220 0
0.409462 0.217181 0.072832 255 220 0
0.373879 0.141877 0.094598 255 220 0
0.362368 0.107895 0.077162 255 220 0
0.339441 0.167436 0.035796 255 220 0
0.358724 0.142801 0.022104 255 220 0
0.343273 0.135280 0.074786 255 220 0
0.420630 0.161928 0.055615 255 220 0
0.351535 0.062205 0.048841 255 220 0
0.347398 0.203058 0.085736 255 220 0
0.389961 0.217680 0.047136 255 220 0
0.362131 0.126691 0.020280 255 220 0
0.356355 0.184629 0.030139 255 220 0
0.380754 0.166833 0.022047 255 220 0
0.375793 0.114162 0.020295 255 220 0
0.331499 0.143090 0.046037 255 220 0
0.415444 0.196955 0.059502 255 220 0
0.346757 0.211851 0.077390 255 220 0
0.351616 0.215616 0.054924 255 220 0
0.345750 0.110388 0.069733 255 220 0
0.335913 0.083949 0.057672 255 220 0
0.416810 0.198085 0.070010 255 220 0
0.360183 0.217638 0.091254 255 220 0
0.341387 0.157210 0.031937 255 220 0
0.330726 0.070951 0.042553 255 220 0
0.418315 0.192135 0.069769 255 220 0
0.410823 0.140293 0.038689 255 220 0
0.401484 0.100081 0.066328 255 220 0
0.355050 0.156935 0.024591 255 220 0
0.390605 0.088088 0.062642 255 220 0
0.375626 0.074951 0.035073 255 220 0
0.394486 0.086620 0.052878 255 220 0
0.338576 0.099065 0.061659 255 220 0
0.360070 0.210911 0.043783 255 220 0
0.359009 0.112929 0.077882 255 220 0
0.384888 0.221760 0.098349 255 220 0
0.407901 0.164188 0.033733 255 220 0
0.331250 0.165819 0.060789 255 220 0
0.411495 0.130059 0.042865 255 220 0
0.346341 0.118430 0.072449 255 220 0
0.337129 0.162209 0.074469 255 220 0
0.334466 0.075479 0.055324 255 220 0
0.396390 0.229451 0.085839 255 220 0
0.330372 0.150202 0.053803 255 220 0
0.394701 0.220451 0.096847 255 220 0
0.340077 0.074689 0.058574 255 220 0
0.379444 0.076655 0.036633 255 220 0
0.337320 0.071288 0.031960 255 220 0
0.415522 0.124374 0.057599 255 220 0
0.362669 0.067385 0.054766 255 220 0
0.417154 0.142793 0.078107 255 220 0
0.351952 0.150383 0.086870 255 220 0
0.384584 0.191284 0.029058 255 220 0
0.419926 0.160236 0.053149 255 220 0
0.410774 0.112507 0.054944 255 220 0
0.343158 0.080062 0.060993 255 220 0
0.417919 0.151540 0.079395 255 220 0
0.349107 0.069439 0.029600 255 220 0
0.402937 0.226545 0.074354 255 220 0
0.355459 0.155700 0.090758 255 220 0
0.404518 0.196152 0.040328 255 220 0
0.387224 0.083003 0.059266 255 220 0
0.384137 0.173094 0.104572 255 220 0
0.408143 0.208860 0.091864 255 220 0
0.338460 0.188633 0.076505 255 220 0
0.349805 0.079091 0.062668 255 220 0
0.368130 0.225911 0.055012 255 220 0
0.331772 0.174424 0.059330 255 220 0
0.391868 0.083427 0.049482 255 220 0
0.377092 0.174890 0.104554 255 220 0
0.417853 0.133879 0.058018 255 220 0
0.353683 0.161894 0.025758 255 220 0
0.362458 0.088047 0.022666 255 220 0
0.358557 0.225814 0.063256 255 220 0
0.390810 0.131505 0.090823 255 220 0
0.407529 0.214026 0.089309 255 220 0
0.355287 0.095009 0.021676 255 220 0
0.330953 0.140829 0.049933 255 220 0
0.397918 0.105814 0.074906 255 220 0
0.338753 0.150809 0.033749 255 220 0
0.356105 0.184649 0.096939 255 220 0
0.380407 0.072343 0.047858 255 220 0
0.328670 0.089052 0.043379 255 220 0
0.388933 0.132311 0.091468 255 220 0
0.353826 0.185739 0.095301 255 220 0
0.347949 0.113702 0.072292 255 220 0
0.371978 0.220701 0.048208 255 220 0
0.360252 0.120757 0.081444 255 220 0
0.344787 0.068089 0.031287 255 220 0
0.403461 0.202157 0.099460 255 220 0
0.385709 0.183483 0.026365 255 220 0
0.375931 0.116965 0.020059 255 220 0
0.417762 0.185127 0.081410 255 220 0
0.384539 0.138877 0.094363 255 220 0
0.342558 0.208142 0.067933 255 220 0
0.354020 0.133193 0.022819 255 220 0
0.384526 0.101733 0.025528 255 220 0
0.416712 0.127384 0.059723 255 220 0
0.375011 0.172376 0.022926 255 220 0
0.363164 0.121513 0.082956 255 220 0
0.345078 0.210920 0.073917 255 220 0
0.394689 0.231487 0.066921 255 220 0
0.405877 0.181474 0.035778 255 220 0
0.382183 0.088858 0.029511 255 220 0
0.419201 0.146767 0.074324 255 220 0
0.383256 0.205880 0.036621 255 220 0
0.351149 0.196260 0.092231 255 220 0
0.373034 0.228722 0.057254 255 220 0
0.405553 0.164652 0.031627 255 220 0
0.397910 0.151334 0.096684 255 220 0
0.340404 0.171364 0.080442 255 220 0
0.342416 0.164771 0.032420 255 220 0
0.361088 0.167414 0.096901 255 220 0
0.390039 0.187188 0.106136 255 220 0
0.407554 0.217868 0.066079 255 220 0
0.336706 0.068516 0.034793 255 220 0
0.375669 0.233786 0.083380 255 220 0
0.366322 0.074740 0.029619 255 220 0
0.396934 0.090761 0.048414 255 220 0
0.351364 0.160907 0.026516 255 220 0
0.401687 0.115245 0.034224 255 220 0
0.386175 0.148424 0.097597 255 220 0
0.367037 0.230308 0.064218 255 220 0
0.357825 0.125064 0.021144 255 220 0
0.382225 0.158443 0.100805 255 220 0
0.359393 0.181300 0.027915 255 220 0
0.398168 0.102562 0.037194 255 220 0
0.411380 0.190106 0.092358 255 220 0
0.413962 0.132637 0.079352 255 220 0
0.417478 0.139404 0.076164 255 220 0
0.364509 0.132339 0.087780 255 220 0
0.406828 0.219230 0.084441 255 220 0
0.392444 0.162710 0.101210 255 220 0
0.388807 0.198635 0.033762 255 220 0
0.357759 0.096517 0.071185 255 220 0
0.411554 0.125320 0.045320 255 220 0
0.336401 0.131982 0.065545 255 220 0
0.409995 0.179233 0.039140 255 220 0
0.378463 0.126833 0.089671 255 220 0
0.374253 0.234490 0.078252 255 220 0
0.349054 0.136957 0.025241 255 220 0
0.412546 0.114509 0.060576 255 220 0
0.359848 0.064493 0.036650 255 220 0
0.335558 0.188730 0.068470 255 220 0
0.331035 0.143513 0.056044 255 220 0
0.358087 0.194639 0.098285 255 220 0
0.359152 0.197287 0.034664 255 220 0
0.417882 0.159384 0.082477 255 220 0
0.413470 0.142804 0.042297 255 220 0
0.350282 0.174273 0.091264 255 220 0
0.397473 0.107029 0.076051 255 220 0
0.368940 0.111917 0.019801 255 220 0
0.332297 0.125980 0.054028 255 220 0
0.376129 0.128621 0.090069 255 220 0
0.343167 0.076973 0.027202 255 220 0
0.398674 0.117278 0.030204 255 220 0
0.388883 0.148434 0.021819 255 220 0
0.385345 0.145363 0.096606 255 220 0
0.410404 0.135298 0.039199 255 220 0
0.400229 0.228880 0.071558 255 220 0
0.344380 0.131342 0.074662 255 220 0
0.367415 0.169190 0.100211 255 220 0
0.374159 0.227096 0.092554 255 220 0
0.414916 0.172479 0.089209 255 220 0
0.392888 0.090780 0.063849 255 220 0
0.375425 0.165848 0.021763 255 220 0
0.402861 0.120476 0.081914 255 220 0
0.397197 0.192848 0.033778 255 220 0
0.384542 0.227737 0.055488 255 220 0
0.386466 0.234439 0.082942 255 220 0
0.336261 0.121781 0.034759 255 220 0
0.408548 0.148104 0.034622 255 220 0
0.400759 0.227548 0.082181 255 220 0
0.357182 0.064426 0.052333 255 220 0
0.399987 0.162351 0.027349 255 220 0
0.412948 0.208822 0.068494 255 220 0
0.385711 0.224293 0.096532 255 220 0
0.369347 0.220197 0.048362 255 220 0
0.368963 0.140175 0.019893 255 220 0
0.415509 0.150859 0.044225 255 220 0
0.399638 0.100087 0.041925 255 220 0
0.347294 0.114353 0.072007 255 220 0
0.391436 0.144268 0.095567 255 220 0
0.382959 0.084266 0.063640 255 220 0
0.337536 0.151348 0.072663 255 220 0
0.377473 0.115646 0.084755 255 220 0
0.390522 0.169119 0.024273 255 220 0
0.355908 0.098347 0.021371 255 220 0
0.336772 0.194271 0.067843 255 220 0
0.373583 0.186763 0.105608 255 220 0
0.366010 0.138531 0.020208 255 220 0
0.406379 0.221683 0.071139 255 220 0
0.395630 0.102269 0.033948 255 220 0
0.357980 0.075098 0.062265 255 220 0
0.383504 0.085553 0.064619 255 220 0
0.414671 0.164961 0.089054 255 220 0
0.412426 0.205743 0.085288 255 220 0
0.360881 0.135535 0.087323 255 220 0
0.380192 0.197535 0.031342 255 220 0
0.365314 0.230367 0.067461 255 220 0
0.397470 0.227323 0.062822 255 220 0
0.345952 0.208225 0.053385 255 220 0
0.332964 0.107150 0.037629 255 220 0
0.332389 0.178243 0.056366 255 220 0
0.330964 0.158164 0.048570 255 220 0
0.375627 0.217557 0.099780 255 220 0
0.360440 0.191403 0.100068 255 220 0
0.388537 0.145039 0.096236 255 220 0
0.405629 0.160239 0.096135 255 220 0
0.409324 0.155219 0.092347 255 220 0
0.389279 0.197540 0.106370 255 220 0
0.400347 0.197841 0.038176 255 220 0
0.406334 0.199931 0.044374 255 220 0
0.421285 0.172223 0.072954 255 220 0
0.346449 0.082409 0.025113 255 220 0
0.338680 0.180479 0.078340 255 220 0
0.376357 0.220009 0.046937 255 220 0
0.355617 0.141008 0.086419 255 220 0
0.406798 0.127788 0.036053 255 220 0
0.368136 0.128880 0.087913 255 220 0
0.382229 0.120343 0.021057 255 220 0
0.416584 0.140687 0.049534 255 220 0
0.416668 0.186305 0.083802 255 220 0
0.412485 0.155179 0.089305 255 220 0
0.389840 0.164208 0.102001 255 220 0
0.371882 0.102419 0.021182 255 220 0
0.417807 0.141276 0.052668 255 220 0
0.374650 0.127794 0.089454 255 220 0
0.363243 0.090903 0.022076 255 220 0
0.386867 0.172350 0.023941 255 220 0
0.330681 0.160860 0.058165 255 220 0
0.333003 0.145185 0.063259 255 220 0
0.389054 0.083391 0.057895 255 220 0
0.393282 0.089531 0.061894 255 220 0
0.386991 0.135075 0.092790 255 220 0
0.341708 0.107833 0.065844 255 220 0
0.402493 0.181133 0.100888 255 220 0
0.391122 0.121366 0.086450 255 220 0
0.398356 0.207581 0.043334 255 220 0
0.392242 0.229763 0.089281 255 220 0
0.378845 0.193805 0.106782 255 220 0
0.404786 0.214832 0.056062 255 220 0
0.405170 0.114718 0.039641 255 220 0
0.334692 0.189624 0.060985 255 220 0
0.334044 0.166934 0.043270 255 220 0
0.349863 0.091791 0.023034 255 220 0
0.410289 0.120639 0.045525 255 220 0
0.377277 0.102529 0.078214 255 220 0
0.349129 0.138307 0.025308 255 220 0
0.341612 0.172677 0.035206 255 220 0
0.330068 0.099144 0.045477 255 220 0
0.361452 0.158380 0.094745 255 220 0
0.342027 0.129226 0.071661 255 220 0
0.418358 0.185198 0.079512 255 220 0
0.419570 0.140707 0.060777 255 220 0
0.342022 0.135449 0.073535 255 220 0
0.386570 0.177638 0.024993 255 220 0
0.360381 0.084274 0.066763 255 220 0
0.388907 0.125947 0.022698 255 220 0
0.368503 0.149191 0.095256 255 220 0
0.395689 0.139043 0.024856 255 220 0
0.414896 0.161099 0.087994 255 220 0
0.383306 0.121611 0.021241 255 220 0
0.397415 0.179390 0.103187 255 220 0
0.363553 0.066454 0.052928 255 220 0
0.351567 0.166286 0.027315 255 220 0
0.372288 0.231507 0.085863 255 220 0
0.374379 0.126079 0.019440 255 220 0
0.332209 0.092831 0.054315 255 220 0
0.382954 0.182064 0.025536 255 220 0
0.366728 0.230209 0.064301 255 220 0
0.396995 0.218027 0.051188 255 220 0
0.410956 0.178459 0.093863 255 220 0
0.357587 0.061614 0.042741 255 220 0
0.381714 0.102792 0.023949 255 220 0
0.360473 0.097387 0.020990 255 220 0
0.364102 0.118436 0.082077 255 220 0
0.370560 0.207903 0.102597 255 220 0
0.376451 0.222729 0.096719 255 220 0
0.361121 0.063478 0.048458 255 220 0
0.367951 0.118286 0.019525 255 220 0
0.348433 0.210833 0.082028 255 220 0
0.414707 0.187868 0.049717 255 220 0
0.346938 0.114510 0.024557 255 220 0
0.418400 0.191174 0.073555 255 220 0
0.385656 0.105661 0.024926 255 220 0
0.411829 0.150663 0.038478 255 220 0
0.409700 0.208086 0.089704 255 220 0
0.351261 0.063160 0.051132 255 220 0
0.360237 0.072654 0.028862 255 220 0
0.405454 0.151203 0.093712 255 220 0
0.331622 0.112518 0.046852 255 220 0
0.388604 0.138767 0.021807 255 220 0
0.362984 0.198719 0.033938 255 220 0
0.350803 0.219676 0.065115 255 220 0
0.336804 0.184383 0.074134 255 220 0
0.330413 0.160300 0.054518 255 220 0
0.342604 0.120044 0.069562 255 220 0
0.331719 0.079495 0.033772 255 220 0
0.416314 0.154148 0.083558 255 220 0
0.355505 0.142461 0.023067 255 220 0
0.402483 0.216157 0.054473 255 220 0
0.351219 0.220069 0.073033 255 220 0
0.395968 0.183249 0.029567 255 220 0
0.399135 0.190126 0.033659 255 220 0
0.344973 0.119468 0.071586 255 220 0
0.345195 0.199493 0.084266 255 220 0
0.382249 0.122608 0.088087 255 220 0
0.363370 0.184468 0.027669 255 220 0
0.364181 0.182535 0.101434 255 220 0
0.350619 0.192822 0.092265 255 220 0
0.408000 0.185323 0.096717 255 220 0
0.328212 0.079758 0.043371 255 220 0
0.334451 0.069042 0.036548 255 220 0
0.396684 0.115312 0.029079 255 220 0
0.393781 0.086522 0.055756 255 220 0
0.405177 0.134061 0.032649 255 220 0
0.360589 0.076659 0.026529 255 220 0
0.391323 0.234545 0.076674 255 220 0
0.410265 0.120703 0.076427 255 220 0
0.359449 0.209789 0.095252 255 220 0
0.414820 0.120868 0.059457 255 220 0
0.403502 0.192369 0.100591 255 220 0
0.406473 0.108763 0.070306 255 220 0
0.361309 0.146216 0.091045 255 220 0
0.370996 0.191758 0.028646 255 220 0
0.359376 0.184837 0.029039 255 220 0
0.374959 0.171407 0.022741 255 220 0
0.410631 0.150782 0.036870 255 220 0
0.366213 0.108012 0.078508 255 220 0
0.363971 0.177668 0.025645 255 220 0
0.418211 0.181811 0.081474 255 220 0
0.343635 0.131827 0.074079 255 220 0
0.404569 0.148571 0.093285 255 220 0
0.378616 0.127324 0.089886 255 220 0
0.333964 0.109025 0.057022 255 220 0
0.388491 0.098596 0.029125 255 220 0
0.355134 0.153531 0.089933 255 220 0
0.406571 0.218242 0.064168 255 220 0
0.399412 0.104270 0.037792 255 220 0
0.360257 0.170258 0.097133 255 220 0
0.364715 0.220004 0.049736 255 220 0
0.421095 0.150458 0.063831 255 220 0
0.358299 0.068883 0.057938 255 220 0
0.370081 0.200881 0.033229 255 220 0
0.402209 0.227188 0.078067 255 220 0
0.338938 0.200858 0.066711 255 220 0
0.350267 0.203450 0.043952 255 220 0
0.333267 0.170701 0.067601 255 220 0
0.331986 0.119039 0.046779 255 220 0
0.359839 0.069952 0.058627 255 220 0
0.399941 0.118191 0.031116 255 220 0
0.378604 0.229278 0.057009 255 220 0
0.386965 0.235756 0.075011 255 220 0
0.405901 0.216351 0.059928 255 220 0
0.414710 0.200134 0.060900 255 220 0
0.388528 0.229858 0.059445 255 220 0
0.339623 0.183312 0.079690 255 220 0
0.359531 0.154390 0.092667 255 220 0
0.328634 0.077661 0.045648 255 220 0
0.390537 0.158930 0.100461 255 220 0
0.355715 0.068197 0.031045 255 220 0
0.337799 0.135216 0.068482 255 220 0
0.393408 0.092860 0.038149 255 220 0
0.395576 0.193235 0.033197 255 220 0
0.398834 0.130822 0.027488 255 220 0
0.379784 0.220658 0.047484 255 220 0
0.421950 0.166283 0.067507 255 220 0
0.393122 0.154707 0.098818 255 220 0
0.420878 0.178946 0.067244 255 220 0
0.396929 0.172107 0.102187 255 220 0
0.353227 0.084789 0.023380 255 220 0
0.402374 0.098212 0.061549 255 220 0
0.413474 0.208301 0.070846 255 220 0
0.331966 0.123722 0.050404 255 220 0
0.358934 0.114626 0.078504 255 220 0
0.357018 0.129530 0.021592 255 220 0
0.387320 0.235613 0.072888 255 220 0
0.333518 0.168599 0.068338 255 220 0
0.387136 0.094274 0.070723 255 220 0
0.376064 0.233895 0.083358 255 220 0
0.368650 0.212115 0.041527 255 220 0
0.377138 0.208085 0.104370 255 220 0
0.370936 0.118562 0.084587 255 220 0
0.360104 0.067163 0.055519 255 220 0
0.330811 0.142098 0.050899 255 220 0
0.370897 0.195058 0.105069 255 220 0
0.390715 0.082640 0.053478 255 220 0
0.378939 0.095958 0.024798 255 220 0
0.416020 0.168496 0.087503 255 220 0
0.367967 0.194343 0.103996 255 220 0
0.400619 0.101284 0.042603 255 220 0
0.343247 0.108221 0.067218 255 220 0
0.413616 0.120682 0.070980 255 220 0
0.365962 0.136824 0.090051 255 220 0
0.392191 0.219356 0.098586 255 220 0
0.385578 0.109627 0.023906 255 220 0
0.363798 0.103385 0.075833 255 220 0
0.350430 0.089194 0.066042 255 220 0
0.400610 0.165916 0.099666 255 220 0
0.350497 0.141134 0.024892 255 220 0
0.401711 0.100061 0.046369 255 220 0
0.392830 0.096071 0.069455 255 220 0
0.370643 0.078505 0.029016 255 220 0
0.390256 0.081713 0.047568 255 220 0
0.345914 0.213521 0.065101 255 220 0
0.398525 0.149224 0.026011 255 220 0
0.340475 0.107295 0.064656 255 220 0
0.332724 0.074466 0.034060 255 220 0
0.405500 0.182765 0.098897 255 220 0
0.394580 0.100217 0.072185 255 220 0
0.379920 0.178394 0.105519 255 220 0
0.355204 0.163101 0.025400 255 220 0
0.358918 0.224681 0.059923 255 220 0
0.358917 0.219780 0.052804 255 220 0
0.351147 0.119197 0.022971 255 220 0
0.391388 0.157169 0.099835 255 220 0
0.360710 0.102704 0.020547 255 220 0
0.348134 0.207269 0.049362 255 220 0
0.387886 0.183805 0.026918 255 220 0
0.362976 0.142624 0.090677 255 220 0
0.415790 0.199862 0.078304 255 220 0
0.353648 0.142204 0.085563 255 220 0
0.376895 0.144576 0.096076 255 220 0
0.411256 0.138924 0.039621 255 220 0
0.341050 0.101259 0.064025 255 220 0
0.339874 0.067895 0.033333 255 220 0
0.355285 0.147889 0.023593 255 220 0
0.385942 0.214866 0.102142 255 220 0
0.361528 0.090644 0.022006 255 220 0
0.400865 0.183225 0.032421 255 220 0
0.375119 0.115137 0.084147 255 220 0
0.333998 0.069154 0.037013 255 220 0
0.398840 0.099839 0.040679 255 220 0
0.399694 0.216899 0.052273 255 220 0
0.413903 0.146882 0.084794 255 220 0
0.355607 0.154248 0.024100 255 220 0
0.355780 0.207617 0.093047 255 220 0
0.332808 0.115227 0.040689 255 220 0
0.386335 0.228558 0.056960 255 220 0
0.372925 0.222982 0.095418 255 220 0
0.342506 0.179941 0.037037 255 220 0
0.408901 0.218272 0.073623 255 220 0
0.347217 0.157916 0.028066 255 220 0
0.397109 0.190049 0.104407 255 220 0
0.403656 0.216503 0.056447 255 220 0
0.403206 0.141733 0.091351 255 220 0
0.415760 0.154751 0.044109 255 220 0
0.390726 0.090133 0.064868 255 220 0
0.356881 0.174144 0.096030 255 220 0
0.412724 0.117138 0.055455 255 220 0
0.382386 0.190719 0.028492 255 220 0
0.342590 0.198947 0.048051 255 220 0
0.341279 0.200265 0.076503 255 220 0
0.368538 0.194999 0.030431 255 220 0
0.362803 0.191590 0.030436 255 220 0
0.394668 0.130589 0.089608 255 220 0
0.342973 0.207698 0.072127 255 220 0
0.406843 0.155059 0.032369 255 220 0
0.334812 0.150805 0.068316 255 220 0
0.345124 0.141652 0.027888 255 220 0
0.330573 0.151013 0.056313 255 220 0
0.389083 0.080674 0.046142 255 220 0
0.342059 0.072374 0.029246 255 220 0
0.360206 0.139488 0.088360 255 220 0
0.421347 0.152798 0.064357 255 220 0
0.343840 0.202682 0.080247 255 220 0
0.365752 0.080255 0.065072 255 220 0
0.357193 0.081677 0.024072 255 220 0
0.341511 0.195489 0.046719 255 220 0
0.406822 0.108652 0.048214 255 220 0
0.387469 0.141663 0.021389 255 220 0
0.346427 0.154238 0.083398 255 220 0
0.401484 0.159723 0.028082 255 220 0
0.412264 0.117004 0.069746 255 220 0
0.355682 0.183015 0.096499 255 220 0
0.330292 0.098033 0.049043 255 220 0
0.406285 0.207166 0.095131 255 220 0
0.415494 0.201779 0.067829 255 220 0
0.383307 0.142832 0.020369 255 220 0
0.417331 0.128587 0.062200 255 220 0
0.393552 0.198458 0.105369 255 220 0
0.337333 0.192939 0.052229 255 220 0
0.408209 0.178134 0.096518 255 220 0
0.379323 0.217309 0.100667 255 220 0
0.341444 0.143410 0.075268 255 220 0
0.410225 0.110102 0.063685 255 220 0
0.395965 0.223490 0.093713 255 220 0
0.370844 0.117377 0.084047 255 220 0
0.373886 0.146550 0.019846 255 220 0
0.362525 0.107247 0.020209 255 220 0
0.352377 0.071187 0.028475 255 220 0
0.343758 0.210323 0.066825 255 220 0
0.334346 0.175946 0.046851 255 220 0
0.416117 0.169008 0.087380 255 220 0
0.409607 0.197148 0.046662 255 220 0
0.393176 0.227470 0.058965 255 220 0
0.413083 0.202179 0.058189 255 220 0
0.413357 0.119292 0.055049 255 220 0
0.379879 0.137171 0.019773 255 220 0
0.361771 0.213911 0.045501 255 220 0
0.411836 0.201367 0.088955 255 220 0
0.337284 0.120953 0.033185 255 220 0
0.335659 0.087622 0.057812 255 220 0
0.337282 0.080795 0.058326 255 220 0
0.342867 0.167254 0.032611 255 220 0
0.403902 0.126905 0.032717 255 220 0
0.343731 0.065663 0.034365 255 220 0
0.394985 0.206459 0.103314 255 220 0
0.348688 0.206163 0.085848 255 220 0
0.406316 0.119171 0.078991 255 220 0
0.391494 0.166215 0.102260 255 220 0
0.414075 0.121364 0.055241 255 220 0
0.356556 0.071235 0.060022 255 220 0
0.336516 0.188382 0.050226 255 220 0
0.397909 0.091674 0.057701 255 220 0
0.361792 0.227650 0.063204 255 220 0
0.385237 0.096045 0.072814 255 220 0
0.363549 0.083353 0.066742 255 220 0
0.391299 0.133810 0.023041 255 220 0
0.349518 0.216114 0.059191 255 220 0
0.414276 0.188643 0.049310 255 220 0
0.408750 0.137230 0.036388 255 220 0
0.339904 0.202306 0.058463 255 220 0
0.418508 0.136161 0.071057 255 220 0
0.391009 0.206809 0.039497 255 220 0
0.351557 0.168748 0.091302 255 220 0
0.367224 0.192813 0.029746 255 220 0
0.373055 0.199956 0.105300 255 220 0
0.344111 0.129340 0.073789 255 220 0
0.394124 0.106862 0.030011 255 220 0
0.333777 0.185497 0.058021 255 220 0
0.356657 0.075357 0.062327 255 220 0
0.362456 0.094389 0.021347 255 220 0
0.362971 0.212540 0.096548 255 220 0
0.397630 0.136446 0.026174 255 220 0
0.404528 0.192652 0.099744 255 220 0
0.361268 0.067965 0.033213 255 220 0
0.342170 0.199545 0.079055 255 220 0
0.418560 0.161803 0.081751 255 220 0
0.394859 0.171172 0.026172 255 220 0
0.353633 0.145315 0.023956 255 220 0
0.388510 0.121157 0.086860 255 220 0
0.402257 0.204737 0.043930 255 220 0
0.331421 0.108589 0.049423 255 220 0
0.367426 0.221643 0.093659 255 220 0
0.419649 0.144614 0.071748 255 220 0
0.373919 0.070693 0.038437 255 220 0
0.408850 0.158361 0.093572 255 220 0
0.361472 0.172193 0.025080 255 220 0
0.421474 0.172156 0.063447 255 220 0
0.408627 0.140073 0.087690 255 220 0
0.376804 0.205601 0.105027 255 220 0
0.376607 0.157424 0.100107 255 220 0
0.420257 0.146925 0.059198 255 220 0
0.374043 0.234034 0.069583 255 220 0
0.357198 0.122715 0.080838 255 220 0
0.346332 0.104534 0.024270 255 220 0
0.335236 0.156020 0.070234 255 220 0
0.408860 0.217793 0.070898 255 220 0
0.410289 0.139715 0.038029 255 220 0
0.421641 0.168503 0.062310 255 220 0
0.354875 0.118619 0.078151 255 220 0
0.374035 0.169884 0.022512 255 220 0
0.353756 0.175630 0.094186 255 220 0
0.345692 0.134474 0.076900 255 220 0
0.387823 0.194431 0.031230 255 220 0
0.421736 0.164558 0.070704 255 220 0
0.356787 0.063576 0.050839 255 220 0
0.399305 0.228958 0.068915 255 220 0
0.376485 0.074848 0.056981 255 220 0
0.332152 0.072889 0.051451 255 220 0
0.356713 0.074134 0.027182 255 220 0
0.335261 0.148553 0.068520 255 220 0
0.372769 0.107760 0.080258 255 220 0
0.385322 0.148995 0.097828 255 220 0
0.367002 0.064783 0.041635 255 220 0
0.420776 0.179465 0.070383 255 220 0
0.414760 0.205025 0.074289 255 220 0
0.367222 0.073576 0.059859 255 220 0
0.353859 0.064662 0.034518 255 220 0
0.360303 0.063055 0.047873 255 220 0
0.360039 0.145899 0.090338 255 220 0
0.419010 0.147782 0.075281 255 220 0
0.340226 0.182836 0.040798 255 220 0
0.367658 0.179294 0.025250 255 220 0
0.338579 0.127924 0.067340 255 220 0
0.341390 0.164561 0.080558 255 220 0
0.337879 0.177032 0.041138 255 220 0
0.349794 0.140869 0.025197 255 220 0
0.333209 0.087210 0.055411 255 220 0
0.366246 0.066771 0.037410 255 220 0
0.359121 0.065146 0.052877 255 220 0
0.332578 0.144915 0.062127 255 220 0
0.383199 0.211076 0.040067 255 220 0
0.389409 0.112039 0.082183 255 220 0
0.344693 0.073686 0.027945 255 220 0
0.343890 0.122409 0.027044 255 220 0
0.336282 0.072790 0.055836 255 220 0
0.366243 0.099130 0.074746 255 220 0
0.341608 0.198697 0.049248 255 220 0
0.408660 0.118080 0.043857 255 220 0
0.345838 0.061990 0.041891 255 220 0
0.358214 0.086564 0.022764 255 220 0
0.394785 0.168046 0.101998 255 220 0
0.372642 0.152245 0.020316 255 220 0
0.334915 0.121425 0.060074 255 220 0
0.373166 0.072959 0.056606 255 220 0
0.343147 0.137786 0.029010 255 220 0
0.412549 0.167577 0.091894 255 220 0
0.376639 0.207341 0.104505 255 220 0
0.350387 0.109297 0.072534 255 220 0
0.403794 0.215678 0.055639 255 220 0
0.360907 0.066834 0.034254 255 220 0
0.338485 0.164126 0.076752 255 220 0
0.338589 0.177042 0.040181 255 220 0
0.338654 0.123681 0.066226 255 220 0
0.358792 0.205311 0.040083 255 220 0
0.403033 0.144027 0.092319 255 220 0
0.361485 0.211070 0.096216 255 220 0
0.334726 0.160750 0.070190 255 220 0
0.419752 0.151168 0.074354 255 220 0
0.333705 0.183884 0.055484 255 220 0
0.410288 0.110828 0.065356 255 220 0
0.380964 0.107731 0.081052 255 220 0
0.397482 0.111180 0.078920 255 220 0
0.331475 0.102889 0.040007 255 220 0
0.344103 0.118197 0.026523 255 220 0
0.418994 0.152634 0.051680 255 220 0
0.364883 0.173832 0.024562 255 220 0
0.397316 0.147412 0.025361 255 220 0
0.361982 0.116045 0.020082 255 220 0
0.375950 0.072517 0.038036 255 220 0
0.382365 0.210734 0.103991 255 220 0
0.371267 0.095023 0.073710 255 220 0
0.419822 0.140312 0.065254 255 220 0
0.347222 0.156032 0.084610 255 220 0
0.369720 0.196127 0.030742 255 220 0
0.416903 0.161533 0.045825 255 220 0
0.415489 0.198116 0.081439 255 220 0
0.340106 0.182046 0.080550 255 220 0
0.393279 0.127025 0.088455 255 220 0
0.373431 0.118480 0.085260 255 220 0
0.405670 0.138817 0.032536 255 220 0
0.348989 0.063958 0.052592 255 220 0
0.337431 0.073612 0.056926 255 220 0
0.336611 0.158085 0.036990 255 220 0
0.420663 0.152084 0.058217 255 220 0
0.355246 0.219331 0.055526 255 220 0
0.332574 0.179721 0.059914 255 220 0
0.334502 0.152196 0.039260 255 220 0
0.398711 0.108838 0.076719 255 220 0
0.359440 0.111123 0.077352 255 220 0
0.395810 0.121756 0.085388 255 220 0
0.406343 0.164690 0.032321 255 220 0
0.366472 0.067276 0.052608 255 220 0
0.330703 0.084740 0.051960 255 220 0
0.373895 0.156712 0.020638 255 220 0
0.362538 0.163678 0.023324 255 220 0
0.416299 0.135453 0.051378 255 220 0
0.353155 0.208217 0.045716 255 220 0
0.407078 0.178366 0.097465 255 220 0
0.416476 0.185109 0.051979 255 220 0
0.410508 0.201689 0.051745 255 220 0
0.333290 0.079603 0.032065 255 220 0
0.381460 0.219306 0.046381 255 220 0
0.342254 0.109923 0.066758 255 220 0
0.387934 0.202621 0.105892 255 220 0
0.331188 0.107918 0.047362 255 220 0
0.400063 0.104051 0.039028 255 220 0
0.391713 0.087577 0.040821 255 220 0
0.415224 0.202582 0.067860 255 220 0
0.353879 0.186611 0.032000 255 220 0
0.385871 0.193850 0.030492 255 220 0
0.337215 0.188077 0.048483 255 220 0
0.336320 0.194670 0.058978 255 220 0
0.330216 0.092720 0.050399 255 220 0
0.407168 0.124507 0.081566 255 220 0
0.364455 0.145657 0.020958 255 220 0
0.330623 0.146894 0.049916 255 220 0
0.367839 0.072897 0.031871 255 220 0
0.351423 0.144674 0.084788 255 220 0
0.351066 0.195649 0.092267 255 220 0
0.413739 0.119017 0.068344 255 220 0
0.412521 0.146394 0.086360 255 220 0
0.413114 0.135363 0.081716 255 220 0
0.344953 0.137830 0.077241 255 220 0
0.331439 0.168399 0.061188 255 220 0
0.402655 0.144575 0.092682 255 220 0
0.342590 0.197731 0.047029 255 220 0
0.408378 0.214700 0.062814 255 220 0
0.373054 0.144417 0.019771 255 220 0
0.420699 0.156267 0.073243 255 220 0
0.357412 0.140700 0.022314 255 220 0
0.344327 0.210994 0.069737 255 220 0
0.372680 0.212968 0.101334 255 220 0
0.363048 0.207962 0.098604 255 220 0
0.347031 0.204968 0.048258 255 220 0
0.385881 0.087467 0.033385 255 220 0
0.356863 0.163594 0.093721 255 220 0
0.412046 0.200918 0.054215 255 220 0
0.348033 0.137721 0.079990 255 220 0
0.415636 0.195639 0.058596 255 220 0
0.421978 0.163631 0.066566 255 220 0
0.345079 0.174544 0.032959 255 220 0
0.329009 0.089032 0.047250 255 220 0
0.403882 0.152381 0.029761 255 220 0
0.337381 0.155009 0.073360 255 220 0
0.393477 0.144766 0.023501 255 220 0
0.394013 0.222368 0.095763 255 220 0
0.381149 0.087853 0.029380 255 220 0
0.374107 0.193258 0.106008 255 220 0
0.331746 0.129190 0.051581 255 220 0
0.372753 0.213053 0.101319 255 220 0
0.413475 0.205077 0.063536 255 220 0
0.399520 0.144932 0.026834 255 220 0
0.421907 0.164119 0.063713 255 220 0
0.341811 0.163253 0.032604 255 220 0
0.372857 0.202661 0.104801 255 220 0
0.384661 0.135228 0.093028 255 220 0
0.385685 0.125910 0.021561 255 220 0
0.391461 0.093652 0.034836 255 220 0
0.332972 0.177820 0.064846 255 220 0
0.405260 0.117374 0.038198 255 220 0
0.381569 0.224761 0.096154 255 220 0
0.341593 0.206513 0.066055 255 220 0
0.418501 0.135037 0.069966 255 220 0
0.403561 0.104574 0.045195 255 220 0
0.394360 0.174534 0.026653 255 220 0
0.407804 0.187780 0.039792 255 220 0
0.375010 0.175670 0.023619 255 220 0
0.412856 0.124648 0.075958 255 220 0
0.348400 0.072580 0.060060 255 220 0
0.411659 0.206623 0.059713 255 220 0
