ply
format ascii 1.0
element vertex 1024
property float x
property float y
property float z
property uchar red
property uchar green
property uchar blue
end_header
0.539943 0.182874 0.079944 255 220 0
0.515925 0.076270 0.013196 255 220 0
0.515639 0.025164 0.026795 255 220 0
0.505918 0.028812 0.024137 255 220 0
0.534863 0.103202 0.011064 255 220 0
0.504066 0.078319 0.073589 255 220 0
0.564033 0.131232 0.090166 255 220 0
0.518634 0.046382 0.065247 255 220 0
0.518210 0.019856 0.033447 255 220 0
0.531605 0.119500 0.013417 255 220 0
0.546716 0.108450 0.013061 255 220 0
0.506787 0.043311 0.018625 255 220 0
0.524225 0.061782 0.071485 255 220 0
0.507282 0.101199 0.081208 255 220 0
0.573872 0.168294 0.062559 255 220 0
0.534688 0.171280 0.089504 255 220 0
0.482510 0.046963 0.038581 255 220 0
0.548580 0.149166 0.023597 255 220 0
0.570716 0.078279 0.056644 255 220 0
0.512584 0.170808 0.064096 255 220 0
0.517855 0.029714 0.023765 255 220 0
0.550302 0.162263 0.032040 255 220 0
0.513673 0.017522 0.041719 255 220 0
0.514884 0.153650 0.034353 255 220 0
0.511569 0.132263 0.025055 255 220 0
0.523804 0.030515 0.054280 255 220 0
0.487997 0.018897 0.047798 255 220 0
0.563577 0.178022 0.078234 255 220 0
0.501422 0.131117 0.033617 255 220 0
0.562994 0.086900 0.023748 255 220 0
0.564446 0.061488 0.042505 255 220 0
0.510916 0.080158 0.015283 255 220 0
0.507738 0.087194 0.017687 255 220 0
0.518334 0.111969 0.015636 255 220 0
0.487222 0.092729 0.059434 255 220 0
0.555102 0.181421 0.081026 255 220 0
0.519185 0.135967 0.021941 255 220 0
0.515293 0.045879 0.016572 255 220 0
0.492687 0.093098 0.032476 255 220 0
0.520807 0.105407 0.087187 255 220 0
0.550310 0.066213 0.067780 255 220 0
0.524077 0.028157 0.026308 255 220 0
0.500423 0.150355 0.073518 255 220 0
0.571143 0.146751 0.086872 255 220 0
0.535042 0.100133 0.010921 255 220 0
0.503658 0.069789 0.071178 255 220 0
0.506548 0.111118 0.083119 255 220 0
0.505098 0.031211 0.023015 255 220 0
0.519896 0.101298 0.013420 255 220 0
0.488795 0.056520 0.030014 255 220 0
0.492951 0.134858 0.066795 255 220 0
0.539371 0.138795 0.018235 255 220 0
0.487339 0.102952 0.046556 255 220 0
0.524778 0.068157 0.011949 255 220 0
0.570697 0.073435 0.049918 255 220 0
0.491391 0.044024 0.062349 255 220 0
0.579940 0.108595 0.048476 255 220 0
0.542303 0.160642 0.095438 255 220 0
0.513663 0.104053 0.016572 255 220 0
0.554459 0.124962 0.093021 255 220 0
0.507581 0.088424 0.017939 255 220 0
0.524801 0.088901 0.082596 255 220 0
0.488679 0.025103 0.033369 255 220 0
0.503556 0.132728 0.032092 255 220 0
0.499087 0.151070 0.055576 255 220 0
0.506931 0.137907 0.085446 255 220 0
0.551502 0.132534 0.018478 255 220 0
0.540498 0.186231 0.061871 255 220 0
0.541011 0.154772 0.096805 255 220 0
0.534782 0.160214 0.030733 255 220 0
0.526518 0.170514 0.042992 255 220 0
0.517832 0.032856 0.058734 255 220 0
0.566732 0.095414 0.025638 255 220 0
0.495297 0.031126 0.026353 255 220 0
0.576103 0.111536 0.071740 255 220 0
0.540852 0.158582 0.095909 255 220 0
0.555214 0.049774 0.040346 255 220 0
0.553707 0.075219 0.071397 255 220 0
0.490575 0.056066 0.062521 255 220 0
0.558286 0.147797 0.026705 255 220 0
0.573942 0.149851 0.083209 255 220 0
0.533593 0.081278 0.079717 255 220 0
0.552250 0.138361 0.020555 255 220 0
0.564604 0.144651 0.091917 255 220 0
0.499698 0.105341 0.077796 255 220 0
0.491087 0.037800 0.061581 255 220 0
0.555050 0.079510 0.073065 255 220 0
0.547010 0.154126 0.026064 255 220 0
0.571006 0.108612 0.028568 255 220 0
0.515976 0.043513 0.064326 255 220 0
0.490179 0.103660 0.039057 255 220 0
0.573174 0.160187 0.049619 255 220 0
0.570900 0.162082 0.047500 255 220 0
0.526225 0.141463 0.095035 255 220 0
0.561122 0.168594 0.088030 255 220 0
0.483309 0.042473 0.055814 255 220 0
0.528599 0.151431 0.026073 255 220 0
0.550325 0.090541 0.081106 255 220 0
0.489710 0.059621 0.029337 255 220 0
0.538627 0.173635 0.041534 255 220 0
0.490160 0.079524 0.063291 255 220 0
0.555285 0.175268 0.045221 255 220 0
0.576557 0.101724 0.065100 255 220 0
0.576949 0.147905 0.048458 255 220 0
0.533898 0.053813 0.015951 255 220 0
0.542399 0.036459 0.038278 255 220 0
0.578547 0.136720 0.073622 255 220 0
0.561642 0.182902 0.064467 255 220 0
0.508366 0.154993 0.042758 255 220 0
0.501101 0.017902 0.033890 255 220 0
0.508832 0.109857 0.083994 255 220 0
0.524173 0.137609 0.020458 255 220 0
0.553199 0.063937 0.064122 255 220 0
0.497512 0.096248 0.027490 255 220 0
0.549058 0.186930 0.071414 255 220 0
0.531233 0.174461 0.085808 255 220 0
0.532146 0.091270 0.083776 255 220 0
0.575178 0.159055 0.052829 255 220 0
0.512157 0.150161 0.033978 255 220 0
0.527364 0.114118 0.090988 255 220 0
0.508644 0.166302 0.064178 255 220 0
0.555109 0.156270 0.095223 255 220 0
0.482373 0.039590 0.054783 255 220 0
0.541499 0.084986 0.011784 255 220 0
0.556517 0.125776 0.018750 255 220 0
0.576651 0.148193 0.047909 255 220 0
0.506936 0.160875 0.074656 255 220 0
0.487483 0.073710 0.058030 255 220 0
0.574795 0.163388 0.056619 255 220 0
0.498779 0.151953 0.065394 255 220 0
0.547977 0.086210 0.079875 255 220 0
0.556261 0.067693 0.064495 255 220 0
0.566220 0.124466 0.024822 255 220 0
0.532322 0.103855 0.088276 255 220 0
0.544888 0.150475 0.097600 255 220 0
0.552908 0.138830 0.096368 255 220 0
0.489871 0.060746 0.061875 255 220 0
0.562321 0.092993 0.075637 255 220 0
0.493164 0.102955 0.071560 255 220 0
0.580588 0.109873 0.054730 255 220 0
0.561743 0.060586 0.034205 255 220 0
0.513255 0.077286 0.076475 255 220 0
0.512367 0.115611 0.086838 255 220 0
0.482339 0.053235 0.048427 255 220 0
0.513083 0.086127 0.079224 255 220 0
0.543742 0.154402 0.097047 255 220 0
0.507210 0.144469 0.084593 255 220 0
0.564888 0.172926 0.050141 255 220 0
0.510495 0.016461 0.042364 255 220 0
0.550506 0.128653 0.017080 255 220 0
0.488753 0.120681 0.052064 255 220 0
0.554591 0.105028 0.085808 255 220 0
0.482284 0.038397 0.054760 255 220 0
0.521379 0.131443 0.092914 255 220 0
0.538941 0.125489 0.094794 255 220 0
0.548645 0.047538 0.028959 255 220 0
0.537769 0.073523 0.075840 255 220 0
0.580876 0.125367 0.048787 255 220 0
0.546635 0.041725 0.033090 255 220 0
0.567066 0.110343 0.024418 255 220 0
0.513267 0.110051 0.085984 255 220 0
0.489714 0.039042 0.061108 255 220 0
0.549183 0.124158 0.094010 255 220 0
0.522557 0.120650 0.015838 255 220 0
0.553957 0.126666 0.093655 255 220 0
0.497845 0.095183 0.026925 255 220 0
0.504578 0.046114 0.018753 255 220 0
0.540497 0.080260 0.078739 255 220 0
0.537034 0.184411 0.074196 255 220 0
0.550728 0.055160 0.025496 255 220 0
0.490132 0.068108 0.030385 255 220 0
0.553685 0.176979 0.046318 255 220 0
0.491156 0.130234 0.052564 255 220 0
0.546330 0.135649 0.096912 255 220 0
0.486355 0.100203 0.054040 255 220 0
0.522047 0.066548 0.073638 255 220 0
0.546380 0.050396 0.057352 255 220 0
0.503732 0.031576 0.023108 255 220 0
0.530183 0.154346 0.027541 255 220 0
0.486912 0.039836 0.030856 255 220 0
0.556082 0.185835 0.067616 255 220 0
0.486577 0.106336 0.055239 255 220 0
0.531540 0.175821 0.084665 255 220 0
0.495692 0.111377 0.032866 255 220 0
0.523325 0.025505 0.048631 255 220 0
0.486010 0.059498 0.056881 255 220 0
0.503637 0.015417 0.038461 255 220 0
0.553906 0.173219 0.088422 255 220 0
0.534322 0.029251 0.035480 255 220 0
0.560591 0.056193 0.041718 255 220 0
0.540022 0.054448 0.018336 255 220 0
0.519759 0.137783 0.022396 255 220 0
0.487708 0.040448 0.060075 255 220 0
0.493592 0.112357 0.035816 255 220 0
0.544787 0.185887 0.075343 255 220 0
0.529824 0.073169 0.011287 255 220 0
0.576531 0.090561 0.043587 255 220 0
0.519289 0.037326 0.060711 255 220 0
0.544444 0.042252 0.029033 255 220 0
0.503275 0.097534 0.022507 255 220 0
0.576414 0.148642 0.047650 255 220 0
0.498285 0.059038 0.066980 255 220 0
0.516398 0.156311 0.088096 255 220 0
0.562472 0.111826 0.020749 255 220 0
0.535975 0.179508 0.082820 255 220 0
0.501029 0.081886 0.073082 255 220 0
0.550424 0.135303 0.018989 255 220 0
0.499702 0.015566 0.039961 255 220 0
0.578816 0.123063 0.070811 255 220 0
0.557160 0.058554 0.054961 255 220 0
0.518313 0.019656 0.041723 255 220 0
0.519222 0.104618 0.086541 255 220 0
0.554222 0.126661 0.093571 255 220 0
0.581177 0.132444 0.054469 255 220 0
0.530265 0.030740 0.048862 255 220 0
0.511287 0.146720 0.087397 255 220 0
0.535564 0.041340 0.056744 255 220 0
0.559063 0.060607 0.054917 255 220 0
0.529611 0.049730 0.016239 255 220 0
0.492107 0.103052 0.070310 255 220 0
0.540554 0.183006 0.053218 255 220 0
0.576300 0.097042 0.039372 255 220 0
0.500584 0.081770 0.072809 255 220 0
0.501535 0.077387 0.020686 255 220 0
0.519933 0.154331 0.090820 255 220 0
0.575123 0.131125 0.079531 255 220 0
0.532361 0.160958 0.031717 255 220 0
0.480643 0.043827 0.043962 255 220 0
0.527471 0.030280 0.051127 255 220 0
0.517929 0.144494 0.026366 255 220 0
0.484114 0.038309 0.034249 255 220 0
0.542076 0.077857 0.012647 255 220 0
0.553017 0.067805 0.021097 255 220 0
0.520113 0.022728 0.047494 255 220 0
0.568958 0.090960 0.068674 255 220 0
0.489838 0.044881 0.027822 255 220 0
0.535550 0.030308 0.034899 255 220 0
0.482566 0.049361 0.039512 255 220 0
0.542219 0.160107 0.029934 255 220 0
0.577763 0.120858 0.072341 255 220 0
0.496101 0.112443 0.075817 255 220 0
0.496513 0.129222 0.076096 255 220 0
0.577963 0.107768 0.040565 255 220 0
0.521666 0.091014 0.082885 255 220 0
0.502528 0.078154 0.020046 255 220 0
0.563518 0.079909 0.066733 255 220 0
0.572758 0.076845 0.047351 255 220 0
0.555494 0.076456 0.070978 255 220 0
0.523206 0.171779 0.083463 255 220 0
0.546749 0.116892 0.092151 255 220 0
0.502431 0.127543 0.031044 255 220 0
0.535661 0.184905 0.062637 255 220 0
0.562490 0.067444 0.057896 255 220 0
0.542450 0.181730 0.050681 255 220 0
0.550256 0.176427 0.087215 255 220 0
0.515789 0.079905 0.077968 255 220 0
0.507274 0.027783 0.059346 255 220 0
0.578522 0.102540 0.045146 255 220 0
0.539596 0.079513 0.011769 255 220 0
0.557374 0.052279 0.041123 255 220 0
0.525995 0.028296 0.049920 255 220 0
0.535862 0.180346 0.081648 255 220 0
0.552667 0.091274 0.080474 255 220 0
0.501749 0.046775 0.019764 255 220 0
0.549648 0.075487 0.073738 255 220 0
0.494689 0.041933 0.024109 255 220 0
0.546307 0.105232 0.012846 255 220 0
0.498941 0.149599 0.053214 255 220 0
0.565230 0.154176 0.035352 255 220 0
0.526641 0.034557 0.056123 255 220 0
0.518509 0.175758 0.061304 255 220 0
0.520596 0.123577 0.017321 255 220 0
0.486902 0.104808 0.049309 255 220 0
0.557929 0.154651 0.030027 255 220 0
0.573199 0.169042 0.071274 255 220 0
0.580739 0.135665 0.053991 255 220 0
0.484537 0.067121 0.049378 255 220 0
0.489549 0.123518 0.062713 255 220 0
0.549356 0.050788 0.027134 255 220 0
0.538155 0.185841 0.063756 255 220 0
0.558648 0.134520 0.093714 255 220 0
0.508617 0.162908 0.075304 255 220 0
0.503596 0.065647 0.018342 255 220 0
0.490146 0.106439 0.039824 255 220 0
0.500671 0.067928 0.069523 255 220 0
0.530378 0.094649 0.010847 255 220 0
0.551510 0.171319 0.039880 255 220 0
0.549142 0.081080 0.015090 255 220 0
0.509019 0.159834 0.047869 255 220 0
0.531205 0.112812 0.012262 255 220 0
0.536990 0.087971 0.010902 255 220 0
0.570326 0.169008 0.053346 255 220 0
0.546006 0.091965 0.083072 255 220 0
0.527249 0.059256 0.070050 255 220 0
0.490009 0.121470 0.047146 255 220 0
0.500812 0.098100 0.024713 255 220 0
0.509680 0.086559 0.078181 255 220 0
0.571567 0.115286 0.029126 255 220 0
0.504082 0.015683 0.046140 255 220 0
0.519766 0.153378 0.090994 255 220 0
0.541598 0.171218 0.038835 255 220 0
0.502702 0.082202 0.020453 255 220 0
0.503171 0.139195 0.035909 255 220 0
0.521179 0.122279 0.016750 255 220 0
0.514705 0.069837 0.013622 255 220 0
0.486747 0.096359 0.058078 255 220 0
0.569423 0.149880 0.037350 255 220 0
0.515762 0.162757 0.084407 255 220 0
0.510437 0.168219 0.062400 255 220 0
0.509118 0.062133 0.070810 255 220 0
0.494386 0.036565 0.062412 255 220 0
0.575257 0.150243 0.046260 255 220 0
0.534020 0.167632 0.091398 255 220 0
0.489837 0.111576 0.042113 255 220 0
0.482825 0.024671 0.050193 255 220 0
0.576365 0.144342 0.044967 255 220 0
0.554858 0.094869 0.016691 255 220 0
0.557541 0.052637 0.042718 255 220 0
0.498924 0.111975 0.029544 255 220 0
0.545862 0.040846 0.043309 255 220 0
0.520063 0.029641 0.024182 255 220 0
0.545066 0.040141 0.032753 255 220 0
0.498877 0.051370 0.065895 255 220 0
0.513080 0.164430 0.048386 255 220 0
0.524658 0.064191 0.072516 255 220 0
0.559438 0.171454 0.087278 255 220 0
0.550635 0.119037 0.015207 255 220 0
0.493487 0.117933 0.073026 255 220 0
0.557039 0.084362 0.019421 255 220 0
0.511023 0.069957 0.073557 255 220 0
0.504651 0.113377 0.082479 255 220 0
0.491860 0.028279 0.060338 255 220 0
0.564521 0.180158 0.071583 255 220 0
0.489284 0.102867 0.066039 255 220 0
0.567582 0.170353 0.081559 255 220 0
0.498307 0.027304 0.060751 255 220 0
0.524219 0.031261 0.024037 255 220 0
0.484152 0.025853 0.037837 255 220 0
0.566946 0.077642 0.030481 255 220 0
0.516804 0.020517 0.046965 255 220 0
0.577784 0.094509 0.049468 255 220 0
0.523111 0.100809 0.086303 255 220 0
0.528259 0.146180 0.023097 255 220 0
0.569820 0.113775 0.027102 255 220 0
0.561236 0.065958 0.029332 255 220 0
0.502260 0.032513 0.061957 255 220 0
0.579241 0.103144 0.050908 255 220 0
0.493686 0.024295 0.030449 255 220 0
0.565340 0.178171 0.058218 255 220 0
0.528086 0.105858 0.088637 255 220 0
0.551221 0.150391 0.024857 255 220 0
0.541229 0.035993 0.041396 255 220 0
0.560320 0.122456 0.089751 255 220 0
0.577233 0.159290 0.070407 255 220 0
0.507361 0.139591 0.085592 255 220 0
0.508947 0.031483 0.060492 255 220 0
0.525580 0.178636 0.056003 255 220 0
0.493525 0.126626 0.072097 255 220 0
0.541156 0.037183 0.030623 255 220 0
0.554016 0.124181 0.092934 255 220 0
0.569451 0.087112 0.030512 255 220 0
0.498320 0.116821 0.031538 255 220 0
0.503120 0.043491 0.019720 255 220 0
0.520554 0.177839 0.067567 255 220 0
0.559351 0.082062 0.071568 255 220 0
0.575689 0.164625 0.068748 255 220 0
0.496402 0.050439 0.022452 255 220 0
0.487899 0.093811 0.061651 255 220 0
0.558205 0.057686 0.052374 255 220 0
0.488104 0.105034 0.044435 255 220 0
0.532046 0.134276 0.095946 255 220 0
0.529873 0.026141 0.033382 255 220 0
0.481764 0.042641 0.053109 255 220 0
0.557962 0.082800 0.073022 255 220 0
0.529307 0.135462 0.095548 255 220 0
0.512290 0.065269 0.072380 255 220 0
0.525955 0.173980 0.047853 255 220 0
0.527514 0.071746 0.075723 255 220 0
0.490502 0.022783 0.033751 255 220 0
0.576170 0.152000 0.078790 255 220 0
0.527913 0.138610 0.019640 255 220 0
0.514793 0.072650 0.013548 255 220 0
0.580773 0.136488 0.055157 255 220 0
0.555424 0.089092 0.078000 255 220 0
0.507776 0.159718 0.077492 255 220 0
0.496664 0.088421 0.026727 255 220 0
0.524548 0.057138 0.013630 255 220 0
0.569013 0.080498 0.032080 255 220 0
0.516526 0.127687 0.020436 255 220 0
0.530811 0.072416 0.075862 255 220 0
0.512717 0.162070 0.081958 255 220 0
0.554797 0.183570 0.055497 255 220 0
0.550114 0.136103 0.019146 255 220 0
0.523870 0.043982 0.017315 255 220 0
0.578072 0.098772 0.045462 255 220 0
0.530704 0.160164 0.031492 255 220 0
0.525810 0.146155 0.094704 255 220 0
0.531035 0.181320 0.056075 255 220 0
0.547616 0.119632 0.014375 255 220 0
0.568762 0.101471 0.075130 255 220 0
0.510416 0.122097 0.087056 255 220 0
0.491152 0.119091 0.042632 255 220 0
0.536104 0.117139 0.092521 255 220 0
0.566646 0.136451 0.089576 255 220 0
0.565684 0.170174 0.048169 255 220 0
0.484768 0.022873 0.040451 255 220 0
0.544907 0.184465 0.078721 255 220 0
0.509311 0.029744 0.023332 255 220 0
0.545423 0.044624 0.027973 255 220 0
0.496540 0.115758 0.033160 255 220 0
0.544098 0.070134 0.014900 255 220 0
0.558532 0.098389 0.080862 255 220 0
0.528710 0.182330 0.065049 255 220 0
0.499165 0.080474 0.022990 255 220 0
0.556612 0.108106 0.086170 255 220 0
0.504857 0.136068 0.032354 255 220 0
0.541925 0.057233 0.018204 255 220 0
0.579916 0.140583 0.068113 255 220 0
0.575213 0.084259 0.051260 255 220 0
0.577149 0.091277 0.047345 255 220 0
0.534379 0.082868 0.080368 255 220 0
0.573062 0.170167 0.065054 255 220 0
0.566085 0.112428 0.082378 255 220 0
0.534282 0.153204 0.025995 255 220 0
0.520228 0.048308 0.065894 255 220 0
0.558049 0.079455 0.021263 255 220 0
0.499393 0.083887 0.072655 255 220 0
0.555230 0.133659 0.020208 255 220 0
0.547628 0.077370 0.075589 255 220 0
0.541415 0.185533 0.074788 255 220 0
0.493339 0.091948 0.031331 255 220 0
0.565331 0.067556 0.033753 255 220 0
0.506306 0.018945 0.031740 255 220 0
0.501252 0.140253 0.079656 255 220 0
0.490698 0.096037 0.067287 255 220 0
0.534652 0.144158 0.096995 255 220 0
0.507959 0.151510 0.039642 255 220 0
0.580736 0.110739 0.054243 255 220 0
0.558870 0.097132 0.018951 255 220 0
0.524087 0.124293 0.092661 255 220 0
0.558332 0.058809 0.053681 255 220 0
0.508270 0.067569 0.016010 255 220 0
0.490540 0.078714 0.063690 255 220 0
0.545744 0.079102 0.077091 255 220 0
0.487475 0.031929 0.031420 255 220 0
0.539684 0.072430 0.012752 255 220 0
0.527959 0.104025 0.011701 255 220 0
0.557280 0.095403 0.080119 255 220 0
0.554584 0.089846 0.016978 255 220 0
0.561740 0.180680 0.057057 255 220 0
0.510528 0.082651 0.077309 255 220 0
0.543282 0.118726 0.092856 255 220 0
0.547386 0.177101 0.087136 255 220 0
0.581309 0.123271 0.062501 255 220 0
0.548506 0.043464 0.043587 255 220 0
0.516237 0.121266 0.018751 255 220 0
0.566053 0.071837 0.057540 255 220 0
0.541702 0.147511 0.021941 255 220 0
0.540597 0.180578 0.049401 255 220 0
0.554447 0.185251 0.073665 255 220 0
0.485614 0.075988 0.044377 255 220 0
0.551223 0.102937 0.014587 255 220 0
0.566813 0.178572 0.066261 255 220 0
0.510736 0.017694 0.046967 255 220 0
0.540689 0.117601 0.012802 255 220 0
0.571376 0.161026 0.047343 255 220 0
0.559448 0.174121 0.085469 255 220 0
0.523642 0.173441 0.049103 255 220 0
0.509000 0.095742 0.018078 255 220 0
0.561735 0.105041 0.020360 255 220 0
0.545250 0.054430 0.021632 255 220 0
0.511592 0.065934 0.072455 255 220 0
0.562283 0.094445 0.076453 255 220 0
0.539327 0.036888 0.047269 255 220 0
0.503973 0.102684 0.079914 255 220 0
0.544331 0.066569 0.070821 255 220 0
0.530993 0.124487 0.014649 255 220 0
0.496906 0.053796 0.022143 255 220 0
0.502202 0.145837 0.078956 255 220 0
0.551599 0.135910 0.096249 255 220 0
0.506441 0.094051 0.019532 255 220 0
0.566922 0.173593 0.053490 255 220 0
0.538221 0.057156 0.016377 255 220 0
0.516033 0.027610 0.056282 255 220 0
0.540274 0.038104 0.048001 255 220 0
0.580843 0.115783 0.061938 255 220 0
0.578149 0.156709 0.062420 255 220 0
0.530990 0.086054 0.081766 255 220 0
0.525450 0.152204 0.027503 255 220 0
0.528574 0.182133 0.068714 255 220 0
0.555415 0.179747 0.050313 255 220 0
0.504495 0.160908 0.062967 255 220 0
0.483551 0.061154 0.047357 255 220 0
0.492880 0.130659 0.069439 255 220 0
0.487726 0.111199 0.061648 255 220 0
0.551629 0.167068 0.092304 255 220 0
0.537469 0.140821 0.097339 255 220 0
0.559984 0.095137 0.078371 255 220 0
0.575680 0.110465 0.071900 255 220 0
0.577236 0.105774 0.066536 255 220 0
0.566310 0.146750 0.090848 255 220 0
0.546570 0.152195 0.024865 255 220 0
0.554707 0.153879 0.027962 255 220 0
0.579953 0.124278 0.045123 255 220 0
0.489648 0.037536 0.028500 255 220 0
0.508166 0.131326 0.086566 255 220 0
0.529325 0.173425 0.044754 255 220 0
0.525990 0.091528 0.083638 255 220 0
0.549791 0.082555 0.015199 255 220 0
0.537619 0.079444 0.078662 255 220 0
0.520974 0.076006 0.011935 255 220 0
0.564775 0.094516 0.023935 255 220 0
0.580858 0.137475 0.057863 255 220 0
0.578754 0.105989 0.062425 255 220 0
0.564122 0.113839 0.084330 255 220 0
0.511294 0.058023 0.015294 255 220 0
0.567254 0.094883 0.026255 255 220 0
0.544125 0.078309 0.077126 255 220 0
0.503637 0.046390 0.019050 255 220 0
0.527636 0.127699 0.016173 255 220 0
0.491715 0.113176 0.070569 255 220 0
0.495651 0.097190 0.073019 255 220 0
0.542288 0.036499 0.039395 255 220 0
0.547979 0.042366 0.041573 255 220 0
0.556856 0.085440 0.075250 255 220 0
0.503726 0.059834 0.068902 255 220 0
0.575424 0.130920 0.079008 255 220 0
0.557486 0.072278 0.066793 255 220 0
0.547256 0.161508 0.031049 255 220 0
0.562294 0.180174 0.076501 255 220 0
0.557012 0.142896 0.095505 255 220 0
0.558758 0.167859 0.040175 255 220 0
0.549580 0.069241 0.018204 255 220 0
0.497233 0.141690 0.073382 255 220 0
0.488396 0.120366 0.056170 255 220 0
0.492036 0.047078 0.025808 255 220 0
0.556889 0.074760 0.021668 255 220 0
0.540994 0.053969 0.064112 255 220 0
0.493467 0.093290 0.031455 255 220 0
0.491829 0.126761 0.046040 255 220 0
0.484174 0.052563 0.055094 255 220 0
0.535279 0.108293 0.089790 255 220 0
0.507054 0.080741 0.075493 255 220 0
0.580484 0.136704 0.053199 255 220 0
0.572359 0.093733 0.032721 255 220 0
0.508013 0.086808 0.077617 255 220 0
0.527952 0.132891 0.017621 255 220 0
0.520371 0.036451 0.059918 255 220 0
0.527831 0.081536 0.010891 255 220 0
0.541629 0.099159 0.086524 255 220 0
0.535184 0.094501 0.010794 255 220 0
0.580492 0.112013 0.060616 255 220 0
0.522054 0.077266 0.011720 255 220 0
0.571814 0.128964 0.083163 255 220 0
0.516777 0.019732 0.044865 255 220 0
0.497198 0.121065 0.034168 255 220 0
0.542893 0.181976 0.082262 255 220 0
0.513342 0.081770 0.014314 255 220 0
0.489801 0.045635 0.061643 255 220 0
0.525039 0.137230 0.019998 255 220 0
0.528465 0.182222 0.065252 255 220 0
0.549700 0.171331 0.039426 255 220 0
0.579915 0.128854 0.068826 255 220 0
0.506855 0.015602 0.037986 255 220 0
0.521355 0.058285 0.013515 255 220 0
0.500825 0.052910 0.019742 255 220 0
0.531199 0.069421 0.074447 255 220 0
0.548067 0.157185 0.096360 255 220 0
0.551159 0.172461 0.089564 255 220 0
0.512571 0.017072 0.041706 255 220 0
0.507411 0.073931 0.016643 255 220 0
0.519267 0.161416 0.087765 255 220 0
0.564283 0.141534 0.028251 255 220 0
0.490605 0.069593 0.030055 255 220 0
0.578068 0.143104 0.048259 255 220 0
0.525396 0.061111 0.012874 255 220 0
0.555916 0.105235 0.016796 255 220 0
0.577675 0.158693 0.067736 255 220 0
0.504856 0.016464 0.048383 255 220 0
0.503456 0.027662 0.025160 255 220 0
0.574253 0.101632 0.069164 255 220 0
0.486488 0.065813 0.056595 255 220 0
0.527474 0.094384 0.011129 255 220 0
0.511124 0.153028 0.037421 255 220 0
0.514242 0.171507 0.072184 255 220 0
0.504738 0.135512 0.083886 255 220 0
0.489871 0.112884 0.067375 255 220 0
0.506441 0.071745 0.072710 255 220 0
0.480096 0.033849 0.042486 255 220 0
0.579672 0.105422 0.055526 255 220 0
0.498327 0.097658 0.026957 255 220 0
0.556025 0.169277 0.039848 255 220 0
0.518074 0.171317 0.079132 255 220 0
0.538534 0.138239 0.018021 255 220 0
0.543329 0.144824 0.020797 255 220 0
0.509441 0.071044 0.073452 255 220 0
0.517059 0.149911 0.090383 255 220 0
0.550245 0.073311 0.072219 255 220 0
0.508403 0.139283 0.030622 255 220 0
0.541220 0.131912 0.096307 255 220 0
0.525266 0.142720 0.094723 255 220 0
0.578662 0.135459 0.073160 255 220 0
0.481128 0.033369 0.052645 255 220 0
0.483516 0.023246 0.043047 255 220 0
0.537357 0.070533 0.012472 255 220 0
0.545684 0.039824 0.035636 255 220 0
0.546998 0.089047 0.013295 255 220 0
0.502851 0.031832 0.023196 255 220 0
0.556090 0.185866 0.065931 255 220 0
0.570331 0.072540 0.049405 255 220 0
0.534915 0.159503 0.094750 255 220 0
0.567041 0.074002 0.032206 255 220 0
0.576468 0.142156 0.079095 255 220 0
0.563969 0.061048 0.044724 255 220 0
0.533250 0.096434 0.085674 255 220 0
0.515864 0.146553 0.028687 255 220 0
0.505415 0.139513 0.033619 255 220 0
0.516375 0.126733 0.020224 255 220 0
0.554141 0.105462 0.015884 255 220 0
0.531297 0.059310 0.069588 255 220 0
0.507902 0.132658 0.028064 255 220 0
0.581126 0.133180 0.054784 255 220 0
0.509615 0.083171 0.077145 255 220 0
0.573208 0.099030 0.068981 255 220 0
0.547871 0.077845 0.075750 255 220 0
0.492944 0.061600 0.064450 255 220 0
0.529609 0.053782 0.014905 255 220 0
0.527383 0.103753 0.087886 255 220 0
0.563976 0.170678 0.046909 255 220 0
0.543345 0.058904 0.018319 255 220 0
0.535525 0.119950 0.093292 255 220 0
0.520068 0.173103 0.052342 255 220 0
0.575293 0.103246 0.035484 255 220 0
0.514288 0.021735 0.051823 255 220 0
0.517253 0.155304 0.033843 255 220 0
0.566317 0.178530 0.061913 255 220 0
0.503814 0.152509 0.077461 255 220 0
0.504156 0.156885 0.052286 255 220 0
0.498385 0.122317 0.078603 255 220 0
0.486938 0.072325 0.056831 255 220 0
0.516000 0.022765 0.051844 255 220 0
0.541243 0.073285 0.013082 255 220 0
0.535953 0.181946 0.053464 255 220 0
0.551472 0.187155 0.066425 255 220 0
0.561481 0.169099 0.043264 255 220 0
0.569447 0.152940 0.039149 255 220 0
0.545958 0.182439 0.051362 255 220 0
0.509669 0.134060 0.087566 255 220 0
0.532551 0.104450 0.088481 255 220 0
0.482449 0.031114 0.054355 255 220 0
0.563953 0.108696 0.082271 255 220 0
0.500232 0.023013 0.028776 255 220 0
0.502006 0.086908 0.074909 255 220 0
0.537828 0.047442 0.020451 255 220 0
0.539999 0.147925 0.022154 255 220 0
0.538965 0.086138 0.011202 255 220 0
0.532662 0.174065 0.043796 255 220 0
0.578038 0.118764 0.039527 255 220 0
0.565464 0.104631 0.079371 255 220 0
0.577259 0.131401 0.040653 255 220 0
0.570768 0.121770 0.081962 255 220 0
0.495048 0.040102 0.024156 255 220 0
0.556216 0.051136 0.037910 255 220 0
0.572861 0.160337 0.049187 255 220 0
0.488610 0.076727 0.060423 255 220 0
0.524902 0.065837 0.073227 255 220 0
0.498740 0.084886 0.024060 255 220 0
0.550863 0.187173 0.064356 255 220 0
0.498882 0.120169 0.079005 255 220 0
0.546407 0.046386 0.052508 255 220 0
0.545255 0.184579 0.078536 255 220 0
0.519846 0.165880 0.042705 255 220 0
0.554763 0.157298 0.095094 255 220 0
0.538445 0.069427 0.073727 255 220 0
0.514818 0.020215 0.048744 255 220 0
0.488222 0.095004 0.062669 255 220 0
0.549143 0.144196 0.097523 255 220 0
0.541840 0.036092 0.034655 255 220 0
0.519067 0.051380 0.015004 255 220 0
0.581465 0.119436 0.060208 255 220 0
0.546023 0.143534 0.097787 255 220 0
0.546456 0.055582 0.021897 255 220 0
0.505718 0.060134 0.069492 255 220 0
0.570972 0.072953 0.043055 255 220 0
0.536782 0.087187 0.082088 255 220 0
0.566056 0.169108 0.084136 255 220 0
0.524975 0.065140 0.012274 255 220 0
0.527849 0.054871 0.067915 255 220 0
0.511220 0.041315 0.063960 255 220 0
0.572836 0.115818 0.077658 255 220 0
0.494584 0.096152 0.030684 255 220 0
0.549051 0.054094 0.024712 255 220 0
0.551021 0.048325 0.049015 255 220 0
0.513025 0.033584 0.021172 255 220 0
0.538831 0.035600 0.029488 255 220 0
0.509690 0.165323 0.073868 255 220 0
0.538480 0.104595 0.011312 255 220 0
0.502086 0.059373 0.068337 255 220 0
0.481006 0.028823 0.041950 255 220 0
0.577300 0.132723 0.076026 255 220 0
0.553884 0.052274 0.050994 255 220 0
0.557063 0.127631 0.092814 255 220 0
0.499561 0.118065 0.030638 255 220 0
0.519400 0.176958 0.064340 255 220 0
0.516182 0.172598 0.057608 255 220 0
0.493813 0.074424 0.027127 255 220 0
0.564405 0.106995 0.081214 255 220 0
0.500971 0.058247 0.019617 255 220 0
0.504683 0.160273 0.058339 255 220 0
0.530121 0.138912 0.019209 255 220 0
0.534505 0.092896 0.084363 255 220 0
0.577994 0.151392 0.054271 255 220 0
0.523874 0.092766 0.083814 255 220 0
0.549428 0.094576 0.083273 255 220 0
0.555620 0.093439 0.017242 255 220 0
0.502186 0.053406 0.067094 255 220 0
0.486968 0.022392 0.037716 255 220 0
0.498487 0.103031 0.027908 255 220 0
0.561876 0.164308 0.089735 255 220 0
0.502057 0.046121 0.019716 255 220 0
0.544183 0.138050 0.018444 255 220 0
0.541936 0.066084 0.071267 255 220 0
0.483314 0.023319 0.043668 255 220 0
0.543983 0.054266 0.020844 255 220 0
0.552575 0.170152 0.039143 255 220 0
0.577868 0.098062 0.057174 255 220 0
0.499148 0.109337 0.028672 255 220 0
0.530602 0.157464 0.094218 255 220 0
0.484935 0.068982 0.050740 255 220 0
0.542872 0.181306 0.049998 255 220 0
0.547425 0.172775 0.089953 255 220 0
0.493603 0.133878 0.047806 255 220 0
0.570192 0.170032 0.054377 255 220 0
0.493413 0.112622 0.036148 255 220 0
0.572323 0.139500 0.085142 255 220 0
0.557948 0.169487 0.041131 255 220 0
0.570977 0.092341 0.067358 255 220 0
0.562003 0.108933 0.020421 255 220 0
0.546989 0.042723 0.045397 255 220 0
0.532099 0.123875 0.094049 255 220 0
0.563323 0.070558 0.029267 255 220 0
0.526021 0.145637 0.023508 255 220 0
0.498927 0.152018 0.058993 255 220 0
0.510172 0.151218 0.085182 255 220 0
0.514506 0.149631 0.031590 255 220 0
0.509268 0.146176 0.033855 255 220 0
0.562272 0.081275 0.068731 255 220 0
0.509966 0.158969 0.081043 255 220 0
0.548873 0.110024 0.013801 255 220 0
0.499615 0.102438 0.077164 255 220 0
0.491066 0.096397 0.035752 255 220 0
0.490577 0.103492 0.068259 255 220 0
0.537129 0.034658 0.028647 255 220 0
0.487260 0.027182 0.033413 255 220 0
0.530929 0.089913 0.083271 255 220 0
0.575804 0.105543 0.036011 255 220 0
0.514165 0.153375 0.087595 255 220 0
0.524372 0.032619 0.055775 255 220 0
0.498844 0.036986 0.022827 255 220 0
0.497294 0.148658 0.058025 255 220 0
0.554657 0.062574 0.024746 255 220 0
0.526339 0.097291 0.011454 255 220 0
0.516718 0.104858 0.085871 255 220 0
0.542293 0.114940 0.012621 255 220 0
0.569131 0.069364 0.042278 255 220 0
0.531435 0.132675 0.095620 255 220 0
0.485903 0.051194 0.058117 255 220 0
0.576944 0.157342 0.074029 255 220 0
0.573210 0.154075 0.045139 255 220 0
0.522177 0.098493 0.012437 255 220 0
0.570678 0.081521 0.034117 255 220 0
0.569740 0.147780 0.088151 255 220 0
0.495874 0.145668 0.064609 255 220 0
0.578592 0.128306 0.072383 255 220 0
0.555335 0.166790 0.091471 255 220 0
0.508436 0.094613 0.079986 255 220 0
0.564493 0.062909 0.037243 255 220 0
0.567427 0.173627 0.078411 255 220 0
0.538099 0.068284 0.073200 255 220 0
0.513560 0.102150 0.016339 255 220 0
0.502565 0.062821 0.018843 255 220 0
0.496180 0.026153 0.028137 255 220 0
0.508425 0.161986 0.076130 255 220 0
0.490441 0.129091 0.059887 255 220 0
0.581511 0.119956 0.060091 255 220 0
0.558582 0.150966 0.028390 255 220 0
0.549875 0.180137 0.048736 255 220 0
0.566851 0.155164 0.037571 255 220 0
0.563766 0.072742 0.028779 255 220 0
0.518699 0.092859 0.012997 255 220 0
0.515430 0.167311 0.049397 255 220 0
0.579111 0.152068 0.065658 255 220 0
0.485829 0.075289 0.042461 255 220 0
0.494306 0.040215 0.062908 255 220 0
0.495828 0.033385 0.062179 255 220 0
0.491700 0.121557 0.042782 255 220 0
0.545711 0.081894 0.013406 255 220 0
0.490835 0.020126 0.036801 255 220 0
0.570324 0.155924 0.086249 255 220 0
0.521050 0.156478 0.090751 255 220 0
0.567858 0.070785 0.053319 255 220 0
0.565770 0.115837 0.083982 255 220 0
0.564545 0.074801 0.028784 255 220 0
0.513684 0.023909 0.054618 255 220 0
0.494159 0.141264 0.062847 255 220 0
0.550367 0.044857 0.035945 255 220 0
0.523486 0.179704 0.066240 255 220 0
0.545652 0.047978 0.055338 255 220 0
0.523191 0.035563 0.058453 255 220 0
0.530319 0.089374 0.010710 255 220 0
0.510420 0.168380 0.067178 255 220 0
0.563736 0.142333 0.028129 255 220 0
0.551917 0.091966 0.015314 255 220 0
0.501124 0.154573 0.069742 255 220 0
0.575775 0.088430 0.042085 255 220 0
0.538955 0.160952 0.030757 255 220 0
0.525121 0.118792 0.091749 255 220 0
0.512974 0.147489 0.031395 255 220 0
0.551302 0.149084 0.097136 255 220 0
0.509858 0.080717 0.076502 255 220 0
0.535259 0.062013 0.013827 255 220 0
0.495021 0.137785 0.070831 255 220 0
0.514876 0.027851 0.056933 255 220 0
0.502694 0.049914 0.018986 255 220 0
0.538713 0.162184 0.094571 255 220 0
0.537442 0.091832 0.010946 255 220 0
0.577029 0.142511 0.077907 255 220 0
0.506168 0.022674 0.028282 255 220 0
0.512069 0.150319 0.087032 255 220 0
0.581087 0.113211 0.053467 255 220 0
0.535772 0.126435 0.014606 255 220 0
0.497097 0.100421 0.028772 255 220 0
0.555310 0.072014 0.068285 255 220 0
0.550958 0.158665 0.029681 255 220 0
0.487335 0.061704 0.058712 255 220 0
0.541680 0.171518 0.090679 255 220 0
0.577302 0.096819 0.042804 255 220 0
0.519892 0.025129 0.027643 255 220 0
0.577417 0.108812 0.068063 255 220 0
0.505277 0.127216 0.028260 255 220 0
0.575981 0.124915 0.036507 255 220 0
0.574222 0.091008 0.061592 255 220 0
0.554690 0.154770 0.095654 255 220 0
0.551228 0.107088 0.087923 255 220 0
0.572438 0.100057 0.031444 255 220 0
0.537439 0.185716 0.067070 255 220 0
0.524548 0.073714 0.076649 255 220 0
0.489699 0.059661 0.029357 255 220 0
0.500956 0.107501 0.079068 255 220 0
0.568957 0.169755 0.051917 255 220 0
0.554076 0.094337 0.016291 255 220 0
0.575549 0.121359 0.035156 255 220 0
0.521190 0.069806 0.074963 255 220 0
0.515409 0.125222 0.020314 255 220 0
0.528519 0.125463 0.093863 255 220 0
0.512758 0.085622 0.078965 255 220 0
0.532194 0.149189 0.023855 255 220 0
0.579198 0.116805 0.042366 255 220 0
0.509710 0.016953 0.045739 255 220 0
0.559759 0.180944 0.055094 255 220 0
0.530377 0.027927 0.043453 255 220 0
0.488030 0.025960 0.057690 255 220 0
0.499589 0.029228 0.025294 255 220 0
0.500055 0.100181 0.076992 255 220 0
0.537953 0.058992 0.068281 255 220 0
0.557879 0.098934 0.081482 255 220 0
0.514921 0.018934 0.033112 255 220 0
0.578547 0.131685 0.043550 255 220 0
0.575440 0.156828 0.051484 255 220 0
0.523266 0.026358 0.049985 255 220 0
0.499991 0.019214 0.032451 255 220 0
0.511570 0.016686 0.041508 255 220 0
0.531792 0.096159 0.085571 255 220 0
0.578341 0.099712 0.046476 255 220 0
0.493259 0.136465 0.052379 255 220 0
0.511086 0.134343 0.026217 255 220 0
0.502038 0.079729 0.073029 255 220 0
0.511193 0.115313 0.086249 255 220 0
0.491157 0.130630 0.053298 255 220 0
0.494078 0.095859 0.031246 255 220 0
0.491045 0.039958 0.061793 255 220 0
0.512448 0.021222 0.029791 255 220 0
0.512735 0.018390 0.046660 255 220 0
0.494770 0.097001 0.072170 255 220 0
0.532278 0.165090 0.034976 255 220 0
0.553866 0.063275 0.063053 255 220 0
0.489094 0.028611 0.031189 255 220 0
0.489133 0.077257 0.034173 255 220 0
0.493654 0.025576 0.059816 255 220 0
0.529474 0.050731 0.065573 255 220 0
0.498558 0.151671 0.060477 255 220 0
0.554636 0.072315 0.020701 255 220 0
0.495923 0.015928 0.042375 255 220 0
0.499309 0.041965 0.021554 255 220 0
0.568661 0.117714 0.082441 255 220 0
0.512781 0.107781 0.017705 255 220 0
0.495422 0.073750 0.067650 255 220 0
0.527183 0.026039 0.044431 255 220 0
0.489685 0.092439 0.037347 255 220 0
0.580233 0.118162 0.065596 255 220 0
0.554355 0.156542 0.095380 255 220 0
0.514484 0.060883 0.071222 255 220 0
0.557701 0.168726 0.040288 255 220 0
0.506269 0.021466 0.029293 255 220 0
0.506911 0.115134 0.084071 255 220 0
0.491379 0.130717 0.052130 255 220 0
0.501520 0.075580 0.071697 255 220 0
0.510185 0.159108 0.045228 255 220 0
0.571298 0.094556 0.068464 255 220 0
0.537198 0.160728 0.094817 255 220 0
0.500590 0.112216 0.079586 255 220 0
0.578686 0.103163 0.045559 255 220 0
0.493813 0.136362 0.068473 255 220 0
0.565294 0.063511 0.038766 255 220 0
0.545672 0.058982 0.065417 255 220 0
0.559688 0.062737 0.056544 255 220 0
0.483146 0.056715 0.049839 255 220 0
0.488998 0.073098 0.033316 255 220 0
0.568161 0.106294 0.025653 255 220 0
0.508160 0.128921 0.026424 255 220 0
0.537066 0.102825 0.011128 255 220 0
0.502229 0.071598 0.019587 255 220 0
0.521588 0.026998 0.026527 255 220 0
0.559365 0.160017 0.092662 255 220 0
0.533447 0.046760 0.062163 255 220 0
0.574527 0.093011 0.036599 255 220 0
0.518004 0.106565 0.086738 255 220 0
0.515732 0.150744 0.031433 255 220 0
0.563939 0.115581 0.021941 255 220 0
0.579048 0.149417 0.057092 255 220 0
0.510448 0.132739 0.088037 255 220 0
0.560435 0.077793 0.068050 255 220 0
0.540981 0.069319 0.073238 255 220 0
0.547506 0.093803 0.013315 255 220 0
0.503466 0.017129 0.050740 255 220 0
0.495182 0.026326 0.060350 255 220 0
0.487761 0.112030 0.048791 255 220 0
0.572498 0.105279 0.030751 255 220 0
0.514054 0.171914 0.061619 255 220 0
0.494626 0.131874 0.072646 255 220 0
0.486713 0.105970 0.051332 255 220 0
0.559780 0.060576 0.053868 255 220 0
0.524772 0.062434 0.071725 255 220 0
0.561251 0.072789 0.063823 255 220 0
0.548630 0.119626 0.014655 255 220 0
0.519283 0.020604 0.043362 255 220 0
0.487228 0.037726 0.059616 255 220 0
0.514154 0.112225 0.017763 255 220 0
0.505270 0.118864 0.025619 255 220 0
0.565197 0.089157 0.025344 255 220 0
0.507636 0.161536 0.052946 255 220 0
0.577992 0.128458 0.073742 255 220 0
0.566795 0.138632 0.029314 255 220 0
0.561715 0.155127 0.032878 255 220 0
0.480769 0.034098 0.040277 255 220 0
0.533657 0.172815 0.041980 255 220 0
0.504665 0.061855 0.069633 255 220 0
0.565012 0.151840 0.091365 255 220 0
0.486211 0.061184 0.056917 255 220 0
0.544464 0.058600 0.019128 255 220 0
0.537342 0.041960 0.023214 255 220 0
0.572999 0.154871 0.045341 255 220 0
0.501801 0.141010 0.038798 255 220 0
0.530103 0.148645 0.024004 255 220 0
0.494021 0.141095 0.060956 255 220 0
0.497943 0.146886 0.071229 255 220 0
0.486299 0.045795 0.058992 255 220 0
0.569872 0.075924 0.055635 255 220 0
0.505538 0.101087 0.021387 255 220 0
0.487738 0.099858 0.062208 255 220 0
0.511613 0.027755 0.024561 255 220 0
0.521593 0.095265 0.084263 255 220 0
0.525737 0.145542 0.094729 255 220 0
0.569895 0.071488 0.040519 255 220 0
0.577296 0.097447 0.059147 255 220 0
0.575544 0.086795 0.053943 255 220 0
0.512321 0.088936 0.079831 255 220 0
0.493892 0.120478 0.073484 255 220 0
0.571129 0.095071 0.068993 255 220 0
0.498453 0.150881 0.057990 255 220 0
0.564928 0.167263 0.044656 255 220 0
0.512729 0.100019 0.016484 255 220 0
0.579174 0.108339 0.044511 255 220 0
0.499673 0.095976 0.025325 255 220 0
0.510222 0.162446 0.078541 255 220 0
0.549545 0.162349 0.094660 255 220 0
0.539570 0.157467 0.096058 255 220 0
0.503156 0.158049 0.057667 255 220 0
0.528852 0.042344 0.019079 255 220 0
0.530827 0.113524 0.091241 255 220 0
0.564157 0.154190 0.034369 255 220 0
0.516288 0.088654 0.080946 255 220 0
0.569171 0.148637 0.036360 255 220 0
0.577591 0.116189 0.038483 255 220 0
0.494015 0.128821 0.042644 255 220 0
0.483754 0.042338 0.056433 255 220 0
0.545009 0.107517 0.012562 255 220 0
0.504224 0.106282 0.080865 255 220 0
0.532739 0.100287 0.010947 255 220 0
0.566537 0.172338 0.081022 255 220 0
0.522859 0.042980 0.017578 255 220 0
0.552399 0.142362 0.096838 255 220 0
0.489055 0.082090 0.061961 255 220 0
0.549606 0.162436 0.094620 255 220 0
0.569601 0.157662 0.042402 255 220 0
0.539632 0.100264 0.011313 255 220 0
0.576296 0.116885 0.035988 255 220 0
0.490652 0.117557 0.042953 255 220 0
0.550971 0.151816 0.096965 255 220 0
0.554867 0.085553 0.076491 255 220 0
0.524435 0.081552 0.011273 255 220 0
0.534652 0.048458 0.018384 255 220 0
0.497088 0.129617 0.076762 255 220 0
0.549095 0.071997 0.017058 255 220 0
0.555567 0.174577 0.086969 255 220 0
0.506052 0.158223 0.076114 255 220 0
0.575267 0.087390 0.041029 255 220 0
0.550310 0.058699 0.023171 255 220 0
0.535612 0.129747 0.015492 255 220 0
0.553746 0.142114 0.022352 255 220 0
0.516905 0.130921 0.021290 255 220 0
0.572551 0.076533 0.048133 255 220 0
0.506393 0.025170 0.058304 255 220 0
0.566338 0.159469 0.039873 255 220 0
