ply
format ascii 1.0
element vertex 1024
property float x
property float y
property float z
property uchar red
property uchar green
property uchar blue
end_header
0.371006 0.232125 0.083698 255 220 0
0.376062 0.121411 0.019562 255 220 0
0.370744 0.071124 0.035049 255 220 0
0.362846 0.074330 0.028550 255 220 0
0.394124 0.148748 0.023434 255 220 0
0.341249 0.126345 0.070117 255 220 0
0.389411 0.181857 0.105745 255 220 0
0.358133 0.094460 0.070180 255 220 0
0.370505 0.066262 0.042487 255 220 0
0.390096 0.165043 0.023305 255 220 0
0.404184 0.154450 0.029623 255 220 0
0.365734 0.088530 0.022951 255 220 0
0.360699 0.110334 0.077161 255 220 0
0.341038 0.149689 0.076968 255 220 0
0.409138 0.217661 0.082051 255 220 0
0.362470 0.220908 0.091098 255 220 0
0.335516 0.092517 0.031437 255 220 0
0.401463 0.195712 0.037521 255 220 0
0.409160 0.127404 0.080902 255 220 0
0.352235 0.218404 0.059107 255 220 0
0.373949 0.075569 0.032867 255 220 0
0.399617 0.209290 0.045137 255 220 0
0.363079 0.064240 0.048422 255 220 0
0.366233 0.199750 0.033801 255 220 0
0.367008 0.177803 0.025281 255 220 0
0.367325 0.078189 0.063140 255 220 0
0.337086 0.065165 0.043773 255 220 0
0.393417 0.227903 0.091759 255 220 0
0.354308 0.176814 0.029193 255 220 0
0.415038 0.134007 0.047168 255 220 0
0.409108 0.109695 0.066494 255 220 0
0.370611 0.125252 0.019259 255 220 0
0.366697 0.132308 0.019777 255 220 0
0.377080 0.157245 0.020561 255 220 0
0.331293 0.139458 0.049607 255 220 0
0.384507 0.231190 0.090764 255 220 0
0.375211 0.181562 0.025206 255 220 0
0.374341 0.091239 0.024271 255 220 0
0.346983 0.138543 0.027029 255 220 0
0.351063 0.154618 0.087532 255 220 0
0.386090 0.115344 0.083793 255 220 0
0.378666 0.074340 0.037750 255 220 0
0.337470 0.198130 0.064197 255 220 0
0.397145 0.197384 0.104582 255 220 0
0.394365 0.145682 0.023561 255 220 0
0.341883 0.117690 0.068269 255 220 0
0.339545 0.159669 0.077822 255 220 0
0.362522 0.076639 0.027051 255 220 0
0.379460 0.146522 0.019802 255 220 0
0.344619 0.101784 0.025478 255 220 0
0.333370 0.182076 0.056034 255 220 0
0.395196 0.184794 0.029605 255 220 0
0.336434 0.148973 0.037221 255 220 0
0.384738 0.113513 0.022412 255 220 0
0.411836 0.122207 0.075025 255 220 0
0.334280 0.091128 0.056911 255 220 0
0.420670 0.157501 0.075197 255 220 0
0.367181 0.210839 0.100196 255 220 0
0.372471 0.149254 0.020060 255 220 0
0.379530 0.175464 0.104967 255 220 0
0.366445 0.133545 0.019871 255 220 0
0.356655 0.138017 0.085911 255 220 0
0.343385 0.070604 0.030435 255 220 0
0.356861 0.178404 0.028540 255 220 0
0.343341 0.197839 0.047178 255 220 0
0.338803 0.186544 0.078464 255 220 0
0.406279 0.178924 0.035001 255 220 0
0.378649 0.234520 0.067143 255 220 0
0.365491 0.205015 0.101298 255 220 0
0.385897 0.206706 0.037938 255 220 0
0.373388 0.217397 0.045280 255 220 0
0.360063 0.080585 0.064722 255 220 0
0.417668 0.142719 0.049854 255 220 0
0.352201 0.076438 0.026247 255 220 0
0.407917 0.161571 0.094827 255 220 0
0.365676 0.208765 0.100181 255 220 0
0.401561 0.097610 0.061588 255 220 0
0.387720 0.124630 0.087898 255 220 0
0.333385 0.103133 0.056008 255 220 0
0.409154 0.194805 0.044286 255 220 0
0.401145 0.200365 0.102139 255 220 0
0.365917 0.130518 0.087211 255 220 0
0.406107 0.184874 0.036843 255 220 0
0.389156 0.195362 0.106753 255 220 0
0.335399 0.153410 0.070592 255 220 0
0.334345 0.084866 0.056469 255 220 0
0.388265 0.129043 0.089694 255 220 0
0.399013 0.200748 0.038859 255 220 0
0.420347 0.156178 0.053418 255 220 0
0.356076 0.091466 0.068462 255 220 0
0.342006 0.149363 0.031424 255 220 0
0.413672 0.208853 0.070410 255 220 0
0.412412 0.210561 0.067454 255 220 0
0.352701 0.191191 0.094655 255 220 0
0.387344 0.218946 0.100348 255 220 0
0.329456 0.088985 0.047824 255 220 0
0.382120 0.197503 0.031763 255 220 0
0.380672 0.140343 0.094523 255 220 0
0.345706 0.104870 0.025029 255 220 0
0.385065 0.220798 0.048534 255 220 0
0.332549 0.126575 0.055113 255 220 0
0.398891 0.223129 0.058391 255 220 0
0.411025 0.151435 0.089522 255 220 0
0.417678 0.196645 0.071589 255 220 0
0.391619 0.099686 0.030561 255 220 0
0.390698 0.083822 0.055449 255 220 0
0.409254 0.186883 0.095974 255 220 0
0.397059 0.231975 0.078076 255 220 0
0.356912 0.201346 0.038851 255 220 0
0.354632 0.063820 0.036258 255 220 0
0.341303 0.158526 0.079603 255 220 0
0.380368 0.183272 0.025715 255 220 0
0.390206 0.112963 0.081719 255 220 0
0.353367 0.141563 0.024171 255 220 0
0.382728 0.235989 0.079228 255 220 0
0.360740 0.223780 0.086150 255 220 0
0.362917 0.140666 0.089748 255 220 0
0.414249 0.207955 0.074214 255 220 0
0.363901 0.196165 0.032596 255 220 0
0.355524 0.163714 0.093071 255 220 0
0.348614 0.213793 0.057903 255 220 0
0.379054 0.206850 0.105323 255 220 0
0.329023 0.086025 0.046687 255 220 0
0.400050 0.130805 0.027831 255 220 0
0.410820 0.172345 0.037645 255 220 0
0.417620 0.196895 0.070951 255 220 0
0.342932 0.208888 0.067167 255 220 0
0.332211 0.120408 0.049589 255 220 0
0.412369 0.212473 0.077271 255 220 0
0.339166 0.199239 0.056003 255 220 0
0.379031 0.135883 0.092733 255 220 0
0.392846 0.116825 0.083040 255 220 0
0.417335 0.171656 0.047123 255 220 0
0.361217 0.153474 0.093171 255 220 0
0.368764 0.200886 0.103821 255 220 0
0.376691 0.189439 0.106573 255 220 0
0.332965 0.107748 0.054851 255 220 0
0.393837 0.142858 0.094095 255 220 0
0.331883 0.150497 0.062442 255 220 0
0.418780 0.159133 0.081107 255 220 0
0.409918 0.108268 0.057873 255 220 0
0.348551 0.125747 0.076454 255 220 0
0.343386 0.164529 0.083253 255 220 0
0.331421 0.099301 0.040010 255 220 0
0.347247 0.134713 0.078364 255 220 0
0.367906 0.204742 0.102621 255 220 0
0.339355 0.193056 0.077390 255 220 0
0.405775 0.221346 0.066836 255 220 0
0.359912 0.063120 0.047823 255 220 0
0.405944 0.174946 0.033565 255 220 0
0.335438 0.167008 0.041742 255 220 0
0.382635 0.155184 0.099629 255 220 0
0.328958 0.084830 0.046703 255 220 0
0.349154 0.180929 0.091411 255 220 0
0.364575 0.175618 0.100434 255 220 0
0.400052 0.094568 0.048693 255 220 0
0.371336 0.122696 0.085782 255 220 0
0.421298 0.174287 0.074823 255 220 0
0.396608 0.088927 0.052042 255 220 0
0.418361 0.157564 0.047953 255 220 0
0.344586 0.158960 0.083167 255 220 0
0.333263 0.086039 0.055417 255 220 0
0.374298 0.174556 0.103840 255 220 0
0.380822 0.166048 0.021882 255 220 0
0.378807 0.177183 0.105246 255 220 0
0.353904 0.140481 0.023850 255 220 0
0.363637 0.091268 0.022025 255 220 0
0.372650 0.129658 0.089103 255 220 0
0.370601 0.233262 0.077185 255 220 0
0.403286 0.102052 0.045873 255 220 0
0.345625 0.113411 0.025636 255 220 0
0.396976 0.224847 0.058660 255 220 0
0.337385 0.176642 0.042563 255 220 0
0.370456 0.186094 0.104669 255 220 0
0.332585 0.146602 0.043862 255 220 0
0.357816 0.115141 0.077983 255 220 0
0.386712 0.098878 0.073651 255 220 0
0.361229 0.076966 0.026575 255 220 0
0.382974 0.200539 0.033555 255 220 0
0.342663 0.085120 0.026530 255 220 0
0.390687 0.234904 0.078587 255 220 0
0.332275 0.152795 0.044672 255 220 0
0.361466 0.225086 0.085140 255 220 0
0.349470 0.156898 0.027452 255 220 0
0.369153 0.072871 0.058080 255 220 0
0.331404 0.106118 0.048826 255 220 0
0.355167 0.061661 0.041602 255 220 0
0.380533 0.223365 0.097574 255 220 0
0.384435 0.076234 0.050137 255 220 0
0.405913 0.104252 0.064575 255 220 0
0.396295 0.100633 0.035126 255 220 0
0.375546 0.183416 0.025738 255 220 0
0.331822 0.087326 0.053592 255 220 0
0.346367 0.157972 0.029268 255 220 0
0.377257 0.235030 0.081208 255 220 0
0.389601 0.118632 0.023490 255 220 0
0.419591 0.139135 0.070474 255 220 0
0.360589 0.085197 0.066835 255 220 0
0.396199 0.089169 0.047426 255 220 0
0.360624 0.142754 0.021800 255 220 0
0.417502 0.197322 0.070592 255 220 0
0.338680 0.106571 0.062958 255 220 0
0.346328 0.205341 0.083503 255 220 0
0.415586 0.158709 0.042685 255 220 0
0.366245 0.228800 0.084973 255 220 0
0.338638 0.129786 0.068235 255 220 0
0.405069 0.181683 0.034874 255 220 0
0.350958 0.061772 0.041414 255 220 0
0.410701 0.173109 0.094341 255 220 0
0.397505 0.107217 0.075215 255 220 0
0.367324 0.066510 0.050127 255 220 0
0.349869 0.153747 0.086361 255 220 0
0.379084 0.177182 0.105274 255 220 0
0.419279 0.181664 0.079717 255 220 0
0.375402 0.078317 0.060710 255 220 0
0.341974 0.195576 0.081432 255 220 0
0.377079 0.089481 0.069379 255 220 0
0.399256 0.109321 0.075800 255 220 0
0.387595 0.095497 0.029383 255 220 0
0.331407 0.150494 0.060873 255 220 0
0.382148 0.230838 0.059431 255 220 0
0.421006 0.145371 0.066122 255 220 0
0.338338 0.129643 0.067816 255 220 0
0.359876 0.122494 0.020678 255 220 0
0.348509 0.203617 0.087517 255 220 0
0.403806 0.181513 0.100382 255 220 0
0.383279 0.207429 0.037837 255 220 0
0.331692 0.089619 0.035825 255 220 0
0.371942 0.077896 0.061712 255 220 0
0.372251 0.190274 0.028244 255 220 0
0.338760 0.083694 0.028629 255 220 0
0.400284 0.123754 0.029287 255 220 0
0.407049 0.114505 0.041969 255 220 0
0.366673 0.069941 0.055940 255 220 0
0.402702 0.140654 0.090458 255 220 0
0.346518 0.090081 0.024594 255 220 0
0.385785 0.077295 0.050024 255 220 0
0.335184 0.094962 0.032165 255 220 0
0.393043 0.206781 0.040148 255 220 0
0.409143 0.170958 0.095463 255 220 0
0.332833 0.160284 0.066923 255 220 0
0.332993 0.177058 0.066312 255 220 0
0.421992 0.156191 0.067215 255 220 0
0.353648 0.140046 0.084809 255 220 0
0.361037 0.123255 0.020436 255 220 0
0.398545 0.129356 0.087208 255 220 0
0.414724 0.125534 0.073276 255 220 0
0.389519 0.125896 0.088142 255 220 0
0.354315 0.220736 0.080996 255 220 0
0.372846 0.167130 0.101620 255 220 0
0.356276 0.173139 0.027452 255 220 0
0.373913 0.233092 0.066017 255 220 0
0.401180 0.116408 0.079466 255 220 0
0.384902 0.229485 0.057932 255 220 0
0.377639 0.226392 0.094831 255 220 0
0.350269 0.128517 0.078663 255 220 0
0.350158 0.075236 0.061425 255 220 0
0.420725 0.151236 0.071955 255 220 0
0.398343 0.125285 0.027401 255 220 0
0.403221 0.100217 0.062999 255 220 0
0.371077 0.075806 0.060145 255 220 0
0.366600 0.229570 0.083803 255 220 0
0.383068 0.141111 0.094823 255 220 0
0.360634 0.091897 0.021794 255 220 0
0.383064 0.124901 0.088424 255 220 0
0.352462 0.087085 0.023287 255 220 0
0.403914 0.151215 0.029461 255 220 0
0.344152 0.196240 0.045045 255 220 0
0.412065 0.201846 0.054563 255 220 0
0.369174 0.082408 0.065702 255 220 0
0.358750 0.223374 0.058583 255 220 0
0.378415 0.168990 0.022287 255 220 0
0.334931 0.150961 0.039458 255 220 0
0.407467 0.201814 0.046771 255 220 0
0.405065 0.218856 0.089728 255 220 0
0.419046 0.184840 0.078908 255 220 0
0.332973 0.113278 0.040899 255 220 0
0.331934 0.170436 0.051644 255 220 0
0.401406 0.097735 0.047101 255 220 0
0.375755 0.234162 0.067970 255 220 0
0.383041 0.185167 0.106670 255 220 0
0.344206 0.211002 0.068300 255 220 0
0.362772 0.110713 0.020063 255 220 0
0.341655 0.152177 0.031944 255 220 0
0.339808 0.115653 0.065686 255 220 0
0.390147 0.140064 0.021988 255 220 0
0.397565 0.218786 0.052246 255 220 0
0.405784 0.127314 0.034118 255 220 0
0.355457 0.206472 0.043497 255 220 0
0.390229 0.158293 0.022499 255 220 0
0.396240 0.133601 0.025059 255 220 0
0.409526 0.217771 0.072161 255 220 0
0.375918 0.141740 0.094532 255 220 0
0.364060 0.107828 0.077194 255 220 0
0.338533 0.167569 0.037681 255 220 0
0.357485 0.143362 0.022815 255 220 0
0.344532 0.134986 0.076038 255 220 0
0.420599 0.162887 0.053742 255 220 0
0.352533 0.062353 0.048801 255 220 0
0.348293 0.202671 0.087669 255 220 0
0.388876 0.218330 0.047381 255 220 0
0.361009 0.127322 0.020630 255 220 0
0.354955 0.185053 0.031490 255 220 0
0.379185 0.167681 0.022074 255 220 0
0.374815 0.114976 0.019865 255 220 0
0.331371 0.142995 0.047953 255 220 0
0.415152 0.197792 0.058314 255 220 0
0.347164 0.211557 0.079475 255 220 0
0.350952 0.215664 0.056863 255 220 0
0.347092 0.110193 0.070556 255 220 0
0.337054 0.083778 0.058609 255 220 0
0.416979 0.198810 0.068763 255 220 0
0.361130 0.217349 0.092793 255 220 0
0.340431 0.157418 0.033606 255 220 0
0.331351 0.070900 0.043572 255 220 0
0.418547 0.192884 0.068377 255 220 0
0.410310 0.141336 0.036997 255 220 0
0.402740 0.100665 0.064505 255 220 0
0.353750 0.157414 0.025647 255 220 0
0.391857 0.088576 0.061159 255 220 0
0.375812 0.075586 0.034125 255 220 0
0.395310 0.087280 0.051211 255 220 0
0.339703 0.098877 0.062667 255 220 0
0.358952 0.211210 0.045293 255 220 0
0.360673 0.112807 0.078130 255 220 0
0.386077 0.221709 0.098818 255 220 0
0.406864 0.165250 0.032488 255 220 0
0.331503 0.165535 0.062995 255 220 0
0.411299 0.131061 0.041006 255 220 0
0.347703 0.118207 0.073347 255 220 0
0.338041 0.161833 0.076348 255 220 0
0.335608 0.075319 0.056218 255 220 0
0.396903 0.229705 0.085903 255 220 0
0.330507 0.149994 0.055854 255 220 0
0.395827 0.220548 0.096859 255 220 0
0.341370 0.074563 0.059202 255 220 0
0.379675 0.077320 0.035534 255 220 0
0.337454 0.071456 0.032697 255 220 0
0.416060 0.125248 0.055468 255 220 0
0.363858 0.067606 0.054284 255 220 0
0.418387 0.143431 0.076118 255 220 0
0.353558 0.150050 0.087912 255 220 0
0.383020 0.192092 0.029222 255 220 0
0.419806 0.161217 0.051289 255 220 0
0.411347 0.113352 0.052876 255 220 0
0.344490 0.079946 0.061549 255 220 0
0.419099 0.152170 0.077484 255 220 0
0.349144 0.069792 0.029784 255 220 0
0.402959 0.227028 0.074097 255 220 0
0.357171 0.155365 0.091707 255 220 0
0.403381 0.197082 0.039643 255 220 0
0.388392 0.083489 0.057873 255 220 0
0.386223 0.172963 0.104438 255 220 0
0.409175 0.209198 0.091124 255 220 0
0.339129 0.188245 0.078664 255 220 0
0.351217 0.079042 0.062909 255 220 0
0.367323 0.226174 0.056340 255 220 0
0.331850 0.174163 0.061626 255 220 0
0.392582 0.084096 0.047896 255 220 0
0.379162 0.174666 0.104760 255 220 0
0.418288 0.134777 0.055904 255 220 0
0.352374 0.162340 0.026939 255 220 0
0.361932 0.088659 0.022497 255 220 0
0.358135 0.225850 0.065005 255 220 0
0.392791 0.131639 0.089863 255 220 0
0.408381 0.214386 0.088666 255 220 0
0.354636 0.095538 0.021922 255 220 0
0.331030 0.140678 0.051840 255 220 0
0.399494 0.106244 0.073309 255 220 0
0.337963 0.150960 0.035451 255 220 0
0.357731 0.184241 0.098228 255 220 0
0.381200 0.072883 0.046647 255 220 0
0.329107 0.088962 0.044725 255 220 0
0.390935 0.132413 0.090602 255 220 0
0.355366 0.185321 0.096709 255 220 0
0.349363 0.113503 0.073055 255 220 0
0.370924 0.221101 0.049302 255 220 0
0.361977 0.120606 0.081734 255 220 0
0.344923 0.068364 0.031646 255 220 0
0.404927 0.202340 0.098836 255 220 0
0.384120 0.184340 0.026380 255 220 0
0.374907 0.117782 0.019660 255 220 0
0.418610 0.185725 0.079940 255 220 0
0.386594 0.138884 0.093778 255 220 0
0.342588 0.207911 0.070169 255 220 0
0.352941 0.133685 0.023616 255 220 0
0.383932 0.102598 0.024537 255 220 0
0.417307 0.128247 0.057574 255 220 0
0.373418 0.173137 0.023284 255 220 0
0.364946 0.121382 0.083122 255 220 0
0.345342 0.210648 0.076069 255 220 0
0.394321 0.231953 0.067109 255 220 0
0.404718 0.182481 0.034847 255 220 0
0.381935 0.089645 0.028455 255 220 0
0.420210 0.147478 0.072299 255 220 0
0.381852 0.206574 0.037026 255 220 0
0.352420 0.195844 0.093899 255 220 0
0.372287 0.229022 0.058394 255 220 0
0.404418 0.165709 0.030497 255 220 0
0.399898 0.151487 0.095654 255 220 0
0.341467 0.170956 0.082285 255 220 0
0.341385 0.164985 0.034140 255 220 0
0.362924 0.167075 0.097741 255 220 0
0.392011 0.187114 0.105916 255 220 0
0.407305 0.218517 0.065511 255 220 0
0.337004 0.068641 0.035519 255 220 0
0.376039 0.233797 0.084438 255 220 0
0.366275 0.075319 0.029095 255 220 0
0.397502 0.091509 0.046695 255 220 0
0.350105 0.161313 0.027788 255 220 0
0.401297 0.116227 0.032624 255 220 0
0.388254 0.148411 0.097058 255 220 0
0.366592 0.230443 0.065642 255 220 0
0.356767 0.125627 0.021666 255 220 0
0.384328 0.158336 0.100571 255 220 0
0.357931 0.181791 0.029088 255 220 0
0.398077 0.103463 0.035585 255 220 0
0.412668 0.190483 0.091228 255 220 0
0.415383 0.133219 0.077374 255 220 0
0.418666 0.140071 0.074120 255 220 0
0.366371 0.132164 0.088021 255 220 0
0.407395 0.219641 0.083904 255 220 0
0.394500 0.162732 0.100570 255 220 0
0.387358 0.199439 0.033826 255 220 0
0.359329 0.096464 0.071284 255 220 0
0.411529 0.126293 0.043393 255 220 0
0.337291 0.131712 0.067074 255 220 0
0.409011 0.180253 0.037990 255 220 0
0.380464 0.126819 0.089208 255 220 0
0.374382 0.234545 0.079389 255 220 0
0.348042 0.137353 0.026308 255 220 0
0.413347 0.115308 0.058448 255 220 0
0.360256 0.064902 0.036278 255 220 0
0.335865 0.188403 0.070771 255 220 0
0.331355 0.143288 0.057976 255 220 0
0.359645 0.194239 0.099612 255 220 0
0.357794 0.197689 0.036048 255 220 0
0.419103 0.159975 0.080666 255 220 0
0.413085 0.143837 0.040514 255 220 0
0.351787 0.173861 0.092687 255 220 0
0.399086 0.107439 0.074489 255 220 0
0.367975 0.112647 0.019652 255 220 0
0.332745 0.125799 0.055678 255 220 0
0.378128 0.128572 0.089735 255 220 0
0.343007 0.077276 0.027754 255 220 0
0.398080 0.118270 0.028771 255 220 0
0.387527 0.149396 0.021242 255 220 0
0.387418 0.145352 0.096066 255 220 0
0.409977 0.136330 0.037461 255 220 0
0.400098 0.229362 0.071458 255 220 0
0.345682 0.131064 0.075813 255 220 0
0.369372 0.168894 0.100785 255 220 0
0.375030 0.226974 0.093583 255 220 0
0.416280 0.172945 0.087695 255 220 0
0.394159 0.091283 0.062297 255 220 0
0.373861 0.166630 0.022019 255 220 0
0.404564 0.120882 0.080276 255 220 0
0.395813 0.193763 0.033389 255 220 0
0.383714 0.228211 0.056098 255 220 0
0.386795 0.234597 0.083522 255 220 0
0.335885 0.121892 0.036196 255 220 0
0.407754 0.149166 0.033139 255 220 0
0.401125 0.227905 0.082027 255 220 0
0.358303 0.064605 0.052062 255 220 0
0.398694 0.163388 0.026445 255 220 0
0.412918 0.209513 0.067563 255 220 0
0.386785 0.224274 0.097000 255 220 0
0.368308 0.220560 0.049568 255 220 0
0.367646 0.140899 0.020110 255 220 0
0.415107 0.151893 0.042452 255 220 0
0.399791 0.100949 0.040213 255 220 0
0.348688 0.114149 0.072808 255 220 0
0.393470 0.144350 0.094739 255 220 0
0.384314 0.084642 0.062451 255 220 0
0.338502 0.151001 0.074384 255 220 0
0.379394 0.115683 0.084198 255 220 0
0.389014 0.170068 0.023887 255 220 0
0.355201 0.098887 0.021632 255 220 0
0.336979 0.193967 0.070161 255 220 0
0.375555 0.186478 0.106126 255 220 0
0.364731 0.139212 0.020536 255 220 0
0.406313 0.222252 0.070668 255 220 0
0.395399 0.103177 0.032454 255 220 0
0.359415 0.075163 0.062086 255 220 0
0.384886 0.085923 0.063422 255 220 0
0.416123 0.165427 0.087453 255 220 0
0.413195 0.206219 0.084322 255 220 0
0.362685 0.135317 0.087769 255 220 0
0.378657 0.198256 0.031783 255 220 0
0.365017 0.230438 0.068960 255 220 0
0.396966 0.227877 0.062835 255 220 0
0.345318 0.208219 0.055486 255 220 0
0.332907 0.107184 0.039022 255 220 0
0.332284 0.178025 0.058687 255 220 0
0.330761 0.158028 0.050703 255 220 0
0.376944 0.217366 0.100611 255 220 0
0.362117 0.191012 0.101245 255 220 0
0.390594 0.145075 0.095548 255 220 0
0.407472 0.160499 0.094873 255 220 0
0.411054 0.155575 0.090857 255 220 0
0.391132 0.197451 0.106318 255 220 0
0.399096 0.198743 0.037704 255 220 0
0.405330 0.200835 0.043652 255 220 0
0.421909 0.172975 0.071167 255 220 0
0.346123 0.082781 0.025591 255 220 0
0.339535 0.180072 0.080382 255 220 0
0.375249 0.220482 0.047825 255 220 0
0.357317 0.140731 0.087175 255 220 0
0.406328 0.128813 0.034384 255 220 0
0.370043 0.128752 0.087946 255 220 0
0.381200 0.121231 0.020416 255 220 0
0.416551 0.141672 0.047576 255 220 0
0.417611 0.186859 0.082394 255 220 0
0.414074 0.155615 0.087675 255 220 0
0.391915 0.164186 0.101497 255 220 0
0.371097 0.103172 0.020775 255 220 0
0.417906 0.142238 0.050658 255 220 0
0.376633 0.127733 0.089176 255 220 0
0.362653 0.091532 0.021909 255 220 0
0.385307 0.173255 0.023762 255 220 0
0.330879 0.160601 0.060335 255 220 0
0.333626 0.144896 0.065115 255 220 0
0.390153 0.083919 0.056426 255 220 0
0.394480 0.090064 0.060310 255 220 0
0.389020 0.135134 0.092046 255 220 0
0.342911 0.107633 0.066820 255 220 0
0.404291 0.181289 0.100034 255 220 0
0.393032 0.121561 0.085349 255 220 0
0.397217 0.208391 0.043073 255 220 0
0.392911 0.229919 0.089532 255 220 0
0.380775 0.193574 0.107153 255 220 0
0.404125 0.215568 0.055590 255 220 0
0.405029 0.115679 0.037872 255 220 0
0.334650 0.189379 0.063344 255 220 0
0.333486 0.166903 0.045383 255 220 0
0.349320 0.092232 0.023481 255 220 0
0.410334 0.121594 0.043595 255 220 0
0.379067 0.102646 0.077502 255 220 0
0.348103 0.138702 0.026390 255 220 0
0.340608 0.172845 0.037061 255 220 0
0.330471 0.099044 0.046888 255 220 0
0.363303 0.158074 0.095454 255 220 0
0.343223 0.128955 0.072894 255 220 0
0.419118 0.185828 0.078018 255 220 0
0.420042 0.141592 0.058672 255 220 0
0.343223 0.135153 0.074847 255 220 0
0.384991 0.178525 0.024896 255 220 0
0.361902 0.084313 0.066590 255 220 0
0.387875 0.126902 0.021827 255 220 0
0.370486 0.148973 0.095527 255 220 0
0.394581 0.140058 0.023846 255 220 0
0.416348 0.161582 0.086334 255 220 0
0.382269 0.122510 0.020568 255 220 0
0.399344 0.179451 0.102537 255 220 0
0.364669 0.066709 0.052396 255 220 0
0.350276 0.166684 0.028647 255 220 0
0.372803 0.231442 0.087042 255 220 0
0.373213 0.126882 0.019230 255 220 0
0.333090 0.092651 0.055538 255 220 0
0.381348 0.182895 0.025659 255 220 0
0.366288 0.230338 0.065737 255 220 0
0.396082 0.218720 0.051115 255 220 0
0.412459 0.178815 0.092599 255 220 0
0.358309 0.061917 0.042426 255 220 0
0.381038 0.103640 0.023101 255 220 0
0.359755 0.097992 0.021033 255 220 0
0.365882 0.118328 0.082162 255 220 0
0.372132 0.207612 0.103529 255 220 0
0.377563 0.222587 0.097583 255 220 0
0.362075 0.063757 0.048002 255 220 0
0.366895 0.119004 0.019504 255 220 0
0.349061 0.210504 0.084019 255 220 0
0.414088 0.188819 0.048455 255 220 0
0.346181 0.114889 0.025430 255 220 0
0.418815 0.191877 0.072143 255 220 0
0.384985 0.106548 0.023936 255 220 0
0.411174 0.151720 0.036876 255 220 0
0.410643 0.208471 0.088887 255 220 0
0.352351 0.063276 0.051114 255 220 0
0.360188 0.073162 0.028586 255 220 0
0.407301 0.151492 0.092344 255 220 0
0.331916 0.112420 0.048365 255 220 0
0.387370 0.139727 0.021117 255 220 0
0.361571 0.199180 0.035168 255 220 0
0.350551 0.219587 0.067133 255 220 0
0.337422 0.184004 0.076315 255 220 0
0.330453 0.160083 0.056697 255 220 0
0.343820 0.119808 0.070652 255 220 0
0.331838 0.079565 0.034867 255 220 0
0.417652 0.154706 0.081748 255 220 0
0.354317 0.142967 0.023917 255 220 0
0.401736 0.216883 0.054125 255 220 0
0.351320 0.219887 0.075028 255 220 0
0.394516 0.184202 0.029113 255 220 0
0.397778 0.191069 0.033147 255 220 0
0.346285 0.119238 0.072560 255 220 0
0.346071 0.199095 0.086253 255 220 0
0.384228 0.122665 0.087401 255 220 0
0.361852 0.185014 0.028704 255 220 0
0.366027 0.182178 0.102326 255 220 0
0.351936 0.192399 0.093912 255 220 0
0.409550 0.185603 0.095673 255 220 0
0.328766 0.079663 0.044617 255 220 0
0.334824 0.069115 0.037381 255 220 0
0.396066 0.116292 0.027712 255 220 0
0.394738 0.087137 0.054117 255 220 0
0.404475 0.135106 0.031138 255 220 0
0.360383 0.077200 0.026292 255 220 0
0.391362 0.234845 0.077043 255 220 0
0.411709 0.121275 0.074465 255 220 0
0.360677 0.209442 0.096718 255 220 0
0.415488 0.121710 0.057310 255 220 0
0.405143 0.192540 0.099837 255 220 0
0.407795 0.109362 0.068367 255 220 0
0.363147 0.145956 0.091607 255 220 0
0.369422 0.192391 0.029430 255 220 0
0.357920 0.185314 0.030257 255 220 0
0.373370 0.172169 0.023089 255 220 0
0.409903 0.151843 0.035325 255 220 0
0.367960 0.107978 0.078366 255 220 0
0.362447 0.178248 0.026567 255 220 0
0.419103 0.182415 0.079940 255 220 0
0.344905 0.131546 0.075270 255 220 0
0.406431 0.148854 0.091923 255 220 0
0.380621 0.127310 0.089423 255 220 0
0.334761 0.108832 0.058373 255 220 0
0.388096 0.099470 0.027911 255 220 0
0.356836 0.153203 0.090870 255 220 0
0.406233 0.218901 0.063651 255 220 0
0.399325 0.105180 0.036149 255 220 0
0.362068 0.169905 0.098047 255 220 0
0.363747 0.220289 0.051147 255 220 0
0.421580 0.151324 0.061780 255 220 0
0.359616 0.069006 0.057669 255 220 0
0.368601 0.201444 0.034168 255 220 0
0.402391 0.227615 0.077848 255 220 0
0.339009 0.200595 0.069019 255 220 0
0.349262 0.203619 0.045807 255 220 0
0.333765 0.170358 0.069772 255 220 0
0.332194 0.118945 0.048360 255 220 0
0.361173 0.070087 0.058301 255 220 0
0.399375 0.119189 0.029637 255 220 0
0.377833 0.229655 0.057905 255 220 0
0.386918 0.236019 0.075594 255 220 0
0.405395 0.217054 0.059422 255 220 0
0.414442 0.200944 0.059785 255 220 0
0.387849 0.230335 0.059898 255 220 0
0.340502 0.182900 0.081725 255 220 0
0.361341 0.154086 0.093413 255 220 0
0.329317 0.077544 0.046845 255 220 0
0.392608 0.158937 0.099858 255 220 0
0.355826 0.068619 0.030914 255 220 0
0.338779 0.134927 0.069987 255 220 0
0.393488 0.093688 0.036628 255 220 0
0.394163 0.194137 0.032886 255 220 0
0.397946 0.131848 0.026227 255 220 0
0.378689 0.221169 0.048226 255 220 0
0.422401 0.167112 0.065618 255 220 0
0.395170 0.154770 0.098046 255 220 0
0.421159 0.179762 0.065569 255 220 0
0.398905 0.172175 0.101465 255 220 0
0.352785 0.085271 0.023584 255 220 0
0.403437 0.098868 0.059667 255 220 0
0.413555 0.208970 0.069881 255 220 0
0.332279 0.123582 0.052043 255 220 0
0.360605 0.114495 0.078777 255 220 0
0.355926 0.130076 0.022208 255 220 0
0.387178 0.235907 0.073456 255 220 0
0.334076 0.168250 0.070469 255 220 0
0.388680 0.094616 0.069467 255 220 0
0.376431 0.233911 0.084400 255 220 0
0.367405 0.212555 0.042667 255 220 0
0.378780 0.207859 0.105005 255 220 0
0.372820 0.118514 0.084362 255 220 0
0.361331 0.067340 0.055149 255 220 0
0.330916 0.141933 0.052828 255 220 0
0.372743 0.194743 0.105816 255 220 0
0.391621 0.083244 0.051929 255 220 0
0.378392 0.096760 0.023986 255 220 0
0.417355 0.168998 0.085889 255 220 0
0.369777 0.194002 0.104867 255 220 0
0.400786 0.102150 0.040862 255 220 0
0.344505 0.108024 0.068128 255 220 0
0.414809 0.121365 0.068872 255 220 0
0.367869 0.136640 0.090282 255 220 0
0.393413 0.219398 0.098694 255 220 0
0.384809 0.110525 0.022972 255 220 0
0.365484 0.103353 0.075744 255 220 0
0.351868 0.089109 0.066383 255 220 0
0.402546 0.166065 0.098701 255 220 0
0.349415 0.141552 0.025949 255 220 0
0.402063 0.100895 0.044558 255 220 0
0.394288 0.096503 0.067968 255 220 0
0.370516 0.079148 0.028346 255 220 0
0.390907 0.082384 0.046035 255 220 0
0.345744 0.213368 0.067259 255 220 0
0.397338 0.150261 0.025004 255 220 0
0.341632 0.107093 0.065682 255 220 0
0.332918 0.074547 0.035043 255 220 0
0.407183 0.182985 0.097930 255 220 0
0.396108 0.100637 0.070670 255 220 0
0.381986 0.178195 0.105642 255 220 0
0.353863 0.163571 0.026528 255 220 0
0.358358 0.224762 0.061645 255 220 0
0.358097 0.219951 0.054471 255 220 0
0.350254 0.119651 0.023716 255 220 0
0.393453 0.157196 0.099172 255 220 0
0.359904 0.103317 0.020649 255 220 0
0.347327 0.207342 0.051356 255 220 0
0.386316 0.184684 0.026838 255 220 0
0.364841 0.142392 0.091118 255 220 0
0.416313 0.200470 0.077117 255 220 0
0.355297 0.141911 0.086425 255 220 0
0.378964 0.144460 0.095908 255 220 0
0.410801 0.139961 0.037891 255 220 0
0.342254 0.101073 0.064948 255 220 0
0.340110 0.068080 0.033910 255 220 0
0.354054 0.148385 0.024523 255 220 0
0.387389 0.214782 0.102471 255 220 0
0.360941 0.091251 0.021913 255 220 0
0.399537 0.184207 0.031743 255 220 0
0.377021 0.115150 0.083690 255 220 0
0.334392 0.069215 0.037867 255 220 0
0.398940 0.100706 0.039001 255 220 0
0.398841 0.217614 0.052062 255 220 0
0.415391 0.147393 0.082998 255 220 0
0.354318 0.154741 0.025098 255 220 0
0.356940 0.207249 0.094653 255 220 0
0.332788 0.115221 0.042190 255 220 0
0.385562 0.229038 0.057498 255 220 0
0.373979 0.222808 0.096446 255 220 0
0.341493 0.180097 0.038944 255 220 0
0.408988 0.218844 0.072991 255 220 0
0.346070 0.158248 0.029485 255 220 0
0.398960 0.190089 0.103907 255 220 0
0.402992 0.217219 0.056048 255 220 0
0.405068 0.142023 0.089963 255 220 0
0.415304 0.155790 0.042376 255 220 0
0.392053 0.090595 0.063403 255 220 0
0.358597 0.173759 0.097148 255 220 0
0.413260 0.118002 0.053359 255 220 0
0.380806 0.191505 0.028749 255 220 0
0.341836 0.198964 0.050189 255 220 0
0.341798 0.199913 0.078686 255 220 0
0.367006 0.195578 0.031367 255 220 0
0.361322 0.192093 0.031586 255 220 0
0.396601 0.130790 0.088463 255 220 0
0.343198 0.207421 0.074335 255 220 0
0.405862 0.156126 0.031056 255 220 0
0.335592 0.150476 0.070158 255 220 0
0.344177 0.141962 0.029190 255 220 0
0.330811 0.150777 0.058362 255 220 0
0.389683 0.081348 0.044650 255 220 0
0.342051 0.072638 0.029787 255 220 0
0.362008 0.139248 0.088887 255 220 0
0.421826 0.153660 0.062324 255 220 0
0.344495 0.202316 0.082342 255 220 0
0.367241 0.080387 0.064606 255 220 0
0.356817 0.082204 0.024056 255 220 0
0.340741 0.195509 0.048863 255 220 0
0.407144 0.109529 0.046282 255 220 0
0.386180 0.142612 0.020788 255 220 0
0.347834 0.153875 0.084744 255 220 0
0.400255 0.160771 0.027076 255 220 0
0.413450 0.117685 0.067653 255 220 0
0.357309 0.182608 0.097786 255 220 0
0.330870 0.097892 0.050425 255 220 0
0.407489 0.207439 0.094450 255 220 0
0.415519 0.202513 0.066692 255 220 0
0.381962 0.143739 0.019973 255 220 0
0.418023 0.129427 0.060037 255 220 0
0.395343 0.198438 0.105137 255 220 0
0.336850 0.192836 0.054522 255 220 0
0.409840 0.178420 0.095371 255 220 0
0.380679 0.217156 0.101328 255 220 0
0.342624 0.143084 0.076707 255 220 0
0.411226 0.110832 0.061601 255 220 0
0.396910 0.223642 0.093710 255 220 0
0.372718 0.117334 0.083812 255 220 0
0.372481 0.147339 0.019923 255 220 0
0.361645 0.107888 0.020289 255 220 0
0.352338 0.071597 0.028535 255 220 0
0.343709 0.210121 0.069038 255 220 0
0.333837 0.175873 0.049064 255 220 0
0.417441 0.169513 0.085768 255 220 0
0.408738 0.198068 0.045754 255 220 0
0.392500 0.228015 0.059178 255 220 0
0.412669 0.203001 0.057177 255 220 0
0.413847 0.120170 0.052952 255 220 0
0.378582 0.138041 0.019458 255 220 0
0.360691 0.214210 0.046971 255 220 0
0.412827 0.201791 0.087955 255 220 0
0.336846 0.121097 0.034568 255 220 0
0.336760 0.087445 0.058808 255 220 0
0.338490 0.080634 0.059159 255 220 0
0.341813 0.167471 0.034343 255 220 0
0.403294 0.127934 0.031171 255 220 0
0.344038 0.065886 0.034737 255 220 0
0.396580 0.206481 0.103125 255 220 0
0.349548 0.205791 0.087763 255 220 0
0.407900 0.119659 0.077184 255 220 0
0.393554 0.166211 0.101706 255 220 0
0.414546 0.122249 0.053139 255 220 0
0.357941 0.071309 0.059860 255 220 0
0.336000 0.188294 0.052499 255 220 0
0.398884 0.092319 0.055941 255 220 0
0.361340 0.227728 0.064832 255 220 0
0.386856 0.096335 0.071665 255 220 0
0.365077 0.083434 0.066414 255 220 0
0.390180 0.134790 0.022163 255 220 0
0.349044 0.216082 0.061227 255 220 0
0.413629 0.189593 0.048078 255 220 0
0.408173 0.138275 0.034752 255 220 0
0.339581 0.202158 0.060754 255 220 0
0.419504 0.136905 0.068929 255 220 0
0.389714 0.207570 0.039562 255 220 0
0.353133 0.168352 0.092596 255 220 0
0.365690 0.193383 0.030713 255 220 0
0.374847 0.199666 0.106014 255 220 0
0.345399 0.129070 0.074927 255 220 0
0.393658 0.107798 0.028649 255 220 0
0.333654 0.185277 0.060372 255 220 0
0.358094 0.075404 0.062211 255 220 0
0.361790 0.095017 0.021262 255 220 0
0.364219 0.212223 0.097889 255 220 0
0.396612 0.137471 0.025041 255 220 0
0.406126 0.192848 0.098948 255 220 0
0.361474 0.068434 0.032825 255 220 0
0.342813 0.199172 0.081185 255 220 0
0.419717 0.162412 0.079942 255 220 0
0.393407 0.172155 0.025615 255 220 0
0.352452 0.145785 0.024927 255 220 0
0.390444 0.121312 0.085874 255 220 0
0.401177 0.205592 0.043455 255 220 0
0.331882 0.108457 0.050892 255 220 0
0.368424 0.221420 0.094920 255 220 0
0.420568 0.145363 0.069677 255 220 0
0.374314 0.071264 0.037508 255 220 0
0.410596 0.158695 0.092143 255 220 0
0.359994 0.172749 0.026044 255 220 0
0.421668 0.173028 0.061661 255 220 0
0.410338 0.140480 0.086041 255 220 0
0.378508 0.205363 0.105645 255 220 0
0.378696 0.157252 0.100114 255 220 0
0.420579 0.147838 0.057144 255 220 0
0.373786 0.234193 0.070733 255 220 0
0.358875 0.122531 0.081291 255 220 0
0.345688 0.104911 0.025041 255 220 0
0.336037 0.155672 0.072123 255 220 0
0.408829 0.218399 0.070265 255 220 0
0.409754 0.140760 0.036354 255 220 0
0.421829 0.169392 0.060470 255 220 0
0.356484 0.118439 0.078659 255 220 0
0.372456 0.170637 0.022882 255 220 0
0.355373 0.175227 0.095466 255 220 0
0.347055 0.134185 0.078029 255 220 0
0.386314 0.195254 0.031286 255 220 0
0.422355 0.165344 0.068799 255 220 0
0.357852 0.063768 0.050577 255 220 0
0.399054 0.229460 0.068860 255 220 0
0.377664 0.075223 0.055969 255 220 0
0.333155 0.072747 0.052421 255 220 0
0.356574 0.074616 0.027087 255 220 0
0.336078 0.148228 0.070312 255 220 0
0.374591 0.107792 0.079816 255 220 0
0.387405 0.148968 0.097335 255 220 0
0.367623 0.065224 0.040938 255 220 0
0.421193 0.180240 0.068715 255 220 0
0.415037 0.205669 0.073220 255 220 0
0.368558 0.073792 0.059246 255 220 0
0.354174 0.065017 0.034421 255 220 0
0.361237 0.063330 0.047449 255 220 0
0.361850 0.145631 0.090954 255 220 0
0.420050 0.148479 0.073277 255 220 0
0.339349 0.182914 0.042842 255 220 0
0.366091 0.179927 0.026027 255 220 0
0.339600 0.127661 0.068716 255 220 0
0.342543 0.164165 0.082268 255 220 0
0.337093 0.177076 0.043212 255 220 0
0.348730 0.141274 0.026282 255 220 0
0.334208 0.087031 0.056515 255 220 0
0.366652 0.067254 0.036777 255 220 0
0.360256 0.065343 0.052528 255 220 0
0.333154 0.144635 0.064000 255 220 0
0.381885 0.211726 0.040539 255 220 0
0.391246 0.112265 0.081043 255 220 0
0.344607 0.074001 0.028385 255 220 0
0.343149 0.122716 0.028153 255 220 0
0.337480 0.072648 0.056614 255 220 0
0.367931 0.099145 0.074492 255 220 0
0.340912 0.198687 0.051426 255 220 0
0.408663 0.119034 0.041969 255 220 0
0.346530 0.062149 0.042112 255 220 0
0.357716 0.087119 0.022767 255 220 0
0.396806 0.168089 0.101320 255 220 0
0.371188 0.153010 0.020523 255 220 0
0.335692 0.121205 0.061540 255 220 0
0.374356 0.073294 0.055721 255 220 0
0.342302 0.138056 0.030350 255 220 0
0.414099 0.167979 0.090420 255 220 0
0.378297 0.207107 0.105153 255 220 0
0.351864 0.109129 0.073130 255 220 0
0.403104 0.216407 0.055223 255 220 0
0.361175 0.067286 0.033866 255 220 0
0.339475 0.163739 0.078592 255 220 0
0.337759 0.177108 0.042224 255 220 0
0.339677 0.123433 0.067545 255 220 0
0.357578 0.205640 0.041581 255 220 0
0.404910 0.144303 0.090968 255 220 0
0.362739 0.210737 0.097606 255 220 0
0.335465 0.160396 0.072163 255 220 0
0.420707 0.151885 0.072361 255 220 0
0.333487 0.183694 0.057820 255 220 0
0.411354 0.111539 0.063277 255 220 0
0.382813 0.107860 0.080239 255 220 0
0.399173 0.111554 0.077408 255 220 0
0.331581 0.102875 0.041410 255 220 0
0.343391 0.118514 0.027569 255 220 0
0.418904 0.153622 0.049765 255 220 0
0.363357 0.174439 0.025394 255 220 0
0.396124 0.148441 0.024386 255 220 0
0.360986 0.116679 0.020300 255 220 0
0.376301 0.073120 0.037040 255 220 0
0.383952 0.210581 0.104425 255 220 0
0.372955 0.095117 0.073178 255 220 0
0.420501 0.141145 0.063128 255 220 0
0.348660 0.155664 0.085942 255 220 0
0.368187 0.196718 0.031638 255 220 0
0.416438 0.162565 0.044126 255 220 0
0.416177 0.198682 0.080240 255 220 0
0.341040 0.181631 0.082545 255 220 0
0.395206 0.127223 0.087328 255 220 0
0.375343 0.118456 0.084922 255 220 0
0.404902 0.139869 0.031065 255 220 0
0.350137 0.064025 0.052685 255 220 0
0.338666 0.073471 0.057661 255 220 0
0.335878 0.158167 0.038880 255 220 0
0.420874 0.153014 0.056213 255 220 0
0.354559 0.219419 0.057349 255 220 0
0.332611 0.179463 0.062242 255 220 0
0.333949 0.152223 0.041167 255 220 0
0.400330 0.109255 0.075124 255 220 0
0.361102 0.111014 0.077558 255 220 0
0.397662 0.122025 0.084081 255 220 0
0.405239 0.165749 0.031155 255 220 0
0.367560 0.067574 0.051955 255 220 0
0.331580 0.084571 0.053149 255 220 0
0.372397 0.157489 0.020845 255 220 0
0.361086 0.164270 0.024132 255 220 0
0.416415 0.136412 0.049362 255 220 0
0.352166 0.208401 0.047500 255 220 0
0.408750 0.178626 0.096372 255 220 0
0.415993 0.186054 0.050599 255 220 0
0.409811 0.202557 0.050850 255 220 0
0.333328 0.079715 0.033093 255 220 0
0.380330 0.219854 0.047031 255 220 0
0.343471 0.109718 0.067736 255 220 0
0.389703 0.202520 0.105968 255 220 0
0.331564 0.107808 0.048835 255 220 0
0.400034 0.104954 0.037352 255 220 0
0.391982 0.088351 0.039305 255 220 0
0.415240 0.203311 0.066745 255 220 0
0.352541 0.186978 0.033487 255 220 0
0.384338 0.194657 0.030630 255 220 0
0.336623 0.188020 0.050722 255 220 0
0.336121 0.194470 0.061332 255 220 0
0.330922 0.092562 0.051714 255 220 0
0.408799 0.124974 0.079787 255 220 0
0.363122 0.146307 0.021448 255 220 0
0.330624 0.146739 0.051916 255 220 0
0.367915 0.073468 0.031252 255 220 0
0.353008 0.144361 0.085783 255 220 0
0.352347 0.195231 0.093931 255 220 0
0.414834 0.119734 0.066212 255 220 0
0.414088 0.146868 0.084618 255 220 0
0.414609 0.135904 0.079809 255 220 0
0.346289 0.137527 0.078447 255 220 0
0.331677 0.168112 0.063419 255 220 0
0.404542 0.144841 0.091355 255 220 0
0.341805 0.197761 0.049152 255 220 0
0.408020 0.215399 0.062171 255 220 0
0.371674 0.145195 0.019858 255 220 0
0.421538 0.157010 0.071275 255 220 0
0.356211 0.141241 0.023056 255 220 0
0.344401 0.210764 0.071929 255 220 0
0.374128 0.212720 0.102237 255 220 0
0.364447 0.207621 0.099880 255 220 0
0.346205 0.205040 0.050274 255 220 0
0.385821 0.088255 0.032139 255 220 0
0.358607 0.163240 0.094706 255 220 0
0.411469 0.201775 0.053238 255 220 0
0.349492 0.137424 0.081052 255 220 0
0.415321 0.196490 0.057383 255 220 0
0.422420 0.164472 0.064643 255 220 0
0.343947 0.174785 0.034685 255 220 0
0.329621 0.088898 0.048576 255 220 0
0.402820 0.153441 0.028549 255 220 0
0.338333 0.154651 0.075135 255 220 0
0.392239 0.145767 0.022667 255 220 0
0.395067 0.222468 0.095832 255 220 0
0.380908 0.088628 0.028357 255 220 0
0.376015 0.192974 0.106586 255 220 0
0.332044 0.129031 0.053300 255 220 0
0.374200 0.212806 0.102220 255 220 0
0.413266 0.205837 0.062538 255 220 0
0.398424 0.145973 0.025725 255 220 0
0.422214 0.164995 0.061802 255 220 0
0.340809 0.163457 0.034331 255 220 0
0.374593 0.202374 0.105559 255 220 0
0.386702 0.135254 0.092391 255 220 0
0.384605 0.126836 0.020836 255 220 0
0.391383 0.094495 0.033417 255 220 0
0.333255 0.177506 0.067125 255 220 0
0.405020 0.118353 0.036461 255 220 0
0.382625 0.224692 0.096815 255 220 0
0.341560 0.206293 0.068317 255 220 0
0.419462 0.135795 0.067825 255 220 0
0.403801 0.105446 0.043360 255 220 0
0.392888 0.175503 0.026161 255 220 0
0.406745 0.188762 0.038851 255 220 0
0.373407 0.176422 0.024019 255 220 0
0.414226 0.125259 0.073931 255 220 0
0.349778 0.072545 0.060283 255 220 0
0.411259 0.207406 0.058821 255 220 0
