ply
format ascii 1.0
element vertex 1024
property float x
property float y
property float z
property uchar red
property uchar green
property uchar blue
end_header
0.465817 0.203759 0.071287 255 220 0
0.474209 0.084791 0.024673 255 220 0
0.481662 0.037938 0.048042 255 220 0
0.471983 0.038839 0.043529 255 220 0
0.487634 0.114496 0.019577 255 220 0
0.452499 0.094317 0.081507 255 220 0
0.497503 0.161225 0.094494 255 220 0
0.474164 0.065467 0.081564 255 220 0
0.484098 0.034532 0.055884 255 220 0
0.480927 0.129823 0.018213 255 220 0
0.497752 0.122500 0.021938 255 220 0
0.470900 0.052026 0.035389 255 220 0
0.475559 0.082548 0.085250 255 220 0
0.449915 0.118291 0.084751 255 220 0
0.504306 0.194344 0.061489 255 220 0
0.461433 0.193072 0.082241 255 220 0
0.443455 0.053520 0.051058 255 220 0
0.489914 0.163795 0.024297 255 220 0
0.519735 0.106194 0.073287 255 220 0
0.444285 0.183433 0.054901 255 220 0
0.483414 0.042288 0.044464 255 220 0
0.487655 0.178179 0.030107 255 220 0
0.478816 0.032680 0.063830 255 220 0
0.454696 0.162447 0.029691 255 220 0
0.457167 0.139603 0.024505 255 220 0
0.484040 0.049523 0.074704 255 220 0
0.452723 0.029335 0.066289 255 220 0
0.489901 0.204050 0.073514 255 220 0
0.446180 0.137697 0.031801 255 220 0
0.515949 0.107213 0.038634 255 220 0
0.519242 0.086293 0.062112 255 220 0
0.468267 0.087767 0.025308 255 220 0
0.463433 0.094226 0.025850 255 220 0
0.469195 0.120023 0.020229 255 220 0
0.435708 0.102036 0.062792 255 220 0
0.480587 0.205906 0.074503 255 220 0
0.464321 0.144323 0.021682 255 220 0
0.478963 0.056032 0.033933 255 220 0
0.445316 0.099055 0.037188 255 220 0
0.461203 0.126338 0.091398 255 220 0
0.500530 0.091961 0.083992 255 220 0
0.489321 0.042601 0.048015 255 220 0
0.434968 0.162683 0.066632 255 220 0
0.501897 0.177150 0.089079 255 220 0
0.488427 0.111563 0.020071 255 220 0
0.454157 0.085628 0.080812 255 220 0
0.446963 0.127976 0.084541 255 220 0
0.470905 0.040772 0.041859 255 220 0
0.473144 0.109746 0.020396 255 220 0
0.449071 0.062646 0.041602 255 220 0
0.431852 0.145009 0.062260 255 220 0
0.483899 0.150888 0.020012 255 220 0
0.435931 0.109708 0.048250 255 220 0
0.484554 0.078751 0.026173 255 220 0
0.521755 0.100404 0.067711 255 220 0
0.448744 0.056674 0.075847 255 220 0
0.524088 0.135977 0.060445 255 220 0
0.469902 0.185544 0.091071 255 220 0
0.466065 0.111543 0.022139 255 220 0
0.488997 0.153562 0.097334 255 220 0
0.463001 0.095415 0.025830 255 220 0
0.469027 0.110596 0.090718 255 220 0
0.454526 0.033013 0.051111 255 220 0
0.448179 0.139461 0.030262 255 220 0
0.436460 0.160047 0.048883 255 220 0
0.441742 0.154183 0.081513 255 220 0
0.496811 0.147605 0.022996 255 220 0
0.468646 0.204058 0.053118 255 220 0
0.469572 0.179850 0.093409 255 220 0
0.473255 0.172551 0.027326 255 220 0
0.461259 0.182680 0.036168 255 220 0
0.477082 0.051199 0.077829 255 220 0
0.517599 0.116538 0.039237 255 220 0
0.460898 0.039081 0.043909 255 220 0
0.516013 0.141875 0.082000 255 220 0
0.468823 0.183323 0.091759 255 220 0
0.512944 0.072632 0.061206 255 220 0
0.501474 0.101973 0.086134 255 220 0
0.445583 0.068088 0.073513 255 220 0
0.499062 0.165156 0.028791 255 220 0
0.504597 0.180129 0.085246 255 220 0
0.479484 0.104738 0.090526 255 220 0
0.496062 0.153718 0.023947 255 220 0
0.495158 0.174535 0.093593 255 220 0
0.442330 0.120012 0.079671 255 220 0
0.449786 0.050500 0.076303 255 220 0
0.501666 0.106674 0.087066 255 220 0
0.487029 0.168627 0.025513 255 220 0
0.518687 0.130655 0.039985 255 220 0
0.472302 0.061966 0.080911 255 220 0
0.439762 0.109753 0.041170 255 220 0
0.507317 0.184221 0.050439 255 220 0
0.505095 0.185179 0.047720 255 220 0
0.458149 0.163492 0.092512 255 220 0
0.487764 0.196103 0.084612 255 220 0
0.442294 0.052291 0.068803 255 220 0
0.469743 0.161959 0.023781 255 220 0
0.493639 0.117578 0.092100 255 220 0
0.449462 0.065713 0.040440 255 220 0
0.472603 0.188115 0.035627 255 220 0
0.440492 0.090655 0.069536 255 220 0
0.487796 0.193998 0.040946 255 220 0
0.519444 0.131433 0.077557 255 220 0
0.513548 0.173065 0.052224 255 220 0
0.495515 0.067671 0.034050 255 220 0
0.503477 0.056655 0.060264 255 220 0
0.513169 0.166922 0.079113 255 220 0
0.489323 0.205985 0.058920 255 220 0
0.446761 0.163710 0.036788 255 220 0
0.467858 0.028938 0.054588 255 220 0
0.449275 0.127419 0.085926 255 220 0
0.469067 0.146756 0.020530 255 220 0
0.504364 0.089799 0.081247 255 220 0
0.450183 0.102308 0.032311 255 220 0
0.475235 0.208236 0.063313 255 220 0
0.458074 0.194738 0.077586 255 220 0
0.475478 0.114699 0.092302 255 220 0
0.508953 0.184119 0.054033 255 220 0
0.452799 0.158428 0.029685 255 220 0
0.465231 0.136799 0.094169 255 220 0
0.441338 0.178246 0.055392 255 220 0
0.483175 0.184147 0.093316 255 220 0
0.442117 0.049141 0.068260 255 220 0
0.497480 0.098593 0.024727 255 220 0
0.502933 0.142272 0.025228 255 220 0
0.513293 0.173184 0.051597 255 220 0
0.439035 0.174423 0.066448 255 220 0
0.439891 0.083590 0.065249 255 220 0
0.507121 0.188835 0.056806 255 220 0
0.434391 0.162484 0.058213 255 220 0
0.492411 0.112689 0.091476 255 220 0
0.506534 0.094148 0.081240 255 220 0
0.511584 0.144189 0.032592 255 220 0
0.472466 0.127584 0.094190 255 220 0
0.474028 0.176716 0.095517 255 220 0
0.484253 0.167103 0.097633 255 220 0
0.444097 0.072318 0.071865 255 220 0
0.505656 0.121668 0.087778 255 220 0
0.437490 0.115220 0.073277 255 220 0
0.523447 0.138404 0.066350 255 220 0
0.518155 0.083428 0.053889 255 220 0
0.461117 0.095850 0.085655 255 220 0
0.451111 0.134209 0.087981 255 220 0
0.440464 0.061166 0.059358 255 220 0
0.458782 0.104765 0.086544 255 220 0
0.472246 0.180141 0.094056 255 220 0
0.440873 0.160403 0.079410 255 220 0
0.496738 0.194707 0.047383 255 220 0
0.475843 0.031066 0.064275 255 220 0
0.496831 0.143422 0.022288 255 220 0
0.432951 0.127979 0.050246 255 220 0
0.494180 0.133230 0.094311 255 220 0
0.442267 0.047971 0.068464 255 220 0
0.455757 0.152436 0.091848 255 220 0
0.473596 0.150928 0.097034 255 220 0
0.508881 0.067108 0.049770 255 220 0
0.485664 0.097562 0.088820 255 220 0
0.521678 0.152346 0.057521 255 220 0
0.507394 0.061776 0.054695 255 220 0
0.515216 0.130744 0.035118 255 220 0
0.453202 0.128924 0.088371 255 220 0
0.448293 0.051309 0.075426 255 220 0
0.483889 0.151788 0.097804 255 220 0
0.471557 0.129330 0.019218 255 220 0
0.488077 0.155195 0.097550 255 220 0
0.450804 0.101264 0.032014 255 220 0
0.468198 0.054250 0.034682 255 220 0
0.486519 0.105125 0.090633 255 220 0
0.463642 0.203621 0.065032 255 220 0
0.509976 0.074306 0.045142 255 220 0
0.448048 0.074134 0.039819 255 220 0
0.485737 0.195471 0.041473 255 220 0
0.433334 0.137770 0.049126 255 220 0
0.478421 0.162681 0.097982 255 220 0
0.434294 0.108112 0.055952 255 220 0
0.472173 0.087006 0.086124 255 220 0
0.501506 0.074139 0.076521 255 220 0
0.469499 0.040835 0.041708 255 220 0
0.470468 0.165357 0.024823 255 220 0
0.450359 0.046347 0.045513 255 220 0
0.482860 0.208101 0.060709 255 220 0
0.433120 0.114254 0.055922 255 220 0
0.458293 0.195920 0.076241 255 220 0
0.444601 0.117341 0.034296 255 220 0
0.485471 0.043653 0.070152 255 220 0
0.441419 0.069421 0.066783 255 220 0
0.470050 0.027884 0.059841 255 220 0
0.479821 0.199012 0.083179 255 220 0
0.497523 0.047469 0.057982 255 220 0
0.516671 0.080220 0.061926 255 220 0
0.500926 0.070041 0.036999 255 220 0
0.464448 0.146271 0.021833 255 220 0
0.446249 0.052040 0.073893 255 220 0
0.441899 0.118316 0.036709 255 220 0
0.470667 0.206950 0.066813 255 220 0
0.488568 0.084571 0.025155 255 220 0
0.525097 0.117076 0.058865 255 220 0
0.477299 0.056149 0.079040 255 220 0
0.505834 0.061112 0.050375 255 220 0
0.456319 0.103981 0.027923 255 220 0
0.513019 0.173519 0.051225 255 220 0
0.451736 0.073403 0.078210 255 220 0
0.446884 0.174404 0.081592 255 220 0
0.511082 0.130532 0.030688 255 220 0
0.462166 0.200132 0.074262 255 220 0
0.448950 0.096984 0.079928 255 220 0
0.495146 0.150111 0.022808 255 220 0
0.465969 0.027408 0.060783 255 220 0
0.516545 0.153391 0.079136 255 220 0
0.510735 0.083961 0.073904 255 220 0
0.482888 0.035758 0.063982 255 220 0
0.459930 0.125120 0.090731 255 220 0
0.488348 0.155234 0.097501 255 220 0
0.519667 0.160168 0.061672 255 220 0
0.491128 0.050257 0.070191 255 220 0
0.443921 0.163942 0.082191 255 220 0
0.492907 0.062942 0.076397 255 220 0
0.512184 0.086347 0.073687 255 220 0
0.492116 0.062848 0.034614 255 220 0
0.436652 0.114868 0.071911 255 220 0
0.470738 0.199513 0.045355 255 220 0
0.524299 0.122539 0.053447 255 220 0
0.448586 0.096729 0.079630 255 220 0
0.458853 0.083938 0.029952 255 220 0
0.450246 0.173745 0.085072 255 220 0
0.509983 0.161787 0.085549 255 220 0
0.470608 0.172895 0.027834 255 220 0
0.441383 0.051001 0.056683 255 220 0
0.488146 0.049579 0.072139 255 220 0
0.460725 0.152981 0.024128 255 220 0
0.447397 0.044833 0.048769 255 220 0
0.499285 0.092019 0.027059 255 220 0
0.510447 0.086216 0.038629 255 220 0
0.483091 0.040082 0.069203 255 220 0
0.513606 0.120013 0.082236 255 220 0
0.452702 0.051329 0.041920 255 220 0
0.498599 0.048659 0.057358 255 220 0
0.442891 0.055992 0.051491 255 220 0
0.480600 0.173962 0.027490 255 220 0
0.515707 0.151298 0.080932 255 220 0
0.437790 0.125702 0.075888 255 220 0
0.434878 0.141955 0.072866 255 220 0
0.523626 0.133410 0.052675 255 220 0
0.465536 0.111979 0.090191 255 220 0
0.459768 0.084786 0.029300 255 220 0
0.510811 0.107866 0.081879 255 220 0
0.523504 0.103702 0.064790 255 220 0
0.503030 0.103487 0.085700 255 220 0
0.451214 0.189988 0.074848 255 220 0
0.483252 0.143956 0.097143 255 220 0
0.448271 0.134055 0.030137 255 220 0
0.464101 0.201841 0.053528 255 220 0
0.513682 0.094175 0.075645 255 220 0
0.473234 0.198280 0.043378 255 220 0
0.475863 0.201080 0.080915 255 220 0
0.462815 0.099178 0.086898 255 220 0
0.467757 0.044090 0.078129 255 220 0
0.524438 0.129286 0.058239 255 220 0
0.496707 0.092912 0.025568 255 220 0
0.514419 0.075648 0.061729 255 220 0
0.487301 0.047142 0.071179 255 220 0
0.462084 0.200714 0.072942 255 220 0
0.495864 0.118694 0.091629 255 220 0
0.465167 0.054429 0.035183 255 220 0
0.497115 0.101727 0.087853 255 220 0
0.458573 0.048947 0.039498 255 220 0
0.498017 0.119282 0.022319 255 220 0
0.436990 0.158204 0.046861 255 220 0
0.503128 0.174280 0.036785 255 220 0
0.485697 0.054345 0.076041 255 220 0
0.449508 0.189030 0.051933 255 220 0
0.468849 0.131957 0.019834 255 220 0
0.434698 0.111858 0.050502 255 220 0
0.496842 0.172219 0.030611 255 220 0
0.502089 0.196384 0.069727 255 220 0
0.518694 0.163083 0.060511 255 220 0
0.439733 0.075150 0.057788 255 220 0
0.431433 0.132676 0.060132 255 220 0
0.509233 0.070079 0.047435 255 220 0
0.466149 0.203482 0.054737 255 220 0
0.491076 0.163788 0.096621 255 220 0
0.440160 0.176857 0.066881 255 220 0
0.463513 0.072724 0.030268 255 220 0
0.439065 0.112544 0.041358 255 220 0
0.451899 0.082900 0.079205 255 220 0
0.484996 0.105250 0.020515 255 220 0
0.485784 0.188467 0.036074 255 220 0
0.505094 0.097092 0.029664 255 220 0
0.445618 0.169366 0.040873 255 220 0
0.482030 0.123116 0.018374 255 220 0
0.492682 0.100311 0.022717 255 220 0
0.502239 0.192690 0.051951 255 220 0
0.488864 0.118319 0.093193 255 220 0
0.479208 0.080551 0.084732 255 220 0
0.434813 0.128185 0.045464 255 220 0
0.453467 0.104350 0.029650 255 220 0
0.455576 0.104250 0.085023 255 220 0
0.517841 0.137284 0.039266 255 220 0
0.469176 0.029534 0.067308 255 220 0
0.450241 0.172823 0.085410 255 220 0
0.476386 0.185996 0.033852 255 220 0
0.459082 0.088781 0.028910 255 220 0
0.445926 0.146230 0.032636 255 220 0
0.469759 0.130743 0.019610 255 220 0
0.474212 0.078414 0.026219 255 220 0
0.434763 0.105188 0.060691 255 220 0
0.507695 0.171420 0.040102 255 220 0
0.445616 0.179832 0.076643 255 220 0
0.442989 0.180184 0.053503 255 220 0
0.460987 0.079423 0.082655 255 220 0
0.453083 0.050185 0.077765 255 220 0
0.511814 0.174566 0.049413 255 220 0
0.461188 0.189740 0.084726 255 220 0
0.437393 0.117795 0.042522 255 220 0
0.446206 0.034138 0.066827 255 220 0
0.514246 0.168925 0.049469 255 220 0
0.507678 0.111873 0.029180 255 220 0
0.514251 0.076298 0.063228 255 220 0
0.448153 0.118073 0.031348 255 220 0
0.505152 0.062484 0.064709 255 220 0
0.485496 0.042778 0.045157 255 220 0
0.506240 0.059850 0.054490 255 220 0
0.453978 0.065987 0.078756 255 220 0
0.448567 0.174768 0.040961 255 220 0
0.475341 0.085132 0.085826 255 220 0
0.485701 0.198350 0.083103 255 220 0
0.499132 0.133898 0.022399 255 220 0
0.434649 0.129924 0.071757 255 220 0
0.511388 0.102726 0.034198 255 220 0
0.460860 0.087823 0.084002 255 220 0
0.444793 0.129618 0.083234 255 220 0
0.452590 0.041317 0.077088 255 220 0
0.491482 0.205188 0.066739 255 220 0
0.434654 0.113344 0.067447 255 220 0
0.494726 0.198132 0.078770 255 220 0
0.458948 0.041879 0.078481 255 220 0
0.489224 0.045230 0.045207 255 220 0
0.449273 0.033483 0.054745 255 220 0
0.520475 0.100334 0.047514 255 220 0
0.480407 0.037136 0.068720 255 220 0
0.524582 0.122138 0.063950 255 220 0
0.464471 0.122284 0.091740 255 220 0
0.470921 0.156339 0.021893 255 220 0
0.516774 0.135104 0.037383 255 220 0
0.517414 0.087653 0.048018 255 220 0
0.461561 0.047962 0.079104 255 220 0
0.524076 0.130997 0.063809 255 220 0
0.460002 0.032854 0.049052 255 220 0
0.494839 0.201207 0.054245 255 220 0
0.467920 0.128629 0.093618 255 220 0
0.492025 0.165770 0.025604 255 220 0
0.501928 0.056473 0.063242 255 220 0
0.495687 0.151903 0.095380 255 220 0
0.508030 0.187766 0.071327 255 220 0
0.441806 0.155919 0.081372 255 220 0
0.468469 0.048208 0.078712 255 220 0
0.456651 0.192467 0.047082 255 220 0
0.433145 0.138125 0.069126 255 220 0
0.503380 0.055783 0.052525 255 220 0
0.488735 0.152700 0.097351 255 220 0
0.521051 0.109989 0.045966 255 220 0
0.446300 0.122929 0.032246 255 220 0
0.467140 0.051572 0.035964 255 220 0
0.450061 0.192538 0.057860 255 220 0
0.505574 0.109826 0.085634 255 220 0
0.505769 0.192267 0.068460 255 220 0
0.458844 0.057216 0.036404 255 220 0
0.435791 0.103599 0.064815 255 220 0
0.512337 0.082923 0.071691 255 220 0
0.436611 0.111519 0.045868 255 220 0
0.465029 0.158033 0.095550 255 220 0
0.494167 0.043142 0.056011 255 220 0
0.441207 0.051654 0.065950 255 220 0
0.503850 0.110472 0.086729 255 220 0
0.462214 0.158498 0.094587 255 220 0
0.463189 0.083403 0.083949 255 220 0
0.459248 0.186704 0.040133 255 220 0
0.476110 0.093562 0.087791 255 220 0
0.456678 0.031253 0.052169 255 220 0
0.507054 0.181943 0.080798 255 220 0
0.472623 0.148408 0.019997 255 220 0
0.473761 0.081123 0.025597 255 220 0
0.518377 0.164078 0.061484 255 220 0
0.499360 0.116792 0.090000 255 220 0
0.439611 0.173977 0.069539 255 220 0
0.451009 0.094474 0.033023 255 220 0
0.486203 0.068401 0.029974 255 220 0
0.521658 0.103804 0.048754 255 220 0
0.463605 0.135528 0.021540 255 220 0
0.479146 0.094960 0.088201 255 220 0
0.443204 0.178083 0.074022 255 220 0
0.484034 0.203596 0.049220 255 220 0
0.494666 0.150838 0.022763 255 220 0
0.487507 0.056237 0.036095 255 220 0
0.524684 0.125620 0.059242 255 220 0
0.469197 0.171727 0.027569 255 220 0
0.456888 0.167851 0.091204 255 220 0
0.461394 0.196266 0.047291 255 220 0
0.496232 0.133661 0.021099 255 220 0
0.510319 0.131154 0.086393 255 220 0
0.447927 0.140043 0.086659 255 220 0
0.437118 0.125391 0.041691 255 220 0
0.472848 0.141896 0.096137 255 220 0
0.499111 0.166717 0.093203 255 220 0
0.498365 0.191907 0.046112 255 220 0
0.450023 0.031198 0.057956 255 220 0
0.470509 0.206181 0.070394 255 220 0
0.475215 0.040350 0.042980 255 220 0
0.506492 0.063428 0.048993 255 220 0
0.444521 0.121787 0.033814 255 220 0
0.502376 0.085430 0.031038 255 220 0
0.500089 0.126893 0.091314 255 220 0
0.457485 0.198235 0.055526 255 220 0
0.455584 0.086765 0.031284 255 220 0
0.495477 0.136695 0.094300 255 220 0
0.448745 0.143001 0.030012 255 220 0
0.502247 0.073115 0.036551 255 220 0
0.514640 0.170006 0.073157 255 220 0
0.523798 0.112026 0.067416 255 220 0
0.524943 0.118535 0.062452 255 220 0
0.479829 0.106549 0.090939 255 220 0
0.502752 0.196385 0.063441 255 220 0
0.504416 0.142307 0.090924 255 220 0
0.474908 0.164908 0.024055 255 220 0
0.475226 0.067778 0.082006 255 220 0
0.513020 0.098548 0.037090 255 220 0
0.447047 0.098472 0.078912 255 220 0
0.499917 0.149804 0.024915 255 220 0
0.494492 0.103400 0.089028 255 220 0
0.467565 0.205769 0.065926 255 220 0
0.446357 0.097901 0.036385 255 220 0
0.520343 0.090840 0.052504 255 220 0
0.473039 0.030730 0.052934 255 220 0
0.436735 0.154201 0.074715 255 220 0
0.437147 0.107309 0.070196 255 220 0
0.465455 0.168278 0.094922 255 220 0
0.447553 0.159749 0.034403 255 220 0
0.523501 0.139185 0.065722 255 220 0
0.510750 0.115317 0.031422 255 220 0
0.459809 0.146127 0.093362 255 220 0
0.512028 0.084250 0.072753 255 220 0
0.468040 0.075212 0.028196 255 220 0
0.440952 0.090029 0.070132 255 220 0
0.492088 0.104898 0.089910 255 220 0
0.452351 0.038973 0.047707 255 220 0
0.498010 0.086294 0.027946 255 220 0
0.480692 0.113863 0.019178 255 220 0
0.499581 0.123622 0.091032 255 220 0
0.508344 0.107037 0.030426 255 220 0
0.491058 0.202623 0.052171 255 220 0
0.457300 0.100538 0.085059 255 220 0
0.479427 0.145068 0.097034 255 220 0
0.472969 0.201077 0.080349 255 220 0
0.520271 0.152742 0.071324 255 220 0
0.507155 0.065631 0.064784 255 220 0
0.464850 0.129013 0.021145 255 220 0
0.516332 0.099125 0.074864 255 220 0
0.483853 0.160401 0.022167 255 220 0
0.471875 0.196547 0.042134 255 220 0
0.480407 0.208198 0.066503 255 220 0
0.439864 0.083061 0.051292 255 220 0
0.502935 0.118462 0.025077 255 220 0
0.494875 0.203275 0.062166 255 220 0
0.475086 0.033079 0.068533 255 220 0
0.490184 0.129909 0.019117 255 220 0
0.505786 0.184244 0.047837 255 220 0
0.485486 0.200608 0.080814 255 220 0
0.456912 0.185884 0.041169 255 220 0
0.462926 0.102781 0.024683 255 220 0
0.511753 0.123786 0.031570 255 220 0
0.505450 0.071738 0.040853 255 220 0
0.462373 0.083899 0.083804 255 220 0
0.505204 0.123193 0.088278 255 220 0
0.498956 0.057903 0.068538 255 220 0
0.446636 0.118765 0.082788 255 220 0
0.494183 0.091491 0.086138 255 220 0
0.479164 0.134685 0.018341 255 220 0
0.458729 0.060500 0.035497 255 220 0
0.436682 0.159656 0.073038 255 220 0
0.483574 0.163987 0.097937 255 220 0
0.460544 0.100835 0.026116 255 220 0
0.498030 0.196363 0.050757 255 220 0
0.498976 0.071912 0.034333 255 220 0
0.476762 0.045349 0.076268 255 220 0
0.499516 0.059404 0.069125 255 220 0
0.521369 0.145352 0.072211 255 220 0
0.510720 0.184142 0.064191 255 220 0
0.475703 0.109094 0.091245 255 220 0
0.466314 0.162244 0.024628 255 220 0
0.456795 0.198633 0.059111 255 220 0
0.486221 0.199187 0.045019 255 220 0
0.438572 0.171942 0.054776 255 220 0
0.440271 0.068860 0.056890 255 220 0
0.432169 0.141407 0.065659 255 220 0
0.432241 0.120260 0.061326 255 220 0
0.478182 0.193254 0.087897 255 220 0
0.468774 0.165756 0.096270 255 220 0
0.502532 0.123671 0.089720 255 220 0
0.515787 0.140780 0.082316 255 220 0
0.519078 0.135715 0.078229 255 220 0
0.496574 0.176748 0.092346 255 220 0
0.487174 0.166473 0.024677 255 220 0
0.494212 0.170415 0.028358 255 220 0
0.521595 0.150477 0.054062 255 220 0
0.453837 0.044347 0.044019 255 220 0
0.444034 0.148324 0.084066 255 220 0
0.463121 0.186395 0.037647 255 220 0
0.469496 0.113559 0.091355 255 220 0
0.505417 0.098672 0.029556 255 220 0
0.483907 0.103691 0.090364 255 220 0
0.479350 0.085444 0.024125 255 220 0
0.516159 0.114954 0.037519 255 220 0
0.517826 0.165502 0.063929 255 220 0
0.521175 0.135564 0.074378 255 220 0
0.501924 0.143555 0.092297 255 220 0
0.472939 0.066594 0.029776 255 220 0
0.518107 0.116247 0.040008 255 220 0
0.490671 0.103784 0.089902 255 220 0
0.467185 0.054358 0.034799 255 220 0
0.475043 0.137282 0.018768 255 220 0
0.434260 0.124548 0.070097 255 220 0
0.440780 0.110480 0.076152 255 220 0
0.503179 0.056857 0.061328 255 220 0
0.507188 0.064121 0.062979 255 220 0
0.501903 0.113138 0.088232 255 220 0
0.456531 0.075698 0.080592 255 220 0
0.510400 0.161567 0.085118 255 220 0
0.506452 0.099210 0.082711 255 220 0
0.485017 0.176612 0.028918 255 220 0
0.488524 0.205540 0.071242 255 220 0
0.487572 0.171772 0.096491 255 220 0
0.493419 0.186801 0.037946 255 220 0
0.507314 0.086345 0.035105 255 220 0
0.433591 0.153632 0.067832 255 220 0
0.431997 0.128289 0.054256 255 220 0
0.454729 0.053587 0.039796 255 220 0
0.512746 0.093850 0.038277 255 220 0
0.494500 0.077518 0.081714 255 220 0
0.446200 0.099239 0.036254 255 220 0
0.435724 0.133483 0.043560 255 220 0
0.441285 0.062052 0.066200 255 220 0
0.474216 0.132756 0.095143 255 220 0
0.454607 0.097627 0.083245 255 220 0
0.518374 0.163892 0.059503 255 220 0
0.522215 0.117365 0.047154 255 220 0
0.454007 0.104025 0.084219 255 220 0
0.474103 0.142584 0.019179 255 220 0
0.478645 0.055414 0.078578 255 220 0
0.485077 0.092099 0.022856 255 220 0
0.482667 0.124840 0.094574 255 220 0
0.489681 0.106164 0.021088 255 220 0
0.521979 0.141430 0.071634 255 220 0
0.480185 0.086857 0.023799 255 220 0
0.506612 0.159590 0.089100 255 220 0
0.480875 0.036022 0.066831 255 220 0
0.443961 0.127200 0.033817 255 220 0
0.468468 0.203941 0.074083 255 220 0
0.470459 0.089689 0.024345 255 220 0
0.447008 0.057750 0.074643 255 220 0
0.470054 0.146507 0.020265 255 220 0
0.457237 0.198111 0.055714 255 220 0
0.484105 0.188002 0.035406 255 220 0
0.516805 0.158861 0.076187 255 220 0
0.473204 0.028695 0.059740 255 220 0
0.482910 0.068775 0.029239 255 220 0
0.463083 0.060113 0.033824 255 220 0
0.480335 0.091931 0.087470 255 220 0
0.476000 0.183656 0.093369 255 220 0
0.477125 0.197867 0.084101 255 220 0
0.477839 0.032002 0.063770 255 220 0
0.465868 0.081239 0.027438 255 220 0
0.448720 0.179886 0.080608 255 220 0
0.505829 0.160731 0.032284 255 220 0
0.448271 0.075610 0.039261 255 220 0
0.515597 0.168669 0.053126 255 220 0
0.486373 0.072277 0.028553 255 220 0
0.506668 0.122081 0.027347 255 220 0
0.509009 0.186839 0.068905 255 220 0
0.469407 0.030833 0.069428 255 220 0
0.469659 0.037361 0.044448 255 220 0
0.516571 0.131519 0.081241 255 220 0
0.440699 0.075544 0.065305 255 220 0
0.482192 0.104399 0.020483 255 220 0
0.450681 0.161533 0.032333 255 220 0
0.444435 0.185836 0.062829 255 220 0
0.440340 0.151133 0.080202 255 220 0
0.433054 0.123321 0.066822 255 220 0
0.456219 0.088382 0.082256 255 220 0
0.443036 0.041048 0.057169 255 220 0
0.523297 0.134060 0.067898 255 220 0
0.450783 0.103753 0.031611 255 220 0
0.490553 0.187501 0.037008 255 220 0
0.447046 0.187675 0.070096 255 220 0
0.483232 0.150133 0.019812 255 220 0
0.486137 0.157989 0.021791 255 220 0
0.459135 0.088498 0.083489 255 220 0
0.448397 0.168789 0.085173 255 220 0
0.498363 0.099512 0.086885 255 220 0
0.451832 0.146583 0.028126 255 220 0
0.474304 0.157858 0.097506 255 220 0
0.457028 0.164434 0.091839 255 220 0
0.513601 0.165658 0.078930 255 220 0
0.442473 0.042529 0.067268 255 220 0
0.448316 0.031717 0.060249 255 220 0
0.496174 0.083910 0.027764 255 220 0
0.506429 0.060168 0.057431 255 220 0
0.501763 0.103967 0.026067 255 220 0
0.468582 0.040901 0.041633 255 220 0
0.483137 0.207848 0.059065 255 220 0
0.521658 0.099376 0.067345 255 220 0
0.463090 0.182696 0.089715 255 220 0
0.520995 0.097149 0.049928 255 220 0
0.509209 0.172606 0.083093 255 220 0
0.518505 0.086139 0.064298 255 220 0
0.475232 0.120223 0.093254 255 220 0
0.457948 0.154893 0.025719 255 220 0
0.448408 0.146646 0.030625 255 220 0
0.463680 0.134543 0.021505 255 220 0
0.505055 0.121751 0.026196 255 220 0
0.483189 0.081422 0.084774 255 220 0
0.453053 0.139677 0.026898 255 220 0
0.519423 0.160916 0.061825 255 220 0
0.456342 0.100807 0.084683 255 220 0
0.516096 0.128758 0.081452 255 220 0
0.494609 0.103937 0.089120 255 220 0
0.446483 0.074254 0.074579 255 220 0
0.491543 0.066515 0.032509 255 220 0
0.467773 0.126325 0.093220 255 220 0
0.496821 0.191801 0.044576 255 220 0
0.503276 0.075054 0.036505 255 220 0
0.471615 0.144597 0.096255 255 220 0
0.452993 0.185314 0.043943 255 220 0
0.522751 0.127618 0.048307 255 220 0
0.476945 0.038567 0.072888 255 220 0
0.456749 0.164474 0.029159 255 220 0
0.495112 0.202392 0.057886 255 220 0
0.437186 0.166169 0.070455 255 220 0
0.440768 0.166201 0.045152 255 220 0
0.437624 0.136161 0.076910 255 220 0
0.439829 0.081938 0.064292 255 220 0
0.478397 0.039939 0.072915 255 220 0
0.499297 0.087517 0.028289 255 220 0
0.466454 0.197517 0.045237 255 220 0
0.478339 0.208146 0.058717 255 220 0
0.495309 0.189116 0.041039 255 220 0
0.506829 0.174668 0.041244 255 220 0
0.476378 0.199853 0.044333 255 220 0
0.444793 0.151452 0.084679 255 220 0
0.472538 0.128240 0.094299 255 220 0
0.443911 0.040945 0.069543 255 220 0
0.503098 0.138231 0.091300 255 220 0
0.466856 0.032791 0.048491 255 220 0
0.448619 0.102333 0.080823 255 220 0
0.499823 0.063183 0.040180 255 220 0
0.482091 0.160458 0.022080 255 220 0
0.494900 0.099039 0.023619 255 220 0
0.466380 0.187587 0.037002 255 220 0
0.521728 0.143812 0.049484 255 220 0
0.505823 0.134173 0.089478 255 220 0
0.518332 0.155967 0.047964 255 220 0
0.507196 0.152246 0.089238 255 220 0
0.459269 0.047276 0.039953 255 220 0
0.514045 0.073751 0.058691 255 220 0
0.507055 0.184223 0.049950 255 220 0
0.440004 0.087142 0.067114 255 220 0
0.475140 0.086887 0.086219 255 220 0
0.454140 0.091090 0.031392 255 220 0
0.478084 0.207679 0.056627 255 220 0
0.438457 0.134276 0.077791 255 220 0
0.503103 0.069477 0.072615 255 220 0
0.470854 0.206337 0.070235 255 220 0
0.455755 0.176702 0.035987 255 220 0
0.482661 0.185036 0.092944 255 220 0
0.487459 0.093421 0.087665 255 220 0
0.478254 0.036705 0.070263 255 220 0
0.435705 0.104988 0.065607 255 220 0
0.479379 0.171616 0.097221 255 220 0
0.503598 0.055567 0.056746 255 220 0
0.481797 0.061887 0.031779 255 220 0
0.521541 0.148706 0.069878 255 220 0
0.476446 0.170334 0.097224 255 220 0
0.506349 0.073157 0.041031 255 220 0
0.458303 0.076527 0.081352 255 220 0
0.523233 0.098843 0.061169 255 220 0
0.481032 0.111520 0.092048 255 220 0
0.493071 0.197034 0.081334 255 220 0
0.485279 0.075952 0.027114 255 220 0
0.480990 0.076112 0.083606 255 220 0
0.468188 0.058739 0.080405 255 220 0
0.511056 0.146262 0.086496 255 220 0
0.446849 0.102106 0.035072 255 220 0
0.508689 0.072778 0.044385 255 220 0
0.507757 0.071773 0.069403 255 220 0
0.478412 0.044497 0.040575 255 220 0
0.501625 0.053556 0.051449 255 220 0
0.440961 0.179172 0.065136 255 220 0
0.490821 0.116677 0.019987 255 220 0
0.455126 0.074797 0.079932 255 220 0
0.444982 0.036332 0.057762 255 220 0
0.512350 0.163212 0.082092 255 220 0
0.509435 0.076535 0.070893 255 220 0
0.491031 0.156668 0.096923 255 220 0
0.447406 0.124248 0.031276 255 220 0
0.449641 0.190892 0.054756 255 220 0
0.448475 0.184855 0.048682 255 220 0
0.450911 0.080467 0.035849 255 220 0
0.504038 0.136519 0.090668 255 220 0
0.462206 0.065250 0.032657 255 220 0
0.439632 0.170593 0.050427 255 220 0
0.474770 0.149114 0.019791 255 220 0
0.477348 0.116882 0.092840 255 220 0
0.512933 0.177627 0.057310 255 220 0
0.467180 0.114308 0.091017 255 220 0
0.491632 0.121620 0.093292 255 220 0
0.508604 0.110762 0.030095 255 220 0
0.456587 0.068878 0.079925 255 220 0
0.452690 0.030763 0.055665 255 220 0
0.449738 0.109109 0.031485 255 220 0
0.489049 0.192441 0.087217 255 220 0
0.465601 0.053861 0.035305 255 220 0
0.488665 0.151275 0.020959 255 220 0
0.491887 0.090569 0.086371 255 220 0
0.448005 0.031847 0.060814 255 220 0
0.504384 0.071167 0.039964 255 220 0
0.487160 0.187458 0.035721 255 220 0
0.522717 0.126869 0.070744 255 220 0
0.449025 0.115441 0.031053 255 220 0
0.459401 0.179693 0.089071 255 220 0
0.439535 0.077255 0.058790 255 220 0
0.473836 0.197851 0.042850 255 220 0
0.473389 0.197406 0.083954 255 220 0
0.435768 0.141010 0.044077 255 220 0
0.501742 0.193817 0.052734 255 220 0
0.441620 0.118586 0.036957 255 220 0
0.504731 0.170155 0.088988 255 220 0
0.492163 0.188346 0.038451 255 220 0
0.515505 0.121564 0.080931 255 220 0
0.511244 0.127594 0.030887 255 220 0
0.505537 0.064889 0.066504 255 220 0
0.467413 0.147735 0.095785 255 220 0
0.518548 0.092522 0.047297 255 220 0
0.468795 0.155391 0.022124 255 220 0
0.435564 0.161498 0.051995 255 220 0
0.442329 0.167640 0.079005 255 220 0
0.455563 0.158037 0.027760 255 220 0
0.450800 0.153939 0.030002 255 220 0
0.509014 0.109239 0.083394 255 220 0
0.441296 0.174342 0.073410 255 220 0
0.499411 0.124614 0.022610 255 220 0
0.442917 0.117098 0.079625 255 220 0
0.442573 0.102416 0.039515 255 220 0
0.435421 0.114606 0.069641 255 220 0
0.500300 0.052132 0.050609 255 220 0
0.452742 0.034702 0.050563 255 220 0
0.474647 0.113040 0.091930 255 220 0
0.522713 0.130027 0.048425 255 220 0
0.445378 0.171004 0.081414 255 220 0
0.483936 0.051922 0.075808 255 220 0
0.463764 0.044900 0.039752 255 220 0
0.434796 0.157747 0.051522 255 220 0
0.512456 0.082170 0.043421 255 220 0
0.480476 0.106995 0.020079 255 220 0
0.457570 0.124682 0.089722 255 220 0
0.492283 0.127678 0.019670 255 220 0
0.522278 0.094857 0.060902 255 220 0
0.464802 0.156305 0.095476 255 220 0
0.442730 0.061630 0.069625 255 220 0
0.507540 0.186441 0.075201 255 220 0
0.509272 0.177603 0.047306 255 220 0
0.476056 0.107393 0.020281 255 220 0
0.522738 0.105499 0.050737 255 220 0
0.500131 0.178043 0.089943 255 220 0
0.432932 0.155671 0.058343 255 220 0
0.515052 0.158642 0.079591 255 220 0
0.481957 0.193668 0.087601 255 220 0
0.452512 0.112015 0.085018 255 220 0
0.519868 0.086780 0.056719 255 220 0
0.494451 0.200711 0.075038 255 220 0
0.487433 0.092157 0.087338 255 220 0
0.466374 0.109652 0.022279 255 220 0
0.462984 0.069865 0.031191 255 220 0
0.462430 0.034801 0.046742 255 220 0
0.440019 0.176069 0.067843 255 220 0
0.431672 0.137749 0.056384 255 220 0
0.521504 0.149196 0.069666 255 220 0
0.498457 0.168549 0.029835 255 220 0
0.481043 0.198068 0.042723 255 220 0
0.504142 0.175963 0.038945 255 220 0
0.518631 0.094636 0.046442 255 220 0
0.473697 0.101305 0.021517 255 220 0
0.450114 0.178226 0.041661 255 220 0
0.512026 0.180445 0.068382 255 220 0
0.440521 0.082114 0.049596 255 220 0
0.452214 0.053756 0.077510 255 220 0
0.455134 0.047411 0.078350 255 220 0
0.437143 0.127907 0.041414 255 220 0
0.501891 0.096830 0.027441 255 220 0
0.457021 0.029290 0.055705 255 220 0
0.499421 0.185673 0.086543 255 220 0
0.450919 0.176043 0.084715 255 220 0
0.518970 0.097802 0.071194 255 220 0
0.503187 0.145781 0.091765 255 220 0
0.518983 0.096787 0.046133 255 220 0
0.475482 0.040993 0.075098 255 220 0
0.432417 0.150764 0.057296 255 220 0
0.509930 0.066093 0.057308 255 220 0
0.452750 0.194755 0.056561 255 220 0
0.501601 0.071317 0.074955 255 220 0
0.481784 0.054940 0.077678 255 220 0
0.485987 0.100148 0.021426 255 220 0
0.442163 0.181142 0.058113 255 220 0
0.505165 0.161356 0.031939 255 220 0
0.505623 0.108200 0.028057 255 220 0
0.435441 0.166253 0.062208 255 220 0
0.525025 0.114609 0.057736 255 220 0
0.477144 0.174189 0.027718 255 220 0
0.462028 0.140919 0.093699 255 220 0
0.454530 0.155607 0.027807 255 220 0
0.480579 0.176724 0.096137 255 220 0
0.457160 0.098396 0.084577 255 220 0
0.495582 0.075490 0.030520 255 220 0
0.432627 0.148960 0.065857 255 220 0
0.475491 0.045433 0.076710 255 220 0
0.465597 0.057522 0.033918 255 220 0
0.466271 0.186082 0.089476 255 220 0
0.492361 0.104127 0.022046 255 220 0
0.509876 0.172870 0.081937 255 220 0
0.472744 0.033698 0.048812 255 220 0
0.444037 0.167510 0.081216 255 220 0
0.523486 0.141507 0.064520 255 220 0
0.483414 0.137608 0.018502 255 220 0
0.448760 0.106440 0.032674 255 220 0
0.504155 0.098726 0.083946 255 220 0
0.489374 0.174472 0.028613 255 220 0
0.441973 0.072142 0.068286 255 220 0
0.467958 0.195048 0.084200 255 220 0
0.524753 0.123126 0.056952 255 220 0
0.485645 0.038991 0.049400 255 220 0
0.518413 0.138930 0.079131 255 220 0
0.451541 0.133902 0.027848 255 220 0
0.519033 0.148755 0.045069 255 220 0
0.519842 0.120031 0.075993 255 220 0
0.482991 0.182686 0.093983 255 220 0
0.490182 0.134820 0.095541 255 220 0
0.521269 0.123241 0.044662 255 220 0
0.464941 0.203762 0.057896 255 220 0
0.472708 0.094951 0.087932 255 220 0
0.449441 0.065752 0.040450 255 220 0
0.442919 0.122579 0.080633 255 220 0
0.501002 0.192863 0.050244 255 220 0
0.507091 0.111121 0.028800 255 220 0
0.519528 0.145016 0.044410 255 220 0
0.470495 0.090169 0.086657 255 220 0
0.463024 0.132892 0.021774 255 220 0
0.463672 0.148436 0.094845 255 220 0
0.458608 0.104165 0.086353 255 220 0
0.474018 0.160228 0.022517 255 220 0
0.522768 0.142667 0.052778 255 220 0
0.474439 0.031933 0.067361 255 220 0
0.489410 0.202106 0.049965 255 220 0
0.492665 0.046669 0.065508 255 220 0
0.449768 0.037794 0.074501 255 220 0
0.465591 0.038031 0.043788 255 220 0
0.443810 0.115000 0.079962 255 220 0
0.489901 0.082371 0.084390 255 220 0
0.499251 0.127376 0.091727 255 220 0
0.481151 0.032861 0.055336 255 220 0
0.519050 0.157013 0.050883 255 220 0
0.509859 0.181812 0.053201 255 220 0
0.485028 0.044687 0.071291 255 220 0
0.466764 0.029709 0.052791 255 220 0
0.476979 0.031375 0.063531 255 220 0
0.473892 0.119618 0.093029 255 220 0
0.524596 0.126754 0.060074 255 220 0
0.434186 0.144189 0.047965 255 220 0
0.456106 0.141690 0.025160 255 220 0
0.450354 0.095128 0.080430 255 220 0
0.450129 0.133563 0.087323 255 220 0
0.433139 0.138274 0.049761 255 220 0
0.446325 0.101808 0.035614 255 220 0
0.449291 0.052599 0.076074 255 220 0
0.478854 0.033950 0.051346 255 220 0
0.476935 0.034139 0.068344 255 220 0
0.440102 0.109960 0.075255 255 220 0
0.469192 0.177395 0.030169 255 220 0
0.505312 0.089130 0.080422 255 220 0
0.454600 0.036106 0.048343 255 220 0
0.444684 0.083339 0.041555 255 220 0
0.454936 0.039031 0.077340 255 220 0
0.483750 0.072101 0.082355 255 220 0
0.435033 0.161334 0.053462 255 220 0
0.511199 0.090839 0.037545 255 220 0
0.461850 0.027325 0.062589 255 220 0
0.463452 0.049571 0.037580 255 220 0
0.505869 0.147964 0.090250 255 220 0
0.464301 0.115119 0.022389 255 220 0
0.445995 0.087012 0.075575 255 220 0
0.489784 0.044313 0.066440 255 220 0
0.441746 0.098578 0.041683 255 220 0
0.519720 0.148118 0.075217 255 220 0
0.482367 0.184267 0.093322 255 220 0
0.466354 0.079481 0.083969 255 220 0
0.492210 0.187418 0.037752 255 220 0
0.472912 0.032731 0.050049 255 220 0
0.446378 0.132074 0.084711 255 220 0
0.433527 0.138211 0.048635 255 220 0
0.450877 0.090804 0.079899 255 220 0
0.447317 0.168482 0.038594 255 220 0
0.515204 0.123950 0.081604 255 220 0
0.465048 0.184390 0.089819 255 220 0
0.441562 0.127115 0.080151 255 220 0
0.524407 0.129990 0.058538 255 220 0
0.432120 0.146928 0.063698 255 220 0
0.520278 0.087793 0.058179 255 220 0
0.497836 0.083590 0.082563 255 220 0
0.512109 0.088806 0.074922 255 220 0
0.440338 0.064925 0.060137 255 220 0
0.445503 0.079169 0.041534 255 220 0
0.516862 0.127306 0.037261 255 220 0
0.454297 0.135869 0.026080 255 220 0
0.489828 0.114633 0.019987 255 220 0
0.460830 0.078347 0.030123 255 220 0
0.487103 0.040973 0.048152 255 220 0
0.486979 0.188257 0.090606 255 220 0
0.488921 0.068592 0.080322 255 220 0
0.523821 0.117807 0.051336 255 220 0
0.458341 0.126753 0.090384 255 220 0
0.456558 0.159351 0.027537 255 220 0
0.511576 0.134664 0.031280 255 220 0
0.513877 0.176439 0.060576 255 220 0
0.445726 0.150435 0.085496 255 220 0
0.508026 0.105373 0.083199 255 220 0
0.490013 0.093797 0.087525 255 220 0
0.501324 0.108650 0.025201 255 220 0
0.467549 0.031562 0.071414 255 220 0
0.456181 0.040180 0.077900 255 220 0
0.434208 0.118897 0.048666 255 220 0
0.520423 0.128152 0.042955 255 220 0
0.445896 0.184403 0.052454 255 220 0
0.433100 0.143502 0.068750 255 220 0
0.433960 0.113273 0.052214 255 220 0
0.513054 0.086299 0.072763 255 220 0
0.475922 0.083336 0.085422 255 220 0
0.510479 0.100035 0.080188 255 220 0
0.497168 0.133927 0.021497 255 220 0
0.483375 0.037161 0.065507 255 220 0
0.446389 0.049242 0.073930 255 220 0
0.464755 0.119701 0.021729 255 220 0
0.453590 0.125433 0.026944 255 220 0
0.517380 0.110138 0.040009 255 220 0
0.443121 0.171550 0.045297 255 220 0
0.514221 0.158884 0.080808 255 220 0
0.508651 0.158679 0.034206 255 220 0
0.499947 0.173997 0.033756 255 220 0
0.443998 0.041064 0.055055 255 220 0
0.467882 0.186301 0.035609 255 220 0
0.456926 0.077971 0.081016 255 220 0
0.494244 0.181436 0.091674 255 220 0
0.441280 0.071091 0.066506 255 220 0
0.504286 0.075147 0.037491 255 220 0
0.499969 0.058276 0.043898 255 220 0
0.508880 0.178355 0.047318 255 220 0
0.443777 0.148157 0.034914 255 220 0
0.472077 0.159268 0.022511 255 220 0
0.432624 0.150252 0.055474 255 220 0
0.433617 0.158416 0.064791 255 220 0
0.444022 0.056680 0.071600 255 220 0
0.519541 0.103575 0.072670 255 220 0
0.457998 0.107705 0.026406 255 220 0
0.434369 0.109465 0.064131 255 220 0
0.477628 0.039157 0.044856 255 220 0
0.464414 0.116278 0.090674 255 220 0
0.456932 0.167250 0.091342 255 220 0
0.522890 0.096770 0.058863 255 220 0
0.521961 0.126484 0.072713 255 220 0
0.523188 0.114988 0.069560 255 220 0
0.457400 0.107397 0.086480 255 220 0
0.434470 0.132536 0.071745 255 220 0
0.514854 0.124496 0.081995 255 220 0
0.435490 0.160133 0.051188 255 220 0
0.498773 0.188351 0.043184 255 220 0
0.465960 0.107447 0.022742 255 220 0
0.524043 0.134893 0.056547 255 220 0
0.452679 0.102161 0.030527 255 220 0
0.441274 0.177315 0.070318 255 220 0
0.476701 0.188657 0.090869 255 220 0
0.467775 0.181993 0.091968 255 220 0
0.438697 0.168005 0.050028 255 220 0
0.492357 0.056065 0.038752 255 220 0
0.468655 0.137039 0.094961 255 220 0
0.502248 0.173890 0.035694 255 220 0
0.461110 0.108193 0.088110 255 220 0
0.507854 0.170003 0.039356 255 220 0
0.521967 0.141064 0.048927 255 220 0
0.437991 0.135374 0.040118 255 220 0
0.442650 0.052364 0.069487 255 220 0
0.496363 0.121142 0.021428 255 220 0
0.446024 0.122437 0.083027 255 220 0
0.486166 0.111205 0.019781 255 220 0
0.493415 0.199716 0.077724 255 220 0
0.486680 0.055094 0.036425 255 220 0
0.482996 0.170461 0.097323 255 220 0
0.439140 0.092651 0.067595 255 220 0
0.476750 0.188747 0.090821 255 220 0
0.505529 0.179786 0.043484 255 220 0
0.492778 0.112773 0.020994 255 220 0
0.520985 0.141025 0.046203 255 220 0
0.436880 0.123862 0.042247 255 220 0
0.479754 0.179246 0.095386 255 220 0
0.499755 0.113016 0.089169 255 220 0
0.481727 0.091426 0.022804 255 220 0
0.496890 0.063106 0.037575 255 220 0
0.435249 0.142574 0.073506 255 220 0
0.506496 0.088691 0.033382 255 220 0
0.481400 0.200439 0.081702 255 220 0
0.438458 0.171926 0.068284 255 220 0
0.524908 0.113319 0.056854 255 220 0
0.509263 0.077220 0.042125 255 220 0
0.482470 0.140903 0.018684 255 220 0
0.496486 0.157957 0.025130 255 220 0
0.463203 0.138861 0.021773 255 220 0
0.523236 0.103488 0.065587 255 220 0
0.467583 0.041209 0.077528 255 220 0
0.502433 0.180372 0.040262 255 220 0
