ply
format ascii 1.0
element vertex 1024
property float x
property float y
property float z
property uchar red
property uchar green
property uchar blue
end_header
0.540926 0.183251 0.079018 255 220 0
0.516702 0.076000 0.013390 255 220 0
0.514722 0.025178 0.027885 255 220 0
0.505189 0.029001 0.024822 255 220 0
0.536342 0.102439 0.011443 255 220 0
0.502802 0.079457 0.073281 255 220 0
0.563404 0.131263 0.091007 255 220 0
0.516883 0.047040 0.066032 255 220 0
0.516932 0.019938 0.034718 255 220 0
0.533394 0.118849 0.013387 255 220 0
0.548241 0.107446 0.013762 255 220 0
0.506596 0.043370 0.019084 255 220 0
0.522621 0.062419 0.072186 255 220 0
0.506297 0.102396 0.080596 255 220 0
0.575081 0.167561 0.063103 255 220 0
0.535066 0.171963 0.088594 255 220 0
0.481734 0.047960 0.038105 255 220 0
0.550710 0.148299 0.023624 255 220 0
0.569981 0.077548 0.058698 255 220 0
0.513854 0.171528 0.062435 255 220 0
0.517150 0.029618 0.024854 255 220 0
0.552450 0.161508 0.031886 255 220 0
0.512056 0.017865 0.042866 255 220 0
0.516776 0.153766 0.033104 255 220 0
0.513277 0.132291 0.024081 255 220 0
0.522051 0.030853 0.055540 255 220 0
0.486224 0.019952 0.048011 255 220 0
0.564483 0.177819 0.078228 255 220 0
0.502813 0.131543 0.032299 255 220 0
0.563617 0.085728 0.025401 255 220 0
0.563807 0.060645 0.044650 255 220 0
0.511718 0.080041 0.015229 255 220 0
0.508628 0.087193 0.017393 255 220 0
0.519878 0.111672 0.015272 255 220 0
0.486810 0.093987 0.058286 255 220 0
0.555999 0.181465 0.080659 255 220 0
0.521083 0.135758 0.021172 255 220 0
0.515227 0.045700 0.017286 255 220 0
0.493217 0.093723 0.031534 255 220 0
0.519702 0.106400 0.086972 255 220 0
0.548918 0.066172 0.069323 255 220 0
0.523240 0.027965 0.027642 255 220 0
0.500888 0.151544 0.071789 255 220 0
0.570993 0.146548 0.087688 255 220 0
0.536452 0.099364 0.011361 255 220 0
0.502274 0.070896 0.071011 255 220 0
0.505735 0.112363 0.082302 255 220 0
0.504466 0.031397 0.023629 255 220 0
0.521261 0.100928 0.013305 255 220 0
0.488540 0.057205 0.029593 255 220 0
0.493286 0.136102 0.065085 255 220 0
0.541447 0.138045 0.018128 255 220 0
0.487619 0.103961 0.045238 255 220 0
0.525397 0.067661 0.012601 255 220 0
0.570080 0.072581 0.052064 255 220 0
0.489709 0.045261 0.062219 255 220 0
0.580206 0.107483 0.050317 255 220 0
0.542213 0.161264 0.094982 255 220 0
0.514990 0.103886 0.016184 255 220 0
0.553589 0.125272 0.093635 255 220 0
0.508492 0.088431 0.017617 255 220 0
0.523458 0.089722 0.082821 255 220 0
0.487556 0.025868 0.033506 255 220 0
0.505037 0.133075 0.030822 255 220 0
0.500193 0.151953 0.053801 255 220 0
0.506677 0.139175 0.084160 255 220 0
0.553409 0.131510 0.018911 255 220 0
0.542189 0.186254 0.060919 255 220 0
0.540734 0.155452 0.096407 255 220 0
0.536940 0.159796 0.030071 255 220 0
0.528503 0.170514 0.041843 255 220 0
0.515986 0.033415 0.059739 255 220 0
0.567489 0.094186 0.027268 255 220 0
0.494555 0.031603 0.026621 255 220 0
0.575633 0.110948 0.073374 255 220 0
0.540698 0.159248 0.095438 255 220 0
0.554379 0.049111 0.042378 255 220 0
0.552401 0.075162 0.072895 255 220 0
0.489176 0.057321 0.062146 255 220 0
0.560266 0.146762 0.027096 255 220 0
0.573991 0.149512 0.084071 255 220 0
0.532160 0.081843 0.080391 255 220 0
0.554224 0.137355 0.020908 255 220 0
0.564234 0.144696 0.092536 255 220 0
0.498938 0.106648 0.076846 255 220 0
0.489283 0.039033 0.061553 255 220 0
0.553787 0.079452 0.074532 255 220 0
0.549174 0.153339 0.025945 255 220 0
0.571973 0.107334 0.030110 255 220 0
0.514192 0.044216 0.065070 255 220 0
0.490734 0.104462 0.037832 255 220 0
0.574640 0.159231 0.050295 255 220 0
0.572487 0.161138 0.048063 255 220 0
0.525705 0.142461 0.094357 255 220 0
0.561463 0.168636 0.088100 255 220 0
0.481825 0.043776 0.055432 255 220 0
0.530714 0.151073 0.025354 255 220 0
0.549050 0.090739 0.082202 255 220 0
0.489551 0.060271 0.028894 255 220 0
0.540727 0.173325 0.040757 255 220 0
0.489296 0.080792 0.062480 255 220 0
0.557281 0.174639 0.044999 255 220 0
0.576084 0.101006 0.066932 255 220 0
0.578159 0.146844 0.049487 255 220 0
0.534026 0.053186 0.017179 255 220 0
0.541329 0.036061 0.040099 255 220 0
0.578612 0.136101 0.074889 255 220 0
0.563145 0.182483 0.064317 255 220 0
0.510004 0.155419 0.041249 255 220 0
0.499777 0.018391 0.034593 255 220 0
0.507956 0.111066 0.083279 255 220 0
0.526157 0.137255 0.019836 255 220 0
0.551877 0.063761 0.065810 255 220 0
0.498287 0.096665 0.026666 255 220 0
0.550427 0.186932 0.070742 255 220 0
0.531818 0.175154 0.084721 255 220 0
0.530812 0.091941 0.084217 255 220 0
0.576503 0.158113 0.053593 255 220 0
0.513982 0.150335 0.032697 255 220 0
0.526330 0.115025 0.090845 255 220 0
0.509807 0.167118 0.062459 255 220 0
0.554911 0.156592 0.095296 255 220 0
0.480857 0.040898 0.054421 255 220 0
0.542512 0.084090 0.012723 255 220 0
0.558249 0.124643 0.019481 255 220 0
0.577887 0.147130 0.048924 255 220 0
0.507607 0.161930 0.072967 255 220 0
0.486665 0.074944 0.057233 255 220 0
0.576092 0.162525 0.057289 255 220 0
0.499566 0.153028 0.063584 255 220 0
0.546644 0.086441 0.080967 255 220 0
0.555013 0.067451 0.066224 255 220 0
0.567701 0.123222 0.025913 255 220 0
0.531133 0.104600 0.088493 255 220 0
0.544477 0.151082 0.097415 255 220 0
0.552255 0.139233 0.096677 255 220 0
0.488607 0.062003 0.061391 255 220 0
0.561284 0.092808 0.077116 255 220 0
0.492569 0.104299 0.070428 255 220 0
0.580667 0.108863 0.056566 255 220 0
0.561373 0.059651 0.036278 255 220 0
0.511858 0.078266 0.076507 255 220 0
0.511526 0.116789 0.086142 255 220 0
0.481370 0.054418 0.047824 255 220 0
0.511802 0.087158 0.079089 255 220 0
0.543446 0.155024 0.096752 255 220 0
0.507142 0.145712 0.083199 255 220 0
0.566647 0.172167 0.050296 255 220 0
0.508832 0.016892 0.043417 255 220 0
0.552371 0.127627 0.017549 255 220 0
0.489265 0.121753 0.050473 255 220 0
0.553496 0.105209 0.086790 255 220 0
0.480740 0.039707 0.054416 255 220 0
0.520697 0.132517 0.092247 255 220 0
0.538036 0.126194 0.094851 255 220 0
0.548158 0.046815 0.030809 255 220 0
0.536282 0.073922 0.076804 255 220 0
0.581531 0.124232 0.050359 255 220 0
0.545867 0.041129 0.034970 255 220 0
0.568222 0.109078 0.025793 255 220 0
0.512322 0.111194 0.085421 255 220 0
0.487957 0.040298 0.061010 255 220 0
0.548264 0.124610 0.094452 255 220 0
0.524298 0.120255 0.015467 255 220 0
0.553106 0.126999 0.094221 255 220 0
0.498614 0.095583 0.026131 255 220 0
0.504452 0.046225 0.019084 255 220 0
0.539068 0.080647 0.079676 255 220 0
0.538256 0.184746 0.073144 255 220 0
0.550542 0.054320 0.027285 255 220 0
0.490139 0.068764 0.029803 255 220 0
0.555685 0.176407 0.046008 255 220 0
0.491876 0.131255 0.050886 255 220 0
0.545588 0.136216 0.097045 255 220 0
0.486310 0.101376 0.052731 255 220 0
0.520484 0.067274 0.074175 255 220 0
0.544975 0.050257 0.059049 255 220 0
0.503107 0.031795 0.023667 255 220 0
0.532315 0.153978 0.026824 255 220 0
0.486230 0.040588 0.030668 255 220 0
0.557550 0.185603 0.067215 255 220 0
0.486637 0.107525 0.053826 255 220 0
0.532198 0.176485 0.083565 255 220 0
0.496642 0.111930 0.031701 255 220 0
0.521649 0.025751 0.049969 255 220 0
0.484893 0.060752 0.056288 255 220 0
0.502092 0.015934 0.039295 255 220 0
0.554351 0.173434 0.088154 255 220 0
0.533184 0.028992 0.037149 255 220 0
0.559856 0.055427 0.043823 255 220 0
0.540078 0.053723 0.019766 255 220 0
0.521684 0.137568 0.021613 255 220 0
0.486023 0.041730 0.059881 255 220 0
0.494465 0.113015 0.034558 255 220 0
0.545998 0.186062 0.074537 255 220 0
0.530582 0.072540 0.012028 255 220 0
0.576539 0.089444 0.045635 255 220 0
0.517479 0.037887 0.061686 255 220 0
0.543832 0.041631 0.030830 255 220 0
0.504249 0.097723 0.021867 255 220 0
0.577669 0.147579 0.048648 255 220 0
0.496795 0.060195 0.066820 255 220 0
0.516483 0.157400 0.086811 255 220 0
0.563795 0.110599 0.021939 255 220 0
0.536780 0.180032 0.081812 255 220 0
0.499871 0.083084 0.072603 255 220 0
0.552380 0.134312 0.019333 255 220 0
0.498111 0.016202 0.040652 255 220 0
0.578652 0.122390 0.072335 255 220 0
0.556024 0.058116 0.056893 255 220 0
0.516742 0.019891 0.042995 255 220 0
0.518123 0.105635 0.086284 255 220 0
0.553375 0.126986 0.094146 255 220 0
0.581804 0.131405 0.055921 255 220 0
0.528700 0.030825 0.050350 255 220 0
0.511171 0.147919 0.086104 255 220 0
0.533974 0.041446 0.058223 255 220 0
0.557976 0.060123 0.056879 255 220 0
0.529636 0.049210 0.017389 255 220 0
0.491559 0.104396 0.069139 255 220 0
0.542469 0.182867 0.052332 255 220 0
0.576610 0.095849 0.041299 255 220 0
0.499433 0.082973 0.072317 255 220 0
0.502092 0.077591 0.020347 255 220 0
0.519873 0.155389 0.089693 255 220 0
0.574851 0.130699 0.080774 255 220 0
0.534504 0.160615 0.030954 255 220 0
0.479606 0.044969 0.043472 255 220 0
0.525819 0.030474 0.052524 255 220 0
0.519878 0.144394 0.025395 255 220 0
0.483280 0.039191 0.033987 255 220 0
0.542888 0.076967 0.013734 255 220 0
0.553285 0.066824 0.022743 255 220 0
0.518414 0.023028 0.048770 255 220 0
0.568110 0.090490 0.070429 255 220 0
0.489379 0.045506 0.027649 255 220 0
0.534456 0.030009 0.036593 255 220 0
0.481814 0.050373 0.038993 255 220 0
0.544396 0.159502 0.029536 255 220 0
0.577494 0.120239 0.073867 255 220 0
0.495582 0.113794 0.074615 255 220 0
0.496385 0.130561 0.074607 255 220 0
0.578486 0.106554 0.042357 255 220 0
0.520366 0.091912 0.082962 255 220 0
0.503124 0.078323 0.019728 255 220 0
0.562478 0.079535 0.068496 255 220 0
0.572311 0.075893 0.049509 255 220 0
0.554230 0.076349 0.072517 255 220 0
0.523816 0.172616 0.082144 255 220 0
0.545723 0.117369 0.092640 255 220 0
0.503826 0.127899 0.029828 255 220 0
0.537299 0.185055 0.061537 255 220 0
0.561460 0.066933 0.059854 255 220 0
0.544421 0.181499 0.049886 255 220 0
0.550823 0.176703 0.086762 255 220 0
0.514400 0.080852 0.078041 255 220 0
0.505294 0.028602 0.060070 255 220 0
0.578761 0.101402 0.047048 255 220 0
0.540480 0.078664 0.012740 255 220 0
0.556569 0.051579 0.043185 255 220 0
0.524339 0.028502 0.051301 255 220 0
0.536729 0.180850 0.080622 255 220 0
0.551430 0.091405 0.081640 255 220 0
0.501605 0.046971 0.019983 255 220 0
0.548271 0.075569 0.075086 255 220 0
0.494285 0.042377 0.024163 255 220 0
0.547762 0.104235 0.013590 255 220 0
0.500094 0.150443 0.051461 255 220 0
0.567055 0.153139 0.035867 255 220 0
0.524918 0.034862 0.057410 255 220 0
0.519989 0.176287 0.059765 255 220 0
0.522357 0.123254 0.016827 255 220 0
0.487131 0.105878 0.047940 255 220 0
0.559958 0.153684 0.030280 255 220 0
0.574123 0.168488 0.071774 255 220 0
0.581459 0.134626 0.055370 255 220 0
0.483865 0.068264 0.048602 255 220 0
0.489757 0.124770 0.061091 255 220 0
0.549010 0.050013 0.028952 255 220 0
0.539774 0.185954 0.062726 255 220 0
0.557979 0.134742 0.094304 255 220 0
0.509312 0.163935 0.073637 255 220 0
0.503952 0.065765 0.018288 255 220 0
0.490742 0.107255 0.038547 255 220 0
0.499303 0.069074 0.069285 255 220 0
0.531664 0.093990 0.011221 255 220 0
0.553601 0.170679 0.039600 255 220 0
0.549939 0.080070 0.016366 255 220 0
0.510595 0.160338 0.046292 255 220 0
0.532875 0.112152 0.012339 255 220 0
0.538109 0.087162 0.011629 255 220 0
0.571876 0.168184 0.053759 255 220 0
0.544701 0.092300 0.083989 255 220 0
0.525631 0.059798 0.070903 255 220 0
0.490709 0.122420 0.045589 255 220 0
0.501725 0.098387 0.023974 255 220 0
0.508448 0.087649 0.077920 255 220 0
0.572674 0.114003 0.030567 255 220 0
0.502275 0.016334 0.046979 255 220 0
0.519677 0.154445 0.089878 255 220 0
0.543731 0.170789 0.038209 255 220 0
0.503380 0.082372 0.020069 255 220 0
0.504674 0.139620 0.034506 255 220 0
0.522929 0.121932 0.016301 255 220 0
0.515315 0.069605 0.013888 255 220 0
0.486469 0.097601 0.056848 255 220 0
0.571073 0.148785 0.038088 255 220 0
0.516130 0.163789 0.082986 255 220 0
0.511706 0.168959 0.060711 255 220 0
0.507559 0.063109 0.070973 255 220 0
0.492522 0.037738 0.062521 255 220 0
0.576600 0.149180 0.047190 255 220 0
0.534245 0.168368 0.090528 255 220 0
0.490476 0.112440 0.040732 255 220 0
0.481111 0.025888 0.050118 255 220 0
0.577611 0.143231 0.046043 255 220 0
0.555924 0.093750 0.017919 255 220 0
0.556689 0.051963 0.044779 255 220 0
0.500002 0.112391 0.028486 255 220 0
0.544718 0.040460 0.045170 255 220 0
0.519340 0.029501 0.025350 255 220 0
0.544274 0.039576 0.034607 255 220 0
0.497241 0.052497 0.065894 255 220 0
0.514744 0.164848 0.046869 255 220 0
0.523076 0.064837 0.073188 255 220 0
0.559875 0.171520 0.087238 255 220 0
0.552334 0.117977 0.015854 255 220 0
0.493199 0.119290 0.071635 255 220 0
0.557757 0.083248 0.020913 255 220 0
0.509554 0.070937 0.073644 255 220 0
0.503916 0.114654 0.081555 255 220 0
0.489872 0.029475 0.060509 255 220 0
0.565708 0.179807 0.071577 255 220 0
0.488883 0.104196 0.064775 255 220 0
0.568185 0.170122 0.081830 255 220 0
0.496275 0.028358 0.061166 255 220 0
0.523536 0.031021 0.025322 255 220 0
0.482895 0.026807 0.037798 255 220 0
0.567109 0.076509 0.032434 255 220 0
0.515073 0.020885 0.048164 255 220 0
0.577681 0.093473 0.051485 255 220 0
0.521925 0.101733 0.086252 255 220 0
0.530353 0.145777 0.022463 255 220 0
0.570962 0.112495 0.028510 255 220 0
0.561165 0.064941 0.031294 255 220 0
0.500307 0.033496 0.062417 255 220 0
0.579292 0.102096 0.052820 255 220 0
0.492640 0.024889 0.030779 255 220 0
0.566944 0.177550 0.058288 255 220 0
0.526936 0.106708 0.088669 255 220 0
0.553334 0.149485 0.024954 255 220 0
0.540040 0.035681 0.043182 255 220 0
0.559499 0.122569 0.090620 255 220 0
0.577951 0.158631 0.071225 255 220 0
0.507141 0.140851 0.084290 255 220 0
0.507015 0.032283 0.061207 255 220 0
0.527307 0.178899 0.054666 255 220 0
0.493477 0.127961 0.070552 255 220 0
0.540370 0.036670 0.032394 255 220 0
0.553131 0.124500 0.093547 255 220 0
0.569837 0.085916 0.032383 255 220 0
0.499445 0.117286 0.030370 255 220 0
0.502898 0.043656 0.020046 255 220 0
0.521864 0.178437 0.066058 255 220 0
0.558198 0.081875 0.073142 255 220 0
0.576594 0.163968 0.069417 255 220 0
0.496257 0.050808 0.022414 255 220 0
0.487435 0.095095 0.060504 255 220 0
0.557137 0.057176 0.054360 255 220 0
0.488507 0.105984 0.043108 255 220 0
0.531317 0.135158 0.095601 255 220 0
0.528737 0.025947 0.034951 255 220 0
0.480379 0.043930 0.052672 255 220 0
0.556777 0.082672 0.074532 255 220 0
0.528623 0.136400 0.095086 255 220 0
0.510748 0.066200 0.072597 255 220 0
0.527854 0.174084 0.046619 255 220 0
0.525997 0.072382 0.076357 255 220 0
0.489308 0.023514 0.033993 255 220 0
0.576422 0.151526 0.079695 255 220 0
0.529946 0.138154 0.019131 255 220 0
0.515473 0.072414 0.013767 255 220 0
0.581473 0.135470 0.056521 255 220 0
0.554219 0.089114 0.079304 255 220 0
0.508320 0.160807 0.075851 255 220 0
0.497278 0.088847 0.026014 255 220 0
0.524846 0.056683 0.014470 255 220 0
0.569187 0.079345 0.034053 255 220 0
0.518280 0.127515 0.019723 255 220 0
0.529303 0.072977 0.076600 255 220 0
0.513157 0.163127 0.080444 255 220 0
0.556634 0.183141 0.055101 255 220 0
0.552085 0.135122 0.019465 255 220 0
0.523726 0.043619 0.018365 255 220 0
0.578210 0.097651 0.047416 255 220 0
0.532838 0.159855 0.030686 255 220 0
0.525414 0.147154 0.093928 255 220 0
0.532819 0.181456 0.054881 255 220 0
0.549361 0.118627 0.014906 255 220 0
0.567941 0.101123 0.076684 255 220 0
0.509725 0.123322 0.086175 255 220 0
0.491951 0.119930 0.041161 255 220 0
0.535081 0.117870 0.092630 255 220 0
0.566160 0.136408 0.090416 255 220 0
0.567445 0.169360 0.048402 255 220 0
0.483349 0.023863 0.040485 255 220 0
0.545966 0.184702 0.077942 255 220 0
0.508629 0.029839 0.024120 255 220 0
0.544903 0.043959 0.029763 255 220 0
0.497584 0.116296 0.031946 255 220 0
0.544644 0.069243 0.016195 255 220 0
0.557446 0.098388 0.082106 255 220 0
0.530208 0.182689 0.063749 255 220 0
0.499717 0.080775 0.022511 255 220 0
0.555576 0.108245 0.087169 255 220 0
0.506408 0.136388 0.031070 255 220 0
0.542050 0.056460 0.019651 255 220 0
0.580264 0.139826 0.069363 255 220 0
0.574805 0.083320 0.053369 255 220 0
0.577043 0.090216 0.049399 255 220 0
0.532961 0.083427 0.081041 255 220 0
0.574230 0.169499 0.065534 255 220 0
0.565276 0.112274 0.083636 255 220 0
0.536438 0.152712 0.025444 255 220 0
0.518500 0.048939 0.066700 255 220 0
0.558585 0.078354 0.022877 255 220 0
0.498298 0.085114 0.072084 255 220 0
0.557101 0.132580 0.020750 255 220 0
0.546233 0.077533 0.076831 255 220 0
0.542640 0.185777 0.073870 255 220 0
0.493881 0.092536 0.030434 255 220 0
0.565141 0.066526 0.035827 255 220 0
0.505076 0.019272 0.032609 255 220 0
0.501261 0.141543 0.078133 255 220 0
0.490089 0.097361 0.066195 255 220 0
0.534120 0.144995 0.096564 255 220 0
0.509623 0.151888 0.038184 255 220 0
0.580851 0.109715 0.056069 255 220 0
0.559908 0.095961 0.020278 255 220 0
0.523241 0.125303 0.092218 255 220 0
0.557245 0.058320 0.055650 255 220 0
0.508748 0.067533 0.016088 255 220 0
0.489642 0.079981 0.062906 255 220 0
0.544339 0.079336 0.078234 255 220 0
0.486584 0.032683 0.031394 255 220 0
0.540364 0.071600 0.013852 255 220 0
0.529442 0.103434 0.011822 255 220 0
0.556150 0.095418 0.081373 255 220 0
0.555520 0.088741 0.018287 255 220 0
0.563448 0.180120 0.056956 255 220 0
0.509232 0.083707 0.077148 255 220 0
0.542279 0.119296 0.093189 255 220 0
0.547974 0.177442 0.086570 255 220 0
0.581437 0.122384 0.064116 255 220 0
0.547413 0.043020 0.045494 255 220 0
0.517897 0.121073 0.018144 255 220 0
0.565137 0.071235 0.059545 255 220 0
0.543855 0.146773 0.021757 255 220 0
0.542587 0.180367 0.048563 255 220 0
0.555692 0.185171 0.073212 255 220 0
0.485327 0.077008 0.043484 255 220 0
0.552558 0.101860 0.015544 255 220 0
0.568145 0.178068 0.066369 255 220 0
0.508943 0.018205 0.048003 255 220 0
0.542447 0.116728 0.013126 255 220 0
0.572943 0.160068 0.047942 255 220 0
0.560012 0.174152 0.085383 255 220 0
0.525487 0.173622 0.047796 255 220 0
0.510080 0.095715 0.017675 255 220 0
0.562911 0.103826 0.021645 255 220 0
0.545186 0.053645 0.023244 255 220 0
0.510064 0.066881 0.072636 255 220 0
0.561254 0.094276 0.077904 255 220 0
0.537956 0.036731 0.048967 255 220 0
0.503071 0.103933 0.079160 255 220 0
0.542847 0.066724 0.072144 255 220 0
0.532859 0.123872 0.014507 255 220 0
0.496852 0.054146 0.022063 255 220 0
0.502368 0.147089 0.077366 255 220 0
0.550881 0.136342 0.096563 255 220 0
0.507432 0.094112 0.019067 255 220 0
0.568579 0.172849 0.053701 255 220 0
0.538411 0.056435 0.017697 255 220 0
0.514148 0.028168 0.057320 255 220 0
0.538906 0.037938 0.049711 255 220 0
0.580812 0.114900 0.063671 255 220 0
0.579082 0.155879 0.063323 255 220 0
0.529603 0.086717 0.082262 255 220 0
0.527537 0.151946 0.026658 255 220 0
0.529940 0.182563 0.067409 255 220 0
0.557341 0.179208 0.050011 255 220 0
0.505575 0.161800 0.061200 255 220 0
0.482808 0.062285 0.046655 255 220 0
0.493022 0.131957 0.067801 255 220 0
0.487678 0.112479 0.060183 255 220 0
0.551793 0.167412 0.092064 255 220 0
0.536844 0.141600 0.097067 255 220 0
0.558905 0.095057 0.079728 255 220 0
0.575180 0.109891 0.073539 255 220 0
0.576808 0.105065 0.068318 255 220 0
0.566026 0.146734 0.091490 255 220 0
0.548730 0.151397 0.024766 255 220 0
0.556792 0.152948 0.028117 255 220 0
0.580711 0.123096 0.046685 255 220 0
0.488990 0.038182 0.028451 255 220 0
0.507714 0.132589 0.085441 255 220 0
0.531316 0.173392 0.043650 255 220 0
0.524673 0.092340 0.083857 255 220 0
0.550619 0.081531 0.016471 255 220 0
0.536175 0.079896 0.079511 255 220 0
0.521785 0.075594 0.012313 255 220 0
0.565572 0.093302 0.025514 255 220 0
0.581488 0.136505 0.059211 255 220 0
0.578473 0.105168 0.064260 255 220 0
0.563280 0.113766 0.085491 255 220 0
0.511566 0.057908 0.015650 255 220 0
0.567977 0.093655 0.027912 255 220 0
0.542702 0.078582 0.078227 255 220 0
0.503508 0.046529 0.019343 255 220 0
0.529529 0.127189 0.015854 255 220 0
0.491400 0.114530 0.069203 255 220 0
0.494866 0.098505 0.072076 255 220 0
0.541179 0.036125 0.041211 255 220 0
0.546931 0.041898 0.043482 255 220 0
0.555657 0.085379 0.076673 255 220 0
0.502183 0.060901 0.068918 255 220 0
0.575165 0.130476 0.080265 255 220 0
0.556267 0.072049 0.068480 255 220 0
0.549422 0.160806 0.030802 255 220 0
0.563313 0.179967 0.076414 255 220 0
0.556482 0.143185 0.095886 255 220 0
0.560748 0.167058 0.040212 255 220 0
0.549985 0.068285 0.019706 255 220 0
0.497498 0.142956 0.071696 255 220 0
0.488757 0.121523 0.054568 255 220 0
0.491698 0.047613 0.025674 255 220 0
0.557300 0.073696 0.023325 255 220 0
0.539445 0.054081 0.065549 255 220 0
0.494037 0.093877 0.030537 255 220 0
0.492693 0.127645 0.044453 255 220 0
0.482956 0.053829 0.054562 255 220 0
0.534140 0.108996 0.090031 255 220 0
0.505779 0.081844 0.075246 255 220 0
0.581257 0.135656 0.054551 255 220 0
0.572825 0.092508 0.034574 255 220 0
0.506808 0.087926 0.077292 255 220 0
0.529919 0.132399 0.017218 255 220 0
0.518567 0.036972 0.060947 255 220 0
0.528804 0.080943 0.011411 255 220 0
0.540379 0.099657 0.087155 255 220 0
0.536464 0.093729 0.011341 255 220 0
0.580417 0.111115 0.062405 255 220 0
0.522901 0.076825 0.012113 255 220 0
0.571368 0.128683 0.084324 255 220 0
0.515100 0.020062 0.046079 255 220 0
0.498334 0.121604 0.032881 255 220 0
0.543771 0.182328 0.081454 255 220 0
0.514215 0.081578 0.014317 255 220 0
0.488184 0.046896 0.061429 255 220 0
0.527030 0.136848 0.019413 255 220 0
0.529954 0.182590 0.063944 255 220 0
0.551808 0.170725 0.039083 255 220 0
0.579957 0.128115 0.070286 255 220 0
0.505328 0.016035 0.038930 255 220 0
0.521687 0.057902 0.014222 255 220 0
0.500830 0.053125 0.019818 255 220 0
0.529669 0.069948 0.075254 255 220 0
0.547858 0.157692 0.096168 255 220 0
0.551548 0.172761 0.089213 255 220 0
0.510944 0.017442 0.042822 255 220 0
0.508021 0.073924 0.016576 255 220 0
0.519483 0.162430 0.086490 255 220 0
0.566054 0.140392 0.028965 255 220 0
0.490659 0.070231 0.029464 255 220 0
0.579168 0.142016 0.049414 255 220 0
0.525814 0.060620 0.013674 255 220 0
0.557226 0.104089 0.017875 255 220 0
0.578471 0.157973 0.068582 255 220 0
0.502989 0.017138 0.049233 255 220 0
0.502666 0.027928 0.025778 255 220 0
0.573638 0.101044 0.070914 255 220 0
0.485532 0.067047 0.055906 255 220 0
0.528746 0.093797 0.011406 255 220 0
0.512899 0.153289 0.036049 255 220 0
0.515246 0.172341 0.070562 255 220 0
0.504482 0.136803 0.082567 255 220 0
0.489662 0.114221 0.065951 255 220 0
0.505049 0.072815 0.072604 255 220 0
0.478872 0.034982 0.042157 255 220 0
0.579617 0.104450 0.057409 255 220 0
0.499152 0.098046 0.026136 255 220 0
0.558064 0.168532 0.039764 255 220 0
0.518828 0.172192 0.077644 255 220 0
0.540605 0.137505 0.017895 255 220 0
0.545457 0.144028 0.020719 255 220 0
0.508003 0.072058 0.073464 255 220 0
0.516911 0.151030 0.089235 255 220 0
0.548868 0.073351 0.073629 255 220 0
0.510088 0.139487 0.029406 255 220 0
0.540414 0.132589 0.096328 255 220 0
0.524788 0.143733 0.093989 255 220 0
0.578712 0.134828 0.074455 255 220 0
0.479539 0.034668 0.052353 255 220 0
0.482016 0.024314 0.043027 255 220 0
0.538003 0.069753 0.013524 255 220 0
0.544782 0.039298 0.037515 255 220 0
0.548050 0.088050 0.014354 255 220 0
0.502230 0.032073 0.023719 255 220 0
0.557617 0.185602 0.065530 255 220 0
0.569711 0.071685 0.051554 255 220 0
0.534828 0.160285 0.094055 255 220 0
0.567057 0.072900 0.034227 255 220 0
0.576474 0.141685 0.080187 255 220 0
0.563243 0.060259 0.046859 255 220 0
0.531973 0.097113 0.086059 255 220 0
0.517783 0.146544 0.027605 255 220 0
0.507003 0.139842 0.032292 255 220 0
0.518115 0.126562 0.019522 255 220 0
0.555489 0.104339 0.016898 255 220 0
0.529694 0.059748 0.070584 255 220 0
0.509518 0.132828 0.026951 255 220 0
0.581759 0.132148 0.056220 255 220 0
0.508339 0.084245 0.076943 255 220 0
0.572538 0.098464 0.070741 255 220 0
0.546482 0.078006 0.076992 255 220 0
0.491608 0.062834 0.064058 255 220 0
0.529777 0.053235 0.015983 255 220 0
0.526209 0.104606 0.087931 255 220 0
0.565796 0.169880 0.047074 255 220 0
0.543505 0.058100 0.019786 255 220 0
0.534543 0.120708 0.093329 255 220 0
0.521795 0.173428 0.050913 255 220 0
0.575887 0.102001 0.037267 255 220 0
0.512420 0.022252 0.052908 255 220 0
0.519201 0.155355 0.032648 255 220 0
0.567800 0.177956 0.062008 255 220 0
0.504190 0.153693 0.075809 255 220 0
0.505512 0.157586 0.050587 255 220 0
0.498004 0.123662 0.077301 255 220 0
0.486129 0.073550 0.056041 255 220 0
0.514154 0.023242 0.052971 255 220 0
0.541930 0.072425 0.014221 255 220 0
0.537839 0.181919 0.052435 255 220 0
0.553017 0.187008 0.065839 255 220 0
0.563392 0.168292 0.043373 255 220 0
0.571107 0.151877 0.039831 255 220 0
0.547920 0.182139 0.050678 255 220 0
0.509247 0.135306 0.086444 255 220 0
0.531368 0.105193 0.088696 255 220 0
0.480745 0.032415 0.054149 255 220 0
0.563060 0.108591 0.083520 255 220 0
0.499208 0.023424 0.029361 255 220 0
0.500903 0.088116 0.074373 255 220 0
0.537644 0.046811 0.021928 255 220 0
0.542157 0.147231 0.021902 255 220 0
0.540028 0.085290 0.012032 255 220 0
0.534698 0.173936 0.042800 255 220 0
0.578860 0.117523 0.041125 255 220 0
0.564573 0.104438 0.080749 255 220 0
0.578345 0.130194 0.041996 255 220 0
0.570193 0.121494 0.083218 255 220 0
0.494598 0.040539 0.024255 255 220 0
0.555497 0.050403 0.039955 255 220 0
0.574346 0.159380 0.049849 255 220 0
0.487780 0.077979 0.059609 255 220 0
0.523334 0.066489 0.073877 255 220 0
0.499361 0.085216 0.023485 255 220 0
0.552482 0.187000 0.063749 255 220 0
0.498435 0.121511 0.077759 255 220 0
0.545076 0.046157 0.054281 255 220 0
0.546323 0.184805 0.077767 255 220 0
0.521736 0.166032 0.041405 255 220 0
0.554594 0.157626 0.095137 255 220 0
0.536933 0.069772 0.074790 255 220 0
0.513019 0.020663 0.049877 255 220 0
0.487751 0.096298 0.061512 255 220 0
0.548582 0.144705 0.097602 255 220 0
0.540887 0.035639 0.036466 255 220 0
0.519183 0.051081 0.015754 255 220 0
0.581581 0.118504 0.061898 255 220 0
0.545439 0.144122 0.097768 255 220 0
0.546409 0.054774 0.023531 255 220 0
0.504161 0.061165 0.069571 255 220 0
0.570582 0.071963 0.045224 255 220 0
0.535405 0.087720 0.082767 255 220 0
0.566540 0.168962 0.084374 255 220 0
0.525510 0.064647 0.012987 255 220 0
0.526200 0.055360 0.068871 255 220 0
0.509400 0.042123 0.064576 255 220 0
0.572266 0.115416 0.079096 255 220 0
0.495248 0.096698 0.029756 255 220 0
0.548868 0.053279 0.026462 255 220 0
0.549853 0.047923 0.050919 255 220 0
0.512507 0.033550 0.022024 255 220 0
0.538049 0.035120 0.031206 255 220 0
0.510492 0.166297 0.072196 255 220 0
0.539980 0.103752 0.011793 255 220 0
0.500553 0.060468 0.068303 255 220 0
0.479680 0.029926 0.041743 255 220 0
0.577187 0.132179 0.077319 255 220 0
0.552739 0.051841 0.052926 255 220 0
0.556262 0.127876 0.093472 255 220 0
0.500746 0.118484 0.029492 255 220 0
0.520802 0.177522 0.062809 255 220 0
0.517718 0.173112 0.056047 255 220 0
0.494081 0.074931 0.026565 255 220 0
0.563507 0.106860 0.082511 255 220 0
0.501108 0.058453 0.019602 255 220 0
0.505909 0.161074 0.056594 255 220 0
0.532174 0.138396 0.018773 255 220 0
0.533188 0.093522 0.084857 255 220 0
0.579084 0.150415 0.055271 255 220 0
0.522582 0.093629 0.083936 255 220 0
0.548175 0.094834 0.084264 255 220 0
0.556632 0.092313 0.018522 255 220 0
0.500554 0.054477 0.067172 255 220 0
0.485630 0.023280 0.037838 255 220 0
0.499408 0.103430 0.026995 255 220 0
0.562054 0.164367 0.089907 255 220 0
0.501900 0.046309 0.019958 255 220 0
0.546231 0.137193 0.018520 255 220 0
0.540426 0.066303 0.072514 255 220 0
0.481794 0.024403 0.043640 255 220 0
0.543943 0.053496 0.022415 255 220 0
0.554662 0.169474 0.038922 255 220 0
0.577582 0.097166 0.059124 255 220 0
0.500193 0.109733 0.027669 255 220 0
0.530489 0.158338 0.093408 255 220 0
0.484260 0.070141 0.049944 255 220 0
0.544857 0.181052 0.049226 255 220 0
0.547812 0.173169 0.089464 255 220 0
0.494574 0.134751 0.046152 255 220 0
0.571731 0.169230 0.054767 255 220 0
0.494281 0.113290 0.034878 255 220 0
0.572059 0.139240 0.086131 255 220 0
0.559945 0.168721 0.041110 255 220 0
0.570205 0.091799 0.069160 255 220 0
0.563269 0.107712 0.021646 255 220 0
0.545816 0.042349 0.047263 255 220 0
0.531187 0.124725 0.093895 255 220 0
0.563363 0.069489 0.031220 255 220 0
0.528090 0.145295 0.022804 255 220 0
0.499938 0.152969 0.057192 255 220 0
0.510242 0.152399 0.083772 255 220 0
0.516399 0.149706 0.030403 255 220 0
0.511004 0.146417 0.032543 255 220 0
0.561195 0.080967 0.070424 255 220 0
0.510366 0.160075 0.079489 255 220 0
0.550407 0.108983 0.014548 255 220 0
0.498808 0.103736 0.076263 255 220 0
0.491563 0.097119 0.034691 255 220 0
0.490112 0.104833 0.067029 255 220 0
0.536356 0.034203 0.030323 255 220 0
0.486186 0.027980 0.033462 255 220 0
0.529581 0.090603 0.083693 255 220 0
0.576435 0.104294 0.037771 255 220 0
0.514199 0.154508 0.086284 255 220 0
0.522617 0.032971 0.057017 255 220 0
0.498363 0.037311 0.023117 255 220 0
0.498259 0.149631 0.056227 255 220 0
0.554671 0.061625 0.026541 255 220 0
0.527671 0.096736 0.011639 255 220 0
0.515650 0.105921 0.085522 255 220 0
0.543992 0.114028 0.013050 255 220 0
0.568684 0.068404 0.044448 255 220 0
0.530679 0.133566 0.095283 255 220 0
0.484545 0.052477 0.057668 255 220 0
0.577490 0.156757 0.074869 255 220 0
0.574686 0.153037 0.045929 255 220 0
0.523507 0.098053 0.012453 255 220 0
0.570804 0.080367 0.036129 255 220 0
0.569572 0.147633 0.088898 255 220 0
0.496540 0.146798 0.062811 255 220 0
0.578498 0.127666 0.073803 255 220 0
0.555519 0.167032 0.091367 255 220 0
0.507335 0.095763 0.079534 255 220 0
0.564071 0.061966 0.039368 255 220 0
0.568218 0.173339 0.078620 255 220 0
0.536578 0.068627 0.074271 255 220 0
0.514849 0.101981 0.015982 255 220 0
0.502836 0.062973 0.018803 255 220 0
0.495257 0.026645 0.028523 255 220 0
0.509070 0.163034 0.074471 255 220 0
0.490880 0.130266 0.058198 255 220 0
0.581643 0.119021 0.061774 255 220 0
0.560579 0.149955 0.028734 255 220 0
0.551870 0.179698 0.048233 255 220 0
0.568622 0.154131 0.038123 255 220 0
0.563875 0.071653 0.030709 255 220 0
0.519878 0.092513 0.012991 255 220 0
0.517125 0.167691 0.047911 255 220 0
0.579820 0.151279 0.066675 255 220 0
0.485592 0.076268 0.041590 255 220 0
0.492511 0.041397 0.062948 255 220 0
0.493894 0.034521 0.062396 255 220 0
0.492552 0.122385 0.041287 255 220 0
0.546589 0.080932 0.014548 255 220 0
0.489472 0.020908 0.037101 255 220 0
0.570416 0.155724 0.086871 255 220 0
0.521042 0.157509 0.089624 255 220 0
0.567062 0.070062 0.055410 255 220 0
0.564987 0.115718 0.085166 255 220 0
0.564702 0.073693 0.030705 255 220 0
0.511771 0.024492 0.055641 255 220 0
0.494782 0.142403 0.061069 255 220 0
0.549572 0.044226 0.037898 255 220 0
0.524885 0.180207 0.064802 255 220 0
0.544260 0.047820 0.057054 255 220 0
0.521414 0.035992 0.059598 255 220 0
0.531483 0.088716 0.011178 255 220 0
0.511527 0.169210 0.065482 255 220 0
0.565531 0.141201 0.028809 255 220 0
0.552964 0.090890 0.016493 255 220 0
0.501820 0.155674 0.067965 255 220 0
0.575785 0.087304 0.044146 255 220 0
0.541126 0.160437 0.030228 255 220 0
0.524174 0.119763 0.091442 255 220 0
0.514824 0.147597 0.030192 255 220 0
0.550868 0.149534 0.097203 255 220 0
0.508545 0.081774 0.076352 255 220 0
0.535657 0.061311 0.014958 255 220 0
0.495283 0.139056 0.069139 255 220 0
0.512976 0.028448 0.057925 255 220 0
0.502651 0.050071 0.019183 255 220 0
0.538694 0.162873 0.093961 255 220 0
0.538651 0.091011 0.011620 255 220 0
0.577085 0.142004 0.079014 255 220 0
0.505148 0.022938 0.029082 255 220 0
0.512052 0.151492 0.085702 255 220 0
0.581289 0.112164 0.055262 255 220 0
0.537682 0.125707 0.014597 255 220 0
0.497927 0.100870 0.027857 255 220 0
0.554034 0.071863 0.069900 255 220 0
0.553101 0.157852 0.029617 255 220 0
0.486206 0.062960 0.058125 255 220 0
0.542016 0.172060 0.090009 255 220 0
0.577486 0.095667 0.044767 255 220 0
0.518941 0.025061 0.028884 255 220 0
0.577009 0.108127 0.069796 255 220 0
0.506759 0.127454 0.027152 255 220 0
0.577057 0.123663 0.037925 255 220 0
0.573616 0.090283 0.063537 255 220 0
0.554441 0.155110 0.095740 255 220 0
0.550112 0.107386 0.088749 255 220 0
0.573099 0.098804 0.033187 255 220 0
0.538940 0.185907 0.066015 255 220 0
0.523050 0.074436 0.077143 255 220 0
0.489540 0.060311 0.028913 255 220 0
0.500202 0.108801 0.078122 255 220 0
0.570576 0.168936 0.052270 255 220 0
0.555144 0.093229 0.017502 255 220 0
0.576588 0.120093 0.036623 255 220 0
0.519660 0.070576 0.075410 255 220 0
0.517110 0.125076 0.019605 255 220 0
0.527655 0.126392 0.093554 255 220 0
0.511474 0.086656 0.078828 255 220 0
0.534330 0.148707 0.023305 255 220 0
0.579874 0.115592 0.044038 255 220 0
0.507943 0.017464 0.046753 255 220 0
0.561543 0.180393 0.054920 255 220 0
0.528933 0.027910 0.045001 255 220 0
0.486082 0.027197 0.057769 255 220 0
0.498835 0.029586 0.025747 255 220 0
0.499199 0.101467 0.076148 255 220 0
0.536381 0.059251 0.069518 255 220 0
0.556785 0.098959 0.082693 255 220 0
0.513636 0.019086 0.034285 255 220 0
0.579538 0.130502 0.044931 255 220 0
0.576759 0.155856 0.052298 255 220 0
0.521564 0.026629 0.051305 255 220 0
0.498749 0.019701 0.033093 255 220 0
0.509942 0.017075 0.042596 255 220 0
0.530513 0.096869 0.085910 255 220 0
0.578466 0.098603 0.048422 255 220 0
0.494133 0.137430 0.050663 255 220 0
0.512803 0.134404 0.025187 255 220 0
0.500829 0.080904 0.072624 255 220 0
0.510367 0.116507 0.085518 255 220 0
0.491862 0.131664 0.051612 255 220 0
0.494716 0.096427 0.030304 255 220 0
0.489286 0.041196 0.061725 255 220 0
0.511335 0.021368 0.030838 255 220 0
0.510968 0.018847 0.047754 255 220 0
0.494010 0.098321 0.071200 255 220 0
0.534407 0.164808 0.034134 255 220 0
0.552564 0.063064 0.064777 255 220 0
0.488130 0.029324 0.031279 255 220 0
0.489228 0.078004 0.033389 255 220 0
0.491618 0.026722 0.060099 255 220 0
0.527807 0.051140 0.066662 255 220 0
0.499509 0.152659 0.058669 255 220 0
0.555023 0.071286 0.022324 255 220 0
0.494260 0.016697 0.042924 255 220 0
0.498990 0.042253 0.021772 255 220 0
0.567973 0.117498 0.083694 255 220 0
0.514158 0.107655 0.017219 255 220 0
0.494263 0.074980 0.067124 255 220 0
0.525663 0.026116 0.045899 255 220 0
0.490032 0.093225 0.036308 255 220 0
0.580132 0.117360 0.067262 255 220 0
0.554158 0.156884 0.095422 255 220 0
0.512877 0.061742 0.071596 255 220 0
0.559710 0.167950 0.040272 255 220 0
0.505185 0.021747 0.030118 255 220 0
0.506160 0.116386 0.083194 255 220 0
0.492126 0.131725 0.050451 255 220 0
0.500258 0.076744 0.071350 255 220 0
0.511834 0.159535 0.043707 255 220 0
0.570540 0.094027 0.070237 255 220 0
0.537136 0.161457 0.094180 255 220 0
0.499931 0.113533 0.078542 255 220 0
0.578924 0.102028 0.047456 255 220 0
0.494124 0.137617 0.066765 255 220 0
0.564833 0.062577 0.040908 255 220 0
0.544193 0.059008 0.066929 255 220 0
0.558595 0.062268 0.058488 255 220 0
0.482210 0.057904 0.049200 255 220 0
0.489023 0.073833 0.032602 255 220 0
0.569176 0.105029 0.027138 255 220 0
0.509743 0.129056 0.025389 255 220 0
0.538532 0.102012 0.011592 255 220 0
0.502685 0.071769 0.019377 255 220 0
0.520718 0.026868 0.027795 255 220 0
0.559341 0.160191 0.092820 255 220 0
0.531800 0.047014 0.063465 255 220 0
0.574839 0.091809 0.038539 255 220 0
0.516946 0.107613 0.086403 255 220 0
0.517656 0.150787 0.030269 255 220 0
0.565310 0.114340 0.023114 255 220 0
0.579991 0.148469 0.058162 255 220 0
0.509977 0.133976 0.086966 255 220 0
0.559301 0.077517 0.069742 255 220 0
0.539481 0.069596 0.074392 255 220 0
0.548670 0.092792 0.014306 255 220 0
0.501534 0.017880 0.051527 255 220 0
0.493144 0.027446 0.060673 255 220 0
0.488180 0.113067 0.047323 255 220 0
0.573308 0.104008 0.032403 255 220 0
0.515435 0.172553 0.059991 255 220 0
0.494684 0.133190 0.071044 255 220 0
0.486900 0.107082 0.049933 255 220 0
0.558728 0.060056 0.055857 255 220 0
0.523175 0.063062 0.072434 255 220 0
0.560144 0.072416 0.065636 255 220 0
0.550364 0.118603 0.015222 255 220 0
0.517677 0.020847 0.044650 255 220 0
0.485495 0.039012 0.059455 255 220 0
0.515634 0.112065 0.017246 255 220 0
0.506643 0.119056 0.024663 255 220 0
0.565816 0.087962 0.027032 255 220 0
0.509077 0.162166 0.051286 255 220 0
0.577856 0.127856 0.075138 255 220 0
0.568458 0.137453 0.030167 255 220 0
0.563653 0.154125 0.033254 255 220 0
0.479627 0.035173 0.039969 255 220 0
0.535726 0.172629 0.041043 255 220 0
0.503144 0.062913 0.069645 255 220 0
0.564833 0.151861 0.091870 255 220 0
0.485134 0.062433 0.056301 255 220 0
0.544587 0.057785 0.020640 255 220 0
0.536931 0.041395 0.024771 255 220 0
0.574487 0.153841 0.046109 255 220 0
0.503249 0.141520 0.037312 255 220 0
0.532222 0.148215 0.023389 255 220 0
0.494706 0.142202 0.059177 255 220 0
0.498406 0.148092 0.069476 255 220 0
0.484781 0.047087 0.058653 255 220 0
0.569116 0.075195 0.057702 255 220 0
0.506633 0.101201 0.020763 255 220 0
0.487400 0.101153 0.060947 255 220 0
0.510839 0.027819 0.025465 255 220 0
0.520347 0.096188 0.084260 255 220 0
0.525326 0.146544 0.093961 255 220 0
0.569559 0.070477 0.042679 255 220 0
0.576926 0.096602 0.061086 255 220 0
0.575103 0.085898 0.056016 255 220 0
0.511086 0.089995 0.079619 255 220 0
0.493649 0.121833 0.072061 255 220 0
0.570366 0.094556 0.070750 255 220 0
0.499472 0.151825 0.056194 255 220 0
0.566743 0.166402 0.044918 255 220 0
0.513963 0.099874 0.016136 255 220 0
0.579573 0.107171 0.046332 255 220 0
0.500515 0.096303 0.024583 255 220 0
0.510791 0.163497 0.076936 255 220 0
0.549516 0.162788 0.094429 255 220 0
0.539385 0.158166 0.095563 255 220 0
0.504353 0.158874 0.055908 255 220 0
0.528602 0.041898 0.020333 255 220 0
0.529766 0.114356 0.091230 255 220 0
0.566018 0.153160 0.034846 255 220 0
0.515004 0.089642 0.080877 255 220 0
0.570825 0.147530 0.037112 255 220 0
0.578388 0.114940 0.040112 255 220 0
0.495044 0.129590 0.041100 255 220 0
0.482245 0.043643 0.056069 255 220 0
0.546530 0.106544 0.013220 255 220 0
0.503375 0.107541 0.080055 255 220 0
0.534154 0.099572 0.011304 255 220 0
0.567206 0.172120 0.081221 255 220 0
0.522681 0.042645 0.018610 255 220 0
0.551814 0.142784 0.097065 255 220 0
0.488299 0.083358 0.061066 255 220 0
0.549581 0.162872 0.094390 255 220 0
0.571261 0.156655 0.043002 255 220 0
0.541028 0.099396 0.011913 255 220 0
0.577198 0.115620 0.037562 255 220 0
0.491404 0.118415 0.041492 255 220 0
0.550609 0.152269 0.096971 255 220 0
0.553630 0.085561 0.077840 255 220 0
0.525399 0.081045 0.011673 255 220 0
0.534567 0.047862 0.019733 255 220 0
0.496946 0.130955 0.075285 255 220 0
0.549607 0.071029 0.018494 255 220 0
0.556093 0.174725 0.086737 255 220 0
0.506609 0.159327 0.074440 255 220 0
0.575289 0.086256 0.043092 255 220 0
0.550290 0.057824 0.024884 255 220 0
0.537570 0.129038 0.015418 255 220 0
0.555746 0.141106 0.022688 255 220 0
0.518707 0.130755 0.020531 255 220 0
0.572069 0.075600 0.050289 255 220 0
0.504388 0.025991 0.059045 255 220 0
0.568132 0.158490 0.040328 255 220 0
