ply
format ascii 1.0
element vertex 1024
property float x
property float y
property float z
property uchar red
property uchar green
property uchar blue
end_header
0.527914 0.203253 0.245489 255 220 0
0.531227 0.094217 0.178431 255 220 0
0.538565 0.043868 0.192850 255 220 0
0.528716 0.045708 0.189044 255 220 0
0.545141 0.124129 0.177957 255 220 0
0.512357 0.093955 0.237048 255 220 0
0.559552 0.156783 0.259318 255 220 0
0.533279 0.065191 0.230997 255 220 0
0.541268 0.039096 0.199847 255 220 0
0.538762 0.139566 0.179625 255 220 0
0.555551 0.131425 0.181184 255 220 0
0.527594 0.060138 0.183398 255 220 0
0.535264 0.081332 0.237541 255 220 0
0.510519 0.117023 0.244558 255 220 0
0.565673 0.195074 0.232322 255 220 0
0.523767 0.190879 0.254606 255 220 0
0.500933 0.059304 0.200413 255 220 0
0.548856 0.171786 0.191110 255 220 0
0.579426 0.105981 0.227749 255 220 0
0.505163 0.186484 0.226874 255 220 0
0.540261 0.048750 0.190007 255 220 0
0.547221 0.184959 0.199450 255 220 0
0.536307 0.035962 0.207595 255 220 0
0.513896 0.170091 0.197903 255 220 0
0.515562 0.148477 0.188687 255 220 0
0.542435 0.050541 0.220979 255 220 0
0.510277 0.032668 0.210706 255 220 0
0.552073 0.202750 0.246550 255 220 0
0.504872 0.145500 0.196066 255 220 0
0.574100 0.113142 0.194037 255 220 0
0.577933 0.088366 0.213304 255 220 0
0.525396 0.097132 0.179866 255 220 0
0.520753 0.103474 0.181765 255 220 0
0.526893 0.129759 0.180468 255 220 0
0.494933 0.105121 0.220817 255 220 0
0.542863 0.204557 0.248304 255 220 0
0.522695 0.153502 0.186386 255 220 0
0.535679 0.064203 0.182273 255 220 0
0.503294 0.106532 0.194646 255 220 0
0.522294 0.123589 0.251950 255 220 0
0.560379 0.090406 0.236728 255 220 0
0.546328 0.048336 0.193265 255 220 0
0.495875 0.164151 0.235238 255 220 0
0.564090 0.173338 0.256564 255 220 0
0.545882 0.121143 0.177891 255 220 0
0.513766 0.085497 0.234764 255 220 0
0.507803 0.126642 0.246191 255 220 0
0.527613 0.047922 0.187792 255 220 0
0.530589 0.119550 0.178641 255 220 0
0.506339 0.069858 0.192436 255 220 0
0.492126 0.147576 0.227999 255 220 0
0.542334 0.159935 0.184933 255 220 0
0.494687 0.115227 0.207848 255 220 0
0.541476 0.087838 0.178342 255 220 0
0.581047 0.101229 0.221155 255 220 0
0.507416 0.057961 0.225082 255 220 0
0.583932 0.137483 0.220118 255 220 0
0.532437 0.181777 0.261557 255 220 0
0.523644 0.121128 0.181016 255 220 0
0.550996 0.148882 0.261188 255 220 0
0.520350 0.104655 0.181975 255 220 0
0.529685 0.108085 0.248144 255 220 0
0.511482 0.038928 0.196335 255 220 0
0.506843 0.147473 0.194764 255 220 0
0.496495 0.164654 0.217249 255 220 0
0.503102 0.153055 0.248052 255 220 0
0.555283 0.155965 0.186662 255 220 0
0.529923 0.206696 0.227535 255 220 0
0.532072 0.175767 0.262877 255 220 0
0.532575 0.180145 0.196436 255 220 0
0.521247 0.188758 0.207490 255 220 0
0.535670 0.051756 0.224685 255 220 0
0.576008 0.122187 0.196180 255 220 0
0.517669 0.046062 0.190002 255 220 0
0.576991 0.139630 0.242741 255 220 0
0.531335 0.179488 0.261899 255 220 0
0.571263 0.075184 0.210332 255 220 0
0.561667 0.099868 0.240539 255 220 0
0.504437 0.069659 0.224938 255 220 0
0.558230 0.172183 0.195320 255 220 0
0.566688 0.176900 0.253184 255 220 0
0.539974 0.102180 0.246418 255 220 0
0.554730 0.161827 0.188702 255 220 0
0.557500 0.170081 0.260875 255 220 0
0.502757 0.119736 0.240235 255 220 0
0.508324 0.051787 0.224399 255 220 0
0.562018 0.104328 0.242269 255 220 0
0.546150 0.176375 0.193292 255 220 0
0.577479 0.135932 0.199331 255 220 0
0.531303 0.061891 0.229834 255 220 0
0.498193 0.116453 0.200706 255 220 0
0.567928 0.187004 0.219538 255 220 0
0.565609 0.188462 0.217141 255 220 0
0.520217 0.160013 0.259693 255 220 0
0.550245 0.193011 0.256178 255 220 0
0.500547 0.054992 0.217705 255 220 0
0.528643 0.170402 0.191269 255 220 0
0.554500 0.114307 0.249519 255 220 0
0.506754 0.073074 0.191809 255 220 0
0.532686 0.194016 0.207353 255 220 0
0.499733 0.092654 0.225224 255 220 0
0.548246 0.198619 0.212869 255 220 0
0.579956 0.130076 0.236377 255 220 0
0.573955 0.175607 0.219037 255 220 0
0.552504 0.075366 0.183614 255 220 0
0.561369 0.059780 0.207074 255 220 0
0.574642 0.164838 0.244423 255 220 0
0.550883 0.207231 0.232566 255 220 0
0.506324 0.170217 0.205492 255 220 0
0.524852 0.034086 0.198390 255 220 0
0.510161 0.125812 0.247341 255 220 0
0.527443 0.156021 0.185446 255 220 0
0.564029 0.088697 0.233462 255 220 0
0.508014 0.110512 0.190181 255 220 0
0.537069 0.208907 0.237970 255 220 0
0.520242 0.193393 0.250484 255 220 0
0.536302 0.111737 0.250103 255 220 0
0.569722 0.186245 0.222974 255 220 0
0.511902 0.166168 0.197288 255 220 0
0.526702 0.133331 0.256306 255 220 0
0.502113 0.181342 0.226594 255 220 0
0.545759 0.179788 0.262871 255 220 0
0.500267 0.051991 0.216628 255 220 0
0.554812 0.107408 0.179758 255 220 0
0.561365 0.150222 0.187624 255 220 0
0.573675 0.175839 0.218453 255 220 0
0.500219 0.175672 0.236910 255 220 0
0.498764 0.086465 0.219802 255 220 0
0.568135 0.190430 0.226616 255 220 0
0.494911 0.165445 0.226951 255 220 0
0.553125 0.109626 0.248110 255 220 0
0.566304 0.092943 0.234110 255 220 0
0.570386 0.150671 0.194777 255 220 0
0.533700 0.124137 0.254361 255 220 0
0.536540 0.172238 0.264184 255 220 0
0.546608 0.162235 0.264082 255 220 0
0.502984 0.074137 0.224130 255 220 0
0.566407 0.118895 0.245396 255 220 0
0.497515 0.116225 0.233346 255 220 0
0.583619 0.138843 0.226381 255 220 0
0.576404 0.087011 0.204770 255 220 0
0.521191 0.094591 0.240973 255 220 0
0.512256 0.132103 0.250460 255 220 0
0.498512 0.065420 0.210058 255 220 0
0.519120 0.103249 0.243522 255 220 0
0.534779 0.175896 0.263433 255 220 0
0.502294 0.159562 0.247115 255 220 0
0.557485 0.198038 0.218885 255 220 0
0.533318 0.034344 0.207896 255 220 0
0.555167 0.151972 0.185232 255 220 0
0.492255 0.132908 0.213152 255 220 0
0.555530 0.129315 0.254405 255 220 0
0.500397 0.050801 0.216617 255 220 0
0.517524 0.149287 0.257223 255 220 0
0.535537 0.146596 0.261186 255 220 0
0.566550 0.071826 0.198319 255 220 0
0.545890 0.095315 0.243183 255 220 0
0.581799 0.154148 0.220223 255 220 0
0.565156 0.065736 0.202302 255 220 0
0.573793 0.136934 0.194731 255 220 0
0.514231 0.126798 0.249817 255 220 0
0.506814 0.052762 0.223752 255 220 0
0.545872 0.147137 0.261589 255 220 0
0.529438 0.139059 0.180987 255 220 0
0.550127 0.150465 0.261730 255 220 0
0.508595 0.109526 0.189677 255 220 0
0.524918 0.062496 0.183225 255 220 0
0.547014 0.102426 0.246246 255 220 0
0.525455 0.204253 0.239421 255 220 0
0.567613 0.079706 0.194973 255 220 0
0.505522 0.081496 0.192741 255 220 0
0.546250 0.200011 0.213746 255 220 0
0.492831 0.142737 0.213745 255 220 0
0.540690 0.157917 0.263937 255 220 0
0.493362 0.112328 0.215223 255 220 0
0.532033 0.085622 0.239347 255 220 0
0.560572 0.074163 0.226216 255 220 0
0.526202 0.048034 0.187724 255 220 0
0.529499 0.173551 0.192853 255 220 0
0.507398 0.053106 0.193367 255 220 0
0.544563 0.209106 0.235011 255 220 0
0.492341 0.118399 0.216325 255 220 0
0.520430 0.194790 0.249358 255 220 0
0.502903 0.125052 0.195036 255 220 0
0.543513 0.045541 0.215405 255 220 0
0.500007 0.072224 0.218757 255 220 0
0.527253 0.032088 0.203263 255 220 0
0.542320 0.196257 0.255667 255 220 0
0.555092 0.051239 0.203515 255 220 0
0.575207 0.082464 0.212184 255 220 0
0.558100 0.077090 0.186663 255 220 0
0.522877 0.155391 0.186869 255 220 0
0.504720 0.053785 0.222472 255 220 0
0.500338 0.125631 0.197712 255 220 0
0.532633 0.207101 0.241410 255 220 0
0.545583 0.093679 0.178163 255 220 0
0.584398 0.119140 0.215208 255 220 0
0.536064 0.056412 0.226732 255 220 0
0.563386 0.065868 0.198014 255 220 0
0.513984 0.112829 0.185859 255 220 0
0.573392 0.176238 0.218160 255 220 0
0.510926 0.073963 0.230185 255 220 0
0.508744 0.172859 0.251415 255 220 0
0.569459 0.137572 0.190540 255 220 0
0.524312 0.199220 0.247959 255 220 0
0.508808 0.096917 0.236135 255 220 0
0.553674 0.158493 0.186996 255 220 0
0.523209 0.031521 0.204305 255 220 0
0.577679 0.151460 0.241913 255 220 0
0.569914 0.084138 0.224908 255 220 0
0.540457 0.038898 0.208084 255 220 0
0.520962 0.122528 0.251143 255 220 0
0.550397 0.150509 0.261676 255 220 0
0.580173 0.161150 0.225772 255 220 0
0.549328 0.051941 0.216322 255 220 0
0.505552 0.162505 0.250320 255 220 0
0.551700 0.063305 0.224557 255 220 0
0.571410 0.086500 0.225042 255 220 0
0.549015 0.070575 0.183490 255 220 0
0.496608 0.116132 0.231983 255 220 0
0.531547 0.203554 0.219005 255 220 0
0.583492 0.125484 0.210876 255 220 0
0.508425 0.096723 0.235816 255 220 0
0.516109 0.092702 0.184224 255 220 0
0.512242 0.171543 0.254557 255 220 0
0.571624 0.158703 0.250009 255 220 0
0.529962 0.180439 0.197125 255 220 0
0.499056 0.055870 0.205605 255 220 0
0.546421 0.050980 0.218266 255 220 0
0.519430 0.161653 0.190482 255 220 0
0.504550 0.051091 0.196449 255 220 0
0.556557 0.100498 0.180812 255 220 0
0.568084 0.092567 0.190628 255 220 0
0.541004 0.042232 0.213964 255 220 0
0.574055 0.118109 0.239267 255 220 0
0.509698 0.058603 0.190591 255 220 0
0.556168 0.052502 0.203057 255 220 0
0.500450 0.061671 0.201299 255 220 0
0.539952 0.181385 0.196485 255 220 0
0.576871 0.149097 0.243354 255 220 0
0.498194 0.126077 0.237732 255 220 0
0.495552 0.142654 0.237747 255 220 0
0.583054 0.136330 0.212051 255 220 0
0.526210 0.109596 0.248038 255 220 0
0.517015 0.093637 0.183686 255 220 0
0.570945 0.106263 0.236928 255 220 0
0.582743 0.104960 0.218774 255 220 0
0.563239 0.101409 0.240301 255 220 0
0.513149 0.189313 0.247297 255 220 0
0.545011 0.139555 0.259601 255 220 0
0.506795 0.142173 0.193691 255 220 0
0.525348 0.204517 0.227774 255 220 0
0.573190 0.093837 0.228263 255 220 0
0.533920 0.202647 0.216722 255 220 0
0.538316 0.198757 0.253996 255 220 0
0.523025 0.097620 0.242694 255 220 0
0.526194 0.044860 0.224194 255 220 0
0.584015 0.131279 0.216761 255 220 0
0.553936 0.101682 0.179629 255 220 0
0.572834 0.078036 0.211301 255 220 0
0.545473 0.048764 0.216936 255 220 0
0.524185 0.200026 0.246766 255 220 0
0.556729 0.115452 0.249142 255 220 0
0.521919 0.062633 0.183897 255 220 0
0.557385 0.099395 0.242400 255 220 0
0.515393 0.056587 0.187505 255 220 0
0.555753 0.128187 0.180983 255 220 0
0.496886 0.163187 0.214913 255 220 0
0.562879 0.179690 0.204577 255 220 0
0.544270 0.055025 0.223056 255 220 0
0.510383 0.192429 0.224679 255 220 0
0.526826 0.141581 0.182184 255 220 0
0.493612 0.116967 0.210499 255 220 0
0.556270 0.178852 0.198454 255 220 0
0.563883 0.195669 0.240889 255 220 0
0.579221 0.164239 0.225188 255 220 0
0.498058 0.079472 0.210996 255 220 0
0.491304 0.135817 0.223770 255 220 0
0.566870 0.075155 0.196525 255 220 0
0.527488 0.205886 0.229150 255 220 0
0.553294 0.159037 0.262173 255 220 0
0.501423 0.177973 0.237707 255 220 0
0.520499 0.081532 0.182345 255 220 0
0.497575 0.119179 0.201413 255 220 0
0.511371 0.083132 0.232817 255 220 0
0.542319 0.114908 0.177392 255 220 0
0.545878 0.194066 0.207209 255 220 0
0.562602 0.104937 0.183978 255 220 0
0.505509 0.175085 0.210554 255 220 0
0.539704 0.132918 0.178556 255 220 0
0.549972 0.109532 0.178317 255 220 0
0.563136 0.195158 0.222755 255 220 0
0.549800 0.114924 0.250957 255 220 0
0.538835 0.079397 0.236504 255 220 0
0.493904 0.133922 0.208394 255 220 0
0.511224 0.112935 0.187761 255 220 0
0.515837 0.103063 0.242093 255 220 0
0.576765 0.142597 0.199826 255 220 0
0.526760 0.032413 0.210937 255 220 0
0.512230 0.170576 0.254729 255 220 0
0.536331 0.192180 0.205052 255 220 0
0.516411 0.097649 0.184036 255 220 0
0.504869 0.153756 0.198392 255 220 0
0.527695 0.140410 0.181707 255 220 0
0.531141 0.087668 0.178835 255 220 0
0.493973 0.108609 0.219348 255 220 0
0.567519 0.176217 0.207116 255 220 0
0.507388 0.179093 0.247560 255 220 0
0.503725 0.183554 0.224995 255 220 0
0.520517 0.078953 0.235157 255 220 0
0.511675 0.051166 0.225620 255 220 0
0.572133 0.177607 0.216620 255 220 0
0.523551 0.187167 0.256478 255 220 0
0.496088 0.124171 0.203558 255 220 0
0.503913 0.037408 0.212394 255 220 0
0.574424 0.172006 0.215569 255 220 0
0.565528 0.119528 0.185960 255 220 0
0.572751 0.078415 0.212898 255 220 0
0.506335 0.126231 0.192091 255 220 0
0.563389 0.064709 0.212383 255 220 0
0.542383 0.049075 0.190672 255 220 0
0.563946 0.063895 0.201820 255 220 0
0.513006 0.066530 0.229315 255 220 0
0.508592 0.180337 0.211442 255 220 0
0.535136 0.083778 0.238571 255 220 0
0.548172 0.195522 0.255188 255 220 0
0.557233 0.142540 0.183563 255 220 0
0.494974 0.131011 0.234563 255 220 0
0.569233 0.109581 0.189113 255 220 0
0.520659 0.086986 0.237957 255 220 0
0.505617 0.128524 0.245299 255 220 0
0.510931 0.042564 0.223427 255 220 0
0.553373 0.205036 0.240010 255 220 0
0.494372 0.115450 0.227424 255 220 0
0.556983 0.195921 0.250448 255 220 0
0.517358 0.042767 0.224584 255 220 0
0.546169 0.051419 0.190968 255 220 0
0.506412 0.038838 0.200248 255 220 0
0.578852 0.104734 0.201344 255 220 0
0.538228 0.039461 0.213105 255 220 0
0.584240 0.123237 0.221120 255 220 0
0.525472 0.119484 0.251416 255 220 0
0.529595 0.165183 0.188372 255 220 0
0.575561 0.140800 0.197645 255 220 0
0.575502 0.092214 0.199772 255 220 0
0.520147 0.048602 0.226133 255 220 0
0.583948 0.131989 0.222556 255 220 0
0.516853 0.039044 0.194015 255 220 0
0.556061 0.203259 0.226863 255 220 0
0.529160 0.125342 0.254204 255 220 0
0.551072 0.173464 0.192637 255 220 0
0.559952 0.059103 0.210048 255 220 0
0.557547 0.147482 0.258649 255 220 0
0.569675 0.186807 0.240664 255 220 0
0.503203 0.154788 0.248214 255 220 0
0.527034 0.048799 0.225452 255 220 0
0.517382 0.196547 0.220160 255 220 0
0.493557 0.139571 0.233484 255 220 0
0.560900 0.060285 0.199316 255 220 0
0.550714 0.148034 0.261066 255 220 0
0.579596 0.114500 0.201483 255 220 0
0.504646 0.130884 0.193914 255 220 0
0.523853 0.059651 0.184069 255 220 0
0.511291 0.194831 0.231094 255 220 0
0.565934 0.107618 0.241220 255 220 0
0.567399 0.191780 0.238743 255 220 0
0.515729 0.065266 0.185895 255 220 0
0.495147 0.106303 0.223075 255 220 0
0.571387 0.083479 0.222472 255 220 0
0.495304 0.117417 0.205789 255 220 0
0.527090 0.153992 0.261389 255 220 0
0.551543 0.047382 0.200985 255 220 0
0.499316 0.054885 0.214840 255 220 0
0.564278 0.108090 0.242494 255 220 0
0.524247 0.154665 0.260661 255 220 0
0.522873 0.082607 0.237017 255 220 0
0.519518 0.192055 0.212191 255 220 0
0.536203 0.091716 0.241939 255 220 0
0.513635 0.036974 0.196963 255 220 0
0.568985 0.179426 0.249006 255 220 0
0.531011 0.157682 0.185037 255 220 0
0.530730 0.090451 0.178719 255 220 0
0.578973 0.165053 0.226335 255 220 0
0.560099 0.113809 0.247037 255 220 0
0.500923 0.174679 0.239844 255 220 0
0.508677 0.102662 0.189471 255 220 0
0.543037 0.076954 0.180189 255 220 0
0.580176 0.107912 0.203113 255 220 0
0.521755 0.144882 0.184743 255 220 0
0.539288 0.092970 0.242438 255 220 0
0.504817 0.177873 0.244795 255 220 0
0.545102 0.206674 0.222868 255 220 0
0.553210 0.159224 0.187103 255 220 0
0.544315 0.063884 0.184016 255 220 0
0.584215 0.127491 0.217094 255 220 0
0.528512 0.179359 0.196730 255 220 0
0.519007 0.164554 0.259231 255 220 0
0.522223 0.200172 0.220798 255 220 0
0.554272 0.142583 0.182385 255 220 0
0.571237 0.128398 0.245465 255 220 0
0.509161 0.138130 0.250337 255 220 0
0.495965 0.131798 0.204083 255 220 0
0.534524 0.137876 0.258761 255 220 0
0.561236 0.162389 0.258931 255 220 0
0.558983 0.195479 0.217066 255 220 0
0.507250 0.036012 0.202970 255 220 0
0.532619 0.205717 0.244805 255 220 0
0.531956 0.047239 0.188610 255 220 0
0.564037 0.068380 0.197028 255 220 0
0.502912 0.129514 0.195344 255 220 0
0.559660 0.093262 0.183421 255 220 0
0.561138 0.123508 0.250059 255 220 0
0.518742 0.200725 0.229432 255 220 0
0.512975 0.095305 0.186189 255 220 0
0.556911 0.132706 0.254937 255 220 0
0.507485 0.150993 0.195109 255 220 0
0.559475 0.080173 0.186695 255 220 0
0.575918 0.168896 0.239034 255 220 0
0.583363 0.112687 0.222798 255 220 0
0.584443 0.119947 0.218998 255 220 0
0.540382 0.103884 0.247125 255 220 0
0.564260 0.196765 0.234674 255 220 0
0.565825 0.138676 0.252160 255 220 0
0.533887 0.173171 0.191801 255 220 0
0.534417 0.067371 0.231784 255 220 0
0.570890 0.104933 0.191147 255 220 0
0.506898 0.098591 0.235490 255 220 0
0.558526 0.157741 0.188781 255 220 0
0.554861 0.100878 0.243977 255 220 0
0.529466 0.206146 0.240483 255 220 0
0.504268 0.105521 0.193605 255 220 0
0.578711 0.094515 0.204597 255 220 0
0.529996 0.036055 0.196822 255 220 0
0.497795 0.154351 0.241615 255 220 0
0.496837 0.108985 0.228950 255 220 0
0.527742 0.164179 0.262543 255 220 0
0.506909 0.166724 0.202415 255 220 0
0.583664 0.139722 0.225897 255 220 0
0.568783 0.122473 0.188617 255 220 0
0.521482 0.142744 0.257410 255 220 0
0.571160 0.084603 0.223764 255 220 0
0.524987 0.084271 0.180521 255 220 0
0.500204 0.091925 0.225678 255 220 0
0.552537 0.102238 0.245223 255 220 0
0.509303 0.045429 0.194137 255 220 0
0.555182 0.094728 0.180746 255 220 0
0.538174 0.123692 0.177794 255 220 0
0.560537 0.120346 0.249235 255 220 0
0.566130 0.114538 0.186307 255 220 0
0.552227 0.205081 0.225256 255 220 0
0.517467 0.099374 0.241394 255 220 0
0.541214 0.140732 0.259875 255 220 0
0.535400 0.198902 0.253581 255 220 0
0.581029 0.152133 0.233935 255 220 0
0.565471 0.067760 0.212909 255 220 0
0.522819 0.138519 0.183155 255 220 0
0.575923 0.098802 0.228231 255 220 0
0.542622 0.168920 0.188718 255 220 0
0.532463 0.201183 0.215263 255 220 0
0.542378 0.208223 0.240846 255 220 0
0.498091 0.088399 0.205986 255 220 0
0.560769 0.126813 0.183310 255 220 0
0.556507 0.203901 0.235012 255 220 0
0.532805 0.035590 0.212473 255 220 0
0.548049 0.139339 0.180076 255 220 0
0.566282 0.187510 0.217058 255 220 0
0.547910 0.198151 0.253343 255 220 0
0.517212 0.191103 0.213182 255 220 0
0.520406 0.112109 0.182139 255 220 0
0.570002 0.130766 0.190195 255 220 0
0.562835 0.078008 0.190528 255 220 0
0.522063 0.083134 0.237001 255 220 0
0.566017 0.120315 0.246176 255 220 0
0.557260 0.059628 0.215651 255 220 0
0.507168 0.117889 0.242871 255 220 0
0.554125 0.089670 0.239066 255 220 0
0.537127 0.144358 0.180688 255 220 0
0.515655 0.068660 0.185583 255 220 0
0.497801 0.160016 0.240924 255 220 0
0.545866 0.159126 0.263869 255 220 0
0.518043 0.109980 0.183325 255 220 0
0.558969 0.199053 0.222429 255 220 0
0.556078 0.079433 0.184464 255 220 0
0.535134 0.046278 0.222143 255 220 0
0.557884 0.060993 0.216463 255 220 0
0.581982 0.144685 0.233461 255 220 0
0.571948 0.184451 0.232881 255 220 0
0.536339 0.106404 0.248072 255 220 0
0.525264 0.170590 0.192320 255 220 0
0.518225 0.200498 0.233061 255 220 0
0.546986 0.203037 0.217859 255 220 0
0.499166 0.175290 0.225022 255 220 0
0.498398 0.073430 0.208986 255 220 0
0.492507 0.143427 0.230696 255 220 0
0.491857 0.123374 0.222732 255 220 0
0.540754 0.189787 0.259380 255 220 0
0.531055 0.161405 0.263265 255 220 0
0.563426 0.120577 0.247809 255 220 0
0.576752 0.138500 0.242872 255 220 0
0.579728 0.134179 0.237805 255 220 0
0.558913 0.172455 0.259967 255 220 0
0.546204 0.174399 0.192087 255 220 0
0.553497 0.177516 0.196051 255 220 0
0.581513 0.152918 0.216500 255 220 0
0.510753 0.051343 0.191378 255 220 0
0.505361 0.146802 0.249426 255 220 0
0.523265 0.192124 0.209503 255 220 0
0.530257 0.110881 0.249265 255 220 0
0.562959 0.106506 0.184132 255 220 0
0.544358 0.101104 0.245859 255 220 0
0.536352 0.094871 0.177754 255 220 0
0.574452 0.120954 0.194284 255 220 0
0.578570 0.166033 0.229015 255 220 0
0.581643 0.134674 0.233889 255 220 0
0.563429 0.139705 0.253851 255 220 0
0.529738 0.075430 0.180328 255 220 0
0.576543 0.121757 0.196862 255 220 0
0.551094 0.101166 0.245090 255 220 0
0.523915 0.062597 0.183408 255 220 0
0.533096 0.146908 0.181764 255 220 0
0.494377 0.126018 0.232009 255 220 0
0.500813 0.110999 0.235183 255 220 0
0.561125 0.059796 0.208171 255 220 0
0.565384 0.066590 0.210869 255 220 0
0.562468 0.110482 0.244534 255 220 0
0.515880 0.075723 0.232695 255 220 0
0.572015 0.158556 0.249527 255 220 0
0.566415 0.097668 0.236446 255 220 0
0.544493 0.183669 0.198136 255 220 0
0.550632 0.204639 0.244645 255 220 0
0.549987 0.166976 0.263614 255 220 0
0.553547 0.191971 0.208385 255 220 0
0.564798 0.093365 0.187339 255 220 0
0.494329 0.155054 0.234901 255 220 0
0.491493 0.132524 0.217197 255 220 0
0.511682 0.061165 0.188798 255 220 0
0.570553 0.100104 0.191505 255 220 0
0.553895 0.076690 0.232256 255 220 0
0.504139 0.106863 0.193717 255 220 0
0.494859 0.139456 0.207404 255 220 0
0.499663 0.065075 0.216901 255 220 0
0.535618 0.129032 0.256118 255 220 0
0.514623 0.096872 0.239233 255 220 0
0.578876 0.165218 0.224354 255 220 0
0.580997 0.121532 0.203884 255 220 0
0.514228 0.103008 0.241339 255 220 0
0.532307 0.152069 0.183142 255 220 0
0.537370 0.055748 0.226083 255 220 0
0.542179 0.101550 0.177389 255 220 0
0.543836 0.121202 0.253759 255 220 0
0.547047 0.115629 0.177885 255 220 0
0.582468 0.140917 0.232177 255 220 0
0.537206 0.096306 0.177639 255 220 0
0.568364 0.155972 0.253282 255 220 0
0.538583 0.038689 0.211030 255 220 0
0.502487 0.134850 0.196322 255 220 0
0.530692 0.202897 0.248141 255 220 0
0.527588 0.099158 0.179148 255 220 0
0.505655 0.059261 0.224171 255 220 0
0.528410 0.155806 0.185094 255 220 0
0.518499 0.200574 0.229607 255 220 0
0.544160 0.193753 0.206553 255 220 0
0.577940 0.157358 0.239957 255 220 0
0.530418 0.032852 0.203151 255 220 0
0.539725 0.077506 0.179693 255 220 0
0.519917 0.068501 0.183657 255 220 0
0.540367 0.090097 0.241132 255 220 0
0.538584 0.179414 0.263188 255 220 0
0.539641 0.195013 0.256505 255 220 0
0.535312 0.035321 0.207465 255 220 0
0.522934 0.090372 0.180936 255 220 0
0.510669 0.178398 0.251317 255 220 0
0.565036 0.167102 0.197649 255 220 0
0.505756 0.083043 0.192440 255 220 0
0.575932 0.171088 0.219054 255 220 0
0.543239 0.081016 0.179461 255 220 0
0.564690 0.129915 0.185993 255 220 0
0.570520 0.186306 0.238071 255 220 0
0.527119 0.033315 0.213238 255 220 0
0.526400 0.044130 0.189803 255 220 0
0.577257 0.129561 0.240156 255 220 0
0.499373 0.078522 0.218410 255 220 0
0.539496 0.114122 0.177349 255 220 0
0.509984 0.168793 0.200538 255 220 0
0.505732 0.187453 0.235084 255 220 0
0.501567 0.150307 0.246299 255 220 0
0.492994 0.125406 0.228633 255 220 0
0.515959 0.087920 0.236564 255 220 0
0.500481 0.045961 0.204261 255 220 0
0.583432 0.134298 0.227150 255 220 0
0.508617 0.112047 0.189717 255 220 0
0.550660 0.192872 0.207725 255 220 0
0.508715 0.187942 0.242423 255 220 0
0.541641 0.159237 0.184637 255 220 0
0.544826 0.166574 0.187815 255 220 0
0.518930 0.087770 0.237654 255 220 0
0.510278 0.166678 0.253880 255 220 0
0.558533 0.097365 0.240999 255 220 0
0.510571 0.154799 0.193730 255 220 0
0.536437 0.153322 0.262827 255 220 0
0.519091 0.161076 0.259251 255 220 0
0.575033 0.163619 0.244000 255 220 0
0.500413 0.045652 0.214479 255 220 0
0.505662 0.036148 0.205399 255 220 0
0.553280 0.092444 0.180240 255 220 0
0.564277 0.063688 0.204759 255 220 0
0.559283 0.112391 0.181806 255 220 0
0.525286 0.048127 0.187707 255 220 0
0.544758 0.209142 0.233337 255 220 0
0.580909 0.100283 0.220620 255 220 0
0.525502 0.179325 0.260060 255 220 0
0.579401 0.101166 0.203136 255 220 0
0.571008 0.169797 0.249524 255 220 0
0.577292 0.087843 0.215463 255 220 0
0.536236 0.117012 0.252018 255 220 0
0.516777 0.163300 0.192517 255 220 0
0.507266 0.154478 0.196365 255 220 0
0.521804 0.143917 0.184533 255 220 0
0.563019 0.129819 0.184882 255 220 0
0.542834 0.080181 0.236502 255 220 0
0.511564 0.148198 0.191254 255 220 0
0.579955 0.161864 0.226066 255 220 0
0.516501 0.099721 0.241119 255 220 0
0.576723 0.126814 0.239904 255 220 0
0.554995 0.101389 0.244155 255 220 0
0.505537 0.075525 0.227021 255 220 0
0.548439 0.074564 0.182090 255 220 0
0.528937 0.123147 0.253417 255 220 0
0.557369 0.195669 0.215612 255 220 0
0.560549 0.082073 0.186939 255 220 0
0.533365 0.140534 0.259409 255 220 0
0.513409 0.190119 0.216002 255 220 0
0.581839 0.131413 0.206785 255 220 0
0.534995 0.040194 0.217624 255 220 0
0.515973 0.172146 0.197634 255 220 0
0.556528 0.203781 0.230637 255 220 0
0.498350 0.166874 0.239498 255 220 0
0.500780 0.171296 0.214446 255 220 0
0.498334 0.136194 0.240575 255 220 0
0.498617 0.085007 0.218575 255 220 0
0.536480 0.041516 0.217820 255 220 0
0.556513 0.095850 0.181234 255 220 0
0.527215 0.201681 0.218749 255 220 0
0.539958 0.209575 0.233282 255 220 0
0.555632 0.193675 0.211738 255 220 0
0.566787 0.179227 0.208849 255 220 0
0.537142 0.203976 0.217783 255 220 0
0.506225 0.149760 0.250539 255 220 0
0.533793 0.124763 0.254580 255 220 0
0.501913 0.043668 0.216368 255 220 0
0.564423 0.134620 0.251881 255 220 0
0.523671 0.038967 0.193116 255 220 0
0.508651 0.102029 0.237968 255 220 0
0.556972 0.069798 0.188645 255 220 0
0.540860 0.169020 0.188729 255 220 0
0.552196 0.108085 0.178873 255 220 0
0.526521 0.193357 0.208918 255 220 0
0.581273 0.147161 0.210825 255 220 0
0.566961 0.130902 0.249247 255 220 0
0.578114 0.159448 0.211623 255 220 0
0.568771 0.148710 0.252105 255 220 0
0.516067 0.054851 0.187626 255 220 0
0.572276 0.076710 0.208000 255 220 0
0.567645 0.187096 0.219070 255 220 0
0.499049 0.089630 0.222251 255 220 0
0.534998 0.085439 0.239274 255 220 0
0.511645 0.099566 0.187122 255 220 0
0.539597 0.209487 0.231158 255 220 0
0.499159 0.134170 0.241071 255 220 0
0.561874 0.070234 0.221481 255 220 0
0.532960 0.205892 0.244659 255 220 0
0.515593 0.182997 0.206536 255 220 0
0.545251 0.180737 0.262686 255 220 0
0.547528 0.091412 0.241235 255 220 0
0.536138 0.038802 0.214653 255 220 0
0.495131 0.107532 0.224102 255 220 0
0.541834 0.166830 0.264705 255 220 0
0.561303 0.059326 0.203419 255 220 0
0.538558 0.070298 0.181041 255 220 0
0.582132 0.148394 0.231745 255 220 0
0.538874 0.165616 0.264627 255 220 0
0.563776 0.079358 0.190907 255 220 0
0.517705 0.076376 0.233500 255 220 0
0.582188 0.100819 0.214377 255 220 0
0.541758 0.108562 0.249026 255 220 0
0.555419 0.194416 0.252858 255 220 0
0.542173 0.084905 0.178743 255 220 0
0.540454 0.075196 0.234532 255 220 0
0.527092 0.058871 0.228973 255 220 0
0.572353 0.143239 0.248172 255 220 0
0.504804 0.109882 0.193025 255 220 0
0.566255 0.078357 0.194025 255 220 0
0.566434 0.072983 0.218496 255 220 0
0.535143 0.051691 0.186814 255 220 0
0.559044 0.058311 0.197955 255 220 0
0.502202 0.180545 0.236357 255 220 0
0.548396 0.126152 0.178586 255 220 0
0.514425 0.074975 0.231956 255 220 0
0.502334 0.041183 0.203924 255 220 0
0.573866 0.160675 0.246743 255 220 0
0.568295 0.077379 0.220713 255 220 0
0.553085 0.151977 0.261227 255 220 0
0.505739 0.132334 0.193138 255 220 0
0.510691 0.193763 0.227774 255 220 0
0.509101 0.188909 0.220803 255 220 0
0.508358 0.088380 0.189805 255 220 0
0.565291 0.133031 0.250914 255 220 0
0.519116 0.073777 0.183451 255 220 0
0.499994 0.174710 0.220457 255 220 0
0.533164 0.158378 0.184853 255 220 0
0.538248 0.113761 0.250923 255 220 0
0.573684 0.179213 0.224866 255 220 0
0.527947 0.111716 0.249178 255 220 0
0.552651 0.118109 0.251496 255 220 0
0.566467 0.118258 0.186620 255 220 0
0.515736 0.069127 0.230843 255 220 0
0.509798 0.035943 0.200510 255 220 0
0.507701 0.117358 0.190581 255 220 0
0.551556 0.188928 0.258036 255 220 0
0.522343 0.062046 0.183897 255 220 0
0.547146 0.160070 0.185699 255 220 0
0.551821 0.088760 0.239247 255 220 0
0.505380 0.036182 0.205993 255 220 0
0.561716 0.077620 0.189606 255 220 0
0.547212 0.193112 0.206618 255 220 0
0.582802 0.126729 0.228719 255 220 0
0.507127 0.123679 0.191298 255 220 0
0.521714 0.176543 0.259082 255 220 0
0.497957 0.081371 0.212359 255 220 0
0.534487 0.202307 0.216099 255 220 0
0.535892 0.194647 0.256463 255 220 0
0.495113 0.146773 0.209227 255 220 0
0.562703 0.196138 0.223746 255 220 0
0.500077 0.125858 0.198017 255 220 0
0.566743 0.166422 0.255112 255 220 0
0.552354 0.193423 0.209213 255 220 0
0.575930 0.119835 0.238162 255 220 0
0.569557 0.134642 0.190214 255 220 0
0.563914 0.066753 0.214550 255 220 0
0.529226 0.143775 0.259702 255 220 0
0.576724 0.097115 0.199859 255 220 0
0.527459 0.164244 0.188537 255 220 0
0.495777 0.165550 0.220608 255 220 0
0.503909 0.166733 0.247911 255 220 0
0.514565 0.166076 0.195191 255 220 0
0.509808 0.161727 0.196912 255 220 0
0.569253 0.107377 0.238747 255 220 0
0.502791 0.174329 0.243632 255 220 0
0.557291 0.133361 0.182133 255 220 0
0.503269 0.116867 0.239651 255 220 0
0.500743 0.109477 0.197657 255 220 0
0.495269 0.116293 0.229765 255 220 0
0.557646 0.057080 0.196945 255 220 0
0.509717 0.040716 0.196180 255 220 0
0.535414 0.110184 0.249489 255 220 0
0.581866 0.133763 0.207324 255 220 0
0.507147 0.169570 0.250719 255 220 0
0.542441 0.052710 0.222489 255 220 0
0.520487 0.052474 0.186792 255 220 0
0.494895 0.161953 0.219523 255 220 0
0.570207 0.087709 0.194535 255 220 0
0.537828 0.116776 0.177490 255 220 0
0.518548 0.122314 0.250189 255 220 0
0.550115 0.137011 0.180127 255 220 0
0.581123 0.096959 0.213463 255 220 0
0.526818 0.152308 0.261025 255 220 0
0.501251 0.064033 0.220125 255 220 0
0.569328 0.184830 0.244265 255 220 0
0.569574 0.181009 0.215204 255 220 0
0.533433 0.117205 0.177974 255 220 0
0.581386 0.109214 0.205306 255 220 0
0.562388 0.174094 0.257656 255 220 0
0.493291 0.158741 0.225960 255 220 0
0.576338 0.156573 0.243352 255 220 0
0.544521 0.190185 0.258976 255 220 0
0.512969 0.110756 0.243596 255 220 0
0.578326 0.089785 0.208055 255 220 0
0.556604 0.199121 0.247242 255 220 0
0.547456 0.090227 0.240693 255 220 0
0.523911 0.119238 0.180808 255 220 0
0.519941 0.078565 0.182779 255 220 0
0.519221 0.041326 0.191965 255 220 0
0.501306 0.177030 0.238522 255 220 0
0.491499 0.141466 0.220960 255 220 0
0.582097 0.148915 0.231625 255 220 0
0.557757 0.175350 0.196969 255 220 0
0.541684 0.202424 0.215658 255 220 0
0.564032 0.180950 0.206946 255 220 0
0.576820 0.099345 0.199384 255 220 0
0.530982 0.111035 0.178241 255 220 0
0.510255 0.183592 0.212659 255 220 0
0.573350 0.180054 0.236291 255 220 0
0.498647 0.087755 0.204120 255 220 0
0.510884 0.054740 0.226037 255 220 0
0.513681 0.048298 0.225610 255 220 0
0.496040 0.134322 0.204249 255 220 0
0.559296 0.105123 0.181903 255 220 0
0.514089 0.034414 0.200080 255 220 0
0.561715 0.182214 0.255682 255 220 0
0.512955 0.173857 0.254575 255 220 0
0.578359 0.098102 0.224261 255 220 0
0.564721 0.141968 0.253655 255 220 0
0.577211 0.101510 0.199439 255 220 0
0.533694 0.042218 0.220293 255 220 0
0.492607 0.154104 0.224096 255 220 0
0.567914 0.069483 0.205502 255 220 0
0.513973 0.197197 0.230073 255 220 0
0.560526 0.071658 0.224177 255 220 0
0.540452 0.055387 0.224961 255 220 0
0.543223 0.109709 0.177346 255 220 0
0.503132 0.183699 0.229736 255 220 0
0.564372 0.167789 0.197451 255 220 0
0.563333 0.116145 0.184314 255 220 0
0.496235 0.168435 0.231488 255 220 0
0.584214 0.116912 0.213670 255 220 0
0.536517 0.181624 0.196918 255 220 0
0.523584 0.137522 0.256722 255 220 0
0.513475 0.163693 0.194862 255 220 0
0.543110 0.172029 0.264474 255 220 0
0.517253 0.097352 0.240552 255 220 0
0.552605 0.083682 0.181506 255 220 0
0.493160 0.150819 0.232189 255 220 0
0.533887 0.046304 0.222655 255 220 0
0.522368 0.065893 0.183173 255 220 0
0.528752 0.182647 0.260261 255 220 0
0.549715 0.113411 0.178340 255 220 0
0.571629 0.170250 0.248401 255 220 0
0.529588 0.039707 0.193303 255 220 0
0.505712 0.166187 0.249979 255 220 0
0.583652 0.142219 0.225121 255 220 0
0.541452 0.147137 0.181150 255 220 0
0.506712 0.114539 0.191331 255 220 0
0.564165 0.097013 0.237688 255 220 0
0.548778 0.181544 0.197248 255 220 0
0.500696 0.074627 0.220684 255 220 0
0.530421 0.192372 0.256558 255 220 0
0.584118 0.125437 0.214402 255 220 0
0.542630 0.044599 0.194174 255 220 0
0.579184 0.137196 0.239287 255 220 0
0.509953 0.142371 0.191252 255 220 0
0.578504 0.152848 0.207480 255 220 0
0.580000 0.119122 0.232826 255 220 0
0.545570 0.178236 0.263280 255 220 0
0.551632 0.130730 0.256088 255 220 0
0.580084 0.127770 0.202507 255 220 0
0.526432 0.205626 0.232364 255 220 0
0.532846 0.093115 0.242488 255 220 0
0.506734 0.073111 0.191827 255 220 0
0.503453 0.122084 0.241601 255 220 0
0.561827 0.195649 0.221167 255 220 0
0.564905 0.118865 0.185484 255 220 0
0.578875 0.149275 0.206154 255 220 0
0.530459 0.088669 0.240506 255 220 0
0.521120 0.142256 0.184541 255 220 0
0.525464 0.144692 0.259083 255 220 0
0.518923 0.102695 0.243237 255 220 0
0.532812 0.168850 0.189514 255 220 0
0.582433 0.145438 0.213813 255 220 0
0.532077 0.034678 0.211151 255 220 0
0.550468 0.204987 0.223077 255 220 0
0.550561 0.049207 0.211014 255 220 0
0.507909 0.039598 0.220406 255 220 0
0.522325 0.044972 0.189470 255 220 0
0.504124 0.114727 0.239572 255 220 0
0.549544 0.081073 0.235962 255 220 0
0.560331 0.123924 0.250591 255 220 0
0.538258 0.037596 0.199160 255 220 0
0.578990 0.159953 0.214641 255 220 0
0.570532 0.184105 0.221708 255 220 0
0.543147 0.046365 0.216728 255 220 0
0.523697 0.035178 0.196810 255 220 0
0.534427 0.034761 0.207163 255 220 0
0.534873 0.116478 0.251756 255 220 0
0.584193 0.128461 0.218115 255 220 0
0.493788 0.149245 0.213684 255 220 0
0.514583 0.150434 0.189748 255 220 0
0.510187 0.094978 0.236236 255 220 0
0.511230 0.131600 0.249748 255 220 0
0.492677 0.143124 0.214467 255 220 0
0.504298 0.109502 0.193531 255 220 0
0.507872 0.053902 0.224566 255 220 0
0.535811 0.039407 0.195539 255 220 0
0.534670 0.036635 0.212381 255 220 0
0.500083 0.110656 0.234243 255 220 0
0.528766 0.184480 0.200278 255 220 0
0.564922 0.088169 0.232487 255 220 0
0.511507 0.042458 0.194151 255 220 0
0.502470 0.090306 0.196223 255 220 0
0.513229 0.040231 0.223161 255 220 0
0.543053 0.071423 0.232466 255 220 0
0.495309 0.165139 0.222047 255 220 0
0.568901 0.097295 0.190335 255 220 0
0.519175 0.031190 0.206269 255 220 0
0.520193 0.057458 0.185488 255 220 0
0.567385 0.144339 0.252416 255 220 0
0.521982 0.124634 0.181974 255 220 0
0.505412 0.087915 0.230255 255 220 0
0.547668 0.046772 0.211659 255 220 0
0.499921 0.105331 0.199159 255 220 0
0.580540 0.146906 0.236982 255 220 0
0.544955 0.179919 0.262938 255 220 0
0.525938 0.078691 0.236196 255 220 0
0.552346 0.192632 0.208361 255 220 0
0.529788 0.038534 0.194341 255 220 0
0.507328 0.130655 0.247103 255 220 0
0.493012 0.143253 0.213330 255 220 0
0.510577 0.090806 0.234932 255 220 0
0.507080 0.174586 0.208076 255 220 0
0.575719 0.122069 0.239256 255 220 0
0.527504 0.180941 0.260362 255 220 0
0.502189 0.126655 0.241987 255 220 0
0.584015 0.131920 0.217179 255 220 0
0.492506 0.149207 0.229736 255 220 0
0.578827 0.090518 0.209648 255 220 0
0.557416 0.082462 0.233990 255 220 0
0.571452 0.088705 0.226689 255 220 0
0.498514 0.068985 0.211488 255 220 0
0.503183 0.086192 0.195433 255 220 0
0.575449 0.133146 0.196156 255 220 0
0.512674 0.144573 0.189723 255 220 0
0.547353 0.124156 0.178277 255 220 0
0.517952 0.087136 0.183318 255 220 0
0.544079 0.046745 0.193223 255 220 0
0.549538 0.184247 0.260739 255 220 0
0.548038 0.068242 0.229600 255 220 0
0.582800 0.121205 0.207995 255 220 0
0.519399 0.124222 0.251165 255 220 0
0.515581 0.167392 0.195153 255 220 0
0.570082 0.141527 0.191821 255 220 0
0.574745 0.177453 0.227824 255 220 0
0.507169 0.148600 0.251119 255 220 0
0.568162 0.103623 0.237927 255 220 0
0.550081 0.091765 0.241038 255 220 0
0.558923 0.117161 0.181795 255 220 0
0.525371 0.033714 0.215410 255 220 0
0.514526 0.041243 0.223851 255 220 0
0.493214 0.124227 0.209949 255 220 0
0.579285 0.132918 0.201730 255 220 0
0.506685 0.187843 0.224559 255 220 0
0.493628 0.144930 0.234056 255 220 0
0.492987 0.118071 0.212466 255 220 0
0.572237 0.086602 0.224082 255 220 0
0.535654 0.082071 0.237830 255 220 0
0.570342 0.098857 0.233912 255 220 0
0.555232 0.142760 0.182778 255 220 0
0.541047 0.040003 0.209805 255 220 0
0.504793 0.051023 0.222012 255 220 0
0.522519 0.129251 0.182105 255 220 0
0.511747 0.134161 0.188782 255 220 0
0.575665 0.115756 0.195830 255 220 0
0.503270 0.176497 0.215409 255 220 0
0.575570 0.156610 0.244632 255 220 0
0.567890 0.164698 0.199042 255 220 0
0.559558 0.179998 0.201705 255 220 0
0.501347 0.046332 0.202138 255 220 0
0.527926 0.192311 0.207249 255 220 0
0.516351 0.077879 0.233489 255 220 0
0.556672 0.177226 0.260240 255 220 0
0.499897 0.073918 0.218784 255 220 0
0.561605 0.081974 0.187875 255 220 0
0.557165 0.064313 0.191436 255 220 0
0.569202 0.181754 0.215366 255 220 0
0.502874 0.155287 0.201074 255 220 0
0.530850 0.167938 0.189435 255 220 0
0.492719 0.153917 0.222205 255 220 0
0.494336 0.160297 0.232747 255 220 0
0.502508 0.058792 0.221138 255 220 0
0.579139 0.103515 0.226694 255 220 0
0.515685 0.116734 0.184936 255 220 0
0.493840 0.112220 0.223499 255 220 0
0.534422 0.045694 0.190128 255 220 0
0.525218 0.113761 0.249320 255 220 0
0.519043 0.163938 0.259259 255 220 0
0.581689 0.099191 0.211763 255 220 0
0.582127 0.126016 0.230626 255 220 0
0.582924 0.115235 0.225454 255 220 0
0.517802 0.105873 0.243986 255 220 0
0.494860 0.133587 0.235016 255 220 0
0.575401 0.122544 0.239754 255 220 0
0.495633 0.164349 0.219579 255 220 0
0.559169 0.192487 0.213545 255 220 0
0.523464 0.116992 0.180898 255 220 0
0.583683 0.137102 0.216097 255 220 0
0.510422 0.110640 0.188279 255 220 0
0.502702 0.177801 0.241112 255 220 0
0.539295 0.184765 0.261571 255 220 0
0.530266 0.178159 0.261923 255 220 0
0.498978 0.172249 0.219658 255 220 0
0.549274 0.063168 0.186362 255 220 0
0.530163 0.133371 0.256959 255 220 0
0.561941 0.179513 0.203479 255 220 0
0.521601 0.106309 0.245547 255 220 0
0.567609 0.174951 0.206126 255 220 0
0.581418 0.144550 0.209785 255 220 0
0.497014 0.141885 0.204240 255 220 0
0.500935 0.054939 0.218373 255 220 0
0.554107 0.130201 0.180512 255 220 0
0.506658 0.121472 0.243779 255 220 0
0.543602 0.120879 0.177654 255 220 0
0.555666 0.197686 0.249760 255 220 0
0.543476 0.062715 0.184181 255 220 0
0.545422 0.165615 0.264426 255 220 0
0.498344 0.094982 0.223730 255 220 0
0.539344 0.184861 0.261537 255 220 0
0.565717 0.183893 0.212010 255 220 0
0.550299 0.122099 0.178797 255 220 0
0.580313 0.145008 0.207148 255 220 0
0.495714 0.130198 0.204374 255 220 0
0.542315 0.174656 0.264216 255 220 0
0.560362 0.110231 0.245540 255 220 0
0.538814 0.100953 0.177385 255 220 0
0.553923 0.070229 0.186214 255 220 0
0.495967 0.143145 0.238465 255 220 0
0.563962 0.095991 0.186095 255 220 0
0.543865 0.197896 0.254386 255 220 0
0.499664 0.172900 0.238308 255 220 0
0.584025 0.115799 0.212583 255 220 0
0.566836 0.083117 0.192551 255 220 0
0.540599 0.150363 0.181951 255 220 0
0.555312 0.165784 0.190587 255 220 0
0.521447 0.148129 0.185575 255 220 0
0.582507 0.104614 0.219534 255 220 0
0.525922 0.042133 0.223107 255 220 0
0.562494 0.185087 0.209096 255 220 0
