ply
format ascii 1.0
element vertex 1024
property float x
property float y
property float z
property uchar red
property uchar green
property uchar blue
end_header
0.371882 0.233145 0.081774 255 220 0
0.375692 0.120794 0.020460 255 220 0
0.371035 0.070914 0.037405 255 220 0
0.362947 0.073916 0.031045 255 220 0
0.393727 0.148295 0.023112 255 220 0
0.342256 0.126927 0.071807 255 220 0
0.391119 0.183551 0.104622 255 220 0
0.359284 0.095121 0.072244 255 220 0
0.371023 0.066249 0.044973 255 220 0
0.389620 0.164565 0.022665 255 220 0
0.403926 0.154198 0.028869 255 220 0
0.365614 0.087975 0.024997 255 220 0
0.361967 0.111184 0.078732 255 220 0
0.342125 0.150443 0.078044 255 220 0
0.410022 0.218792 0.079458 255 220 0
0.363605 0.222094 0.089699 255 220 0
0.335622 0.092066 0.034204 255 220 0
0.401230 0.195644 0.035750 255 220 0
0.410432 0.128537 0.080685 255 220 0
0.352509 0.218705 0.058079 255 220 0
0.374159 0.075313 0.035020 255 220 0
0.399531 0.209411 0.043054 255 220 0
0.363772 0.064356 0.051161 255 220 0
0.365894 0.199443 0.032897 255 220 0
0.366536 0.177282 0.024939 255 220 0
0.368355 0.078706 0.065385 255 220 0
0.337657 0.065056 0.047207 255 220 0
0.394525 0.229226 0.089323 255 220 0
0.353953 0.176347 0.029224 255 220 0
0.415352 0.134269 0.046640 255 220 0
0.410067 0.110454 0.066755 255 220 0
0.370217 0.124605 0.020206 255 220 0
0.366286 0.131657 0.020646 255 220 0
0.376570 0.156647 0.020487 255 220 0
0.331681 0.139454 0.051241 255 220 0
0.385577 0.232450 0.088488 255 220 0
0.374717 0.181070 0.024540 255 220 0
0.374242 0.090751 0.026007 255 220 0
0.346750 0.138003 0.028272 255 220 0
0.352413 0.155689 0.088194 255 220 0
0.387507 0.116468 0.084527 255 220 0
0.379013 0.074232 0.039802 255 220 0
0.337982 0.198515 0.064106 255 220 0
0.398746 0.199071 0.102838 255 220 0
0.393984 0.145235 0.023313 255 220 0
0.342880 0.118228 0.070170 255 220 0
0.340609 0.160436 0.078676 255 220 0
0.362571 0.076183 0.029495 255 220 0
0.378979 0.145917 0.019945 255 220 0
0.344514 0.101208 0.027755 255 220 0
0.333735 0.182234 0.056484 255 220 0
0.394799 0.184496 0.028300 255 220 0
0.336436 0.148658 0.038472 255 220 0
0.384479 0.113009 0.023276 255 220 0
0.412971 0.123198 0.074876 255 220 0
0.335092 0.091346 0.059730 255 220 0
0.421641 0.158518 0.073875 255 220 0
0.368611 0.212288 0.098926 255 220 0
0.371987 0.148627 0.020324 255 220 0
0.381250 0.177100 0.104284 255 220 0
0.366031 0.132894 0.020714 255 220 0
0.358035 0.139073 0.086859 255 220 0
0.343563 0.070165 0.033562 255 220 0
0.356480 0.177929 0.028460 255 220 0
0.343386 0.197797 0.046945 255 220 0
0.339761 0.187315 0.078631 255 220 0
0.406053 0.178814 0.033542 255 220 0
0.379058 0.235132 0.064958 255 220 0
0.366979 0.206488 0.100227 255 220 0
0.385630 0.206584 0.036306 255 220 0
0.373278 0.217416 0.043707 255 220 0
0.361128 0.081114 0.067102 255 220 0
0.418014 0.143059 0.049022 255 220 0
0.352233 0.075921 0.028981 255 220 0
0.409412 0.163056 0.093736 255 220 0
0.367116 0.210208 0.099007 255 220 0
0.402445 0.098213 0.062379 255 220 0
0.389205 0.125865 0.088340 255 220 0
0.334117 0.103319 0.058536 255 220 0
0.409108 0.194946 0.042322 255 220 0
0.402664 0.202002 0.100208 255 220 0
0.367365 0.131648 0.088099 255 220 0
0.405904 0.184810 0.035230 255 220 0
0.390829 0.197076 0.105281 255 220 0
0.336296 0.153972 0.071731 255 220 0
0.335173 0.085075 0.059451 255 220 0
0.389779 0.130326 0.090004 255 220 0
0.398794 0.200703 0.037022 255 220 0
0.420727 0.156618 0.052157 255 220 0
0.357195 0.092075 0.070663 255 220 0
0.341845 0.148916 0.032516 255 220 0
0.414276 0.209697 0.067933 255 220 0
0.412927 0.211322 0.064969 255 220 0
0.354075 0.192443 0.094304 255 220 0
0.388732 0.220475 0.098309 255 220 0
0.330031 0.088945 0.050839 255 220 0
0.381729 0.197205 0.030482 255 220 0
0.382268 0.141720 0.094741 255 220 0
0.345575 0.104285 0.027194 255 220 0
0.385024 0.220948 0.046547 255 220 0
0.333147 0.126725 0.057048 255 220 0
0.399104 0.223592 0.055954 255 220 0
0.412421 0.152795 0.088615 255 220 0
0.418370 0.197541 0.069322 255 220 0
0.391646 0.099429 0.031594 255 220 0
0.391482 0.084225 0.056907 255 220 0
0.410663 0.188394 0.094178 255 220 0
0.397772 0.232948 0.075442 255 220 0
0.356707 0.201136 0.038158 255 220 0
0.354996 0.063581 0.039250 255 220 0
0.342421 0.159348 0.080438 255 220 0
0.379877 0.182813 0.024862 255 220 0
0.391575 0.114049 0.082405 255 220 0
0.353039 0.140973 0.025160 255 220 0
0.383459 0.236935 0.076883 255 220 0
0.361727 0.224828 0.084726 255 220 0
0.364388 0.141847 0.090450 255 220 0
0.414961 0.208903 0.071742 255 220 0
0.363545 0.195819 0.031851 255 220 0
0.356982 0.164946 0.093368 255 220 0
0.348877 0.214050 0.057097 255 220 0
0.380639 0.208483 0.103827 255 220 0
0.329580 0.085954 0.049792 255 220 0
0.399854 0.130498 0.027814 255 220 0
0.410696 0.172325 0.036232 255 220 0
0.418293 0.197773 0.068680 255 220 0
0.343474 0.209369 0.066640 255 220 0
0.332687 0.120414 0.051700 255 220 0
0.413144 0.213493 0.074730 255 220 0
0.339448 0.199414 0.055842 255 220 0
0.380600 0.137208 0.093115 255 220 0
0.394232 0.117954 0.083550 255 220 0
0.417471 0.171913 0.045541 255 220 0
0.362723 0.154734 0.093580 255 220 0
0.370339 0.202440 0.102767 255 220 0
0.378392 0.191101 0.105600 255 220 0
0.333644 0.107901 0.057270 255 220 0
0.395405 0.144274 0.093884 255 220 0
0.332571 0.150830 0.063760 255 220 0
0.419907 0.160298 0.079791 255 220 0
0.410647 0.108802 0.058156 255 220 0
0.349732 0.126525 0.077954 255 220 0
0.344576 0.165453 0.083869 255 220 0
0.331732 0.099058 0.042705 255 220 0
0.348440 0.135533 0.079663 255 220 0
0.369430 0.206260 0.101490 255 220 0
0.340252 0.193799 0.077371 255 220 0
0.406226 0.222060 0.064250 255 220 0
0.360595 0.063209 0.050680 255 220 0
0.405697 0.174798 0.032220 255 220 0
0.335480 0.166802 0.042542 255 220 0
0.384302 0.156699 0.099399 255 220 0
0.329521 0.084759 0.049842 255 220 0
0.350489 0.182085 0.091431 255 220 0
0.366176 0.177075 0.100162 255 220 0
0.400596 0.094825 0.049615 255 220 0
0.372779 0.123812 0.086728 255 220 0
0.422181 0.175290 0.073042 255 220 0
0.397272 0.089262 0.053206 255 220 0
0.418586 0.157852 0.046713 255 220 0
0.345799 0.159889 0.083897 255 220 0
0.334058 0.086216 0.058399 255 220 0
0.375994 0.176142 0.103326 255 220 0
0.380306 0.165496 0.021472 255 220 0
0.380527 0.178823 0.104538 255 220 0
0.353572 0.139884 0.024853 255 220 0
0.363480 0.090679 0.024057 255 220 0
0.374151 0.130864 0.089827 255 220 0
0.371294 0.234108 0.075247 255 220 0
0.403718 0.102245 0.046511 255 220 0
0.345470 0.112838 0.027578 255 220 0
0.397189 0.225310 0.056230 255 220 0
0.337404 0.176462 0.043056 255 220 0
0.372122 0.187683 0.103957 255 220 0
0.332781 0.146448 0.045277 255 220 0
0.359085 0.116000 0.079506 255 220 0
0.387926 0.099741 0.074809 255 220 0
0.361264 0.076493 0.029046 255 220 0
0.382618 0.200291 0.032169 255 220 0
0.342666 0.084570 0.029298 255 220 0
0.391403 0.235866 0.076052 255 220 0
0.332465 0.152660 0.045932 255 220 0
0.362419 0.226109 0.083663 255 220 0
0.349162 0.156373 0.028143 255 220 0
0.370069 0.073263 0.060418 255 220 0
0.331926 0.106105 0.051335 255 220 0
0.355688 0.061567 0.044632 255 220 0
0.381827 0.224793 0.095608 255 220 0
0.385111 0.076475 0.051971 255 220 0
0.406847 0.104949 0.065069 255 220 0
0.396441 0.100515 0.036002 255 220 0
0.375057 0.182939 0.025013 255 220 0
0.332561 0.087448 0.056581 255 220 0
0.346105 0.157482 0.030014 255 220 0
0.378049 0.236008 0.079037 255 220 0
0.389347 0.118173 0.024086 255 220 0
0.420518 0.140030 0.069669 255 220 0
0.361691 0.085783 0.069078 255 220 0
0.396735 0.089380 0.048597 255 220 0
0.360222 0.142128 0.022559 255 220 0
0.418163 0.198190 0.068313 255 220 0
0.339584 0.106961 0.065245 255 220 0
0.347333 0.206268 0.082964 255 220 0
0.415662 0.158846 0.041495 255 220 0
0.367174 0.229836 0.083267 255 220 0
0.339579 0.130307 0.069907 255 220 0
0.404828 0.181563 0.033375 255 220 0
0.351475 0.061656 0.044558 255 220 0
0.412129 0.174587 0.092869 255 220 0
0.398719 0.108162 0.075855 255 220 0
0.368051 0.066687 0.052688 255 220 0
0.351192 0.154783 0.087081 255 220 0
0.380805 0.178824 0.104558 255 220 0
0.420263 0.182787 0.077794 255 220 0
0.376361 0.078801 0.062731 255 220 0
0.342969 0.196436 0.081271 255 220 0
0.378224 0.090197 0.071053 255 220 0
0.400476 0.110287 0.076336 255 220 0
0.387611 0.095195 0.030638 255 220 0
0.332052 0.150784 0.062205 255 220 0
0.382360 0.231261 0.057251 255 220 0
0.421784 0.146154 0.065117 255 220 0
0.339268 0.130151 0.069501 255 220 0
0.359538 0.121843 0.021993 255 220 0
0.349632 0.204660 0.086960 255 220 0
0.405363 0.183121 0.098875 255 220 0
0.383007 0.207294 0.036259 255 220 0
0.331933 0.089270 0.038770 255 220 0
0.372933 0.078393 0.063838 255 220 0
0.371801 0.189847 0.027427 255 220 0
0.338829 0.083185 0.031540 255 220 0
0.400160 0.123489 0.029449 255 220 0
0.407314 0.114606 0.042179 255 220 0
0.367544 0.070268 0.058425 255 220 0
0.404177 0.142010 0.090064 255 220 0
0.346444 0.089493 0.027127 255 220 0
0.386453 0.077538 0.051793 255 220 0
0.335298 0.094528 0.034875 255 220 0
0.392834 0.206745 0.038316 255 220 0
0.410612 0.172461 0.094090 255 220 0
0.333599 0.160736 0.067954 255 220 0
0.333664 0.177489 0.066898 255 220 0
0.422749 0.157002 0.065897 255 220 0
0.354990 0.141060 0.085787 255 220 0
0.360688 0.122602 0.021699 255 220 0
0.399986 0.130614 0.087228 255 220 0
0.415794 0.126488 0.072961 255 220 0
0.391004 0.127144 0.088502 255 220 0
0.355177 0.221623 0.079833 255 220 0
0.374516 0.168654 0.101344 255 220 0
0.355890 0.172635 0.027528 255 220 0
0.374299 0.233656 0.064000 255 220 0
0.402467 0.117476 0.079760 255 220 0
0.385078 0.229879 0.055713 255 220 0
0.378845 0.227735 0.092867 255 220 0
0.351498 0.129359 0.080041 255 220 0
0.351161 0.075641 0.064222 255 220 0
0.421636 0.152170 0.070800 255 220 0
0.398161 0.124962 0.027578 255 220 0
0.404130 0.100863 0.063675 255 220 0
0.372035 0.076259 0.062351 255 220 0
0.367493 0.230576 0.082068 255 220 0
0.384668 0.142505 0.094955 255 220 0
0.360469 0.091290 0.023892 255 220 0
0.384565 0.126132 0.088987 255 220 0
0.352363 0.086487 0.025736 255 220 0
0.403666 0.150959 0.028800 255 220 0
0.344146 0.196145 0.044833 255 220 0
0.412267 0.202268 0.052327 255 220 0
0.370254 0.082999 0.067783 255 220 0
0.358983 0.223685 0.057246 255 220 0
0.377898 0.168438 0.021866 255 220 0
0.334985 0.150698 0.040697 255 220 0
0.407457 0.202011 0.044667 255 220 0
0.406156 0.220174 0.087210 255 220 0
0.419992 0.185939 0.076909 255 220 0
0.333243 0.113059 0.043182 255 220 0
0.332234 0.170477 0.052444 255 220 0
0.401892 0.097955 0.047904 255 220 0
0.376189 0.234784 0.065873 255 220 0
0.384761 0.186859 0.105634 255 220 0
0.344769 0.211518 0.067682 255 220 0
0.362471 0.110061 0.021608 255 220 0
0.341495 0.151742 0.032971 255 220 0
0.340744 0.116116 0.067701 255 220 0
0.389751 0.139560 0.022005 255 220 0
0.397630 0.219084 0.049965 255 220 0
0.405774 0.127197 0.034031 255 220 0
0.355356 0.206377 0.042706 255 220 0
0.389762 0.157797 0.022033 255 220 0
0.395956 0.133205 0.025076 255 220 0
0.410138 0.218642 0.069562 255 220 0
0.377511 0.143098 0.094844 255 220 0
0.365339 0.108693 0.078738 255 220 0
0.338460 0.167268 0.038384 255 220 0
0.357110 0.142751 0.023644 255 220 0
0.345661 0.135734 0.077406 255 220 0
0.420957 0.163334 0.052297 255 220 0
0.353249 0.062439 0.051880 255 220 0
0.349424 0.203717 0.087143 255 220 0
0.388814 0.218465 0.045354 255 220 0
0.360647 0.126673 0.021786 255 220 0
0.354624 0.184646 0.031285 255 220 0
0.378668 0.167127 0.021666 255 220 0
0.374484 0.114365 0.020967 255 220 0
0.331697 0.142946 0.049493 255 220 0
0.415475 0.198327 0.056096 255 220 0
0.348029 0.212379 0.078752 255 220 0
0.351177 0.215902 0.055945 255 220 0
0.348184 0.110815 0.072510 255 220 0
0.337945 0.084054 0.061543 255 220 0
0.417583 0.199628 0.066461 255 220 0
0.362328 0.218576 0.091524 255 220 0
0.340293 0.157020 0.034527 255 220 0
0.331893 0.070761 0.047014 255 220 0
0.419167 0.193699 0.066188 255 220 0
0.410312 0.141308 0.036414 255 220 0
0.403690 0.101349 0.065181 255 220 0
0.353388 0.156858 0.026208 255 220 0
0.392775 0.089133 0.062456 255 220 0
0.376055 0.075370 0.036226 255 220 0
0.395960 0.087589 0.052454 255 220 0
0.340634 0.099266 0.065128 255 220 0
0.358877 0.211174 0.044279 255 220 0
0.361956 0.113682 0.079636 255 220 0
0.387411 0.223192 0.096742 255 220 0
0.406633 0.165081 0.031374 255 220 0
0.332137 0.165876 0.063928 255 220 0
0.411459 0.131147 0.040663 255 220 0
0.348835 0.118903 0.075071 255 220 0
0.339056 0.162554 0.077187 255 220 0
0.336474 0.075530 0.059417 255 220 0
0.397841 0.230886 0.083328 255 220 0
0.331017 0.150149 0.057228 255 220 0
0.397109 0.222017 0.094546 255 220 0
0.342319 0.074875 0.062260 255 220 0
0.379947 0.077156 0.037481 255 220 0
0.337692 0.071053 0.035964 255 220 0
0.416642 0.125737 0.055137 255 220 0
0.364695 0.067879 0.056909 255 220 0
0.419450 0.144468 0.075229 255 220 0
0.354939 0.151143 0.088627 255 220 0
0.382583 0.191733 0.028061 255 220 0
0.420104 0.161597 0.049911 255 220 0
0.411915 0.113758 0.052990 255 220 0
0.345477 0.080331 0.064377 255 220 0
0.420159 0.153243 0.076345 255 220 0
0.349305 0.069358 0.032774 255 220 0
0.403584 0.227922 0.071434 255 220 0
0.358630 0.156570 0.092179 255 220 0
0.403199 0.197077 0.037782 255 220 0
0.389245 0.083948 0.059402 255 220 0
0.387937 0.174613 0.103637 255 220 0
0.410348 0.210572 0.088747 255 220 0
0.340084 0.189022 0.078777 255 220 0
0.352243 0.079489 0.065575 255 220 0
0.367478 0.226459 0.054694 255 220 0
0.332406 0.174466 0.062322 255 220 0
0.393156 0.084307 0.049301 255 220 0
0.380881 0.176296 0.104109 255 220 0
0.418837 0.135282 0.055261 255 220 0
0.352025 0.161811 0.027407 255 220 0
0.361800 0.088076 0.024644 255 220 0
0.358533 0.226327 0.063614 255 220 0
0.394296 0.132944 0.089980 255 220 0
0.409462 0.215691 0.086176 255 220 0
0.354460 0.094909 0.024089 255 220 0
0.331474 0.140732 0.053447 255 220 0
0.400660 0.107146 0.073922 255 220 0
0.337906 0.150604 0.036609 255 220 0
0.359234 0.185611 0.097920 255 220 0
0.381797 0.073020 0.048661 255 220 0
0.329596 0.088838 0.047752 255 220 0
0.392457 0.133729 0.090749 255 220 0
0.356823 0.186640 0.096438 255 220 0
0.350507 0.114199 0.074858 255 220 0
0.370908 0.221215 0.047696 255 220 0
0.363322 0.121579 0.082996 255 220 0
0.345143 0.067964 0.034790 255 220 0
0.406344 0.203904 0.096751 255 220 0
0.383641 0.183913 0.025394 255 220 0
0.374557 0.117165 0.020685 255 220 0
0.419581 0.186850 0.077929 255 220 0
0.388174 0.140265 0.093872 255 220 0
0.343217 0.208471 0.069676 255 220 0
0.352634 0.133080 0.024825 255 220 0
0.383783 0.102151 0.025710 255 220 0
0.417932 0.128795 0.057128 255 220 0
0.372910 0.172590 0.022891 255 220 0
0.366324 0.122403 0.084281 255 220 0
0.346119 0.211373 0.075423 255 220 0
0.394734 0.232626 0.064559 255 220 0
0.404472 0.182359 0.033337 255 220 0
0.381954 0.089298 0.030021 255 220 0
0.421149 0.148420 0.071256 255 220 0
0.381563 0.206412 0.035510 255 220 0
0.353753 0.197073 0.093435 255 220 0
0.372483 0.229379 0.056535 255 220 0
0.404131 0.165478 0.029440 255 220 0
0.401467 0.152965 0.095048 255 220 0
0.342601 0.171844 0.082786 255 220 0
0.341226 0.164603 0.034835 255 220 0
0.364491 0.168458 0.097742 255 220 0
0.393698 0.188820 0.104582 255 220 0
0.407732 0.219203 0.062958 255 220 0
0.337333 0.068312 0.038871 255 220 0
0.376926 0.234855 0.082331 255 220 0
0.366385 0.074933 0.031469 255 220 0
0.398007 0.091704 0.047770 255 220 0
0.349785 0.160797 0.028345 255 220 0
0.401300 0.116057 0.032954 255 220 0
0.389880 0.149882 0.096853 255 220 0
0.366983 0.230968 0.063897 255 220 0
0.356443 0.124989 0.022982 255 220 0
0.386005 0.159881 0.100210 255 220 0
0.357548 0.181334 0.028889 255 220 0
0.398222 0.103363 0.036338 255 220 0
0.413928 0.191881 0.089247 255 220 0
0.416529 0.134281 0.076836 255 220 0
0.419689 0.141058 0.073313 255 220 0
0.367833 0.133316 0.088853 255 220 0
0.408321 0.220813 0.081306 255 220 0
0.396153 0.164315 0.099813 255 220 0
0.387012 0.199217 0.032348 255 220 0
0.360500 0.097159 0.073262 255 220 0
0.411777 0.126445 0.043168 255 220 0
0.338192 0.132196 0.068735 255 220 0
0.408860 0.180232 0.036418 255 220 0
0.381978 0.128060 0.089792 255 220 0
0.375128 0.235464 0.077312 255 220 0
0.347794 0.136799 0.027553 255 220 0
0.414058 0.115868 0.058451 255 220 0
0.360613 0.064685 0.039087 255 220 0
0.336604 0.188959 0.070975 255 220 0
0.331955 0.143504 0.059501 255 220 0
0.361139 0.195649 0.098987 255 220 0
0.357529 0.197410 0.035429 255 220 0
0.420213 0.161129 0.079318 255 220 0
0.413171 0.143912 0.039787 255 220 0
0.353189 0.175064 0.092820 255 220 0
0.400279 0.108370 0.075080 255 220 0
0.367652 0.112004 0.021004 255 220 0
0.333363 0.125966 0.057627 255 220 0
0.379649 0.129816 0.090336 255 220 0
0.343080 0.076762 0.030719 255 220 0
0.397969 0.117985 0.029139 255 220 0
0.387069 0.148859 0.021086 255 220 0
0.389032 0.146795 0.095965 255 220 0
0.410016 0.136314 0.037019 255 220 0
0.400640 0.230173 0.068814 255 220 0
0.346822 0.131812 0.077252 255 220 0
0.371012 0.170382 0.100558 255 220 0
0.376201 0.228273 0.091677 255 220 0
0.417524 0.174270 0.086078 255 220 0
0.395094 0.091878 0.063458 255 220 0
0.373349 0.166053 0.021785 255 220 0
0.405851 0.121983 0.080359 255 220 0
0.395478 0.193564 0.031828 255 220 0
0.383847 0.228552 0.053947 255 220 0
0.387649 0.235673 0.081098 255 220 0
0.335985 0.121557 0.038176 255 220 0
0.407615 0.149023 0.032423 255 220 0
0.401964 0.229001 0.079386 255 220 0
0.359096 0.064799 0.054921 255 220 0
0.398309 0.163028 0.025609 255 220 0
0.413440 0.210279 0.065091 255 220 0
0.388057 0.225711 0.094838 255 220 0
0.368304 0.220671 0.048047 255 220 0
0.367203 0.140257 0.020726 255 220 0
0.415209 0.152025 0.041455 255 220 0
0.400074 0.100979 0.040981 255 220 0
0.349823 0.114836 0.074613 255 220 0
0.395049 0.145782 0.094499 255 220 0
0.385288 0.085205 0.064058 255 220 0
0.339513 0.151677 0.075498 255 220 0
0.380823 0.116791 0.085107 255 220 0
0.388531 0.169600 0.023144 255 220 0
0.355000 0.098252 0.023696 255 220 0
0.337675 0.194509 0.070189 255 220 0
0.377257 0.188125 0.105262 255 220 0
0.364310 0.138571 0.021276 255 220 0
0.406864 0.223070 0.068041 255 220 0
0.395460 0.102983 0.033289 255 220 0
0.360433 0.075622 0.064629 255 220 0
0.385881 0.086514 0.064979 255 220 0
0.417395 0.166747 0.086039 255 220 0
0.414193 0.207431 0.081917 255 220 0
0.364127 0.136447 0.088620 255 220 0
0.378264 0.197946 0.030577 255 220 0
0.365500 0.231046 0.067256 255 220 0
0.397280 0.228449 0.060323 255 220 0
0.345542 0.208401 0.054919 255 220 0
0.333154 0.106918 0.041469 255 220 0
0.332741 0.178251 0.059272 255 220 0
0.331093 0.158044 0.051862 255 220 0
0.378351 0.218862 0.098900 255 220 0
0.363670 0.192476 0.100636 255 220 0
0.392193 0.146516 0.095367 255 220 0
0.408974 0.161983 0.093822 255 220 0
0.412468 0.156969 0.089840 255 220 0
0.392783 0.199160 0.104736 255 220 0
0.398855 0.198669 0.035918 255 220 0
0.405240 0.200942 0.041635 255 220 0
0.422697 0.173884 0.069407 255 220 0
0.346110 0.082220 0.028326 255 220 0
0.340575 0.180900 0.080698 255 220 0
0.375194 0.220574 0.046117 255 220 0
0.358720 0.141822 0.088032 255 220 0
0.406318 0.128704 0.034242 255 220 0
0.371518 0.129918 0.088766 255 220 0
0.380852 0.120657 0.021176 255 220 0
0.416839 0.141948 0.046804 255 220 0
0.418644 0.188044 0.080379 255 220 0
0.415399 0.156936 0.086576 255 220 0
0.393588 0.165783 0.100772 255 220 0
0.370847 0.102574 0.022289 255 220 0
0.418277 0.142600 0.049833 255 220 0
0.378143 0.128958 0.089842 255 220 0
0.362492 0.090935 0.023961 255 220 0
0.384808 0.172767 0.023037 255 220 0
0.331463 0.160871 0.061416 255 220 0
0.334413 0.145309 0.066531 255 220 0
0.390963 0.084346 0.057896 255 220 0
0.395366 0.090608 0.061496 255 220 0
0.390570 0.136480 0.092173 255 220 0
0.343914 0.108141 0.068959 255 220 0
0.405839 0.182890 0.098519 255 220 0
0.394460 0.122751 0.085727 255 220 0
0.397079 0.208448 0.041081 255 220 0
0.393949 0.231180 0.087059 255 220 0
0.382471 0.195267 0.105958 255 220 0
0.404294 0.215981 0.053210 255 220 0
0.405176 0.115663 0.038109 255 220 0
0.335181 0.189733 0.063562 255 220 0
0.333630 0.166786 0.046238 255 220 0
0.349204 0.091625 0.025881 255 220 0
0.410609 0.121748 0.043527 255 220 0
0.380373 0.103580 0.078769 255 220 0
0.347850 0.138150 0.027597 255 220 0
0.340493 0.172533 0.037569 255 220 0
0.330972 0.098979 0.049610 255 220 0
0.364850 0.159401 0.095683 255 220 0
0.344293 0.129617 0.074459 255 220 0
0.420036 0.186903 0.075992 255 220 0
0.420634 0.142175 0.057798 255 220 0
0.344319 0.135865 0.076248 255 220 0
0.384499 0.178064 0.024040 255 220 0
0.363000 0.084898 0.068820 255 220 0
0.387537 0.126390 0.022253 255 220 0
0.372074 0.150334 0.095798 255 220 0
0.394235 0.139621 0.023740 255 220 0
0.417608 0.162875 0.085016 255 220 0
0.381919 0.121944 0.021265 255 220 0
0.400971 0.181099 0.101205 255 220 0
0.365459 0.066935 0.055024 255 220 0
0.349954 0.166190 0.029056 255 220 0
0.373774 0.232558 0.085084 255 220 0
0.372810 0.126244 0.020062 255 220 0
0.333857 0.092827 0.058350 255 220 0
0.380857 0.182439 0.024788 255 220 0
0.366682 0.230865 0.064003 255 220 0
0.396117 0.218982 0.048877 255 220 0
0.413812 0.180252 0.090930 255 220 0
0.358850 0.061857 0.045362 255 220 0
0.380846 0.103143 0.024327 255 220 0
0.359541 0.097359 0.022995 255 220 0
0.367247 0.119328 0.083376 255 220 0
0.373666 0.209169 0.102205 255 220 0
0.378863 0.224003 0.095720 255 220 0
0.362759 0.063858 0.050782 255 220 0
0.366538 0.118351 0.020718 255 220 0
0.350055 0.211454 0.083269 255 220 0
0.414183 0.189091 0.046510 255 220 0
0.346014 0.114313 0.027318 255 220 0
0.419543 0.192793 0.069970 255 220 0
0.384800 0.106088 0.024976 255 220 0
0.411125 0.151688 0.035996 255 220 0
0.411756 0.209792 0.086490 255 220 0
0.353126 0.063421 0.054173 255 220 0
0.360296 0.072739 0.031185 255 220 0
0.408776 0.152912 0.091536 255 220 0
0.332396 0.112395 0.050695 255 220 0
0.386953 0.139189 0.021220 255 220 0
0.361273 0.198891 0.034406 255 220 0
0.351040 0.220093 0.066115 255 220 0
0.338333 0.184714 0.076588 255 220 0
0.330939 0.160255 0.057806 255 220 0
0.344872 0.120416 0.072443 255 220 0
0.332100 0.079195 0.038074 255 220 0
0.418817 0.155885 0.080579 255 220 0
0.353975 0.142373 0.024843 255 220 0
0.401860 0.217247 0.051777 255 220 0
0.352024 0.220605 0.073974 255 220 0
0.394109 0.183889 0.027843 255 220 0
0.397448 0.190873 0.031603 255 220 0
0.347391 0.119907 0.074297 255 220 0
0.347181 0.200097 0.085884 255 220 0
0.385710 0.123874 0.087992 255 220 0
0.361443 0.184561 0.028312 255 220 0
0.367649 0.183689 0.101840 255 220 0
0.353285 0.193628 0.093552 255 220 0
0.410956 0.187107 0.093903 255 220 0
0.329296 0.079538 0.047899 255 220 0
0.335202 0.068827 0.040779 255 220 0
0.395936 0.115971 0.028188 255 220 0
0.395468 0.087520 0.055377 255 220 0
0.404348 0.134902 0.030884 255 220 0
0.360410 0.076716 0.028781 255 220 0
0.392036 0.235768 0.074492 255 220 0
0.412832 0.122250 0.074344 255 220 0
0.362020 0.210774 0.095666 255 220 0
0.416137 0.122246 0.057087 255 220 0
0.406633 0.194135 0.098003 255 220 0
0.408807 0.110165 0.068672 255 220 0
0.364644 0.147185 0.092162 255 220 0
0.368995 0.191984 0.028635 255 220 0
0.357553 0.184886 0.029965 255 220 0
0.372862 0.171617 0.022722 255 220 0
0.409811 0.151766 0.034478 255 220 0
0.369269 0.108890 0.079798 255 220 0
0.362010 0.177743 0.026339 255 220 0
0.420089 0.183542 0.078003 255 220 0
0.346029 0.132277 0.076719 255 220 0
0.407906 0.150261 0.091209 255 220 0
0.382138 0.128556 0.089989 255 220 0
0.335530 0.109084 0.060712 255 220 0
0.388052 0.099130 0.029048 255 220 0
0.358282 0.154385 0.091408 255 220 0
0.406607 0.219534 0.061120 255 220 0
0.399476 0.105099 0.036821 255 220 0
0.363631 0.171291 0.097997 255 220 0
0.363788 0.220424 0.049758 255 220 0
0.422212 0.151992 0.060606 255 220 0
0.360542 0.069352 0.060372 255 220 0
0.368262 0.201156 0.033154 255 220 0
0.403116 0.228605 0.075183 255 220 0
0.339642 0.201113 0.068817 255 220 0
0.349240 0.203562 0.045260 255 220 0
0.334561 0.170885 0.070510 255 220 0
0.332643 0.118919 0.050510 255 220 0
0.362111 0.070455 0.060932 255 220 0
0.399283 0.118931 0.029943 255 220 0
0.378010 0.230020 0.055877 255 220 0
0.387548 0.236886 0.073135 255 220 0
0.405662 0.217572 0.056965 255 220 0
0.414791 0.201513 0.057502 255 220 0
0.388074 0.230793 0.057575 255 220 0
0.341566 0.183766 0.081938 255 220 0
0.362851 0.155353 0.093803 255 220 0
0.329918 0.077481 0.050165 255 220 0
0.394260 0.160495 0.099254 255 220 0
0.356021 0.068242 0.033750 255 220 0
0.339744 0.135492 0.071519 255 220 0
0.393708 0.093601 0.037763 255 220 0
0.393813 0.193918 0.031361 255 220 0
0.397702 0.131490 0.026242 255 220 0
0.378640 0.221286 0.046405 255 220 0
0.423064 0.167879 0.064003 255 220 0
0.396791 0.156292 0.097482 255 220 0
0.421762 0.180518 0.063655 255 220 0
0.400537 0.173795 0.100338 255 220 0
0.352702 0.084683 0.026072 255 220 0
0.404261 0.099427 0.060375 255 220 0
0.414144 0.209800 0.067405 255 220 0
0.332807 0.123652 0.054066 255 220 0
0.361898 0.115387 0.080240 255 220 0
0.355596 0.129448 0.023430 255 220 0
0.387750 0.236718 0.070994 255 220 0
0.334901 0.168798 0.071254 255 220 0
0.389799 0.095378 0.070687 255 220 0
0.377316 0.234970 0.082279 255 220 0
0.367248 0.212483 0.041388 255 220 0
0.380351 0.209482 0.103490 255 220 0
0.374242 0.119599 0.085379 255 220 0
0.362195 0.067626 0.057850 255 220 0
0.331381 0.142012 0.054405 255 220 0
0.374399 0.196368 0.104813 255 220 0
0.392311 0.083558 0.053379 255 220 0
0.378257 0.096278 0.025465 255 220 0
0.418568 0.170281 0.084348 255 220 0
0.371412 0.195591 0.103965 255 220 0
0.401080 0.102201 0.041570 255 220 0
0.345542 0.108573 0.070212 255 220 0
0.415777 0.122204 0.068668 255 220 0
0.369371 0.137856 0.090953 255 220 0
0.394751 0.220907 0.096477 255 220 0
0.384580 0.110037 0.023913 255 220 0
0.366744 0.104187 0.077367 255 220 0
0.352942 0.089647 0.068764 255 220 0
0.404129 0.167629 0.097636 255 220 0
0.349137 0.140992 0.027046 255 220 0
0.402464 0.101049 0.045261 255 220 0
0.395355 0.097247 0.068984 255 220 0
0.370586 0.078757 0.030503 255 220 0
0.391439 0.082540 0.047532 255 220 0
0.346267 0.213861 0.066537 255 220 0
0.396975 0.149861 0.024552 255 220 0
0.342607 0.107566 0.067872 255 220 0
0.333207 0.074187 0.038352 255 220 0
0.408665 0.184541 0.096293 255 220 0
0.397229 0.101458 0.071525 255 220 0
0.383711 0.179858 0.104819 255 220 0
0.353496 0.163036 0.026923 255 220 0
0.358669 0.225152 0.060279 255 220 0
0.358233 0.220151 0.053244 255 220 0
0.350016 0.119043 0.025368 255 220 0
0.395093 0.158740 0.098591 255 220 0
0.359655 0.102672 0.022467 255 220 0
0.347441 0.207423 0.050761 255 220 0
0.385847 0.184278 0.025783 255 220 0
0.366341 0.143616 0.091720 255 220 0
0.417139 0.201505 0.074783 255 220 0
0.356674 0.142974 0.087307 255 220 0
0.380580 0.145866 0.096064 255 220 0
0.410835 0.139959 0.037330 255 220 0
0.343237 0.101532 0.067280 255 220 0
0.340396 0.067721 0.037191 255 220 0
0.353703 0.147804 0.025313 255 220 0
0.388855 0.216369 0.100538 255 220 0
0.360781 0.090648 0.024019 255 220 0
0.399200 0.183983 0.030332 255 220 0
0.378439 0.116236 0.084680 255 220 0
0.334783 0.068938 0.041273 255 220 0
0.399191 0.100701 0.039799 255 220 0
0.398907 0.217912 0.049777 255 220 0
0.416625 0.148599 0.082083 255 220 0
0.353953 0.154173 0.025713 255 220 0
0.358238 0.208513 0.093763 255 220 0
0.333084 0.115035 0.044427 255 220 0
0.385729 0.229423 0.055274 255 220 0
0.375247 0.224181 0.094676 255 220 0
0.341395 0.179836 0.039235 255 220 0
0.409618 0.219735 0.070378 255 220 0
0.345813 0.157763 0.030232 255 220 0
0.400575 0.191768 0.102305 255 220 0
0.403167 0.217639 0.053655 255 220 0
0.406522 0.143374 0.089468 255 220 0
0.415385 0.155918 0.041271 255 220 0
0.393023 0.091212 0.064640 255 220 0
0.360119 0.175107 0.097093 255 220 0
0.413819 0.118427 0.053297 255 220 0
0.380360 0.191125 0.027664 255 220 0
0.341959 0.198995 0.049966 255 220 0
0.342698 0.200697 0.078418 255 220 0
0.366619 0.195211 0.030553 255 220 0
0.360959 0.191712 0.031021 255 220 0
0.398070 0.132073 0.088499 255 220 0
0.343944 0.208093 0.073834 255 220 0
0.405634 0.155918 0.030211 255 220 0
0.336491 0.151028 0.071369 255 220 0
0.343988 0.141468 0.030418 255 220 0
0.331386 0.150999 0.059705 255 220 0
0.390183 0.081463 0.046209 255 220 0
0.342202 0.072176 0.032898 255 220 0
0.363462 0.140403 0.089652 255 220 0
0.422462 0.154342 0.061082 255 220 0
0.345484 0.203207 0.081934 255 220 0
0.368301 0.080941 0.066794 255 220 0
0.356760 0.081644 0.026513 255 220 0
0.340844 0.195503 0.048762 255 220 0
0.407550 0.109746 0.046617 255 220 0
0.385742 0.142060 0.020849 255 220 0
0.349112 0.154860 0.085517 255 220 0
0.399899 0.160434 0.026265 255 220 0
0.414402 0.118489 0.067584 255 220 0
0.358807 0.183964 0.097533 255 220 0
0.331474 0.097923 0.053165 255 220 0
0.408761 0.208895 0.092163 255 220 0
0.416049 0.203268 0.064334 255 220 0
0.381497 0.143149 0.020120 255 220 0
0.418710 0.130043 0.059538 255 220 0
0.396955 0.200132 0.103414 255 220 0
0.337122 0.192965 0.054594 255 220 0
0.411271 0.179920 0.093783 255 220 0
0.382105 0.218685 0.099519 255 220 0
0.343734 0.143839 0.077914 255 220 0
0.412045 0.111469 0.061778 255 220 0
0.398091 0.225031 0.091289 255 220 0
0.374131 0.118405 0.084863 255 220 0
0.372002 0.146708 0.020237 255 220 0
0.361364 0.107238 0.021939 255 220 0
0.352455 0.071142 0.031391 255 220 0
0.344296 0.210654 0.068455 255 220 0
0.334039 0.175851 0.049670 255 220 0
0.418647 0.170792 0.084211 255 220 0
0.408718 0.198245 0.043714 255 220 0
0.392715 0.228472 0.056788 255 220 0
0.412937 0.203493 0.054891 255 220 0
0.414384 0.120585 0.052818 255 220 0
0.378131 0.137426 0.019849 255 220 0
0.360647 0.214225 0.045829 255 220 0
0.413945 0.203098 0.085674 255 220 0
0.336905 0.120724 0.036543 255 220 0
0.337640 0.087724 0.061654 255 220 0
0.339410 0.080932 0.062137 255 220 0
0.341648 0.167095 0.034961 255 220 0
0.403202 0.127729 0.031138 255 220 0
0.344355 0.065565 0.037968 255 220 0
0.398099 0.208124 0.101157 255 220 0
0.350667 0.206844 0.087120 255 220 0
0.409106 0.120692 0.077209 255 220 0
0.395222 0.167820 0.100883 255 220 0
0.415079 0.122671 0.052930 255 220 0
0.358917 0.071705 0.062546 255 220 0
0.336239 0.188367 0.052716 255 220 0
0.399639 0.092764 0.056949 255 220 0
0.361724 0.228213 0.063303 255 220 0
0.388028 0.097147 0.072888 255 220 0
0.366174 0.084027 0.068580 255 220 0
0.389814 0.134293 0.022318 255 220 0
0.349387 0.216427 0.060346 255 220 0
0.413710 0.189853 0.046126 255 220 0
0.408129 0.138181 0.034311 255 220 0
0.339980 0.202459 0.060501 255 220 0
0.420400 0.137759 0.068187 255 220 0
0.389487 0.207505 0.037801 255 220 0
0.354557 0.169560 0.092837 255 220 0
0.365296 0.192995 0.029994 255 220 0
0.376485 0.201303 0.104822 255 220 0
0.346524 0.129794 0.076428 255 220 0
0.393594 0.107495 0.029414 255 220 0
0.334123 0.185550 0.060727 255 220 0
0.359115 0.075861 0.064784 255 220 0
0.361595 0.094398 0.023246 255 220 0
0.365580 0.213599 0.096666 255 220 0
0.396310 0.137074 0.024946 255 220 0
0.407590 0.194423 0.097079 255 220 0
0.361721 0.068130 0.035510 255 220 0
0.343785 0.200027 0.080907 255 220 0
0.420796 0.163548 0.078514 255 220 0
0.392960 0.171748 0.024695 255 220 0
0.352125 0.145209 0.025829 255 220 0
0.391889 0.122506 0.086330 255 220 0
0.401061 0.205676 0.041428 255 220 0
0.332449 0.108500 0.053325 255 220 0
0.369659 0.222730 0.093341 255 220 0
0.421445 0.146238 0.068682 255 220 0
0.374670 0.071133 0.039761 255 220 0
0.412030 0.160120 0.091055 255 220 0
0.359570 0.172222 0.026028 255 220 0
0.422195 0.173685 0.059913 255 220 0
0.411690 0.141749 0.085444 255 220 0
0.380108 0.207003 0.104203 255 220 0
0.380369 0.158763 0.099937 255 220 0
0.421100 0.148380 0.056093 255 220 0
0.374296 0.234881 0.068688 255 220 0
0.360200 0.123479 0.082588 255 220 0
0.345557 0.104326 0.027205 255 220 0
0.336965 0.156276 0.073183 255 220 0
0.409387 0.219217 0.067670 255 220 0
0.409741 0.140713 0.035803 255 220 0
0.422341 0.170020 0.058814 255 220 0
0.357757 0.119309 0.080132 255 220 0
0.371950 0.170077 0.022581 255 220 0
0.356843 0.176517 0.095462 255 220 0
0.348240 0.134996 0.079348 255 220 0
0.385918 0.194962 0.029949 255 220 0
0.423113 0.166196 0.067229 255 220 0
0.358608 0.063921 0.053472 255 220 0
0.399525 0.230199 0.066244 255 220 0
0.378507 0.075592 0.058012 255 220 0
0.333929 0.072849 0.055757 255 220 0
0.356635 0.074139 0.029747 255 220 0
0.336991 0.148787 0.071569 255 220 0
0.375938 0.108767 0.081069 255 220 0
0.389037 0.150442 0.097139 255 220 0
0.368104 0.065160 0.043532 255 220 0
0.421880 0.181080 0.066786 255 220 0
0.415732 0.206594 0.070788 255 220 0
0.369501 0.074213 0.061575 255 220 0
0.354483 0.064728 0.037395 255 220 0
0.361908 0.063414 0.050264 255 220 0
0.363332 0.146838 0.091554 255 220 0
0.421011 0.149446 0.072211 255 220 0
0.339346 0.182747 0.043115 255 220 0
0.365630 0.179422 0.025655 255 220 0
0.340563 0.128199 0.070418 255 220 0
0.343708 0.165060 0.082919 255 220 0
0.337128 0.176912 0.043701 255 220 0
0.348462 0.140721 0.027405 255 220 0
0.335028 0.087239 0.059443 255 220 0
0.367010 0.067075 0.039347 255 220 0
0.361057 0.065556 0.055313 255 220 0
0.333912 0.145017 0.065436 255 220 0
0.381669 0.211655 0.038883 255 220 0
0.392599 0.113337 0.081718 255 220 0
0.344712 0.073511 0.031391 255 220 0
0.343021 0.122197 0.029917 255 220 0
0.338368 0.072877 0.059831 255 220 0
0.369175 0.099957 0.076160 255 220 0
0.341070 0.198747 0.051234 255 220 0
0.408906 0.119139 0.042015 255 220 0
0.347066 0.062034 0.045367 255 220 0
0.357600 0.086528 0.025070 255 220 0
0.398454 0.169699 0.100358 255 220 0
0.370699 0.152388 0.020722 255 220 0
0.336490 0.121540 0.063525 255 220 0
0.375203 0.073644 0.057906 255 220 0
0.342163 0.137586 0.031732 255 220 0
0.415442 0.169369 0.088992 255 220 0
0.379876 0.208732 0.103671 255 220 0
0.353031 0.109838 0.074979 255 220 0
0.403260 0.216805 0.052850 255 220 0
0.361455 0.067008 0.036589 255 220 0
0.340542 0.164525 0.079340 255 220 0
0.337766 0.176920 0.042694 255 220 0
0.340628 0.123942 0.069357 255 220 0
0.357428 0.205503 0.040755 255 220 0
0.406381 0.145680 0.090417 255 220 0
0.364099 0.212100 0.096463 255 220 0
0.336373 0.160997 0.073115 255 220 0
0.421627 0.152829 0.071188 255 220 0
0.333894 0.183900 0.058223 255 220 0
0.412216 0.112220 0.063431 255 220 0
0.384168 0.108880 0.081263 255 220 0
0.400427 0.112561 0.077887 255 220 0
0.331914 0.102668 0.044005 255 220 0
0.343267 0.117982 0.029437 255 220 0
0.419197 0.153961 0.048613 255 220 0
0.362906 0.173908 0.025242 255 220 0
0.395753 0.148022 0.024016 255 220 0
0.360664 0.116024 0.021737 255 220 0
0.376635 0.072983 0.039190 255 220 0
0.385492 0.212208 0.102697 255 220 0
0.374179 0.095916 0.074814 255 220 0
0.421218 0.141848 0.062250 255 220 0
0.349963 0.156683 0.086645 255 220 0
0.367801 0.196363 0.030762 255 220 0
0.416535 0.162742 0.042811 255 220 0
0.417097 0.199799 0.077955 255 220 0
0.342131 0.182521 0.082776 255 220 0
0.396661 0.128471 0.087496 255 220 0
0.376780 0.119566 0.085870 255 220 0
0.404751 0.139663 0.030674 255 220 0
0.350953 0.064203 0.055784 255 220 0
0.339579 0.073733 0.060823 255 220 0
0.335883 0.157890 0.039903 255 220 0
0.421346 0.153531 0.055018 255 220 0
0.354778 0.219683 0.056231 255 220 0
0.333158 0.179783 0.062777 255 220 0
0.334045 0.152002 0.042398 255 220 0
0.401532 0.110208 0.075633 255 220 0
0.362378 0.111876 0.079099 255 220 0
0.399051 0.123199 0.084321 255 220 0
0.404969 0.165538 0.030073 255 220 0
0.368333 0.067800 0.054480 255 220 0
0.332320 0.084681 0.056217 255 220 0
0.371896 0.156879 0.020893 255 220 0
0.360648 0.163700 0.024311 255 220 0
0.416777 0.136736 0.048732 255 220 0
0.352167 0.208399 0.046746 255 220 0
0.410209 0.180148 0.094807 255 220 0
0.416158 0.186392 0.048673 255 220 0
0.409909 0.202871 0.048659 255 220 0
0.333540 0.079303 0.036255 255 220 0
0.380254 0.219945 0.045200 255 220 0
0.344489 0.110252 0.069805 255 220 0
0.391321 0.204213 0.104292 255 220 0
0.332078 0.107796 0.051295 255 220 0
0.400219 0.104908 0.038009 255 220 0
0.392302 0.088331 0.040621 255 220 0
0.415769 0.204067 0.064373 255 220 0
0.352258 0.186614 0.033296 255 220 0
0.383928 0.194339 0.029364 255 220 0
0.336814 0.188048 0.050930 255 220 0
0.336573 0.194775 0.061376 255 220 0
0.331586 0.092629 0.054592 255 220 0
0.410052 0.126077 0.079645 255 220 0
0.362693 0.145681 0.022045 255 220 0
0.331041 0.146791 0.053376 255 220 0
0.368092 0.073146 0.033628 255 220 0
0.354357 0.145397 0.086663 255 220 0
0.353683 0.196461 0.093485 255 220 0
0.415736 0.120504 0.066052 255 220 0
0.415370 0.148112 0.083751 255 220 0
0.415809 0.137027 0.079220 255 220 0
0.347471 0.138344 0.079698 255 220 0
0.332311 0.168464 0.064278 255 220 0
0.406022 0.146226 0.090799 255 220 0
0.341905 0.197766 0.048962 255 220 0
0.408370 0.216001 0.059683 255 220 0
0.371203 0.144561 0.020251 255 220 0
0.422404 0.157927 0.069946 255 220 0
0.355852 0.140632 0.023976 255 220 0
0.345064 0.211376 0.071309 255 220 0
0.375603 0.214249 0.100724 255 220 0
0.365884 0.209052 0.098770 255 220 0
0.346301 0.205089 0.049770 255 220 0
0.385947 0.088022 0.033632 255 220 0
0.360111 0.164527 0.094929 255 220 0
0.411636 0.202159 0.051020 255 220 0
0.350745 0.138324 0.082216 255 220 0
0.415624 0.197001 0.055196 255 220 0
0.423069 0.165214 0.063097 255 220 0
0.343756 0.174423 0.035051 255 220 0
0.330216 0.088878 0.051588 255 220 0
0.402537 0.153156 0.027860 255 220 0
0.339348 0.155344 0.076157 255 220 0
0.391835 0.145288 0.022476 255 220 0
0.396312 0.223907 0.093491 255 220 0
0.380930 0.088275 0.029978 255 220 0
0.377699 0.194633 0.105538 255 220 0
0.332581 0.129131 0.055185 255 220 0
0.375673 0.214335 0.100703 255 220 0
0.413668 0.206473 0.060157 255 220 0
0.398100 0.145598 0.025356 255 220 0
0.422783 0.165661 0.060251 255 220 0
0.340662 0.163078 0.035082 255 220 0
0.376206 0.203996 0.104303 255 220 0
0.388261 0.136600 0.092579 255 220 0
0.384241 0.126285 0.021355 255 220 0
0.391513 0.094315 0.034591 255 220 0
0.333946 0.177959 0.067691 255 220 0
0.405117 0.118299 0.036629 255 220 0
0.383891 0.226108 0.094757 255 220 0
0.342146 0.206800 0.067895 255 220 0
0.420333 0.136620 0.067114 255 220 0
0.404147 0.105574 0.043897 255 220 0
0.392441 0.175108 0.025167 255 220 0
0.406579 0.188752 0.037117 255 220 0
0.372904 0.175893 0.023538 255 220 0
0.415315 0.126228 0.073636 255 220 0
0.350763 0.072920 0.063161 255 220 0
0.411553 0.207935 0.056457 255 220 0
