ply
format ascii 1.0
element vertex 1024
property float x
property float y
property float z
property uchar red
property uchar green
property uchar blue
end_header
0.478434 0.216896 0.263411 255 220 0
0.502622 0.105167 0.205719 255 220 0
0.499787 0.055132 0.222611 255 220 0
0.492629 0.057343 0.214946 255 220 0
0.517377 0.134239 0.210789 255 220 0
0.460700 0.108343 0.250715 255 220 0
0.498054 0.169394 0.290062 255 220 0
0.480251 0.078265 0.254564 255 220 0
0.498944 0.050514 0.230160 255 220 0
0.511934 0.150053 0.209360 255 220 0
0.525896 0.141088 0.218037 255 220 0
0.494969 0.071568 0.209155 255 220 0
0.480340 0.094532 0.261098 255 220 0
0.457388 0.131767 0.256396 255 220 0
0.517577 0.206152 0.267698 255 220 0
0.469999 0.205151 0.270069 255 220 0
0.463618 0.072879 0.213204 255 220 0
0.518321 0.182126 0.223587 255 220 0
0.526017 0.116333 0.270696 255 220 0
0.464667 0.200627 0.237122 255 220 0
0.502849 0.059794 0.220691 255 220 0
0.514183 0.195701 0.230247 255 220 0
0.490969 0.047975 0.235101 255 220 0
0.483753 0.182605 0.214868 255 220 0
0.487730 0.160571 0.207548 255 220 0
0.491796 0.062742 0.249610 255 220 0
0.465921 0.046224 0.226877 255 220 0
0.499770 0.215132 0.274668 255 220 0
0.474748 0.158483 0.209714 255 220 0
0.535981 0.122375 0.237827 255 220 0
0.529625 0.098244 0.257244 255 220 0
0.496940 0.108450 0.204493 255 220 0
0.492363 0.115106 0.204143 255 220 0
0.500206 0.140945 0.205208 255 220 0
0.452590 0.119755 0.228451 255 220 0
0.490828 0.217505 0.272306 255 220 0
0.495482 0.165104 0.208433 255 220 0
0.503019 0.075140 0.211522 255 220 0
0.471335 0.119632 0.208316 255 220 0
0.465323 0.137986 0.268003 255 220 0
0.503971 0.102194 0.270929 255 220 0
0.506919 0.059187 0.226228 255 220 0
0.451247 0.179193 0.241052 255 220 0
0.504421 0.185551 0.289266 255 220 0
0.517876 0.131217 0.211088 255 220 0
0.462379 0.099735 0.249370 255 220 0
0.454882 0.141578 0.256578 255 220 0
0.492310 0.059560 0.213312 255 220 0
0.503640 0.130484 0.205275 255 220 0
0.472586 0.082787 0.208138 255 220 0
0.449829 0.162560 0.233144 255 220 0
0.514263 0.170400 0.215391 255 220 0
0.458540 0.129316 0.216469 255 220 0
0.511492 0.098245 0.210096 255 220 0
0.529962 0.111232 0.265488 255 220 0
0.458921 0.072206 0.238301 255 220 0
0.535416 0.147203 0.265260 255 220 0
0.474276 0.195887 0.280181 255 220 0
0.496465 0.132532 0.204443 255 220 0
0.489009 0.162050 0.288223 255 220 0
0.491989 0.116315 0.204144 255 220 0
0.472583 0.121961 0.267931 255 220 0
0.473521 0.051811 0.214300 255 220 0
0.477212 0.160291 0.209347 255 220 0
0.459470 0.178919 0.225035 255 220 0
0.451602 0.168261 0.255881 255 220 0
0.524961 0.165811 0.222527 255 220 0
0.488092 0.219482 0.247976 255 220 0
0.472987 0.189965 0.281306 255 220 0
0.501913 0.191566 0.221351 255 220 0
0.487566 0.201227 0.226403 255 220 0
0.484194 0.064472 0.250065 255 220 0
0.537396 0.131384 0.240448 255 220 0
0.482269 0.058334 0.211104 255 220 0
0.519695 0.150654 0.282739 255 220 0
0.472984 0.193678 0.280054 255 220 0
0.523985 0.085330 0.251903 255 220 0
0.504147 0.111722 0.274790 255 220 0
0.457069 0.084031 0.236735 255 220 0
0.525028 0.182190 0.231382 255 220 0
0.508437 0.188825 0.287264 255 220 0
0.482215 0.115443 0.270836 255 220 0
0.523986 0.171773 0.224053 255 220 0
0.496424 0.182836 0.290406 255 220 0
0.452391 0.134715 0.249140 255 220 0
0.459620 0.065969 0.238159 255 220 0
0.504027 0.116224 0.276440 255 220 0
0.515256 0.186941 0.224343 255 220 0
0.538302 0.145148 0.243728 255 220 0
0.478740 0.075032 0.252717 255 220 0
0.464817 0.130055 0.211483 255 220 0
0.524500 0.197451 0.257209 255 220 0
0.523519 0.198932 0.254032 255 220 0
0.462584 0.174757 0.273603 255 220 0
0.493388 0.205912 0.282739 255 220 0
0.455648 0.069311 0.228744 255 220 0
0.499906 0.181844 0.215142 255 220 0
0.494825 0.126885 0.279654 255 220 0
0.473439 0.085948 0.207702 255 220 0
0.498305 0.205849 0.231076 255 220 0
0.454227 0.107240 0.234661 255 220 0
0.510325 0.209828 0.242627 255 220 0
0.524437 0.140700 0.278381 255 220 0
0.529398 0.185734 0.259486 255 220 0
0.518387 0.085423 0.219740 255 220 0
0.515408 0.070362 0.244963 255 220 0
0.518536 0.176000 0.282899 255 220 0
0.504924 0.219090 0.261445 255 220 0
0.473704 0.183453 0.218506 255 220 0
0.484403 0.046343 0.221922 255 220 0
0.456468 0.140670 0.258635 255 220 0
0.500336 0.167322 0.209569 255 220 0
0.508539 0.100157 0.269554 255 220 0
0.477756 0.123163 0.206230 255 220 0
0.490267 0.221731 0.260427 255 220 0
0.468731 0.207679 0.264804 255 220 0
0.477970 0.125329 0.272469 255 220 0
0.524612 0.196738 0.261093 255 220 0
0.481952 0.178774 0.213517 255 220 0
0.468104 0.147647 0.273683 255 220 0
0.461689 0.195650 0.235643 255 220 0
0.485619 0.193238 0.287073 255 220 0
0.455653 0.066287 0.227694 255 220 0
0.524237 0.117108 0.216776 255 220 0
0.529664 0.159793 0.226070 255 220 0
0.529408 0.185956 0.258835 255 220 0
0.455227 0.190521 0.244250 255 220 0
0.455240 0.100893 0.229431 255 220 0
0.521913 0.201149 0.263652 255 220 0
0.453977 0.180195 0.233127 255 220 0
0.493869 0.122231 0.277861 255 220 0
0.510601 0.104297 0.271048 255 220 0
0.534807 0.160048 0.236376 255 220 0
0.474638 0.138016 0.275035 255 220 0
0.476234 0.186257 0.284442 255 220 0
0.484705 0.175729 0.288781 255 220 0
0.456396 0.088544 0.235321 255 220 0
0.507632 0.130649 0.280930 255 220 0
0.450345 0.131211 0.240725 255 220 0
0.532568 0.148836 0.270772 255 220 0
0.531773 0.096622 0.248892 255 220 0
0.467056 0.108662 0.258019 255 220 0
0.457455 0.146961 0.262258 255 220 0
0.457747 0.079509 0.220811 255 220 0
0.464680 0.117517 0.259319 255 220 0
0.475205 0.189971 0.282960 255 220 0
0.451702 0.174757 0.254596 255 220 0
0.516079 0.208997 0.252013 255 220 0
0.488034 0.046535 0.234124 255 220 0
0.525197 0.161775 0.221241 255 220 0
0.455269 0.147307 0.219978 255 220 0
0.494680 0.142004 0.284298 255 220 0
0.455696 0.065093 0.227756 255 220 0
0.460486 0.164100 0.270375 255 220 0
0.474895 0.160605 0.281670 255 220 0
0.524601 0.081739 0.239076 255 220 0
0.488474 0.108141 0.270527 255 220 0
0.534553 0.163950 0.264208 255 220 0
0.521248 0.075902 0.242174 255 220 0
0.536991 0.146156 0.237983 255 220 0
0.459159 0.141535 0.262594 255 220 0
0.458595 0.066997 0.236916 255 220 0
0.484095 0.160603 0.286428 255 220 0
0.502902 0.150108 0.206627 255 220 0
0.488099 0.163699 0.288321 255 220 0
0.478429 0.122128 0.206035 255 220 0
0.492783 0.074058 0.207824 255 220 0
0.488662 0.115301 0.273676 255 220 0
0.478853 0.217776 0.256860 255 220 0
0.527504 0.089405 0.236390 255 220 0
0.472492 0.094455 0.207900 255 220 0
0.508242 0.211361 0.242550 255 220 0
0.456190 0.157106 0.220619 255 220 0
0.479134 0.171735 0.286191 255 220 0
0.454023 0.126800 0.222617 255 220 0
0.476942 0.099061 0.261294 255 220 0
0.507525 0.085544 0.261734 255 220 0
0.491073 0.059745 0.212648 255 220 0
0.500217 0.185006 0.216894 255 220 0
0.472033 0.066055 0.209672 255 220 0
0.498303 0.221403 0.260940 255 220 0
0.453036 0.132957 0.223093 255 220 0
0.469471 0.209016 0.263845 255 220 0
0.472047 0.138146 0.208237 255 220 0
0.494800 0.057464 0.245099 255 220 0
0.455860 0.086575 0.229219 255 220 0
0.484371 0.044421 0.227381 255 220 0
0.486662 0.209557 0.278854 255 220 0
0.510680 0.062033 0.239192 255 220 0
0.527245 0.092457 0.255154 255 220 0
0.522263 0.086967 0.224858 255 220 0
0.495567 0.166998 0.208921 255 220 0
0.457315 0.068077 0.234852 255 220 0
0.468634 0.138973 0.209557 255 220 0
0.484682 0.220311 0.261676 255 220 0
0.515666 0.103843 0.211599 255 220 0
0.536701 0.128676 0.261279 255 220 0
0.483992 0.069180 0.252017 255 220 0
0.521476 0.075953 0.237539 255 220 0
0.485136 0.124974 0.204829 255 220 0
0.529303 0.186358 0.258444 255 220 0
0.460990 0.088191 0.244183 255 220 0
0.456587 0.187853 0.261043 255 220 0
0.534896 0.146854 0.232336 255 220 0
0.473865 0.213168 0.264169 255 220 0
0.458078 0.111452 0.248335 255 220 0
0.523534 0.168434 0.222108 255 220 0
0.480239 0.044117 0.226611 255 220 0
0.521454 0.162385 0.282113 255 220 0
0.517180 0.094937 0.264387 255 220 0
0.494704 0.050700 0.237269 255 220 0
0.464392 0.136966 0.266721 255 220 0
0.488369 0.163726 0.288386 255 220 0
0.531196 0.171252 0.268434 255 220 0
0.500089 0.063573 0.248313 255 220 0
0.453481 0.177650 0.258841 255 220 0
0.499494 0.075123 0.256610 255 220 0
0.518631 0.097219 0.265111 255 220 0
0.514970 0.080827 0.218212 255 220 0
0.450098 0.131111 0.239107 255 220 0
0.492968 0.215907 0.240995 255 220 0
0.538142 0.134875 0.256883 255 220 0
0.457855 0.111266 0.247886 255 220 0
0.486410 0.104711 0.204544 255 220 0
0.458326 0.186480 0.265394 255 220 0
0.513033 0.170273 0.286755 255 220 0
0.499281 0.192029 0.220858 255 220 0
0.459492 0.069768 0.217151 255 220 0
0.496576 0.062852 0.248847 255 220 0
0.491338 0.173582 0.210632 255 220 0
0.468020 0.064326 0.211276 255 220 0
0.524906 0.110163 0.218572 255 220 0
0.530626 0.102032 0.232476 255 220 0
0.492926 0.054239 0.242774 255 220 0
0.517087 0.129198 0.278654 255 220 0
0.475654 0.071300 0.208061 255 220 0
0.511930 0.063216 0.239218 255 220 0
0.462964 0.075303 0.213766 255 220 0
0.508638 0.192406 0.224519 255 220 0
0.519955 0.160131 0.283107 255 220 0
0.449753 0.141184 0.244841 255 220 0
0.448462 0.157866 0.243492 255 220 0
0.537969 0.145768 0.257605 255 220 0
0.469589 0.123653 0.266333 255 220 0
0.487519 0.105573 0.204429 255 220 0
0.514483 0.117451 0.275383 255 220 0
0.532752 0.114765 0.264003 255 220 0
0.505770 0.113164 0.275222 255 220 0
0.463406 0.203860 0.258958 255 220 0
0.483656 0.153003 0.284372 255 220 0
0.477271 0.154962 0.208432 255 220 0
0.483714 0.217565 0.246274 255 220 0
0.519360 0.104575 0.268678 255 220 0
0.496019 0.214780 0.239954 255 220 0
0.483921 0.212198 0.275602 255 220 0
0.468184 0.111656 0.260314 255 220 0
0.475386 0.058084 0.245683 255 220 0
0.536503 0.140871 0.262347 255 220 0
0.523120 0.111436 0.216369 255 220 0
0.525183 0.088130 0.253409 255 220 0
0.496136 0.060637 0.247273 255 220 0
0.474310 0.213930 0.263025 255 220 0
0.497074 0.127891 0.280246 255 220 0
0.489798 0.074385 0.207153 255 220 0
0.499459 0.111558 0.274657 255 220 0
0.481972 0.068854 0.207724 255 220 0
0.525948 0.137838 0.217987 255 220 0
0.460717 0.177338 0.223110 255 220 0
0.525799 0.189810 0.241629 255 220 0
0.492870 0.067201 0.252207 255 220 0
0.470708 0.206186 0.237274 255 220 0
0.500203 0.152814 0.206562 255 220 0
0.456560 0.131220 0.218384 255 220 0
0.522372 0.189079 0.233287 255 220 0
0.512367 0.207196 0.274678 255 220 0
0.530790 0.174362 0.267456 255 220 0
0.457873 0.093592 0.221264 255 220 0
0.450100 0.150699 0.229136 255 220 0
0.525872 0.084969 0.237543 255 220 0
0.485155 0.218872 0.248411 255 220 0
0.491341 0.172099 0.289948 255 220 0
0.456129 0.192785 0.245450 255 220 0
0.490430 0.093253 0.204873 255 220 0
0.464140 0.132838 0.211821 255 220 0
0.460885 0.097424 0.246622 255 220 0
0.514455 0.125167 0.209207 255 220 0
0.510284 0.205180 0.236563 255 220 0
0.529318 0.114396 0.223947 255 220 0
0.471144 0.188562 0.222668 255 220 0
0.512797 0.143326 0.208889 255 220 0
0.520618 0.119429 0.213381 255 220 0
0.519349 0.205978 0.257962 255 220 0
0.490010 0.127813 0.278945 255 220 0
0.483877 0.092365 0.261709 255 220 0
0.458843 0.148033 0.216361 255 220 0
0.481842 0.125308 0.205373 255 220 0
0.462308 0.117450 0.256630 255 220 0
0.537891 0.151856 0.243776 255 220 0
0.480693 0.045088 0.234109 255 220 0
0.458178 0.185523 0.265558 255 220 0
0.502451 0.203726 0.230573 255 220 0
0.487092 0.109623 0.204431 255 220 0
0.474307 0.166816 0.211699 255 220 0
0.501112 0.151579 0.206518 255 220 0
0.501938 0.098655 0.206142 255 220 0
0.452577 0.123227 0.226663 255 220 0
0.528682 0.186199 0.245952 255 220 0
0.457412 0.193987 0.256888 255 220 0
0.463971 0.197704 0.234851 255 220 0
0.467875 0.092857 0.252694 255 220 0
0.462087 0.065219 0.240699 255 220 0
0.528911 0.187728 0.256495 255 220 0
0.468764 0.201536 0.271725 255 220 0
0.462219 0.137987 0.213056 255 220 0
0.459772 0.051366 0.225626 255 220 0
0.531053 0.181973 0.256601 255 220 0
0.532090 0.128876 0.226777 255 220 0
0.524455 0.088579 0.254812 255 220 0
0.476474 0.139016 0.207018 255 220 0
0.515307 0.075389 0.250555 255 220 0
0.504506 0.060032 0.222192 255 220 0
0.520237 0.074112 0.241248 255 220 0
0.462743 0.080627 0.244388 255 220 0
0.473901 0.193672 0.224709 255 220 0
0.479951 0.097021 0.261940 255 220 0
0.492103 0.208488 0.280925 255 220 0
0.527144 0.152184 0.220747 255 220 0
0.448517 0.146151 0.240532 255 220 0
0.533438 0.118882 0.231350 255 220 0
0.467350 0.100979 0.255173 255 220 0
0.453411 0.143536 0.254813 255 220 0
0.461774 0.056586 0.238522 255 220 0
0.503870 0.217072 0.269272 255 220 0
0.449967 0.130363 0.234041 255 220 0
0.502097 0.208214 0.280383 255 220 0
0.467101 0.056490 0.242303 255 220 0
0.507956 0.062177 0.224038 255 220 0
0.467276 0.052157 0.215682 255 220 0
0.536615 0.114031 0.246581 255 220 0
0.490599 0.051590 0.240854 255 220 0
0.534323 0.133015 0.266501 255 220 0
0.468147 0.133697 0.268933 255 220 0
0.501647 0.176467 0.213001 255 220 0
0.537609 0.150039 0.241317 255 220 0
0.533425 0.101656 0.243912 255 220 0
0.469351 0.062224 0.244808 255 220 0
0.534032 0.141822 0.267551 255 220 0
0.479364 0.051541 0.214486 255 220 0
0.511755 0.214612 0.258549 255 220 0
0.470684 0.139457 0.272942 255 220 0
0.519786 0.183744 0.225889 255 220 0
0.512822 0.069886 0.247059 255 220 0
0.495909 0.160195 0.288736 255 220 0
0.517104 0.198032 0.277068 255 220 0
0.451739 0.169991 0.256046 255 220 0
0.475873 0.062020 0.247123 255 220 0
0.479220 0.209730 0.236108 255 220 0
0.448263 0.154723 0.238830 255 220 0
0.518308 0.070571 0.237738 255 220 0
0.488749 0.161214 0.288004 255 220 0
0.537878 0.123740 0.246884 255 220 0
0.474485 0.143824 0.207881 255 220 0
0.491274 0.071312 0.208175 255 220 0
0.468967 0.208797 0.243429 255 220 0
0.508226 0.119250 0.277112 255 220 0
0.516194 0.203037 0.274289 255 220 0
0.483535 0.077429 0.206286 255 220 0
0.451903 0.121016 0.230567 255 220 0
0.519499 0.094100 0.262820 255 220 0
0.460116 0.131384 0.214837 255 220 0
0.467672 0.168448 0.278149 255 220 0
0.508292 0.058272 0.235447 255 220 0
0.455745 0.069153 0.225630 255 220 0
0.506222 0.119864 0.277553 255 220 0
0.465457 0.169244 0.276271 255 220 0
0.469457 0.096451 0.255328 255 220 0
0.484230 0.204803 0.229873 255 220 0
0.480013 0.105022 0.265328 255 220 0
0.475069 0.049772 0.215813 255 220 0
0.512452 0.191049 0.284426 255 220 0
0.503843 0.168770 0.210695 255 220 0
0.501801 0.101449 0.205823 255 220 0
0.530134 0.175234 0.268377 255 220 0
0.500901 0.125983 0.279800 255 220 0
0.454552 0.189614 0.247218 255 220 0
0.478134 0.115267 0.205983 255 220 0
0.511396 0.087378 0.212588 255 220 0
0.537272 0.117203 0.248700 255 220 0
0.494757 0.156487 0.206670 255 220 0
0.482671 0.106127 0.267075 255 220 0
0.456181 0.192794 0.253309 255 220 0
0.503779 0.218446 0.250219 255 220 0
0.523118 0.169193 0.221996 255 220 0
0.510057 0.074427 0.216782 255 220 0
0.536291 0.137094 0.262788 255 220 0
0.498067 0.191013 0.219898 255 220 0
0.461989 0.179334 0.272604 255 220 0
0.483561 0.213111 0.238694 255 220 0
0.524973 0.152339 0.218419 255 220 0
0.512597 0.139871 0.282913 255 220 0
0.455113 0.153137 0.260742 255 220 0
0.462392 0.145624 0.213369 255 220 0
0.474430 0.151860 0.279169 255 220 0
0.500111 0.174880 0.290349 255 220 0
0.518033 0.206288 0.251042 255 220 0
0.466691 0.049405 0.218541 255 220 0
0.483137 0.219071 0.264761 255 220 0
0.495841 0.058678 0.215912 255 220 0
0.522650 0.078383 0.236888 255 220 0
0.472221 0.142610 0.208455 255 220 0
0.526122 0.102883 0.222358 255 220 0
0.501202 0.135728 0.282838 255 220 0
0.476792 0.214207 0.245015 255 220 0
0.482920 0.107559 0.204949 255 220 0
0.495927 0.145335 0.285318 255 220 0
0.477878 0.163783 0.209882 255 220 0
0.523696 0.089970 0.225428 255 220 0
0.522243 0.179757 0.278508 255 220 0
0.532118 0.122606 0.267797 255 220 0
0.535188 0.129635 0.264716 255 220 0
0.482397 0.117150 0.271625 255 220 0
0.515416 0.208013 0.269201 255 220 0
0.505552 0.150694 0.286518 255 220 0
0.504600 0.184346 0.217817 255 220 0
0.481090 0.080411 0.255729 255 220 0
0.533762 0.114239 0.233962 255 220 0
0.456739 0.113199 0.246914 255 220 0
0.527109 0.167495 0.225800 255 220 0
0.496609 0.113239 0.274987 255 220 0
0.482151 0.219491 0.259502 255 220 0
0.472589 0.118527 0.207803 255 220 0
0.534429 0.103977 0.249611 255 220 0
0.489844 0.047965 0.222667 255 220 0
0.449625 0.169575 0.247779 255 220 0
0.451116 0.123843 0.236563 255 220 0
0.468449 0.178625 0.279325 255 220 0
0.475305 0.179810 0.216021 255 220 0
0.532872 0.149690 0.270342 255 220 0
0.534099 0.131747 0.230525 255 220 0
0.463547 0.157366 0.272323 255 220 0
0.518821 0.095287 0.263876 255 220 0
0.495439 0.095668 0.205096 255 220 0
0.454412 0.106506 0.235282 255 220 0
0.494072 0.114772 0.275105 255 220 0
0.472917 0.058325 0.211290 255 220 0
0.523309 0.104478 0.218009 255 220 0
0.511125 0.134172 0.207680 255 220 0
0.500799 0.132572 0.281882 255 220 0
0.532154 0.123879 0.227419 255 220 0
0.509095 0.216570 0.255436 255 220 0
0.463832 0.113653 0.256745 255 220 0
0.480189 0.154393 0.282986 255 220 0
0.481473 0.212483 0.273982 255 220 0
0.527908 0.162547 0.276313 255 220 0
0.517167 0.078342 0.251874 255 220 0
0.495969 0.150015 0.205777 255 220 0
0.522172 0.109380 0.269742 255 220 0
0.513515 0.179505 0.218810 255 220 0
0.495225 0.213337 0.238034 255 220 0
0.493796 0.220880 0.265300 255 220 0
0.460621 0.102290 0.216618 255 220 0
0.529400 0.136292 0.222249 255 220 0
0.508745 0.215565 0.266102 255 220 0
0.485713 0.047994 0.238028 255 220 0
0.520116 0.149343 0.213726 255 220 0
0.524098 0.197942 0.254258 255 220 0
0.492823 0.211049 0.279106 255 220 0
0.481663 0.204020 0.229800 255 220 0
0.492466 0.123755 0.204210 255 220 0
0.535081 0.140021 0.232353 255 220 0
0.524960 0.087786 0.230358 255 220 0
0.468767 0.097021 0.254961 255 220 0
0.507043 0.132119 0.281449 255 220 0
0.508049 0.070786 0.250974 255 220 0
0.455134 0.132743 0.253430 255 220 0
0.497283 0.101894 0.270391 255 220 0
0.510326 0.154966 0.209557 255 220 0
0.483826 0.080806 0.205924 255 220 0
0.450300 0.175198 0.247075 255 220 0
0.483919 0.172658 0.288317 255 220 0
0.489687 0.121808 0.204306 255 220 0
0.515983 0.210075 0.255837 255 220 0
0.521525 0.089323 0.221974 255 220 0
0.484425 0.058930 0.247615 255 220 0
0.508358 0.072147 0.251955 255 220 0
0.528475 0.155045 0.276397 255 220 0
0.522301 0.195238 0.271028 255 220 0
0.478511 0.119921 0.270724 255 220 0
0.496421 0.182259 0.214651 255 220 0
0.474771 0.214158 0.248081 255 220 0
0.507364 0.214509 0.246541 255 220 0
0.459293 0.189707 0.233052 255 220 0
0.458631 0.087463 0.219678 255 220 0
0.448754 0.158512 0.235805 255 220 0
0.450212 0.138212 0.228611 255 220 0
0.483244 0.203340 0.281639 255 220 0
0.470950 0.175707 0.281429 255 220 0
0.504028 0.132587 0.281819 255 220 0
0.519348 0.149545 0.282771 255 220 0
0.523898 0.144864 0.279517 255 220 0
0.498243 0.185091 0.290152 255 220 0
0.515685 0.184917 0.223304 255 220 0
0.520797 0.187796 0.229952 255 220 0
0.535793 0.162585 0.260735 255 220 0
0.475791 0.064032 0.209327 255 220 0
0.452644 0.161957 0.258176 255 220 0
0.488759 0.204559 0.229036 255 220 0
0.472809 0.124767 0.269148 255 220 0
0.529680 0.115947 0.224216 255 220 0
0.486339 0.114110 0.272213 255 220 0
0.507582 0.105514 0.207281 255 220 0
0.536713 0.130160 0.238088 255 220 0
0.528697 0.176345 0.270615 255 220 0
0.527322 0.145093 0.276783 255 220 0
0.502739 0.151920 0.287012 255 220 0
0.499224 0.086582 0.207071 255 220 0
0.537562 0.130954 0.241299 255 220 0
0.492754 0.113776 0.274385 255 220 0
0.491805 0.074221 0.207562 255 220 0
0.506398 0.157772 0.208776 255 220 0
0.448730 0.141096 0.238040 255 220 0
0.452198 0.125895 0.243867 255 220 0
0.514723 0.070437 0.245851 255 220 0
0.517876 0.077095 0.250008 255 220 0
0.503881 0.122432 0.278593 255 220 0
0.464516 0.089783 0.248538 255 220 0
0.513581 0.170085 0.286487 255 220 0
0.510025 0.109101 0.273141 255 220 0
0.512191 0.194507 0.227915 255 220 0
0.499402 0.217016 0.272303 255 220 0
0.488270 0.180257 0.289728 255 220 0
0.516572 0.202723 0.240923 255 220 0
0.529107 0.102870 0.228089 255 220 0
0.449389 0.170186 0.240219 255 220 0
0.452839 0.147132 0.223318 255 220 0
0.478377 0.073675 0.207247 255 220 0
0.532986 0.109455 0.234212 255 220 0
0.499100 0.088676 0.264319 255 220 0
0.472514 0.119879 0.207830 255 220 0
0.460494 0.153462 0.215793 255 220 0
0.455861 0.079385 0.227497 255 220 0
0.475951 0.142869 0.277371 255 220 0
0.462014 0.111221 0.253615 255 220 0
0.530897 0.175322 0.266541 255 220 0
0.538591 0.130779 0.249552 255 220 0
0.461171 0.117451 0.255264 255 220 0
0.505444 0.163021 0.209613 255 220 0
0.485402 0.068420 0.251995 255 220 0
0.513442 0.111849 0.209337 255 220 0
0.483853 0.134514 0.278850 255 220 0
0.518564 0.125652 0.211657 255 220 0
0.529208 0.151206 0.275496 255 220 0
0.508497 0.106895 0.207520 255 220 0
0.508519 0.167859 0.288367 255 220 0
0.491748 0.050715 0.239139 255 220 0
0.471777 0.147997 0.209082 255 220 0
0.479795 0.216500 0.266998 255 220 0
0.499360 0.110323 0.204748 255 220 0
0.457803 0.073561 0.236708 255 220 0
0.501345 0.167040 0.209665 255 220 0
0.476489 0.214077 0.245072 255 220 0
0.508989 0.204934 0.235243 255 220 0
0.522911 0.168175 0.280371 255 220 0
0.487328 0.045007 0.228618 255 220 0
0.508651 0.088087 0.210720 255 220 0
0.488482 0.080338 0.206000 255 220 0
0.484009 0.103149 0.266394 255 220 0
0.478979 0.193265 0.284309 255 220 0
0.483805 0.208495 0.278490 255 220 0
0.490083 0.047384 0.234569 255 220 0
0.493814 0.101883 0.204509 255 220 0
0.458735 0.193271 0.261694 255 220 0
0.529849 0.176849 0.236461 255 220 0
0.472934 0.095973 0.207705 255 220 0
0.530876 0.181119 0.260409 255 220 0
0.512157 0.091390 0.211957 255 220 0
0.532009 0.139286 0.226301 255 220 0
0.518933 0.197379 0.275090 255 220 0
0.480101 0.046064 0.236331 255 220 0
0.490111 0.055926 0.214669 255 220 0
0.520362 0.140487 0.280658 255 220 0
0.455853 0.092878 0.228545 255 220 0
0.511872 0.124534 0.207978 255 220 0
0.479016 0.181631 0.215603 255 220 0
0.461763 0.201902 0.244777 255 220 0
0.450777 0.165530 0.253681 255 220 0
0.448872 0.140421 0.234405 255 220 0
0.463757 0.102107 0.251898 255 220 0
0.460692 0.059750 0.216683 255 220 0
0.531771 0.144343 0.271454 255 220 0
0.478600 0.124644 0.206045 255 220 0
0.514304 0.203752 0.239084 255 220 0
0.461376 0.202531 0.252680 255 220 0
0.513716 0.169730 0.214838 255 220 0
0.515733 0.177008 0.218965 255 220 0
0.465969 0.101842 0.254151 255 220 0
0.456516 0.181705 0.264015 255 220 0
0.500955 0.109413 0.273908 255 220 0
0.481503 0.167356 0.209895 255 220 0
0.475459 0.167334 0.283442 255 220 0
0.461825 0.175861 0.272708 255 220 0
0.518987 0.174745 0.282700 255 220 0
0.456275 0.059866 0.225902 255 220 0
0.464235 0.049726 0.220061 255 220 0
0.521655 0.102280 0.216774 255 220 0
0.519275 0.074008 0.244051 255 220 0
0.527737 0.121922 0.220462 255 220 0
0.490259 0.059887 0.212241 255 220 0
0.499192 0.221359 0.259507 255 220 0
0.530001 0.110274 0.264959 255 220 0
0.468485 0.193754 0.275908 255 220 0
0.536114 0.110515 0.248487 255 220 0
0.513420 0.181354 0.285895 255 220 0
0.528095 0.097846 0.258932 255 220 0
0.477450 0.130674 0.274097 255 220 0
0.488188 0.175452 0.211319 255 220 0
0.477380 0.167324 0.210876 255 220 0
0.494826 0.155513 0.206514 255 220 0
0.530964 0.139235 0.224586 255 220 0
0.487542 0.092932 0.263399 255 220 0
0.483011 0.160614 0.208173 255 220 0
0.530922 0.171988 0.268597 255 220 0
0.463099 0.114039 0.256080 255 220 0
0.519805 0.137765 0.280242 255 220 0
0.496688 0.113749 0.275198 255 220 0
0.457569 0.089911 0.239003 255 220 0
0.515309 0.084780 0.216642 255 220 0
0.470671 0.137246 0.272167 255 220 0
0.517204 0.206505 0.249037 255 220 0
0.524689 0.091817 0.226079 255 220 0
0.473285 0.154602 0.279225 255 220 0
0.476968 0.203360 0.230746 255 220 0
0.538778 0.140710 0.252393 255 220 0
0.485811 0.052682 0.243555 255 220 0
0.485879 0.184532 0.215479 255 220 0
0.510611 0.215263 0.262155 255 220 0
0.451856 0.181951 0.245921 255 220 0
0.464971 0.185199 0.224230 255 220 0
0.449346 0.151388 0.247328 255 220 0
0.455531 0.099397 0.228280 255 220 0
0.487158 0.053928 0.244346 255 220 0
0.524379 0.105545 0.219002 255 220 0
0.489039 0.214262 0.238945 255 220 0
0.494909 0.222049 0.257408 255 220 0
0.517146 0.204449 0.244821 255 220 0
0.527486 0.189313 0.247164 255 220 0
0.498568 0.215975 0.242266 255 220 0
0.453149 0.164907 0.259508 255 220 0
0.474671 0.138645 0.275263 255 220 0
0.456696 0.057884 0.228279 255 220 0
0.504135 0.146712 0.285727 255 220 0
0.485897 0.051059 0.216578 255 220 0
0.457499 0.116636 0.249853 255 220 0
0.519919 0.079834 0.226275 255 220 0
0.511926 0.179701 0.218067 255 220 0
0.522295 0.117888 0.214851 255 220 0
0.492029 0.205589 0.229875 255 220 0
0.537600 0.156620 0.255581 255 220 0
0.507298 0.142756 0.284478 255 220 0
0.535225 0.169082 0.254782 255 220 0
0.508903 0.160543 0.287579 255 220 0
0.482414 0.067091 0.208145 255 220 0
0.525991 0.086701 0.250204 255 220 0
0.524448 0.197539 0.256664 255 220 0
0.454669 0.104138 0.231723 255 220 0
0.479638 0.098715 0.262493 255 220 0
0.481606 0.111921 0.205165 255 220 0
0.495478 0.221893 0.255333 255 220 0
0.449747 0.149345 0.248157 255 220 0
0.510448 0.081359 0.258061 255 220 0
0.483519 0.219222 0.264771 255 220 0
0.482482 0.195745 0.223215 255 220 0
0.485301 0.194204 0.286674 255 220 0
0.490520 0.104078 0.269519 255 220 0
0.488011 0.051109 0.241374 255 220 0
0.451536 0.122286 0.231472 255 220 0
0.480435 0.180597 0.287245 255 220 0
0.516868 0.069762 0.241635 255 220 0
0.506547 0.081015 0.211546 255 220 0
0.529585 0.158666 0.274855 255 220 0
0.477714 0.179542 0.285931 255 220 0
0.525739 0.089098 0.231082 255 220 0
0.465867 0.090370 0.250035 255 220 0
0.533840 0.110482 0.259848 255 220 0
0.483144 0.121821 0.273863 255 220 0
0.499562 0.206897 0.281919 255 220 0
0.511757 0.095298 0.210797 255 220 0
0.485896 0.088006 0.260674 255 220 0
0.475101 0.072211 0.250188 255 220 0
0.513442 0.154729 0.285625 255 220 0
0.473609 0.122826 0.207445 255 220 0
0.526590 0.088093 0.234973 255 220 0
0.516014 0.083731 0.257264 255 220 0
0.499777 0.062873 0.215581 255 220 0
0.517078 0.068646 0.235744 255 220 0
0.457576 0.195253 0.244524 255 220 0
0.520185 0.136106 0.212715 255 220 0
0.463466 0.089085 0.247261 255 220 0
0.462190 0.054868 0.217236 255 220 0
0.516574 0.171984 0.284727 255 220 0
0.517048 0.088109 0.259999 255 220 0
0.491084 0.165027 0.289104 255 220 0
0.475897 0.145180 0.207623 255 220 0
0.469762 0.207628 0.240186 255 220 0
0.470960 0.202583 0.233272 255 220 0
0.476756 0.101049 0.206353 255 220 0
0.505223 0.145040 0.285244 255 220 0
0.488196 0.085636 0.205396 255 220 0
0.461938 0.188895 0.229283 255 220 0
0.505911 0.169340 0.211435 255 220 0
0.479515 0.127277 0.274010 255 220 0
0.526920 0.189587 0.264593 255 220 0
0.470816 0.125721 0.268074 255 220 0
0.492569 0.130860 0.280601 255 220 0
0.532573 0.127585 0.227792 255 220 0
0.464734 0.083134 0.246896 255 220 0
0.470031 0.049096 0.217402 255 220 0
0.477759 0.130027 0.206360 255 220 0
0.493512 0.201843 0.285036 255 220 0
0.490142 0.073776 0.207342 255 220 0
0.518293 0.170307 0.218132 255 220 0
0.495064 0.101118 0.269587 255 220 0
0.463731 0.049800 0.220477 255 220 0
0.524315 0.087422 0.229053 255 220 0
0.511676 0.204132 0.236611 255 220 0
0.530034 0.136890 0.272714 255 220 0
0.477356 0.136394 0.206674 255 220 0
0.465294 0.191143 0.273450 255 220 0
0.457330 0.095549 0.222428 255 220 0
0.496773 0.214384 0.239636 255 220 0
0.480412 0.208331 0.276860 255 220 0
0.460436 0.160823 0.217446 255 220 0
0.518603 0.207020 0.258660 255 220 0
0.468285 0.139226 0.209718 255 220 0
0.506973 0.178448 0.289182 255 220 0
0.515240 0.204271 0.241144 255 220 0
0.519364 0.130773 0.278428 255 220 0
0.534929 0.143913 0.232126 255 220 0
0.514998 0.077490 0.252710 255 220 0
0.469638 0.158070 0.277680 255 220 0
0.534816 0.106483 0.244440 255 220 0
0.499586 0.175653 0.212254 255 220 0
0.457457 0.179990 0.227755 255 220 0
0.453300 0.181857 0.255901 255 220 0
0.485241 0.178451 0.212756 255 220 0
0.479925 0.174440 0.212349 255 220 0
0.512258 0.118729 0.276292 255 220 0
0.454609 0.189320 0.251446 255 220 0
0.527193 0.142964 0.219609 255 220 0
0.452911 0.131801 0.248871 255 220 0
0.467950 0.122832 0.209911 255 220 0
0.449840 0.131253 0.236528 255 220 0
0.516162 0.067451 0.234252 255 220 0
0.472111 0.053685 0.213381 255 220 0
0.477326 0.123802 0.271557 255 220 0
0.538730 0.143076 0.252859 255 220 0
0.455221 0.184628 0.259780 255 220 0
0.491304 0.064967 0.250948 255 220 0
0.486602 0.064445 0.209308 255 220 0
0.456881 0.176405 0.226450 255 220 0
0.530564 0.097231 0.236984 255 220 0
0.510483 0.127278 0.207357 255 220 0
0.462603 0.136843 0.264834 255 220 0
0.521805 0.146911 0.214686 255 220 0
0.533009 0.106651 0.258624 255 220 0
0.467468 0.166768 0.277729 255 220 0
0.455859 0.078393 0.231104 255 220 0
0.515132 0.196227 0.280206 255 220 0
0.527426 0.191203 0.254075 255 220 0
0.506337 0.127964 0.205917 255 220 0
0.537521 0.118527 0.251181 255 220 0
0.502471 0.186443 0.289519 255 220 0
0.452489 0.173552 0.231635 255 220 0
0.519973 0.167618 0.282770 255 220 0
0.486843 0.203516 0.282872 255 220 0
0.459592 0.125342 0.256659 255 220 0
0.532300 0.099421 0.252643 255 220 0
0.503327 0.211295 0.277275 255 220 0
0.490606 0.102877 0.269015 255 220 0
0.496669 0.130623 0.204396 255 220 0
0.489545 0.090340 0.205071 255 220 0
0.482523 0.053606 0.213608 255 220 0
0.455615 0.191884 0.246151 255 220 0
0.451843 0.156208 0.226597 255 220 0
0.529639 0.159182 0.274724 255 220 0
0.524112 0.185442 0.232628 255 220 0
0.503467 0.214094 0.242301 255 220 0
0.525919 0.191102 0.244246 255 220 0
0.535254 0.108683 0.244020 255 220 0
0.503599 0.121951 0.205203 255 220 0
0.475103 0.196880 0.226471 255 220 0
0.521829 0.190915 0.274774 255 220 0
0.461872 0.101540 0.215176 255 220 0
0.461434 0.068844 0.240688 255 220 0
0.463712 0.062249 0.241586 255 220 0
0.462557 0.148145 0.213515 255 220 0
0.527225 0.114674 0.220659 255 220 0
0.473987 0.047322 0.218862 255 220 0
0.503239 0.194498 0.287330 255 220 0
0.459116 0.188751 0.265681 255 220 0
0.526009 0.108386 0.267199 255 220 0
0.504140 0.154100 0.287353 255 220 0
0.535727 0.110824 0.244205 255 220 0
0.483639 0.054881 0.245386 255 220 0
0.452354 0.168886 0.229725 255 220 0
0.522630 0.079624 0.246189 255 220 0
0.471979 0.210971 0.243614 255 220 0
0.508181 0.082964 0.259906 255 220 0
0.488637 0.067848 0.252299 255 220 0
0.514946 0.119930 0.209626 255 220 0
0.461434 0.198077 0.238886 255 220 0
0.529379 0.177562 0.235989 255 220 0
0.530581 0.125551 0.224402 255 220 0
0.453447 0.183293 0.237751 255 220 0
0.537039 0.126399 0.259841 255 220 0
0.505367 0.192849 0.223445 255 220 0
0.465391 0.152014 0.272671 255 220 0
0.484237 0.176119 0.212029 255 220 0
0.482031 0.185705 0.287505 255 220 0
0.463861 0.111612 0.255921 255 220 0
0.519925 0.093627 0.217758 255 220 0
0.449202 0.165913 0.237329 255 220 0
0.483083 0.059045 0.247546 255 220 0
0.490727 0.077583 0.206643 255 220 0
0.471556 0.196902 0.277427 255 220 0
0.520634 0.123314 0.213237 255 220 0
0.514486 0.181726 0.285137 255 220 0
0.491211 0.051485 0.219257 255 220 0
0.454014 0.181300 0.258548 255 220 0
0.533356 0.152150 0.269599 255 220 0
0.514220 0.157524 0.211776 255 220 0
0.476361 0.127299 0.206658 255 220 0
0.507422 0.108620 0.273315 255 220 0
0.516296 0.192119 0.228967 255 220 0
0.455824 0.089016 0.231222 255 220 0
0.475280 0.206361 0.274648 255 220 0
0.537208 0.134940 0.260340 255 220 0
0.502945 0.055697 0.225530 255 220 0
0.522979 0.147965 0.280583 255 220 0
0.481171 0.154889 0.207568 255 220 0
0.536896 0.162305 0.251294 255 220 0
0.525255 0.129622 0.275344 255 220 0
0.485171 0.191716 0.287384 255 220 0
0.490540 0.143695 0.284140 255 220 0
0.538766 0.136995 0.247828 255 220 0
0.482820 0.218801 0.250872 255 220 0
0.476842 0.106622 0.264375 255 220 0
0.473416 0.085986 0.207710 255 220 0
0.452596 0.137076 0.250639 255 220 0
0.518873 0.206473 0.255961 255 220 0
0.531685 0.128228 0.226091 255 220 0
0.537556 0.158665 0.250304 255 220 0
0.475231 0.102234 0.261628 255 220 0
0.494095 0.153893 0.206254 255 220 0
0.466564 0.159163 0.275505 255 220 0
0.464586 0.116963 0.258985 255 220 0
0.504313 0.179999 0.215352 255 220 0
0.537265 0.154961 0.258803 255 220 0
0.485555 0.047069 0.236535 255 220 0
0.508425 0.216482 0.252717 255 220 0
0.503273 0.060560 0.244076 255 220 0
0.460129 0.053666 0.234544 255 220 0
0.486627 0.056973 0.212621 255 220 0
0.453574 0.129616 0.249194 255 220 0
0.493890 0.093436 0.265755 255 220 0
0.500275 0.136209 0.282970 255 220 0
0.496417 0.049152 0.228278 255 220 0
0.534770 0.169663 0.257878 255 220 0
0.525738 0.194508 0.260323 255 220 0
0.493964 0.058361 0.246128 255 220 0
0.484102 0.047430 0.219986 255 220 0
0.489374 0.046860 0.233927 255 220 0
0.476294 0.130204 0.273288 255 220 0
0.535903 0.138106 0.263688 255 220 0
0.457514 0.163545 0.220878 255 220 0
0.486526 0.162620 0.208064 255 220 0
0.459152 0.109447 0.249042 255 220 0
0.456797 0.146485 0.261185 255 220 0
0.455771 0.157531 0.221201 255 220 0
0.472912 0.122495 0.207692 255 220 0
0.459281 0.068110 0.238086 255 220 0
0.495864 0.050942 0.223934 255 220 0
0.487505 0.048933 0.238724 255 220 0
0.451914 0.125553 0.242711 255 220 0
0.497132 0.196255 0.223142 255 220 0
0.509724 0.099541 0.269060 255 220 0
0.474704 0.055242 0.212284 255 220 0
0.468844 0.103553 0.209624 255 220 0
0.463808 0.054123 0.239293 255 220 0
0.488870 0.084015 0.259966 255 220 0
0.456396 0.179665 0.228864 255 220 0
0.531803 0.106693 0.232490 255 220 0
0.475741 0.044085 0.226674 255 220 0
0.487221 0.069380 0.207932 255 220 0
0.507229 0.156270 0.287333 255 220 0
0.494791 0.136159 0.204552 255 220 0
0.456907 0.102412 0.241698 255 220 0
0.500224 0.058313 0.243462 255 220 0
0.466295 0.118802 0.210979 255 220 0
0.525827 0.157484 0.278936 255 220 0
0.484873 0.193414 0.286788 255 220 0
0.472312 0.092345 0.255947 255 220 0
0.515541 0.203447 0.240381 255 220 0
0.490873 0.050347 0.220298 255 220 0
0.454332 0.145645 0.257144 255 220 0
0.456565 0.157594 0.220313 255 220 0
0.459781 0.105211 0.248087 255 220 0
0.473581 0.187878 0.221102 255 220 0
0.518857 0.133059 0.279296 255 220 0
0.470273 0.195271 0.277011 255 220 0
0.451595 0.141721 0.250384 255 220 0
0.536368 0.141528 0.262716 255 220 0
0.449544 0.164239 0.234854 255 220 0
0.532125 0.100191 0.254286 255 220 0
0.501928 0.094315 0.267304 255 220 0
0.518117 0.099484 0.266588 255 220 0
0.457380 0.083125 0.222054 255 220 0
0.469549 0.099378 0.209272 255 220 0
0.537630 0.142347 0.240032 255 220 0
0.484423 0.156875 0.207312 255 220 0
0.519242 0.134159 0.212020 255 220 0
0.488090 0.099022 0.204589 255 220 0
0.504800 0.057721 0.225255 255 220 0
0.490232 0.197394 0.286689 255 220 0
0.494376 0.080454 0.259542 255 220 0
0.538455 0.130524 0.254044 255 220 0
0.463084 0.138742 0.266052 255 220 0
0.486262 0.179708 0.213135 255 220 0
0.535179 0.150820 0.233704 255 220 0
0.526508 0.187896 0.267745 255 220 0
0.453678 0.163723 0.260452 255 220 0
0.511370 0.115009 0.275139 255 220 0
0.492933 0.104284 0.270423 255 220 0
0.527733 0.126700 0.220230 255 220 0
0.477628 0.046645 0.237546 255 220 0
0.464754 0.055091 0.240456 255 220 0
0.456917 0.138462 0.217613 255 220 0
0.538715 0.142142 0.246711 255 220 0
0.467114 0.201805 0.235656 255 220 0
0.448442 0.160089 0.239301 255 220 0
0.455235 0.132437 0.219881 255 220 0
0.519791 0.097236 0.264593 255 220 0
0.480619 0.095260 0.261515 255 220 0
0.514725 0.109971 0.272504 255 220 0
0.525685 0.152479 0.219180 255 220 0
0.494581 0.051841 0.239062 255 220 0
0.457392 0.065299 0.234506 255 220 0
0.495528 0.140742 0.204833 255 220 0
0.483293 0.146498 0.206215 255 220 0
0.536808 0.124972 0.240078 255 220 0
0.467156 0.190293 0.226087 255 220 0
0.518738 0.167750 0.283601 255 220 0
0.531676 0.174353 0.238971 255 220 0
0.524038 0.190178 0.237612 255 220 0
0.462398 0.059986 0.215126 255 220 0
0.493936 0.204401 0.228979 255 220 0
0.464748 0.091942 0.249427 255 220 0
0.496420 0.189983 0.289377 255 220 0
0.455862 0.088272 0.229172 255 220 0
0.525238 0.091700 0.227377 255 220 0
0.518544 0.074466 0.228961 255 220 0
0.527071 0.191972 0.254053 255 220 0
0.471469 0.168562 0.213254 255 220 0
0.502513 0.179192 0.214458 255 220 0
0.453245 0.168615 0.228065 255 220 0
0.450658 0.175328 0.238198 255 220 0
0.456216 0.073138 0.232631 255 220 0
0.526042 0.113844 0.269654 255 220 0
0.487323 0.128740 0.204662 255 220 0
0.450937 0.127008 0.230310 255 220 0
0.497322 0.057066 0.218358 255 220 0
0.468426 0.127915 0.267011 255 220 0
0.461968 0.178719 0.272653 255 220 0
0.534390 0.108776 0.257294 255 220 0
0.528568 0.136294 0.274161 255 220 0
0.530765 0.125282 0.269976 255 220 0
0.463467 0.120226 0.259140 255 220 0
0.448393 0.148745 0.240857 255 220 0
0.518391 0.133570 0.279604 255 220 0
0.457683 0.178757 0.226780 255 220 0
0.519496 0.203148 0.247979 255 220 0
0.496079 0.128411 0.204319 255 220 0
0.536872 0.146671 0.261522 255 220 0
0.480746 0.123082 0.205533 255 220 0
0.455829 0.192684 0.249078 255 220 0
0.480663 0.198498 0.283072 255 220 0
0.471920 0.192411 0.279639 255 220 0
0.461196 0.186461 0.228163 255 220 0
0.513494 0.073541 0.221026 255 220 0
0.470955 0.147527 0.275747 255 220 0
0.525406 0.189639 0.240239 255 220 0
0.466265 0.120520 0.262164 255 220 0
0.529099 0.184890 0.245113 255 220 0
0.537998 0.153964 0.254740 255 220 0
0.463943 0.155638 0.213813 255 220 0
0.455712 0.069264 0.229514 255 220 0
0.524795 0.139917 0.216832 255 220 0
0.454527 0.136382 0.253983 255 220 0
0.515900 0.131066 0.209906 255 220 0
0.501317 0.210018 0.279174 255 220 0
0.509152 0.073312 0.216590 255 220 0
0.483713 0.179180 0.288539 255 220 0
0.453761 0.109576 0.232684 255 220 0
0.480728 0.198590 0.283061 255 220 0
0.525489 0.194156 0.249502 255 220 0
0.521545 0.131969 0.213775 255 220 0
0.538149 0.154372 0.251877 255 220 0
0.461936 0.144054 0.213549 255 220 0
0.481597 0.188359 0.286896 255 220 0
0.501536 0.122337 0.278609 255 220 0
0.510366 0.111434 0.207909 255 220 0
0.518225 0.080329 0.222771 255 220 0
0.448565 0.158364 0.244312 255 220 0
0.529054 0.105484 0.226570 255 220 0
0.488710 0.211056 0.278331 255 220 0
0.453948 0.187844 0.245317 255 220 0
0.537255 0.125254 0.258794 255 220 0
0.528056 0.092750 0.233819 255 220 0
0.513325 0.160822 0.212091 255 220 0
0.523975 0.175768 0.225949 255 220 0
0.494342 0.159777 0.207245 255 220 0
0.532193 0.114464 0.264595 255 220 0
0.475420 0.055333 0.244623 255 220 0
0.523893 0.195402 0.245476 255 220 0
