ply
format ascii 1.0
element vertex 1024
property float x
property float y
property float z
property uchar red
property uchar green
property uchar blue
end_header
0.370559 0.232108 0.081552 255 220 0
0.377450 0.119904 0.020238 255 220 0
0.370667 0.070053 0.036538 255 220 0
0.363160 0.073205 0.029568 255 220 0
0.395650 0.147101 0.024437 255 220 0
0.340136 0.126415 0.068791 255 220 0
0.387127 0.182137 0.105637 255 220 0
0.356568 0.094337 0.070439 255 220 0
0.369979 0.065365 0.044060 255 220 0
0.391852 0.163436 0.023737 255 220 0
0.405452 0.152820 0.031012 255 220 0
0.366522 0.087238 0.023813 255 220 0
0.358981 0.110334 0.077191 255 220 0
0.339883 0.149910 0.075102 255 220 0
0.408530 0.217146 0.082212 255 220 0
0.361503 0.221168 0.088745 255 220 0
0.335962 0.091785 0.030625 255 220 0
0.402876 0.194282 0.037841 255 220 0
0.407407 0.126893 0.083068 255 220 0
0.352905 0.218058 0.056328 255 220 0
0.374040 0.074408 0.034428 255 220 0
0.400820 0.208051 0.045048 255 220 0
0.362229 0.063569 0.049644 255 220 0
0.367943 0.198661 0.032205 255 220 0
0.368865 0.176518 0.024225 255 220 0
0.365894 0.077798 0.064250 255 220 0
0.336526 0.064705 0.043630 255 220 0
0.392465 0.227799 0.090859 255 220 0
0.355967 0.175773 0.027492 255 220 0
0.415110 0.132652 0.049547 255 220 0
0.407864 0.108862 0.069073 255 220 0
0.372073 0.123803 0.019566 255 220 0
0.368232 0.130917 0.019723 255 220 0
0.378892 0.155737 0.020493 255 220 0
0.331431 0.139177 0.047506 255 220 0
0.383663 0.231170 0.089330 255 220 0
0.377110 0.180175 0.024495 255 220 0
0.375085 0.089871 0.025518 255 220 0
0.348254 0.137555 0.025800 255 220 0
0.349413 0.154957 0.086061 255 220 0
0.384060 0.115185 0.085021 255 220 0
0.378480 0.073233 0.039576 255 220 0
0.337626 0.198087 0.061092 255 220 0
0.395117 0.197537 0.104533 255 220 0
0.395843 0.144036 0.024644 255 220 0
0.340750 0.117713 0.067171 255 220 0
0.338481 0.159925 0.075656 255 220 0
0.362944 0.075483 0.028003 255 220 0
0.381165 0.144971 0.020096 255 220 0
0.345483 0.100802 0.024944 255 220 0
0.333741 0.181901 0.053084 255 220 0
0.396882 0.183263 0.029854 255 220 0
0.337332 0.148343 0.035196 255 220 0
0.385860 0.111968 0.023709 255 220 0
0.410314 0.121532 0.077455 255 220 0
0.333391 0.090993 0.056025 255 220 0
0.419597 0.156710 0.077303 255 220 0
0.365603 0.211253 0.098297 255 220 0
0.374209 0.147793 0.019931 255 220 0
0.377215 0.175847 0.104487 255 220 0
0.367992 0.132158 0.019776 255 220 0
0.354859 0.138256 0.085103 255 220 0
0.343579 0.069760 0.030520 255 220 0
0.358572 0.177317 0.026938 255 220 0
0.344366 0.197335 0.044412 255 220 0
0.338065 0.186814 0.075663 255 220 0
0.407592 0.177383 0.035948 255 220 0
0.379080 0.234031 0.065369 255 220 0
0.363781 0.205476 0.099439 255 220 0
0.387457 0.205471 0.037204 255 220 0
0.374729 0.216478 0.043647 255 220 0
0.358593 0.080318 0.065399 255 220 0
0.417713 0.141391 0.052172 255 220 0
0.352677 0.075389 0.026668 255 220 0
0.405901 0.161383 0.096149 255 220 0
0.364073 0.209197 0.098249 255 220 0
0.400421 0.096760 0.064050 255 220 0
0.385598 0.124541 0.088999 255 220 0
0.332704 0.102984 0.054811 255 220 0
0.410194 0.193436 0.045015 255 220 0
0.399278 0.200413 0.102236 255 220 0
0.363941 0.130677 0.087048 255 220 0
0.407404 0.183375 0.037647 255 220 0
0.387000 0.195663 0.106330 255 220 0
0.334632 0.153553 0.068361 255 220 0
0.333395 0.084722 0.055726 255 220 0
0.386109 0.128987 0.090723 255 220 0
0.400427 0.199376 0.038938 255 220 0
0.420384 0.154894 0.055572 255 220 0
0.354563 0.091330 0.068684 255 220 0
0.343201 0.148532 0.029689 255 220 0
0.413542 0.208020 0.071021 255 220 0
0.412459 0.209676 0.067966 255 220 0
0.351167 0.191660 0.092447 255 220 0
0.385837 0.219114 0.099317 255 220 0
0.329016 0.088702 0.046750 255 220 0
0.383882 0.196175 0.031046 255 220 0
0.378427 0.140486 0.094898 255 220 0
0.346634 0.103864 0.024483 255 220 0
0.386266 0.219810 0.047427 255 220 0
0.332228 0.126408 0.053353 255 220 0
0.399594 0.222197 0.057936 255 220 0
0.409144 0.151091 0.091238 255 220 0
0.417318 0.195795 0.072677 255 220 0
0.392126 0.098249 0.032510 255 220 0
0.389707 0.082970 0.057662 255 220 0
0.407514 0.186696 0.096802 255 220 0
0.396864 0.231512 0.077297 255 220 0
0.358395 0.200486 0.036726 255 220 0
0.354418 0.062974 0.037070 255 220 0
0.340129 0.158802 0.077551 255 220 0
0.382256 0.181833 0.025233 255 220 0
0.388245 0.112707 0.083218 255 220 0
0.354817 0.140431 0.023212 255 220 0
0.382547 0.235726 0.077613 255 220 0
0.360070 0.223947 0.083651 255 220 0
0.360949 0.140916 0.089201 255 220 0
0.413909 0.207203 0.074869 255 220 0
0.365628 0.195079 0.030960 255 220 0
0.353702 0.164123 0.091622 255 220 0
0.349289 0.213465 0.055040 255 220 0
0.377141 0.207238 0.104122 255 220 0
0.328602 0.085722 0.045657 255 220 0
0.401101 0.129192 0.029532 255 220 0
0.411901 0.170811 0.038970 255 220 0
0.417296 0.196031 0.072032 255 220 0
0.343071 0.208843 0.064103 255 220 0
0.332095 0.120121 0.047958 255 220 0
0.411934 0.211812 0.077723 255 220 0
0.339759 0.198988 0.052974 255 220 0
0.376822 0.136007 0.093124 255 220 0
0.390864 0.116565 0.084589 255 220 0
0.417907 0.170260 0.048787 255 220 0
0.359245 0.153819 0.092245 255 220 0
0.366863 0.201366 0.102219 255 220 0
0.374484 0.189889 0.105633 255 220 0
0.332406 0.107577 0.053531 255 220 0
0.391629 0.142830 0.095100 255 220 0
0.331503 0.150498 0.060106 255 220 0
0.417426 0.158500 0.083070 255 220 0
0.409099 0.107229 0.060540 255 220 0
0.347092 0.125873 0.075512 255 220 0
0.342101 0.164860 0.081170 255 220 0
0.331519 0.098812 0.038821 255 220 0
0.345811 0.134895 0.077152 255 220 0
0.366119 0.205203 0.100891 255 220 0
0.338759 0.193293 0.074474 255 220 0
0.406008 0.220524 0.066765 255 220 0
0.359083 0.062475 0.048906 255 220 0
0.407278 0.173377 0.034585 255 220 0
0.336344 0.166487 0.039257 255 220 0
0.380321 0.155415 0.099769 255 220 0
0.328521 0.084529 0.045697 255 220 0
0.347657 0.181371 0.089252 255 220 0
0.362518 0.176080 0.099180 255 220 0
0.399540 0.093443 0.051165 255 220 0
0.369322 0.122759 0.086077 255 220 0
0.420467 0.173474 0.076590 255 220 0
0.395852 0.087923 0.054455 255 220 0
0.418702 0.156179 0.049981 255 220 0
0.343229 0.159277 0.081270 255 220 0
0.332385 0.085884 0.054594 255 220 0
0.372037 0.174978 0.103110 255 220 0
0.382678 0.164521 0.021811 255 220 0
0.376501 0.177582 0.104690 255 220 0
0.355356 0.139335 0.022943 255 220 0
0.364513 0.089979 0.022719 255 220 0
0.370555 0.129778 0.089307 255 220 0
0.370507 0.233101 0.075004 255 220 0
0.403016 0.100821 0.048352 255 220 0
0.346635 0.112416 0.024896 255 220 0
0.397691 0.223945 0.058067 255 220 0
0.338374 0.176113 0.039965 255 220 0
0.368311 0.186578 0.103482 255 220 0
0.333113 0.146171 0.041678 255 220 0
0.356124 0.115193 0.077755 255 220 0
0.384985 0.098484 0.075294 255 220 0
0.361682 0.075815 0.027454 255 220 0
0.384683 0.199241 0.032812 255 220 0
0.343253 0.084191 0.026262 255 220 0
0.390514 0.234530 0.077412 255 220 0
0.332844 0.152385 0.042334 255 220 0
0.360865 0.225220 0.082651 255 220 0
0.350961 0.155883 0.025945 255 220 0
0.367911 0.072344 0.059411 255 220 0
0.331138 0.105828 0.047471 255 220 0
0.354647 0.060932 0.042481 255 220 0
0.379238 0.223552 0.096096 255 220 0
0.383626 0.075339 0.052201 255 220 0
0.404701 0.103416 0.067112 255 220 0
0.396571 0.099243 0.037290 255 220 0
0.377442 0.182036 0.025002 255 220 0
0.331057 0.087147 0.052667 255 220 0
0.347783 0.157036 0.027572 255 220 0
0.376969 0.234879 0.079327 255 220 0
0.390729 0.117051 0.024926 255 220 0
0.418518 0.138256 0.072939 255 220 0
0.359070 0.084970 0.067434 255 220 0
0.395686 0.088064 0.049819 255 220 0
0.362202 0.141479 0.021195 255 220 0
0.417203 0.196451 0.071657 255 220 0
0.337678 0.106515 0.061949 255 220 0
0.345570 0.205628 0.080668 255 220 0
0.416218 0.157237 0.044552 255 220 0
0.365695 0.228871 0.082651 255 220 0
0.337673 0.129844 0.066700 255 220 0
0.406427 0.180152 0.035697 255 220 0
0.350455 0.061089 0.042072 255 220 0
0.408860 0.172871 0.095552 255 220 0
0.395793 0.106725 0.077232 255 220 0
0.366410 0.065826 0.051516 255 220 0
0.348270 0.154074 0.084850 255 220 0
0.376777 0.177578 0.104732 255 220 0
0.418297 0.180986 0.081208 255 220 0
0.374086 0.077772 0.062242 255 220 0
0.341198 0.195873 0.078590 255 220 0
0.375462 0.089110 0.070736 255 220 0
0.397540 0.108821 0.077860 255 220 0
0.388112 0.094083 0.031217 255 220 0
0.331109 0.150465 0.058514 255 220 0
0.382923 0.230132 0.057932 255 220 0
0.420240 0.144373 0.068530 255 220 0
0.337393 0.129694 0.066269 255 220 0
0.361244 0.121209 0.020486 255 220 0
0.347517 0.203970 0.084827 255 220 0
0.401774 0.181495 0.101038 255 220 0
0.384858 0.206223 0.036951 255 220 0
0.331877 0.089035 0.034871 255 220 0
0.370575 0.077417 0.063071 255 220 0
0.374114 0.188988 0.027180 255 220 0
0.339229 0.082861 0.028186 255 220 0
0.401165 0.122173 0.031155 255 220 0
0.407141 0.113136 0.044374 255 220 0
0.365505 0.069396 0.057210 255 220 0
0.400640 0.140436 0.091979 255 220 0
0.347270 0.089059 0.024420 255 220 0
0.384995 0.076380 0.052135 255 220 0
0.335625 0.094250 0.031280 255 220 0
0.394480 0.205509 0.039780 255 220 0
0.407217 0.170766 0.096639 255 220 0
0.332351 0.160372 0.064412 255 220 0
0.332766 0.177125 0.063438 255 220 0
0.421312 0.155202 0.069432 255 220 0
0.351940 0.140296 0.083801 255 220 0
0.362425 0.121951 0.020288 255 220 0
0.396507 0.129119 0.088769 255 220 0
0.413333 0.124783 0.075785 255 220 0
0.387399 0.125790 0.089309 255 220 0
0.353880 0.220864 0.078239 255 220 0
0.370603 0.167521 0.100983 255 220 0
0.357974 0.172036 0.025939 255 220 0
0.374390 0.232635 0.064029 255 220 0
0.399366 0.115966 0.081463 255 220 0
0.385733 0.228711 0.056609 255 220 0
0.376531 0.226550 0.093139 255 220 0
0.348731 0.128671 0.077744 255 220 0
0.348800 0.075016 0.061711 255 220 0
0.419736 0.150373 0.074209 255 220 0
0.399345 0.123684 0.029137 255 220 0
0.402039 0.099379 0.065488 255 220 0
0.369764 0.075302 0.061507 255 220 0
0.366120 0.229610 0.081485 255 220 0
0.380815 0.141232 0.095306 255 220 0
0.361534 0.090639 0.022318 255 220 0
0.380926 0.124881 0.089276 255 220 0
0.353233 0.085962 0.023490 255 220 0
0.405147 0.149585 0.030908 255 220 0
0.345265 0.195678 0.042360 255 220 0
0.412663 0.200674 0.055272 255 220 0
0.367665 0.082052 0.066811 255 220 0
0.359503 0.222935 0.056034 255 220 0
0.380293 0.167501 0.022026 255 220 0
0.335742 0.150399 0.037307 255 220 0
0.408474 0.200519 0.047253 255 220 0
0.404081 0.218566 0.089638 255 220 0
0.418148 0.184144 0.080317 255 220 0
0.333210 0.112786 0.039479 255 220 0
0.332379 0.170182 0.048886 255 220 0
0.401017 0.096557 0.049576 255 220 0
0.376142 0.233727 0.066051 255 220 0
0.380762 0.185544 0.106155 255 220 0
0.344313 0.210967 0.065253 255 220 0
0.364010 0.109383 0.020283 255 220 0
0.342861 0.151361 0.030128 255 220 0
0.338784 0.115643 0.064530 255 220 0
0.391637 0.138435 0.022979 255 220 0
0.398529 0.217732 0.051828 255 220 0
0.406455 0.125776 0.036186 255 220 0
0.356771 0.205734 0.041176 255 220 0
0.391936 0.156669 0.023088 255 220 0
0.397476 0.131970 0.026505 255 220 0
0.409430 0.217026 0.072356 255 220 0
0.373699 0.141940 0.094629 255 220 0
0.362302 0.107788 0.077455 255 220 0
0.339652 0.166917 0.035351 255 220 0
0.359024 0.142148 0.022032 255 220 0
0.343224 0.135148 0.074682 255 220 0
0.420708 0.161605 0.055760 255 220 0
0.351654 0.061821 0.049516 255 220 0
0.347281 0.203031 0.084988 255 220 0
0.390099 0.217270 0.046529 255 220 0
0.362441 0.126021 0.020390 255 220 0
0.356604 0.184054 0.029636 255 220 0
0.381055 0.166178 0.021882 255 220 0
0.376103 0.113493 0.020618 255 220 0
0.331641 0.142673 0.045780 255 220 0
0.415498 0.196669 0.059267 255 220 0
0.346696 0.211741 0.076552 255 220 0
0.351703 0.215284 0.054083 255 220 0
0.345733 0.110207 0.069892 255 220 0
0.335975 0.083651 0.058027 255 220 0
0.416795 0.197903 0.069772 255 220 0
0.360030 0.217665 0.090447 255 220 0
0.341623 0.156653 0.031607 255 220 0
0.330887 0.070503 0.043004 255 220 0
0.418302 0.191951 0.069599 255 220 0
0.411012 0.139804 0.038984 255 220 0
0.401488 0.099867 0.066957 255 220 0
0.355335 0.156306 0.024354 255 220 0
0.390632 0.087838 0.063318 255 220 0
0.375835 0.074430 0.035781 255 220 0
0.394578 0.086274 0.053595 255 220 0
0.338612 0.098805 0.061882 255 220 0
0.360231 0.210469 0.043045 255 220 0
0.358938 0.112829 0.078102 255 220 0
0.384688 0.221857 0.097663 255 220 0
0.408124 0.163649 0.033773 255 220 0
0.331296 0.165548 0.060305 255 220 0
0.411656 0.129612 0.043266 255 220 0
0.346306 0.118275 0.072532 255 220 0
0.337085 0.162072 0.074058 255 220 0
0.334542 0.075158 0.055753 255 220 0
0.396273 0.229424 0.085155 255 220 0
0.330463 0.149861 0.053468 255 220 0
0.394510 0.220533 0.096240 255 220 0
0.340132 0.074400 0.059049 255 220 0
0.379643 0.076149 0.037350 255 220 0
0.337551 0.070736 0.032451 255 220 0
0.415584 0.124073 0.058082 255 220 0
0.362749 0.067059 0.055462 255 220 0
0.417082 0.142693 0.078417 255 220 0
0.351824 0.150369 0.086673 255 220 0
0.384840 0.190698 0.028677 255 220 0
0.420020 0.159889 0.053307 255 220 0
0.410854 0.112180 0.055512 255 220 0
0.343197 0.079797 0.061435 255 220 0
0.417839 0.151452 0.079623 255 220 0
0.349353 0.068863 0.030188 255 220 0
0.402896 0.226404 0.073742 255 220 0
0.355306 0.155725 0.090531 255 220 0
0.404700 0.195676 0.040029 255 220 0
0.387274 0.082720 0.059970 255 220 0
0.383892 0.173255 0.104362 255 220 0
0.407985 0.208893 0.091460 255 220 0
0.338403 0.188515 0.075841 255 220 0
0.349833 0.078842 0.063163 255 220 0
0.368217 0.225579 0.054178 255 220 0
0.331828 0.174137 0.058764 255 220 0
0.391982 0.083048 0.050213 255 220 0
0.376848 0.175050 0.104280 255 220 0
0.417913 0.133582 0.058422 255 220 0
0.353960 0.161276 0.025463 255 220 0
0.362750 0.087402 0.023159 255 220 0
0.358590 0.225564 0.062359 255 220 0
0.390654 0.131532 0.091069 255 220 0
0.407387 0.214034 0.088850 255 220 0
0.355587 0.094354 0.022053 255 220 0
0.331069 0.140451 0.049694 255 220 0
0.397865 0.105684 0.075454 255 220 0
0.338977 0.150270 0.033464 255 220 0
0.355913 0.184734 0.096431 255 220 0
0.380531 0.071948 0.048623 255 220 0
0.328827 0.088612 0.043637 255 220 0
0.388773 0.132344 0.091694 255 220 0
0.353644 0.185807 0.094767 255 220 0
0.347915 0.113546 0.072432 255 220 0
0.372110 0.220303 0.047452 255 220 0
0.360158 0.120691 0.081595 255 220 0
0.345022 0.067530 0.031859 255 220 0
0.403251 0.202266 0.099091 255 220 0
0.385982 0.182870 0.026068 255 220 0
0.376242 0.116293 0.020356 255 220 0
0.417671 0.185058 0.081305 255 220 0
0.384360 0.138938 0.094495 255 220 0
0.342559 0.207939 0.067104 255 220 0
0.354315 0.132548 0.022810 255 220 0
0.384800 0.101115 0.026032 255 220 0
0.416761 0.127104 0.060183 255 220 0
0.375306 0.171730 0.022669 255 220 0
0.363060 0.121462 0.083118 255 220 0
0.345040 0.210776 0.073077 255 220 0
0.394697 0.231273 0.066206 255 220 0
0.406088 0.180954 0.035634 255 220 0
0.382430 0.088281 0.030126 255 220 0
0.419154 0.146630 0.074608 255 220 0
0.383464 0.205367 0.036086 255 220 0
0.350989 0.196298 0.091575 255 220 0
0.373106 0.228412 0.056424 255 220 0
0.405790 0.164092 0.031648 255 220 0
0.397716 0.151418 0.096781 255 220 0
0.340320 0.171286 0.079962 255 220 0
0.342649 0.164219 0.032021 255 220 0
0.360895 0.167499 0.096595 255 220 0
0.389785 0.187363 0.105826 255 220 0
0.407566 0.217647 0.065584 255 220 0
0.336918 0.067991 0.035308 255 220 0
0.375569 0.233734 0.082516 255 220 0
0.366568 0.074165 0.030269 255 220 0
0.397056 0.090371 0.049106 255 220 0
0.351636 0.160296 0.026215 255 220 0
0.401904 0.114713 0.034706 255 220 0
0.385975 0.148517 0.097645 255 220 0
0.367063 0.230067 0.063332 255 220 0
0.358130 0.124402 0.021241 255 220 0
0.382005 0.158567 0.100728 255 220 0
0.359656 0.180703 0.027466 255 220 0
0.398364 0.102060 0.037779 255 220 0
0.411217 0.190145 0.092161 255 220 0
0.413881 0.132550 0.079741 255 220 0
0.417419 0.139285 0.076510 255 220 0
0.364374 0.132336 0.087844 255 220 0
0.406720 0.219189 0.083927 255 220 0
0.392222 0.162838 0.101158 255 220 0
0.389032 0.198095 0.033336 255 220 0
0.357732 0.096351 0.071560 255 220 0
0.411698 0.124898 0.045767 255 220 0
0.336413 0.131759 0.065429 255 220 0
0.410183 0.178746 0.039045 255 220 0
0.378314 0.126848 0.089881 255 220 0
0.374186 0.234388 0.077372 255 220 0
0.349333 0.136336 0.025162 255 220 0
0.412588 0.114238 0.061136 255 220 0
0.360047 0.063988 0.037358 255 220 0
0.335555 0.188533 0.067787 255 220 0
0.331111 0.143195 0.055779 255 220 0
0.357886 0.194737 0.097691 255 220 0
0.359372 0.196756 0.034055 255 220 0
0.417782 0.159327 0.082627 255 220 0
0.413635 0.142351 0.042585 255 220 0
0.350126 0.174302 0.090819 255 220 0
0.397413 0.106911 0.076584 255 220 0
0.369253 0.111243 0.020102 255 220 0
0.332385 0.125643 0.053945 255 220 0
0.375978 0.128640 0.090246 255 220 0
0.343429 0.076373 0.027676 255 220 0
0.398918 0.116707 0.030647 255 220 0
0.389184 0.147778 0.021890 255 220 0
0.385151 0.145447 0.096679 255 220 0
0.410589 0.134814 0.039541 255 220 0
0.400206 0.228712 0.070906 255 220 0
0.344332 0.131209 0.074604 255 220 0
0.367200 0.169308 0.099929 255 220 0
0.373998 0.227135 0.091745 255 220 0
0.414773 0.172488 0.089210 255 220 0
0.392908 0.090542 0.064514 255 220 0
0.375728 0.165190 0.021573 255 220 0
0.402763 0.120416 0.082349 255 220 0
0.397422 0.192308 0.033465 255 220 0
0.384625 0.227410 0.054744 255 220 0
0.386368 0.234383 0.082143 255 220 0
0.336476 0.121254 0.034744 255 220 0
0.408764 0.147575 0.034825 255 220 0
0.400666 0.227485 0.081544 255 220 0
0.357277 0.064076 0.053022 255 220 0
0.400253 0.161749 0.027355 255 220 0
0.412944 0.208625 0.068124 255 220 0
0.385523 0.224371 0.095828 255 220 0
0.369477 0.219800 0.047593 255 220 0
0.369277 0.139501 0.019915 255 220 0
0.415661 0.150424 0.044446 255 220 0
0.399803 0.099632 0.042543 255 220 0
0.347263 0.114195 0.072136 255 220 0
0.391250 0.144341 0.095691 255 220 0
0.382980 0.084026 0.064303 255 220 0
0.337502 0.151194 0.072362 255 220 0
0.377357 0.115614 0.085070 255 220 0
0.390808 0.168486 0.024151 255 220 0
0.356210 0.097689 0.021719 255 220 0
0.336773 0.194067 0.067113 255 220 0
0.373333 0.186933 0.105193 255 220 0
0.366322 0.137860 0.020225 255 220 0
0.406358 0.221511 0.070599 255 220 0
0.395849 0.101735 0.034519 255 220 0
0.358010 0.074846 0.062853 255 220 0
0.383518 0.085323 0.065273 255 220 0
0.414528 0.164969 0.089127 255 220 0
0.412311 0.205711 0.084944 255 220 0
0.360749 0.135527 0.087331 255 220 0
0.380433 0.196971 0.030869 255 220 0
0.365319 0.230158 0.066563 255 220 0
0.397505 0.227069 0.062167 255 220 0
0.346049 0.207878 0.052579 255 220 0
0.333160 0.106652 0.037738 255 220 0
0.332465 0.177926 0.055767 255 220 0
0.331091 0.157771 0.048160 255 220 0
0.375417 0.217668 0.099075 255 220 0
0.360228 0.191518 0.099521 255 220 0
0.388346 0.145119 0.096333 255 220 0
0.405440 0.160317 0.096195 255 220 0
0.409159 0.155259 0.092481 255 220 0
0.389024 0.197717 0.105952 255 220 0
0.400543 0.197344 0.037833 255 220 0
0.406489 0.199496 0.044050 255 220 0
0.421249 0.172071 0.073001 255 220 0
0.346726 0.081789 0.025556 255 220 0
0.338611 0.180380 0.077759 255 220 0
0.376497 0.219597 0.046216 255 220 0
0.355492 0.140990 0.086339 255 220 0
0.407004 0.127274 0.036446 255 220 0
0.368000 0.128878 0.088036 255 220 0
0.382533 0.119681 0.021361 255 220 0
0.416701 0.140306 0.049863 255 220 0
0.416561 0.186260 0.083679 255 220 0
0.412340 0.155190 0.089460 255 220 0
0.389612 0.164344 0.101917 255 220 0
0.372185 0.101759 0.021595 255 220 0
0.417903 0.140925 0.052999 255 220 0
0.374503 0.127808 0.089630 255 220 0
0.363540 0.090252 0.022546 255 220 0
0.387156 0.171714 0.023762 255 220 0
0.330744 0.160562 0.057726 255 220 0
0.333031 0.144938 0.062989 255 220 0
0.389113 0.083095 0.058608 255 220 0
0.393315 0.089274 0.062573 255 220 0
0.386822 0.135121 0.092975 255 220 0
0.341717 0.107614 0.066001 255 220 0
0.402274 0.181257 0.100721 255 220 0
0.390994 0.121350 0.086798 255 220 0
0.398518 0.207135 0.042882 255 220 0
0.392102 0.229769 0.088565 255 220 0
0.378587 0.193987 0.106333 255 220 0
0.404864 0.214511 0.055579 255 220 0
0.405351 0.114240 0.040152 255 220 0
0.334738 0.189353 0.060288 255 220 0
0.334205 0.166489 0.042794 255 220 0
0.350154 0.091150 0.023406 255 220 0
0.410432 0.120219 0.046011 255 220 0
0.377202 0.102432 0.078658 255 220 0
0.349407 0.137686 0.025216 255 220 0
0.341827 0.172152 0.034724 255 220 0
0.330211 0.098724 0.045644 255 220 0
0.361272 0.158444 0.094531 255 220 0
0.341999 0.129063 0.071609 255 220 0
0.418279 0.185111 0.079411 255 220 0
0.419612 0.140436 0.061125 255 220 0
0.341981 0.135305 0.073421 255 220 0
0.386852 0.177012 0.024760 255 220 0
0.360382 0.084065 0.067276 255 220 0
0.389201 0.125301 0.022992 255 220 0
0.368319 0.149260 0.095180 255 220 0
0.395969 0.138418 0.025065 255 220 0
0.414760 0.161097 0.088107 255 220 0
0.383610 0.120950 0.021541 255 220 0
0.397180 0.179537 0.103003 255 220 0
0.363644 0.066109 0.053640 255 220 0
0.351834 0.165683 0.026962 255 220 0
0.372172 0.231479 0.084999 255 220 0
0.374695 0.125401 0.019636 255 220 0
0.332294 0.092499 0.054558 255 220 0
0.383233 0.181443 0.025236 255 220 0
0.366754 0.229968 0.063414 255 220 0
0.397107 0.217658 0.050623 255 220 0
0.410782 0.178514 0.093778 255 220 0
0.357745 0.061169 0.043461 255 220 0
0.381999 0.102160 0.024424 255 220 0
0.360777 0.096725 0.021377 255 220 0
0.364004 0.118376 0.082277 255 220 0
0.370331 0.208042 0.101954 255 220 0
0.376262 0.222810 0.095968 255 220 0
0.361242 0.063090 0.049183 255 220 0
0.368266 0.117609 0.019756 255 220 0
0.348341 0.210769 0.081211 255 220 0
0.414826 0.187486 0.049568 255 220 0
0.347220 0.113882 0.024686 255 220 0
0.418361 0.191027 0.073395 255 220 0
0.385935 0.105038 0.025398 255 220 0
0.412020 0.150171 0.038678 255 220 0
0.409556 0.208098 0.089319 255 220 0
0.351364 0.062798 0.051795 255 220 0
0.360488 0.072071 0.029492 255 220 0
0.405280 0.151258 0.093860 255 220 0
0.331757 0.112111 0.046897 255 220 0
0.388905 0.138112 0.021972 255 220 0
0.363209 0.198180 0.033340 255 220 0
0.350824 0.219445 0.064228 255 220 0
0.336763 0.184242 0.073501 255 220 0
0.330500 0.159966 0.054083 255 220 0
0.342589 0.119861 0.069604 255 220 0
0.331939 0.078960 0.034146 255 220 0
0.416207 0.154102 0.083749 255 220 0
0.355798 0.141817 0.022976 255 220 0
0.402572 0.215821 0.053963 255 220 0
0.351187 0.219915 0.072143 255 220 0
0.396220 0.182668 0.029340 255 220 0
0.399360 0.189585 0.033385 255 220 0
0.344944 0.119305 0.071650 255 220 0
0.345088 0.199451 0.083539 255 220 0
0.382111 0.122608 0.088365 255 220 0
0.363635 0.183868 0.027215 255 220 0
0.363958 0.182664 0.100999 255 220 0
0.350458 0.192860 0.091639 255 220 0
0.407808 0.185405 0.096545 255 220 0
0.328368 0.079318 0.043718 255 220 0
0.334651 0.068535 0.037043 255 220 0
0.396935 0.114730 0.029529 255 220 0
0.393854 0.086204 0.056469 255 220 0
0.405405 0.133513 0.032969 255 220 0
0.360855 0.076053 0.027122 255 220 0
0.391267 0.234427 0.075907 255 220 0
0.410203 0.120589 0.076910 255 220 0
0.359269 0.209856 0.094517 255 220 0
0.414870 0.120585 0.059969 255 220 0
0.403285 0.192490 0.100319 255 220 0
0.406451 0.108588 0.070882 255 220 0
0.361153 0.146244 0.090951 255 220 0
0.371255 0.191167 0.028170 255 220 0
0.359632 0.184251 0.028555 255 220 0
0.375256 0.170759 0.022493 255 220 0
0.410833 0.150275 0.037061 255 220 0
0.366138 0.107918 0.078824 255 220 0
0.364250 0.177048 0.025263 255 220 0
0.418119 0.181743 0.081405 255 220 0
0.343590 0.131688 0.074011 255 220 0
0.404397 0.148622 0.093453 255 220 0
0.378466 0.127341 0.090093 255 220 0
0.334032 0.108718 0.057117 255 220 0
0.388741 0.098015 0.029685 255 220 0
0.354986 0.153548 0.089726 255 220 0
0.406597 0.218001 0.063663 255 220 0
0.399604 0.103774 0.038368 255 220 0
0.360062 0.170345 0.096794 255 220 0
0.364837 0.219621 0.048938 255 220 0
0.421118 0.150218 0.064092 255 220 0
0.358357 0.068588 0.058591 255 220 0
0.370311 0.200335 0.032657 255 220 0
0.402142 0.227084 0.077444 255 220 0
0.338947 0.200642 0.065931 255 220 0
0.350426 0.203010 0.043223 255 220 0
0.333268 0.170496 0.067082 255 220 0
0.332122 0.118631 0.046762 255 220 0
0.359893 0.069664 0.059279 255 220 0
0.400178 0.117629 0.031558 255 220 0
0.378678 0.228966 0.056210 255 220 0
0.386920 0.235621 0.074203 255 220 0
0.405954 0.216068 0.059438 255 220 0
0.414755 0.199862 0.060628 255 220 0
0.388585 0.229570 0.058706 255 220 0
0.339545 0.183226 0.079087 255 220 0
0.359365 0.154434 0.092480 255 220 0
0.328775 0.077244 0.046018 255 220 0
0.390319 0.159050 0.100433 255 220 0
0.355951 0.067636 0.031689 255 220 0
0.337792 0.135021 0.068342 255 220 0
0.393598 0.092368 0.038798 255 220 0
0.395805 0.192690 0.032868 255 220 0
0.399096 0.130223 0.027798 255 220 0
0.379920 0.220252 0.046780 255 220 0
0.421949 0.166078 0.067617 255 220 0
0.392915 0.154812 0.098850 255 220 0
0.420880 0.178738 0.067222 255 220 0
0.396700 0.172244 0.102072 255 220 0
0.353515 0.084152 0.023844 255 220 0
0.402409 0.097951 0.062202 255 220 0
0.413454 0.208127 0.070484 255 220 0
0.332078 0.123350 0.050341 255 220 0
0.358859 0.114532 0.078707 255 220 0
0.357320 0.128872 0.021639 255 220 0
0.387289 0.235457 0.072084 255 220 0
0.333514 0.168402 0.067840 255 220 0
0.387111 0.094104 0.071314 255 220 0
0.375964 0.233843 0.082496 255 220 0
0.368825 0.211651 0.040834 255 220 0
0.376897 0.208242 0.103768 255 220 0
0.370821 0.118528 0.084830 255 220 0
0.360178 0.066844 0.056200 255 220 0
0.330920 0.141729 0.050647 255 220 0
0.370651 0.195222 0.104555 255 220 0
0.390803 0.082300 0.054209 255 220 0
0.379218 0.095334 0.025322 255 220 0
0.415887 0.168488 0.087550 255 220 0
0.367728 0.194496 0.103469 255 220 0
0.400779 0.100836 0.043216 255 220 0
0.343246 0.108016 0.067381 255 220 0
0.413590 0.120513 0.071485 255 220 0
0.365812 0.136843 0.090080 255 220 0
0.391989 0.219455 0.097972 255 220 0
0.385863 0.108993 0.024339 255 220 0
0.363740 0.103265 0.076180 255 220 0
0.350437 0.088977 0.066441 255 220 0
0.400397 0.166029 0.099637 255 220 0
0.350778 0.140508 0.024781 255 220 0
0.401847 0.099650 0.047001 255 220 0
0.392813 0.095888 0.070067 255 220 0
0.370893 0.077923 0.029657 255 220 0
0.390383 0.081315 0.048306 255 220 0
0.345934 0.213289 0.064242 255 220 0
0.398799 0.148610 0.026137 255 220 0
0.340491 0.107064 0.064810 255 220 0
0.332941 0.073934 0.034489 255 220 0
0.405293 0.182869 0.098733 255 220 0
0.394545 0.100061 0.072767 255 220 0
0.379669 0.178564 0.105228 255 220 0
0.355484 0.162479 0.025103 255 220 0
0.358972 0.224397 0.059040 255 220 0
0.359018 0.219427 0.051970 255 220 0
0.351440 0.118553 0.023081 255 220 0
0.391174 0.157284 0.099831 255 220 0
0.361017 0.102037 0.020883 255 220 0
0.348257 0.206882 0.048580 255 220 0
0.388156 0.183198 0.026632 255 220 0
0.362822 0.142649 0.090630 255 220 0
0.415720 0.199762 0.078041 255 220 0
0.353529 0.142178 0.085459 255 220 0
0.376705 0.144654 0.096101 255 220 0
0.411438 0.138444 0.039933 255 220 0
0.341070 0.101022 0.064243 255 220 0
0.340095 0.067356 0.033875 255 220 0
0.355576 0.147251 0.023447 255 220 0
0.385716 0.215000 0.101532 255 220 0
0.361826 0.089992 0.022467 255 220 0
0.401098 0.182672 0.032227 255 220 0
0.375006 0.115099 0.084452 255 220 0
0.334196 0.068651 0.037503 255 220 0
0.399013 0.099372 0.041294 255 220 0
0.399798 0.216541 0.051737 255 220 0
0.413787 0.146848 0.085042 255 220 0
0.355895 0.153614 0.023894 255 220 0
0.355615 0.207662 0.092309 255 220 0
0.332984 0.114759 0.040716 255 220 0
0.386409 0.228246 0.056220 255 220 0
0.372744 0.223049 0.094641 255 220 0
0.342710 0.179434 0.036489 255 220 0
0.408864 0.218125 0.073133 255 220 0
0.347478 0.157321 0.027768 255 220 0
0.396867 0.190207 0.104115 255 220 0
0.403732 0.216186 0.055940 255 220 0
0.403047 0.141764 0.091578 255 220 0
0.415913 0.154315 0.044293 255 220 0
0.390739 0.089906 0.065524 255 220 0
0.356694 0.174220 0.095630 255 220 0
0.412801 0.116816 0.055991 255 220 0
0.382646 0.190127 0.028102 255 220 0
0.342722 0.198547 0.047315 255 220 0
0.341223 0.200147 0.075743 255 220 0
0.368785 0.194426 0.029907 255 220 0
0.363051 0.191017 0.029908 255 220 0
0.394520 0.130604 0.089889 255 220 0
0.342946 0.207536 0.071305 255 220 0
0.407075 0.154507 0.032493 255 220 0
0.334807 0.150608 0.068002 255 220 0
0.345385 0.141057 0.027736 255 220 0
0.330647 0.150698 0.055970 255 220 0
0.389219 0.080262 0.046883 255 220 0
0.342308 0.071795 0.029759 255 220 0
0.360067 0.139490 0.088325 255 220 0
0.421366 0.152562 0.064597 255 220 0
0.343759 0.202600 0.079480 255 220 0
0.365764 0.080030 0.065660 255 220 0
0.357476 0.081047 0.024593 255 220 0
0.341652 0.195077 0.046010 255 220 0
0.406946 0.108258 0.048795 255 220 0
0.387773 0.141003 0.021518 255 220 0
0.346323 0.154190 0.083126 255 220 0
0.401744 0.159128 0.028124 255 220 0
0.412246 0.116823 0.070279 255 220 0
0.355493 0.183095 0.096004 255 220 0
0.330412 0.097648 0.049222 255 220 0
0.406105 0.207231 0.094732 255 220 0
0.415494 0.201575 0.067546 255 220 0
0.383617 0.142162 0.020459 255 220 0
0.417363 0.128331 0.062653 255 220 0
0.393304 0.198625 0.104970 255 220 0
0.337437 0.192581 0.051517 255 220 0
0.408017 0.178214 0.096418 255 220 0
0.379107 0.217428 0.099989 255 220 0
0.341393 0.143282 0.075071 255 220 0
0.410247 0.109861 0.064273 255 220 0
0.395796 0.223541 0.093084 255 220 0
0.370732 0.117337 0.084302 255 220 0
0.374200 0.145875 0.019837 255 220 0
0.362835 0.106577 0.020513 255 220 0
0.352631 0.070600 0.029067 255 220 0
0.343766 0.210109 0.065983 255 220 0
0.334485 0.175535 0.046288 255 220 0
0.415986 0.168999 0.087423 255 220 0
0.409746 0.196736 0.046387 255 220 0
0.393237 0.227177 0.058281 255 220 0
0.413147 0.201880 0.057887 255 220 0
0.413436 0.118966 0.055568 255 220 0
0.380193 0.136496 0.019896 255 220 0
0.361920 0.213485 0.044744 255 220 0
0.411696 0.201372 0.088650 255 220 0
0.337509 0.120410 0.033186 255 220 0
0.335720 0.087324 0.058130 255 220 0
0.337339 0.080503 0.058722 255 220 0
0.343099 0.166704 0.032191 255 220 0
0.404129 0.126358 0.033099 255 220 0
0.343945 0.065135 0.034954 255 220 0
0.394750 0.206605 0.102847 255 220 0
0.348571 0.206136 0.085078 255 220 0
0.406237 0.119082 0.079462 255 220 0
0.391265 0.166353 0.102167 255 220 0
0.414153 0.121040 0.055744 255 220 0
0.356601 0.070960 0.060640 255 220 0
0.336633 0.188005 0.049554 255 220 0
0.397969 0.091375 0.058391 255 220 0
0.361825 0.227399 0.062311 255 220 0
0.385198 0.095895 0.073375 255 220 0
0.363550 0.083144 0.067285 255 220 0
0.391591 0.133167 0.023272 255 220 0
0.349577 0.215824 0.058330 255 220 0
0.414397 0.188257 0.049150 255 220 0
0.408954 0.136719 0.036700 255 220 0
0.339967 0.202010 0.057675 255 220 0
0.418483 0.135992 0.071442 255 220 0
0.391197 0.206325 0.039004 255 220 0
0.351401 0.168777 0.090921 255 220 0
0.367476 0.192233 0.029235 255 220 0
0.372807 0.200123 0.104752 255 220 0
0.344068 0.129198 0.073749 255 220 0
0.394369 0.106289 0.030527 255 220 0
0.333842 0.185197 0.057359 255 220 0
0.356687 0.075105 0.062904 255 220 0
0.362757 0.093731 0.021778 255 220 0
0.362782 0.212619 0.095809 255 220 0
0.397901 0.135833 0.026421 255 220 0
0.404317 0.192764 0.099476 255 220 0
0.361490 0.067425 0.033896 255 220 0
0.342097 0.199452 0.078308 255 220 0
0.418465 0.161739 0.081882 255 220 0
0.395133 0.170558 0.026058 255 220 0
0.353921 0.144680 0.023825 255 220 0
0.388379 0.121145 0.087194 255 220 0
0.402415 0.204297 0.043532 255 220 0
0.331539 0.108208 0.049506 255 220 0
0.367258 0.221694 0.092860 255 220 0
0.419619 0.144451 0.072056 255 220 0
0.374106 0.070205 0.039176 255 220 0
0.408677 0.158413 0.093672 255 220 0
0.361754 0.171568 0.024734 255 220 0
0.421501 0.171910 0.063497 255 220 0
0.408492 0.140068 0.087970 255 220 0
0.376559 0.205765 0.104448 255 220 0
0.376391 0.157542 0.100003 255 220 0
0.420311 0.146639 0.059489 255 220 0
0.374034 0.233845 0.068707 255 220 0
0.357108 0.122643 0.080949 255 220 0
0.346616 0.103904 0.024493 255 220 0
0.335219 0.155841 0.069872 255 220 0
0.408841 0.217619 0.070412 255 220 0
0.410482 0.139220 0.038327 255 220 0
0.421675 0.168247 0.062396 255 220 0
0.354802 0.118521 0.078288 255 220 0
0.374334 0.169233 0.022273 255 220 0
0.353581 0.175688 0.093751 255 220 0
0.345629 0.134363 0.076819 255 220 0
0.388065 0.193866 0.030838 255 220 0
0.421715 0.164384 0.070829 255 220 0
0.356892 0.063211 0.051535 255 220 0
0.399299 0.228763 0.068256 255 220 0
0.376549 0.074543 0.057694 255 220 0
0.332254 0.072530 0.051891 255 220 0
0.356975 0.073534 0.027774 255 220 0
0.335255 0.148358 0.068232 255 220 0
0.372682 0.107684 0.080620 255 220 0
0.385121 0.149090 0.097865 255 220 0
0.367167 0.064327 0.042387 255 220 0
0.420758 0.179287 0.070355 255 220 0
0.414717 0.204885 0.073968 255 220 0
0.367268 0.073299 0.060523 255 220 0
0.354072 0.064135 0.035185 255 220 0
0.360428 0.062660 0.048597 255 220 0
0.359888 0.145920 0.090239 255 220 0
0.418957 0.147655 0.075554 255 220 0
0.340405 0.182365 0.040206 255 220 0
0.367939 0.178670 0.024876 255 220 0
0.338580 0.127719 0.067278 255 220 0
0.341305 0.164484 0.080152 255 220 0
0.338055 0.176565 0.040588 255 220 0
0.350074 0.140247 0.025084 255 220 0
0.333285 0.086889 0.055716 255 220 0
0.366440 0.066273 0.038137 255 220 0
0.359213 0.064801 0.053572 255 220 0
0.332614 0.144658 0.061858 255 220 0
0.383384 0.210597 0.039480 255 220 0
0.389309 0.111981 0.082613 255 220 0
0.344950 0.073094 0.028462 255 220 0
0.344156 0.121805 0.027074 255 220 0
0.336355 0.072474 0.056304 255 220 0
0.366191 0.098999 0.075151 255 220 0
0.341732 0.198309 0.048508 255 220 0
0.408813 0.117643 0.044357 255 220 0
0.346002 0.061536 0.042530 255 220 0
0.358506 0.085920 0.023244 255 220 0
0.394557 0.168181 0.101908 255 220 0
0.372954 0.151573 0.020242 255 220 0
0.334963 0.121148 0.060053 255 220 0
0.373233 0.072650 0.057317 255 220 0
0.343401 0.137201 0.028883 255 220 0
0.412388 0.167612 0.091927 255 220 0
0.376397 0.207500 0.103907 255 220 0
0.350351 0.109144 0.072733 255 220 0
0.403875 0.215353 0.055141 255 220 0
0.361121 0.066305 0.034945 255 220 0
0.338426 0.164012 0.076331 255 220 0
0.338772 0.176566 0.039635 255 220 0
0.338661 0.123465 0.066207 255 220 0
0.358976 0.204833 0.039392 255 220 0
0.402867 0.144068 0.092522 255 220 0
0.361299 0.211146 0.095482 255 220 0
0.334709 0.160571 0.069778 255 220 0
0.419706 0.151031 0.074598 255 220 0
0.333787 0.183558 0.054838 255 220 0
0.410298 0.110605 0.065937 255 220 0
0.380871 0.107662 0.081469 255 220 0
0.397403 0.111090 0.079412 255 220 0
0.331654 0.102414 0.040147 255 220 0
0.344372 0.117589 0.026597 255 220 0
0.419098 0.152273 0.051906 255 220 0
0.365168 0.173202 0.024223 255 220 0
0.397594 0.146792 0.025498 255 220 0
0.362294 0.115374 0.020295 255 220 0
0.376139 0.072025 0.038771 255 220 0
0.382127 0.210887 0.103398 255 220 0
0.371222 0.094882 0.074189 255 220 0
0.419835 0.140086 0.065607 255 220 0
0.347110 0.155996 0.084326 255 220 0
0.369966 0.195557 0.030214 255 220 0
0.417046 0.161114 0.045950 255 220 0
0.415399 0.198047 0.081191 255 220 0
0.340022 0.181969 0.079962 255 220 0
0.393138 0.127029 0.088762 255 220 0
0.373311 0.118452 0.085521 255 220 0
0.405900 0.138268 0.032813 255 220 0
0.349082 0.063610 0.053232 255 220 0
0.337497 0.073306 0.057394 255 220 0
0.336814 0.157578 0.036619 255 220 0
0.420723 0.151788 0.058460 255 220 0
0.355330 0.219005 0.054671 255 220 0
0.332627 0.179440 0.059301 255 220 0
0.334690 0.151712 0.038933 255 220 0
0.398647 0.108727 0.077243 255 220 0
0.359372 0.111018 0.077593 255 220 0
0.395689 0.121729 0.085764 255 220 0
0.406576 0.164137 0.032346 255 220 0
0.366566 0.066928 0.053330 255 220 0
0.330802 0.084385 0.052274 255 220 0
0.374205 0.156044 0.020528 255 220 0
0.362830 0.163036 0.023070 255 220 0
0.416403 0.135089 0.051756 255 220 0
0.353303 0.207794 0.044959 255 220 0
0.406880 0.178457 0.097356 255 220 0
0.416580 0.184749 0.051868 255 220 0
0.410614 0.201326 0.051431 255 220 0
0.333521 0.079051 0.032448 255 220 0
0.381603 0.218890 0.045701 255 220 0
0.342257 0.109712 0.066899 255 220 0
0.387683 0.202794 0.105416 255 220 0
0.331319 0.107516 0.047450 255 220 0
0.400247 0.103567 0.039611 255 220 0
0.391885 0.087112 0.041511 255 220 0
0.415223 0.202378 0.067566 255 220 0
0.354117 0.186053 0.031462 255 220 0
0.386118 0.193278 0.030094 255 220 0
0.337344 0.187682 0.047818 255 220 0
0.336379 0.194379 0.058242 255 220 0
0.330326 0.092349 0.050630 255 220 0
0.407072 0.124443 0.081990 255 220 0
0.364763 0.144993 0.020895 255 220 0
0.330740 0.146516 0.049615 255 220 0
0.368070 0.072344 0.032549 255 220 0
0.351309 0.144640 0.084644 255 220 0
0.350906 0.195687 0.091617 255 220 0
0.413730 0.118822 0.068866 255 220 0
0.412395 0.146376 0.086603 255 220 0
0.413018 0.135300 0.082072 255 220 0
0.344888 0.137722 0.077123 255 220 0
0.331482 0.168131 0.060679 255 220 0
0.402488 0.144619 0.092878 255 220 0
0.342729 0.197322 0.046305 255 220 0
0.408412 0.214445 0.062356 255 220 0
0.373369 0.143741 0.019777 255 220 0
0.420660 0.156119 0.073444 255 220 0
0.357710 0.140049 0.022253 255 220 0
0.344316 0.210809 0.068892 255 220 0
0.372460 0.213095 0.100654 255 220 0
0.362846 0.208062 0.097911 255 220 0
0.347162 0.204570 0.047492 255 220 0
0.386102 0.086928 0.034038 255 220 0
0.356690 0.163648 0.093425 255 220 0
0.412136 0.200580 0.053919 255 220 0
0.347950 0.137640 0.079892 255 220 0
0.415697 0.195345 0.058375 255 220 0
0.421984 0.163417 0.066702 255 220 0
0.345310 0.173996 0.032482 255 220 0
0.329140 0.088630 0.047511 255 220 0
0.404131 0.151803 0.029891 255 220 0
0.337343 0.154862 0.073022 255 220 0
0.393767 0.144127 0.023639 255 220 0
0.393829 0.222439 0.095133 255 220 0
0.381396 0.087274 0.029998 255 220 0
0.373855 0.193431 0.105533 255 220 0
0.331851 0.128828 0.051462 255 220 0
0.372533 0.213179 0.100639 255 220 0
0.413503 0.204831 0.063207 255 220 0
0.399788 0.144326 0.027010 255 220 0
0.421932 0.163876 0.063844 255 220 0
0.342043 0.162702 0.032216 255 220 0
0.372613 0.202822 0.104224 255 220 0
0.384491 0.135276 0.093197 255 220 0
0.385986 0.125253 0.021833 255 220 0
0.391673 0.093127 0.035464 255 220 0
0.332992 0.177588 0.064254 255 220 0
0.405451 0.116881 0.038683 255 220 0
0.381384 0.224836 0.095418 255 220 0
0.341606 0.206291 0.065237 255 220 0
0.418483 0.134858 0.070362 255 220 0
0.403705 0.104151 0.045794 255 220 0
0.394631 0.173924 0.026502 255 220 0
0.407989 0.187300 0.039598 255 220 0
0.375301 0.175031 0.023329 255 220 0
0.412797 0.124528 0.076419 255 220 0
0.348445 0.072305 0.060610 255 220 0
0.411712 0.206339 0.059357 255 220 0
