ply
format ascii 1.0
element vertex 1024
property float x
property float y
property float z
property uchar red
property uchar green
property uchar blue
end_header
0.567575 0.178323 0.065361 255 220 0
0.567114 0.058775 0.019483 255 220 0
0.547721 0.013459 0.038645 255 220 0
0.542687 0.016705 0.029757 255 220 0
0.588628 0.083123 0.025214 255 220 0
0.521730 0.077934 0.056433 255 220 0
0.568753 0.130372 0.097781 255 220 0
0.531130 0.044264 0.065358 255 220 0
0.544505 0.010067 0.046207 255 220 0
0.588181 0.099578 0.021927 255 220 0
0.597590 0.088132 0.033375 255 220 0
0.549798 0.029068 0.023596 255 220 0
0.534891 0.060492 0.070816 255 220 0
0.524429 0.101843 0.060041 255 220 0
0.600978 0.157883 0.076873 255 220 0
0.555269 0.170076 0.071190 255 220 0
0.519877 0.039250 0.022178 255 220 0
0.601284 0.130035 0.035065 255 220 0
0.582972 0.069980 0.086690 255 220 0
0.553740 0.163713 0.038151 255 220 0
0.552229 0.016886 0.036994 255 220 0
0.600255 0.144848 0.040091 255 220 0
0.535505 0.010322 0.049867 255 220 0
0.569942 0.138944 0.020591 255 220 0
0.568507 0.116013 0.015400 255 220 0
0.538374 0.025758 0.063385 255 220 0
0.512476 0.014569 0.037631 255 220 0
0.585645 0.172039 0.080162 255 220 0
0.555296 0.117764 0.015453 255 220 0
0.598931 0.069586 0.055686 255 220 0
0.583205 0.050274 0.075166 255 220 0
0.562844 0.063327 0.017113 255 220 0
0.560453 0.070899 0.015589 255 220 0
0.575083 0.093606 0.016404 255 220 0
0.520544 0.088699 0.032466 255 220 0
0.578193 0.176484 0.076177 255 220 0
0.577012 0.118341 0.017312 255 220 0
0.558096 0.030553 0.027075 255 220 0
0.541209 0.081371 0.015850 255 220 0
0.532023 0.106867 0.072429 255 220 0
0.558026 0.062455 0.084033 255 220 0
0.555104 0.015787 0.043168 255 220 0
0.534350 0.147260 0.041035 255 220 0
0.579501 0.144020 0.097101 255 220 0
0.588197 0.080128 0.025775 255 220 0
0.521066 0.069101 0.055916 255 220 0
0.524821 0.111928 0.059201 255 220 0
0.543255 0.018740 0.027961 255 220 0
0.575349 0.082674 0.017686 255 220 0
0.531933 0.045763 0.018118 255 220 0
0.529427 0.130896 0.034023 255 220 0
0.595298 0.119051 0.027024 255 220 0
0.530652 0.094967 0.021111 255 220 0
0.572909 0.050210 0.025712 255 220 0
0.586018 0.063480 0.082547 255 220 0
0.511571 0.042532 0.046107 255 220 0
0.601458 0.096391 0.081070 255 220 0
0.555208 0.161123 0.082423 255 220 0
0.569255 0.086490 0.015526 255 220 0
0.558362 0.125605 0.094881 255 220 0
0.560442 0.072157 0.015453 255 220 0
0.534351 0.089560 0.074560 255 220 0
0.523102 0.016525 0.026212 255 220 0
0.558199 0.118787 0.015401 255 220 0
0.544401 0.143076 0.026693 255 220 0
0.529409 0.138272 0.056344 255 220 0
0.603086 0.112514 0.036136 255 220 0
0.579715 0.176547 0.051662 255 220 0
0.552137 0.155925 0.083668 255 220 0
0.588752 0.143279 0.029509 255 220 0
0.577171 0.156945 0.031458 255 220 0
0.531598 0.029523 0.062437 255 220 0
0.602453 0.078098 0.057959 255 220 0
0.533714 0.020056 0.024158 255 220 0
0.584993 0.105802 0.095386 255 220 0
0.553374 0.159345 0.082212 255 220 0
0.574966 0.038884 0.069737 255 220 0
0.560341 0.071930 0.087284 255 220 0
0.513411 0.054182 0.043537 255 220 0
0.606518 0.129101 0.043866 255 220 0
0.584530 0.145852 0.095615 255 220 0
0.541197 0.081019 0.079447 255 220 0
0.603637 0.118644 0.037111 255 220 0
0.570985 0.143711 0.097030 255 220 0
0.521593 0.105251 0.051878 255 220 0
0.510479 0.036360 0.046464 255 220 0
0.561267 0.076445 0.088615 255 220 0
0.599641 0.135552 0.034996 255 220 0
0.606750 0.091367 0.060506 255 220 0
0.529048 0.041385 0.063481 255 220 0
0.537538 0.093446 0.017228 255 220 0
0.606592 0.146574 0.068257 255 220 0
0.606548 0.147921 0.064876 255 220 0
0.539077 0.143382 0.075246 255 220 0
0.575795 0.165801 0.087576 255 220 0
0.509041 0.039640 0.036327 255 220 0
0.584990 0.133866 0.023649 255 220 0
0.555114 0.089479 0.089569 255 220 0
0.533705 0.048509 0.017643 255 220 0
0.587978 0.158949 0.037597 255 220 0
0.517627 0.076938 0.039610 255 220 0
0.598813 0.160718 0.050758 255 220 0
0.587289 0.094533 0.092507 255 220 0
0.607565 0.134277 0.072038 255 220 0
0.574384 0.037092 0.037145 255 220 0
0.563592 0.026156 0.062361 255 220 0
0.591085 0.130382 0.093812 255 220 0
0.593585 0.173032 0.067792 255 220 0
0.560131 0.142865 0.022413 255 220 0
0.530744 0.009148 0.035887 255 220 0
0.525764 0.110846 0.061548 255 220 0
0.582077 0.119266 0.019120 255 220 0
0.561975 0.059122 0.083579 255 220 0
0.548602 0.082788 0.014674 255 220 0
0.580599 0.179425 0.064142 255 220 0
0.555556 0.172283 0.065642 255 220 0
0.539751 0.091801 0.079734 255 220 0
0.605928 0.146272 0.072140 255 220 0
0.567342 0.135624 0.019189 255 220 0
0.536579 0.115957 0.077903 255 220 0
0.549717 0.159602 0.036491 255 220 0
0.564195 0.156240 0.091287 255 220 0
0.508339 0.036634 0.035478 255 220 0
0.589378 0.065507 0.033305 255 220 0
0.605312 0.105855 0.040784 255 220 0
0.607733 0.134418 0.071386 255 220 0
0.540878 0.157357 0.044171 255 220 0
0.517543 0.070039 0.035022 255 220 0
0.604253 0.151495 0.073931 255 220 0
0.538379 0.146641 0.033643 255 220 0
0.553146 0.085096 0.087925 255 220 0
0.564889 0.062681 0.085148 255 220 0
0.608753 0.105793 0.051779 255 220 0
0.539831 0.105114 0.080925 255 220 0
0.553700 0.151828 0.087529 255 220 0
0.558096 0.139917 0.093872 255 220 0
0.514264 0.058533 0.041759 255 220 0
0.568134 0.089742 0.092770 255 220 0
0.519886 0.101564 0.043465 255 220 0
0.598419 0.099308 0.085911 255 220 0
0.585999 0.047258 0.067413 255 220 0
0.526776 0.077288 0.064677 255 220 0
0.527962 0.116981 0.064899 255 220 0
0.515091 0.047989 0.028262 255 220 0
0.526856 0.086541 0.065016 255 220 0
0.553998 0.155504 0.085672 255 220 0
0.531541 0.144324 0.054704 255 220 0
0.602658 0.159354 0.061018 255 220 0
0.532458 0.009637 0.048494 255 220 0
0.602349 0.108452 0.035156 255 220 0
0.532161 0.113437 0.022920 255 220 0
0.558602 0.104474 0.093196 255 220 0
0.508030 0.035486 0.035619 255 220 0
0.534527 0.133413 0.072360 255 220 0
0.545535 0.127357 0.086127 255 220 0
0.576400 0.033926 0.057442 255 220 0
0.545095 0.072303 0.080648 255 220 0
0.605560 0.112536 0.078876 255 220 0
0.571110 0.029578 0.060273 255 220 0
0.606633 0.092081 0.054571 255 220 0
0.527983 0.111363 0.065847 255 220 0
0.509982 0.037490 0.045005 255 220 0
0.553556 0.125363 0.092370 255 220 0
0.580038 0.101791 0.017703 255 220 0
0.557955 0.127440 0.094723 255 220 0
0.548974 0.081595 0.014660 255 220 0
0.548630 0.031902 0.021766 255 220 0
0.546851 0.079436 0.083343 255 220 0
0.569179 0.178359 0.058935 255 220 0
0.581724 0.040189 0.054828 255 220 0
0.535199 0.056926 0.017162 255 220 0
0.597287 0.162741 0.050237 255 220 0
0.535730 0.122630 0.023113 255 220 0
0.552060 0.137333 0.090621 255 220 0
0.524759 0.094434 0.026545 255 220 0
0.532932 0.065768 0.070158 255 220 0
0.557996 0.044590 0.076600 255 220 0
0.542232 0.019182 0.027087 255 220 0
0.585928 0.136991 0.025234 255 220 0
0.526423 0.030067 0.020545 255 220 0
0.588044 0.176987 0.066030 255 220 0
0.525507 0.100643 0.026472 255 220 0
0.556777 0.173260 0.064744 255 220 0
0.547165 0.098882 0.014773 255 220 0
0.540377 0.019418 0.059777 255 220 0
0.514086 0.056149 0.035785 255 220 0
0.529370 0.007895 0.041368 255 220 0
0.571028 0.170702 0.082392 255 220 0
0.557585 0.018860 0.056386 255 220 0
0.579609 0.045162 0.073057 255 220 0
0.577749 0.038059 0.042743 255 220 0
0.577561 0.120182 0.017692 255 220 0
0.509378 0.038653 0.042692 255 220 0
0.543973 0.100738 0.015442 255 220 0
0.574721 0.179713 0.064508 255 220 0
0.578237 0.054593 0.027560 255 220 0
0.597982 0.077897 0.078495 255 220 0
0.532461 0.034288 0.064038 255 220 0
0.572017 0.029075 0.055749 255 220 0
0.556314 0.082372 0.014440 255 220 0
0.607805 0.134789 0.070959 255 220 0
0.517222 0.057886 0.051277 255 220 0
0.538955 0.156210 0.061082 255 220 0
0.605672 0.092720 0.048619 255 220 0
0.562075 0.176075 0.065557 255 220 0
0.520478 0.081368 0.053459 255 220 0
0.602542 0.115365 0.035323 255 220 0
0.525481 0.008643 0.039927 255 220 0
0.590089 0.116483 0.094359 255 220 0
0.569430 0.051240 0.080280 255 220 0
0.539504 0.012146 0.052468 255 220 0
0.531038 0.106009 0.071071 255 220 0
0.558209 0.127399 0.094832 255 220 0
0.603840 0.120879 0.082021 255 220 0
0.546657 0.024168 0.063466 255 220 0
0.533430 0.147058 0.059006 255 220 0
0.548170 0.036256 0.070828 255 220 0
0.571349 0.053105 0.081100 255 220 0
0.570062 0.033460 0.035340 255 220 0
0.519860 0.101365 0.041838 255 220 0
0.584337 0.171068 0.045840 255 220 0
0.601754 0.082972 0.074040 255 220 0
0.520279 0.081204 0.052991 255 220 0
0.551796 0.062610 0.015602 255 220 0
0.539577 0.154884 0.065740 255 220 0
0.583678 0.126803 0.097018 255 220 0
0.586461 0.144383 0.028549 255 220 0
0.514506 0.037810 0.025548 255 220 0
0.543045 0.024487 0.063439 255 220 0
0.575178 0.127807 0.018258 255 220 0
0.521894 0.029670 0.021547 255 220 0
0.587773 0.058871 0.035605 255 220 0
0.588848 0.051009 0.050744 255 220 0
0.538022 0.016595 0.057367 255 220 0
0.577011 0.085551 0.092224 255 220 0
0.531581 0.033933 0.019258 255 220 0
0.559102 0.019655 0.056552 255 220 0
0.519864 0.041806 0.022473 255 220 0
0.594899 0.142594 0.033716 255 220 0
0.587883 0.114837 0.095218 255 220 0
0.521563 0.111702 0.046810 255 220 0
0.525285 0.127869 0.044254 255 220 0
0.604585 0.093518 0.074061 255 220 0
0.532229 0.091822 0.072378 255 220 0
0.553108 0.063122 0.015625 255 220 0
0.571678 0.074672 0.089276 255 220 0
0.589884 0.065947 0.081346 255 220 0
0.562226 0.072916 0.087898 255 220 0
0.550277 0.169455 0.059220 255 220 0
0.551278 0.117993 0.090733 255 220 0
0.556871 0.113575 0.014833 255 220 0
0.575270 0.175720 0.049360 255 220 0
0.573612 0.060322 0.084288 255 220 0
0.587059 0.169052 0.045401 255 220 0
0.569658 0.173629 0.078568 255 220 0
0.528362 0.080089 0.066945 255 220 0
0.522074 0.025336 0.057018 255 220 0
0.601110 0.089731 0.078773 255 220 0
0.586765 0.060340 0.033058 255 220 0
0.576678 0.041397 0.071252 255 220 0
0.542228 0.022321 0.061950 255 220 0
0.562881 0.176563 0.064461 255 220 0
0.557445 0.089894 0.090472 255 220 0
0.545993 0.032953 0.020579 255 220 0
0.555872 0.073030 0.086367 255 220 0
0.536920 0.029844 0.020147 255 220 0
0.596722 0.085004 0.033532 255 220 0
0.545414 0.141022 0.025107 255 220 0
0.607922 0.137265 0.053616 255 220 0
0.540282 0.030008 0.065851 255 220 0
0.561023 0.167409 0.038989 255 220 0
0.578261 0.105105 0.017017 255 220 0
0.529038 0.097528 0.022544 255 220 0
0.605685 0.136613 0.044873 255 220 0
0.595319 0.161032 0.082791 255 220 0
0.604483 0.123861 0.080802 255 220 0
0.519152 0.061476 0.027878 255 220 0
0.526893 0.119051 0.030845 255 220 0
0.578747 0.036509 0.055954 255 220 0
0.576695 0.176806 0.051628 255 220 0
0.563179 0.134768 0.096366 255 220 0
0.542202 0.159405 0.045368 255 220 0
0.552294 0.050592 0.017302 255 220 0
0.537639 0.096327 0.017277 255 220 0
0.519394 0.067005 0.053100 255 220 0
0.583509 0.075070 0.023711 255 220 0
0.598337 0.155641 0.045069 255 220 0
0.592373 0.062292 0.041385 255 220 0
0.558552 0.148887 0.025763 255 220 0
0.587152 0.092858 0.022018 255 220 0
0.587105 0.068350 0.029210 255 220 0
0.604029 0.156208 0.067607 255 220 0
0.550921 0.091598 0.087997 255 220 0
0.537536 0.057525 0.072148 255 220 0
0.536282 0.112780 0.019925 255 220 0
0.553209 0.083641 0.014395 255 220 0
0.524982 0.086836 0.061974 255 220 0
0.608263 0.097902 0.060077 255 220 0
0.525092 0.010242 0.047321 255 220 0
0.539141 0.154026 0.065934 255 220 0
0.591375 0.155741 0.037935 255 220 0
0.553856 0.067112 0.015309 255 220 0
0.556961 0.126065 0.016826 255 220 0
0.578777 0.103672 0.017202 255 220 0
0.564551 0.052774 0.020177 255 220 0
0.521781 0.091835 0.030495 255 220 0
0.608995 0.133485 0.058575 255 220 0
0.542090 0.161415 0.056763 255 220 0
0.552579 0.160865 0.035975 255 220 0
0.523831 0.061382 0.060535 255 220 0
0.512232 0.035242 0.049427 255 220 0
0.608108 0.136001 0.068892 255 220 0
0.552827 0.167128 0.072828 255 220 0
0.537104 0.101904 0.017854 255 220 0
0.508297 0.021024 0.035046 255 220 0
0.608484 0.129924 0.069708 255 220 0
0.598707 0.075694 0.043763 255 220 0
0.575912 0.042172 0.072482 255 220 0
0.551785 0.098386 0.014272 255 220 0
0.564111 0.031583 0.067540 255 220 0
0.553647 0.016823 0.038737 255 220 0
0.569778 0.028041 0.059299 255 220 0
0.516700 0.050195 0.052235 255 220 0
0.562321 0.153244 0.027929 255 220 0
0.535108 0.063068 0.071427 255 220 0
0.575576 0.168423 0.085417 255 220 0
0.601536 0.098697 0.035581 255 220 0
0.522435 0.116333 0.042061 255 220 0
0.596472 0.066249 0.049094 255 220 0
0.525283 0.069557 0.062392 255 220 0
0.524242 0.114014 0.057097 255 220 0
0.509796 0.026838 0.047755 255 220 0
0.590869 0.172214 0.075434 255 220 0
0.520262 0.100150 0.036877 255 220 0
0.585047 0.165394 0.086597 255 220 0
0.514264 0.025700 0.052384 255 220 0
0.557257 0.018135 0.041009 255 220 0
0.517083 0.018695 0.026490 255 220 0
0.595879 0.062356 0.064909 255 220 0
0.535344 0.014488 0.055244 255 220 0
0.596202 0.083245 0.082965 255 220 0
0.533342 0.102097 0.074083 255 220 0
0.585421 0.128023 0.022164 255 220 0
0.607837 0.095980 0.057720 255 220 0
0.589723 0.051100 0.062491 255 220 0
0.517662 0.030841 0.054883 255 220 0
0.598280 0.091861 0.083415 255 220 0
0.528534 0.014702 0.027403 255 220 0
0.599206 0.166590 0.066373 255 220 0
0.536801 0.107343 0.078108 255 220 0
0.602797 0.131429 0.037479 255 220 0
0.560701 0.026623 0.064012 255 220 0
0.564297 0.122013 0.096670 255 220 0
0.596851 0.151233 0.086500 255 220 0
0.530008 0.139907 0.056425 255 220 0
0.523445 0.029123 0.058279 255 220 0
0.570266 0.168369 0.039072 255 220 0
0.524883 0.124423 0.039825 255 220 0
0.567455 0.024806 0.055733 255 220 0
0.557910 0.124853 0.094673 255 220 0
0.599794 0.071334 0.064833 255 220 0
0.551142 0.103617 0.014493 255 220 0
0.546367 0.029721 0.022021 255 220 0
0.559217 0.171030 0.044590 255 220 0
0.566010 0.078273 0.089805 255 220 0
0.597819 0.155974 0.083310 255 220 0
0.541052 0.037472 0.018479 255 220 0
0.519944 0.090315 0.034355 255 220 0
0.571618 0.049644 0.079183 255 220 0
0.532972 0.096345 0.019649 255 220 0
0.541438 0.136447 0.080964 255 220 0
0.554798 0.015514 0.052524 255 220 0
0.509542 0.039133 0.033290 255 220 0
0.564221 0.079449 0.089861 255 220 0
0.539840 0.137610 0.078692 255 220 0
0.525968 0.064671 0.063177 255 220 0
0.574521 0.161638 0.034088 255 220 0
0.536949 0.071065 0.074286 255 220 0
0.523769 0.014314 0.028086 255 220 0
0.589381 0.146592 0.093371 255 220 0
0.585647 0.119820 0.020734 255 220 0
0.565262 0.055451 0.019670 255 220 0
0.603976 0.124971 0.081543 255 220 0
0.560593 0.086984 0.090798 255 220 0
0.539547 0.156985 0.047031 255 220 0
0.546749 0.075105 0.014973 255 220 0
0.569361 0.040103 0.028804 255 220 0
0.597094 0.065437 0.066913 255 220 0
0.574130 0.110107 0.015977 255 220 0
0.539528 0.071586 0.076389 255 220 0
0.541106 0.160230 0.053107 255 220 0
0.593956 0.171540 0.056593 255 220 0
0.602380 0.116193 0.035097 255 220 0
0.563794 0.028518 0.033486 255 220 0
0.599770 0.086222 0.079399 255 220 0
0.585163 0.143639 0.027460 255 220 0
0.539962 0.147816 0.073886 255 220 0
0.574965 0.170700 0.042149 255 220 0
0.599863 0.099187 0.032913 255 220 0
0.575173 0.097429 0.095005 255 220 0
0.527722 0.123364 0.062637 255 220 0
0.539396 0.109198 0.017729 255 220 0
0.542970 0.118852 0.084118 255 220 0
0.572223 0.135094 0.098081 255 220 0
0.603880 0.156130 0.060558 255 220 0
0.515327 0.016523 0.029370 255 220 0
0.572453 0.179271 0.067355 255 220 0
0.545969 0.017213 0.031171 255 220 0
0.573916 0.031013 0.055162 255 220 0
0.548568 0.103129 0.014747 255 220 0
0.586300 0.051976 0.039976 255 220 0
0.563209 0.096546 0.093248 255 220 0
0.567941 0.174252 0.047150 255 220 0
0.549240 0.066324 0.015235 255 220 0
0.560583 0.107430 0.094211 255 220 0
0.559746 0.122003 0.015829 255 220 0
0.579877 0.040604 0.043366 255 220 0
0.596308 0.132508 0.089896 255 220 0
0.590962 0.074021 0.084495 255 220 0
0.596320 0.079588 0.081560 255 220 0
0.541741 0.082687 0.080150 255 220 0
0.599240 0.160408 0.077871 255 220 0
0.571052 0.110075 0.096700 255 220 0
0.589759 0.135269 0.026926 255 220 0
0.532366 0.046212 0.066517 255 220 0
0.595077 0.061995 0.052000 255 220 0
0.519914 0.083252 0.051728 255 220 0
0.605123 0.113888 0.039618 255 220 0
0.553602 0.075447 0.086106 255 220 0
0.572406 0.179385 0.061990 255 220 0
0.542158 0.079920 0.015626 255 220 0
0.590503 0.053650 0.068126 255 220 0
0.536252 0.009303 0.037445 255 220 0
0.529093 0.139209 0.047960 255 220 0
0.519127 0.093867 0.039948 255 220 0
0.544898 0.146097 0.081636 255 220 0
0.560974 0.138683 0.020461 255 220 0
0.599013 0.099997 0.085487 255 220 0
0.600881 0.078292 0.047616 255 220 0
0.535226 0.126346 0.075204 255 220 0
0.571159 0.051075 0.080035 255 220 0
0.557696 0.051568 0.018225 255 220 0
0.517502 0.076251 0.040297 255 220 0
0.551618 0.077614 0.085700 255 220 0
0.524824 0.022602 0.022755 255 220 0
0.584723 0.053805 0.035125 255 220 0
0.583140 0.084426 0.021099 255 220 0
0.562068 0.093536 0.092429 255 220 0
0.597252 0.070963 0.044708 255 220 0
0.597697 0.168855 0.062741 255 220 0
0.525328 0.082802 0.062575 255 220 0
0.548590 0.120117 0.088697 255 220 0
0.567656 0.174394 0.076542 255 220 0
0.597097 0.114275 0.089740 255 220 0
0.566522 0.034044 0.068974 255 220 0
0.573566 0.103492 0.015696 255 220 0
0.577489 0.064269 0.085521 255 220 0
0.596682 0.128326 0.029708 255 220 0
0.586176 0.167684 0.043465 255 220 0
0.582989 0.178169 0.069586 255 220 0
0.524910 0.068562 0.023248 255 220 0
0.598931 0.083039 0.038403 255 220 0
0.595522 0.169115 0.073233 255 220 0
0.530103 0.012075 0.051852 255 220 0
0.595093 0.097142 0.027654 255 220 0
0.606782 0.146841 0.065256 255 220 0
0.577253 0.170486 0.083595 255 220 0
0.571877 0.161577 0.033628 255 220 0
0.563002 0.079153 0.015148 255 220 0
0.603899 0.086134 0.049080 255 220 0
0.579734 0.038692 0.048561 255 220 0
0.525530 0.065363 0.062665 255 220 0
0.567918 0.091363 0.093091 255 220 0
0.555863 0.029192 0.066999 255 220 0
0.523004 0.103074 0.056682 255 220 0
0.551682 0.063925 0.082387 255 220 0
0.588027 0.104736 0.021551 255 220 0
0.542341 0.040586 0.017967 255 220 0
0.531436 0.144331 0.047041 255 220 0
0.556545 0.137144 0.093468 255 220 0
0.559801 0.078054 0.014890 255 220 0
0.602316 0.160816 0.064697 255 220 0
0.578141 0.040209 0.039638 255 220 0
0.530596 0.023900 0.060402 255 220 0
0.556400 0.030514 0.067933 255 220 0
0.595487 0.106953 0.090372 255 220 0
0.601861 0.146512 0.081611 255 220 0
0.538979 0.086297 0.078437 255 220 0
0.581877 0.135155 0.022549 255 220 0
0.565564 0.175077 0.049826 255 220 0
0.596769 0.166413 0.053823 255 220 0
0.546133 0.154292 0.033896 255 220 0
0.518357 0.055239 0.026817 255 220 0
0.526867 0.127595 0.036703 255 220 0
0.523521 0.107019 0.031103 255 220 0
0.565613 0.165975 0.084928 255 220 0
0.546131 0.142850 0.084307 255 220 0
0.565140 0.092668 0.092915 255 220 0
0.584344 0.104839 0.095426 255 220 0
0.587797 0.098783 0.093281 255 220 0
0.573387 0.145348 0.096952 255 220 0
0.599623 0.133390 0.034169 255 220 0
0.604315 0.135461 0.041402 255 220 0
0.606853 0.110527 0.075753 255 220 0
0.529458 0.027076 0.020966 255 220 0
0.528267 0.132200 0.059159 255 220 0
0.578864 0.160088 0.034049 255 220 0
0.535186 0.092312 0.075626 255 220 0
0.593118 0.063707 0.041617 255 220 0
0.544525 0.078771 0.081582 255 220 0
0.571684 0.057928 0.021839 255 220 0
0.601802 0.076863 0.055596 255 220 0
0.602604 0.126659 0.083434 255 220 0
0.591506 0.097784 0.091159 255 220 0
0.568664 0.112062 0.096635 255 220 0
0.558407 0.042058 0.021360 255 220 0
0.602363 0.077732 0.058850 255 220 0
0.550190 0.076942 0.084828 255 220 0
0.547789 0.032295 0.021332 255 220 0
0.585218 0.108403 0.019946 255 220 0
0.521561 0.111176 0.039951 255 220 0
0.519670 0.096308 0.047191 255 220 0
0.562835 0.026507 0.063113 255 220 0
0.567111 0.032462 0.067335 255 220 0
0.562582 0.082651 0.090332 255 220 0
0.520381 0.058913 0.056063 255 220 0
0.584183 0.126447 0.096859 255 220 0
0.565405 0.067656 0.086818 255 220 0
0.598368 0.144000 0.037531 255 220 0
0.586178 0.173692 0.077660 255 220 0
0.562625 0.143383 0.095135 255 220 0
0.602959 0.152047 0.050573 255 220 0
0.588288 0.051760 0.046121 255 220 0
0.530147 0.139059 0.040446 255 220 0
0.529322 0.114281 0.025802 255 220 0
0.534956 0.035381 0.018776 255 220 0
0.592943 0.057655 0.052404 255 220 0
0.550528 0.050144 0.077523 255 220 0
0.542467 0.081236 0.015558 255 220 0
0.539474 0.117467 0.019317 255 220 0
0.512292 0.049088 0.034526 255 220 0
0.542115 0.109647 0.083152 255 220 0
0.523370 0.080638 0.059335 255 220 0
0.604992 0.124654 0.079861 255 220 0
0.602084 0.078157 0.067152 255 220 0
0.524105 0.087001 0.060436 255 220 0
0.585686 0.113771 0.020290 255 220 0
0.533584 0.033177 0.064302 255 220 0
0.578739 0.062616 0.024473 255 220 0
0.547008 0.099668 0.086453 255 220 0
0.587182 0.074678 0.026789 255 220 0
0.595220 0.102986 0.089843 255 220 0
0.572909 0.059026 0.022146 255 220 0
0.578479 0.125888 0.097983 255 220 0
0.536434 0.013159 0.053805 255 220 0
0.549589 0.108470 0.014962 255 220 0
0.568228 0.177954 0.069145 255 220 0
0.565633 0.064489 0.017661 255 220 0
0.511130 0.043963 0.044269 255 220 0
0.582939 0.118734 0.019402 255 220 0
0.567607 0.174215 0.047163 255 220 0
0.597233 0.155617 0.043565 255 220 0
0.593372 0.121442 0.092542 255 220 0
0.532158 0.007785 0.043051 255 220 0
0.567235 0.041328 0.026459 255 220 0
0.546608 0.038884 0.018861 255 220 0
0.540047 0.068302 0.076127 255 220 0
0.558316 0.157775 0.087440 255 220 0
0.568072 0.170422 0.081613 255 220 0
0.534575 0.009941 0.049229 255 220 0
0.558011 0.057893 0.016996 255 220 0
0.542438 0.160880 0.061759 255 220 0
0.608825 0.123220 0.050004 255 220 0
0.536078 0.058238 0.016953 255 220 0
0.607518 0.129558 0.073476 255 220 0
0.571316 0.043668 0.028070 255 220 0
0.601663 0.085624 0.042651 255 220 0
0.598687 0.149903 0.084905 255 220 0
0.524485 0.011570 0.049347 255 220 0
0.539938 0.016003 0.029142 255 220 0
0.583035 0.095675 0.094067 255 220 0
0.515973 0.062111 0.034739 255 220 0
0.581061 0.075035 0.022102 255 220 0
0.565068 0.139374 0.020569 255 220 0
0.550233 0.166528 0.045110 255 220 0
0.528172 0.135650 0.054205 255 220 0
0.522034 0.110107 0.036441 255 220 0
0.522678 0.071264 0.058493 255 220 0
0.512859 0.027851 0.025898 255 220 0
0.596285 0.095298 0.086718 255 220 0
0.549850 0.083956 0.014546 255 220 0
0.601371 0.153451 0.048317 255 220 0
0.548892 0.168070 0.052780 255 220 0
0.594670 0.118499 0.026427 255 220 0
0.598050 0.125352 0.030388 255 220 0
0.524369 0.070649 0.061101 255 220 0
0.536704 0.150661 0.064365 255 220 0
0.556788 0.070494 0.086014 255 220 0
0.564196 0.124440 0.016241 255 220 0
0.547726 0.133829 0.087559 255 220 0
0.538802 0.144549 0.074170 255 220 0
0.591185 0.129038 0.093770 255 220 0
0.507362 0.030133 0.034210 255 220 0
0.512870 0.017657 0.030428 255 220 0
0.582711 0.052021 0.033762 255 220 0
0.568427 0.028499 0.061899 255 220 0
0.593526 0.069553 0.037232 255 220 0
0.541560 0.019496 0.026539 255 220 0
0.589083 0.176552 0.064775 255 220 0
0.585860 0.062497 0.082091 255 220 0
0.549738 0.160200 0.077365 255 220 0
0.594125 0.059330 0.066911 255 220 0
0.587324 0.137209 0.095567 255 220 0
0.581397 0.050486 0.076591 255 220 0
0.540542 0.097228 0.080924 255 220 0
0.572626 0.130524 0.018286 255 220 0
0.560137 0.125631 0.016508 255 220 0
0.573941 0.109140 0.015894 255 220 0
0.600909 0.085677 0.040789 255 220 0
0.540923 0.057252 0.074398 255 220 0
0.563957 0.117399 0.015211 255 220 0
0.603767 0.121675 0.082090 255 220 0
0.524841 0.083301 0.061772 255 220 0
0.581793 0.093177 0.093729 255 220 0
0.553792 0.075935 0.086297 255 220 0
0.515226 0.059911 0.045497 255 220 0
0.571737 0.036985 0.033614 255 220 0
0.536272 0.105150 0.077477 255 220 0
0.603449 0.156351 0.058432 255 220 0
0.581249 0.042171 0.044063 255 220 0
0.542658 0.121791 0.083812 255 220 0
0.567102 0.162318 0.033801 255 220 0
0.604673 0.087909 0.069378 255 220 0
0.530724 0.017117 0.057022 255 220 0
0.572415 0.140276 0.021436 255 220 0
0.597781 0.167903 0.069686 255 220 0
0.535001 0.150248 0.045761 255 220 0
0.551518 0.147507 0.026455 255 220 0
0.523718 0.121837 0.048569 255 220 0
0.517561 0.068406 0.034029 255 220 0
0.532239 0.018028 0.057953 255 220 0
0.585896 0.054641 0.036218 255 220 0
0.580446 0.170342 0.043256 255 220 0
0.585528 0.178151 0.061941 255 220 0
0.603424 0.153954 0.054400 255 220 0
0.608571 0.136917 0.059377 255 220 0
0.589476 0.169748 0.048036 255 220 0
0.529391 0.135027 0.060377 255 220 0
0.540008 0.105730 0.081117 255 220 0
0.506850 0.028374 0.036739 255 220 0
0.568692 0.106566 0.095922 255 220 0
0.534282 0.012691 0.030600 255 220 0
0.521184 0.086645 0.054540 255 220 0
0.573290 0.032021 0.044171 255 220 0
0.595340 0.128865 0.028696 255 220 0
0.588040 0.066577 0.031034 255 220 0
0.582134 0.160276 0.035367 255 220 0
0.607619 0.103786 0.071351 255 220 0
0.570745 0.101791 0.095470 255 220 0
0.609033 0.116268 0.069408 255 220 0
0.576876 0.118701 0.097716 255 220 0
0.536776 0.028082 0.020743 255 220 0
0.577505 0.039472 0.068323 255 220 0
0.606648 0.146615 0.067707 255 220 0
0.517592 0.073539 0.036983 255 220 0
0.535213 0.064832 0.071816 255 220 0
0.549205 0.070876 0.014961 255 220 0
0.586326 0.177629 0.060006 255 220 0
0.523395 0.119861 0.049576 255 220 0
0.560111 0.039406 0.073737 255 220 0
0.572856 0.179313 0.067422 255 220 0
0.571258 0.152743 0.027791 255 220 0
0.564227 0.157209 0.090783 255 220 0
0.546024 0.067755 0.080249 255 220 0
0.532679 0.014785 0.055345 255 220 0
0.519825 0.091725 0.035106 255 220 0
0.555660 0.145571 0.091342 255 220 0
0.565291 0.024834 0.059371 255 220 0
0.563107 0.035220 0.027341 255 220 0
0.597794 0.109954 0.088825 255 220 0
0.552973 0.145160 0.089651 255 220 0
0.580740 0.039813 0.049327 255 220 0
0.521609 0.059266 0.057729 255 220 0
0.590303 0.061115 0.077703 255 220 0
0.543451 0.087190 0.082196 255 220 0
0.582046 0.164983 0.087758 255 220 0
0.572219 0.047392 0.026625 255 220 0
0.538359 0.052698 0.071737 255 220 0
0.525167 0.039406 0.060547 255 220 0
0.579807 0.111701 0.096917 255 220 0
0.544400 0.083718 0.015186 255 220 0
0.580692 0.039033 0.053359 255 220 0
0.566176 0.040082 0.073754 255 220 0
0.550941 0.020125 0.031260 255 220 0
0.566032 0.023087 0.053679 255 220 0
0.544411 0.161276 0.044553 255 220 0
0.591538 0.084353 0.027472 255 220 0
0.519373 0.058395 0.054671 255 220 0
0.512809 0.022832 0.026992 255 220 0
0.587817 0.127266 0.095521 255 220 0
0.568002 0.044279 0.076354 255 220 0
0.561047 0.127983 0.095920 255 220 0
0.552904 0.104503 0.014397 255 220 0
0.560111 0.169353 0.041605 255 220 0
0.560820 0.163471 0.035313 255 220 0
0.541342 0.061915 0.015965 255 220 0
0.569318 0.104619 0.095734 255 220 0
0.547934 0.043967 0.017898 255 220 0
0.548959 0.152400 0.030687 255 220 0
0.587661 0.119883 0.021779 255 220 0
0.541544 0.093408 0.081394 255 220 0
0.605569 0.139174 0.076407 255 220 0
0.533726 0.093651 0.074173 255 220 0
0.553970 0.093993 0.089876 255 220 0
0.598650 0.074435 0.044921 255 220 0
0.518934 0.052319 0.054887 255 220 0
0.518570 0.015201 0.028835 255 220 0
0.550539 0.089368 0.014387 255 220 0
0.574420 0.162118 0.090103 255 220 0
0.546118 0.032297 0.020860 255 220 0
0.598690 0.118158 0.030409 255 220 0
0.549476 0.063699 0.081266 255 220 0
0.512353 0.017908 0.030748 255 220 0
0.579210 0.038381 0.047190 255 220 0
0.599350 0.154267 0.045415 255 220 0
0.592334 0.088771 0.088113 255 220 0
0.551924 0.095601 0.014243 255 220 0
0.546330 0.158308 0.074564 255 220 0
0.519025 0.063618 0.028811 255 220 0
0.587707 0.168436 0.045241 255 220 0
0.565049 0.171013 0.079445 255 220 0
0.541274 0.124700 0.020487 255 220 0
0.603517 0.157481 0.068104 255 220 0
0.543691 0.101092 0.015526 255 220 0
0.579909 0.136524 0.097882 255 220 0
0.602105 0.153912 0.050470 255 220 0
0.579649 0.086416 0.092293 255 220 0
0.604896 0.089875 0.048595 255 220 0
0.564102 0.033905 0.069480 255 220 0
0.540415 0.125935 0.081464 255 220 0
0.592339 0.055396 0.062955 255 220 0
0.583345 0.127724 0.021129 255 220 0
0.542401 0.144934 0.028962 255 220 0
0.534885 0.150821 0.055829 255 220 0
0.570477 0.134344 0.019018 255 220 0
0.564359 0.131905 0.017958 255 220 0
0.569801 0.076594 0.089714 255 220 0
0.538900 0.157136 0.051217 255 220 0
0.599124 0.089742 0.035028 255 220 0
0.521296 0.102294 0.051878 255 220 0
0.538679 0.085519 0.016651 255 220 0
0.520033 0.101298 0.039248 255 220 0
0.565042 0.022035 0.052130 255 220 0
0.522434 0.018602 0.024956 255 220 0
0.538839 0.090418 0.078820 255 220 0
0.605232 0.090234 0.069685 255 220 0
0.536928 0.153362 0.059803 255 220 0
0.538346 0.028162 0.064483 255 220 0
0.539821 0.024538 0.022758 255 220 0
0.541026 0.141522 0.027798 255 220 0
0.586765 0.046910 0.055458 255 220 0
0.580616 0.077971 0.021089 255 220 0
0.529583 0.106177 0.068919 255 220 0
0.595862 0.094459 0.029032 255 220 0
0.588603 0.057545 0.076589 255 220 0
0.540828 0.134850 0.080618 255 220 0
0.511481 0.048521 0.038135 255 220 0
0.594010 0.150373 0.089362 255 220 0
0.608043 0.139472 0.066050 255 220 0
0.577093 0.079599 0.018927 255 220 0
0.597345 0.066898 0.069315 255 220 0
0.577870 0.145429 0.096965 255 220 0
0.535296 0.140532 0.032325 255 220 0
0.590079 0.121960 0.094437 255 220 0
0.568894 0.165298 0.086741 255 220 0
0.524651 0.095126 0.061063 255 220 0
0.586747 0.050189 0.071023 255 220 0
0.587542 0.167679 0.083563 255 220 0
0.545837 0.066530 0.079840 255 220 0
0.568912 0.084604 0.015630 255 220 0
0.550599 0.048067 0.017522 255 220 0
0.532244 0.015728 0.026951 255 220 0
0.541356 0.158756 0.046025 255 220 0
0.530483 0.123581 0.028309 255 220 0
0.598012 0.110419 0.088674 255 220 0
0.606395 0.132593 0.044739 255 220 0
0.593578 0.166624 0.049016 255 220 0
0.608022 0.138746 0.056131 255 220 0
0.593440 0.057338 0.062482 255 220 0
0.572892 0.074513 0.018124 255 220 0
0.564115 0.156173 0.029672 255 220 0
0.599637 0.142901 0.085477 255 220 0
0.526092 0.067353 0.022087 255 220 0
0.512646 0.038886 0.049086 255 220 0
0.512797 0.032053 0.050755 255 220 0
0.540249 0.111580 0.017749 255 220 0
0.590949 0.062778 0.037779 255 220 0
0.521600 0.012586 0.031051 255 220 0
0.581211 0.152696 0.094455 255 220 0
0.540931 0.156873 0.066019 255 220 0
0.581213 0.062009 0.083730 255 220 0
0.570562 0.113804 0.097075 255 220 0
0.594471 0.059278 0.062615 255 220 0
0.529025 0.020003 0.058321 255 220 0
0.534118 0.135902 0.030706 255 220 0
0.572892 0.033188 0.064232 255 220 0
0.562664 0.172312 0.045151 255 220 0
0.558150 0.041751 0.075069 255 220 0
0.536441 0.031784 0.065184 255 220 0
0.582422 0.069971 0.024524 255 220 0
0.549692 0.162336 0.039491 255 220 0
0.608652 0.123980 0.049417 255 220 0
0.596678 0.072670 0.041371 255 220 0
0.538083 0.150238 0.037914 255 220 0
0.597864 0.075475 0.077275 255 220 0
0.592084 0.143791 0.032077 255 220 0
0.535398 0.120763 0.076182 255 220 0
0.568969 0.132308 0.018273 255 220 0
0.558588 0.150053 0.091559 255 220 0
0.524895 0.080755 0.061893 255 220 0
0.578466 0.044315 0.034960 255 220 0
0.529176 0.134716 0.037830 255 220 0
0.529368 0.024366 0.060099 255 220 0
0.547858 0.035707 0.020041 255 220 0
0.553322 0.162539 0.079191 255 220 0
0.588247 0.072047 0.028836 255 220 0
0.588552 0.137195 0.094980 255 220 0
0.539047 0.011940 0.034110 255 220 0
0.535017 0.150375 0.058587 255 220 0
0.600280 0.102141 0.084689 255 220 0
0.592121 0.106361 0.024240 255 220 0
0.548394 0.087168 0.014608 255 220 0
0.562777 0.067919 0.086577 255 220 0
0.601424 0.140713 0.039408 255 220 0
0.514455 0.058705 0.037601 255 220 0
0.559948 0.170286 0.076517 255 220 0
0.600383 0.083653 0.077278 255 220 0
0.550448 0.013451 0.042018 255 220 0
0.587654 0.102111 0.093986 255 220 0
0.560672 0.112356 0.014650 255 220 0
0.609196 0.108963 0.066671 255 220 0
0.585354 0.083392 0.090329 255 220 0
0.563292 0.154938 0.091609 255 220 0
0.555184 0.107198 0.092236 255 220 0
0.604270 0.083875 0.065111 255 220 0
0.574104 0.177632 0.053657 255 220 0
0.534539 0.073355 0.072713 255 220 0
0.533693 0.048553 0.017643 255 220 0
0.522241 0.107613 0.053243 255 220 0
0.604011 0.156599 0.065528 255 220 0
0.598240 0.075110 0.043058 255 220 0
0.608931 0.105197 0.066029 255 220 0
0.532166 0.069303 0.070004 255 220 0
0.572825 0.107761 0.015612 255 220 0
0.538131 0.127584 0.078737 255 220 0
0.526658 0.086001 0.064706 255 220 0
0.588609 0.130928 0.024715 255 220 0
0.606360 0.102630 0.074564 255 220 0
0.529909 0.011075 0.050413 255 220 0
0.597434 0.168665 0.059958 255 220 0
0.549434 0.019975 0.060021 255 220 0
0.507987 0.024070 0.043739 255 220 0
0.537234 0.017732 0.026473 255 220 0
0.521255 0.100058 0.052440 255 220 0
0.546737 0.056262 0.077763 255 220 0
0.562448 0.097272 0.093191 255 220 0
0.541998 0.009249 0.044009 255 220 0
0.608315 0.117275 0.072341 255 220 0
0.606473 0.143751 0.071709 255 220 0
0.539689 0.020612 0.060593 255 220 0
0.531051 0.010065 0.033866 255 220 0
0.533848 0.009564 0.048508 255 220 0
0.539431 0.097006 0.079960 255 220 0
0.599558 0.087390 0.080157 255 220 0
0.538778 0.128458 0.023203 255 220 0
0.567874 0.118354 0.015579 255 220 0
0.520822 0.079234 0.054458 255 220 0
0.527359 0.116591 0.063761 255 220 0
0.535369 0.123211 0.023588 255 220 0
0.543609 0.083616 0.015331 255 220 0
0.510778 0.038493 0.046205 255 220 0
0.542617 0.010653 0.039534 255 220 0
0.531967 0.012560 0.052785 255 220 0
0.519472 0.095936 0.046027 255 220 0
0.585295 0.149251 0.030175 255 220 0
0.562994 0.058159 0.083332 255 220 0
0.525495 0.019274 0.024223 255 220 0
0.534081 0.066802 0.017687 255 220 0
0.510909 0.024012 0.049008 255 220 0
0.540144 0.047999 0.071787 255 220 0
0.541142 0.145028 0.029893 255 220 0
0.591287 0.055151 0.050676 255 220 0
0.521201 0.009839 0.039228 255 220 0
0.542013 0.028947 0.021210 255 220 0
0.574109 0.115041 0.097449 255 220 0
0.568686 0.090426 0.015129 255 220 0
0.517764 0.072336 0.047279 255 220 0
0.545996 0.018587 0.059036 255 220 0
0.535808 0.082225 0.017664 255 220 0
0.593302 0.110272 0.092273 255 220 0
0.563580 0.156581 0.090870 255 220 0
0.527414 0.060033 0.064519 255 220 0
0.602267 0.152961 0.049821 255 220 0
0.538251 0.011053 0.035146 255 220 0
0.525375 0.116028 0.059418 255 220 0
0.536268 0.122963 0.022846 255 220 0
0.520351 0.074909 0.053882 255 220 0
0.560895 0.147406 0.024678 255 220 0
0.579693 0.088832 0.092922 255 220 0
0.551703 0.161283 0.078662 255 220 0
0.522652 0.112301 0.052542 255 220 0
0.601116 0.090435 0.079074 255 220 0
0.529385 0.132760 0.035555 255 220 0
0.586561 0.051147 0.072564 255 220 0
0.554377 0.055088 0.080597 255 220 0
0.571291 0.055568 0.082329 255 220 0
0.515590 0.051679 0.029204 255 220 0
0.533612 0.062578 0.017713 255 220 0
0.605856 0.088479 0.056925 255 220 0
0.564356 0.113348 0.014830 255 220 0
0.590192 0.082671 0.026746 255 220 0
0.551761 0.056716 0.016275 255 220 0
0.552821 0.014855 0.041940 255 220 0
0.569805 0.158926 0.091441 255 220 0
0.544410 0.043054 0.072520 255 220 0
0.601226 0.078425 0.071564 255 220 0
0.530402 0.107992 0.070084 255 220 0
0.571747 0.135309 0.019488 255 220 0
0.606869 0.096581 0.049772 255 220 0
0.604236 0.138001 0.079540 255 220 0
0.529418 0.133850 0.061467 255 220 0
0.568069 0.073154 0.088655 255 220 0
0.548237 0.067393 0.081535 255 220 0
0.594916 0.074100 0.036715 255 220 0
0.522130 0.012925 0.050087 255 220 0
0.511911 0.024804 0.050253 255 220 0
0.531550 0.104278 0.021407 255 220 0
0.605851 0.088695 0.063692 255 220 0
0.556607 0.164022 0.037053 255 220 0
0.526510 0.129558 0.039994 255 220 0
0.527911 0.099209 0.023718 255 220 0
0.572529 0.052752 0.080787 255 220 0
0.535302 0.061158 0.071229 255 220 0
0.570199 0.067146 0.086937 255 220 0
0.600466 0.099209 0.033774 255 220 0
0.539450 0.013460 0.054142 255 220 0
0.508710 0.035937 0.042534 255 220 0
0.570647 0.094641 0.015253 255 220 0
0.560492 0.103610 0.014188 255 220 0
0.600124 0.072084 0.057883 255 220 0
0.554767 0.151985 0.028344 255 220 0
0.588826 0.122509 0.095036 255 220 0
0.609479 0.120603 0.052934 255 220 0
0.606945 0.137670 0.049343 255 220 0
0.514770 0.027449 0.024642 255 220 0
0.583733 0.158527 0.034881 255 220 0
0.521085 0.061009 0.056846 255 220 0
0.573166 0.150442 0.095584 255 220 0
0.514578 0.057768 0.035637 255 220 0
0.581547 0.042047 0.045440 255 220 0
0.570068 0.027541 0.046904 255 220 0
0.607929 0.140301 0.065920 255 220 0
0.554542 0.128669 0.017768 255 220 0
0.586805 0.130549 0.023579 255 220 0
0.535128 0.135226 0.029240 255 220 0
0.533108 0.143421 0.038362 255 220 0
0.510101 0.043557 0.040015 255 220 0
0.582439 0.067482 0.085821 255 220 0
0.559482 0.085364 0.014419 255 220 0
0.520771 0.096283 0.033575 255 220 0
0.546556 0.015528 0.033925 255 220 0
0.532242 0.096286 0.072589 255 220 0
0.539759 0.147238 0.073968 255 220 0
0.590711 0.059064 0.075387 255 220 0
0.590565 0.088752 0.089324 255 220 0
0.590123 0.077178 0.086247 255 220 0
0.526503 0.089443 0.064471 255 220 0
0.523008 0.118883 0.042202 255 220 0
0.579352 0.089480 0.093115 255 220 0
0.542407 0.143590 0.028116 255 220 0
0.604820 0.152405 0.057984 255 220 0
0.567734 0.082639 0.015587 255 220 0
0.603231 0.095093 0.077673 255 220 0
0.551514 0.081826 0.014502 255 220 0
0.541359 0.159773 0.048892 255 220 0
0.561581 0.162194 0.086192 255 220 0
0.552065 0.158378 0.081700 255 220 0
0.547726 0.150155 0.029606 255 220 0
0.566179 0.027187 0.038298 255 220 0
0.538945 0.115287 0.080424 255 220 0
0.607704 0.137061 0.052192 255 220 0
0.528796 0.089285 0.067902 255 220 0
0.609140 0.132032 0.057900 255 220 0
0.607364 0.101048 0.070752 255 220 0
0.543651 0.118404 0.017824 255 220 0
0.508976 0.039659 0.037098 255 220 0
0.596390 0.087183 0.032074 255 220 0
0.523385 0.106778 0.056902 255 220 0
0.586454 0.080395 0.024287 255 220 0
0.584997 0.167203 0.085167 255 220 0
0.562647 0.027677 0.033212 255 220 0
0.558174 0.143462 0.093257 255 220 0
0.518139 0.079090 0.037445 255 220 0
0.561670 0.162263 0.086187 255 220 0
0.607716 0.142339 0.061044 255 220 0
0.591495 0.080138 0.028996 255 220 0
0.608041 0.101095 0.067937 255 220 0
0.538491 0.107838 0.017924 255 220 0
0.559021 0.152645 0.090726 255 220 0
0.560331 0.083198 0.089956 255 220 0
0.575915 0.062902 0.022571 255 220 0
0.572338 0.032583 0.040407 255 220 0
0.525404 0.128404 0.045047 255 220 0
0.589203 0.054114 0.044459 255 220 0
0.573471 0.171525 0.082134 255 220 0
0.538749 0.155255 0.045166 255 220 0
0.597896 0.074210 0.076351 255 220 0
0.583575 0.042968 0.052190 255 220 0
0.592165 0.109793 0.024199 255 220 0
0.604487 0.122669 0.038733 255 220 0
0.574590 0.113428 0.016272 255 220 0
0.589182 0.065872 0.081851 255 220 0
0.521478 0.022584 0.056148 255 220 0
0.607147 0.143538 0.056738 255 220 0
