ply
format ascii 1.0
element vertex 1024
property float x
property float y
property float z
property uchar red
property uchar green
property uchar blue
end_header
0.609357 0.169224 0.062040 255 220 0
0.621162 0.044364 0.036208 255 220 0
0.597823 0.001517 0.056610 255 220 0
0.595175 0.003211 0.046363 255 220 0
0.640397 0.070206 0.043334 255 220 0
0.567818 0.066695 0.057370 255 220 0
0.602594 0.126606 0.100636 255 220 0
0.574856 0.035128 0.073361 255 220 0
0.592824 -0.000875 0.063561 255 220 0
0.640699 0.085971 0.037578 255 220 0
0.646982 0.076738 0.052606 255 220 0
0.603539 0.014843 0.040357 255 220 0
0.577026 0.052128 0.077050 255 220 0
0.569384 0.090970 0.057858 255 220 0
0.638893 0.152162 0.084458 255 220 0
0.596025 0.161384 0.065812 255 220 0
0.574885 0.023390 0.030019 255 220 0
0.649892 0.118561 0.048771 255 220 0
0.619495 0.065923 0.102738 255 220 0
0.602914 0.150215 0.034793 255 220 0
0.602582 0.004861 0.055629 255 220 0
0.647543 0.133889 0.051073 255 220 0
0.583190 -0.000483 0.064788 255 220 0
0.623162 0.123886 0.025784 255 220 0
0.623213 0.100402 0.023948 255 220 0
0.582469 0.016868 0.076085 255 220 0
0.563967 0.000923 0.046716 255 220 0
0.623145 0.165961 0.081644 255 220 0
0.610407 0.101562 0.020451 255 220 0
0.642759 0.061716 0.077102 255 220 0
0.622739 0.044778 0.094767 255 220 0
0.617603 0.048330 0.032188 255 220 0
0.615630 0.055488 0.028985 255 220 0
0.629451 0.078690 0.029948 255 220 0
0.572654 0.073792 0.032510 255 220 0
0.616913 0.169448 0.075305 255 220 0
0.630948 0.103354 0.027536 255 220 0
0.610683 0.017181 0.045521 255 220 0
0.596882 0.065034 0.022863 255 220 0
0.573580 0.098073 0.070831 255 220 0
0.596069 0.057006 0.095143 255 220 0
0.603814 0.004800 0.062417 255 220 0
0.583517 0.133524 0.035236 255 220 0
0.613088 0.140467 0.100581 255 220 0
0.639855 0.067309 0.044220 255 220 0
0.567357 0.057861 0.058053 255 220 0
0.569917 0.100832 0.055618 255 220 0
0.596165 0.004985 0.044477 255 220 0
0.629448 0.068084 0.032902 255 220 0
0.587537 0.029764 0.028140 255 220 0
0.580616 0.116113 0.029793 255 220 0
0.646190 0.106271 0.041262 255 220 0
0.585263 0.078775 0.023206 255 220 0
0.625248 0.037059 0.044909 255 220 0
0.623525 0.059029 0.100519 255 220 0
0.560794 0.029756 0.050349 255 220 0
0.638649 0.092018 0.097940 255 220 0
0.593185 0.154168 0.077904 255 220 0
0.624075 0.071274 0.028742 255 220 0
0.593297 0.121016 0.096005 255 220 0
0.615646 0.056711 0.028661 255 220 0
0.575394 0.081380 0.076079 255 220 0
0.577119 0.001659 0.038134 255 220 0
0.613223 0.102692 0.020966 255 220 0
0.596884 0.127740 0.024649 255 220 0
0.574928 0.126654 0.050021 255 220 0
0.651465 0.101479 0.052907 255 220 0
0.624569 0.166005 0.052220 255 220 0
0.589929 0.149078 0.079123 255 220 0
0.639090 0.130293 0.038330 255 220 0
0.627314 0.143577 0.035240 255 220 0
0.576129 0.020154 0.072923 255 220 0
0.645545 0.070615 0.078858 255 220 0
0.587885 0.005314 0.038269 255 220 0
0.619053 0.102684 0.106114 255 220 0
0.591473 0.152300 0.077517 255 220 0
0.616201 0.032369 0.089258 255 220 0
0.597435 0.066947 0.097388 255 220 0
0.563156 0.040977 0.046576 255 220 0
0.652742 0.119149 0.058634 255 220 0
0.618319 0.142281 0.100131 255 220 0
0.580835 0.073950 0.083753 255 220 0
0.651717 0.107703 0.053045 255 220 0
0.604867 0.139778 0.098444 255 220 0
0.568679 0.093025 0.048825 255 220 0
0.559683 0.023660 0.051357 255 220 0
0.597970 0.071643 0.098205 255 220 0
0.648287 0.123933 0.047459 255 220 0
0.648985 0.084289 0.080345 255 220 0
0.573331 0.031918 0.071486 255 220 0
0.592914 0.077007 0.021434 255 220 0
0.646562 0.139976 0.079329 255 220 0
0.647365 0.140813 0.075880 255 220 0
0.579486 0.134882 0.069728 255 220 0
0.611780 0.160445 0.087237 255 220 0
0.560830 0.025362 0.040804 255 220 0
0.636981 0.119971 0.033220 255 220 0
0.591700 0.084395 0.095608 255 220 0
0.589356 0.032486 0.027708 255 220 0
0.636212 0.146925 0.043493 255 220 0
0.568096 0.063080 0.040408 255 220 0
0.643367 0.151065 0.058507 255 220 0
0.622065 0.091227 0.105643 255 220 0
0.646621 0.128415 0.085057 255 220 0
0.623867 0.025825 0.058206 255 220 0
0.607127 0.018216 0.081310 255 220 0
0.625204 0.127016 0.102385 255 220 0
0.633942 0.165488 0.071631 255 220 0
0.613187 0.127596 0.024494 255 220 0
0.582115 -0.003889 0.050410 255 220 0
0.570244 0.100146 0.058263 255 220 0
0.635388 0.104754 0.030383 255 220 0
0.600023 0.053819 0.096197 255 220 0
0.604325 0.066587 0.023359 255 220 0
0.622260 0.170706 0.063942 255 220 0
0.597690 0.162769 0.060241 255 220 0
0.579301 0.084584 0.082030 255 220 0
0.644943 0.140213 0.082925 255 220 0
0.621019 0.120286 0.024302 255 220 0
0.576556 0.108054 0.075818 255 220 0
0.599464 0.145734 0.032831 255 220 0
0.599673 0.151027 0.089359 255 220 0
0.560381 0.022237 0.040274 255 220 0
0.639182 0.054006 0.053938 255 220 0
0.652485 0.095672 0.058918 255 220 0
0.646947 0.128466 0.084454 255 220 0
0.588986 0.144246 0.038324 255 220 0
0.569212 0.055589 0.037047 255 220 0
0.642839 0.145563 0.083429 255 220 0
0.589284 0.132012 0.029260 255 220 0
0.590235 0.079737 0.094212 255 220 0
0.602427 0.057693 0.097880 255 220 0
0.653042 0.097364 0.070301 255 220 0
0.579002 0.097919 0.081165 255 220 0
0.590491 0.145660 0.083827 255 220 0
0.593213 0.135004 0.092798 255 220 0
0.564406 0.045055 0.044426 255 220 0
0.603490 0.085692 0.101864 255 220 0
0.569170 0.088081 0.040914 255 220 0
0.634471 0.095473 0.101372 255 220 0
0.627415 0.040790 0.088503 255 220 0
0.570626 0.067479 0.066608 255 220 0
0.571491 0.106794 0.061082 255 220 0
0.568669 0.032704 0.033322 255 220 0
0.570565 0.076677 0.065546 255 220 0
0.591227 0.149035 0.081566 255 220 0
0.577369 0.132491 0.048061 255 220 0
0.644508 0.151380 0.069484 255 220 0
0.580591 -0.001494 0.062822 255 220 0
0.651022 0.097289 0.052404 255 220 0
0.586162 0.097360 0.022504 255 220 0
0.594075 0.099897 0.097665 255 220 0
0.560053 0.021109 0.040506 255 220 0
0.575868 0.124410 0.067352 255 220 0
0.583083 0.120911 0.084178 255 220 0
0.620717 0.025740 0.078606 255 220 0
0.584353 0.065681 0.087195 255 220 0
0.643080 0.107835 0.094405 255 220 0
0.614909 0.021624 0.080660 255 220 0
0.650365 0.084124 0.074530 255 220 0
0.571305 0.101380 0.062847 255 220 0
0.559563 0.024542 0.049666 255 220 0
0.589281 0.120201 0.092446 255 220 0
0.633872 0.087186 0.031178 255 220 0
0.592933 0.122789 0.095474 255 220 0
0.604695 0.065421 0.023619 255 220 0
0.602854 0.017327 0.037885 255 220 0
0.585332 0.073200 0.089126 255 220 0
0.612529 0.168394 0.056286 255 220 0
0.626493 0.031783 0.076476 255 220 0
0.590876 0.040801 0.026340 255 220 0
0.642011 0.152922 0.057321 255 220 0
0.589514 0.106630 0.022178 255 220 0
0.588206 0.131712 0.088581 255 220 0
0.578193 0.078782 0.027021 255 220 0
0.575266 0.057160 0.075131 255 220 0
0.598016 0.038265 0.090740 255 220 0
0.595394 0.005250 0.043319 255 220 0
0.637471 0.123332 0.034495 255 220 0
0.581683 0.014362 0.031480 255 220 0
0.629003 0.168897 0.067968 255 220 0
0.578899 0.084941 0.026194 255 220 0
0.599092 0.163657 0.059537 255 220 0
0.602817 0.082445 0.020650 255 220 0
0.585353 0.010164 0.074095 255 220 0
0.565753 0.041821 0.039029 255 220 0
0.579410 -0.004389 0.055502 255 220 0
0.608446 0.164325 0.080349 255 220 0
0.602863 0.009872 0.075211 255 220 0
0.619820 0.039261 0.092633 255 220 0
0.625706 0.027743 0.064251 255 220 0
0.631373 0.105253 0.027756 255 220 0
0.559555 0.025328 0.047127 255 220 0
0.599550 0.084237 0.020215 255 220 0
0.616478 0.170787 0.062788 255 220 0
0.629913 0.041895 0.047334 255 220 0
0.636041 0.073211 0.097423 255 220 0
0.576534 0.025135 0.073945 255 220 0
0.616930 0.020508 0.076635 255 220 0
0.611849 0.066478 0.025114 255 220 0
0.647122 0.128774 0.084007 255 220 0
0.564871 0.045932 0.054365 255 220 0
0.582868 0.145491 0.054198 255 220 0
0.650932 0.083847 0.068500 255 220 0
0.603997 0.166790 0.061203 255 220 0
0.567337 0.069601 0.053692 255 220 0
0.651127 0.104155 0.051561 255 220 0
0.576006 -0.004030 0.053044 255 220 0
0.624182 0.113314 0.104774 255 220 0
0.608114 0.045874 0.096091 255 220 0
0.586393 0.001873 0.067992 255 220 0
0.572973 0.096983 0.069418 255 220 0
0.593151 0.122776 0.095647 255 220 0
0.640575 0.116464 0.095719 255 220 0
0.590472 0.015671 0.078463 255 220 0
0.578097 0.135902 0.052230 255 220 0
0.590011 0.028757 0.084044 255 220 0
0.609754 0.047922 0.097068 255 220 0
0.620161 0.021783 0.055958 255 220 0
0.569556 0.087645 0.039381 255 220 0
0.630541 0.159944 0.048632 255 220 0
0.640785 0.077744 0.093327 255 220 0
0.567264 0.069362 0.053219 255 220 0
0.607297 0.046919 0.028107 255 220 0
0.582302 0.144888 0.059010 255 220 0
0.617249 0.123620 0.104156 255 220 0
0.637109 0.131144 0.036674 255 220 0
0.568846 0.022222 0.032128 255 220 0
0.586982 0.015824 0.077491 255 220 0
0.628881 0.112768 0.026547 255 220 0
0.577051 0.013918 0.031373 255 220 0
0.637087 0.047712 0.056749 255 220 0
0.634355 0.042194 0.072694 255 220 0
0.583699 0.006920 0.071634 255 220 0
0.612242 0.081858 0.104184 255 220 0
0.586978 0.018223 0.030942 255 220 0
0.604285 0.010748 0.075626 255 220 0
0.574784 0.025959 0.029910 255 220 0
0.643982 0.130498 0.043985 255 220 0
0.621840 0.111716 0.105298 255 220 0
0.569891 0.098661 0.042989 255 220 0
0.574045 0.114431 0.039011 255 220 0
0.643460 0.088294 0.092448 255 220 0
0.573878 0.083204 0.073120 255 220 0
0.608558 0.047485 0.028378 255 220 0
0.607887 0.070443 0.101693 255 220 0
0.627554 0.061461 0.099956 255 220 0
0.599098 0.068092 0.098293 255 220 0
0.594217 0.158808 0.053216 255 220 0
0.587532 0.112579 0.091434 255 220 0
0.612111 0.097400 0.020886 255 220 0
0.620853 0.164658 0.049040 255 220 0
0.611099 0.055618 0.099583 255 220 0
0.633297 0.158006 0.049195 255 220 0
0.608067 0.166600 0.075906 255 220 0
0.571573 0.070647 0.068745 255 220 0
0.568304 0.014810 0.066010 255 220 0
0.638930 0.085086 0.096668 255 220 0
0.636745 0.048749 0.053838 255 220 0
0.617461 0.035149 0.090750 255 220 0
0.586580 0.013431 0.076193 255 220 0
0.605051 0.167148 0.060280 255 220 0
0.593726 0.085039 0.096988 255 220 0
0.600595 0.018077 0.035934 255 220 0
0.593335 0.067705 0.095233 255 220 0
0.591943 0.014544 0.033740 255 220 0
0.646121 0.073631 0.053017 255 220 0
0.598276 0.125523 0.023695 255 220 0
0.651595 0.128701 0.067068 255 220 0
0.583669 0.021512 0.078273 255 220 0
0.609729 0.154309 0.036843 255 220 0
0.632306 0.090284 0.029576 255 220 0
0.583325 0.081444 0.023787 255 220 0
0.651639 0.126684 0.058247 255 220 0
0.631906 0.155889 0.088235 255 220 0
0.641488 0.119262 0.094259 255 220 0
0.572620 0.046156 0.031913 255 220 0
0.579032 0.103832 0.027923 255 220 0
0.623349 0.028180 0.077372 255 220 0
0.621653 0.166124 0.051399 255 220 0
0.597532 0.130501 0.097229 255 220 0
0.589953 0.146502 0.039486 255 220 0
0.607419 0.035310 0.031683 255 220 0
0.592983 0.079866 0.021067 255 220 0
0.566461 0.055306 0.055262 255 220 0
0.635868 0.061803 0.041849 255 220 0
0.644370 0.145198 0.053717 255 220 0
0.640061 0.052137 0.062901 255 220 0
0.610779 0.133967 0.026391 255 220 0
0.639719 0.079298 0.038430 255 220 0
0.637999 0.056120 0.049024 255 220 0
0.644191 0.149290 0.076606 255 220 0
0.588027 0.086076 0.092740 255 220 0
0.579267 0.049505 0.079432 255 220 0
0.590908 0.096455 0.020762 255 220 0
0.608849 0.067591 0.024107 255 220 0
0.569517 0.076443 0.062125 255 220 0
0.650520 0.090752 0.079317 255 220 0
0.573756 -0.001390 0.059778 255 220 0
0.581836 0.144049 0.059217 255 220 0
0.639433 0.143952 0.045148 255 220 0
0.609338 0.051416 0.027655 255 220 0
0.611624 0.110040 0.020916 255 220 0
0.632767 0.088918 0.030099 255 220 0
0.618542 0.038422 0.037147 255 220 0
0.574330 0.076658 0.030456 255 220 0
0.651404 0.125734 0.072654 255 220 0
0.586960 0.150145 0.050054 255 220 0
0.602356 0.147032 0.032856 255 220 0
0.568911 0.051025 0.064332 255 220 0
0.560638 0.023063 0.054797 255 220 0
0.647929 0.129684 0.081920 255 220 0
0.593266 0.158601 0.067221 255 220 0
0.592288 0.085440 0.020639 255 220 0
0.560538 0.006743 0.042223 255 220 0
0.648122 0.123814 0.083718 255 220 0
0.645514 0.066006 0.064712 255 220 0
0.616405 0.036060 0.091619 255 220 0
0.607417 0.082084 0.021394 255 220 0
0.606293 0.024358 0.085569 255 220 0
0.603515 0.005115 0.057659 255 220 0
0.613874 0.019905 0.079632 255 220 0
0.564169 0.038447 0.056320 255 220 0
0.613855 0.138754 0.028738 255 220 0
0.577067 0.054773 0.077297 255 220 0
0.612097 0.162711 0.084719 255 220 0
0.650184 0.087674 0.054091 255 220 0
0.571906 0.102585 0.037958 255 220 0
0.642061 0.057351 0.070693 255 220 0
0.569802 0.059439 0.065226 255 220 0
0.569876 0.102562 0.053144 255 220 0
0.558751 0.014407 0.053870 255 220 0
0.629392 0.165674 0.078391 255 220 0
0.571203 0.085739 0.034920 255 220 0
0.620981 0.160305 0.088661 255 220 0
0.561913 0.014153 0.059581 255 220 0
0.606428 0.006901 0.060530 255 220 0
0.571211 0.003580 0.036575 255 220 0
0.637521 0.055780 0.086267 255 220 0
0.581654 0.004411 0.069258 255 220 0
0.633161 0.079071 0.100445 255 220 0
0.574466 0.093656 0.073466 255 220 0
0.637806 0.113998 0.032795 255 220 0
0.650713 0.088489 0.077249 255 220 0
0.632238 0.044033 0.084135 255 220 0
0.564542 0.019746 0.062035 255 220 0
0.635009 0.087743 0.100082 255 220 0
0.582085 0.000268 0.040900 255 220 0
0.639776 0.159160 0.072650 255 220 0
0.576768 0.099580 0.077379 255 220 0
0.650738 0.120357 0.051245 255 220 0
0.603910 0.018792 0.082101 255 220 0
0.598610 0.117987 0.099737 255 220 0
0.632509 0.146811 0.093653 255 220 0
0.575477 0.128309 0.049998 255 220 0
0.569291 0.018796 0.066981 255 220 0
0.618647 0.155674 0.039072 255 220 0
0.574792 0.110362 0.035198 255 220 0
0.612544 0.016086 0.076135 255 220 0
0.592916 0.120223 0.095808 255 220 0
0.641277 0.064815 0.085802 255 220 0
0.606710 0.087257 0.020650 255 220 0
0.600613 0.015110 0.037898 255 220 0
0.606549 0.158625 0.041202 255 220 0
0.602248 0.073831 0.100244 255 220 0
0.634223 0.151075 0.090121 255 220 0
0.596318 0.022021 0.032011 255 220 0
0.571587 0.075638 0.033923 255 220 0
0.610518 0.044233 0.095827 255 220 0
0.587868 0.080026 0.022174 255 220 0
0.580369 0.128964 0.076839 255 220 0
0.601159 0.005880 0.071333 255 220 0
0.562083 0.024441 0.038100 255 220 0
0.600496 0.074923 0.099674 255 220 0
0.579389 0.129712 0.074092 255 220 0
0.570294 0.054754 0.066890 255 220 0
0.624060 0.148482 0.036385 255 220 0
0.578082 0.063173 0.079274 255 220 0
0.577303 -0.000225 0.040429 255 220 0
0.623574 0.142898 0.099077 255 220 0
0.638432 0.105692 0.032730 255 220 0
0.619343 0.041025 0.036433 255 220 0
0.640803 0.120444 0.094673 255 220 0
0.596706 0.082348 0.098524 255 220 0
0.586979 0.144237 0.040785 255 220 0
0.602500 0.058955 0.024353 255 220 0
0.621092 0.027365 0.048522 255 220 0
0.638174 0.059170 0.088017 255 220 0
0.628543 0.094895 0.026794 255 220 0
0.580044 0.064107 0.081847 255 220 0
0.586937 0.148398 0.046492 255 220 0
0.637134 0.162399 0.061237 255 220 0
0.651023 0.104933 0.051178 255 220 0
0.614591 0.016354 0.053379 255 220 0
0.637495 0.081650 0.097468 255 220 0
0.636131 0.130193 0.035423 255 220 0
0.580660 0.139105 0.067972 255 220 0
0.622404 0.158632 0.042828 255 220 0
0.649235 0.087697 0.051048 255 220 0
0.609694 0.093923 0.104583 255 220 0
0.571792 0.112763 0.057887 255 220 0
0.594496 0.092731 0.019980 255 220 0
0.581156 0.112100 0.082912 255 220 0
0.605849 0.131468 0.101067 255 220 0
0.645825 0.148180 0.069838 255 220 0
0.568799 0.001776 0.039224 255 220 0
0.613569 0.170665 0.065016 255 220 0
0.597991 0.004063 0.048455 255 220 0
0.618905 0.022421 0.076250 255 220 0
0.604158 0.086700 0.020328 255 220 0
0.634598 0.041470 0.061612 255 220 0
0.598565 0.092271 0.100064 255 220 0
0.614326 0.162564 0.045328 255 220 0
0.604895 0.050424 0.026557 255 220 0
0.595719 0.103053 0.098678 255 220 0
0.614593 0.106001 0.021272 255 220 0
0.627594 0.030442 0.064988 255 220 0
0.631234 0.128775 0.099613 255 220 0
0.627756 0.069948 0.102009 255 220 0
0.633650 0.075257 0.099686 255 220 0
0.581173 0.075724 0.084307 255 220 0
0.636945 0.154727 0.084598 255 220 0
0.605207 0.106488 0.103258 255 220 0
0.640761 0.122044 0.037326 255 220 0
0.575748 0.037277 0.074480 255 220 0
0.640002 0.053508 0.073773 255 220 0
0.567217 0.071187 0.051609 255 220 0
0.652550 0.103434 0.056535 255 220 0
0.591191 0.069955 0.094053 255 220 0
0.614875 0.169994 0.059854 255 220 0
0.597866 0.063608 0.023104 255 220 0
0.631557 0.047409 0.089332 255 220 0
0.587051 -0.003267 0.053245 255 220 0
0.576731 0.126345 0.041779 255 220 0
0.569366 0.079927 0.038531 255 220 0
0.583492 0.138751 0.076875 255 220 0
0.614518 0.123216 0.023472 255 220 0
0.635149 0.096119 0.101009 255 220 0
0.646631 0.069231 0.068544 255 220 0
0.575868 0.117870 0.071320 255 220 0
0.609851 0.045752 0.096310 255 220 0
0.612408 0.036645 0.033760 255 220 0
0.567806 0.062496 0.041138 255 220 0
0.589361 0.071951 0.092841 255 220 0
0.579622 0.007237 0.034331 255 220 0
0.634286 0.042502 0.056302 255 220 0
0.636116 0.070654 0.037836 255 220 0
0.597685 0.089125 0.099455 255 220 0
0.643895 0.061404 0.065974 255 220 0
0.639219 0.160804 0.068456 255 220 0
0.569724 0.072559 0.063399 255 220 0
0.585433 0.114264 0.088495 255 220 0
0.606637 0.166973 0.073354 255 220 0
0.632141 0.110766 0.102432 255 220 0
0.608249 0.027104 0.087166 255 220 0
0.628106 0.088292 0.027391 255 220 0
0.614517 0.059869 0.101125 255 220 0
0.646799 0.115890 0.042763 255 220 0
0.632938 0.156334 0.047332 255 220 0
0.623207 0.170363 0.069934 255 220 0
0.579318 0.052737 0.027837 255 220 0
0.647040 0.072495 0.058524 255 220 0
0.634467 0.162494 0.077914 255 220 0
0.577452 0.001301 0.065079 255 220 0
0.645957 0.084700 0.045144 255 220 0
0.647501 0.139810 0.076465 255 220 0
0.614168 0.164558 0.083080 255 220 0
0.621618 0.148239 0.035297 255 220 0
0.618160 0.063693 0.027943 255 220 0
0.649138 0.077327 0.069502 255 220 0
0.626156 0.029304 0.070214 255 220 0
0.569996 0.055345 0.066186 255 220 0
0.603191 0.087331 0.101872 255 220 0
0.598461 0.021554 0.083366 255 220 0
0.568845 0.091635 0.054103 255 220 0
0.590337 0.057941 0.091769 255 220 0
0.640615 0.091007 0.036395 255 220 0
0.597677 0.025081 0.031369 255 220 0
0.579200 0.131377 0.040703 255 220 0
0.591830 0.132136 0.092448 255 220 0
0.615135 0.062429 0.027067 255 220 0
0.643241 0.153346 0.072697 255 220 0
0.626856 0.029433 0.061052 255 220 0
0.575705 0.014256 0.071583 255 220 0
0.598738 0.023021 0.084192 255 220 0
0.630466 0.103550 0.103750 255 220 0
0.638617 0.141653 0.090939 255 220 0
0.578913 0.078921 0.081434 255 220 0
0.634239 0.120949 0.031199 255 220 0
0.611347 0.163665 0.047172 255 220 0
0.640584 0.157051 0.060065 255 220 0
0.596680 0.139951 0.030265 255 220 0
0.572154 0.039803 0.031649 255 220 0
0.577482 0.113130 0.032223 255 220 0
0.575773 0.091830 0.029162 255 220 0
0.602594 0.159785 0.082148 255 220 0
0.584030 0.135984 0.080229 255 220 0
0.600540 0.088473 0.100815 255 220 0
0.618420 0.101709 0.106138 255 220 0
0.622338 0.095562 0.105864 255 220 0
0.607202 0.141490 0.098718 255 220 0
0.648490 0.121674 0.046992 255 220 0
0.651195 0.124980 0.054762 255 220 0
0.645130 0.105451 0.092044 255 220 0
0.584531 0.011601 0.033090 255 220 0
0.573147 0.121013 0.053353 255 220 0
0.628281 0.147135 0.037661 255 220 0
0.575917 0.084291 0.076888 255 220 0
0.640715 0.053602 0.063093 255 220 0
0.583529 0.072185 0.086964 255 220 0
0.624995 0.044070 0.039726 255 220 0
0.645518 0.069021 0.076623 255 220 0
0.638990 0.122329 0.095885 255 220 0
0.626467 0.094429 0.104907 255 220 0
0.602902 0.108338 0.102301 255 220 0
0.612360 0.027734 0.038382 255 220 0
0.645236 0.070379 0.079744 255 220 0
0.588203 0.071097 0.091755 255 220 0
0.602147 0.017615 0.037201 255 220 0
0.638281 0.094275 0.033605 255 220 0
0.571622 0.097142 0.036507 255 220 0
0.568050 0.083419 0.045224 255 220 0
0.606203 0.018640 0.081789 255 220 0
0.609242 0.025328 0.085984 255 220 0
0.598773 0.078085 0.099230 255 220 0
0.566715 0.047783 0.059572 255 220 0
0.617780 0.123267 0.104184 255 220 0
0.602477 0.062875 0.098850 255 220 0
0.646368 0.132595 0.048284 255 220 0
0.624282 0.167253 0.079131 255 220 0
0.597257 0.138812 0.094604 255 220 0
0.647475 0.142650 0.060677 255 220 0
0.634974 0.042238 0.068018 255 220 0
0.579646 0.125149 0.034875 255 220 0
0.582682 0.098489 0.024428 255 220 0
0.590356 0.019731 0.031099 255 220 0
0.637860 0.049184 0.074288 255 220 0
0.590526 0.043562 0.088923 255 220 0
0.598174 0.064913 0.022916 255 220 0
0.594124 0.101138 0.020262 255 220 0
0.564375 0.034580 0.038453 255 220 0
0.580625 0.102824 0.083174 255 220 0
0.568659 0.069862 0.060142 255 220 0
0.642213 0.119931 0.093365 255 220 0
0.642869 0.071996 0.087552 255 220 0
0.569055 0.076344 0.060411 255 220 0
0.638617 0.099651 0.033234 255 220 0
0.577560 0.024124 0.074645 255 220 0
0.631132 0.049396 0.043286 255 220 0
0.584584 0.093657 0.089064 255 220 0
0.638648 0.062026 0.045766 255 220 0
0.630363 0.099541 0.103780 255 220 0
0.626097 0.045254 0.040157 255 220 0
0.611980 0.122629 0.103927 255 220 0
0.583079 0.002935 0.068355 255 220 0
0.605061 0.092055 0.019976 255 220 0
0.609036 0.169439 0.065878 255 220 0
0.620156 0.049682 0.033229 255 220 0
0.560822 0.030883 0.048264 255 220 0
0.636154 0.104306 0.030948 255 220 0
0.614000 0.162515 0.045264 255 220 0
0.643681 0.144906 0.052008 255 220 0
0.627789 0.118095 0.103097 255 220 0
0.581684 -0.004130 0.057821 255 220 0
0.619620 0.028142 0.045563 255 220 0
0.601591 0.023715 0.033542 255 220 0
0.580631 0.060846 0.082224 255 220 0
0.594945 0.151726 0.083985 255 220 0
0.605783 0.163805 0.078912 255 220 0
0.582453 -0.000994 0.064004 255 220 0
0.612986 0.042731 0.031701 255 220 0
0.586040 0.150358 0.055001 255 220 0
0.653460 0.114332 0.065972 255 220 0
0.591772 0.042106 0.026159 255 220 0
0.646239 0.123958 0.087138 255 220 0
0.623149 0.030868 0.047763 255 220 0
0.648598 0.075788 0.062873 255 220 0
0.634696 0.145345 0.092785 255 220 0
0.572650 0.000192 0.061363 255 220 0
0.592674 0.002306 0.045199 255 220 0
0.617548 0.092396 0.105905 255 220 0
0.567809 0.047644 0.037591 255 220 0
0.633905 0.061427 0.039707 255 220 0
0.618449 0.124094 0.024488 255 220 0
0.597750 0.153857 0.040151 255 220 0
0.574284 0.123697 0.048065 255 220 0
0.572971 0.095595 0.033429 255 220 0
0.568255 0.060445 0.060590 255 220 0
0.567221 0.012358 0.033568 255 220 0
0.632226 0.091533 0.102223 255 220 0
0.605558 0.067777 0.023369 255 220 0
0.646500 0.143639 0.057911 255 220 0
0.594509 0.156440 0.046922 255 220 0
0.645735 0.105612 0.040619 255 220 0
0.647968 0.113110 0.044206 255 220 0
0.569237 0.060290 0.063598 255 220 0
0.579893 0.140387 0.057623 255 220 0
0.594325 0.065186 0.095509 255 220 0
0.618782 0.108665 0.022400 255 220 0
0.584805 0.127612 0.085108 255 220 0
0.579485 0.135866 0.068453 255 220 0
0.625319 0.125686 0.102574 255 220 0
0.559792 0.015584 0.039806 255 220 0
0.566148 0.002943 0.039454 255 220 0
0.632693 0.040451 0.054769 255 220 0
0.611910 0.020677 0.081714 255 220 0
0.642183 0.058759 0.058111 255 220 0
0.594880 0.005451 0.042581 255 220 0
0.630327 0.168330 0.067092 255 220 0
0.623492 0.057984 0.100193 255 220 0
0.589172 0.152280 0.071848 255 220 0
0.635336 0.053004 0.088206 255 220 0
0.621084 0.133854 0.102092 255 220 0
0.620629 0.045116 0.095648 255 220 0
0.579735 0.090156 0.082540 255 220 0
0.626388 0.115345 0.025526 255 220 0
0.614779 0.109703 0.021466 255 220 0
0.628387 0.093919 0.026815 255 220 0
0.648338 0.075537 0.060897 255 220 0
0.581978 0.049712 0.082468 255 220 0
0.618851 0.101545 0.022426 255 220 0
0.640482 0.117257 0.095645 255 220 0
0.569452 0.072913 0.062435 255 220 0
0.616446 0.089824 0.105652 255 220 0
0.591323 0.070474 0.094207 255 220 0
0.564386 0.047004 0.048032 255 220 0
0.622196 0.025088 0.054187 255 220 0
0.576428 0.097297 0.076977 255 220 0
0.645943 0.148070 0.067663 255 220 0
0.628737 0.032153 0.065758 255 220 0
0.580914 0.114947 0.082094 255 220 0
0.616949 0.148788 0.034164 255 220 0
0.644758 0.082072 0.088843 255 220 0
0.576720 0.007065 0.069412 255 220 0
0.625335 0.125434 0.027005 255 220 0
0.637554 0.160879 0.075266 255 220 0
0.582939 0.137195 0.039465 255 220 0
0.603806 0.132397 0.025515 255 220 0
0.571475 0.109029 0.043667 255 220 0
0.569489 0.053832 0.036350 255 220 0
0.577947 0.008168 0.070540 255 220 0
0.635141 0.043538 0.057512 255 220 0
0.627431 0.158680 0.045304 255 220 0
0.627592 0.169343 0.063254 255 220 0
0.646950 0.145112 0.064164 255 220 0
0.650772 0.129224 0.072793 255 220 0
0.634967 0.159185 0.052211 255 220 0
0.573911 0.124034 0.054367 255 220 0
0.579121 0.098564 0.081299 255 220 0
0.558669 0.014191 0.042366 255 220 0
0.603139 0.102803 0.102461 255 220 0
0.586852 -0.001002 0.045692 255 220 0
0.567717 0.075006 0.054099 255 220 0
0.621066 0.021788 0.065427 255 220 0
0.645752 0.116217 0.041380 255 220 0
0.638454 0.054674 0.051272 255 220 0
0.631112 0.147656 0.039706 255 220 0
0.647020 0.098181 0.089048 255 220 0
0.605267 0.098108 0.103264 255 220 0
0.648807 0.110297 0.085643 255 220 0
0.610537 0.115417 0.104366 255 220 0
0.591663 0.012883 0.034542 255 220 0
0.619010 0.032856 0.088446 255 220 0
0.646755 0.139938 0.078811 255 220 0
0.568744 0.059337 0.038402 255 220 0
0.577061 0.056577 0.077427 255 220 0
0.604904 0.054881 0.025594 255 220 0
0.628855 0.168579 0.061681 255 220 0
0.570920 0.107209 0.044850 255 220 0
0.600814 0.032817 0.089314 255 220 0
0.613942 0.170734 0.065173 255 220 0
0.622542 0.138630 0.030902 255 220 0
0.599826 0.151913 0.088738 255 220 0
0.585378 0.061168 0.087735 255 220 0
0.579048 0.004602 0.068648 255 220 0
0.571275 0.077135 0.034397 255 220 0
0.591462 0.140116 0.088913 255 220 0
0.609533 0.016549 0.079073 255 220 0
0.615438 0.022052 0.046311 255 220 0
0.633071 0.106392 0.102387 255 220 0
0.589290 0.139347 0.086691 255 220 0
0.626930 0.030567 0.071026 255 220 0
0.567481 0.048428 0.061417 255 220 0
0.628906 0.056173 0.097309 255 220 0
0.582287 0.080547 0.086005 255 220 0
0.617787 0.159936 0.089089 255 220 0
0.624366 0.034378 0.046039 255 220 0
0.580194 0.044710 0.079977 255 220 0
0.570327 0.029365 0.068015 255 220 0
0.613615 0.108510 0.105393 255 220 0
0.600124 0.067396 0.022663 255 220 0
0.625871 0.030381 0.074989 255 220 0
0.606675 0.033753 0.090735 255 220 0
0.602763 0.007171 0.049331 255 220 0
0.611695 0.014026 0.074078 255 220 0
0.592286 0.148330 0.038970 255 220 0
0.642636 0.071877 0.046031 255 220 0
0.566094 0.047024 0.058068 255 220 0
0.566925 0.007555 0.035364 255 220 0
0.621629 0.124041 0.103682 255 220 0
0.607762 0.038360 0.093038 255 220 0
0.595620 0.123636 0.097305 255 220 0
0.608434 0.088197 0.020861 255 220 0
0.608176 0.156572 0.038823 255 220 0
0.610482 0.149873 0.033874 255 220 0
0.597093 0.045826 0.025963 255 220 0
0.603804 0.100879 0.102732 255 220 0
0.603088 0.028657 0.032178 255 220 0
0.600235 0.137737 0.028185 255 220 0
0.640117 0.105995 0.034221 255 220 0
0.580608 0.086494 0.083819 255 220 0
0.643559 0.133804 0.087996 255 220 0
0.574863 0.085339 0.074931 255 220 0
0.590490 0.088851 0.094931 255 220 0
0.645174 0.064928 0.065998 255 220 0
0.565649 0.041030 0.059090 255 220 0
0.572079 0.000534 0.039719 255 220 0
0.606234 0.073133 0.022566 255 220 0
0.609833 0.157112 0.089873 255 220 0
0.600650 0.017475 0.036334 255 220 0
0.648623 0.106031 0.045478 255 220 0
0.588486 0.057458 0.090183 255 220 0
0.565565 0.003215 0.039593 255 220 0
0.625997 0.028773 0.068819 255 220 0
0.645271 0.143934 0.054509 255 220 0
0.628088 0.085113 0.103569 255 220 0
0.607576 0.079334 0.021824 255 220 0
0.586592 0.149852 0.068609 255 220 0
0.572249 0.048404 0.032449 255 220 0
0.633967 0.157403 0.049296 255 220 0
0.603402 0.163940 0.075997 255 220 0
0.595528 0.108537 0.020729 255 220 0
0.643563 0.150599 0.076761 255 220 0
0.599254 0.084587 0.020171 255 220 0
0.613329 0.133189 0.102569 255 220 0
0.646664 0.144441 0.060084 255 220 0
0.614773 0.082839 0.104774 255 220 0
0.650204 0.080997 0.068717 255 220 0
0.605781 0.026934 0.087070 255 220 0
0.579312 0.118603 0.078661 255 220 0
0.634628 0.048462 0.084575 255 220 0
0.636060 0.113461 0.031335 255 220 0
0.594367 0.129819 0.026040 255 220 0
0.580284 0.139222 0.048981 255 220 0
0.624103 0.119133 0.025112 255 220 0
0.618463 0.116300 0.022949 255 220 0
0.605949 0.072325 0.101353 255 220 0
0.585297 0.144967 0.044606 255 220 0
0.648041 0.078637 0.054324 255 220 0
0.568408 0.090089 0.049201 255 220 0
0.594209 0.069139 0.022370 255 220 0
0.570376 0.087210 0.036957 255 220 0
0.611134 0.012716 0.072509 255 220 0
0.576777 0.003500 0.036451 255 220 0
0.578657 0.083045 0.081139 255 220 0
0.645208 0.084440 0.088922 255 220 0
0.581245 0.142402 0.052904 255 220 0
0.582151 0.019403 0.076764 255 220 0
0.594122 0.009808 0.037765 255 220 0
0.593349 0.126217 0.025104 255 220 0
0.631173 0.038738 0.077309 255 220 0
0.633713 0.064162 0.038181 255 220 0
0.572107 0.096773 0.066972 255 220 0
0.646369 0.082283 0.047060 255 220 0
0.627562 0.052408 0.096364 255 220 0
0.579875 0.127308 0.076599 255 220 0
0.562684 0.034510 0.041789 255 220 0
0.629043 0.146253 0.095816 255 220 0
0.648564 0.132698 0.078658 255 220 0
0.630840 0.065302 0.034990 255 220 0
0.637802 0.060975 0.090155 255 220 0
0.611536 0.141767 0.099832 255 220 0
0.586668 0.125647 0.028162 255 220 0
0.624122 0.118738 0.104014 255 220 0
0.605315 0.159524 0.084801 255 220 0
0.569379 0.084490 0.059911 255 220 0
0.627212 0.044246 0.091697 255 220 0
0.624148 0.162231 0.086031 255 220 0
0.585307 0.059889 0.087484 255 220 0
0.623727 0.069410 0.029043 255 220 0
0.605737 0.032772 0.031857 255 220 0
0.585782 0.001379 0.041233 255 220 0
0.588973 0.145920 0.040003 255 220 0
0.583120 0.108097 0.025701 255 220 0
0.633317 0.106839 0.102225 255 220 0
0.652382 0.122722 0.058907 255 220 0
0.638707 0.156420 0.054642 255 220 0
0.651049 0.130534 0.069274 255 220 0
0.635802 0.050360 0.084102 255 220 0
0.627007 0.059974 0.033951 255 220 0
0.615135 0.141982 0.030406 255 220 0
0.635510 0.138549 0.094634 255 220 0
0.580761 0.051425 0.027204 255 220 0
0.561105 0.026633 0.054020 255 220 0
0.560868 0.020130 0.056692 255 220 0
0.595302 0.095126 0.019849 255 220 0
0.639590 0.052030 0.059023 255 220 0
0.574467 -0.001596 0.042988 255 220 0
0.615360 0.148731 0.097155 255 220 0
0.583530 0.146953 0.059310 255 220 0
0.618585 0.057537 0.100681 255 220 0
0.604617 0.110207 0.102929 255 220 0
0.636755 0.052343 0.084190 255 220 0
0.574732 0.010033 0.069794 255 220 0
0.585964 0.120783 0.027024 255 220 0
0.615615 0.025847 0.084342 255 220 0
0.609735 0.160125 0.042400 255 220 0
0.598568 0.035243 0.089746 255 220 0
0.580111 0.023001 0.076411 255 220 0
0.634640 0.056834 0.043131 255 220 0
0.598668 0.148871 0.035279 255 220 0
0.653436 0.114990 0.065252 255 220 0
0.644171 0.062581 0.062380 255 220 0
0.587900 0.136176 0.032726 255 220 0
0.636249 0.070635 0.096596 255 220 0
0.641664 0.131319 0.041536 255 220 0
0.575820 0.112501 0.073148 255 220 0
0.622842 0.116946 0.024334 255 220 0
0.594214 0.144706 0.089167 255 220 0
0.569488 0.070418 0.062950 255 220 0
0.628327 0.032824 0.056032 255 220 0
0.579391 0.120432 0.032792 255 220 0
0.574590 0.014619 0.070917 255 220 0
0.602520 0.020802 0.035465 255 220 0
0.592166 0.155015 0.074128 255 220 0
0.639177 0.059770 0.048389 255 220 0
0.622420 0.133809 0.101838 255 220 0
0.590582 -0.001025 0.050348 255 220 0
0.579719 0.139189 0.051720 255 220 0
0.636564 0.098177 0.100235 255 220 0
0.643889 0.093185 0.039738 255 220 0
0.604116 0.070897 0.022578 255 220 0
0.599993 0.062986 0.097927 255 220 0
0.648871 0.129754 0.051338 255 220 0
0.565638 0.044629 0.040470 255 220 0
0.599208 0.162572 0.072039 255 220 0
0.638638 0.078829 0.095981 255 220 0
0.599611 0.002120 0.060515 255 220 0
0.622002 0.098949 0.105997 255 220 0
0.615842 0.096336 0.021840 255 220 0
0.649697 0.102685 0.084176 255 220 0
0.620805 0.079813 0.104772 255 220 0
0.598725 0.149748 0.089641 255 220 0
0.590994 0.102299 0.095484 255 220 0
0.645467 0.077446 0.085273 255 220 0
0.618630 0.167122 0.052570 255 220 0
0.576134 0.065102 0.076822 255 220 0
0.589344 0.032530 0.027699 255 220 0
0.568948 0.095587 0.049934 255 220 0
0.644696 0.149373 0.074554 255 220 0
0.645243 0.065307 0.064011 255 220 0
0.649623 0.098858 0.084069 255 220 0
0.574543 0.060598 0.074257 255 220 0
0.627386 0.092467 0.026478 255 220 0
0.577781 0.119735 0.075234 255 220 0
0.570454 0.076089 0.065281 255 220 0
0.640231 0.117381 0.035586 255 220 0
0.644998 0.097451 0.091985 255 220 0
0.577633 0.000095 0.063805 255 220 0
0.639667 0.160200 0.065757 255 220 0
0.594053 0.011146 0.076495 255 220 0
0.558028 0.011007 0.050000 255 220 0
0.590721 0.003508 0.041711 255 220 0
0.568239 0.087959 0.050069 255 220 0
0.586761 0.049478 0.087281 255 220 0
0.597839 0.092946 0.099710 255 220 0
0.590957 -0.002112 0.060960 255 220 0
0.647367 0.111687 0.088118 255 220 0
0.645593 0.137683 0.083031 255 220 0
0.584475 0.011432 0.074524 255 220 0
0.582916 -0.003263 0.048413 255 220 0
0.581934 -0.001503 0.063191 255 220 0
0.578905 0.089748 0.081375 255 220 0
0.637093 0.082905 0.097963 255 220 0
0.592407 0.112538 0.022135 255 220 0
0.622543 0.102714 0.023606 255 220 0
0.567430 0.067652 0.055057 255 220 0
0.571197 0.106216 0.059902 255 220 0
0.589041 0.107258 0.022455 255 220 0
0.599323 0.067282 0.022621 255 220 0
0.560025 0.025743 0.050860 255 220 0
0.592676 -0.001350 0.056619 255 220 0
0.579017 0.001999 0.066359 255 220 0
0.568155 0.082873 0.044117 255 220 0
0.635543 0.136141 0.037201 255 220 0
0.601078 0.052876 0.096359 255 220 0
0.579920 0.004190 0.036407 255 220 0
0.589605 0.050589 0.025064 255 220 0
0.559528 0.011845 0.055774 255 220 0
0.581936 0.040152 0.081182 255 220 0
0.592913 0.129992 0.026604 255 220 0
0.636708 0.046385 0.072605 255 220 0
0.572034 -0.003137 0.051130 255 220 0
0.596608 0.014035 0.036159 255 220 0
0.607948 0.111639 0.103979 255 220 0
0.623601 0.075081 0.027622 255 220 0
0.566321 0.059655 0.048478 255 220 0
0.590982 0.009481 0.074909 255 220 0
0.591194 0.065905 0.023126 255 220 0
0.627852 0.107012 0.104520 255 220 0
0.599181 0.151276 0.088756 255 220 0
0.571382 0.050429 0.069238 255 220 0
0.646990 0.143413 0.059647 255 220 0
0.589555 -0.001785 0.051276 255 220 0
0.570375 0.104940 0.055340 255 220 0
0.590100 0.106944 0.022005 255 220 0
0.567145 0.063274 0.055046 255 220 0
0.613329 0.132448 0.026161 255 220 0
0.614643 0.085320 0.105020 255 220 0
0.590740 0.153625 0.073412 255 220 0
0.569495 0.100136 0.048652 255 220 0
0.638856 0.085826 0.096850 255 220 0
0.580178 0.118177 0.030964 255 220 0
0.626638 0.045408 0.092978 255 220 0
0.593446 0.049065 0.092070 255 220 0
0.609373 0.050532 0.097855 255 220 0
0.568894 0.036511 0.033787 255 220 0
0.589169 0.046398 0.025614 255 220 0
0.649039 0.080873 0.077137 255 220 0
0.619355 0.097503 0.022776 255 220 0
0.641527 0.070051 0.045257 255 220 0
0.607127 0.041190 0.029638 255 220 0
0.601919 0.003601 0.060817 255 220 0
0.605047 0.153950 0.090492 255 220 0
0.585907 0.035558 0.083695 255 220 0
0.640925 0.072866 0.091518 255 220 0
0.572596 0.098772 0.068014 255 220 0
0.625208 0.120212 0.025731 255 220 0
0.651778 0.087884 0.069313 255 220 0
0.641486 0.133043 0.090841 255 220 0
0.573669 0.123031 0.055595 255 220 0
0.604560 0.068694 0.100433 255 220 0
0.587198 0.061095 0.089571 255 220 0
0.643633 0.063239 0.057270 255 220 0
0.570177 0.001536 0.061280 255 220 0
0.560179 0.012853 0.057094 255 220 0
0.586004 0.088060 0.022298 255 220 0
0.647327 0.082072 0.083576 255 220 0
0.605963 0.150485 0.034408 255 220 0
0.576295 0.115533 0.034983 255 220 0
0.581928 0.083228 0.024374 255 220 0
0.610976 0.047579 0.097115 255 220 0
0.577315 0.052864 0.077446 255 220 0
0.607089 0.062599 0.100232 255 220 0
0.649601 0.087870 0.052019 255 220 0
0.585911 0.003413 0.069380 255 220 0
0.558965 0.022592 0.047222 255 220 0
0.625444 0.079351 0.027587 255 220 0
0.615834 0.087616 0.022682 255 220 0
0.643346 0.064558 0.079121 255 220 0
0.606449 0.137239 0.027450 255 220 0
0.622755 0.119313 0.104192 255 220 0
0.653369 0.112201 0.069336 255 220 0
0.651725 0.128435 0.062676 255 220 0
0.569390 0.011862 0.032902 255 220 0
0.632792 0.145926 0.039904 255 220 0
0.567187 0.049999 0.060177 255 220 0
0.607303 0.146315 0.096580 255 220 0
0.566257 0.043421 0.038763 255 220 0
0.628678 0.032244 0.067168 255 220 0
0.617284 0.017618 0.067922 255 220 0
0.648481 0.133494 0.078380 255 220 0
0.609031 0.112645 0.020821 255 220 0
0.638774 0.116762 0.034109 255 220 0
0.587314 0.119946 0.025975 255 220 0
0.583012 0.129286 0.032954 255 220 0
0.560902 0.029818 0.043999 255 220 0
0.619213 0.063305 0.102154 255 220 0
0.614903 0.069572 0.025426 255 220 0
0.572551 0.081458 0.032475 255 220 0
0.597875 0.002824 0.051491 255 220 0
0.573811 0.087647 0.072647 255 220 0
0.580447 0.138537 0.068089 255 220 0
0.629896 0.053827 0.095507 255 220 0
0.626070 0.085193 0.104290 255 220 0
0.626485 0.073286 0.102997 255 220 0
0.570345 0.079450 0.064495 255 220 0
0.572411 0.105151 0.037849 255 220 0
0.614261 0.085974 0.105021 255 220 0
0.594594 0.128368 0.025437 255 220 0
0.647405 0.144165 0.068175 255 220 0
0.622609 0.067410 0.029008 255 220 0
0.641230 0.090318 0.095328 255 220 0
0.607192 0.065738 0.024063 255 220 0
0.588247 0.147343 0.042592 255 220 0
0.598394 0.156055 0.082931 255 220 0
0.590341 0.151212 0.076850 255 220 0
0.599327 0.135306 0.027186 255 220 0
0.615693 0.015843 0.058777 255 220 0
0.578213 0.107862 0.078920 255 220 0
0.651744 0.128281 0.065683 255 220 0
0.571699 0.079894 0.068371 255 220 0
0.651723 0.124205 0.072265 255 220 0
0.646940 0.095377 0.088828 255 220 0
0.598537 0.102030 0.019728 255 220 0
0.560571 0.025490 0.041522 255 220 0
0.646155 0.075558 0.051208 255 220 0
0.569137 0.095345 0.053845 255 220 0
0.638543 0.067280 0.042322 255 220 0
0.621283 0.161882 0.087006 255 220 0
0.613556 0.015432 0.052959 255 220 0
0.593423 0.138421 0.091690 255 220 0
0.569125 0.064915 0.038137 255 220 0
0.598482 0.156126 0.082937 255 220 0
0.649493 0.134788 0.073352 255 220 0
0.642234 0.067932 0.048118 255 220 0
0.648305 0.095042 0.086296 255 220 0
0.593579 0.091375 0.020148 255 220 0
0.594829 0.147165 0.088084 255 220 0
0.596687 0.078472 0.098228 255 220 0
0.628876 0.049279 0.040721 255 220 0
0.621090 0.021754 0.061504 255 220 0
0.573957 0.115080 0.039719 255 220 0
0.636265 0.044363 0.066297 255 220 0
0.610871 0.165207 0.080584 255 220 0
0.586687 0.142220 0.039066 255 220 0
0.636520 0.069252 0.095912 255 220 0
0.628933 0.034227 0.073990 255 220 0
0.643923 0.096572 0.039188 255 220 0
0.652107 0.111955 0.054195 255 220 0
0.628894 0.098241 0.026686 255 220 0
0.626748 0.061431 0.100276 255 220 0
0.567962 0.011936 0.065448 255 220 0
0.650021 0.135321 0.068909 255 220 0
