ply
format ascii 1.0
element vertex 1024
property float x
property float y
property float z
property uchar red
property uchar green
property uchar blue
end_header
0.444054 0.332908 0.155587 0 200 255
0.327366 0.261011 0.102876 0 200 255
0.333011 0.381307 0.121322 0 200 255
0.427221 0.401929 0.075995 0 200 255
0.421742 0.240869 0.126314 0 200 255
0.492498 0.254180 0.174095 0 200 255
0.373843 0.335662 0.155399 0 200 255
0.429309 0.335007 0.066991 0 200 255
0.456342 0.392323 0.133169 0 200 255
0.434293 0.275409 0.176817 0 200 255
0.496125 0.305497 0.138357 0 200 255
0.366338 0.242875 0.141395 0 200 255
0.415277 0.359816 0.114567 0 200 255
0.407642 0.301743 0.138865 0 200 255
0.458998 0.270249 0.135797 0 200 255
0.471978 0.302635 0.178673 0 200 255
0.486782 0.343995 0.160128 0 200 255
0.454366 0.235962 0.166540 0 200 255
0.407768 0.321515 0.174754 0 200 255
0.458730 0.384339 0.093695 0 200 255
0.387445 0.249888 0.108934 0 200 255
0.361717 0.357668 0.126893 0 200 255
0.462975 0.355977 0.133980 0 200 255
0.401131 0.262395 0.147962 0 200 255
0.427463 0.393906 0.111518 0 200 255
0.354161 0.237104 0.108030 0 200 255
0.490525 0.250531 0.138888 0 200 255
0.432864 0.369664 0.146332 0 200 255
0.453377 0.305437 0.136414 0 200 255
0.500365 0.287109 0.166244 0 200 255
0.351221 0.266870 0.125007 0 200 255
0.427728 0.361958 0.084483 0 200 255
0.432002 0.254439 0.152916 0 200 255
0.425415 0.334272 0.130161 0 200 255
0.441040 0.311184 0.177893 0 200 255
0.464260 0.266467 0.179479 0 200 255
0.395205 0.231796 0.138674 0 200 255
0.431425 0.281891 0.134996 0 200 255
0.463354 0.337600 0.177405 0 200 255
0.496854 0.316006 0.167964 0 200 255
0.409823 0.291023 0.165769 0 200 255
0.400230 0.330607 0.143666 0 200 255
0.444349 0.369142 0.117153 0 200 255
0.461275 0.368485 0.159355 0 200 255
0.474417 0.330330 0.136360 0 200 255
0.464159 0.242300 0.136407 0 200 255
0.492472 0.277457 0.141784 0 200 255
0.420308 0.347053 0.154582 0 200 255
0.374729 0.228209 0.121622 0 200 255
0.422080 0.318431 0.152266 0 200 255
0.435281 0.344797 0.108372 0 200 255
0.451695 0.395117 0.071427 0 200 255
0.337741 0.360332 0.134645 0 200 255
0.470062 0.255338 0.157897 0 200 255
0.382949 0.344780 0.132949 0 200 255
0.381042 0.259449 0.130540 0 200 255
0.363970 0.357610 0.151467 0 200 255
0.451945 0.400762 0.110718 0 200 255
0.343989 0.243587 0.128851 0 200 255
0.475043 0.294284 0.139106 0 200 255
0.473179 0.243607 0.182887 0 200 255
0.351786 0.260140 0.102328 0 200 255
0.453049 0.303488 0.159547 0 200 255
0.408539 0.257696 0.117628 0 200 255
0.435888 0.382813 0.089828 0 200 255
0.451362 0.271279 0.157369 0 200 255
0.441525 0.348880 0.137163 0 200 255
0.464098 0.345601 0.156122 0 200 255
0.466458 0.373657 0.120243 0 200 255
0.420902 0.274447 0.155429 0 200 255
0.414137 0.241343 0.149610 0 200 255
0.421644 0.340645 0.087582 0 200 255
0.430012 0.336542 0.172592 0 200 255
0.432731 0.387540 0.132975 0 200 255
0.329325 0.263769 0.125257 0 200 255
0.403285 0.234788 0.115879 0 200 255
0.345331 0.364648 0.114068 0 200 255
0.452689 0.292488 0.179555 0 200 255
0.484348 0.274180 0.175744 0 200 255
0.393783 0.335934 0.163805 0 200 255
0.417267 0.357243 0.135888 0 200 255
0.401004 0.312306 0.156535 0 200 255
0.441372 0.255368 0.172009 0 200 255
0.483061 0.329764 0.175852 0 200 255
0.429596 0.308762 0.135201 0 200 255
0.452980 0.373045 0.140267 0 200 255
0.365024 0.249889 0.120124 0 200 255
0.451481 0.328981 0.136699 0 200 255
0.452362 0.403608 0.090366 0 200 255
0.419033 0.258015 0.137596 0 200 255
0.491583 0.322893 0.149566 0 200 255
0.428106 0.296338 0.172977 0 200 255
0.417972 0.351325 0.070453 0 200 255
0.450955 0.249714 0.149413 0 200 255
0.419135 0.395133 0.092771 0 200 255
0.384178 0.248566 0.147693 0 200 255
0.488019 0.263420 0.157082 0 200 255
0.460502 0.318668 0.178974 0 200 255
0.338523 0.247877 0.110879 0 200 255
0.443600 0.357814 0.156228 0 200 255
0.362758 0.342703 0.138210 0 200 255
0.339357 0.274312 0.108419 0 200 255
0.473970 0.258276 0.134991 0 200 255
0.427527 0.374758 0.111688 0 200 255
0.473858 0.359461 0.148358 0 200 255
0.440215 0.267092 0.141164 0 200 255
0.414559 0.355276 0.095678 0 200 255
0.431426 0.356707 0.122067 0 200 255
0.445330 0.383980 0.107014 0 200 255
0.500478 0.302318 0.156997 0 200 255
0.447569 0.343098 0.171387 0 200 255
0.467681 0.285650 0.173124 0 200 255
0.431272 0.350926 0.058861 0 200 255
0.475130 0.276459 0.138977 0 200 255
0.352836 0.368774 0.137374 0 200 255
0.475188 0.311359 0.135705 0 200 255
0.423850 0.313466 0.176554 0 200 255
0.387063 0.345370 0.149849 0 200 255
0.411542 0.285222 0.145705 0 200 255
0.381972 0.329520 0.140875 0 200 255
0.458141 0.287435 0.136117 0 200 255
0.484220 0.343651 0.140787 0 200 255
0.430052 0.360706 0.102342 0 200 255
0.435620 0.348008 0.078672 0 200 255
0.486460 0.294626 0.172598 0 200 255
0.406902 0.244133 0.134528 0 200 255
0.435062 0.399161 0.096309 0 200 255
0.472845 0.349918 0.171180 0 200 255
0.350099 0.352595 0.142814 0 200 255
0.419678 0.343715 0.114739 0 200 255
0.408064 0.328578 0.159319 0 200 255
0.462034 0.387154 0.111649 0 200 255
0.357875 0.255058 0.134294 0 200 255
0.458814 0.250908 0.171579 0 200 255
0.387359 0.233596 0.112308 0 200 255
0.370781 0.236906 0.108357 0 200 255
0.468822 0.370966 0.136641 0 200 255
0.425624 0.333766 0.146797 0 200 255
0.443976 0.391277 0.121448 0 200 255
0.378772 0.232505 0.141633 0 200 255
0.429486 0.371013 0.129306 0 200 255
0.330355 0.365508 0.120561 0 200 255
0.397391 0.256164 0.130001 0 200 255
0.414982 0.307978 0.162915 0 200 255
0.408862 0.317324 0.142841 0 200 255
0.323642 0.272621 0.113387 0 200 255
0.440904 0.318819 0.142320 0 200 255
0.501218 0.288793 0.148177 0 200 255
0.424701 0.386496 0.079670 0 200 255
0.449671 0.274949 0.178919 0 200 255
0.447962 0.325700 0.173132 0 200 255
0.425255 0.261644 0.164837 0 200 255
0.385352 0.239090 0.129305 0 200 255
0.443907 0.293254 0.135372 0 200 255
0.434959 0.344579 0.160477 0 200 255
0.390216 0.323792 0.152962 0 200 255
0.457283 0.357404 0.148064 0 200 255
0.448781 0.358261 0.127642 0 200 255
0.398778 0.246364 0.151315 0 200 255
0.482093 0.314637 0.175080 0 200 255
0.440985 0.395493 0.082892 0 200 255
0.458863 0.330613 0.157115 0 200 255
0.497566 0.275251 0.157403 0 200 255
0.436411 0.269852 0.156983 0 200 255
0.430526 0.354054 0.146194 0 200 255
0.436850 0.341886 0.124312 0 200 255
0.347647 0.352854 0.126145 0 200 255
0.345271 0.374226 0.125545 0 200 255
0.417485 0.258515 0.152265 0 200 255
0.432652 0.348413 0.093527 0 200 255
0.443730 0.378368 0.129583 0 200 255
0.355707 0.235962 0.122618 0 200 255
0.491974 0.291279 0.136777 0 200 255
0.372577 0.355383 0.136522 0 200 255
0.407947 0.299230 0.153501 0 200 255
0.341643 0.257587 0.132396 0 200 255
0.425416 0.383459 0.100153 0 200 255
0.420693 0.291645 0.136018 0 200 255
0.420159 0.274445 0.169910 0 200 255
0.426093 0.323655 0.165154 0 200 255
0.497624 0.253490 0.151095 0 200 255
0.372905 0.255639 0.142099 0 200 255
0.423807 0.384061 0.122272 0 200 255
0.412759 0.301348 0.175453 0 200 255
0.364380 0.250539 0.105847 0 200 255
0.475527 0.337983 0.152167 0 200 255
0.459071 0.262585 0.147780 0 200 255
0.427606 0.247360 0.141255 0 200 255
0.453090 0.384428 0.080602 0 200 255
0.351089 0.251057 0.118138 0 200 255
0.339032 0.261260 0.115382 0 200 255
0.475852 0.258973 0.181289 0 200 255
0.464016 0.321142 0.136064 0 200 255
0.353877 0.238510 0.137116 0 200 255
0.374464 0.349652 0.155720 0 200 255
0.453677 0.236424 0.151683 0 200 255
0.331440 0.373549 0.109604 0 200 255
0.463982 0.376365 0.148583 0 200 255
0.423619 0.341462 0.101007 0 200 255
0.456056 0.305603 0.180195 0 200 255
0.378519 0.255722 0.117791 0 200 255
0.421021 0.255604 0.122253 0 200 255
0.437424 0.321190 0.155844 0 200 255
0.399781 0.247637 0.113919 0 200 255
0.479684 0.259829 0.147159 0 200 255
0.348403 0.247191 0.101213 0 200 255
0.358261 0.264375 0.113848 0 200 255
0.442045 0.252067 0.139651 0 200 255
0.491533 0.332483 0.165099 0 200 255
0.466359 0.341767 0.143171 0 200 255
0.450236 0.393606 0.099009 0 200 255
0.419460 0.343957 0.140955 0 200 255
0.433240 0.322693 0.177976 0 200 255
0.423029 0.272052 0.137752 0 200 255
0.378390 0.242538 0.117577 0 200 255
0.439715 0.287137 0.179309 0 200 255
0.418122 0.331102 0.173451 0 200 255
0.334958 0.251161 0.123051 0 200 255
0.388802 0.261852 0.140788 0 200 255
0.437909 0.339522 0.145545 0 200 255
0.425146 0.336033 0.159565 0 200 255
0.368064 0.239353 0.127045 0 200 255
0.415642 0.355533 0.082489 0 200 255
0.487149 0.331200 0.138623 0 200 255
0.445667 0.369641 0.150396 0 200 255
0.339510 0.262903 0.098902 0 200 255
0.406705 0.232397 0.129155 0 200 255
0.391691 0.228999 0.124352 0 200 255
0.452230 0.340237 0.142964 0 200 255
0.496566 0.302492 0.171184 0 200 255
0.363605 0.342764 0.151055 0 200 255
0.422079 0.321263 0.139717 0 200 255
0.454855 0.381550 0.120650 0 200 255
0.429513 0.356724 0.070223 0 200 255
0.372654 0.337201 0.132557 0 200 255
0.389116 0.236896 0.148515 0 200 255
0.463467 0.382945 0.137802 0 200 255
0.475349 0.351058 0.157963 0 200 255
0.418100 0.288914 0.175059 0 200 255
0.449694 0.274607 0.145313 0 200 255
0.447443 0.258124 0.158096 0 200 255
0.418108 0.347225 0.126722 0 200 255
0.458328 0.395671 0.120272 0 200 255
0.440888 0.378192 0.141837 0 200 255
0.462160 0.255315 0.137960 0 200 255
0.335996 0.273267 0.120633 0 200 255
0.428833 0.264411 0.145724 0 200 255
0.392820 0.338759 0.137569 0 200 255
0.421287 0.342862 0.061657 0 200 255
0.452294 0.350060 0.160548 0 200 255
0.439087 0.380286 0.118121 0 200 255
0.463541 0.298667 0.139150 0 200 255
0.457915 0.395601 0.082409 0 200 255
0.411298 0.244028 0.117211 0 200 255
0.459420 0.363619 0.124662 0 200 255
0.409364 0.259618 0.130233 0 200 255
0.383379 0.330039 0.161193 0 200 255
0.480289 0.285369 0.178580 0 200 255
0.420986 0.363223 0.124780 0 200 255
0.431396 0.356957 0.134394 0 200 255
0.483189 0.262926 0.171323 0 200 255
0.460856 0.346936 0.170049 0 200 255
0.415157 0.308347 0.149991 0 200 255
0.483011 0.318356 0.142273 0 200 255
0.498469 0.314693 0.155231 0 200 255
0.461299 0.240994 0.178061 0 200 255
0.431990 0.294510 0.139152 0 200 255
0.454599 0.315874 0.142284 0 200 255
0.458588 0.250494 0.158581 0 200 255
0.382381 0.342605 0.161222 0 200 255
0.396770 0.321673 0.162693 0 200 255
0.362738 0.362493 0.139464 0 200 255
0.441834 0.302786 0.142202 0 200 255
0.405012 0.310886 0.170176 0 200 255
0.447920 0.281455 0.135045 0 200 255
0.422023 0.338763 0.075577 0 200 255
0.406730 0.235318 0.142566 0 200 255
0.398101 0.337785 0.152949 0 200 255
0.419704 0.352392 0.105930 0 200 255
0.334433 0.371926 0.129672 0 200 255
0.393045 0.257541 0.115945 0 200 255
0.451570 0.384740 0.140834 0 200 255
0.447132 0.382285 0.093873 0 200 255
0.467132 0.327487 0.172857 0 200 255
0.427455 0.402634 0.088167 0 200 255
0.397491 0.318860 0.144871 0 200 255
0.413283 0.326142 0.149193 0 200 255
0.441424 0.394439 0.110534 0 200 255
0.422535 0.246555 0.155701 0 200 255
0.406329 0.252869 0.142134 0 200 255
0.474541 0.246548 0.139333 0 200 255
0.461044 0.281149 0.181484 0 200 255
0.481460 0.340921 0.173230 0 200 255
0.491332 0.271960 0.166804 0 200 255
0.439628 0.250241 0.161257 0 200 255
0.494007 0.317184 0.139070 0 200 255
0.490718 0.260906 0.144058 0 200 255
0.431783 0.392537 0.122674 0 200 255
0.426140 0.363562 0.114531 0 200 255
0.452286 0.327788 0.148207 0 200 255
0.368584 0.232456 0.136484 0 200 255
0.325260 0.260834 0.114090 0 200 255
0.368321 0.250177 0.131044 0 200 255
0.462686 0.332469 0.136316 0 200 255
0.443063 0.266050 0.176232 0 200 255
0.355261 0.365934 0.122501 0 200 255
0.421190 0.364503 0.095492 0 200 255
0.487202 0.332836 0.152746 0 200 255
0.440805 0.333713 0.176597 0 200 255
0.421475 0.302854 0.140223 0 200 255
0.397005 0.238866 0.124679 0 200 255
0.443525 0.298515 0.177632 0 200 255
0.436790 0.343407 0.068606 0 200 255
0.345932 0.241136 0.118182 0 200 255
0.439509 0.388909 0.098934 0 200 255
0.358026 0.258138 0.123153 0 200 255
0.348467 0.270478 0.113370 0 200 255
0.444825 0.344359 0.152676 0 200 255
0.463402 0.294982 0.180565 0 200 255
0.483485 0.283674 0.139021 0 200 255
0.451217 0.361309 0.137968 0 200 255
0.339065 0.358787 0.121178 0 200 255
0.450103 0.259426 0.141029 0 200 255
0.414421 0.318653 0.160346 0 200 255
0.355713 0.347191 0.130960 0 200 255
0.324299 0.374563 0.119346 0 200 255
0.434849 0.337791 0.134438 0 200 255
0.494181 0.251879 0.163584 0 200 255
0.434689 0.381063 0.105307 0 200 255
0.378772 0.351078 0.145738 0 200 255
0.429566 0.377523 0.137998 0 200 255
0.451914 0.369700 0.129557 0 200 255
0.431476 0.338967 0.082944 0 200 255
0.450764 0.403317 0.079708 0 200 255
0.433567 0.391824 0.075992 0 200 255
0.450851 0.337930 0.162529 0 200 255
0.424350 0.351244 0.087136 0 200 255
0.420212 0.396428 0.082018 0 200 255
0.417120 0.247138 0.138879 0 200 255
0.418748 0.355799 0.146424 0 200 255
0.445558 0.324718 0.162349 0 200 255
0.425015 0.398120 0.101190 0 200 255
0.413972 0.282290 0.157615 0 200 255
0.430915 0.340294 0.057803 0 200 255
0.472372 0.360505 0.136277 0 200 255
0.330253 0.271244 0.101894 0 200 255
0.450176 0.243931 0.158920 0 200 255
0.425167 0.382385 0.089567 0 200 255
0.462411 0.385584 0.126931 0 200 255
0.430511 0.339152 0.115936 0 200 255
0.366728 0.348375 0.130219 0 200 255
0.491431 0.324523 0.172013 0 200 255
0.382396 0.229277 0.131765 0 200 255
0.376973 0.249573 0.108044 0 200 255
0.469597 0.313831 0.176878 0 200 255
0.358788 0.244286 0.128209 0 200 255
0.339148 0.252063 0.101033 0 200 255
0.384622 0.240947 0.139564 0 200 255
0.346573 0.363786 0.127890 0 200 255
0.468050 0.336947 0.160424 0 200 255
0.444101 0.354367 0.146423 0 200 255
0.369970 0.337725 0.143820 0 200 255
0.411338 0.248909 0.126447 0 200 255
0.439365 0.337336 0.166456 0 200 255
0.419187 0.311924 0.135757 0 200 255
0.446422 0.387999 0.132265 0 200 255
0.470465 0.367407 0.154728 0 200 255
0.465715 0.309215 0.139224 0 200 255
0.399001 0.242092 0.141555 0 200 255
0.479135 0.266561 0.161283 0 200 255
0.494716 0.323024 0.160006 0 200 255
0.463762 0.250690 0.180606 0 200 255
0.454897 0.402619 0.100670 0 200 255
0.465832 0.353155 0.162876 0 200 255
0.456991 0.259265 0.178652 0 200 255
0.400399 0.325034 0.153120 0 200 255
0.459980 0.246579 0.145677 0 200 255
0.451104 0.388863 0.114479 0 200 255
0.475628 0.349302 0.147863 0 200 255
0.415480 0.235890 0.133106 0 200 255
0.469116 0.365306 0.127369 0 200 255
0.489458 0.284949 0.173840 0 200 255
0.421073 0.281791 0.140071 0 200 255
0.377901 0.229804 0.111952 0 200 255
0.441548 0.255073 0.149371 0 200 255
0.423179 0.384656 0.110012 0 200 255
0.470871 0.278557 0.180895 0 200 255
0.486554 0.302325 0.139153 0 200 255
0.340027 0.376836 0.113810 0 200 255
0.363356 0.234080 0.114605 0 200 255
0.435618 0.330129 0.160408 0 200 255
0.434686 0.360847 0.152567 0 200 255
0.342212 0.369775 0.135729 0 200 255
0.465464 0.353615 0.143454 0 200 255
0.456476 0.370822 0.118263 0 200 255
0.394267 0.255049 0.148946 0 200 255
0.489566 0.290295 0.146493 0 200 255
0.410821 0.261821 0.142911 0 200 255
0.345295 0.256453 0.109183 0 200 255
0.498388 0.297522 0.143977 0 200 255
0.424761 0.353412 0.097353 0 200 255
0.482667 0.303006 0.176530 0 200 255
0.429509 0.267590 0.172829 0 200 255
0.467055 0.282917 0.136053 0 200 255
0.413288 0.235677 0.122414 0 200 255
0.460887 0.389675 0.101826 0 200 255
0.453777 0.295859 0.139140 0 200 255
0.375847 0.244174 0.143906 0 200 255
0.429304 0.343036 0.141699 0 200 255
0.418955 0.362257 0.105377 0 200 255
0.355750 0.246781 0.109412 0 200 255
0.348608 0.247935 0.136450 0 200 255
0.428706 0.263748 0.155819 0 200 255
0.446901 0.287995 0.172590 0 200 255
0.335321 0.364309 0.112125 0 200 255
0.332123 0.255373 0.109584 0 200 255
0.455771 0.371627 0.151244 0 200 255
0.451060 0.377742 0.111989 0 200 255
0.476025 0.323193 0.177535 0 200 255
0.439781 0.354460 0.127588 0 200 255
0.351130 0.251985 0.127934 0 200 255
0.357134 0.350694 0.150727 0 200 255
0.455500 0.346551 0.149634 0 200 255
0.441752 0.329093 0.137311 0 200 255
0.475660 0.268084 0.177827 0 200 255
0.443738 0.400079 0.102230 0 200 255
0.459072 0.394035 0.093220 0 200 255
0.423833 0.323480 0.175727 0 200 255
0.408729 0.249165 0.151487 0 200 255
0.467925 0.261782 0.143927 0 200 255
0.488154 0.270631 0.150634 0 200 255
0.437834 0.274651 0.134773 0 200 255
0.357377 0.354962 0.136469 0 200 255
0.490134 0.309317 0.174515 0 200 255
0.434101 0.256192 0.143266 0 200 255
0.430571 0.284232 0.175674 0 200 255
0.474234 0.292814 0.177638 0 200 255
0.430739 0.303596 0.178751 0 200 255
0.432626 0.354047 0.108812 0 200 255
0.418528 0.346846 0.079573 0 200 255
0.381792 0.239888 0.107661 0 200 255
0.481243 0.269257 0.137264 0 200 255
0.347088 0.259453 0.120469 0 200 255
0.455624 0.262777 0.159898 0 200 255
0.450565 0.317743 0.177737 0 200 255
0.410541 0.292244 0.139308 0 200 255
0.393875 0.239845 0.133649 0 200 255
0.347337 0.361067 0.138629 0 200 255
0.433825 0.399112 0.106783 0 200 255
0.443348 0.398961 0.091710 0 200 255
0.471895 0.339939 0.174038 0 200 255
0.374610 0.239599 0.135198 0 200 255
0.340555 0.265489 0.123669 0 200 255
0.453269 0.351795 0.141638 0 200 255
0.496927 0.296136 0.163164 0 200 255
0.408475 0.317751 0.152236 0 200 255
0.448812 0.400486 0.119586 0 200 255
0.391490 0.241881 0.113946 0 200 255
0.496597 0.307133 0.149922 0 200 255
0.387272 0.337286 0.155222 0 200 255
0.355885 0.362513 0.145887 0 200 255
0.436683 0.363651 0.118569 0 200 255
0.434775 0.349118 0.117679 0 200 255
0.422357 0.337960 0.121620 0 200 255
0.462315 0.364878 0.150572 0 200 255
0.470866 0.268464 0.136672 0 200 255
0.430563 0.376654 0.121940 0 200 255
0.433635 0.346579 0.150851 0 200 255
0.442702 0.269209 0.150130 0 200 255
0.386164 0.258404 0.122830 0 200 255
0.436352 0.372171 0.112958 0 200 255
0.359434 0.255173 0.113973 0 200 255
0.412884 0.311058 0.175034 0 200 255
0.481951 0.252831 0.141448 0 200 255
0.498804 0.278089 0.148466 0 200 255
0.350758 0.358686 0.119009 0 200 255
0.444703 0.390873 0.075898 0 200 255
0.406500 0.319821 0.164790 0 200 255
0.390103 0.325747 0.144017 0 200 255
0.422999 0.356350 0.077106 0 200 255
0.478265 0.267731 0.152258 0 200 255
0.431031 0.389375 0.104352 0 200 255
0.466091 0.377212 0.128645 0 200 255
0.433131 0.256864 0.168417 0 200 255
0.432524 0.329746 0.142407 0 200 255
0.474451 0.344168 0.163853 0 200 255
0.431458 0.357570 0.092806 0 200 255
0.436376 0.310964 0.142267 0 200 255
0.441798 0.368250 0.142323 0 200 255
0.344172 0.265172 0.107009 0 200 255
0.367404 0.243438 0.114243 0 200 255
0.379622 0.261036 0.139324 0 200 255
0.455712 0.379734 0.147111 0 200 255
0.442743 0.348916 0.161882 0 200 255
0.455763 0.342355 0.176340 0 200 255
0.455198 0.362351 0.155467 0 200 255
0.422553 0.355862 0.119859 0 200 255
0.365862 0.350669 0.140965 0 200 255
0.500249 0.289957 0.157573 0 200 255
0.346680 0.242142 0.108420 0 200 255
0.470010 0.323425 0.142323 0 200 255
0.359056 0.245883 0.137020 0 200 255
0.426960 0.348603 0.160570 0 200 255
0.374398 0.251161 0.124542 0 200 255
0.412094 0.326170 0.168447 0 200 255
0.470289 0.367453 0.145780 0 200 255
0.362054 0.241134 0.106509 0 200 255
0.437695 0.385374 0.125853 0 200 255
0.444341 0.332623 0.145109 0 200 255
0.370352 0.258603 0.133248 0 200 255
0.423940 0.351534 0.139442 0 200 255
0.444099 0.387546 0.085501 0 200 255
0.387260 0.237565 0.120490 0 200 255
0.383259 0.328578 0.150140 0 200 255
0.432539 0.384246 0.113321 0 200 255
0.454296 0.385253 0.107036 0 200 255
0.407125 0.303929 0.163487 0 200 255
0.381294 0.336131 0.133974 0 200 255
0.458561 0.395230 0.108901 0 200 255
0.473347 0.359611 0.158674 0 200 255
0.433631 0.390239 0.084654 0 200 255
0.480820 0.350118 0.165100 0 200 255
0.482177 0.344257 0.152649 0 200 255
0.403235 0.307131 0.144225 0 200 255
0.430979 0.378345 0.095697 0 200 255
0.478294 0.337407 0.142416 0 200 255
0.421606 0.241310 0.143600 0 200 255
0.433532 0.400664 0.081907 0 200 255
0.456271 0.383304 0.132891 0 200 255
0.432208 0.267419 0.137735 0 200 255
0.371017 0.356396 0.145018 0 200 255
0.441929 0.320874 0.177121 0 200 255
0.405003 0.332320 0.151998 0 200 255
0.426197 0.380628 0.129885 0 200 255
0.416530 0.315983 0.168324 0 200 255
0.498863 0.285663 0.140443 0 200 255
0.433435 0.353123 0.085320 0 200 255
0.416167 0.356083 0.125723 0 200 255
0.437394 0.259704 0.157195 0 200 255
0.452890 0.391032 0.125161 0 200 255
0.451792 0.283450 0.178094 0 200 255
0.465208 0.253470 0.145899 0 200 255
0.446754 0.253049 0.165281 0 200 255
0.430436 0.368706 0.137576 0 200 255
0.423989 0.351673 0.063439 0 200 255
0.404913 0.240362 0.149312 0 200 255
0.387632 0.345042 0.140327 0 200 255
0.357208 0.347761 0.142512 0 200 255
0.373333 0.229297 0.130063 0 200 255
0.412296 0.253100 0.134985 0 200 255
0.420451 0.267471 0.160788 0 200 255
0.435125 0.294346 0.178940 0 200 255
0.379597 0.341319 0.152563 0 200 255
0.417071 0.315434 0.144319 0 200 255
0.417751 0.347380 0.096360 0 200 255
0.434591 0.314245 0.173201 0 200 255
0.425612 0.326685 0.151568 0 200 255
0.435444 0.379062 0.131519 0 200 255
0.420521 0.390879 0.100791 0 200 255
0.350402 0.259838 0.131161 0 200 255
0.332492 0.363611 0.128808 0 200 255
0.435600 0.347178 0.130845 0 200 255
0.434844 0.270819 0.146594 0 200 255
0.331744 0.276001 0.111784 0 200 255
0.449240 0.375808 0.123365 0 200 255
0.397302 0.231827 0.130043 0 200 255
0.410581 0.291231 0.152612 0 200 255
0.448639 0.352485 0.134342 0 200 255
0.377276 0.237752 0.127178 0 200 255
0.400900 0.258567 0.121109 0 200 255
0.437374 0.338058 0.155378 0 200 255
0.451290 0.259359 0.149380 0 200 255
0.344444 0.354926 0.133652 0 200 255
0.368452 0.349415 0.148952 0 200 255
0.393284 0.331989 0.149223 0 200 255
0.458722 0.239099 0.142059 0 200 255
0.422795 0.336512 0.138959 0 200 255
0.366286 0.251127 0.139576 0 200 255
0.355485 0.244051 0.119554 0 200 255
0.426905 0.255314 0.138611 0 200 255
0.399822 0.330411 0.161982 0 200 255
0.427461 0.395748 0.093473 0 200 255
0.433278 0.319420 0.148791 0 200 255
0.470102 0.262664 0.153847 0 200 255
0.454666 0.268486 0.180718 0 200 255
0.489028 0.253239 0.146926 0 200 255
0.460818 0.294856 0.172626 0 200 255
0.444782 0.399185 0.075210 0 200 255
0.494448 0.292995 0.170845 0 200 255
0.358259 0.365618 0.131889 0 200 255
0.424232 0.394273 0.074610 0 200 255
0.420875 0.340827 0.148547 0 200 255
0.460438 0.353916 0.156578 0 200 255
0.423257 0.360197 0.140997 0 200 255
0.431688 0.357253 0.078224 0 200 255
0.453469 0.366091 0.144785 0 200 255
0.433493 0.352613 0.100690 0 200 255
0.342650 0.253590 0.116639 0 200 255
0.495506 0.261261 0.154336 0 200 255
0.410877 0.309626 0.140647 0 200 255
0.382912 0.229761 0.123549 0 200 255
0.323889 0.267422 0.119775 0 200 255
0.433228 0.362517 0.127614 0 200 255
0.457142 0.322978 0.172834 0 200 255
0.402295 0.254192 0.150780 0 200 255
0.376064 0.333527 0.147337 0 200 255
0.405603 0.239402 0.125068 0 200 255
0.460908 0.377885 0.115996 0 200 255
0.356806 0.253199 0.104340 0 200 255
0.457788 0.235900 0.159125 0 200 255
0.370475 0.342885 0.157932 0 200 255
0.349736 0.370867 0.119082 0 200 255
0.351916 0.259286 0.113240 0 200 255
0.457878 0.326843 0.142360 0 200 255
0.409590 0.257751 0.150259 0 200 255
0.424531 0.338678 0.110442 0 200 255
0.408405 0.313183 0.160312 0 200 255
0.448427 0.260259 0.178142 0 200 255
0.455161 0.277403 0.135595 0 200 255
0.363807 0.349940 0.155586 0 200 255
0.448846 0.362024 0.150449 0 200 255
0.487646 0.250729 0.179586 0 200 255
0.417233 0.250403 0.150952 0 200 255
0.421870 0.281777 0.174505 0 200 255
0.375098 0.345386 0.131095 0 200 255
0.395935 0.235276 0.112522 0 200 255
0.456311 0.246441 0.165337 0 200 255
0.456267 0.360179 0.131244 0 200 255
0.329421 0.267287 0.108857 0 200 255
0.418776 0.262254 0.145265 0 200 255
0.426711 0.299672 0.135022 0 200 255
0.430295 0.336351 0.074849 0 200 255
0.416375 0.278971 0.147143 0 200 255
0.391018 0.329845 0.158166 0 200 255
0.379187 0.350853 0.136691 0 200 255
0.367638 0.253844 0.112375 0 200 255
0.454974 0.241681 0.172114 0 200 255
0.405176 0.260986 0.137306 0 200 255
0.415472 0.278006 0.164498 0 200 255
0.432127 0.386300 0.096880 0 200 255
0.436912 0.354293 0.141401 0 200 255
0.387176 0.233598 0.141314 0 200 255
0.389694 0.331365 0.138378 0 200 255
0.456247 0.344015 0.157181 0 200 255
0.405399 0.324498 0.142897 0 200 255
0.455941 0.261769 0.136159 0 200 255
0.444727 0.267739 0.159945 0 200 255
0.350666 0.237519 0.128557 0 200 255
0.426460 0.348712 0.107900 0 200 255
0.426505 0.250211 0.149054 0 200 255
0.419887 0.247849 0.121012 0 200 255
0.459971 0.283892 0.173674 0 200 255
0.433898 0.361010 0.144475 0 200 255
0.417327 0.349108 0.134373 0 200 255
0.385631 0.256200 0.146177 0 200 255
0.453440 0.380921 0.098480 0 200 255
0.495911 0.278361 0.167540 0 200 255
0.455808 0.270003 0.147285 0 200 255
0.483362 0.259338 0.178853 0 200 255
0.498896 0.308161 0.162064 0 200 255
0.425176 0.360934 0.131628 0 200 255
0.427338 0.316847 0.143586 0 200 255
0.438145 0.351328 0.155198 0 200 255
0.494332 0.263124 0.161878 0 200 255
0.433297 0.350168 0.066407 0 200 255
0.415990 0.352092 0.115729 0 200 255
0.416079 0.325441 0.156786 0 200 255
0.445819 0.373582 0.137121 0 200 255
0.440954 0.361528 0.147844 0 200 255
0.459798 0.313390 0.136246 0 200 255
0.447383 0.383770 0.119950 0 200 255
0.329518 0.379249 0.114628 0 200 255
0.442014 0.346183 0.145473 0 200 255
0.493657 0.324462 0.141888 0 200 255
0.430371 0.283778 0.142501 0 200 255
0.452535 0.329471 0.178218 0 200 255
0.417949 0.312358 0.157175 0 200 255
0.445373 0.250456 0.154819 0 200 255
0.439716 0.366994 0.154693 0 200 255
0.437121 0.388479 0.117990 0 200 255
0.414816 0.253105 0.118073 0 200 255
0.464624 0.333183 0.152552 0 200 255
0.395055 0.261146 0.136208 0 200 255
0.445800 0.316723 0.136660 0 200 255
0.330116 0.257804 0.119338 0 200 255
0.478600 0.259264 0.158717 0 200 255
0.444759 0.391408 0.104230 0 200 255
0.428432 0.331018 0.165323 0 200 255
0.466122 0.345645 0.175551 0 200 255
0.391105 0.244205 0.147041 0 200 255
0.426012 0.304823 0.172777 0 200 255
0.340959 0.270064 0.101987 0 200 255
0.346763 0.254457 0.099214 0 200 255
0.340430 0.245705 0.122347 0 200 255
0.459480 0.388538 0.085058 0 200 255
0.460827 0.336861 0.163091 0 200 255
0.396570 0.238099 0.149960 0 200 255
0.426966 0.345398 0.082897 0 200 255
0.430622 0.344598 0.100802 0 200 255
0.451718 0.327479 0.155853 0 200 255
0.486738 0.338406 0.165924 0 200 255
0.435273 0.382724 0.138364 0 200 255
0.421363 0.389153 0.088535 0 200 255
0.401344 0.230772 0.123623 0 200 255
0.425802 0.257216 0.146036 0 200 255
0.339074 0.376098 0.121471 0 200 255
0.417815 0.347279 0.087202 0 200 255
0.329534 0.375495 0.124860 0 200 255
0.461535 0.388408 0.119169 0 200 255
0.479115 0.252185 0.182536 0 200 255
0.389501 0.231449 0.133503 0 200 255
0.352350 0.369680 0.129290 0 200 255
0.457194 0.390362 0.076914 0 200 255
0.405785 0.298983 0.146192 0 200 255
0.353539 0.265563 0.107392 0 200 255
0.438579 0.390643 0.091571 0 200 255
0.449252 0.397843 0.086473 0 200 255
0.429760 0.370449 0.117555 0 200 255
0.467245 0.275145 0.136346 0 200 255
0.370787 0.232674 0.115373 0 200 255
0.469538 0.258003 0.177170 0 200 255
0.487064 0.276243 0.136587 0 200 255
0.412000 0.240553 0.141018 0 200 255
0.420246 0.344128 0.069679 0 200 255
0.340522 0.250614 0.128177 0 200 255
0.454675 0.340892 0.168978 0 200 255
0.440873 0.304563 0.173901 0 200 255
0.401996 0.233773 0.135658 0 200 255
0.444468 0.277255 0.140514 0 200 255
0.477846 0.323588 0.136125 0 200 255
0.489565 0.335548 0.144326 0 200 255
0.392783 0.341470 0.146817 0 200 255
0.430350 0.256263 0.161419 0 200 255
0.471614 0.250615 0.133687 0 200 255
0.481493 0.246505 0.136431 0 200 255
0.477840 0.274998 0.179858 0 200 255
0.424756 0.349061 0.148856 0 200 255
0.438001 0.288643 0.134812 0 200 255
0.424731 0.255159 0.154664 0 200 255
0.476121 0.332504 0.175021 0 200 255
0.366305 0.360089 0.133316 0 200 255
0.419156 0.358152 0.088577 0 200 255
0.390487 0.342112 0.159974 0 200 255
0.442765 0.260157 0.139682 0 200 255
0.425014 0.392692 0.118498 0 200 255
0.436751 0.261959 0.172554 0 200 255
0.444110 0.339633 0.158882 0 200 255
0.447574 0.381288 0.135379 0 200 255
0.360431 0.355588 0.145210 0 200 255
0.381283 0.240763 0.147721 0 200 255
0.363824 0.239131 0.120055 0 200 255
0.435632 0.397549 0.089063 0 200 255
0.451565 0.351753 0.153212 0 200 255
0.355719 0.244925 0.102218 0 200 255
0.402045 0.254711 0.113750 0 200 255
0.463016 0.348102 0.147787 0 200 255
0.384856 0.256166 0.111942 0 200 255
0.370452 0.255029 0.119143 0 200 255
0.467676 0.334588 0.144483 0 200 255
0.404073 0.242364 0.117267 0 200 255
0.460705 0.339669 0.153155 0 200 255
0.342493 0.273268 0.117088 0 200 255
0.429032 0.271025 0.154510 0 200 255
0.442976 0.360140 0.123478 0 200 255
0.427765 0.318569 0.135854 0 200 255
0.448825 0.270161 0.139488 0 200 255
0.338899 0.370377 0.109993 0 200 255
0.448115 0.367844 0.123536 0 200 255
0.351331 0.350683 0.135718 0 200 255
0.408623 0.330623 0.145699 0 200 255
0.358550 0.251386 0.126331 0 200 255
0.379368 0.235287 0.118224 0 200 255
0.382155 0.348471 0.154345 0 200 255
0.497664 0.283871 0.152845 0 200 255
0.337186 0.257954 0.104945 0 200 255
0.405438 0.253827 0.132482 0 200 255
0.372789 0.237674 0.142426 0 200 255
0.435441 0.343977 0.086542 0 200 255
0.469799 0.285795 0.180568 0 200 255
0.422487 0.318961 0.159555 0 200 255
0.488058 0.321202 0.137650 0 200 255
0.427492 0.379387 0.105857 0 200 255
0.465979 0.377222 0.141587 0 200 255
0.413857 0.357735 0.102781 0 200 255
0.465245 0.274036 0.179965 0 200 255
0.450384 0.382272 0.086998 0 200 255
0.469386 0.333498 0.177573 0 200 255
0.425369 0.360088 0.108024 0 200 255
0.460186 0.239987 0.149122 0 200 255
0.348148 0.249791 0.107991 0 200 255
0.456531 0.242929 0.155551 0 200 255
0.447081 0.307215 0.178508 0 200 255
0.419662 0.307659 0.175417 0 200 255
0.337863 0.257887 0.126221 0 200 255
0.440733 0.379657 0.111094 0 200 255
0.439862 0.387409 0.111308 0 200 255
0.341894 0.370444 0.116709 0 200 255
0.493091 0.270637 0.145348 0 200 255
0.354854 0.353290 0.126520 0 200 255
0.440330 0.284545 0.172590 0 200 255
0.473441 0.343195 0.142963 0 200 255
0.451442 0.251273 0.159275 0 200 255
0.419657 0.365626 0.112131 0 200 255
0.480544 0.308027 0.139201 0 200 255
0.494791 0.315620 0.146064 0 200 255
0.372143 0.244242 0.107629 0 200 255
0.490371 0.270077 0.158473 0 200 255
0.431320 0.349824 0.140423 0 200 255
0.408162 0.311523 0.148650 0 200 255
0.375816 0.333757 0.138022 0 200 255
0.480750 0.315914 0.135872 0 200 255
0.425499 0.347111 0.056934 0 200 255
0.475750 0.247234 0.177251 0 200 255
0.448426 0.362997 0.157752 0 200 255
0.362660 0.240762 0.133518 0 200 255
0.442519 0.274701 0.178968 0 200 255
0.331551 0.265338 0.098069 0 200 255
0.425392 0.380918 0.116044 0 200 255
0.421337 0.394393 0.106970 0 200 255
0.436359 0.341352 0.075442 0 200 255
0.457196 0.357678 0.139431 0 200 255
0.464479 0.288858 0.139078 0 200 255
0.417355 0.298568 0.136271 0 200 255
0.480072 0.290902 0.135337 0 200 255
0.326380 0.274398 0.107047 0 200 255
0.335239 0.252484 0.115309 0 200 255
0.459065 0.331972 0.176585 0 200 255
0.328155 0.368539 0.113455 0 200 255
0.469423 0.359819 0.142798 0 200 255
0.356383 0.238601 0.114615 0 200 255
0.439618 0.271002 0.172474 0 200 255
0.464065 0.266373 0.138915 0 200 255
0.477971 0.262415 0.139149 0 200 255
0.323481 0.267345 0.104980 0 200 255
0.449743 0.394262 0.131475 0 200 255
0.428863 0.387153 0.126232 0 200 255
0.357795 0.259919 0.106332 0 200 255
0.452813 0.387821 0.092018 0 200 255
0.467641 0.345721 0.168488 0 200 255
0.464645 0.256373 0.162313 0 200 255
0.458957 0.370532 0.144589 0 200 255
0.339443 0.376897 0.129429 0 200 255
0.428639 0.324572 0.139463 0 200 255
0.366831 0.341164 0.132280 0 200 255
0.466199 0.244785 0.174735 0 200 255
0.381140 0.334000 0.154202 0 200 255
0.455650 0.250343 0.141617 0 200 255
0.447071 0.387112 0.098979 0 200 255
0.491070 0.280614 0.147895 0 200 255
0.372897 0.242544 0.121928 0 200 255
0.424900 0.285634 0.135635 0 200 255
0.448790 0.302442 0.140781 0 200 255
0.463891 0.252823 0.154655 0 200 255
0.432229 0.290690 0.172968 0 200 255
0.373023 0.245015 0.130696 0 200 255
0.412569 0.239757 0.128038 0 200 255
0.394995 0.231517 0.118739 0 200 255
0.438993 0.371864 0.149741 0 200 255
0.386880 0.336127 0.162784 0 200 255
0.416568 0.350398 0.142575 0 200 255
0.462746 0.303642 0.179923 0 200 255
0.426937 0.344645 0.094872 0 200 255
0.394818 0.262434 0.144268 0 200 255
0.379054 0.335488 0.160722 0 200 255
0.340673 0.367252 0.129190 0 200 255
0.472104 0.287975 0.139064 0 200 255
0.443237 0.305654 0.136017 0 200 255
0.445624 0.399486 0.113484 0 200 255
0.438494 0.382232 0.097266 0 200 255
0.434920 0.392972 0.113167 0 200 255
0.387903 0.230328 0.118415 0 200 255
0.464745 0.380307 0.121297 0 200 255
0.492899 0.328694 0.156430 0 200 255
0.500695 0.302459 0.165597 0 200 255
0.434546 0.330902 0.175548 0 200 255
0.407878 0.308192 0.155524 0 200 255
0.399919 0.317015 0.151560 0 200 255
0.486367 0.335496 0.159094 0 200 255
0.436681 0.344505 0.139497 0 200 255
0.458793 0.384271 0.142739 0 200 255
0.444306 0.336753 0.171271 0 200 255
0.481290 0.256965 0.135945 0 200 255
0.453894 0.243313 0.145618 0 200 255
0.339668 0.359088 0.128052 0 200 255
0.388201 0.259749 0.129288 0 200 255
0.445902 0.290003 0.180385 0 200 255
0.370377 0.339202 0.150550 0 200 255
0.452153 0.394963 0.106368 0 200 255
0.435410 0.313283 0.135849 0 200 255
0.449243 0.400691 0.097236 0 200 255
0.450825 0.388085 0.074408 0 200 255
0.438981 0.372908 0.137188 0 200 255
0.330226 0.269860 0.122213 0 200 255
0.453808 0.398359 0.124682 0 200 255
0.429841 0.342862 0.076947 0 200 255
0.454615 0.388341 0.098702 0 200 255
0.393416 0.252927 0.110891 0 200 255
0.444379 0.376202 0.115751 0 200 255
0.345297 0.264973 0.128579 0 200 255
0.427429 0.262682 0.138989 0 200 255
0.379754 0.254815 0.142166 0 200 255
0.397942 0.336902 0.146175 0 200 255
0.429941 0.326339 0.160198 0 200 255
0.445854 0.323661 0.136835 0 200 255
0.421180 0.344608 0.106557 0 200 255
0.400605 0.240106 0.130339 0 200 255
0.431084 0.395108 0.100458 0 200 255
0.376063 0.237558 0.112610 0 200 255
0.353494 0.361754 0.128929 0 200 255
0.460539 0.238827 0.166833 0 200 255
0.365111 0.245696 0.126110 0 200 255
0.481498 0.295321 0.177183 0 200 255
0.439285 0.384723 0.132421 0 200 255
0.408291 0.250948 0.116947 0 200 255
0.424788 0.358953 0.147488 0 200 255
0.389938 0.330058 0.164859 0 200 255
0.420894 0.280578 0.158319 0 200 255
0.370380 0.354873 0.152476 0 200 255
0.345689 0.251143 0.123827 0 200 255
0.437957 0.392407 0.105086 0 200 255
0.409429 0.301138 0.169572 0 200 255
0.465115 0.371465 0.153975 0 200 255
0.425664 0.355722 0.125847 0 200 255
0.453785 0.292102 0.172907 0 200 255
0.353872 0.355658 0.147549 0 200 255
0.457984 0.396563 0.102327 0 200 255
0.435416 0.304622 0.140222 0 200 255
0.424632 0.365569 0.103923 0 200 255
0.457695 0.377438 0.138334 0 200 255
0.493766 0.255424 0.157888 0 200 255
0.434070 0.350683 0.125321 0 200 255
0.443227 0.395293 0.097543 0 200 255
0.473854 0.354244 0.143673 0 200 255
0.347028 0.373325 0.132676 0 200 255
0.448546 0.385591 0.126371 0 200 255
0.423107 0.337913 0.065809 0 200 255
0.348126 0.241336 0.133630 0 200 255
0.438417 0.280600 0.178525 0 200 255
0.454751 0.398008 0.077010 0 200 255
0.422981 0.336021 0.152713 0 200 255
0.341176 0.267215 0.112641 0 200 255
0.493872 0.298442 0.139118 0 200 255
0.404776 0.311740 0.138891 0 200 255
0.456919 0.398944 0.088118 0 200 255
0.436532 0.354899 0.149777 0 200 255
0.421300 0.341501 0.159810 0 200 255
0.487088 0.341610 0.146467 0 200 255
0.489848 0.263486 0.171285 0 200 255
0.427573 0.362361 0.120945 0 200 255
0.424265 0.401724 0.082381 0 200 255
0.428683 0.336404 0.123026 0 200 255
0.423225 0.261665 0.151076 0 200 255
0.437791 0.251847 0.154923 0 200 255
0.390506 0.323572 0.160291 0 200 255
0.392547 0.241447 0.139953 0 200 255
0.435261 0.265923 0.151759 0 200 255
0.420916 0.356999 0.112494 0 200 255
0.364787 0.360732 0.145518 0 200 255
0.434943 0.339093 0.062921 0 200 255
0.452236 0.358585 0.143948 0 200 255
0.470073 0.244187 0.133962 0 200 255
0.476974 0.300610 0.139150 0 200 255
0.410918 0.288742 0.159658 0 200 255
0.362443 0.234537 0.106548 0 200 255
0.499628 0.280235 0.162414 0 200 255
0.443968 0.324068 0.155975 0 200 255
0.370899 0.233878 0.121859 0 200 255
0.494950 0.271631 0.152547 0 200 255
0.401301 0.313052 0.146395 0 200 255
0.419040 0.323372 0.163042 0 200 255
0.461799 0.287693 0.181195 0 200 255
0.428668 0.383132 0.083717 0 200 255
0.445418 0.338435 0.148019 0 200 255
0.412396 0.323812 0.143097 0 200 255
0.354970 0.249028 0.132386 0 200 255
0.428334 0.318312 0.178038 0 200 255
0.345381 0.269938 0.123296 0 200 255
0.332184 0.261429 0.112144 0 200 255
0.434498 0.377324 0.143117 0 200 255
0.461073 0.248853 0.137432 0 200 255
0.432753 0.337240 0.128238 0 200 255
0.425624 0.361355 0.091810 0 200 255
0.422647 0.386001 0.094434 0 200 255
0.416746 0.241342 0.122081 0 200 255
0.467029 0.360268 0.131121 0 200 255
0.409717 0.254472 0.123208 0 200 255
0.408045 0.236157 0.134346 0 200 255
0.419903 0.343109 0.133875 0 200 255
0.450097 0.363886 0.131950 0 200 255
0.490291 0.275829 0.173564 0 200 255
0.421742 0.352665 0.131118 0 200 255
0.433099 0.362758 0.138102 0 200 255
0.326997 0.369363 0.124632 0 200 255
0.402198 0.317963 0.159571 0 200 255
0.357139 0.261873 0.128434 0 200 255
0.486128 0.325927 0.142325 0 200 255
0.376706 0.257999 0.125890 0 200 255
0.434102 0.351647 0.072705 0 200 255
0.444743 0.285472 0.139073 0 200 255
0.377338 0.231747 0.135040 0 200 255
0.481611 0.267783 0.146675 0 200 255
0.487154 0.320930 0.175355 0 200 255
0.360371 0.348591 0.136818 0 200 255
0.430524 0.358793 0.115115 0 200 255
0.348723 0.364335 0.121490 0 200 255
0.424559 0.396963 0.086880 0 200 255
0.428164 0.304916 0.140231 0 200 255
0.419608 0.323098 0.145428 0 200 255
0.434718 0.250776 0.146771 0 200 255
0.358226 0.249786 0.118303 0 200 255
0.447687 0.383112 0.113272 0 200 255
0.371520 0.352715 0.130049 0 200 255
0.450816 0.298655 0.179144 0 200 255
0.441825 0.249189 0.146728 0 200 255
0.444782 0.373681 0.144300 0 200 255
0.374663 0.254306 0.112821 0 200 255
0.475256 0.356001 0.153685 0 200 255
0.420695 0.311094 0.167785 0 200 255
0.392795 0.341419 0.153327 0 200 255
0.422255 0.268698 0.167892 0 200 255
0.415131 0.276988 0.154118 0 200 255
0.364006 0.341808 0.144461 0 200 255
0.481582 0.262295 0.153194 0 200 255
0.464830 0.363736 0.156384 0 200 255
