ply
format ascii 1.0
element vertex 1024
property float x
property float y
property float z
property uchar red
property uchar green
property uchar blue
end_header
0.439628 0.334401 0.157800 0 200 255
0.322072 0.281146 0.106309 0 200 255
0.450563 0.399873 0.075754 0 200 255
0.412778 0.244697 0.125018 0 200 255
0.334690 0.378987 0.106331 0 200 255
0.484608 0.253013 0.173303 0 200 255
0.368719 0.337697 0.153338 0 200 255
0.422771 0.338460 0.070159 0 200 255
0.450152 0.392290 0.137612 0 200 255
0.427405 0.276673 0.177040 0 200 255
0.490385 0.305351 0.139375 0 200 255
0.357085 0.253513 0.142941 0 200 255
0.411160 0.360757 0.118809 0 200 255
0.407379 0.302506 0.141380 0 200 255
0.451731 0.271884 0.135750 0 200 255
0.466260 0.302131 0.179677 0 200 255
0.482817 0.343430 0.162528 0 200 255
0.445686 0.236769 0.165290 0 200 255
0.402917 0.325529 0.176793 0 200 255
0.378656 0.259075 0.110306 0 200 255
0.421589 0.395157 0.102723 0 200 255
0.394812 0.267553 0.149473 0 200 255
0.361614 0.357148 0.121785 0 200 255
0.459847 0.356433 0.136622 0 200 255
0.343702 0.252204 0.109564 0 200 255
0.482366 0.250700 0.137999 0 200 255
0.447670 0.307240 0.137629 0 200 255
0.430280 0.367409 0.149573 0 200 255
0.493896 0.285821 0.166578 0 200 255
0.459662 0.389388 0.105816 0 200 255
0.346817 0.280920 0.128235 0 200 255
0.424728 0.365751 0.087341 0 200 255
0.425018 0.257385 0.151798 0 200 255
0.431721 0.312618 0.180616 0 200 255
0.385172 0.238949 0.140337 0 200 255
0.456956 0.266332 0.179247 0 200 255
0.402689 0.333787 0.147277 0 200 255
0.439824 0.369923 0.117720 0 200 255
0.404878 0.296145 0.171739 0 200 255
0.459184 0.337466 0.179679 0 200 255
0.427782 0.339885 0.131487 0 200 255
0.491668 0.314766 0.169329 0 200 255
0.458289 0.369384 0.161783 0 200 255
0.463439 0.329565 0.144323 0 200 255
0.455656 0.243730 0.135353 0 200 255
0.425387 0.279924 0.135470 0 200 255
0.423680 0.395265 0.075132 0 200 255
0.485509 0.277396 0.141831 0 200 255
0.365314 0.238527 0.121558 0 200 255
0.382066 0.344713 0.132141 0 200 255
0.336372 0.360814 0.124538 0 200 255
0.425026 0.387348 0.129083 0 200 255
0.462195 0.255729 0.157260 0 200 255
0.418690 0.346347 0.164250 0 200 255
0.356254 0.358135 0.146695 0 200 255
0.374172 0.268440 0.132475 0 200 255
0.442559 0.303131 0.161029 0 200 255
0.426700 0.348457 0.104903 0 200 255
0.335194 0.259313 0.130921 0 200 255
0.468831 0.295057 0.139827 0 200 255
0.464868 0.242996 0.181808 0 200 255
0.345841 0.275556 0.105209 0 200 255
0.439411 0.384405 0.091557 0 200 255
0.441444 0.399185 0.117052 0 200 255
0.404953 0.244887 0.151058 0 200 255
0.421361 0.320766 0.151097 0 200 255
0.397701 0.264811 0.126775 0 200 255
0.464269 0.376848 0.126957 0 200 255
0.412853 0.353762 0.142033 0 200 255
0.444215 0.272485 0.157380 0 200 255
0.390509 0.240820 0.118389 0 200 255
0.460141 0.346352 0.158925 0 200 255
0.386142 0.325127 0.159640 0 200 255
0.347423 0.359892 0.104837 0 200 255
0.413918 0.277057 0.155695 0 200 255
0.324742 0.282147 0.128764 0 200 255
0.446545 0.292818 0.180292 0 200 255
0.484891 0.326476 0.145330 0 200 255
0.477353 0.273282 0.175692 0 200 255
0.433578 0.256522 0.171498 0 200 255
0.434704 0.335153 0.178646 0 200 255
0.478521 0.328829 0.177760 0 200 255
0.403709 0.313573 0.159725 0 200 255
0.356975 0.261887 0.122127 0 200 255
0.452281 0.318374 0.180795 0 200 255
0.449503 0.372934 0.143091 0 200 255
0.375987 0.256411 0.149042 0 200 255
0.415954 0.347445 0.088043 0 200 255
0.447592 0.402221 0.096326 0 200 255
0.439530 0.351133 0.142775 0 200 255
0.440959 0.325752 0.138726 0 200 255
0.480488 0.263037 0.156646 0 200 255
0.425828 0.357813 0.069173 0 200 255
0.427750 0.360235 0.129483 0 200 255
0.387236 0.343831 0.153061 0 200 255
0.424086 0.368688 0.106792 0 200 255
0.442832 0.251254 0.148673 0 200 255
0.330510 0.265638 0.113333 0 200 255
0.420679 0.324080 0.170276 0 200 255
0.384573 0.327520 0.140935 0 200 255
0.412860 0.259162 0.137419 0 200 255
0.458151 0.386762 0.086949 0 200 255
0.336490 0.291499 0.112338 0 200 255
0.466157 0.259299 0.134454 0 200 255
0.361589 0.342190 0.136749 0 200 255
0.423998 0.294550 0.173507 0 200 255
0.476579 0.342994 0.144714 0 200 255
0.425830 0.303317 0.141345 0 200 255
0.470636 0.359647 0.151132 0 200 255
0.494651 0.301327 0.157870 0 200 255
0.432797 0.346611 0.082507 0 200 255
0.461201 0.285559 0.173554 0 200 255
0.420877 0.338685 0.148477 0 200 255
0.436344 0.351690 0.160130 0 200 255
0.468131 0.277261 0.139071 0 200 255
0.373763 0.352954 0.146495 0 200 255
0.469719 0.312219 0.137028 0 200 255
0.436314 0.384515 0.108997 0 200 255
0.350960 0.368407 0.130064 0 200 255
0.451634 0.289068 0.136678 0 200 255
0.411055 0.359435 0.100481 0 200 255
0.448045 0.384252 0.122393 0 200 255
0.409214 0.283727 0.139773 0 200 255
0.414207 0.309565 0.176844 0 200 255
0.480356 0.293713 0.173257 0 200 255
0.432548 0.400330 0.088712 0 200 255
0.397536 0.249297 0.135099 0 200 255
0.469189 0.349566 0.173847 0 200 255
0.347935 0.351017 0.132826 0 200 255
0.434999 0.381608 0.142163 0 200 255
0.359964 0.248745 0.109537 0 200 255
0.422902 0.384492 0.090036 0 200 255
0.435081 0.262384 0.139353 0 200 255
0.400955 0.297148 0.155544 0 200 255
0.351110 0.267511 0.136708 0 200 255
0.450804 0.251317 0.170831 0 200 255
0.373685 0.247661 0.132135 0 200 255
0.444328 0.358644 0.129163 0 200 255
0.464864 0.374902 0.147931 0 200 255
0.417731 0.263751 0.164627 0 200 255
0.406671 0.318515 0.144568 0 200 255
0.416287 0.345868 0.121546 0 200 255
0.329939 0.364205 0.110353 0 200 255
0.346143 0.372796 0.115491 0 200 255
0.320796 0.292621 0.117526 0 200 255
0.393667 0.255884 0.114245 0 200 255
0.399584 0.333788 0.162763 0 200 255
0.449533 0.358701 0.152355 0 200 255
0.376003 0.243559 0.110856 0 200 255
0.455532 0.398530 0.124201 0 200 255
0.494766 0.288103 0.148578 0 200 255
0.442754 0.275462 0.179053 0 200 255
0.451111 0.338887 0.145268 0 200 255
0.337074 0.368050 0.095757 0 200 255
0.445204 0.343721 0.171576 0 200 255
0.431947 0.349819 0.119204 0 200 255
0.390164 0.251904 0.152177 0 200 255
0.476884 0.313796 0.176461 0 200 255
0.435920 0.292136 0.139828 0 200 255
0.408659 0.262307 0.152575 0 200 255
0.454326 0.331404 0.159177 0 200 255
0.490548 0.274417 0.157338 0 200 255
0.429214 0.271732 0.157014 0 200 255
0.422121 0.385640 0.114149 0 200 255
0.413319 0.283315 0.169075 0 200 255
0.345130 0.249927 0.124031 0 200 255
0.485606 0.291394 0.137315 0 200 255
0.347661 0.351814 0.118184 0 200 255
0.433086 0.384235 0.077358 0 200 255
0.335674 0.273269 0.135290 0 200 255
0.440636 0.278045 0.144466 0 200 255
0.410328 0.259363 0.122175 0 200 255
0.365650 0.358595 0.135586 0 200 255
0.365786 0.265330 0.144065 0 200 255
0.489627 0.252911 0.150269 0 200 255
0.414743 0.358684 0.079206 0 200 255
0.489180 0.324217 0.158833 0 200 255
0.356338 0.263490 0.107925 0 200 255
0.426738 0.374227 0.121476 0 200 255
0.380583 0.337383 0.164412 0 200 255
0.418358 0.315605 0.136907 0 200 255
0.451503 0.263805 0.147455 0 200 255
0.343522 0.265870 0.120497 0 200 255
0.360392 0.241506 0.136284 0 200 255
0.454068 0.367937 0.123040 0 200 255
0.333676 0.278375 0.118566 0 200 255
0.438924 0.365459 0.160729 0 200 255
0.387144 0.267944 0.137661 0 200 255
0.417433 0.247765 0.143985 0 200 255
0.468212 0.258276 0.180738 0 200 255
0.424889 0.354334 0.149001 0 200 255
0.435332 0.397296 0.102721 0 200 255
0.448029 0.381548 0.102045 0 200 255
0.411108 0.327947 0.157746 0 200 255
0.343970 0.251925 0.138683 0 200 255
0.392142 0.339812 0.140655 0 200 255
0.444972 0.237785 0.150462 0 200 255
0.372691 0.334765 0.139892 0 200 255
0.422516 0.267938 0.143432 0 200 255
0.419670 0.348746 0.061126 0 200 255
0.461195 0.384408 0.138280 0 200 255
0.447798 0.386267 0.078207 0 200 255
0.453173 0.400700 0.109494 0 200 255
0.370874 0.265737 0.119644 0 200 255
0.413617 0.362949 0.131916 0 200 255
0.394599 0.319933 0.150514 0 200 255
0.471972 0.260169 0.146642 0 200 255
0.339973 0.263605 0.103442 0 200 255
0.353127 0.277759 0.116811 0 200 255
0.370630 0.242446 0.144871 0 200 255
0.444797 0.306071 0.179939 0 200 255
0.426777 0.373977 0.134922 0 200 255
0.452536 0.321764 0.144032 0 200 255
0.463853 0.324943 0.179942 0 200 255
0.430231 0.355950 0.094426 0 200 255
0.419308 0.293037 0.136118 0 200 255
0.468101 0.366454 0.134147 0 200 255
0.368779 0.252742 0.118853 0 200 255
0.443506 0.374950 0.130529 0 200 255
0.461906 0.346344 0.145545 0 200 255
0.430695 0.376575 0.097451 0 200 255
0.432488 0.322984 0.157676 0 200 255
0.327771 0.268833 0.125741 0 200 255
0.460621 0.387407 0.118699 0 200 255
0.433347 0.288055 0.179918 0 200 255
0.401082 0.239035 0.127852 0 200 255
0.368875 0.346205 0.126791 0 200 255
0.414651 0.333480 0.176775 0 200 255
0.334314 0.280860 0.102196 0 200 255
0.400385 0.311605 0.172043 0 200 255
0.490795 0.301172 0.172073 0 200 255
0.380806 0.237058 0.125968 0 200 255
0.363488 0.349537 0.153429 0 200 255
0.429167 0.337533 0.167314 0 200 255
0.443269 0.326412 0.175063 0 200 255
0.468769 0.337028 0.158922 0 200 255
0.429992 0.315412 0.141913 0 200 255
0.471593 0.351331 0.160880 0 200 255
0.363225 0.256442 0.131603 0 200 255
0.433102 0.336265 0.146696 0 200 255
0.439721 0.259498 0.157663 0 200 255
0.402457 0.247121 0.118319 0 200 255
0.454237 0.256757 0.137372 0 200 255
0.433182 0.345396 0.069431 0 200 255
0.472915 0.324297 0.137865 0 200 255
0.414746 0.251154 0.155716 0 200 255
0.333103 0.290414 0.124541 0 200 255
0.435667 0.385729 0.122788 0 200 255
0.416623 0.353116 0.110449 0 200 255
0.489523 0.315244 0.147438 0 200 255
0.486588 0.331189 0.168762 0 200 255
0.457534 0.299938 0.140079 0 200 255
0.455361 0.398719 0.087105 0 200 255
0.428801 0.395778 0.115703 0 200 255
0.473802 0.284531 0.178938 0 200 255
0.397957 0.308232 0.150078 0 200 255
0.422310 0.362815 0.140401 0 200 255
0.475686 0.262253 0.170884 0 200 255
0.457078 0.347156 0.172667 0 200 255
0.356657 0.346414 0.125751 0 200 255
0.452869 0.241080 0.176948 0 200 255
0.416015 0.347927 0.073472 0 200 255
0.442740 0.395181 0.084566 0 200 255
0.423048 0.362566 0.118422 0 200 255
0.358209 0.248759 0.122924 0 200 255
0.415004 0.348146 0.152901 0 200 255
0.407094 0.286919 0.154742 0 200 255
0.450520 0.251373 0.157827 0 200 255
0.423810 0.327326 0.141465 0 200 255
0.355112 0.365536 0.112710 0 200 255
0.397965 0.322147 0.165565 0 200 255
0.376428 0.346595 0.158284 0 200 255
0.416010 0.347641 0.099849 0 200 255
0.385469 0.265474 0.117498 0 200 255
0.428443 0.323886 0.179866 0 200 255
0.420900 0.396014 0.089299 0 200 255
0.445599 0.392345 0.105807 0 200 255
0.448563 0.352583 0.162251 0 200 255
0.400836 0.260301 0.137108 0 200 255
0.439957 0.373822 0.150317 0 200 255
0.466224 0.247412 0.138378 0 200 255
0.464370 0.313478 0.178288 0 200 255
0.454398 0.281062 0.181782 0 200 255
0.477406 0.340132 0.175539 0 200 255
0.430512 0.252282 0.142642 0 200 255
0.484205 0.271074 0.166647 0 200 255
0.431576 0.251860 0.160581 0 200 255
0.410181 0.320638 0.166941 0 200 255
0.457974 0.312424 0.137418 0 200 255
0.481325 0.336196 0.152735 0 200 255
0.483033 0.260868 0.143529 0 200 255
0.327205 0.370937 0.101456 0 200 255
0.421951 0.340001 0.081496 0 200 255
0.455012 0.300922 0.181336 0 200 255
0.388034 0.332250 0.150927 0 200 255
0.320076 0.280724 0.117536 0 200 255
0.435752 0.266964 0.176086 0 200 255
0.455588 0.382468 0.148013 0 200 255
0.383516 0.264880 0.148060 0 200 255
0.396210 0.240232 0.142743 0 200 255
0.448409 0.361996 0.140206 0 200 255
0.419269 0.334110 0.162702 0 200 255
0.417524 0.368087 0.096983 0 200 255
0.385285 0.246592 0.132074 0 200 255
0.443675 0.394252 0.128681 0 200 255
0.355892 0.346784 0.145210 0 200 255
0.335502 0.370383 0.117948 0 200 255
0.438251 0.305903 0.143409 0 200 255
0.336519 0.257162 0.120093 0 200 255
0.415715 0.346941 0.133743 0 200 255
0.351759 0.271152 0.125757 0 200 255
0.383383 0.346766 0.143069 0 200 255
0.428148 0.357305 0.080015 0 200 255
0.347020 0.370812 0.102959 0 200 255
0.344717 0.285675 0.116877 0 200 255
0.380335 0.245985 0.148801 0 200 255
0.476796 0.284096 0.139330 0 200 255
0.429085 0.346942 0.141970 0 200 255
0.400401 0.254847 0.149353 0 200 255
0.415259 0.369643 0.113884 0 200 255
0.377768 0.331683 0.154722 0 200 255
0.348902 0.360162 0.138684 0 200 255
0.415882 0.275197 0.137934 0 200 255
0.486155 0.251013 0.162710 0 200 255
0.422734 0.384240 0.103383 0 200 255
0.432089 0.374708 0.111029 0 200 255
0.458029 0.367100 0.151165 0 200 255
0.407102 0.248919 0.140886 0 200 255
0.350248 0.256849 0.130624 0 200 255
0.447603 0.329187 0.150207 0 200 255
0.457099 0.397289 0.098853 0 200 255
0.338648 0.357795 0.114383 0 200 255
0.418057 0.273778 0.172433 0 200 255
0.413953 0.295816 0.177598 0 200 255
0.428910 0.358976 0.105736 0 200 255
0.433771 0.397843 0.077871 0 200 255
0.431182 0.340899 0.156257 0 200 255
0.452224 0.347661 0.151750 0 200 255
0.432373 0.359066 0.140966 0 200 255
0.432497 0.270054 0.146823 0 200 255
0.455735 0.378070 0.116581 0 200 255
0.453874 0.331105 0.138403 0 200 255
0.374667 0.352835 0.134661 0 200 255
0.440790 0.325919 0.164263 0 200 255
0.423858 0.343443 0.114353 0 200 255
0.363456 0.268549 0.132238 0 200 255
0.426411 0.344202 0.090759 0 200 255
0.390888 0.237577 0.130750 0 200 255
0.409746 0.310710 0.151192 0 200 255
0.326901 0.290657 0.105840 0 200 255
0.441828 0.245178 0.157974 0 200 255
0.431946 0.387954 0.098280 0 200 255
0.441156 0.283585 0.135444 0 200 255
0.376864 0.246379 0.121308 0 200 255
0.413377 0.358542 0.090235 0 200 255
0.368239 0.260354 0.109680 0 200 255
0.418443 0.265968 0.154404 0 200 255
0.331852 0.270193 0.103725 0 200 255
0.346834 0.359869 0.124796 0 200 255
0.390961 0.340095 0.162079 0 200 255
0.401110 0.254819 0.125222 0 200 255
0.435037 0.388274 0.132871 0 200 255
0.436675 0.301944 0.174900 0 200 255
0.457313 0.389081 0.128380 0 200 255
0.456883 0.383379 0.096999 0 200 255
0.445568 0.382420 0.137396 0 200 255
0.415039 0.323367 0.178944 0 200 255
0.467497 0.367830 0.157329 0 200 255
0.389558 0.248115 0.142236 0 200 255
0.471764 0.266415 0.160996 0 200 255
0.436196 0.359507 0.152530 0 200 255
0.455766 0.250562 0.179821 0 200 255
0.449374 0.259491 0.178201 0 200 255
0.451698 0.247859 0.144787 0 200 255
0.454380 0.293637 0.173737 0 200 255
0.446102 0.384075 0.111909 0 200 255
0.416893 0.360693 0.149262 0 200 255
0.482928 0.283876 0.174144 0 200 255
0.442467 0.393418 0.095803 0 200 255
0.411248 0.328266 0.147500 0 200 255
0.425104 0.304903 0.179981 0 200 255
0.464099 0.278063 0.181056 0 200 255
0.337368 0.359956 0.103263 0 200 255
0.449359 0.382174 0.089165 0 200 255
0.367022 0.253483 0.145286 0 200 255
0.373921 0.337770 0.130292 0 200 255
0.420413 0.337460 0.138009 0 200 255
0.355823 0.357070 0.130100 0 200 255
0.428860 0.344506 0.060312 0 200 255
0.385871 0.249748 0.112252 0 200 255
0.423749 0.286413 0.143059 0 200 255
0.480686 0.302577 0.140103 0 200 255
0.400225 0.310492 0.140503 0 200 255
0.439116 0.345502 0.151130 0 200 255
0.436637 0.371531 0.141099 0 200 255
0.413095 0.353927 0.126652 0 200 255
0.483187 0.290174 0.147001 0 200 255
0.423148 0.386449 0.080176 0 200 255
0.338816 0.272811 0.111980 0 200 255
0.371776 0.237988 0.130213 0 200 255
0.452373 0.341363 0.162811 0 200 255
0.492311 0.297091 0.144700 0 200 255
0.342535 0.371148 0.125400 0 200 255
0.462301 0.353400 0.165695 0 200 255
0.476949 0.302108 0.177498 0 200 255
0.460340 0.284167 0.136414 0 200 255
0.432908 0.362939 0.121363 0 200 255
0.471960 0.349413 0.150813 0 200 255
0.435349 0.354443 0.132383 0 200 255
0.447655 0.297564 0.140015 0 200 255
0.395725 0.338263 0.152746 0 200 255
0.493184 0.313834 0.156550 0 200 255
0.376955 0.269659 0.142380 0 200 255
0.347172 0.261287 0.111452 0 200 255
0.340647 0.262221 0.138654 0 200 255
0.440543 0.288833 0.173200 0 200 255
0.325693 0.274303 0.112591 0 200 255
0.453945 0.361856 0.130997 0 200 255
0.457520 0.359619 0.157903 0 200 255
0.343835 0.266194 0.130327 0 200 255
0.468412 0.267504 0.177600 0 200 255
0.462282 0.358857 0.146193 0 200 255
0.464925 0.292520 0.180346 0 200 255
0.456829 0.391472 0.078545 0 200 255
0.425895 0.268026 0.172538 0 200 255
0.351323 0.247526 0.113786 0 200 255
0.395297 0.327891 0.145015 0 200 255
0.460301 0.262750 0.143535 0 200 255
0.483666 0.336565 0.143248 0 200 255
0.480921 0.270458 0.150455 0 200 255
0.421982 0.257800 0.140322 0 200 255
0.442288 0.260516 0.145515 0 200 255
0.415403 0.318953 0.158992 0 200 255
0.484680 0.308151 0.175672 0 200 255
0.464692 0.375387 0.138299 0 200 255
0.384757 0.262340 0.130188 0 200 255
0.418929 0.367791 0.125367 0 200 255
0.400114 0.263080 0.117638 0 200 255
0.473915 0.269862 0.137078 0 200 255
0.444335 0.335519 0.166676 0 200 255
0.341268 0.274733 0.123376 0 200 255
0.477864 0.318628 0.143801 0 200 255
0.448105 0.263720 0.159589 0 200 255
0.421006 0.357961 0.100466 0 200 255
0.404208 0.265793 0.144148 0 200 255
0.422176 0.284628 0.177147 0 200 255
0.452384 0.374974 0.152906 0 200 255
0.460855 0.323200 0.137764 0 200 255
0.364627 0.353899 0.144101 0 200 255
0.383152 0.335084 0.135389 0 200 255
0.369425 0.355726 0.127313 0 200 255
0.426461 0.364956 0.096679 0 200 255
0.467810 0.339544 0.176357 0 200 255
0.403691 0.321152 0.153143 0 200 255
0.358027 0.363456 0.139087 0 200 255
0.363681 0.341267 0.146195 0 200 255
0.429375 0.379808 0.084818 0 200 255
0.336076 0.281730 0.127043 0 200 255
0.490850 0.295094 0.163833 0 200 255
0.445727 0.367468 0.154521 0 200 255
0.423256 0.356345 0.088102 0 200 255
0.473071 0.334265 0.144487 0 200 255
0.490964 0.306556 0.150988 0 200 255
0.402871 0.294833 0.144357 0 200 255
0.412173 0.309851 0.167699 0 200 255
0.463511 0.269548 0.136506 0 200 255
0.438819 0.379180 0.116937 0 200 255
0.428251 0.396669 0.096378 0 200 255
0.378930 0.267017 0.124593 0 200 255
0.406932 0.329447 0.166434 0 200 255
0.463736 0.343367 0.167431 0 200 255
0.352474 0.268514 0.116398 0 200 255
0.355277 0.366478 0.122081 0 200 255
0.486639 0.323365 0.173700 0 200 255
0.414190 0.361887 0.108829 0 200 255
0.473911 0.253284 0.140678 0 200 255
0.491883 0.277512 0.148501 0 200 255
0.442204 0.336675 0.148150 0 200 255
0.362413 0.350494 0.132592 0 200 255
0.427516 0.383073 0.136864 0 200 255
0.449936 0.352547 0.144277 0 200 255
0.346583 0.363276 0.116242 0 200 255
0.407033 0.303566 0.176690 0 200 255
0.470919 0.267941 0.152023 0 200 255
0.366289 0.240503 0.112687 0 200 255
0.462065 0.366237 0.127117 0 200 255
0.453279 0.392256 0.116317 0 200 255
0.425400 0.258505 0.167999 0 200 255
0.470069 0.361401 0.142200 0 200 255
0.407721 0.316268 0.174655 0 200 255
0.357986 0.255414 0.115852 0 200 255
0.433950 0.257063 0.150329 0 200 255
0.339405 0.281693 0.110320 0 200 255
0.396549 0.327820 0.154508 0 200 255
0.421604 0.339160 0.124490 0 200 255
0.437809 0.390679 0.115448 0 200 255
0.448303 0.263538 0.135828 0 200 255
0.451806 0.342585 0.178817 0 200 255
0.471805 0.320759 0.179101 0 200 255
0.427439 0.350421 0.160019 0 200 255
0.415697 0.305931 0.141495 0 200 255
0.477147 0.349630 0.167740 0 200 255
0.493878 0.288976 0.158013 0 200 255
0.337360 0.258575 0.110389 0 200 255
0.418591 0.340994 0.156933 0 200 255
0.365662 0.247844 0.128156 0 200 255
0.352218 0.254698 0.108109 0 200 255
0.423658 0.315827 0.178511 0 200 255
0.423874 0.332047 0.172631 0 200 255
0.416690 0.344130 0.142876 0 200 255
0.401079 0.298971 0.164268 0 200 255
0.445361 0.401127 0.105082 0 200 255
0.469962 0.359975 0.161434 0 200 255
0.418204 0.355951 0.134640 0 200 255
0.359114 0.262135 0.136897 0 200 255
0.429078 0.375302 0.143734 0 200 255
0.422791 0.390899 0.121158 0 200 255
0.478205 0.344158 0.155085 0 200 255
0.395362 0.245265 0.125478 0 200 255
0.420917 0.329141 0.153651 0 200 255
0.430215 0.297807 0.180137 0 200 255
0.438601 0.342349 0.161299 0 200 255
0.352417 0.356783 0.111307 0 200 255
0.414882 0.263466 0.144756 0 200 255
0.374561 0.237948 0.117405 0 200 255
0.432333 0.345914 0.127011 0 200 255
0.450671 0.402336 0.117700 0 200 255
0.376609 0.249023 0.140244 0 200 255
0.415391 0.321144 0.144647 0 200 255
0.437842 0.381824 0.100196 0 200 255
0.429775 0.352918 0.063135 0 200 255
0.427248 0.390126 0.107954 0 200 255
0.461423 0.335624 0.164219 0 200 255
0.429781 0.365906 0.136124 0 200 255
0.437041 0.321719 0.178907 0 200 255
0.408957 0.278941 0.162576 0 200 255
0.447637 0.375670 0.121140 0 200 255
0.492251 0.285355 0.140749 0 200 255
0.445528 0.353164 0.136838 0 200 255
0.431048 0.391465 0.072596 0 200 255
0.391549 0.330656 0.163634 0 200 255
0.368621 0.249040 0.109821 0 200 255
0.445245 0.283886 0.178518 0 200 255
0.457226 0.254501 0.145227 0 200 255
0.438831 0.254208 0.164668 0 200 255
0.446252 0.315828 0.143802 0 200 255
0.432644 0.393717 0.124042 0 200 255
0.448717 0.387459 0.130375 0 200 255
0.430006 0.340287 0.075608 0 200 255
0.395296 0.245163 0.149750 0 200 255
0.403296 0.240213 0.137861 0 200 255
0.377894 0.340257 0.152657 0 200 255
0.433890 0.378726 0.133093 0 200 255
0.445668 0.368228 0.124914 0 200 255
0.482024 0.334999 0.161199 0 200 255
0.350206 0.257154 0.119837 0 200 255
0.413177 0.269922 0.160807 0 200 255
0.339561 0.375384 0.099393 0 200 255
0.344692 0.273834 0.134002 0 200 255
0.399366 0.306342 0.158590 0 200 255
0.329388 0.294441 0.115947 0 200 255
0.430735 0.347966 0.151569 0 200 255
0.380259 0.348407 0.150931 0 200 255
0.376906 0.240614 0.139191 0 200 255
0.351667 0.259653 0.140749 0 200 255
0.438329 0.387059 0.083388 0 200 255
0.364948 0.249560 0.136421 0 200 255
0.447770 0.401950 0.084084 0 200 255
0.354791 0.352845 0.139446 0 200 255
0.377949 0.331049 0.146312 0 200 255
0.425135 0.382502 0.121575 0 200 255
0.427123 0.395054 0.083722 0 200 255
0.390735 0.260231 0.151171 0 200 255
0.395714 0.315692 0.158224 0 200 255
0.330606 0.372829 0.110334 0 200 255
0.450099 0.240574 0.140914 0 200 255
0.429776 0.355601 0.113534 0 200 255
0.462545 0.263184 0.153470 0 200 255
0.417903 0.355841 0.070997 0 200 255
0.447465 0.268726 0.180601 0 200 255
0.430841 0.263560 0.157707 0 200 255
0.481016 0.253186 0.146134 0 200 255
0.425253 0.328300 0.162243 0 200 255
0.452469 0.389929 0.099709 0 200 255
0.488258 0.291795 0.171411 0 200 255
0.455458 0.378170 0.140577 0 200 255
0.435818 0.320941 0.144060 0 200 255
0.424714 0.378937 0.109972 0 200 255
0.459363 0.390820 0.094168 0 200 255
0.424029 0.349902 0.097187 0 200 255
0.335730 0.270086 0.119317 0 200 255
0.444928 0.393817 0.076199 0 200 255
0.487863 0.260649 0.153791 0 200 255
0.455401 0.325787 0.178945 0 200 255
0.404563 0.292128 0.161251 0 200 255
0.320078 0.287106 0.123607 0 200 255
0.454502 0.289298 0.181732 0 200 255
0.460848 0.374458 0.155821 0 200 255
0.355537 0.264534 0.129890 0 200 255
0.418238 0.345354 0.108315 0 200 255
0.420352 0.390832 0.095895 0 200 255
0.341334 0.374942 0.108840 0 200 255
0.349420 0.267662 0.106726 0 200 255
0.449079 0.236818 0.157861 0 200 255
0.413607 0.352890 0.118028 0 200 255
0.345902 0.274053 0.116050 0 200 255
0.409481 0.289815 0.174006 0 200 255
0.385551 0.245953 0.123963 0 200 255
0.408549 0.254281 0.151232 0 200 255
0.404516 0.332354 0.155949 0 200 255
0.468723 0.341603 0.146268 0 200 255
0.383201 0.241910 0.115011 0 200 255
0.440861 0.260878 0.177766 0 200 255
0.448213 0.279202 0.135818 0 200 255
0.448569 0.271372 0.147237 0 200 255
0.363382 0.246245 0.144963 0 200 255
0.431236 0.353123 0.072971 0 200 255
0.398655 0.320781 0.143058 0 200 255
0.461401 0.339068 0.155608 0 200 255
0.479626 0.249587 0.178691 0 200 255
0.342917 0.358622 0.131771 0 200 255
0.388402 0.324130 0.147460 0 200 255
0.365464 0.264248 0.125699 0 200 255
0.359750 0.244227 0.116418 0 200 255
0.448088 0.247188 0.164447 0 200 255
0.430249 0.273490 0.135214 0 200 255
0.325374 0.286536 0.112587 0 200 255
0.393358 0.248165 0.116396 0 200 255
0.425893 0.266209 0.151457 0 200 255
0.446563 0.242255 0.171059 0 200 255
0.409570 0.282066 0.147594 0 200 255
0.439461 0.272578 0.150944 0 200 255
0.451919 0.387896 0.107848 0 200 255
0.437743 0.271364 0.140957 0 200 255
0.363763 0.239213 0.129353 0 200 255
0.442050 0.342590 0.178816 0 200 255
0.332802 0.362478 0.117587 0 200 255
0.446339 0.260413 0.152479 0 200 255
0.437438 0.269152 0.159861 0 200 255
0.413173 0.291358 0.140883 0 200 255
0.451378 0.310369 0.181098 0 200 255
0.340548 0.252086 0.130150 0 200 255
0.425190 0.379382 0.128879 0 200 255
0.453422 0.284123 0.174078 0 200 255
0.404281 0.255984 0.118060 0 200 255
0.450292 0.385885 0.143226 0 200 255
0.428240 0.338954 0.175042 0 200 255
0.467801 0.366902 0.147413 0 200 255
0.457830 0.352659 0.148268 0 200 255
0.489064 0.277237 0.167586 0 200 255
0.475723 0.258396 0.178282 0 200 255
0.493344 0.307052 0.163147 0 200 255
0.430359 0.318226 0.174731 0 200 255
0.421886 0.273315 0.154618 0 200 255
0.453821 0.395733 0.131565 0 200 255
0.486797 0.262294 0.161399 0 200 255
0.332322 0.374384 0.096506 0 200 255
0.376983 0.252125 0.113563 0 200 255
0.386059 0.257726 0.113593 0 200 255
0.416933 0.258527 0.152399 0 200 255
0.422326 0.365485 0.133033 0 200 255
0.357799 0.364557 0.131274 0 200 255
0.448020 0.329797 0.180256 0 200 255
0.354411 0.346612 0.134787 0 200 255
0.404098 0.326459 0.145017 0 200 255
0.355727 0.252165 0.133548 0 200 255
0.471495 0.343869 0.167373 0 200 255
0.433633 0.344038 0.136377 0 200 255
0.324293 0.276500 0.122505 0 200 255
0.427875 0.262368 0.144187 0 200 255
0.460639 0.334906 0.138359 0 200 255
0.371734 0.351213 0.153778 0 200 255
0.470900 0.259243 0.158178 0 200 255
0.440685 0.382138 0.131191 0 200 255
0.353661 0.359107 0.120367 0 200 255
0.490705 0.321717 0.166075 0 200 255
0.385673 0.337247 0.156801 0 200 255
0.429733 0.384714 0.115138 0 200 255
0.450882 0.366606 0.148275 0 200 255
0.462298 0.345441 0.178096 0 200 255
0.421129 0.250763 0.150988 0 200 255
0.442668 0.376442 0.141326 0 200 255
0.410662 0.251690 0.121423 0 200 255
0.337168 0.287405 0.105646 0 200 255
0.339772 0.271156 0.101886 0 200 255
0.332060 0.262465 0.124620 0 200 255
0.390399 0.265804 0.124515 0 200 255
0.422096 0.360079 0.076132 0 200 255
0.462426 0.313323 0.143634 0 200 255
0.408845 0.315211 0.137968 0 200 255
0.436797 0.394184 0.090534 0 200 255
0.359730 0.265748 0.114440 0 200 255
0.455657 0.383580 0.123277 0 200 255
0.447046 0.328634 0.157839 0 200 255
0.430895 0.347983 0.111293 0 200 255
0.443119 0.391467 0.120898 0 200 255
0.344231 0.355108 0.109865 0 200 255
0.452053 0.403704 0.102450 0 200 255
0.471176 0.251311 0.181731 0 200 255
0.384112 0.344404 0.159996 0 200 255
0.366476 0.339214 0.131093 0 200 255
0.348670 0.280225 0.110531 0 200 255
0.460188 0.276389 0.136432 0 200 255
0.435390 0.309419 0.174372 0 200 255
0.461849 0.257731 0.176617 0 200 255
0.480036 0.276605 0.136619 0 200 255
0.448012 0.399591 0.124304 0 200 255
0.416552 0.352454 0.094004 0 200 255
0.431731 0.383077 0.092468 0 200 255
0.333167 0.266909 0.130712 0 200 255
0.355005 0.351577 0.120448 0 200 255
0.392154 0.262048 0.131801 0 200 255
0.469788 0.331171 0.138353 0 200 255
0.372958 0.263215 0.145209 0 200 255
0.411993 0.366512 0.102984 0 200 255
0.414358 0.351467 0.081440 0 200 255
0.431210 0.344377 0.162972 0 200 255
0.454386 0.384011 0.135028 0 200 255
0.422573 0.258275 0.160997 0 200 255
0.463461 0.251800 0.132892 0 200 255
0.429192 0.350565 0.087813 0 200 255
0.413001 0.328627 0.170823 0 200 255
0.473157 0.247165 0.135444 0 200 255
0.379927 0.329856 0.161700 0 200 255
0.470901 0.274239 0.179862 0 200 255
0.449482 0.370564 0.131814 0 200 255
0.433568 0.359750 0.159570 0 200 255
0.471706 0.331900 0.177058 0 200 255
0.413859 0.360624 0.139165 0 200 255
0.420289 0.354494 0.142456 0 200 255
0.369421 0.344175 0.157278 0 200 255
0.423964 0.346787 0.084023 0 200 255
0.418243 0.344284 0.067334 0 200 255
0.438566 0.389529 0.101373 0 200 255
0.435214 0.279181 0.139456 0 200 255
0.371964 0.249129 0.148802 0 200 255
0.405856 0.241933 0.122916 0 200 255
0.444978 0.321792 0.180657 0 200 255
0.402487 0.308756 0.165494 0 200 255
0.454553 0.402591 0.093411 0 200 255
0.418348 0.358868 0.124806 0 200 255
0.432188 0.369372 0.116215 0 200 255
0.420417 0.306547 0.174076 0 200 255
0.482545 0.337647 0.168125 0 200 255
0.441163 0.364905 0.149244 0 200 255
0.346711 0.259899 0.104167 0 200 255
0.411500 0.312910 0.160963 0 200 255
0.426551 0.292515 0.139880 0 200 255
0.377091 0.265516 0.113656 0 200 255
0.407835 0.240749 0.130411 0 200 255
0.440098 0.337674 0.173608 0 200 255
0.483017 0.321411 0.139258 0 200 255
0.471703 0.291129 0.176299 0 200 255
0.459961 0.372180 0.121593 0 200 255
0.339441 0.289354 0.120867 0 200 255
0.356430 0.255768 0.126250 0 200 255
0.403074 0.314371 0.150260 0 200 255
0.422575 0.357043 0.112399 0 200 255
0.447943 0.385359 0.095680 0 200 255
0.387972 0.244536 0.149027 0 200 255
0.404588 0.321613 0.162224 0 200 255
0.349921 0.370203 0.109716 0 200 255
0.435029 0.369076 0.154959 0 200 255
0.347356 0.261173 0.125308 0 200 255
0.432680 0.379014 0.123221 0 200 255
0.437102 0.255331 0.143848 0 200 255
0.443817 0.400613 0.090138 0 200 255
0.399959 0.303043 0.145272 0 200 255
0.453020 0.331487 0.145804 0 200 255
0.456032 0.352758 0.160071 0 200 255
0.368678 0.245404 0.119154 0 200 255
0.454277 0.358455 0.143853 0 200 255
0.491013 0.283180 0.153086 0 200 255
0.331120 0.276113 0.108000 0 200 255
0.401491 0.245060 0.144346 0 200 255
0.441310 0.299349 0.136812 0 200 255
0.463347 0.285347 0.180989 0 200 255
0.419383 0.322820 0.137618 0 200 255
0.396284 0.266906 0.142342 0 200 255
0.486650 0.322523 0.151209 0 200 255
0.451651 0.392910 0.073535 0 200 255
0.413949 0.270601 0.143669 0 200 255
0.458276 0.273829 0.179994 0 200 255
0.465030 0.333099 0.179675 0 200 255
0.364048 0.360443 0.128619 0 200 255
0.420771 0.302707 0.136160 0 200 255
0.375636 0.348105 0.128668 0 200 255
0.441788 0.379605 0.123559 0 200 255
0.451623 0.241146 0.147997 0 200 255
0.340296 0.265802 0.110358 0 200 255
0.346565 0.352137 0.125357 0 200 255
0.448122 0.244017 0.154542 0 200 255
0.428329 0.397786 0.104559 0 200 255
0.452970 0.367837 0.156305 0 200 255
0.331969 0.274663 0.129220 0 200 255
0.402791 0.248107 0.127349 0 200 255
0.485837 0.270434 0.145149 0 200 255
0.348978 0.370543 0.121753 0 200 255
0.433826 0.285678 0.173110 0 200 255
0.362731 0.255703 0.109192 0 200 255
0.443418 0.252440 0.158582 0 200 255
0.363429 0.350588 0.124197 0 200 255
0.474933 0.308533 0.140379 0 200 255
0.424470 0.380213 0.097567 0 200 255
0.488787 0.317087 0.140508 0 200 255
0.382010 0.252747 0.150650 0 200 255
0.429290 0.339937 0.066790 0 200 255
0.428188 0.370245 0.128922 0 200 255
0.374135 0.338976 0.158890 0 200 255
0.483136 0.269530 0.158260 0 200 255
0.475477 0.316516 0.137329 0 200 255
0.467580 0.246704 0.176291 0 200 255
0.362390 0.269660 0.139467 0 200 255
0.424322 0.361171 0.151069 0 200 255
0.346377 0.252247 0.116302 0 200 255
0.399971 0.319634 0.174000 0 200 255
0.435599 0.275528 0.179127 0 200 255
0.326980 0.284847 0.101665 0 200 255
0.411778 0.298506 0.137404 0 200 255
0.412973 0.354611 0.150628 0 200 255
0.451687 0.388346 0.084340 0 200 255
0.458038 0.290106 0.139657 0 200 255
0.427496 0.340525 0.139273 0 200 255
0.473694 0.291592 0.135918 0 200 255
0.444456 0.392319 0.112851 0 200 255
0.420266 0.393531 0.082484 0 200 255
0.323770 0.294198 0.111240 0 200 255
0.328234 0.270529 0.118081 0 200 255
0.437304 0.252049 0.154128 0 200 255
0.423552 0.252006 0.144166 0 200 255
0.455982 0.389076 0.140150 0 200 255
0.436376 0.390552 0.077459 0 200 255
0.370438 0.355390 0.140273 0 200 255
0.389981 0.339813 0.147878 0 200 255
0.432517 0.272192 0.172521 0 200 255
0.372263 0.263134 0.127438 0 200 255
0.456631 0.267680 0.138706 0 200 255
0.470349 0.263109 0.138736 0 200 255
0.449514 0.378889 0.147191 0 200 255
0.319525 0.287981 0.108842 0 200 255
0.418281 0.263948 0.138557 0 200 255
0.444409 0.361237 0.157624 0 200 255
0.457632 0.395379 0.110883 0 200 255
0.351727 0.273930 0.109069 0 200 255
0.433011 0.394369 0.110191 0 200 255
0.446816 0.330820 0.138751 0 200 255
0.440776 0.355701 0.148715 0 200 255
0.418559 0.362607 0.085919 0 200 255
0.456842 0.256844 0.161735 0 200 255
0.456408 0.383450 0.112059 0 200 255
0.357733 0.351815 0.150041 0 200 255
0.427928 0.341901 0.122998 0 200 255
0.432860 0.333773 0.162635 0 200 255
0.420710 0.363897 0.110700 0 200 255
0.399124 0.254497 0.140706 0 200 255
0.398588 0.241292 0.119090 0 200 255
0.392106 0.321160 0.160780 0 200 255
0.457922 0.244768 0.173735 0 200 255
0.419397 0.300265 0.177468 0 200 255
0.447526 0.251951 0.140882 0 200 255
0.440027 0.295250 0.181278 0 200 255
0.484266 0.280393 0.148055 0 200 255
0.429875 0.354959 0.125371 0 200 255
0.341095 0.367091 0.102669 0 200 255
0.403031 0.261396 0.129768 0 200 255
0.330946 0.365024 0.101238 0 200 255
0.455909 0.253603 0.153961 0 200 255
0.370368 0.239392 0.137020 0 200 255
0.382686 0.327768 0.150463 0 200 255
0.402126 0.261632 0.150192 0 200 255
0.417199 0.289528 0.177019 0 200 255
0.389567 0.333857 0.143226 0 200 255
0.363434 0.253354 0.123343 0 200 255
0.467050 0.369236 0.140576 0 200 255
0.428247 0.321649 0.150584 0 200 255
0.465616 0.288889 0.139577 0 200 255
0.406057 0.255743 0.136467 0 200 255
0.445010 0.370830 0.137946 0 200 255
0.463329 0.321284 0.143970 0 200 255
0.494901 0.301154 0.166469 0 200 255
0.371576 0.346622 0.148321 0 200 255
0.424056 0.311650 0.136646 0 200 255
0.440599 0.318834 0.138308 0 200 255
0.419545 0.339721 0.131093 0 200 255
0.405013 0.288571 0.146399 0 200 255
0.441020 0.399336 0.099085 0 200 255
0.473415 0.257635 0.135326 0 200 255
0.452292 0.394551 0.106023 0 200 255
0.445473 0.244868 0.144642 0 200 255
0.440641 0.332700 0.142723 0 200 255
0.427929 0.332217 0.144571 0 200 255
0.434315 0.394769 0.084122 0 200 255
0.432963 0.373861 0.149247 0 200 255
0.449276 0.378372 0.114121 0 200 255
0.390800 0.262711 0.113930 0 200 255
0.413646 0.326033 0.163856 0 200 255
0.421821 0.324034 0.178029 0 200 255
0.428796 0.268726 0.140755 0 200 255
0.377177 0.350935 0.140888 0 200 255
0.326792 0.288112 0.126047 0 200 255
0.386311 0.343979 0.137540 0 200 255
0.340670 0.280010 0.131817 0 200 255
0.430746 0.368452 0.142713 0 200 255
0.443348 0.399712 0.079371 0 200 255
0.456900 0.360106 0.150206 0 200 255
0.447158 0.396588 0.100308 0 200 255
0.338798 0.376373 0.115015 0 200 255
0.482976 0.341518 0.148791 0 200 255
0.411830 0.243903 0.143648 0 200 255
0.451980 0.239347 0.165655 0 200 255
0.409028 0.309508 0.141673 0 200 255
0.342572 0.357704 0.119956 0 200 255
0.462727 0.378273 0.120380 0 200 255
0.438879 0.361425 0.124220 0 200 255
0.397474 0.241257 0.134536 0 200 255
0.414190 0.283076 0.158799 0 200 255
0.460994 0.379469 0.144263 0 200 255
0.338297 0.266673 0.126293 0 200 255
0.430638 0.352321 0.145772 0 200 255
0.412085 0.362149 0.125367 0 200 255
0.463574 0.363878 0.153313 0 200 255
0.403678 0.303710 0.170821 0 200 255
0.418412 0.342141 0.076018 0 200 255
0.409041 0.255164 0.142594 0 200 255
0.372676 0.334414 0.148865 0 200 255
0.447603 0.292619 0.173629 0 200 255
0.436755 0.351523 0.153041 0 200 255
0.341501 0.364416 0.120519 0 200 255
0.415050 0.354607 0.104073 0 200 255
0.415027 0.316166 0.177877 0 200 255
0.425983 0.364249 0.124384 0 200 255
0.485879 0.254772 0.157144 0 200 255
0.422964 0.353957 0.063802 0 200 255
0.470476 0.354365 0.146523 0 200 255
0.431669 0.282719 0.134979 0 200 255
0.346840 0.262435 0.135674 0 200 255
0.426979 0.289546 0.176844 0 200 255
0.338854 0.256020 0.135480 0 200 255
0.431759 0.281614 0.178910 0 200 255
0.361005 0.342855 0.129777 0 200 255
0.429847 0.354675 0.136198 0 200 255
0.336921 0.283948 0.116118 0 200 255
0.442268 0.342813 0.145469 0 200 255
0.487825 0.298380 0.139897 0 200 255
0.420084 0.356019 0.082225 0 200 255
0.482362 0.262521 0.170834 0 200 255
0.426107 0.358797 0.144180 0 200 255
0.418230 0.369273 0.103638 0 200 255
0.419447 0.350390 0.147648 0 200 255
0.380141 0.246984 0.127846 0 200 255
0.435734 0.328629 0.177739 0 200 255
0.460885 0.297557 0.178698 0 200 255
0.456115 0.398505 0.117549 0 200 255
0.447558 0.364390 0.134069 0 200 255
0.410112 0.264666 0.139910 0 200 255
0.428669 0.360001 0.086936 0 200 255
0.416455 0.285598 0.140624 0 200 255
0.455825 0.397761 0.080381 0 200 255
0.388504 0.268700 0.145953 0 200 255
0.412186 0.314657 0.146461 0 200 255
0.366171 0.339028 0.140483 0 200 255
0.461639 0.245441 0.132948 0 200 255
0.413995 0.275261 0.167427 0 200 255
0.471039 0.301287 0.140085 0 200 255
0.376740 0.333517 0.134484 0 200 255
0.414920 0.252739 0.140443 0 200 255
0.492844 0.279126 0.162512 0 200 255
0.439153 0.325565 0.157878 0 200 255
0.487760 0.271090 0.152370 0 200 255
0.399646 0.254962 0.131653 0 200 255
0.400629 0.316307 0.167018 0 200 255
0.425029 0.389721 0.100556 0 200 255
0.406960 0.313638 0.166379 0 200 255
0.385328 0.257588 0.147682 0 200 255
0.341678 0.285165 0.126819 0 200 255
0.326965 0.280069 0.115484 0 200 255
0.452865 0.250373 0.136622 0 200 255
0.363375 0.360002 0.142004 0 200 255
0.436251 0.381630 0.086519 0 200 255
0.434319 0.399048 0.095608 0 200 255
0.411762 0.365104 0.096017 0 200 255
0.464134 0.360497 0.133771 0 200 255
0.428968 0.388735 0.121530 0 200 255
0.442624 0.369777 0.145110 0 200 255
0.483357 0.274744 0.173543 0 200 255
0.419583 0.369273 0.119030 0 200 255
0.452988 0.335386 0.179904 0 200 255
0.430247 0.383789 0.127400 0 200 255
0.401146 0.325190 0.170397 0 200 255
0.406218 0.327221 0.151539 0 200 255
0.351672 0.274670 0.131254 0 200 255
0.429301 0.394670 0.089853 0 200 255
0.350347 0.251854 0.140005 0 200 255
0.474247 0.268042 0.146429 0 200 255
0.482219 0.319847 0.176933 0 200 255
0.456158 0.306293 0.140355 0 200 255
0.461389 0.384275 0.126789 0 200 255
0.335722 0.368742 0.111667 0 200 255
0.429145 0.381090 0.101977 0 200 255
0.383050 0.248508 0.140777 0 200 255
0.381270 0.267737 0.131048 0 200 255
0.437548 0.307918 0.137288 0 200 255
0.345222 0.257994 0.140579 0 200 255
0.366866 0.354400 0.150814 0 200 255
0.395265 0.238045 0.125192 0 200 255
0.385636 0.332869 0.162097 0 200 255
0.443427 0.319971 0.174518 0 200 255
0.426397 0.379124 0.090912 0 200 255
0.427929 0.283048 0.173908 0 200 255
0.361495 0.260623 0.143004 0 200 255
0.449458 0.353249 0.155894 0 200 255
0.439594 0.340014 0.154491 0 200 255
0.442912 0.387498 0.127563 0 200 255
0.366753 0.265145 0.114720 0 200 255
0.471791 0.356209 0.156531 0 200 255
0.429758 0.400691 0.082032 0 200 255
0.443351 0.387675 0.087379 0 200 255
0.417175 0.344379 0.082513 0 200 255
0.408261 0.279894 0.154501 0 200 255
0.398425 0.265549 0.134259 0 200 255
0.450417 0.393787 0.125716 0 200 255
0.473996 0.262334 0.152751 0 200 255
0.398426 0.253182 0.117621 0 200 255
0.446397 0.299098 0.181655 0 200 255
