ply
format ascii 1.0
element vertex 1024
property float x
property float y
property float z
property uchar red
property uchar green
property uchar blue
end_header
0.458549 0.335510 0.201289 0 200 255
0.336461 0.242780 0.148941 0 200 255
0.338707 0.388106 0.187902 0 200 255
0.432256 0.423877 0.142922 0 200 255
0.436999 0.241483 0.167494 0 200 255
0.509315 0.256814 0.212118 0 200 255
0.441870 0.346888 0.106769 0 200 255
0.389299 0.345063 0.214020 0 200 255
0.471556 0.396372 0.185593 0 200 255
0.450634 0.276133 0.217530 0 200 255
0.511016 0.311136 0.180973 0 200 255
0.429936 0.364339 0.160437 0 200 255
0.382580 0.233260 0.181374 0 200 255
0.422680 0.304945 0.182423 0 200 255
0.474775 0.275249 0.175864 0 200 255
0.487628 0.304107 0.221225 0 200 255
0.501046 0.347317 0.206169 0 200 255
0.467060 0.398501 0.141683 0 200 255
0.471546 0.238294 0.203544 0 200 255
0.422896 0.321503 0.219903 0 200 255
0.432347 0.400702 0.176540 0 200 255
0.400139 0.253571 0.152584 0 200 255
0.444377 0.371432 0.198010 0 200 255
0.372697 0.371531 0.191873 0 200 255
0.410615 0.259694 0.188605 0 200 255
0.506848 0.256201 0.176759 0 200 255
0.368975 0.229497 0.149005 0 200 255
0.474206 0.361856 0.181614 0 200 255
0.468257 0.310082 0.179647 0 200 255
0.516196 0.290505 0.207074 0 200 255
0.438809 0.275895 0.178487 0 200 255
0.415848 0.339581 0.192813 0 200 255
0.359063 0.253668 0.169939 0 200 255
0.450448 0.342468 0.171267 0 200 255
0.440824 0.367892 0.130459 0 200 255
0.456471 0.311847 0.221644 0 200 255
0.480863 0.267810 0.218966 0 200 255
0.408997 0.227123 0.165574 0 200 255
0.444481 0.250987 0.195415 0 200 255
0.488643 0.335448 0.181475 0 200 255
0.478083 0.338802 0.223154 0 200 255
0.511968 0.319035 0.211373 0 200 255
0.425588 0.291979 0.208248 0 200 255
0.475164 0.370456 0.209172 0 200 255
0.480666 0.247504 0.173945 0 200 255
0.451567 0.381514 0.171648 0 200 255
0.508147 0.282814 0.181978 0 200 255
0.390752 0.350989 0.187728 0 200 255
0.452732 0.409329 0.161070 0 200 255
0.439933 0.346248 0.144845 0 200 255
0.436861 0.323869 0.192783 0 200 255
0.468010 0.262876 0.196948 0 200 255
0.409245 0.234590 0.189558 0 200 255
0.436896 0.345587 0.208518 0 200 255
0.431394 0.356311 0.183677 0 200 255
0.350893 0.372577 0.202724 0 200 255
0.422159 0.260733 0.167221 0 200 255
0.447209 0.298379 0.181724 0 200 255
0.490247 0.299331 0.181039 0 200 255
0.431813 0.402075 0.152403 0 200 255
0.490425 0.244992 0.220226 0 200 255
0.391141 0.254486 0.175897 0 200 255
0.453063 0.414939 0.132585 0 200 255
0.447886 0.393695 0.192319 0 200 255
0.468367 0.306112 0.202522 0 200 255
0.478369 0.348446 0.202288 0 200 255
0.403908 0.327939 0.208492 0 200 255
0.361802 0.231035 0.171154 0 200 255
0.369653 0.358334 0.210148 0 200 255
0.358845 0.249587 0.146420 0 200 255
0.459776 0.256030 0.177386 0 200 255
0.495424 0.269898 0.200636 0 200 255
0.469061 0.392496 0.162795 0 200 255
0.390247 0.233306 0.153266 0 200 255
0.468625 0.293401 0.221492 0 200 255
0.454097 0.353740 0.189876 0 200 255
0.453818 0.334818 0.222181 0 200 255
0.497958 0.331671 0.220636 0 200 255
0.416755 0.311480 0.202573 0 200 255
0.342590 0.240826 0.169296 0 200 255
0.420562 0.243583 0.154803 0 200 255
0.463371 0.377248 0.191812 0 200 255
0.465759 0.333451 0.182024 0 200 255
0.354777 0.375978 0.182581 0 200 255
0.436736 0.269250 0.201068 0 200 255
0.435046 0.419410 0.163236 0 200 255
0.500483 0.281702 0.216650 0 200 255
0.428240 0.243182 0.185912 0 200 255
0.506214 0.327356 0.193729 0 200 255
0.443844 0.297141 0.215631 0 200 255
0.449289 0.349340 0.127123 0 200 255
0.375636 0.244383 0.161885 0 200 255
0.480297 0.379777 0.176313 0 200 255
0.512745 0.263929 0.194080 0 200 255
0.450087 0.317455 0.180031 0 200 255
0.456712 0.363805 0.210768 0 200 255
0.458191 0.275462 0.186113 0 200 255
0.430744 0.359387 0.116396 0 200 255
0.475749 0.319735 0.223097 0 200 255
0.440513 0.323233 0.213340 0 200 255
0.387780 0.361673 0.202833 0 200 255
0.444425 0.364346 0.148497 0 200 255
0.490036 0.263804 0.173796 0 200 255
0.487408 0.363636 0.196354 0 200 255
0.406988 0.346301 0.207804 0 200 255
0.398213 0.334016 0.191066 0 200 255
0.438190 0.257185 0.178981 0 200 255
0.444759 0.361084 0.170872 0 200 255
0.427120 0.288002 0.187730 0 200 255
0.456297 0.403119 0.178198 0 200 255
0.440090 0.340583 0.186420 0 200 255
0.434310 0.346832 0.162476 0 200 255
0.456501 0.258936 0.210395 0 200 255
0.352032 0.234687 0.155135 0 200 255
0.417507 0.322253 0.188042 0 200 255
0.463185 0.416246 0.147457 0 200 255
0.344867 0.256835 0.159298 0 200 255
0.515761 0.306460 0.199196 0 200 255
0.483680 0.287561 0.214270 0 200 255
0.373279 0.353531 0.193515 0 200 255
0.354110 0.388804 0.196725 0 200 255
0.490792 0.281594 0.179344 0 200 255
0.489893 0.316635 0.179147 0 200 255
0.428968 0.359574 0.142082 0 200 255
0.423920 0.330588 0.205190 0 200 255
0.468979 0.244877 0.187760 0 200 255
0.473479 0.292311 0.177703 0 200 255
0.498171 0.348593 0.186911 0 200 255
0.479696 0.380293 0.195196 0 200 255
0.439573 0.381428 0.183574 0 200 255
0.482421 0.257651 0.189890 0 200 255
0.375580 0.224978 0.163781 0 200 255
0.397810 0.226358 0.178019 0 200 255
0.487147 0.351870 0.217898 0 200 255
0.433002 0.308592 0.210075 0 200 255
0.458172 0.367705 0.178292 0 200 255
0.395395 0.243717 0.187861 0 200 255
0.443298 0.395129 0.165315 0 200 255
0.417240 0.241284 0.173649 0 200 255
0.366677 0.376695 0.206420 0 200 255
0.406877 0.254071 0.170951 0 200 255
0.447037 0.360321 0.114631 0 200 255
0.475689 0.252859 0.209810 0 200 255
0.426705 0.259829 0.191084 0 200 255
0.371731 0.245895 0.177587 0 200 255
0.406441 0.236526 0.151061 0 200 255
0.451476 0.404798 0.145599 0 200 255
0.466267 0.361532 0.197120 0 200 255
0.392857 0.239139 0.168001 0 200 255
0.508895 0.303793 0.215284 0 200 255
0.433643 0.349255 0.130240 0 200 255
0.467664 0.407719 0.166371 0 200 255
0.449917 0.351632 0.155859 0 200 255
0.516703 0.293783 0.189215 0 200 255
0.509512 0.276575 0.204653 0 200 255
0.466052 0.275909 0.219362 0 200 255
0.465059 0.349302 0.210233 0 200 255
0.495792 0.264585 0.216264 0 200 255
0.433905 0.315668 0.180055 0 200 255
0.360330 0.363056 0.195408 0 200 255
0.497369 0.316648 0.218553 0 200 255
0.458501 0.289728 0.176450 0 200 255
0.433934 0.254282 0.160028 0 200 255
0.449839 0.263003 0.187887 0 200 255
0.443445 0.411363 0.172851 0 200 255
0.473436 0.333494 0.202396 0 200 255
0.385478 0.343347 0.199580 0 200 255
0.458442 0.388251 0.183062 0 200 255
0.424542 0.415835 0.152769 0 200 255
0.457026 0.393345 0.153056 0 200 255
0.507208 0.297002 0.178211 0 200 255
0.429535 0.310844 0.193996 0 200 255
0.450294 0.347623 0.202591 0 200 255
0.395045 0.223908 0.163291 0 200 255
0.442008 0.311554 0.222346 0 200 255
0.442403 0.414747 0.151675 0 200 255
0.436027 0.282168 0.210033 0 200 255
0.501213 0.266223 0.185486 0 200 255
0.403635 0.349919 0.193909 0 200 255
0.440669 0.357534 0.194479 0 200 255
0.415195 0.257747 0.155293 0 200 255
0.383015 0.244872 0.149712 0 200 255
0.465674 0.408259 0.131630 0 200 255
0.451586 0.323473 0.199267 0 200 255
0.427307 0.407907 0.165592 0 200 255
0.361661 0.242210 0.161967 0 200 255
0.489819 0.341719 0.197875 0 200 255
0.465029 0.379334 0.168628 0 200 255
0.440779 0.334298 0.201081 0 200 255
0.478479 0.326041 0.180523 0 200 255
0.425649 0.234095 0.164969 0 200 255
0.389193 0.250359 0.160931 0 200 255
0.458091 0.253354 0.197074 0 200 255
0.452968 0.382680 0.198948 0 200 255
0.445424 0.369008 0.183403 0 200 255
0.437706 0.359658 0.103945 0 200 255
0.333967 0.248284 0.161196 0 200 255
0.382650 0.357318 0.214686 0 200 255
0.356940 0.242136 0.177373 0 200 255
0.471178 0.264714 0.183865 0 200 255
0.471663 0.306497 0.223231 0 200 255
0.467494 0.330342 0.223406 0 200 255
0.469512 0.404861 0.153233 0 200 255
0.506176 0.335548 0.210042 0 200 255
0.416196 0.247030 0.190291 0 200 255
0.348750 0.241351 0.143431 0 200 255
0.481075 0.351901 0.189713 0 200 255
0.470556 0.276326 0.190833 0 200 255
0.363902 0.381723 0.191290 0 200 255
0.444679 0.356743 0.137687 0 200 255
0.456885 0.306623 0.185346 0 200 255
0.456091 0.269786 0.197821 0 200 255
0.455792 0.287741 0.220963 0 200 255
0.444204 0.402825 0.183344 0 200 255
0.377901 0.368654 0.207911 0 200 255
0.382684 0.362201 0.190680 0 200 255
0.465742 0.345227 0.222648 0 200 255
0.461820 0.321885 0.186707 0 200 255
0.456726 0.396497 0.165743 0 200 255
0.365978 0.254350 0.156225 0 200 255
0.498542 0.294501 0.215205 0 200 255
0.433440 0.346789 0.195851 0 200 255
0.431452 0.280584 0.197550 0 200 255
0.370322 0.242680 0.148100 0 200 255
0.501384 0.336463 0.183622 0 200 255
0.344168 0.376928 0.192552 0 200 255
0.433912 0.331829 0.220373 0 200 255
0.466321 0.344133 0.189241 0 200 255
0.394429 0.336333 0.206020 0 200 255
0.429978 0.298341 0.218569 0 200 255
0.404065 0.237575 0.177738 0 200 255
0.468912 0.387929 0.196147 0 200 255
0.396869 0.354093 0.208138 0 200 255
0.454565 0.402252 0.133490 0 200 255
0.433598 0.410855 0.143313 0 200 255
0.487525 0.258867 0.201491 0 200 255
0.351957 0.388606 0.184178 0 200 255
0.451785 0.337486 0.190348 0 200 255
0.420762 0.300329 0.198022 0 200 255
0.421169 0.309275 0.214593 0 200 255
0.448001 0.337390 0.211033 0 200 255
0.369926 0.233647 0.181424 0 200 255
0.484877 0.368349 0.183566 0 200 255
0.489564 0.353899 0.204456 0 200 255
0.412699 0.336267 0.212945 0 200 255
0.488769 0.268297 0.185855 0 200 255
0.475087 0.391066 0.174213 0 200 255
0.437809 0.385349 0.171745 0 200 255
0.411158 0.323202 0.198850 0 200 255
0.437188 0.340168 0.172675 0 200 255
0.510954 0.276141 0.192151 0 200 255
0.434326 0.355571 0.152720 0 200 255
0.425749 0.248771 0.167663 0 200 255
0.444875 0.261833 0.206923 0 200 255
0.433068 0.298849 0.179225 0 200 255
0.435398 0.394062 0.186633 0 200 255
0.439929 0.349103 0.118921 0 200 255
0.429285 0.361559 0.129855 0 200 255
0.431908 0.319868 0.205138 0 200 255
0.432345 0.355477 0.171065 0 200 255
0.448379 0.323088 0.222848 0 200 255
0.440285 0.406769 0.161853 0 200 255
0.440481 0.246322 0.184333 0 200 255
0.478637 0.303379 0.181632 0 200 255
0.377283 0.349185 0.206642 0 200 255
0.440974 0.287870 0.181842 0 200 255
0.421978 0.261876 0.179378 0 200 255
0.477141 0.339312 0.182436 0 200 255
0.497641 0.323242 0.186190 0 200 255
0.425995 0.332371 0.193370 0 200 255
0.513403 0.318884 0.198553 0 200 255
0.478538 0.242487 0.215361 0 200 255
0.460470 0.372244 0.202433 0 200 255
0.452200 0.276430 0.175693 0 200 255
0.441410 0.382969 0.195546 0 200 255
0.463540 0.320529 0.217189 0 200 255
0.384854 0.245530 0.180834 0 200 255
0.400120 0.258326 0.182873 0 200 255
0.450856 0.360682 0.200808 0 200 255
0.471739 0.370959 0.174261 0 200 255
0.418594 0.233028 0.182121 0 200 255
0.377425 0.235060 0.169794 0 200 255
0.462612 0.337866 0.212322 0 200 255
0.350536 0.246275 0.161566 0 200 255
0.362625 0.228866 0.159559 0 200 255
0.448336 0.353640 0.179661 0 200 255
0.475222 0.348673 0.216682 0 200 255
0.467018 0.258533 0.215547 0 200 255
0.482045 0.329231 0.217682 0 200 255
0.442552 0.366047 0.159907 0 200 255
0.467866 0.404760 0.178400 0 200 255
0.345094 0.251140 0.148529 0 200 255
0.449179 0.394364 0.175455 0 200 255
0.413591 0.237846 0.162080 0 200 255
0.490983 0.251761 0.177082 0 200 255
0.477302 0.282168 0.222298 0 200 255
0.496025 0.342966 0.219027 0 200 255
0.351282 0.233603 0.166928 0 200 255
0.438197 0.260681 0.191025 0 200 255
0.508609 0.322653 0.182738 0 200 255
0.340962 0.237802 0.158323 0 200 255
0.428457 0.236318 0.176702 0 200 255
0.407639 0.334170 0.198749 0 200 255
0.380182 0.227810 0.153326 0 200 255
0.466786 0.331280 0.193371 0 200 255
0.401216 0.339646 0.215019 0 200 255
0.435525 0.365100 0.176190 0 200 255
0.432944 0.426093 0.154009 0 200 255
0.501631 0.336861 0.197832 0 200 255
0.396376 0.241755 0.148934 0 200 255
0.398224 0.232826 0.187742 0 200 255
0.488564 0.256071 0.220633 0 200 255
0.445116 0.273571 0.195002 0 200 255
0.404616 0.249801 0.189702 0 200 255
0.358438 0.234583 0.145965 0 200 255
0.476932 0.386462 0.186290 0 200 255
0.370530 0.252391 0.168586 0 200 255
0.443133 0.308543 0.183767 0 200 255
0.459279 0.299322 0.220237 0 200 255
0.363263 0.369773 0.186250 0 200 255
0.463589 0.377545 0.180707 0 200 255
0.423511 0.320416 0.197194 0 200 255
0.478357 0.260274 0.176663 0 200 255
0.416174 0.321562 0.208596 0 200 255
0.471984 0.372103 0.196501 0 200 255
0.443087 0.328198 0.184720 0 200 255
0.433668 0.249664 0.193522 0 200 255
0.479286 0.296088 0.222562 0 200 255
0.498957 0.289002 0.179901 0 200 255
0.432173 0.397381 0.166020 0 200 255
0.425982 0.251431 0.178269 0 200 255
0.462278 0.414303 0.158182 0 200 255
0.342823 0.386253 0.198101 0 200 255
0.498267 0.304955 0.218969 0 200 255
0.409307 0.247723 0.151843 0 200 255
0.510881 0.255486 0.201423 0 200 255
0.448515 0.254008 0.180319 0 200 255
0.505631 0.267814 0.209795 0 200 255
0.459140 0.268179 0.215465 0 200 255
0.402624 0.234770 0.161215 0 200 255
0.433242 0.366138 0.149577 0 200 255
0.447210 0.359847 0.125518 0 200 255
0.442611 0.343649 0.156157 0 200 255
0.441462 0.272828 0.212845 0 200 255
0.398569 0.255053 0.164140 0 200 255
0.475257 0.253576 0.196831 0 200 255
0.460377 0.326805 0.207284 0 200 255
0.349285 0.249688 0.171839 0 200 255
0.473243 0.358656 0.204722 0 200 255
0.382996 0.244853 0.170347 0 200 255
0.374277 0.363714 0.199179 0 200 255
0.431919 0.315865 0.219378 0 200 255
0.374594 0.226019 0.175715 0 200 255
0.431042 0.243082 0.158877 0 200 255
0.461025 0.259341 0.188864 0 200 255
0.394635 0.356796 0.196436 0 200 255
0.482925 0.373121 0.202222 0 200 255
0.506395 0.327015 0.216232 0 200 255
0.444065 0.265932 0.179587 0 200 255
0.484929 0.315349 0.220454 0 200 255
0.416015 0.339406 0.203484 0 200 255
0.359558 0.367948 0.206397 0 200 255
0.384957 0.237918 0.161215 0 200 255
0.445591 0.373126 0.173598 0 200 255
0.476534 0.250842 0.183614 0 200 255
0.461265 0.398075 0.186218 0 200 255
0.481344 0.340598 0.208510 0 200 255
0.355858 0.256365 0.157816 0 200 255
0.458195 0.404097 0.153879 0 200 255
0.457735 0.345701 0.195336 0 200 255
0.467185 0.394682 0.151713 0 200 255
0.467282 0.350974 0.200281 0 200 255
0.480539 0.313934 0.182600 0 200 255
0.357788 0.381290 0.203918 0 200 255
0.427461 0.318671 0.187523 0 200 255
0.456734 0.396387 0.142787 0 200 255
0.509517 0.326660 0.204094 0 200 255
0.461364 0.390897 0.173545 0 200 255
0.449299 0.349869 0.113225 0 200 255
0.468063 0.367657 0.187463 0 200 255
0.373537 0.233658 0.158540 0 200 255
0.471287 0.317458 0.186116 0 200 255
0.439549 0.288215 0.218266 0 200 255
0.405496 0.341249 0.188789 0 200 255
0.478882 0.362708 0.190650 0 200 255
0.442944 0.404570 0.151921 0 200 255
0.335733 0.252866 0.152165 0 200 255
0.487181 0.279907 0.221341 0 200 255
0.449328 0.352170 0.168407 0 200 255
0.514055 0.284232 0.197476 0 200 255
0.410272 0.329259 0.190245 0 200 255
0.461486 0.418136 0.137626 0 200 255
0.460800 0.360918 0.185347 0 200 255
0.397544 0.226277 0.153767 0 200 255
0.501545 0.307647 0.181625 0 200 255
0.381322 0.348308 0.190350 0 200 255
0.416988 0.231720 0.170434 0 200 255
0.494824 0.263189 0.193119 0 200 255
0.439634 0.365452 0.119174 0 200 255
0.462460 0.301813 0.178459 0 200 255
0.359955 0.374220 0.196726 0 200 255
0.378154 0.236443 0.147101 0 200 255
0.504989 0.295108 0.187837 0 200 255
0.449431 0.340754 0.181138 0 200 255
0.490938 0.290110 0.220721 0 200 255
0.513578 0.302765 0.185838 0 200 255
0.424010 0.253596 0.157582 0 200 255
0.482505 0.288060 0.177115 0 200 255
0.346017 0.380714 0.182176 0 200 255
0.505017 0.266637 0.199758 0 200 255
0.446705 0.355450 0.105404 0 200 255
0.390247 0.224063 0.172013 0 200 255
0.448203 0.362701 0.190523 0 200 255
0.438038 0.368418 0.141240 0 200 255
0.462840 0.289378 0.214243 0 200 255
0.447603 0.403568 0.168446 0 200 255
0.353199 0.369005 0.191794 0 200 255
0.509858 0.286485 0.213431 0 200 255
0.449616 0.353054 0.145288 0 200 255
0.365409 0.240712 0.170880 0 200 255
0.491123 0.324789 0.221837 0 200 255
0.434362 0.345701 0.180464 0 200 255
0.450251 0.369064 0.205789 0 200 255
0.453896 0.414314 0.142307 0 200 255
0.469503 0.398402 0.171205 0 200 255
0.484261 0.362759 0.205478 0 200 255
0.456041 0.333244 0.182784 0 200 255
0.450507 0.255107 0.202878 0 200 255
0.369550 0.361391 0.189368 0 200 255
0.481109 0.377603 0.186051 0 200 255
0.449212 0.285957 0.214164 0 200 255
0.489393 0.353735 0.194203 0 200 255
0.393728 0.341845 0.187338 0 200 255
0.467331 0.278573 0.180977 0 200 255
0.480024 0.252291 0.218384 0 200 255
0.497060 0.274738 0.176918 0 200 255
0.390234 0.233243 0.175583 0 200 255
0.438806 0.357354 0.129386 0 200 255
0.366725 0.357652 0.200025 0 200 255
0.471630 0.379914 0.201994 0 200 255
0.438968 0.362280 0.185480 0 200 255
0.475878 0.239881 0.192070 0 200 255
0.467518 0.409345 0.142498 0 200 255
0.381166 0.355385 0.200220 0 200 255
0.406515 0.228828 0.180846 0 200 255
0.486504 0.341658 0.219883 0 200 255
0.433932 0.352664 0.109097 0 200 255
0.453176 0.412013 0.151493 0 200 255
0.434201 0.409382 0.172577 0 200 255
0.449686 0.267648 0.212586 0 200 255
0.465797 0.353480 0.190341 0 200 255
0.512475 0.299670 0.204848 0 200 255
0.467057 0.386654 0.186531 0 200 255
0.384586 0.227713 0.163335 0 200 255
0.420617 0.314119 0.182911 0 200 255
0.447022 0.387456 0.181460 0 200 255
0.511639 0.311768 0.192629 0 200 255
0.499368 0.272675 0.192044 0 200 255
0.473444 0.384091 0.168159 0 200 255
0.467024 0.246781 0.196713 0 200 255
0.346389 0.392702 0.192329 0 200 255
0.409452 0.259842 0.177849 0 200 255
0.456567 0.407677 0.169436 0 200 255
0.486698 0.273718 0.176408 0 200 255
0.430985 0.264369 0.179138 0 200 255
0.391413 0.250422 0.151442 0 200 255
0.448707 0.346160 0.191962 0 200 255
0.355620 0.243996 0.153171 0 200 255
0.424719 0.313799 0.206840 0 200 255
0.413475 0.240809 0.182539 0 200 255
0.452686 0.254309 0.189434 0 200 255
0.498262 0.258035 0.179634 0 200 255
0.470828 0.343086 0.206568 0 200 255
0.453108 0.386039 0.190264 0 200 255
0.387956 0.352139 0.206747 0 200 255
0.409989 0.257983 0.163193 0 200 255
0.431578 0.283822 0.180825 0 200 255
0.457884 0.344273 0.206602 0 200 255
0.464692 0.362347 0.206158 0 200 255
0.426120 0.293356 0.195151 0 200 255
0.434667 0.352546 0.138758 0 200 255
0.473355 0.355965 0.195384 0 200 255
0.440067 0.394363 0.173872 0 200 255
0.463617 0.266148 0.178869 0 200 255
0.430884 0.327128 0.210646 0 200 255
0.495012 0.352818 0.211745 0 200 255
0.397560 0.344920 0.206608 0 200 255
0.440649 0.332797 0.214246 0 200 255
0.373377 0.373549 0.201027 0 200 255
0.391983 0.251698 0.185067 0 200 255
0.440020 0.356625 0.145683 0 200 255
0.440742 0.344358 0.127325 0 200 255
0.410107 0.344433 0.198788 0 200 255
0.435656 0.366261 0.167182 0 200 255
0.486556 0.266298 0.195046 0 200 255
0.479915 0.355628 0.210012 0 200 255
0.374192 0.249335 0.152806 0 200 255
0.408989 0.237216 0.169804 0 200 255
0.499742 0.272726 0.216330 0 200 255
0.481930 0.338795 0.190036 0 200 255
0.426226 0.415866 0.161591 0 200 255
0.515861 0.294095 0.198689 0 200 255
0.461002 0.388697 0.163784 0 200 255
0.484516 0.327931 0.186872 0 200 255
0.416455 0.314221 0.191856 0 200 255
0.425215 0.251059 0.190091 0 200 255
0.432114 0.327038 0.199784 0 200 255
0.457141 0.408746 0.127582 0 200 255
0.430776 0.288551 0.214678 0 200 255
0.450491 0.297682 0.221577 0 200 255
0.392791 0.337796 0.197076 0 200 255
0.404233 0.337359 0.206365 0 200 255
0.389168 0.237165 0.185948 0 200 255
0.420414 0.239246 0.189199 0 200 255
0.463474 0.255213 0.203899 0 200 255
0.395482 0.239353 0.158572 0 200 255
0.472081 0.265332 0.218210 0 200 255
0.418564 0.234629 0.155456 0 200 255
0.446740 0.358089 0.161003 0 200 255
0.418436 0.330631 0.197609 0 200 255
0.437240 0.397087 0.158785 0 200 255
0.430481 0.354968 0.162454 0 200 255
0.445857 0.264831 0.195928 0 200 255
0.376914 0.240108 0.181741 0 200 255
0.488779 0.346828 0.210073 0 200 255
0.496312 0.348105 0.198809 0 200 255
0.341162 0.249432 0.168290 0 200 255
0.349412 0.381120 0.201288 0 200 255
0.505533 0.311619 0.217408 0 200 255
0.492436 0.342072 0.188072 0 200 255
0.440919 0.339894 0.163883 0 200 255
0.430359 0.307383 0.220804 0 200 255
0.422519 0.304957 0.207147 0 200 255
0.360893 0.237066 0.154977 0 200 255
0.432062 0.355194 0.194021 0 200 255
0.452217 0.375039 0.194858 0 200 255
0.469310 0.255136 0.185787 0 200 255
0.415258 0.256305 0.170863 0 200 255
0.475034 0.266659 0.193547 0 200 255
0.514300 0.291277 0.181271 0 200 255
0.432012 0.355639 0.124159 0 200 255
0.437302 0.338663 0.194467 0 200 255
0.467938 0.284504 0.219256 0 200 255
0.448812 0.343977 0.162908 0 200 255
0.465474 0.400751 0.159681 0 200 255
0.510206 0.295803 0.212259 0 200 255
0.452400 0.269432 0.180757 0 200 255
0.344615 0.238177 0.150508 0 200 255
0.451173 0.361781 0.179768 0 200 255
0.505417 0.258155 0.185025 0 200 255
0.446434 0.387664 0.168484 0 200 255
0.425303 0.423363 0.148657 0 200 255
0.477833 0.366242 0.198848 0 200 255
0.471944 0.266689 0.175525 0 200 255
0.441529 0.305550 0.216206 0 200 255
0.425544 0.295684 0.184260 0 200 255
0.469183 0.342580 0.215174 0 200 255
0.514571 0.283033 0.188598 0 200 255
0.401663 0.227107 0.170425 0 200 255
0.449868 0.315129 0.217332 0 200 255
0.418040 0.255509 0.188990 0 200 255
0.444690 0.328181 0.205508 0 200 255
0.449822 0.396569 0.184376 0 200 255
0.368582 0.366709 0.209495 0 200 255
0.362076 0.235536 0.178886 0 200 255
0.478665 0.259919 0.214988 0 200 255
0.438434 0.421615 0.148750 0 200 255
0.403126 0.240960 0.189836 0 200 255
0.412504 0.229221 0.158192 0 200 255
0.463244 0.273478 0.195335 0 200 255
0.444050 0.255539 0.187826 0 200 255
0.475409 0.243675 0.179372 0 200 255
0.483852 0.371171 0.194100 0 200 255
0.501236 0.260707 0.210634 0 200 255
0.429599 0.309390 0.184091 0 200 255
0.412478 0.329798 0.207607 0 200 255
0.435157 0.346052 0.153157 0 200 255
0.457449 0.358496 0.196131 0 200 255
0.367931 0.227248 0.166315 0 200 255
0.401589 0.350873 0.202026 0 200 255
0.506660 0.273655 0.185420 0 200 255
0.476574 0.296585 0.214680 0 200 255
0.446127 0.330770 0.220492 0 200 255
0.461946 0.391080 0.191414 0 200 255
0.433575 0.248553 0.180225 0 200 255
0.441370 0.364248 0.109976 0 200 255
0.458421 0.343144 0.217195 0 200 255
0.378469 0.360414 0.206949 0 200 255
0.451655 0.270781 0.190706 0 200 255
0.457827 0.281154 0.180075 0 200 255
0.434721 0.317043 0.197856 0 200 255
0.462240 0.399424 0.134898 0 200 255
0.381744 0.367195 0.198361 0 200 255
0.425075 0.241012 0.170464 0 200 255
0.460851 0.338463 0.191755 0 200 255
0.393858 0.249096 0.167631 0 200 255
0.442202 0.415603 0.159889 0 200 255
0.389580 0.242030 0.175011 0 200 255
0.445506 0.352562 0.187321 0 200 255
0.472176 0.324472 0.217408 0 200 255
0.400475 0.235570 0.170635 0 200 255
0.357474 0.238687 0.168706 0 200 255
0.437017 0.360225 0.161796 0 200 255
0.440680 0.357808 0.177159 0 200 255
0.446900 0.286161 0.176485 0 200 255
0.434955 0.390734 0.179197 0 200 255
0.479507 0.369763 0.177592 0 200 255
0.472302 0.331001 0.187384 0 200 255
0.469461 0.368256 0.203217 0 200 255
0.364993 0.380383 0.199235 0 200 255
0.423321 0.242904 0.178764 0 200 255
0.455509 0.374460 0.174696 0 200 255
0.504647 0.252766 0.217354 0 200 255
0.441504 0.352279 0.154512 0 200 255
0.384349 0.344633 0.207652 0 200 255
0.389600 0.229443 0.183628 0 200 255
0.473199 0.248888 0.203237 0 200 255
0.432415 0.349425 0.187763 0 200 255
0.426496 0.415761 0.144947 0 200 255
0.365962 0.246372 0.155079 0 200 255
0.421018 0.301505 0.189506 0 200 255
0.425229 0.321218 0.209907 0 200 255
0.340212 0.246443 0.155030 0 200 255
0.439801 0.387891 0.189291 0 200 255
0.358431 0.382972 0.184037 0 200 255
0.431356 0.265496 0.187836 0 200 255
0.457142 0.382035 0.177382 0 200 255
0.472099 0.243519 0.209589 0 200 255
0.458093 0.379516 0.186185 0 200 255
0.432137 0.281783 0.188545 0 200 255
0.399028 0.332600 0.200645 0 200 255
0.397943 0.347688 0.214095 0 200 255
0.452328 0.339471 0.198217 0 200 255
0.441232 0.320143 0.220649 0 200 255
0.491969 0.297901 0.218802 0 200 255
0.457097 0.321588 0.221713 0 200 255
0.439753 0.352411 0.101427 0 200 255
0.453153 0.400217 0.158629 0 200 255
0.472304 0.284800 0.179982 0 200 255
0.453812 0.262291 0.196563 0 200 255
0.349926 0.237915 0.173448 0 200 255
0.364229 0.247268 0.175417 0 200 255
0.476028 0.285553 0.214774 0 200 255
0.496131 0.253726 0.220543 0 200 255
0.451425 0.357963 0.208222 0 200 255
0.438351 0.405423 0.178616 0 200 255
0.374078 0.242144 0.170818 0 200 255
0.442056 0.320109 0.188167 0 200 255
0.440634 0.331673 0.192897 0 200 255
0.441555 0.350024 0.132770 0 200 255
0.514113 0.311794 0.204779 0 200 255
0.472622 0.347962 0.195340 0 200 255
0.438566 0.247383 0.162520 0 200 255
0.356754 0.241861 0.143496 0 200 255
0.429440 0.309777 0.202000 0 200 255
0.438301 0.323497 0.180613 0 200 255
0.425037 0.326080 0.188471 0 200 255
0.400455 0.257140 0.174264 0 200 255
0.478362 0.263973 0.186924 0 200 255
0.437172 0.278994 0.202956 0 200 255
0.446625 0.378297 0.201038 0 200 255
0.438898 0.401147 0.167718 0 200 255
0.366309 0.235997 0.160926 0 200 255
0.429843 0.402722 0.159953 0 200 255
0.466455 0.254647 0.196683 0 200 255
0.398221 0.348695 0.187778 0 200 255
0.508118 0.329646 0.186189 0 200 255
0.447062 0.338335 0.218832 0 200 255
0.404037 0.226238 0.158073 0 200 255
0.365829 0.369124 0.196255 0 200 255
0.445157 0.401091 0.159680 0 200 255
0.479052 0.336609 0.197994 0 200 255
0.369812 0.249503 0.161067 0 200 255
0.453465 0.313975 0.186106 0 200 255
0.427502 0.408705 0.151902 0 200 255
0.415499 0.249934 0.155981 0 200 255
0.447275 0.403647 0.176199 0 200 255
0.390672 0.232441 0.164751 0 200 255
0.480470 0.345615 0.194210 0 200 255
0.470108 0.300549 0.178559 0 200 255
0.446710 0.358480 0.153001 0 200 255
0.446481 0.351878 0.197377 0 200 255
0.480611 0.347051 0.221973 0 200 255
0.341995 0.245118 0.144086 0 200 255
0.442943 0.266870 0.187171 0 200 255
0.444671 0.364328 0.136242 0 200 255
0.367580 0.376141 0.186510 0 200 255
0.460483 0.415007 0.130600 0 200 255
0.450436 0.409214 0.136981 0 200 255
0.365627 0.236992 0.144771 0 200 255
0.466355 0.330289 0.200967 0 200 255
0.514072 0.258275 0.189075 0 200 255
0.464591 0.397749 0.179318 0 200 255
0.438161 0.362732 0.154569 0 200 255
0.501244 0.341244 0.211453 0 200 255
0.355327 0.367187 0.199477 0 200 255
0.466047 0.318374 0.180613 0 200 255
0.494222 0.276642 0.219896 0 200 255
0.506517 0.273951 0.197984 0 200 255
0.453544 0.375670 0.203796 0 200 255
0.399537 0.234582 0.153705 0 200 255
0.443839 0.380746 0.170901 0 200 255
0.413866 0.240516 0.152822 0 200 255
0.447295 0.352589 0.120058 0 200 255
0.373913 0.241685 0.154974 0 200 255
0.436889 0.391569 0.167417 0 200 255
0.435395 0.369070 0.158034 0 200 255
0.482901 0.280301 0.176722 0 200 255
0.442828 0.337559 0.179140 0 200 255
0.351728 0.250421 0.154332 0 200 255
0.437267 0.270879 0.183984 0 200 255
0.502686 0.281912 0.176772 0 200 255
0.506541 0.278359 0.213521 0 200 255
0.456408 0.305597 0.217090 0 200 255
0.447410 0.387563 0.197280 0 200 255
0.433442 0.363365 0.123017 0 200 255
0.487445 0.347656 0.189195 0 200 255
0.456521 0.394254 0.178295 0 200 255
0.385011 0.233079 0.170108 0 200 255
0.492240 0.328848 0.180600 0 200 255
0.503782 0.340361 0.189648 0 200 255
0.373508 0.354541 0.201265 0 200 255
0.438262 0.421217 0.156300 0 200 255
0.372750 0.226241 0.154686 0 200 255
0.463359 0.367874 0.194215 0 200 255
0.432830 0.324373 0.219801 0 200 255
0.487857 0.256224 0.171858 0 200 255
0.455106 0.258167 0.183417 0 200 255
0.442121 0.375712 0.192221 0 200 255
0.422083 0.239461 0.160932 0 200 255
0.388578 0.240804 0.152762 0 200 255
0.487334 0.271315 0.220589 0 200 255
0.423398 0.254832 0.171739 0 200 255
0.441729 0.303737 0.178139 0 200 255
0.497883 0.252161 0.174089 0 200 255
0.428479 0.360880 0.153911 0 200 255
0.391736 0.358349 0.189666 0 200 255
0.449073 0.355456 0.131724 0 200 255
0.438100 0.354105 0.186266 0 200 255
0.433666 0.411234 0.163368 0 200 255
0.427708 0.421383 0.156716 0 200 255
0.490937 0.334283 0.220149 0 200 255
0.494934 0.262419 0.201060 0 200 255
0.461290 0.372725 0.186172 0 200 255
0.461188 0.336017 0.222896 0 200 255
0.376154 0.354452 0.212282 0 200 255
0.446385 0.303935 0.221981 0 200 255
0.395456 0.235802 0.181449 0 200 255
0.407716 0.254986 0.152675 0 200 255
0.437004 0.346271 0.112650 0 200 255
0.440950 0.294003 0.177595 0 200 255
0.435832 0.341401 0.201219 0 200 255
0.348824 0.373639 0.186355 0 200 255
0.457730 0.363247 0.201943 0 200 255
0.387327 0.342622 0.191001 0 200 255
0.465586 0.381511 0.197778 0 200 255
0.476635 0.260649 0.198556 0 200 255
0.433399 0.348221 0.172106 0 200 255
0.429951 0.257073 0.175593 0 200 255
0.436991 0.415278 0.169085 0 200 255
0.384713 0.252905 0.181365 0 200 255
0.460773 0.398748 0.149482 0 200 255
0.474781 0.377175 0.171711 0 200 255
0.405949 0.327534 0.195960 0 200 255
0.434297 0.317372 0.190455 0 200 255
0.440059 0.409614 0.146568 0 200 255
0.432212 0.317622 0.212265 0 200 255
0.453878 0.353611 0.200353 0 200 255
0.502535 0.326617 0.181763 0 200 255
0.390900 0.355709 0.212410 0 200 255
0.361393 0.246394 0.167950 0 200 255
0.387654 0.227048 0.156003 0 200 255
0.473076 0.391310 0.190631 0 200 255
0.405749 0.334039 0.212731 0 200 255
0.429905 0.361827 0.168419 0 200 255
0.472862 0.271790 0.184424 0 200 255
0.445718 0.347895 0.148968 0 200 255
0.383939 0.349983 0.214323 0 200 255
0.418418 0.232455 0.162879 0 200 255
0.434120 0.360136 0.135104 0 200 255
0.409668 0.229712 0.174353 0 200 255
0.484222 0.334867 0.222875 0 200 255
0.447788 0.381180 0.191149 0 200 255
0.419107 0.262687 0.189025 0 200 255
0.462622 0.308005 0.221822 0 200 255
0.437361 0.328394 0.207651 0 200 255
0.433321 0.349149 0.145415 0 200 255
0.433990 0.360914 0.110021 0 200 255
0.470880 0.361527 0.190036 0 200 255
0.465577 0.409618 0.149495 0 200 255
0.385745 0.251814 0.171920 0 200 255
0.471552 0.399935 0.163478 0 200 255
0.495391 0.313157 0.182259 0 200 255
0.509550 0.320507 0.189556 0 200 255
0.450792 0.348100 0.185338 0 200 255
0.480954 0.257685 0.182849 0 200 255
0.495337 0.321307 0.179633 0 200 255
0.426870 0.256245 0.164185 0 200 255
0.492807 0.249166 0.214894 0 200 255
0.503115 0.288728 0.214422 0 200 255
0.424083 0.313095 0.198076 0 200 255
0.418221 0.333821 0.189268 0 200 255
0.338645 0.383106 0.193030 0 200 255
0.445697 0.359261 0.183627 0 200 255
0.458911 0.275463 0.219492 0 200 255
0.456361 0.285763 0.214035 0 200 255
0.353249 0.239772 0.163040 0 200 255
0.437197 0.416997 0.142742 0 200 255
0.479827 0.293642 0.180686 0 200 255
0.495298 0.296428 0.176915 0 200 255
0.438031 0.322249 0.201438 0 200 255
0.467989 0.261501 0.189955 0 200 255
0.445139 0.409109 0.156957 0 200 255
0.473929 0.333153 0.221906 0 200 255
0.431609 0.328110 0.190540 0 200 255
0.421581 0.234416 0.175818 0 200 255
0.336122 0.242514 0.164741 0 200 255
0.441076 0.250703 0.178643 0 200 255
0.452930 0.388358 0.174904 0 200 255
0.479992 0.271254 0.178557 0 200 255
0.493997 0.267671 0.178243 0 200 255
0.435876 0.294219 0.219202 0 200 255
0.379127 0.245444 0.176643 0 200 255
0.359141 0.375186 0.188254 0 200 255
0.465056 0.279888 0.188124 0 200 255
0.398845 0.332889 0.210363 0 200 255
0.470755 0.272765 0.196951 0 200 255
0.435002 0.291646 0.182309 0 200 255
0.424996 0.301709 0.212930 0 200 255
0.359534 0.254514 0.152059 0 200 255
0.464150 0.407762 0.160126 0 200 255
0.456930 0.350865 0.208982 0 200 255
0.434652 0.361130 0.190963 0 200 255
0.421809 0.310411 0.189243 0 200 255
0.468081 0.392058 0.175424 0 200 255
0.482010 0.347785 0.214924 0 200 255
0.468993 0.366446 0.180360 0 200 255
0.371124 0.235927 0.166738 0 200 255
0.351686 0.381993 0.186621 0 200 255
0.408275 0.341759 0.213096 0 200 255
0.456684 0.326319 0.181631 0 200 255
0.455483 0.328565 0.202525 0 200 255
0.451896 0.334151 0.206134 0 200 255
0.394285 0.229848 0.159286 0 200 255
0.362721 0.362919 0.202615 0 200 255
0.351408 0.248420 0.147010 0 200 255
0.442405 0.394034 0.185963 0 200 255
0.367156 0.240278 0.177780 0 200 255
0.377241 0.234112 0.176763 0 200 255
0.483282 0.246687 0.212310 0 200 255
0.476967 0.243982 0.186464 0 200 255
0.378198 0.349106 0.199195 0 200 255
0.506766 0.285386 0.188362 0 200 255
0.345278 0.390449 0.185293 0 200 255
0.483839 0.264265 0.178456 0 200 255
0.451653 0.346681 0.178125 0 200 255
0.484880 0.338953 0.202005 0 200 255
0.376796 0.366278 0.189705 0 200 255
0.463823 0.306594 0.183800 0 200 255
0.444139 0.345321 0.114793 0 200 255
0.436500 0.306309 0.183674 0 200 255
0.359075 0.383140 0.196152 0 200 255
0.417701 0.259328 0.161627 0 200 255
0.463307 0.407877 0.174112 0 200 255
0.365637 0.254844 0.164237 0 200 255
0.441539 0.262037 0.200649 0 200 255
0.430323 0.359844 0.176121 0 200 255
0.357540 0.231706 0.163402 0 200 255
0.410403 0.243187 0.189689 0 200 255
0.478396 0.304750 0.222691 0 200 255
0.445221 0.369045 0.190371 0 200 255
0.441070 0.386800 0.177732 0 200 255
0.462723 0.253511 0.184192 0 200 255
0.481660 0.275333 0.220099 0 200 255
0.417177 0.318429 0.199309 0 200 255
0.447507 0.291550 0.220181 0 200 255
0.487471 0.292971 0.180485 0 200 255
0.458109 0.310057 0.179417 0 200 255
0.379272 0.354875 0.189306 0 200 255
0.457784 0.296564 0.177529 0 200 255
0.449704 0.395171 0.168027 0 200 255
0.466132 0.355549 0.205823 0 200 255
0.431425 0.237358 0.167944 0 200 255
0.507494 0.332569 0.201055 0 200 255
0.516118 0.305855 0.207772 0 200 255
0.359696 0.230860 0.151691 0 200 255
0.473346 0.246250 0.193178 0 200 255
0.500834 0.338932 0.204400 0 200 255
0.402621 0.246705 0.153359 0 200 255
0.475531 0.386144 0.194538 0 200 255
0.386316 0.244170 0.164307 0 200 255
0.438225 0.399416 0.182581 0 200 255
0.497402 0.262614 0.174525 0 200 255
0.420188 0.316096 0.214104 0 200 255
0.368436 0.235244 0.154165 0 200 255
0.446886 0.333198 0.188050 0 200 255
0.461920 0.290669 0.222198 0 200 255
0.446283 0.257617 0.194776 0 200 255
0.436030 0.277596 0.192396 0 200 255
0.386067 0.361385 0.210294 0 200 255
0.345229 0.254599 0.166254 0 200 255
0.448014 0.322379 0.193491 0 200 255
0.387896 0.362136 0.195977 0 200 255
0.429122 0.404630 0.171350 0 200 255
0.451367 0.404463 0.153232 0 200 255
0.439354 0.359572 0.115647 0 200 255
0.352321 0.236640 0.148564 0 200 255
0.445165 0.343552 0.210016 0 200 255
0.427764 0.409745 0.158908 0 200 255
0.474467 0.318191 0.180085 0 200 255
0.358339 0.374599 0.205360 0 200 255
0.447003 0.364967 0.197150 0 200 255
0.334743 0.242340 0.157935 0 200 255
0.383182 0.231560 0.148483 0 200 255
0.441331 0.337854 0.209690 0 200 255
0.348539 0.256347 0.153245 0 200 255
0.461451 0.259271 0.196620 0 200 255
0.477646 0.241290 0.203999 0 200 255
0.356568 0.369552 0.185026 0 200 255
0.367882 0.229110 0.173523 0 200 255
0.504091 0.262308 0.179805 0 200 255
0.467208 0.402235 0.147361 0 200 255
0.485522 0.359719 0.191133 0 200 255
0.462739 0.255841 0.210624 0 200 255
0.474977 0.342908 0.199221 0 200 255
0.450389 0.308449 0.183627 0 200 255
0.345315 0.242025 0.162458 0 200 255
0.369877 0.242419 0.165186 0 200 255
0.405899 0.255865 0.185572 0 200 255
0.457504 0.380426 0.194433 0 200 255
0.472198 0.343173 0.222485 0 200 255
0.367191 0.249073 0.148989 0 200 255
0.435193 0.347092 0.123322 0 200 255
0.349466 0.372977 0.195805 0 200 255
0.444011 0.259858 0.182565 0 200 255
0.454015 0.398971 0.149467 0 200 255
0.424960 0.243206 0.192260 0 200 255
0.464382 0.391884 0.182675 0 200 255
0.471623 0.349685 0.205351 0 200 255
0.337793 0.253848 0.160980 0 200 255
0.469621 0.293627 0.214820 0 200 255
0.440655 0.379519 0.176723 0 200 255
0.456626 0.392865 0.159771 0 200 255
0.465554 0.261016 0.183503 0 200 255
0.351150 0.256704 0.162626 0 200 255
0.452894 0.356524 0.183698 0 200 255
0.453993 0.284661 0.175818 0 200 255
0.464764 0.404690 0.138216 0 200 255
0.461281 0.329611 0.220889 0 200 255
0.454650 0.281265 0.219627 0 200 255
0.443116 0.351292 0.125364 0 200 255
0.453200 0.401414 0.172507 0 200 255
0.508959 0.303983 0.181143 0 200 255
0.459464 0.403108 0.161445 0 200 255
0.409866 0.323689 0.205397 0 200 255
0.394848 0.339063 0.213065 0 200 255
0.501185 0.346143 0.192349 0 200 255
0.410248 0.340352 0.206714 0 200 255
0.503392 0.267350 0.192117 0 200 255
0.502241 0.299756 0.217679 0 200 255
0.492670 0.262895 0.186109 0 200 255
0.438201 0.350370 0.191788 0 200 255
0.365020 0.370507 0.203580 0 200 255
0.482928 0.285505 0.220552 0 200 255
0.355017 0.388410 0.190079 0 200 255
0.407398 0.241906 0.154846 0 200 255
0.369876 0.376695 0.196351 0 200 255
0.476459 0.374852 0.204380 0 200 255
0.438966 0.253424 0.192233 0 200 255
0.472775 0.334252 0.181639 0 200 255
0.442639 0.412033 0.166317 0 200 255
0.486488 0.249758 0.171590 0 200 255
0.437250 0.274279 0.207955 0 200 255
0.492013 0.305679 0.181610 0 200 255
0.426639 0.290272 0.201945 0 200 255
0.436017 0.403419 0.157331 0 200 255
0.433340 0.404977 0.165418 0 200 255
0.462309 0.361581 0.191850 0 200 255
0.465027 0.322132 0.223405 0 200 255
0.473002 0.395233 0.178856 0 200 255
0.477430 0.253856 0.175586 0 200 255
0.398196 0.249555 0.185034 0 200 255
0.431134 0.354467 0.133564 0 200 255
0.390396 0.341510 0.206202 0 200 255
0.340754 0.381616 0.186994 0 200 255
0.438322 0.264030 0.182137 0 200 255
0.440428 0.360970 0.123901 0 200 255
0.462558 0.383789 0.191954 0 200 255
0.432580 0.353108 0.115950 0 200 255
0.381708 0.239295 0.167115 0 200 255
0.443655 0.349538 0.140571 0 200 255
0.410748 0.253387 0.190368 0 200 255
0.389113 0.245493 0.185808 0 200 255
0.478682 0.366336 0.205341 0 200 255
0.466807 0.375680 0.200494 0 200 255
0.496821 0.272089 0.186054 0 200 255
0.382443 0.247851 0.155494 0 200 255
0.344355 0.377183 0.199072 0 200 255
0.419276 0.328311 0.209171 0 200 255
0.372020 0.234501 0.146012 0 200 255
0.431938 0.416478 0.157503 0 200 255
0.500562 0.330862 0.186861 0 200 255
0.435001 0.343813 0.189836 0 200 255
0.415974 0.323206 0.194467 0 200 255
0.433019 0.256847 0.191965 0 200 255
0.438942 0.368910 0.151064 0 200 255
0.502269 0.323029 0.219307 0 200 255
0.447484 0.355795 0.173582 0 200 255
0.489146 0.359439 0.201009 0 200 255
0.434432 0.349037 0.201871 0 200 255
0.409056 0.345773 0.191810 0 200 255
0.397626 0.354165 0.191233 0 200 255
0.463179 0.326405 0.181521 0 200 255
0.453347 0.401466 0.140347 0 200 255
0.437509 0.320180 0.208458 0 200 255
0.444382 0.312852 0.179074 0 200 255
0.459515 0.410553 0.147369 0 200 255
0.357911 0.248316 0.174370 0 200 255
0.442063 0.391673 0.194312 0 200 255
0.472160 0.324559 0.186774 0 200 255
0.378975 0.233374 0.162038 0 200 255
0.438199 0.359092 0.168055 0 200 255
0.409355 0.235552 0.157763 0 200 255
0.447001 0.359632 0.142985 0 200 255
