ply
format ascii 1.0
element vertex 1024
property float x
property float y
property float z
property uchar red
property uchar green
property uchar blue
end_header
0.448761 0.333869 0.172730 0 200 255
0.330914 0.233517 0.116237 0 200 255
0.328008 0.380430 0.145730 0 200 255
0.424336 0.411905 0.101709 0 200 255
0.431173 0.238378 0.141480 0 200 255
0.501358 0.257222 0.188424 0 200 255
0.431559 0.342275 0.082133 0 200 255
0.377260 0.338767 0.176849 0 200 255
0.457348 0.395428 0.154788 0 200 255
0.442127 0.275245 0.191997 0 200 255
0.502135 0.309849 0.154459 0 200 255
0.375336 0.242143 0.151754 0 200 255
0.418435 0.360539 0.134351 0 200 255
0.413976 0.301415 0.155028 0 200 255
0.466907 0.272799 0.150771 0 200 255
0.478332 0.304342 0.194705 0 200 255
0.490863 0.347035 0.177557 0 200 255
0.464209 0.237286 0.180331 0 200 255
0.413031 0.321505 0.191642 0 200 255
0.457839 0.391402 0.113971 0 200 255
0.397308 0.229277 0.121782 0 200 255
0.363434 0.366013 0.153207 0 200 255
0.435551 0.368494 0.168472 0 200 255
0.423326 0.397129 0.135257 0 200 255
0.408421 0.259158 0.161139 0 200 255
0.467496 0.361113 0.154351 0 200 255
0.499440 0.254677 0.153117 0 200 255
0.362327 0.222188 0.126098 0 200 255
0.459442 0.307599 0.152607 0 200 255
0.507449 0.290769 0.181689 0 200 255
0.406785 0.335681 0.163088 0 200 255
0.429845 0.365982 0.103809 0 200 255
0.440917 0.256804 0.165910 0 200 255
0.442939 0.311442 0.195548 0 200 255
0.404498 0.227950 0.155231 0 200 255
0.472534 0.267810 0.194287 0 200 255
0.441593 0.342192 0.143629 0 200 255
0.347734 0.246355 0.137607 0 200 255
0.438756 0.282989 0.150430 0 200 255
0.479141 0.333556 0.153361 0 200 255
0.417837 0.292444 0.186622 0 200 255
0.467873 0.338827 0.194655 0 200 255
0.444867 0.372447 0.139589 0 200 255
0.502426 0.319365 0.184407 0 200 255
0.405985 0.254672 0.132725 0 200 255
0.473535 0.245156 0.150411 0 200 255
0.499978 0.281555 0.156930 0 200 255
0.385266 0.349431 0.153819 0 200 255
0.464291 0.369745 0.178672 0 200 255
0.433173 0.319373 0.152552 0 200 255
0.449891 0.410340 0.098163 0 200 255
0.429178 0.344352 0.116961 0 200 255
0.448297 0.404882 0.133396 0 200 255
0.340274 0.365422 0.162571 0 200 255
0.478828 0.257747 0.172323 0 200 255
0.426750 0.343740 0.179117 0 200 255
0.377721 0.244335 0.125096 0 200 255
0.384251 0.220862 0.142591 0 200 255
0.433592 0.390177 0.157414 0 200 255
0.353576 0.242178 0.114122 0 200 255
0.454693 0.303032 0.175997 0 200 255
0.425418 0.274387 0.172009 0 200 255
0.481677 0.297520 0.154869 0 200 255
0.433183 0.393465 0.113865 0 200 255
0.467322 0.380178 0.139524 0 200 255
0.482658 0.245350 0.196890 0 200 255
0.420154 0.354814 0.156987 0 200 255
0.358880 0.352357 0.171974 0 200 255
0.423532 0.311784 0.173664 0 200 255
0.468200 0.347408 0.173394 0 200 255
0.459312 0.272687 0.172382 0 200 255
0.421817 0.241015 0.163782 0 200 255
0.356911 0.227758 0.146545 0 200 255
0.395360 0.323868 0.178988 0 200 255
0.459608 0.293167 0.195280 0 200 255
0.450233 0.255781 0.186490 0 200 255
0.492172 0.276696 0.190775 0 200 255
0.443735 0.334157 0.193563 0 200 255
0.487960 0.332099 0.192792 0 200 255
0.426364 0.257192 0.149299 0 200 255
0.413037 0.229202 0.135568 0 200 255
0.344713 0.368607 0.142621 0 200 255
0.456310 0.330987 0.153703 0 200 255
0.453349 0.375770 0.159398 0 200 255
0.496728 0.326588 0.166267 0 200 255
0.462846 0.319157 0.195772 0 200 255
0.448669 0.353746 0.163591 0 200 255
0.394180 0.244908 0.158643 0 200 255
0.419701 0.357150 0.088837 0 200 255
0.428427 0.412014 0.121378 0 200 255
0.460011 0.251415 0.163693 0 200 255
0.386835 0.330879 0.160431 0 200 255
0.342088 0.227677 0.131415 0 200 255
0.496331 0.266789 0.171747 0 200 255
0.438953 0.349137 0.099477 0 200 255
0.395797 0.343548 0.177043 0 200 255
0.388577 0.251759 0.141851 0 200 255
0.427282 0.336900 0.156284 0 200 255
0.438075 0.301586 0.156272 0 200 255
0.427954 0.379876 0.142570 0 200 255
0.407438 0.315932 0.165075 0 200 255
0.432533 0.362959 0.122304 0 200 255
0.482485 0.261667 0.149524 0 200 255
0.376804 0.357289 0.170453 0 200 255
0.367451 0.344917 0.156727 0 200 255
0.437017 0.292706 0.188438 0 200 255
0.424584 0.342863 0.136385 0 200 255
0.379796 0.224026 0.119681 0 200 255
0.452795 0.410397 0.116520 0 200 255
0.439213 0.388725 0.131253 0 200 255
0.424019 0.253054 0.131366 0 200 255
0.343216 0.382194 0.156474 0 200 255
0.433145 0.358513 0.144527 0 200 255
0.506724 0.306270 0.172969 0 200 255
0.433942 0.325224 0.178655 0 200 255
0.474914 0.287353 0.188586 0 200 255
0.432202 0.359367 0.076581 0 200 255
0.425833 0.308529 0.192710 0 200 255
0.482702 0.279739 0.154128 0 200 255
0.417519 0.290609 0.168400 0 200 255
0.480908 0.314685 0.152054 0 200 255
0.417673 0.357514 0.112903 0 200 255
0.365761 0.239768 0.136763 0 200 255
0.450821 0.269713 0.156374 0 200 255
0.465146 0.289894 0.151683 0 200 255
0.394560 0.247843 0.121837 0 200 255
0.477185 0.361887 0.170477 0 200 255
0.488247 0.347216 0.158221 0 200 255
0.462058 0.393629 0.130442 0 200 255
0.338282 0.247791 0.121921 0 200 255
0.445309 0.394323 0.101732 0 200 255
0.493192 0.297320 0.188328 0 200 255
0.469107 0.378279 0.164962 0 200 255
0.448203 0.363803 0.178540 0 200 255
0.355279 0.371713 0.166894 0 200 255
0.476677 0.351833 0.188836 0 200 255
0.418067 0.400588 0.114458 0 200 255
0.416215 0.326962 0.174021 0 200 255
0.396254 0.232156 0.138178 0 200 255
0.409723 0.305715 0.181064 0 200 255
0.330019 0.238766 0.132840 0 200 255
0.387263 0.230255 0.156159 0 200 255
0.422725 0.346842 0.101536 0 200 255
0.467883 0.252265 0.185870 0 200 255
0.424707 0.259100 0.165423 0 200 255
0.423434 0.280480 0.154678 0 200 255
0.433779 0.261439 0.179572 0 200 255
0.428094 0.328985 0.193150 0 200 255
0.446105 0.347990 0.179928 0 200 255
0.444006 0.395737 0.146184 0 200 255
0.350921 0.226429 0.116026 0 200 255
0.417898 0.234634 0.149529 0 200 255
0.508140 0.293112 0.163689 0 200 255
0.352096 0.355470 0.158217 0 200 255
0.448489 0.359241 0.148957 0 200 255
0.410573 0.240759 0.125400 0 200 255
0.457516 0.275525 0.194049 0 200 255
0.434238 0.245448 0.156129 0 200 255
0.365603 0.231285 0.114317 0 200 255
0.487787 0.316977 0.191503 0 200 255
0.433581 0.352494 0.163742 0 200 255
0.450623 0.294976 0.151168 0 200 255
0.463676 0.332309 0.174147 0 200 255
0.505242 0.279089 0.172453 0 200 255
0.444456 0.270487 0.171980 0 200 255
0.438987 0.350138 0.126634 0 200 255
0.420903 0.321238 0.161046 0 200 255
0.371592 0.228533 0.144467 0 200 255
0.498733 0.295494 0.152401 0 200 255
0.430602 0.374981 0.156162 0 200 255
0.445605 0.397761 0.120355 0 200 255
0.446305 0.320095 0.158995 0 200 255
0.440650 0.406659 0.109478 0 200 255
0.401218 0.256167 0.147461 0 200 255
0.361882 0.248165 0.125589 0 200 255
0.424330 0.387811 0.124260 0 200 255
0.434985 0.359920 0.090734 0 200 255
0.506423 0.257589 0.165403 0 200 255
0.452109 0.384842 0.138344 0 200 255
0.382179 0.233233 0.135442 0 200 255
0.460716 0.359037 0.169540 0 200 255
0.428670 0.275684 0.187051 0 200 255
0.436277 0.266295 0.156349 0 200 255
0.467431 0.264745 0.162484 0 200 255
0.354652 0.235425 0.129026 0 200 255
0.407606 0.242587 0.162429 0 200 255
0.440724 0.340501 0.161498 0 200 255
0.417857 0.246750 0.142370 0 200 255
0.479910 0.340713 0.169419 0 200 255
0.455381 0.344888 0.193639 0 200 255
0.484511 0.260881 0.195813 0 200 255
0.469238 0.323846 0.152772 0 200 255
0.458243 0.367449 0.143556 0 200 255
0.440954 0.380346 0.163746 0 200 255
0.435572 0.401913 0.128876 0 200 255
0.463438 0.238218 0.165500 0 200 255
0.395697 0.340853 0.156294 0 200 255
0.389121 0.221681 0.129648 0 200 255
0.353645 0.375012 0.150586 0 200 255
0.457693 0.401798 0.142623 0 200 255
0.331389 0.374310 0.157672 0 200 255
0.430226 0.334000 0.169125 0 200 255
0.488157 0.263104 0.161725 0 200 255
0.450950 0.253626 0.154036 0 200 255
0.437526 0.354158 0.113218 0 200 255
0.496234 0.335627 0.182120 0 200 255
0.470520 0.344312 0.160577 0 200 255
0.457624 0.399523 0.102173 0 200 255
0.456588 0.306188 0.194910 0 200 255
0.405059 0.333949 0.177805 0 200 255
0.473730 0.326814 0.194942 0 200 255
0.471625 0.373482 0.151972 0 200 255
0.424128 0.391533 0.147428 0 200 255
0.426054 0.399032 0.104165 0 200 255
0.431851 0.247831 0.168860 0 200 255
0.445174 0.381610 0.148954 0 200 255
0.446934 0.287150 0.194878 0 200 255
0.373104 0.356356 0.153933 0 200 255
0.341332 0.381191 0.143042 0 200 255
0.422518 0.236897 0.131027 0 200 255
0.366172 0.364682 0.169556 0 200 255
0.374349 0.220423 0.130898 0 200 255
0.491819 0.335018 0.155625 0 200 255
0.370291 0.349888 0.178815 0 200 255
0.450472 0.251622 0.172886 0 200 255
0.388258 0.349262 0.168263 0 200 255
0.456490 0.342046 0.160348 0 200 255
0.420467 0.351272 0.123841 0 200 255
0.420912 0.352410 0.144340 0 200 255
0.502864 0.305753 0.187162 0 200 255
0.406940 0.318230 0.178962 0 200 255
0.453113 0.326283 0.190010 0 200 255
0.458968 0.385979 0.164538 0 200 255
0.458477 0.343666 0.181373 0 200 255
0.427529 0.292123 0.151808 0 200 255
0.423344 0.344386 0.166840 0 200 255
0.345575 0.235248 0.143111 0 200 255
0.436790 0.362455 0.156822 0 200 255
0.397251 0.323233 0.165154 0 200 255
0.470859 0.257987 0.152415 0 200 255
0.343496 0.235779 0.110434 0 200 255
0.422828 0.350393 0.078613 0 200 255
0.385382 0.234802 0.123119 0 200 255
0.431915 0.318528 0.165996 0 200 255
0.384060 0.250674 0.154534 0 200 255
0.418863 0.404560 0.126490 0 200 255
0.386828 0.331466 0.174208 0 200 255
0.415493 0.250919 0.155320 0 200 255
0.406377 0.236211 0.145483 0 200 255
0.469959 0.301286 0.155087 0 200 255
0.487541 0.287552 0.194001 0 200 255
0.420028 0.311780 0.152841 0 200 255
0.376992 0.337875 0.162074 0 200 255
0.491591 0.265555 0.185974 0 200 255
0.488378 0.321857 0.158842 0 200 255
0.448052 0.367471 0.166486 0 200 255
0.466184 0.384188 0.154782 0 200 255
0.439510 0.356139 0.173837 0 200 255
0.504058 0.318575 0.171633 0 200 255
0.419031 0.360526 0.100450 0 200 255
0.470912 0.242280 0.192003 0 200 255
0.438023 0.335983 0.182216 0 200 255
0.460136 0.317879 0.158829 0 200 255
0.417784 0.412434 0.112412 0 200 255
0.430347 0.364431 0.134471 0 200 255
0.457463 0.375565 0.170646 0 200 255
0.467628 0.252284 0.172866 0 200 255
0.455251 0.283423 0.150428 0 200 255
0.431778 0.400028 0.144274 0 200 255
0.413192 0.258070 0.146152 0 200 255
0.432561 0.318123 0.194631 0 200 255
0.352685 0.224613 0.135636 0 200 255
0.422973 0.320045 0.182081 0 200 255
0.458531 0.401106 0.120931 0 200 255
0.427132 0.286729 0.191011 0 200 255
0.462466 0.391060 0.142729 0 200 255
0.384087 0.347908 0.179531 0 200 255
0.402789 0.223633 0.133625 0 200 255
0.369455 0.231414 0.126437 0 200 255
0.457127 0.277783 0.161946 0 200 255
0.442141 0.321563 0.171257 0 200 255
0.355863 0.240611 0.143710 0 200 255
0.350458 0.248846 0.123592 0 200 255
0.367729 0.344282 0.168323 0 200 255
0.483691 0.249844 0.153459 0 200 255
0.475357 0.315452 0.193300 0 200 255
0.468557 0.282225 0.196801 0 200 255
0.333738 0.370150 0.145963 0 200 255
0.485763 0.343238 0.190558 0 200 255
0.499229 0.275155 0.181750 0 200 255
0.438837 0.349597 0.153889 0 200 255
0.499408 0.321376 0.155576 0 200 255
0.499107 0.264866 0.158638 0 200 255
0.420719 0.362934 0.123374 0 200 255
0.430429 0.380854 0.131450 0 200 255
0.467249 0.302051 0.196337 0 200 255
0.457222 0.329446 0.165162 0 200 255
0.439054 0.349161 0.087319 0 200 255
0.395716 0.223943 0.149137 0 200 255
0.467314 0.335072 0.153416 0 200 255
0.451375 0.266387 0.191073 0 200 255
0.479282 0.349774 0.176302 0 200 255
0.352084 0.361246 0.148403 0 200 255
0.460145 0.261383 0.172389 0 200 255
0.361051 0.354621 0.151327 0 200 255
0.491841 0.336172 0.169796 0 200 255
0.455015 0.361789 0.158815 0 200 255
0.449381 0.386955 0.119959 0 200 255
0.328215 0.242729 0.122339 0 200 255
0.364029 0.223297 0.137957 0 200 255
0.428825 0.341740 0.093029 0 200 255
0.441968 0.311233 0.152072 0 200 255
0.383697 0.238569 0.145229 0 200 255
0.416701 0.309285 0.165192 0 200 255
0.450521 0.336217 0.183660 0 200 255
0.450182 0.305361 0.158365 0 200 255
0.474156 0.368160 0.161829 0 200 255
0.386386 0.247519 0.131260 0 200 255
0.428061 0.355284 0.106349 0 200 255
0.449574 0.386751 0.157697 0 200 255
0.490665 0.287379 0.154401 0 200 255
0.479271 0.352420 0.165198 0 200 255
0.423836 0.362209 0.149164 0 200 255
0.438447 0.345377 0.171816 0 200 255
0.458615 0.261348 0.155648 0 200 255
0.364332 0.235075 0.149875 0 200 255
0.426095 0.367215 0.114008 0 200 255
0.376524 0.242313 0.137642 0 200 255
0.463926 0.353051 0.160760 0 200 255
0.503118 0.255373 0.177837 0 200 255
0.392044 0.334112 0.183373 0 200 255
0.345437 0.238218 0.123998 0 200 255
0.408221 0.230169 0.125665 0 200 255
0.396657 0.234897 0.152416 0 200 255
0.434767 0.340707 0.133348 0 200 255
0.436648 0.255456 0.152756 0 200 255
0.338085 0.246321 0.132742 0 200 255
0.430419 0.411375 0.110608 0 200 255
0.367188 0.241795 0.118733 0 200 255
0.424871 0.358242 0.166269 0 200 255
0.432294 0.248224 0.137365 0 200 255
0.450721 0.325545 0.179204 0 200 255
0.359298 0.248301 0.136645 0 200 255
0.406450 0.325260 0.159926 0 200 255
0.437362 0.330555 0.159475 0 200 255
0.432291 0.349034 0.073842 0 200 255
0.459575 0.245277 0.172997 0 200 255
0.363729 0.358543 0.161182 0 200 255
0.433236 0.336343 0.146604 0 200 255
0.430851 0.389256 0.138511 0 200 255
0.340405 0.228685 0.120984 0 200 255
0.400157 0.238972 0.125695 0 200 255
0.469471 0.354977 0.180663 0 200 255
0.398481 0.342002 0.166400 0 200 255
0.496579 0.327441 0.188757 0 200 255
0.340773 0.363932 0.151199 0 200 255
0.410411 0.301606 0.171434 0 200 255
0.376068 0.235728 0.118384 0 200 255
0.441059 0.404419 0.099261 0 200 255
0.427736 0.303208 0.156394 0 200 255
0.444279 0.323758 0.195000 0 200 255
0.441025 0.382359 0.139344 0 200 255
0.471307 0.339932 0.179982 0 200 255
0.349187 0.368196 0.157106 0 200 255
0.448916 0.345438 0.170212 0 200 255
0.434603 0.264965 0.167349 0 200 255
0.450338 0.371362 0.149100 0 200 255
0.433828 0.368581 0.148609 0 200 255
0.448916 0.301291 0.189855 0 200 255
0.424890 0.247128 0.151470 0 200 255
0.354876 0.361548 0.169022 0 200 255
0.396049 0.251938 0.131406 0 200 255
0.332755 0.384261 0.155208 0 200 255
0.471576 0.311925 0.155519 0 200 255
0.487310 0.269311 0.176073 0 200 255
0.499891 0.326528 0.176699 0 200 255
0.399288 0.236504 0.162334 0 200 255
0.472872 0.252000 0.194873 0 200 255
0.465651 0.260267 0.193229 0 200 255
0.469173 0.248890 0.159832 0 200 255
0.467344 0.294735 0.188744 0 200 255
0.422854 0.345782 0.153014 0 200 255
0.423783 0.306788 0.182586 0 200 255
0.406235 0.324953 0.170134 0 200 255
0.496701 0.287778 0.189230 0 200 255
0.437100 0.303122 0.194904 0 200 255
0.478504 0.280178 0.196102 0 200 255
0.438321 0.351149 0.136734 0 200 255
0.393152 0.255344 0.153600 0 200 255
0.346373 0.375676 0.163596 0 200 255
0.380254 0.355272 0.161044 0 200 255
0.492748 0.306151 0.155166 0 200 255
0.429804 0.354550 0.127206 0 200 255
0.447868 0.393529 0.129337 0 200 255
0.452316 0.257752 0.165100 0 200 255
0.496419 0.294053 0.162083 0 200 255
0.427055 0.355361 0.116351 0 200 255
0.464858 0.348263 0.187628 0 200 255
0.418083 0.260585 0.156204 0 200 255
0.401274 0.251584 0.161056 0 200 255
0.504837 0.301818 0.159797 0 200 255
0.381977 0.339952 0.153644 0 200 255
0.397190 0.330706 0.171810 0 200 255
0.488978 0.305350 0.192552 0 200 255
0.437746 0.267325 0.187754 0 200 255
0.474286 0.285857 0.151445 0 200 255
0.424917 0.342507 0.126413 0 200 255
0.466995 0.369247 0.168661 0 200 255
0.460357 0.297968 0.155002 0 200 255
0.417373 0.292072 0.155139 0 200 255
0.458359 0.350248 0.173950 0 200 255
0.457589 0.402628 0.130752 0 200 255
0.423238 0.391898 0.115291 0 200 255
0.414832 0.254616 0.128052 0 200 255
0.379197 0.249373 0.146027 0 200 255
0.454037 0.288615 0.188178 0 200 255
0.426977 0.383667 0.153196 0 200 255
0.447933 0.393539 0.111208 0 200 255
0.441991 0.398085 0.136824 0 200 255
0.449021 0.333957 0.162249 0 200 255
0.442799 0.271724 0.161634 0 200 255
0.426581 0.363056 0.094682 0 200 255
0.455055 0.407880 0.107323 0 200 255
0.410587 0.311240 0.155404 0 200 255
0.371209 0.352706 0.163789 0 200 255
0.426839 0.397487 0.126130 0 200 255
0.416193 0.329371 0.164543 0 200 255
0.427175 0.406271 0.131314 0 200 255
0.445497 0.407089 0.123221 0 200 255
0.483826 0.270083 0.192667 0 200 255
0.450288 0.399861 0.095450 0 200 255
0.338447 0.235355 0.136471 0 200 255
0.454871 0.375555 0.137406 0 200 255
0.477930 0.294646 0.195380 0 200 255
0.442758 0.253478 0.178483 0 200 255
0.433755 0.390372 0.147702 0 200 255
0.476299 0.264542 0.158587 0 200 255
0.434246 0.391757 0.123332 0 200 255
0.496061 0.274212 0.165550 0 200 255
0.445536 0.276110 0.149945 0 200 255
0.411900 0.227659 0.145045 0 200 255
0.496094 0.312111 0.190739 0 200 255
0.418281 0.236178 0.139678 0 200 255
0.359677 0.349878 0.162389 0 200 255
0.419737 0.301090 0.192057 0 200 255
0.411995 0.312367 0.172999 0 200 255
0.369905 0.222446 0.120189 0 200 255
0.489179 0.272932 0.152156 0 200 255
0.435578 0.372555 0.137296 0 200 255
0.403121 0.251515 0.124160 0 200 255
0.377216 0.347828 0.171759 0 200 255
0.384123 0.240925 0.155283 0 200 255
0.436153 0.282657 0.192083 0 200 255
0.422349 0.347363 0.111030 0 200 255
0.454247 0.394868 0.137146 0 200 255
0.476266 0.341726 0.191352 0 200 255
0.335142 0.235745 0.125485 0 200 255
0.435091 0.403059 0.116195 0 200 255
0.451379 0.390459 0.148775 0 200 255
0.503528 0.299703 0.178928 0 200 255
0.415734 0.250864 0.164731 0 200 255
0.434719 0.358636 0.100054 0 200 255
0.392976 0.221490 0.139124 0 200 255
0.418355 0.327432 0.186658 0 200 255
0.404827 0.233734 0.134671 0 200 255
0.502566 0.311112 0.166072 0 200 255
0.334389 0.242536 0.115177 0 200 255
0.396690 0.331230 0.160256 0 200 255
0.451740 0.270891 0.165633 0 200 255
0.431032 0.354773 0.153523 0 200 255
0.478856 0.271614 0.151559 0 200 255
0.440907 0.364573 0.142686 0 200 255
0.436755 0.382216 0.153709 0 200 255
0.423777 0.323742 0.169621 0 200 255
0.411504 0.234440 0.160131 0 200 255
0.343808 0.244315 0.114146 0 200 255
0.418648 0.314397 0.189539 0 200 255
0.350708 0.225539 0.126625 0 200 255
0.418193 0.245971 0.130078 0 200 255
0.442658 0.374108 0.170368 0 200 255
0.490768 0.256434 0.155772 0 200 255
0.389481 0.238211 0.132769 0 200 255
0.506295 0.282292 0.163617 0 200 255
0.356141 0.232963 0.112148 0 200 255
0.418767 0.284900 0.161289 0 200 255
0.375471 0.347552 0.152894 0 200 255
0.369239 0.358455 0.175545 0 200 255
0.418152 0.405826 0.104683 0 200 255
0.359598 0.230157 0.121142 0 200 255
0.362374 0.368437 0.162119 0 200 255
0.419637 0.255757 0.140074 0 200 255
0.486345 0.270741 0.167095 0 200 255
0.347013 0.359169 0.164829 0 200 255
0.439840 0.290903 0.154819 0 200 255
0.379488 0.233877 0.151902 0 200 255
0.458950 0.400072 0.111487 0 200 255
0.385954 0.341429 0.173445 0 200 255
0.425954 0.356835 0.137841 0 200 255
0.389828 0.231898 0.145806 0 200 255
0.457130 0.367316 0.166453 0 200 255
0.340935 0.372831 0.156954 0 200 255
0.482052 0.323418 0.194125 0 200 255
0.430900 0.272633 0.152864 0 200 255
0.420629 0.350815 0.132806 0 200 255
0.428972 0.324400 0.158714 0 200 255
0.448180 0.358390 0.171251 0 200 255
0.507148 0.293902 0.173122 0 200 255
0.466696 0.370426 0.143749 0 200 255
0.475128 0.326227 0.159094 0 200 255
0.446591 0.330564 0.154340 0 200 255
0.382368 0.224786 0.151077 0 200 255
0.459764 0.385330 0.133836 0 200 255
0.455702 0.253980 0.179675 0 200 255
0.358815 0.231487 0.135796 0 200 255
0.431281 0.342955 0.101446 0 200 255
0.410097 0.327181 0.180477 0 200 255
0.425617 0.340548 0.145003 0 200 255
0.484607 0.352662 0.182749 0 200 255
0.413801 0.294884 0.179138 0 200 255
0.431723 0.382125 0.161236 0 200 255
0.448441 0.250490 0.161901 0 200 255
0.457738 0.386476 0.153729 0 200 255
0.449002 0.404301 0.142159 0 200 255
0.461900 0.344193 0.168166 0 200 255
0.486222 0.347308 0.170101 0 200 255
0.441029 0.370916 0.162070 0 200 255
0.482664 0.340616 0.159648 0 200 255
0.442872 0.296553 0.195080 0 200 255
0.366321 0.240996 0.127874 0 200 255
0.386422 0.244715 0.122347 0 200 255
0.428347 0.313479 0.156816 0 200 255
0.473269 0.369762 0.174698 0 200 255
0.359061 0.238843 0.120886 0 200 255
0.422447 0.347843 0.092893 0 200 255
0.427821 0.361455 0.086049 0 200 255
0.370802 0.229225 0.135845 0 200 255
0.470008 0.360660 0.163229 0 200 255
0.367604 0.242689 0.147290 0 200 255
0.459047 0.362996 0.150963 0 200 255
0.372365 0.361257 0.162936 0 200 255
0.410722 0.314155 0.186034 0 200 255
0.505922 0.290128 0.155858 0 200 255
0.439244 0.390693 0.140994 0 200 255
0.454178 0.408746 0.124906 0 200 255
0.425906 0.236231 0.152395 0 200 255
0.459182 0.284149 0.193512 0 200 255
0.474032 0.256036 0.160279 0 200 255
0.433081 0.344035 0.159514 0 200 255
0.418875 0.240732 0.155579 0 200 255
0.426472 0.360844 0.157634 0 200 255
0.430911 0.333267 0.177855 0 200 255
0.384968 0.338783 0.181771 0 200 255
0.423146 0.277263 0.179816 0 200 255
0.403413 0.226624 0.146360 0 200 255
0.453421 0.392434 0.104603 0 200 255
0.445973 0.260403 0.171841 0 200 255
0.396501 0.249100 0.139948 0 200 255
0.428659 0.267138 0.175736 0 200 255
0.428869 0.262098 0.157260 0 200 255
0.444061 0.261028 0.159159 0 200 255
0.438000 0.340045 0.152671 0 200 255
0.441280 0.389230 0.151892 0 200 255
0.414989 0.318981 0.167619 0 200 255
0.433196 0.362588 0.113048 0 200 255
0.431963 0.283526 0.155557 0 200 255
0.364745 0.225157 0.148674 0 200 255
0.424194 0.250172 0.163985 0 200 255
0.347401 0.237683 0.132865 0 200 255
0.394758 0.230223 0.129843 0 200 255
0.423921 0.320833 0.191284 0 200 255
0.456510 0.392860 0.122191 0 200 255
0.423274 0.406894 0.117056 0 200 255
0.427482 0.278786 0.165103 0 200 255
0.439961 0.358611 0.149502 0 200 255
0.446918 0.353613 0.155356 0 200 255
0.432234 0.256370 0.168019 0 200 255
0.423338 0.389156 0.132573 0 200 255
0.468296 0.241482 0.155962 0 200 255
0.428410 0.318550 0.174679 0 200 255
0.419608 0.396900 0.121844 0 200 255
0.434615 0.336175 0.189880 0 200 255
0.441080 0.250513 0.157885 0 200 255
0.478466 0.265198 0.168527 0 200 255
0.462852 0.269277 0.195615 0 200 255
0.392916 0.236525 0.119931 0 200 255
0.424542 0.364757 0.140477 0 200 255
0.497835 0.257028 0.161246 0 200 255
0.501247 0.296174 0.186503 0 200 255
0.424370 0.345289 0.085001 0 200 255
0.441284 0.398888 0.112339 0 200 255
0.415537 0.318636 0.177115 0 200 255
0.427068 0.366878 0.127155 0 200 255
0.381718 0.334270 0.167849 0 200 255
0.354097 0.374577 0.159046 0 200 255
0.348112 0.367606 0.166392 0 200 255
0.466085 0.384639 0.146479 0 200 255
0.503910 0.265122 0.168913 0 200 255
0.465239 0.326836 0.193923 0 200 255
0.421396 0.281694 0.173086 0 200 255
0.441056 0.316887 0.189655 0 200 255
0.459893 0.261097 0.163782 0 200 255
0.467865 0.290433 0.196743 0 200 255
0.459272 0.363329 0.176412 0 200 255
0.354262 0.241918 0.135279 0 200 255
0.373916 0.238713 0.130724 0 200 255
0.440191 0.355677 0.160003 0 200 255
0.456196 0.351452 0.165976 0 200 255
0.406148 0.256052 0.140807 0 200 255
0.438160 0.351186 0.145880 0 200 255
0.433537 0.399852 0.108773 0 200 255
0.436070 0.356688 0.083267 0 200 255
0.406534 0.237873 0.154628 0 200 255
0.467600 0.237658 0.172911 0 200 255
0.451252 0.378591 0.144054 0 200 255
0.427367 0.243202 0.132811 0 200 255
0.474787 0.364442 0.152875 0 200 255
0.462833 0.328997 0.159274 0 200 255
0.441292 0.366419 0.175131 0 200 255
0.417237 0.308419 0.178037 0 200 255
0.434060 0.396276 0.135954 0 200 255
0.457044 0.260825 0.192771 0 200 255
0.462698 0.279743 0.150823 0 200 255
0.433475 0.349076 0.093483 0 200 255
0.463780 0.271993 0.162251 0 200 255
0.429163 0.336655 0.138849 0 200 255
0.496717 0.253334 0.193803 0 200 255
0.355522 0.363175 0.156667 0 200 255
0.403610 0.336983 0.170416 0 200 255
0.437463 0.360979 0.166224 0 200 255
0.465595 0.247888 0.179483 0 200 255
0.445273 0.262096 0.187270 0 200 255
0.442463 0.337564 0.168797 0 200 255
0.450515 0.385922 0.129587 0 200 255
0.476987 0.357218 0.178353 0 200 255
0.417938 0.288408 0.176136 0 200 255
0.412295 0.298312 0.162261 0 200 255
0.435941 0.348643 0.118839 0 200 255
0.447141 0.410800 0.105690 0 200 255
0.348014 0.375843 0.143686 0 200 255
0.353572 0.369321 0.144943 0 200 255
0.444171 0.347693 0.160744 0 200 255
0.477989 0.360537 0.162546 0 200 255
0.464537 0.242835 0.186096 0 200 255
0.350902 0.232449 0.137840 0 200 255
0.345195 0.249104 0.129610 0 200 255
0.425985 0.350490 0.160348 0 200 255
0.446796 0.390815 0.138229 0 200 255
0.429936 0.242670 0.163065 0 200 255
0.430867 0.321775 0.185170 0 200 255
0.434992 0.382576 0.145199 0 200 255
0.394556 0.227132 0.156852 0 200 255
0.448198 0.342327 0.188205 0 200 255
0.464302 0.264162 0.150849 0 200 255
0.452883 0.268716 0.174850 0 200 255
0.462720 0.311103 0.196081 0 200 255
0.467310 0.285173 0.189092 0 200 255
0.435669 0.327520 0.191355 0 200 255
0.432362 0.345029 0.125553 0 200 255
0.503467 0.281760 0.182694 0 200 255
0.491982 0.261725 0.193376 0 200 255
0.504856 0.311845 0.178237 0 200 255
0.429549 0.256715 0.135637 0 200 255
0.387648 0.226469 0.135719 0 200 255
0.502670 0.266663 0.176516 0 200 255
0.466067 0.375613 0.173171 0 200 255
0.399860 0.335335 0.183518 0 200 255
0.422229 0.241647 0.146550 0 200 255
0.465435 0.315881 0.152698 0 200 255
0.458805 0.253113 0.172541 0 200 255
0.449439 0.396171 0.153754 0 200 255
0.367654 0.352018 0.171399 0 200 255
0.415379 0.234078 0.129551 0 200 255
0.335797 0.384848 0.147170 0 200 255
0.498686 0.328526 0.158643 0 200 255
0.434857 0.375592 0.164857 0 200 255
0.457502 0.330115 0.195212 0 200 255
0.349487 0.234598 0.115872 0 200 255
0.401126 0.320118 0.174136 0 200 255
0.469276 0.335333 0.169663 0 200 255
0.451282 0.318455 0.153256 0 200 255
0.431875 0.297953 0.192382 0 200 255
0.451259 0.319486 0.193282 0 200 255
0.439367 0.249254 0.166831 0 200 255
0.384751 0.242969 0.137329 0 200 255
0.372884 0.229887 0.152686 0 200 255
0.487151 0.262087 0.173259 0 200 255
0.459626 0.380253 0.158605 0 200 255
0.418906 0.354589 0.105429 0 200 255
0.411012 0.332916 0.169079 0 200 255
0.414425 0.307611 0.187849 0 200 255
0.370709 0.221417 0.141370 0 200 255
0.424196 0.357945 0.079496 0 200 255
0.470206 0.347065 0.193072 0 200 255
0.333887 0.377878 0.141440 0 200 255
0.452046 0.278862 0.155757 0 200 255
0.346621 0.359531 0.154637 0 200 255
0.424525 0.233699 0.143433 0 200 255
0.392779 0.346297 0.160881 0 200 255
0.327574 0.235088 0.124298 0 200 255
0.382550 0.352947 0.173870 0 200 255
0.451672 0.398010 0.145667 0 200 255
0.445226 0.408242 0.115440 0 200 255
0.430739 0.350621 0.100866 0 200 255
0.428041 0.329843 0.185518 0 200 255
0.456702 0.328847 0.172794 0 200 255
0.440502 0.330486 0.177471 0 200 255
0.491137 0.341257 0.183158 0 200 255
0.420306 0.351386 0.165407 0 200 255
0.423992 0.355882 0.095189 0 200 255
0.488132 0.254236 0.196820 0 200 255
0.413484 0.319982 0.159767 0 200 255
0.441751 0.397492 0.126929 0 200 255
0.338281 0.235166 0.117573 0 200 255
0.435725 0.356446 0.131908 0 200 255
0.357090 0.246541 0.119281 0 200 255
0.474887 0.278102 0.151470 0 200 255
0.386722 0.227511 0.124822 0 200 255
0.446916 0.308607 0.189316 0 200 255
0.433759 0.369066 0.160838 0 200 255
0.478241 0.259721 0.191677 0 200 255
0.494621 0.280235 0.151706 0 200 255
0.449268 0.341969 0.162654 0 200 255
0.451503 0.368835 0.156152 0 200 255
0.482920 0.327016 0.152888 0 200 255
0.494026 0.339291 0.161468 0 200 255
0.408819 0.251458 0.160758 0 200 255
0.480531 0.253941 0.147963 0 200 255
0.397337 0.222549 0.128522 0 200 255
0.413089 0.230112 0.153181 0 200 255
0.327655 0.379052 0.153147 0 200 255
0.436519 0.355927 0.120688 0 200 255
0.429671 0.348483 0.109159 0 200 255
0.490623 0.250267 0.150543 0 200 255
0.463073 0.390497 0.150252 0 200 255
0.424814 0.397606 0.142753 0 200 255
0.485646 0.277029 0.194929 0 200 255
0.415914 0.299857 0.185693 0 200 255
0.423009 0.247702 0.136968 0 200 255
0.480882 0.334496 0.192070 0 200 255
0.451061 0.335587 0.194314 0 200 255
0.362499 0.230164 0.129396 0 200 255
0.451243 0.261737 0.154343 0 200 255
0.426948 0.404380 0.123203 0 200 255
0.410409 0.248236 0.125734 0 200 255
0.444174 0.337033 0.177722 0 200 255
0.360824 0.235199 0.142272 0 200 255
0.417656 0.357027 0.127793 0 200 255
0.422796 0.311357 0.161338 0 200 255
0.402562 0.326972 0.178701 0 200 255
0.422762 0.390399 0.139905 0 200 255
0.343096 0.229202 0.138631 0 200 255
0.377335 0.229039 0.139386 0 200 255
0.430424 0.268216 0.182874 0 200 255
0.390337 0.335763 0.155590 0 200 255
0.352161 0.249243 0.132154 0 200 255
0.371059 0.343346 0.175408 0 200 255
0.472217 0.337172 0.161640 0 200 255
0.461430 0.372916 0.164202 0 200 255
0.484822 0.293915 0.191351 0 200 255
0.468798 0.259472 0.174231 0 200 255
0.424362 0.415816 0.112068 0 200 255
0.392267 0.233922 0.160187 0 200 255
0.451684 0.367182 0.172905 0 200 255
0.462438 0.380408 0.167900 0 200 255
0.442402 0.351007 0.167088 0 200 255
0.379164 0.234192 0.128254 0 200 255
0.504869 0.287852 0.168193 0 200 255
0.464157 0.356474 0.175477 0 200 255
0.445573 0.380596 0.156197 0 200 255
0.477051 0.287356 0.196026 0 200 255
0.448583 0.287986 0.150405 0 200 255
0.432525 0.310631 0.194803 0 200 255
0.493249 0.325121 0.154308 0 200 255
0.402270 0.257956 0.157369 0 200 255
0.410349 0.258846 0.154095 0 200 255
0.448381 0.374579 0.164814 0 200 255
0.418896 0.255065 0.150358 0 200 255
0.355223 0.355597 0.164798 0 200 255
0.473121 0.275401 0.195029 0 200 255
0.391535 0.327192 0.168878 0 200 255
0.453963 0.379718 0.165476 0 200 255
0.474114 0.335045 0.194670 0 200 255
0.433111 0.300485 0.151076 0 200 255
0.469740 0.242204 0.163048 0 200 255
0.429773 0.376617 0.148805 0 200 255
0.465961 0.244728 0.169582 0 200 255
0.373353 0.340705 0.156442 0 200 255
0.452833 0.361142 0.165682 0 200 255
0.500970 0.274659 0.160256 0 200 255
0.367252 0.360020 0.151796 0 200 255
0.447657 0.284825 0.188073 0 200 255
0.416336 0.405693 0.119272 0 200 255
0.477515 0.346118 0.160404 0 200 255
0.409312 0.306377 0.160580 0 200 255
0.430657 0.326823 0.168540 0 200 255
0.486446 0.311522 0.155422 0 200 255
0.432292 0.304301 0.188986 0 200 255
0.425976 0.339005 0.172102 0 200 255
0.374462 0.229144 0.120843 0 200 255
0.500300 0.319618 0.162511 0 200 255
0.426536 0.338126 0.164510 0 200 255
0.424234 0.358127 0.130521 0 200 255
0.498334 0.273509 0.173361 0 200 255
0.443270 0.268205 0.155375 0 200 255
0.486223 0.319519 0.152366 0 200 255
0.458424 0.396232 0.147384 0 200 255
0.447821 0.365242 0.144526 0 200 255
0.485012 0.249299 0.191376 0 200 255
0.469943 0.376926 0.145364 0 200 255
0.437016 0.271352 0.169564 0 200 255
0.335774 0.231069 0.131168 0 200 255
0.342553 0.229367 0.114181 0 200 255
0.462110 0.389218 0.158695 0 200 255
0.429455 0.387601 0.119264 0 200 255
0.393409 0.337182 0.174803 0 200 255
0.434473 0.260259 0.161958 0 200 255
0.450387 0.274899 0.194105 0 200 255
0.335276 0.369209 0.154498 0 200 255
0.420219 0.285927 0.184880 0 200 255
0.432009 0.408483 0.126460 0 200 255
0.429578 0.405095 0.102814 0 200 255
0.471413 0.291548 0.154677 0 200 255
0.423832 0.298847 0.152307 0 200 255
0.437372 0.380893 0.133390 0 200 255
0.486862 0.294538 0.150975 0 200 255
0.400274 0.243633 0.162122 0 200 255
0.377400 0.350303 0.178458 0 200 255
0.441530 0.264611 0.165724 0 200 255
0.442195 0.400359 0.104991 0 200 255
0.420069 0.395945 0.129052 0 200 255
0.447660 0.271275 0.187495 0 200 255
0.389260 0.343285 0.154533 0 200 255
0.472183 0.269091 0.153744 0 200 255
0.486279 0.265867 0.153812 0 200 255
0.347999 0.376997 0.155764 0 200 255
0.419099 0.358876 0.142095 0 200 255
0.430573 0.251843 0.151237 0 200 255
0.437348 0.350640 0.078523 0 200 255
0.356042 0.223676 0.122374 0 200 255
0.471692 0.347462 0.186013 0 200 255
0.341183 0.374788 0.145997 0 200 255
0.437729 0.353889 0.106173 0 200 255
0.445856 0.326921 0.174292 0 200 255
0.386572 0.350758 0.160614 0 200 255
0.418462 0.235511 0.160275 0 200 255
0.444460 0.311436 0.158646 0 200 255
0.475593 0.246436 0.188798 0 200 255
0.420947 0.365857 0.130461 0 200 255
0.401362 0.232138 0.126825 0 200 255
0.464635 0.252557 0.155913 0 200 255
0.367994 0.364412 0.158310 0 200 255
0.336756 0.379637 0.158673 0 200 255
0.367848 0.237000 0.143174 0 200 255
0.452883 0.294958 0.196248 0 200 255
0.498436 0.284422 0.163148 0 200 255
0.423225 0.397527 0.110834 0 200 255
0.474982 0.338040 0.173623 0 200 255
0.460675 0.359345 0.162137 0 200 255
0.439995 0.401788 0.121515 0 200 255
0.472785 0.255022 0.169010 0 200 255
0.362747 0.243459 0.141878 0 200 255
0.404791 0.244244 0.123583 0 200 255
0.439634 0.386894 0.158627 0 200 255
0.469111 0.378310 0.157144 0 200 255
0.451073 0.399799 0.124179 0 200 255
0.454203 0.404341 0.137050 0 200 255
0.479073 0.291069 0.154616 0 200 255
0.479540 0.346381 0.182373 0 200 255
0.361431 0.357995 0.168806 0 200 255
0.437290 0.376294 0.157535 0 200 255
0.420773 0.313488 0.181378 0 200 255
0.418252 0.257265 0.163608 0 200 255
0.497764 0.332213 0.173323 0 200 255
0.506966 0.306128 0.181568 0 200 255
0.411262 0.235799 0.136791 0 200 255
0.490893 0.338566 0.176233 0 200 255
0.347304 0.370561 0.148745 0 200 255
0.342314 0.242225 0.138834 0 200 255
0.387726 0.252853 0.148629 0 200 255
0.379799 0.353649 0.153433 0 200 255
0.489868 0.260713 0.150415 0 200 255
0.427814 0.358970 0.100143 0 200 255
0.351792 0.231498 0.123299 0 200 255
0.463267 0.245312 0.159674 0 200 255
0.348960 0.241857 0.119333 0 200 255
0.454890 0.406157 0.100660 0 200 255
0.389316 0.348223 0.175070 0 200 255
0.363335 0.224384 0.119559 0 200 255
0.438684 0.320072 0.165499 0 200 255
0.431415 0.361313 0.151432 0 200 255
0.397226 0.328816 0.183383 0 200 255
0.460357 0.341507 0.190316 0 200 255
0.425457 0.353148 0.149434 0 200 255
0.373219 0.340305 0.169416 0 200 255
0.428401 0.280327 0.173717 0 200 255
0.412670 0.238935 0.151752 0 200 255
0.435045 0.342005 0.180834 0 200 255
0.455304 0.389953 0.159660 0 200 255
0.459304 0.276191 0.155598 0 200 255
0.426285 0.384444 0.136816 0 200 255
0.425478 0.314787 0.167829 0 200 255
0.358703 0.370012 0.150307 0 200 255
0.401433 0.339666 0.176827 0 200 255
0.390158 0.343172 0.181027 0 200 255
0.394170 0.254011 0.145067 0 200 255
0.464610 0.343733 0.177890 0 200 255
0.450971 0.325376 0.153668 0 200 255
0.422552 0.241488 0.139724 0 200 255
0.470223 0.240461 0.180709 0 200 255
0.415076 0.241085 0.162819 0 200 255
0.388234 0.233263 0.138555 0 200 255
0.418708 0.325131 0.180259 0 200 255
0.420752 0.306123 0.156552 0 200 255
0.454482 0.357727 0.153389 0 200 255
0.379285 0.224342 0.133430 0 200 255
0.380920 0.230787 0.119567 0 200 255
0.333351 0.230312 0.121839 0 200 255
0.413106 0.256905 0.138688 0 200 255
0.351269 0.227049 0.141911 0 200 255
0.401965 0.320158 0.161394 0 200 255
0.371956 0.239960 0.124270 0 200 255
0.467328 0.362697 0.170335 0 200 255
0.418806 0.362900 0.116838 0 200 255
0.465835 0.383562 0.162309 0 200 255
0.347718 0.232432 0.128603 0 200 255
0.362785 0.245319 0.131690 0 200 255
0.431289 0.373809 0.142358 0 200 255
0.480564 0.354527 0.171481 0 200 255
0.460697 0.293066 0.188620 0 200 255
0.375573 0.220511 0.124272 0 200 255
0.432423 0.357914 0.159919 0 200 255
0.429356 0.386980 0.128657 0 200 255
0.472706 0.355002 0.160797 0 200 255
0.502495 0.259084 0.172266 0 200 255
0.353830 0.365420 0.163618 0 200 255
0.461987 0.373610 0.140168 0 200 255
0.440459 0.288016 0.191787 0 200 255
0.461245 0.337490 0.177650 0 200 255
0.445978 0.280585 0.193873 0 200 255
0.454644 0.355409 0.176073 0 200 255
0.440533 0.260348 0.182867 0 200 255
0.419279 0.307210 0.171234 0 200 255
0.445095 0.391496 0.122675 0 200 255
0.392786 0.330299 0.177041 0 200 255
0.500260 0.302663 0.154982 0 200 255
0.432245 0.260101 0.150822 0 200 255
0.491241 0.345137 0.163822 0 200 255
0.433654 0.342661 0.088502 0 200 255
0.498210 0.266466 0.185940 0 200 255
0.456340 0.354805 0.159851 0 200 255
0.448198 0.384927 0.143756 0 200 255
0.357332 0.224106 0.130879 0 200 255
0.473427 0.299268 0.193717 0 200 255
0.448709 0.405831 0.109845 0 200 255
0.455916 0.404557 0.115368 0 200 255
0.454813 0.386616 0.144559 0 200 255
0.379329 0.232014 0.144998 0 200 255
0.376688 0.235749 0.138735 0 200 255
0.426647 0.362705 0.119211 0 200 255
0.452750 0.364980 0.150143 0 200 255
0.365599 0.234582 0.120094 0 200 255
0.412581 0.237362 0.143382 0 200 255
0.435515 0.309704 0.151560 0 200 255
0.401118 0.339066 0.159708 0 200 255
0.344076 0.381594 0.149086 0 200 255
0.437915 0.353816 0.092073 0 200 255
0.411318 0.320992 0.185242 0 200 255
0.463633 0.353317 0.167391 0 200 255
0.389740 0.225821 0.151879 0 200 255
0.399959 0.234435 0.143190 0 200 255
0.436550 0.253017 0.162034 0 200 255
0.426827 0.353955 0.074715 0 200 255
0.415230 0.251711 0.145886 0 200 255
0.420513 0.354825 0.118244 0 200 255
0.406659 0.226536 0.138140 0 200 255
0.479332 0.247436 0.148020 0 200 255
0.344768 0.362884 0.146033 0 200 255
0.483271 0.303934 0.155125 0 200 255
0.428613 0.349202 0.166600 0 200 255
0.370903 0.342210 0.162909 0 200 255
0.439983 0.345735 0.133339 0 200 255
0.507059 0.284001 0.177628 0 200 255
0.411110 0.312756 0.179528 0 200 255
0.502802 0.275504 0.167481 0 200 255
0.353735 0.233522 0.146794 0 200 255
0.424644 0.354643 0.085176 0 200 255
0.452276 0.393017 0.117096 0 200 255
0.441741 0.385824 0.144890 0 200 255
0.402735 0.231008 0.160782 0 200 255
0.470113 0.251499 0.151667 0 200 255
0.417751 0.256902 0.133883 0 200 255
0.412039 0.331906 0.176368 0 200 255
0.460018 0.398248 0.134978 0 200 255
0.371223 0.236102 0.151477 0 200 255
0.357840 0.225013 0.139646 0 200 255
0.498012 0.278730 0.188640 0 200 255
0.461908 0.336158 0.194867 0 200 255
0.378029 0.248007 0.152808 0 200 255
0.428995 0.400394 0.136285 0 200 255
0.357352 0.226742 0.114912 0 200 255
0.367391 0.353340 0.152255 0 200 255
0.433375 0.398221 0.122971 0 200 255
0.424223 0.363218 0.109194 0 200 255
0.413759 0.313213 0.160886 0 200 255
0.402925 0.330471 0.162344 0 200 255
0.366157 0.222520 0.131839 0 200 255
0.491092 0.329576 0.159146 0 200 255
0.389971 0.249813 0.157141 0 200 255
0.489662 0.271160 0.161510 0 200 255
0.492511 0.323515 0.191983 0 200 255
0.427637 0.326584 0.179903 0 200 255
0.423690 0.348555 0.117281 0 200 255
0.329733 0.373170 0.151318 0 200 255
0.425731 0.343179 0.160504 0 200 255
0.423137 0.293943 0.190066 0 200 255
0.471299 0.367868 0.147552 0 200 255
0.454892 0.390514 0.128200 0 200 255
0.398908 0.223009 0.141259 0 200 255
0.393197 0.345641 0.170394 0 200 255
0.449303 0.307294 0.152240 0 200 255
0.436703 0.396110 0.148305 0 200 255
0.422853 0.346088 0.143118 0 200 255
0.422834 0.232822 0.136547 0 200 255
0.368826 0.358876 0.168539 0 200 255
