ply
format ascii 1.0
element vertex 1024
property float x
property float y
property float z
property uchar red
property uchar green
property uchar blue
end_header
0.467718 0.318398 0.268457 0 200 255
0.345705 0.232300 0.208091 0 200 255
0.354552 0.380312 0.253584 0 200 255
0.467359 0.407365 0.207074 0 200 255
0.444231 0.226235 0.232303 0 200 255
0.515351 0.237685 0.278655 0 200 255
0.448184 0.330688 0.177162 0 200 255
0.400290 0.334371 0.281612 0 200 255
0.457507 0.259293 0.284407 0 200 255
0.475243 0.379490 0.261863 0 200 255
0.519095 0.292069 0.247798 0 200 255
0.388506 0.216988 0.242775 0 200 255
0.440531 0.349372 0.229767 0 200 255
0.430590 0.289391 0.249569 0 200 255
0.481435 0.257682 0.242640 0 200 255
0.495599 0.285752 0.288105 0 200 255
0.510670 0.328477 0.273231 0 200 255
0.440915 0.393038 0.238796 0 200 255
0.476842 0.220732 0.270132 0 200 255
0.431541 0.307294 0.287300 0 200 255
0.408140 0.238300 0.215599 0 200 255
0.416534 0.243785 0.252262 0 200 255
0.386684 0.360645 0.258745 0 200 255
0.485395 0.345894 0.250281 0 200 255
0.512728 0.237368 0.243303 0 200 255
0.376763 0.215959 0.209488 0 200 255
0.476324 0.292725 0.246638 0 200 255
0.457045 0.351622 0.269489 0 200 255
0.523549 0.271103 0.273766 0 200 255
0.445534 0.259744 0.245411 0 200 255
0.480847 0.387108 0.229529 0 200 255
0.426382 0.324947 0.260227 0 200 255
0.367797 0.240041 0.230945 0 200 255
0.460772 0.295086 0.290040 0 200 255
0.459772 0.325876 0.238501 0 200 255
0.450104 0.352458 0.199707 0 200 255
0.487385 0.249767 0.285676 0 200 255
0.416521 0.211674 0.228539 0 200 255
0.497710 0.317250 0.248522 0 200 255
0.434331 0.278331 0.280508 0 200 255
0.449772 0.234479 0.260750 0 200 255
0.487451 0.320789 0.290261 0 200 255
0.520476 0.299755 0.278237 0 200 255
0.462014 0.367551 0.239008 0 200 255
0.439591 0.406945 0.213828 0 200 255
0.486111 0.351645 0.278023 0 200 255
0.486210 0.229736 0.240547 0 200 255
0.515105 0.263880 0.248661 0 200 255
0.402562 0.338598 0.254900 0 200 255
0.447919 0.328891 0.214932 0 200 255
0.445826 0.307333 0.259935 0 200 255
0.474263 0.245471 0.263684 0 200 255
0.415360 0.218656 0.252642 0 200 255
0.450557 0.375828 0.260006 0 200 255
0.446511 0.329289 0.275827 0 200 255
0.364851 0.364050 0.269040 0 200 255
0.429240 0.245357 0.231581 0 200 255
0.471641 0.287100 0.269811 0 200 255
0.454416 0.388488 0.218949 0 200 255
0.454835 0.281858 0.248736 0 200 255
0.442253 0.342265 0.253101 0 200 255
0.497873 0.281100 0.247883 0 200 255
0.397851 0.238665 0.238386 0 200 255
0.496037 0.226579 0.286775 0 200 255
0.487581 0.370337 0.244345 0 200 255
0.488150 0.330301 0.268947 0 200 255
0.464217 0.391380 0.244641 0 200 255
0.368327 0.217218 0.231205 0 200 255
0.382207 0.348036 0.277224 0 200 255
0.413434 0.314510 0.275625 0 200 255
0.368743 0.237024 0.207284 0 200 255
0.399856 0.217438 0.213378 0 200 255
0.465689 0.239067 0.244118 0 200 255
0.501948 0.251376 0.267300 0 200 255
0.425005 0.296044 0.269778 0 200 255
0.476186 0.275810 0.288390 0 200 255
0.462097 0.347093 0.246249 0 200 255
0.441847 0.263988 0.266119 0 200 255
0.463042 0.317778 0.289364 0 200 255
0.507016 0.312886 0.287624 0 200 255
0.457592 0.332371 0.196642 0 200 255
0.350276 0.228884 0.228661 0 200 255
0.428505 0.228448 0.218758 0 200 255
0.386731 0.231577 0.221321 0 200 255
0.474767 0.316161 0.249152 0 200 255
0.369486 0.366567 0.248925 0 200 255
0.507534 0.262880 0.283358 0 200 255
0.514992 0.308396 0.260661 0 200 255
0.481148 0.301458 0.290330 0 200 255
0.434844 0.223387 0.249909 0 200 255
0.467410 0.401758 0.227226 0 200 255
0.476883 0.359549 0.262194 0 200 255
0.472441 0.388265 0.210888 0 200 255
0.453152 0.349229 0.180610 0 200 255
0.518993 0.244759 0.260642 0 200 255
0.464912 0.258498 0.252956 0 200 255
0.458936 0.334345 0.261365 0 200 255
0.458463 0.300814 0.247135 0 200 255
0.444264 0.295833 0.278992 0 200 255
0.455003 0.347007 0.217763 0 200 255
0.400584 0.349600 0.269940 0 200 255
0.496220 0.245651 0.240449 0 200 255
0.417664 0.333030 0.275151 0 200 255
0.453512 0.277231 0.281968 0 200 255
0.408372 0.321013 0.258349 0 200 255
0.434595 0.244654 0.256205 0 200 255
0.446055 0.324275 0.251799 0 200 255
0.497523 0.345663 0.264070 0 200 255
0.428102 0.306812 0.255263 0 200 255
0.446183 0.375506 0.235053 0 200 255
0.462657 0.241917 0.277155 0 200 255
0.360013 0.222485 0.214818 0 200 255
0.354688 0.245019 0.219624 0 200 255
0.440487 0.340426 0.190222 0 200 255
0.474138 0.341717 0.267147 0 200 255
0.523720 0.287107 0.265977 0 200 255
0.445716 0.240629 0.243015 0 200 255
0.490969 0.269416 0.281076 0 200 255
0.369753 0.379740 0.262760 0 200 255
0.497705 0.263365 0.246091 0 200 255
0.385485 0.342719 0.260801 0 200 255
0.431119 0.277835 0.263269 0 200 255
0.498201 0.298415 0.246087 0 200 255
0.438942 0.343300 0.211266 0 200 255
0.452595 0.360129 0.252671 0 200 255
0.480806 0.387002 0.247206 0 200 255
0.400153 0.223497 0.230298 0 200 255
0.474480 0.227500 0.254394 0 200 255
0.480827 0.274772 0.244577 0 200 255
0.450539 0.404667 0.228935 0 200 255
0.386615 0.213877 0.223685 0 200 255
0.507775 0.329975 0.253992 0 200 255
0.442913 0.332830 0.232649 0 200 255
0.433685 0.315176 0.272491 0 200 255
0.488428 0.239716 0.256540 0 200 255
0.452884 0.251273 0.262276 0 200 255
0.404667 0.210560 0.240323 0 200 255
0.497008 0.333515 0.285040 0 200 255
0.379156 0.230761 0.238960 0 200 255
0.424162 0.225740 0.237340 0 200 255
0.401537 0.227694 0.250355 0 200 255
0.380874 0.366720 0.273023 0 200 255
0.452726 0.313935 0.275596 0 200 255
0.413840 0.238488 0.234320 0 200 255
0.465198 0.382141 0.230826 0 200 255
0.476465 0.358126 0.243901 0 200 255
0.481586 0.235085 0.276461 0 200 255
0.439176 0.393092 0.222546 0 200 255
0.462835 0.367199 0.266359 0 200 255
0.491771 0.359737 0.256079 0 200 255
0.516814 0.284625 0.282078 0 200 255
0.524118 0.274458 0.255923 0 200 255
0.516307 0.257464 0.271296 0 200 255
0.466115 0.332211 0.276512 0 200 255
0.472910 0.258446 0.286176 0 200 255
0.414365 0.222493 0.215532 0 200 255
0.502164 0.245966 0.282898 0 200 255
0.442223 0.299672 0.247214 0 200 255
0.373480 0.353489 0.262168 0 200 255
0.450855 0.306611 0.289752 0 200 255
0.505821 0.297911 0.285463 0 200 255
0.465753 0.272795 0.243371 0 200 255
0.441460 0.239156 0.224932 0 200 255
0.457654 0.339125 0.231549 0 200 255
0.482517 0.315786 0.269493 0 200 255
0.396562 0.331557 0.266780 0 200 255
0.463298 0.375921 0.252501 0 200 255
0.402638 0.208357 0.224671 0 200 255
0.514718 0.278114 0.244975 0 200 255
0.446629 0.386230 0.250357 0 200 255
0.437321 0.295047 0.261164 0 200 255
0.370944 0.230096 0.220434 0 200 255
0.507529 0.247558 0.252107 0 200 255
0.415273 0.336346 0.261120 0 200 255
0.448337 0.348640 0.241805 0 200 255
0.445225 0.253597 0.275117 0 200 255
0.422981 0.242551 0.219226 0 200 255
0.443818 0.343247 0.171870 0 200 255
0.476174 0.372508 0.236441 0 200 255
0.445138 0.266004 0.282926 0 200 255
0.467087 0.346582 0.278248 0 200 255
0.432533 0.235867 0.242640 0 200 255
0.442371 0.275613 0.249333 0 200 255
0.460274 0.306659 0.266397 0 200 255
0.422137 0.231138 0.254007 0 200 255
0.475373 0.327703 0.289839 0 200 255
0.452461 0.401382 0.214164 0 200 255
0.487177 0.308260 0.247560 0 200 255
0.486403 0.371443 0.261132 0 200 255
0.433111 0.218801 0.229004 0 200 255
0.453326 0.387680 0.235061 0 200 255
0.469943 0.327594 0.256613 0 200 255
0.463973 0.236350 0.263798 0 200 255
0.447136 0.320942 0.265015 0 200 255
0.342937 0.237481 0.220426 0 200 255
0.499197 0.323377 0.264951 0 200 255
0.364124 0.228455 0.237656 0 200 255
0.443224 0.333164 0.201375 0 200 255
0.477452 0.247255 0.250598 0 200 255
0.459096 0.336184 0.183076 0 200 255
0.455575 0.246379 0.250073 0 200 255
0.515341 0.316493 0.277019 0 200 255
0.474031 0.288999 0.288835 0 200 255
0.358142 0.229936 0.203279 0 200 255
0.492502 0.308424 0.289737 0 200 255
0.451278 0.372560 0.247100 0 200 255
0.474870 0.395834 0.238001 0 200 255
0.457726 0.319439 0.256007 0 200 255
0.379391 0.228979 0.209320 0 200 255
0.477319 0.258843 0.257631 0 200 255
0.476378 0.398947 0.217670 0 200 255
0.378931 0.371619 0.257722 0 200 255
0.464845 0.289690 0.252364 0 200 255
0.395588 0.350541 0.257770 0 200 255
0.391402 0.357515 0.274954 0 200 255
0.471241 0.341743 0.253950 0 200 255
0.470389 0.304736 0.253788 0 200 255
0.457699 0.341337 0.206166 0 200 255
0.463136 0.270668 0.287882 0 200 255
0.486767 0.362541 0.270681 0 200 255
0.489642 0.335471 0.257055 0 200 255
0.431953 0.293588 0.282680 0 200 255
0.506099 0.275754 0.281989 0 200 255
0.421281 0.308031 0.266450 0 200 255
0.422961 0.322003 0.280253 0 200 255
0.510490 0.317745 0.250623 0 200 255
0.358802 0.368778 0.258613 0 200 255
0.462706 0.395071 0.205795 0 200 255
0.405127 0.324450 0.273327 0 200 255
0.410817 0.221834 0.240613 0 200 255
0.480536 0.325548 0.278331 0 200 255
0.393971 0.346267 0.281825 0 200 255
0.471822 0.309533 0.285179 0 200 255
0.398283 0.235412 0.226073 0 200 255
0.442071 0.315255 0.286546 0 200 255
0.493620 0.240663 0.268126 0 200 255
0.367867 0.379443 0.250172 0 200 255
0.450442 0.287803 0.288754 0 200 255
0.375968 0.218588 0.242070 0 200 255
0.499634 0.335121 0.271106 0 200 255
0.495180 0.250124 0.252537 0 200 255
0.454980 0.327966 0.225339 0 200 255
0.456347 0.344642 0.192075 0 200 255
0.459140 0.334682 0.247385 0 200 255
0.517683 0.257043 0.258787 0 200 255
0.435645 0.302091 0.272241 0 200 255
0.396151 0.229316 0.212502 0 200 255
0.444432 0.338860 0.221855 0 200 255
0.475290 0.375578 0.248476 0 200 255
0.451667 0.242939 0.271459 0 200 255
0.367016 0.243223 0.218993 0 200 255
0.388853 0.212400 0.210818 0 200 255
0.486436 0.285603 0.248545 0 200 255
0.388943 0.338185 0.273788 0 200 255
0.444432 0.382134 0.224884 0 200 255
0.458385 0.346116 0.258061 0 200 255
0.359186 0.233873 0.221711 0 200 255
0.486376 0.321563 0.249551 0 200 255
0.391946 0.228994 0.242982 0 200 255
0.443272 0.332834 0.264674 0 200 255
0.454020 0.269691 0.243432 0 200 255
0.464159 0.254935 0.264870 0 200 255
0.506234 0.304669 0.253135 0 200 255
0.435812 0.316814 0.260659 0 200 255
0.485084 0.346106 0.264315 0 200 255
0.521856 0.299618 0.265410 0 200 255
0.469077 0.356161 0.271114 0 200 255
0.484040 0.224577 0.281943 0 200 255
0.448683 0.322436 0.235313 0 200 255
0.488886 0.356605 0.244822 0 200 255
0.408948 0.341194 0.273684 0 200 255
0.468182 0.364529 0.249803 0 200 255
0.406388 0.242442 0.245927 0 200 255
0.377939 0.239960 0.222738 0 200 255
0.447519 0.329290 0.189032 0 200 255
0.436674 0.232310 0.257592 0 200 255
0.425124 0.217326 0.245710 0 200 255
0.433689 0.232140 0.230561 0 200 255
0.380624 0.223462 0.229746 0 200 255
0.459557 0.380256 0.241857 0 200 255
0.369704 0.215485 0.219589 0 200 255
0.442894 0.395383 0.210699 0 200 255
0.427289 0.246218 0.244815 0 200 255
0.379294 0.212062 0.232764 0 200 255
0.446722 0.230763 0.249403 0 200 255
0.473614 0.381268 0.222348 0 200 255
0.473169 0.241067 0.282263 0 200 255
0.454893 0.338491 0.171565 0 200 255
0.470435 0.385504 0.253040 0 200 255
0.447134 0.352610 0.211019 0 200 255
0.436524 0.267472 0.255273 0 200 255
0.459909 0.258648 0.242437 0 200 255
0.355088 0.239800 0.208621 0 200 255
0.439138 0.347319 0.200384 0 200 255
0.421197 0.222505 0.225519 0 200 255
0.496699 0.233562 0.243666 0 200 255
0.493347 0.297097 0.287406 0 200 255
0.484412 0.264236 0.289100 0 200 255
0.505529 0.324258 0.286084 0 200 255
0.442825 0.332360 0.244189 0 200 255
0.358393 0.220968 0.226475 0 200 255
0.451970 0.350291 0.228523 0 200 255
0.517156 0.303664 0.249636 0 200 255
0.349096 0.226510 0.217473 0 200 255
0.484415 0.284098 0.289815 0 200 255
0.419839 0.315207 0.257669 0 200 255
0.475750 0.313888 0.260483 0 200 255
0.471641 0.382806 0.240431 0 200 255
0.478868 0.333481 0.260593 0 200 255
0.451867 0.398379 0.238578 0 200 255
0.510806 0.318053 0.264834 0 200 255
0.461007 0.392427 0.227420 0 200 255
0.469798 0.319974 0.279468 0 200 255
0.456058 0.356887 0.241311 0 200 255
0.411846 0.326468 0.282280 0 200 255
0.446888 0.304876 0.272320 0 200 255
0.404475 0.216833 0.250180 0 200 255
0.448311 0.344630 0.262840 0 200 255
0.494619 0.237722 0.287249 0 200 255
0.457940 0.385887 0.252172 0 200 255
0.410581 0.233820 0.252828 0 200 255
0.366969 0.222162 0.206064 0 200 255
0.489902 0.337601 0.277203 0 200 255
0.442133 0.249339 0.249000 0 200 255
0.451175 0.292165 0.250851 0 200 255
0.377250 0.359666 0.252936 0 200 255
0.453065 0.362490 0.263958 0 200 255
0.484421 0.242573 0.243344 0 200 255
0.418835 0.321333 0.268760 0 200 255
0.461840 0.341061 0.269645 0 200 255
0.506161 0.270439 0.246654 0 200 255
0.426768 0.291439 0.259671 0 200 255
0.474950 0.398146 0.206788 0 200 255
0.462988 0.403934 0.217428 0 200 255
0.456027 0.336175 0.216063 0 200 255
0.358245 0.378322 0.263919 0 200 255
0.440218 0.342231 0.238259 0 200 255
0.506255 0.286189 0.285811 0 200 255
0.439863 0.403521 0.225666 0 200 255
0.446570 0.349438 0.189405 0 200 255
0.516823 0.236356 0.267946 0 200 255
0.493876 0.354357 0.269734 0 200 255
0.512099 0.248836 0.276406 0 200 255
0.465682 0.251019 0.282264 0 200 255
0.443487 0.277943 0.286236 0 200 255
0.470724 0.370048 0.259287 0 200 255
0.481133 0.235890 0.263487 0 200 255
0.459060 0.324709 0.267392 0 200 255
0.483423 0.379666 0.254633 0 200 255
0.469221 0.309594 0.274397 0 200 255
0.357588 0.236942 0.232044 0 200 255
0.426074 0.308156 0.276044 0 200 255
0.451371 0.311512 0.251763 0 200 255
0.448192 0.409770 0.219554 0 200 255
0.376415 0.356179 0.272109 0 200 255
0.495049 0.349701 0.252808 0 200 255
0.390725 0.228954 0.232381 0 200 255
0.387344 0.352891 0.266239 0 200 255
0.473403 0.352032 0.252280 0 200 255
0.467046 0.242247 0.255489 0 200 255
0.406960 0.344059 0.263587 0 200 255
0.393496 0.222375 0.220204 0 200 255
0.490725 0.322535 0.275614 0 200 255
0.515244 0.307923 0.283162 0 200 255
0.440212 0.286351 0.246514 0 200 255
0.483369 0.381489 0.238086 0 200 255
0.471447 0.391670 0.226414 0 200 255
0.417393 0.232548 0.215256 0 200 255
0.476283 0.334907 0.274844 0 200 255
0.482250 0.233182 0.250251 0 200 255
0.444600 0.243670 0.259119 0 200 255
0.462917 0.307299 0.290183 0 200 255
0.465975 0.284922 0.283652 0 200 255
0.435293 0.224501 0.237447 0 200 255
0.468602 0.330061 0.266613 0 200 255
0.428738 0.284362 0.270941 0 200 255
0.441264 0.293576 0.288627 0 200 255
0.488761 0.296069 0.249563 0 200 255
0.372529 0.372086 0.270205 0 200 255
0.518303 0.307512 0.271009 0 200 255
0.442214 0.349132 0.219604 0 200 255
0.464839 0.385145 0.218602 0 200 255
0.479670 0.299939 0.253135 0 200 255
0.493504 0.326037 0.255961 0 200 255
0.483908 0.277254 0.281809 0 200 255
0.478495 0.367971 0.268040 0 200 255
0.416313 0.327509 0.256052 0 200 255
0.454280 0.320793 0.283028 0 200 255
0.432013 0.278557 0.253119 0 200 255
0.405786 0.218087 0.223716 0 200 255
0.345712 0.242260 0.211758 0 200 255
0.494190 0.261589 0.288092 0 200 255
0.521123 0.264974 0.264143 0 200 255
0.479139 0.323293 0.257134 0 200 255
0.478312 0.351181 0.271537 0 200 255
0.499023 0.335951 0.260903 0 200 255
0.451686 0.339113 0.255006 0 200 255
0.509496 0.288956 0.248469 0 200 255
0.406169 0.228056 0.211986 0 200 255
0.424184 0.216241 0.233928 0 200 255
0.501053 0.244738 0.259749 0 200 255
0.455077 0.333874 0.271747 0 200 255
0.470198 0.284701 0.245429 0 200 255
0.374159 0.364666 0.263227 0 200 255
0.466029 0.357811 0.242347 0 200 255
0.386655 0.222065 0.208495 0 200 255
0.512461 0.276256 0.254599 0 200 255
0.498347 0.271637 0.287512 0 200 255
0.392915 0.336838 0.257511 0 200 255
0.521341 0.283576 0.252608 0 200 255
0.431695 0.238433 0.221922 0 200 255
0.489674 0.270168 0.243930 0 200 255
0.380234 0.224258 0.219330 0 200 255
0.458333 0.367936 0.257452 0 200 255
0.391644 0.217063 0.231684 0 200 255
0.361236 0.372112 0.248203 0 200 255
0.511401 0.247741 0.266365 0 200 255
0.444979 0.384019 0.240074 0 200 255
0.397473 0.208320 0.233860 0 200 255
0.454411 0.236991 0.247146 0 200 255
0.445041 0.342725 0.181674 0 200 255
0.453413 0.321979 0.245001 0 200 255
0.470218 0.272060 0.281143 0 200 255
0.456203 0.250881 0.279421 0 200 255
0.367039 0.360006 0.258251 0 200 255
0.517080 0.267303 0.280127 0 200 255
0.382439 0.350972 0.256428 0 200 255
0.437137 0.245367 0.241549 0 200 255
0.462027 0.356913 0.262916 0 200 255
0.411745 0.213120 0.216306 0 200 255
0.479018 0.389575 0.218316 0 200 255
0.473936 0.350185 0.262303 0 200 255
0.465052 0.316337 0.249950 0 200 255
0.438746 0.227956 0.223400 0 200 255
0.448960 0.338247 0.195479 0 200 255
0.439636 0.262776 0.275665 0 200 255
0.426070 0.240626 0.254090 0 200 255
0.453853 0.328794 0.255327 0 200 255
0.452426 0.366471 0.238912 0 200 255
0.404658 0.329210 0.254567 0 200 255
0.474149 0.261271 0.247801 0 200 255
0.435689 0.307735 0.263818 0 200 255
0.485928 0.234297 0.285014 0 200 255
0.503686 0.256279 0.243603 0 200 255
0.406571 0.239858 0.227877 0 200 255
0.379220 0.347610 0.267057 0 200 255
0.457185 0.243306 0.259203 0 200 255
0.439642 0.309468 0.277312 0 200 255
0.481191 0.222208 0.258649 0 200 255
0.448112 0.341111 0.212698 0 200 255
0.454059 0.382954 0.226822 0 200 255
0.497143 0.343863 0.273920 0 200 255
0.464177 0.395235 0.235931 0 200 255
0.393410 0.343953 0.267343 0 200 255
0.413177 0.213047 0.243679 0 200 255
0.495966 0.323325 0.286971 0 200 255
0.421184 0.330299 0.266046 0 200 255
0.462033 0.394545 0.218099 0 200 255
0.454217 0.268298 0.285806 0 200 255
0.444618 0.387738 0.216962 0 200 255
0.445775 0.395153 0.230990 0 200 255
0.520187 0.280421 0.271605 0 200 255
0.428896 0.298637 0.250116 0 200 255
0.504881 0.334183 0.278860 0 200 255
0.519787 0.292611 0.259455 0 200 255
0.401554 0.219385 0.240996 0 200 255
0.505967 0.254041 0.258707 0 200 255
0.472636 0.229429 0.263366 0 200 255
0.362544 0.384254 0.258093 0 200 255
0.415970 0.244140 0.241464 0 200 255
0.493290 0.255675 0.243128 0 200 255
0.364575 0.231482 0.213540 0 200 255
0.419913 0.225051 0.245995 0 200 255
0.442518 0.332492 0.254352 0 200 255
0.459711 0.280287 0.288708 0 200 255
0.445105 0.328167 0.223740 0 200 255
0.471820 0.406861 0.216053 0 200 255
0.453114 0.390754 0.245534 0 200 255
0.476188 0.399174 0.229030 0 200 255
0.395491 0.221128 0.247968 0 200 255
0.504232 0.239526 0.246222 0 200 255
0.371834 0.225716 0.232035 0 200 255
0.417341 0.242583 0.226826 0 200 255
0.398200 0.341912 0.274932 0 200 255
0.436323 0.285513 0.285861 0 200 255
0.380743 0.211476 0.216434 0 200 255
0.469936 0.249016 0.245641 0 200 255
0.387355 0.362813 0.267865 0 200 255
0.468466 0.373812 0.241192 0 200 255
0.379954 0.232526 0.227650 0 200 255
0.398208 0.235700 0.247532 0 200 255
0.442292 0.254941 0.265081 0 200 255
0.453133 0.333420 0.207884 0 200 255
0.452513 0.346597 0.249892 0 200 255
0.433450 0.292943 0.273729 0 200 255
0.436264 0.302885 0.255865 0 200 255
0.442355 0.305935 0.286694 0 200 255
0.374767 0.239988 0.214262 0 200 255
0.492924 0.248163 0.261726 0 200 255
0.413209 0.315910 0.264227 0 200 255
0.500567 0.304546 0.288564 0 200 255
0.416178 0.221678 0.232961 0 200 255
0.506435 0.253942 0.282991 0 200 255
0.395825 0.211858 0.219942 0 200 255
0.523325 0.274751 0.265403 0 200 255
0.493308 0.309873 0.253895 0 200 255
0.427252 0.324209 0.269714 0 200 255
0.422742 0.219749 0.217038 0 200 255
0.403321 0.325323 0.264325 0 200 255
0.485242 0.355293 0.265686 0 200 255
0.465126 0.349315 0.266464 0 200 255
0.449791 0.343939 0.202969 0 200 255
0.426485 0.223415 0.253000 0 200 255
0.449593 0.251906 0.253636 0 200 255
0.469452 0.237955 0.270611 0 200 255
0.478509 0.247644 0.284943 0 200 255
0.467823 0.319090 0.257995 0 200 255
0.472239 0.365790 0.241215 0 200 255
0.395764 0.211913 0.242527 0 200 255
0.488401 0.331569 0.285825 0 200 255
0.475120 0.380987 0.232357 0 200 255
0.459310 0.377069 0.260309 0 200 255
0.428161 0.315771 0.264962 0 200 255
0.458437 0.252728 0.255566 0 200 255
0.383492 0.224326 0.243133 0 200 255
0.498408 0.328455 0.277181 0 200 255
0.449729 0.367966 0.255673 0 200 255
0.505943 0.329494 0.265894 0 200 255
0.445536 0.377695 0.252126 0 200 255
0.454439 0.399169 0.223305 0 200 255
0.349726 0.237623 0.227996 0 200 255
0.364235 0.372659 0.267378 0 200 255
0.513775 0.292567 0.284257 0 200 255
0.443100 0.300713 0.265000 0 200 255
0.452589 0.298159 0.288216 0 200 255
0.430122 0.299996 0.261836 0 200 255
0.449254 0.306782 0.280513 0 200 255
0.455464 0.343709 0.240718 0 200 255
0.409352 0.334778 0.281304 0 200 255
0.459781 0.403275 0.208504 0 200 255
0.475212 0.237747 0.252476 0 200 255
0.422191 0.240795 0.234744 0 200 255
0.481419 0.248990 0.260275 0 200 255
0.441104 0.387893 0.231797 0 200 255
0.521587 0.272095 0.247975 0 200 255
0.501789 0.323680 0.255140 0 200 255
0.475137 0.266960 0.286109 0 200 255
0.482395 0.340011 0.269828 0 200 255
0.474270 0.392662 0.247243 0 200 255
0.517794 0.276607 0.279004 0 200 255
0.461704 0.236007 0.252807 0 200 255
0.458234 0.375248 0.234946 0 200 255
0.353273 0.226870 0.209925 0 200 255
0.511407 0.239332 0.251585 0 200 255
0.478265 0.249244 0.242266 0 200 255
0.371983 0.223330 0.212944 0 200 255
0.440880 0.233268 0.243622 0 200 255
0.402607 0.227387 0.223042 0 200 255
0.521558 0.263805 0.255257 0 200 255
0.408929 0.211495 0.232973 0 200 255
0.448918 0.248739 0.243841 0 200 255
0.442016 0.335453 0.209858 0 200 255
0.461126 0.359514 0.271003 0 200 255
0.488936 0.366682 0.252003 0 200 255
0.425787 0.215360 0.225531 0 200 255
0.483580 0.378683 0.246210 0 200 255
0.448181 0.342995 0.235455 0 200 255
0.375612 0.236445 0.233769 0 200 255
0.368512 0.221332 0.239153 0 200 255
0.484860 0.241992 0.281665 0 200 255
0.479223 0.372622 0.256635 0 200 255
0.409173 0.224965 0.252703 0 200 255
0.397917 0.329734 0.274909 0 200 255
0.454698 0.326918 0.277281 0 200 255
0.480825 0.226089 0.245974 0 200 255
0.382918 0.219053 0.236615 0 200 255
0.451790 0.346197 0.172807 0 200 255
0.507428 0.241906 0.277224 0 200 255
0.437686 0.293548 0.251234 0 200 255
0.450676 0.393223 0.213147 0 200 255
0.513268 0.254768 0.252059 0 200 255
0.427130 0.298568 0.277453 0 200 255
0.479747 0.350850 0.246328 0 200 255
0.461035 0.317279 0.273321 0 200 255
0.391187 0.349253 0.274037 0 200 255
0.464752 0.264233 0.246951 0 200 255
0.422242 0.315451 0.275012 0 200 255
0.467460 0.336269 0.258895 0 200 255
0.469710 0.389274 0.234372 0 200 255
0.395125 0.355620 0.265544 0 200 255
0.449169 0.239427 0.253684 0 200 255
0.483790 0.341314 0.257030 0 200 255
0.484017 0.309060 0.288884 0 200 255
0.448920 0.259331 0.279885 0 200 255
0.448927 0.321374 0.273054 0 200 255
0.455190 0.314049 0.287683 0 200 255
0.437602 0.399571 0.217698 0 200 255
0.457016 0.341125 0.223178 0 200 255
0.484265 0.272461 0.289533 0 200 255
0.455578 0.370773 0.264854 0 200 255
0.380130 0.233002 0.216622 0 200 255
0.489424 0.363553 0.262968 0 200 255
0.478748 0.388592 0.238141 0 200 255
0.464728 0.382567 0.247887 0 200 255
0.407648 0.219942 0.233283 0 200 255
0.479236 0.359321 0.270218 0 200 255
0.374809 0.214010 0.225830 0 200 255
0.481298 0.366726 0.239127 0 200 255
0.441057 0.311079 0.269428 0 200 255
0.436641 0.299972 0.284680 0 200 255
0.436609 0.270186 0.262974 0 200 255
0.439475 0.272001 0.280494 0 200 255
0.373205 0.363658 0.272490 0 200 255
0.481228 0.313424 0.254472 0 200 255
0.453945 0.349380 0.207368 0 200 255
0.379713 0.370375 0.265719 0 200 255
0.394176 0.223117 0.236866 0 200 255
0.459674 0.333974 0.237941 0 200 255
0.364011 0.226044 0.221533 0 200 255
0.510545 0.233797 0.283888 0 200 255
0.429933 0.227309 0.242817 0 200 255
0.478914 0.231252 0.269876 0 200 255
0.461692 0.325516 0.259547 0 200 255
0.455241 0.353545 0.258223 0 200 255
0.440041 0.340918 0.230304 0 200 255
0.459164 0.300982 0.284510 0 200 255
0.467886 0.362320 0.261810 0 200 255
0.490409 0.279438 0.287147 0 200 255
0.450743 0.336849 0.265655 0 200 255
0.480068 0.327820 0.266170 0 200 255
0.349374 0.235317 0.214571 0 200 255
0.459356 0.370570 0.245962 0 200 255
0.445297 0.403112 0.209675 0 200 255
0.453649 0.336026 0.189356 0 200 255
0.446097 0.324684 0.243113 0 200 255
0.373767 0.373210 0.250313 0 200 255
0.363873 0.225704 0.229922 0 200 255
0.494806 0.352301 0.260488 0 200 255
0.477626 0.225897 0.276203 0 200 255
0.382825 0.356175 0.276910 0 200 255
0.450018 0.328958 0.196618 0 200 255
0.404181 0.341261 0.280489 0 200 255
0.408724 0.332016 0.273831 0 200 255
0.430697 0.220220 0.221531 0 200 255
0.391143 0.236918 0.243454 0 200 255
0.369135 0.232887 0.227686 0 200 255
0.467955 0.325943 0.284404 0 200 255
0.450490 0.316749 0.257946 0 200 255
0.467259 0.400769 0.202612 0 200 255
0.398951 0.234629 0.217720 0 200 255
0.499680 0.279392 0.285631 0 200 255
0.471003 0.376781 0.255064 0 200 255
0.448391 0.277758 0.244609 0 200 255
0.480493 0.293425 0.290172 0 200 255
0.479362 0.267301 0.246820 0 200 255
0.483245 0.267711 0.281601 0 200 255
0.437912 0.396485 0.229596 0 200 255
0.502087 0.235077 0.287116 0 200 255
0.455897 0.253830 0.247399 0 200 255
0.459193 0.238932 0.269562 0 200 255
0.468702 0.259361 0.259835 0 200 255
0.443270 0.336836 0.176485 0 200 255
0.386971 0.221680 0.224847 0 200 255
0.387615 0.229047 0.212055 0 200 255
0.522307 0.292470 0.271595 0 200 255
0.446014 0.232248 0.227542 0 200 255
0.430244 0.230404 0.253469 0 200 255
0.474013 0.360708 0.254960 0 200 255
0.366137 0.229670 0.203859 0 200 255
0.439990 0.339521 0.245712 0 200 255
0.407214 0.241433 0.237329 0 200 255
0.454656 0.378851 0.253285 0 200 255
0.440434 0.338104 0.259605 0 200 255
0.484613 0.246211 0.253624 0 200 255
0.472380 0.237312 0.263380 0 200 255
0.407448 0.219286 0.213783 0 200 255
0.461286 0.327115 0.246071 0 200 255
0.409779 0.335606 0.254982 0 200 255
0.516957 0.310651 0.253126 0 200 255
0.453120 0.270882 0.251099 0 200 255
0.476534 0.312755 0.290510 0 200 255
0.451804 0.379280 0.243162 0 200 255
0.449240 0.352892 0.218527 0 200 255
0.488236 0.318699 0.265086 0 200 255
0.461724 0.297168 0.253178 0 200 255
0.423323 0.234730 0.219776 0 200 255
0.469571 0.302690 0.288086 0 200 255
0.438633 0.267940 0.247821 0 200 255
0.434314 0.239929 0.229345 0 200 255
0.398219 0.216847 0.226799 0 200 255
0.428225 0.304038 0.268176 0 200 255
0.477790 0.283133 0.245491 0 200 255
0.461872 0.339650 0.252670 0 200 255
0.441855 0.340880 0.203731 0 200 255
0.444625 0.302462 0.254022 0 200 255
0.455171 0.394770 0.231930 0 200 255
0.453301 0.329981 0.183941 0 200 255
0.351739 0.234303 0.203704 0 200 255
0.434004 0.274924 0.269805 0 200 255
0.356685 0.225073 0.232777 0 200 255
0.379453 0.359062 0.263263 0 200 255
0.382155 0.365593 0.253158 0 200 255
0.458477 0.339919 0.198651 0 200 255
0.374415 0.223918 0.205432 0 200 255
0.475308 0.312873 0.268075 0 200 255
0.520075 0.239084 0.255601 0 200 255
0.510646 0.322372 0.278480 0 200 255
0.450718 0.364946 0.246226 0 200 255
0.413038 0.322940 0.273501 0 200 255
0.368812 0.358180 0.266022 0 200 255
0.478065 0.384802 0.256503 0 200 255
0.474449 0.301094 0.247658 0 200 255
0.501089 0.258055 0.286601 0 200 255
0.513184 0.254999 0.264625 0 200 255
0.461092 0.247445 0.264300 0 200 255
0.404713 0.209783 0.217465 0 200 255
0.463301 0.352593 0.274583 0 200 255
0.455413 0.353641 0.249649 0 200 255
0.413046 0.220185 0.224685 0 200 255
0.489759 0.262402 0.243493 0 200 255
0.429999 0.315099 0.256068 0 200 255
0.464456 0.292372 0.283578 0 200 255
0.447551 0.345997 0.224018 0 200 255
0.361232 0.238195 0.214777 0 200 255
0.509593 0.263224 0.243473 0 200 255
0.513442 0.259315 0.280185 0 200 255
0.471490 0.389441 0.219176 0 200 255
0.462745 0.388012 0.237700 0 200 255
0.501039 0.310517 0.247597 0 200 255
0.513064 0.321510 0.256661 0 200 255
0.385641 0.343892 0.268530 0 200 255
0.476706 0.343807 0.259327 0 200 255
0.473512 0.344749 0.274708 0 200 255
0.474182 0.256786 0.264350 0 200 255
0.493734 0.238175 0.238479 0 200 255
0.455640 0.332615 0.176226 0 200 255
0.493997 0.253002 0.287293 0 200 255
0.430283 0.239376 0.236044 0 200 255
0.449559 0.287449 0.245202 0 200 255
0.404641 0.328513 0.279741 0 200 255
0.503599 0.233703 0.240647 0 200 255
0.446810 0.327222 0.258689 0 200 255
0.480971 0.365580 0.260296 0 200 255
0.449124 0.312810 0.264212 0 200 255
0.484445 0.346804 0.272339 0 200 255
0.404235 0.345842 0.256801 0 200 255
0.431108 0.285517 0.263899 0 200 255
0.500102 0.315778 0.287179 0 200 255
0.501163 0.243920 0.267685 0 200 255
0.470458 0.318680 0.290055 0 200 255
0.445673 0.347069 0.196458 0 200 255
0.483378 0.325204 0.285256 0 200 255
0.445732 0.353145 0.225513 0 200 255
0.420921 0.326267 0.273994 0 200 255
0.415686 0.239779 0.216141 0 200 255
0.373334 0.231908 0.213585 0 200 255
0.457208 0.342904 0.180435 0 200 255
0.380978 0.213090 0.241625 0 200 255
0.469998 0.399851 0.234054 0 200 255
0.449449 0.340116 0.247879 0 200 255
0.460155 0.330737 0.229894 0 200 255
0.436915 0.311330 0.255775 0 200 255
0.363254 0.364905 0.252605 0 200 255
0.468450 0.350904 0.245821 0 200 255
0.398353 0.330611 0.258209 0 200 255
0.482798 0.242893 0.265245 0 200 255
0.444804 0.347489 0.248526 0 200 255
0.429299 0.224911 0.227063 0 200 255
0.442433 0.348773 0.206850 0 200 255
0.375377 0.221479 0.224113 0 200 255
0.440204 0.301940 0.278415 0 200 255
0.480286 0.374775 0.264371 0 200 255
0.444360 0.230943 0.256350 0 200 255
0.398836 0.349518 0.277397 0 200 255
0.445921 0.350266 0.234642 0 200 255
0.511241 0.307871 0.248706 0 200 255
0.445966 0.382488 0.232876 0 200 255
0.370436 0.231956 0.236518 0 200 255
0.442878 0.261477 0.259340 0 200 255
0.415831 0.320443 0.280033 0 200 255
0.470300 0.392823 0.204973 0 200 255
0.479419 0.254255 0.251189 0 200 255
0.394232 0.226190 0.226625 0 200 255
0.446930 0.307316 0.247798 0 200 255
0.392951 0.219517 0.211109 0 200 255
0.365786 0.218187 0.213760 0 200 255
0.416677 0.214090 0.237392 0 200 255
0.493427 0.316614 0.289936 0 200 255
0.473866 0.403613 0.223767 0 200 255
0.451154 0.336149 0.221852 0 200 255
0.456939 0.392156 0.239459 0 200 255
0.409043 0.211365 0.223044 0 200 255
0.413309 0.337536 0.269227 0 200 255
0.446018 0.327242 0.268380 0 200 255
0.393401 0.337138 0.279382 0 200 255
0.463600 0.268708 0.280941 0 200 255
0.461207 0.327789 0.273559 0 200 255
0.392710 0.236028 0.234063 0 200 255
0.453642 0.350200 0.187740 0 200 255
0.503568 0.294704 0.249158 0 200 255
0.460601 0.330682 0.253627 0 200 255
0.518036 0.301443 0.256438 0 200 255
0.431748 0.219862 0.244420 0 200 255
0.465907 0.391213 0.211653 0 200 255
0.423264 0.246566 0.251154 0 200 255
0.440142 0.228104 0.251117 0 200 255
0.486937 0.239848 0.249505 0 200 255
0.503829 0.302864 0.246576 0 200 255
0.461620 0.399420 0.223377 0 200 255
0.448168 0.338256 0.169059 0 200 255
0.498563 0.230685 0.281455 0 200 255
0.510436 0.269807 0.281157 0 200 255
0.353895 0.375468 0.258820 0 200 255
0.428741 0.301483 0.284198 0 200 255
0.465758 0.258284 0.286332 0 200 255
0.487234 0.275833 0.247542 0 200 255
0.502789 0.278022 0.243724 0 200 255
0.478555 0.393619 0.225230 0 200 255
0.490547 0.344260 0.260122 0 200 255
0.438625 0.225049 0.243721 0 200 255
0.446975 0.314983 0.281384 0 200 255
0.448431 0.345460 0.255619 0 200 255
0.431200 0.294251 0.266750 0 200 255
0.360699 0.244139 0.223320 0 200 255
0.439128 0.239370 0.257664 0 200 255
0.486676 0.362754 0.241544 0 200 255
0.344307 0.231382 0.223807 0 200 255
0.486499 0.253468 0.245290 0 200 255
0.500349 0.249332 0.244901 0 200 255
0.386523 0.229641 0.238450 0 200 255
0.439160 0.295852 0.270679 0 200 255
0.439622 0.239532 0.246709 0 200 255
0.373628 0.365498 0.254719 0 200 255
0.441047 0.338503 0.197015 0 200 255
0.455571 0.311081 0.269776 0 200 255
0.377513 0.224366 0.236407 0 200 255
0.421113 0.226607 0.217642 0 200 255
0.455125 0.341273 0.262034 0 200 255
0.430732 0.284134 0.277706 0 200 255
0.366904 0.372949 0.252754 0 200 255
0.465415 0.309399 0.248756 0 200 255
0.464383 0.311574 0.269668 0 200 255
0.474926 0.244476 0.256557 0 200 255
0.469279 0.372201 0.249903 0 200 255
0.361207 0.236553 0.207359 0 200 255
0.458996 0.386519 0.245244 0 200 255
0.488936 0.228601 0.278897 0 200 255
0.455351 0.347131 0.198575 0 200 255
0.466972 0.341351 0.263729 0 200 255
0.482421 0.226294 0.253062 0 200 255
0.469611 0.277975 0.289589 0 200 255
0.389862 0.337978 0.266344 0 200 255
0.513852 0.266468 0.255064 0 200 255
0.361375 0.381946 0.251083 0 200 255
0.421905 0.308125 0.258276 0 200 255
0.490064 0.246332 0.245136 0 200 255
0.494168 0.320787 0.269086 0 200 255
0.471770 0.289393 0.250790 0 200 255
0.387592 0.343897 0.278941 0 200 255
0.452062 0.280708 0.287872 0 200 255
0.447938 0.334118 0.259129 0 200 255
0.444458 0.290197 0.250772 0 200 255
0.408532 0.321057 0.278512 0 200 255
0.374158 0.373612 0.262433 0 200 255
0.416464 0.312381 0.269313 0 200 255
0.425115 0.244026 0.225720 0 200 255
0.488657 0.329510 0.262018 0 200 255
0.438682 0.343456 0.221650 0 200 255
0.484010 0.374872 0.240236 0 200 255
0.432532 0.248471 0.250733 0 200 255
0.453272 0.348099 0.235023 0 200 255
0.364664 0.218631 0.223250 0 200 255
0.416424 0.227258 0.253007 0 200 255
0.390439 0.344816 0.256359 0 200 255
0.447250 0.388576 0.223368 0 200 255
0.443046 0.334560 0.187453 0 200 255
0.468559 0.236395 0.250898 0 200 255
0.488486 0.257245 0.286847 0 200 255
0.494844 0.274859 0.247306 0 200 255
0.466183 0.293106 0.246449 0 200 255
0.465313 0.279648 0.244489 0 200 255
0.418795 0.237595 0.254482 0 200 255
0.516506 0.313514 0.268011 0 200 255
0.524084 0.286441 0.274548 0 200 255
0.432464 0.236969 0.253905 0 200 255
0.478919 0.228667 0.259802 0 200 255
0.399497 0.217263 0.233605 0 200 255
0.510117 0.320118 0.271417 0 200 255
0.410643 0.231442 0.216376 0 200 255
0.440891 0.311893 0.261623 0 200 255
0.418503 0.322627 0.261964 0 200 255
0.446886 0.374383 0.242066 0 200 255
0.420413 0.213951 0.221408 0 200 255
0.503536 0.244165 0.241142 0 200 255
0.463673 0.386076 0.225342 0 200 255
0.472180 0.262623 0.254272 0 200 255
0.437130 0.224250 0.230806 0 200 255
0.479191 0.348540 0.253613 0 200 255
0.443793 0.381311 0.246293 0 200 255
0.354383 0.242458 0.226470 0 200 255
0.464274 0.372436 0.259012 0 200 255
0.456639 0.305741 0.260630 0 200 255
0.440789 0.346068 0.186302 0 200 255
0.400758 0.350011 0.263081 0 200 255
0.360913 0.224685 0.208382 0 200 255
0.492572 0.351241 0.275755 0 200 255
0.424341 0.301286 0.256801 0 200 255
0.482853 0.300578 0.247095 0 200 255
0.431558 0.293397 0.255042 0 200 255
0.471701 0.350196 0.269014 0 200 255
0.455862 0.236539 0.258400 0 200 255
0.408290 0.320491 0.265483 0 200 255
0.378783 0.221720 0.212566 0 200 255
0.473259 0.404026 0.209832 0 200 255
0.419077 0.327890 0.280363 0 200 255
0.343367 0.231637 0.216929 0 200 255
0.458706 0.385055 0.231350 0 200 255
0.358688 0.244442 0.213791 0 200 255
0.481267 0.330203 0.272440 0 200 255
0.483059 0.223479 0.270578 0 200 255
0.370593 0.360060 0.251556 0 200 255
0.485102 0.337874 0.262759 0 200 255
0.426226 0.245599 0.238120 0 200 255
0.510227 0.243563 0.246394 0 200 255
0.440634 0.248111 0.255515 0 200 255
0.444288 0.401781 0.230760 0 200 255
0.468768 0.238575 0.277343 0 200 255
0.458421 0.291783 0.250681 0 200 255
0.353544 0.230110 0.222070 0 200 255
0.463278 0.321849 0.279775 0 200 255
0.412032 0.239976 0.248896 0 200 255
0.460945 0.397626 0.212147 0 200 255
0.390115 0.355152 0.256758 0 200 255
0.441151 0.408424 0.220251 0 200 255
0.363621 0.364417 0.262081 0 200 255
0.485186 0.324024 0.272033 0 200 255
0.468966 0.242791 0.248746 0 200 255
0.467157 0.324605 0.271075 0 200 255
0.445943 0.403248 0.222726 0 200 255
0.347271 0.242656 0.220721 0 200 255
0.477164 0.276033 0.281716 0 200 255
0.447059 0.347637 0.177518 0 200 255
0.430878 0.217739 0.235276 0 200 255
0.444318 0.334282 0.216910 0 200 255
0.474703 0.322664 0.275712 0 200 255
0.465682 0.380560 0.238230 0 200 255
0.446288 0.312096 0.274865 0 200 255
0.490368 0.349376 0.266887 0 200 255
0.381662 0.217224 0.219792 0 200 255
0.462985 0.254395 0.247997 0 200 255
0.497010 0.341786 0.258250 0 200 255
0.461044 0.267914 0.242729 0 200 255
0.432773 0.308547 0.275962 0 200 255
0.461732 0.264250 0.286516 0 200 255
0.399809 0.224444 0.215303 0 200 255
0.452426 0.389212 0.228603 0 200 255
0.516756 0.285003 0.247938 0 200 255
0.510710 0.327376 0.259404 0 200 255
0.509777 0.248560 0.258735 0 200 255
0.459345 0.333174 0.221013 0 200 255
0.510013 0.280843 0.284477 0 200 255
0.488079 0.356168 0.273534 0 200 255
0.498863 0.244569 0.252746 0 200 255
0.437169 0.313145 0.282567 0 200 255
0.490160 0.267357 0.287350 0 200 255
0.370764 0.379098 0.256148 0 200 255
0.446160 0.249547 0.261787 0 200 255
0.427524 0.290171 0.274837 0 200 255
0.445824 0.269983 0.248701 0 200 255
0.384278 0.366165 0.263037 0 200 255
0.467621 0.323901 0.264368 0 200 255
0.481808 0.316686 0.248743 0 200 255
0.446311 0.296664 0.285229 0 200 255
0.492107 0.231769 0.238181 0 200 255
0.499893 0.287370 0.248482 0 200 255
0.477258 0.392594 0.212091 0 200 255
0.439423 0.345946 0.193638 0 200 255
0.493145 0.356590 0.249834 0 200 255
0.432475 0.245220 0.225858 0 200 255
0.483235 0.236203 0.242235 0 200 255
0.404434 0.233612 0.247804 0 200 255
0.428819 0.285981 0.256640 0 200 255
0.477057 0.333508 0.267498 0 200 255
0.391420 0.232480 0.216167 0 200 255
0.355981 0.373634 0.252871 0 200 255
0.467971 0.343382 0.269913 0 200 255
0.489287 0.350763 0.248242 0 200 255
0.492452 0.357700 0.263366 0 200 255
0.380971 0.210635 0.222922 0 200 255
0.481325 0.318508 0.290432 0 200 255
0.403806 0.345201 0.274244 0 200 255
0.503376 0.253591 0.252725 0 200 255
0.358871 0.369173 0.265129 0 200 255
0.509458 0.312163 0.253836 0 200 255
0.402730 0.234218 0.230692 0 200 255
0.383208 0.216301 0.208549 0 200 255
0.372945 0.215590 0.235510 0 200 255
0.510975 0.304087 0.286231 0 200 255
0.499289 0.340979 0.268222 0 200 255
0.420280 0.331693 0.259059 0 200 255
0.448298 0.391594 0.236347 0 200 255
0.486506 0.372527 0.250368 0 200 255
0.455629 0.324108 0.250727 0 200 255
0.409698 0.341128 0.258406 0 200 255
0.446915 0.271803 0.285253 0 200 255
0.471907 0.309227 0.248621 0 200 255
0.470530 0.376490 0.233293 0 200 255
0.452576 0.296447 0.246176 0 200 255
0.461742 0.345804 0.274646 0 200 255
0.385163 0.218854 0.230405 0 200 255
0.396613 0.341727 0.255431 0 200 255
0.480827 0.306995 0.253828 0 200 255
0.467226 0.381026 0.223364 0 200 255
0.468673 0.356023 0.264660 0 200 255
0.373469 0.230196 0.207066 0 200 255
0.499999 0.251982 0.283719 0 200 255
0.455342 0.395276 0.218249 0 200 255
0.441396 0.349605 0.213154 0 200 255
0.471694 0.355722 0.258314 0 200 255
0.477906 0.237363 0.246640 0 200 255
0.446474 0.330943 0.208763 0 200 255
0.379886 0.352685 0.262081 0 200 255
0.470889 0.250810 0.286035 0 200 255
0.492503 0.241491 0.282492 0 200 255
