ply
format ascii 1.0
element vertex 1024
property float x
property float y
property float z
property uchar red
property uchar green
property uchar blue
end_header
0.438911 0.334073 0.170385 0 200 255
0.322471 0.290758 0.118791 0 200 255
0.450092 0.405182 0.093246 0 200 255
0.460575 0.238654 0.183871 0 200 255
0.345625 0.375844 0.104972 0 200 255
0.397081 0.245861 0.125418 0 200 255
0.367635 0.338373 0.162127 0 200 255
0.492570 0.293061 0.150318 0 200 255
0.413190 0.355717 0.113968 0 200 255
0.449839 0.393170 0.154376 0 200 255
0.411896 0.278452 0.176766 0 200 255
0.350301 0.256388 0.148540 0 200 255
0.446781 0.265445 0.141964 0 200 255
0.457802 0.293245 0.189924 0 200 255
0.486428 0.330060 0.178814 0 200 255
0.404358 0.314564 0.153316 0 200 255
0.415180 0.365691 0.155099 0 200 255
0.420452 0.396017 0.122003 0 200 255
0.426463 0.354822 0.075916 0 200 255
0.488171 0.253258 0.154906 0 200 255
0.468432 0.358595 0.158005 0 200 255
0.455099 0.303942 0.146659 0 200 255
0.369207 0.270380 0.118797 0 200 255
0.346355 0.358125 0.138460 0 200 255
0.383809 0.271427 0.153622 0 200 255
0.402337 0.323768 0.188913 0 200 255
0.408923 0.246001 0.158032 0 200 255
0.459233 0.392436 0.122409 0 200 255
0.486270 0.280765 0.180332 0 200 255
0.347213 0.287682 0.138946 0 200 255
0.441627 0.365589 0.174509 0 200 255
0.431076 0.310361 0.191216 0 200 255
0.423342 0.286763 0.143824 0 200 255
0.442103 0.366116 0.138346 0 200 255
0.439479 0.265881 0.185772 0 200 255
0.338378 0.263612 0.118942 0 200 255
0.461887 0.343062 0.191340 0 200 255
0.441803 0.240189 0.157857 0 200 255
0.427355 0.385486 0.094263 0 200 255
0.376682 0.351177 0.136571 0 200 255
0.481992 0.322520 0.150244 0 200 255
0.377862 0.242659 0.149464 0 200 255
0.420713 0.343560 0.138562 0 200 255
0.462701 0.258605 0.163888 0 200 255
0.363211 0.244034 0.126253 0 200 255
0.394692 0.338165 0.166102 0 200 255
0.359234 0.354429 0.115009 0 200 255
0.457231 0.335129 0.150841 0 200 255
0.469936 0.280203 0.146375 0 200 255
0.430476 0.312616 0.153162 0 200 255
0.425151 0.388083 0.147457 0 200 255
0.492461 0.305975 0.172609 0 200 255
0.428439 0.261680 0.162944 0 200 255
0.419806 0.349938 0.176138 0 200 255
0.465173 0.318215 0.189212 0 200 255
0.400634 0.300978 0.178578 0 200 255
0.446335 0.304321 0.170633 0 200 255
0.412240 0.373310 0.131271 0 200 255
0.463906 0.246082 0.142724 0 200 255
0.463472 0.269556 0.185859 0 200 255
0.391630 0.268920 0.130848 0 200 255
0.463839 0.376153 0.140491 0 200 255
0.483400 0.251298 0.177910 0 200 255
0.413327 0.366769 0.092515 0 200 255
0.441142 0.401525 0.134359 0 200 255
0.383382 0.331184 0.146269 0 200 255
0.438267 0.382612 0.115930 0 200 255
0.330414 0.271956 0.140946 0 200 255
0.436233 0.350181 0.154314 0 200 255
0.413272 0.263956 0.144522 0 200 255
0.416567 0.323699 0.170353 0 200 255
0.403809 0.289714 0.155263 0 200 255
0.459727 0.377755 0.167644 0 200 255
0.344355 0.285540 0.116685 0 200 255
0.325514 0.293669 0.140578 0 200 255
0.433964 0.287192 0.187199 0 200 255
0.428754 0.352130 0.098210 0 200 255
0.465434 0.335420 0.171054 0 200 255
0.439706 0.330827 0.191905 0 200 255
0.362316 0.357705 0.153744 0 200 255
0.442824 0.404393 0.113314 0 200 255
0.362176 0.272883 0.142063 0 200 255
0.486603 0.275815 0.159968 0 200 255
0.440856 0.278481 0.156799 0 200 255
0.419195 0.375825 0.112203 0 200 255
0.339986 0.360579 0.117821 0 200 255
0.481398 0.343148 0.160713 0 200 255
0.453335 0.388044 0.103293 0 200 255
0.441071 0.375197 0.156851 0 200 255
0.477800 0.298408 0.184492 0 200 255
0.447414 0.251493 0.174154 0 200 255
0.476795 0.349473 0.178966 0 200 255
0.450907 0.349604 0.168376 0 200 255
0.368029 0.260239 0.155737 0 200 255
0.393428 0.319120 0.172281 0 200 255
0.428383 0.360513 0.125791 0 200 255
0.416556 0.343445 0.157463 0 200 255
0.378882 0.254385 0.122571 0 200 255
0.394752 0.248731 0.144050 0 200 255
0.353491 0.259827 0.130499 0 200 255
0.359287 0.344861 0.137490 0 200 255
0.354639 0.369084 0.125370 0 200 255
0.426015 0.400515 0.104821 0 200 255
0.335975 0.300872 0.127372 0 200 255
0.439596 0.330217 0.151039 0 200 255
0.437072 0.383454 0.134170 0 200 255
0.419926 0.328770 0.188297 0 200 255
0.379227 0.331578 0.174474 0 200 255
0.400831 0.262438 0.157751 0 200 255
0.438486 0.296028 0.145248 0 200 255
0.414422 0.293480 0.186963 0 200 255
0.380047 0.348890 0.154968 0 200 255
0.347701 0.358678 0.101636 0 200 255
0.418359 0.324520 0.149467 0 200 255
0.432443 0.256093 0.144492 0 200 255
0.458556 0.393516 0.139629 0 200 255
0.425289 0.367276 0.141259 0 200 255
0.407798 0.259100 0.129143 0 200 255
0.384299 0.255230 0.158779 0 200 255
0.479520 0.303704 0.149400 0 200 255
0.382865 0.241007 0.133556 0 200 255
0.445094 0.260918 0.158000 0 200 255
0.453351 0.360716 0.149424 0 200 255
0.411524 0.309650 0.189783 0 200 255
0.411895 0.357502 0.139896 0 200 255
0.479081 0.262291 0.165819 0 200 255
0.454075 0.284095 0.144234 0 200 255
0.477959 0.254397 0.141336 0 200 255
0.427528 0.359463 0.164622 0 200 255
0.450718 0.307939 0.191267 0 200 255
0.427955 0.271470 0.147760 0 200 255
0.352577 0.276278 0.128597 0 200 255
0.362401 0.244171 0.142534 0 200 255
0.364359 0.361660 0.136075 0 200 255
0.450475 0.279528 0.185544 0 200 255
0.333526 0.285049 0.129516 0 200 255
0.424805 0.266731 0.179184 0 200 255
0.438529 0.349205 0.178661 0 200 255
0.481588 0.317540 0.187628 0 200 255
0.376507 0.267487 0.137311 0 200 255
0.338045 0.259167 0.134620 0 200 255
0.413615 0.301738 0.151090 0 200 255
0.406333 0.329302 0.159452 0 200 255
0.416156 0.351754 0.088001 0 200 255
0.414129 0.269287 0.163200 0 200 255
0.494542 0.287666 0.168717 0 200 255
0.346042 0.271476 0.147938 0 200 255
0.450413 0.339014 0.179927 0 200 255
0.407306 0.310789 0.168224 0 200 255
0.461748 0.261900 0.144441 0 200 255
0.427756 0.365922 0.086690 0 200 255
0.427070 0.367077 0.102191 0 200 255
0.454168 0.317125 0.154597 0 200 255
0.466422 0.359857 0.174540 0 200 255
0.390446 0.325124 0.158570 0 200 255
0.452724 0.380969 0.131250 0 200 255
0.457329 0.253375 0.185571 0 200 255
0.424335 0.381619 0.126471 0 200 255
0.438846 0.391765 0.103664 0 200 255
0.468598 0.313663 0.147340 0 200 255
0.331775 0.277634 0.115433 0 200 255
0.456170 0.402798 0.106646 0 200 255
0.357955 0.368092 0.109192 0 200 255
0.475759 0.335384 0.187705 0 200 255
0.472909 0.282248 0.186510 0 200 255
0.450146 0.248992 0.149422 0 200 255
0.452913 0.406513 0.123888 0 200 255
0.354487 0.267109 0.117216 0 200 255
0.482939 0.273461 0.145437 0 200 255
0.381770 0.345207 0.169021 0 200 255
0.468617 0.294627 0.144582 0 200 255
0.431556 0.399064 0.091001 0 200 255
0.461143 0.383850 0.154486 0 200 255
0.489323 0.325371 0.165353 0 200 255
0.420354 0.252422 0.151738 0 200 255
0.454137 0.329741 0.190796 0 200 255
0.320325 0.300869 0.128979 0 200 255
0.430430 0.345411 0.167237 0 200 255
0.426899 0.373964 0.155301 0 200 255
0.371464 0.337030 0.141031 0 200 255
0.427053 0.333184 0.157148 0 200 255
0.374065 0.251750 0.139153 0 200 255
0.424039 0.396628 0.135750 0 200 255
0.453440 0.365081 0.166446 0 200 255
0.416192 0.350199 0.126897 0 200 255
0.365563 0.255199 0.117864 0 200 255
0.442774 0.318155 0.185678 0 200 255
0.430536 0.353314 0.141211 0 200 255
0.450583 0.238615 0.169425 0 200 255
0.392005 0.341510 0.152710 0 200 255
0.428579 0.336400 0.180264 0 200 255
0.431020 0.322702 0.167960 0 200 255
0.408400 0.368668 0.117644 0 200 255
0.444465 0.391720 0.124539 0 200 255
0.349221 0.352707 0.125909 0 200 255
0.412799 0.355389 0.164198 0 200 255
0.471896 0.254647 0.184977 0 200 255
0.432384 0.255315 0.177015 0 200 255
0.399367 0.261713 0.142972 0 200 255
0.461152 0.346925 0.159013 0 200 255
0.469652 0.267139 0.155583 0 200 255
0.405723 0.245139 0.136082 0 200 255
0.438794 0.386654 0.148287 0 200 255
0.359339 0.343977 0.152904 0 200 255
0.397357 0.330798 0.178040 0 200 255
0.335143 0.284322 0.144223 0 200 255
0.433500 0.399594 0.122339 0 200 255
0.392435 0.258592 0.122141 0 200 255
0.472677 0.337923 0.151843 0 200 255
0.403560 0.291473 0.169556 0 200 255
0.443054 0.312926 0.148393 0 200 255
0.480285 0.288571 0.153173 0 200 255
0.489184 0.306334 0.158192 0 200 255
0.414479 0.277091 0.145493 0 200 255
0.465973 0.371621 0.153134 0 200 255
0.362171 0.259732 0.140874 0 200 255
0.415990 0.351478 0.101454 0 200 255
0.378389 0.330341 0.159192 0 200 255
0.419954 0.337436 0.170445 0 200 255
0.477357 0.267957 0.177513 0 200 255
0.422109 0.389135 0.110011 0 200 255
0.435882 0.300216 0.184497 0 200 255
0.446923 0.342381 0.192046 0 200 255
0.337035 0.366033 0.105071 0 200 255
0.398789 0.303576 0.157586 0 200 255
0.451188 0.384639 0.115803 0 200 255
0.395090 0.247982 0.159078 0 200 255
0.441422 0.357261 0.163962 0 200 255
0.463188 0.305528 0.188262 0 200 255
0.450564 0.330389 0.166400 0 200 255
0.330551 0.271162 0.128163 0 200 255
0.426493 0.360296 0.113131 0 200 255
0.443612 0.339812 0.158475 0 200 255
0.464151 0.325043 0.155520 0 200 255
0.410127 0.367143 0.105096 0 200 255
0.421269 0.282870 0.185326 0 200 255
0.416820 0.362286 0.079545 0 200 255
0.367259 0.261985 0.128468 0 200 255
0.446713 0.378313 0.142898 0 200 255
0.489791 0.294370 0.178396 0 200 255
0.404167 0.314532 0.180410 0 200 255
0.433645 0.372149 0.167219 0 200 255
0.437419 0.251229 0.162146 0 200 255
0.347824 0.254476 0.120585 0 200 255
0.382638 0.266242 0.120640 0 200 255
0.345894 0.373506 0.117255 0 200 255
0.446721 0.290970 0.182259 0 200 255
0.447503 0.393046 0.093165 0 200 255
0.431583 0.372051 0.131695 0 200 255
0.369731 0.350572 0.162658 0 200 255
0.430232 0.380530 0.106428 0 200 255
0.430963 0.362377 0.153126 0 200 255
0.345327 0.292833 0.127675 0 200 255
0.407075 0.280314 0.162504 0 200 255
0.451722 0.265482 0.185702 0 200 255
0.409804 0.251907 0.145433 0 200 255
0.341372 0.273334 0.135701 0 200 255
0.458312 0.349828 0.178079 0 200 255
0.471299 0.350520 0.166648 0 200 255
0.352173 0.352614 0.148201 0 200 255
0.384589 0.344216 0.142519 0 200 255
0.370565 0.273007 0.150764 0 200 255
0.338098 0.261390 0.146476 0 200 255
0.414313 0.362269 0.126915 0 200 255
0.344631 0.273545 0.114685 0 200 255
0.430376 0.273554 0.162622 0 200 255
0.451062 0.382935 0.161239 0 200 255
0.355455 0.364107 0.143633 0 200 255
0.419965 0.259231 0.170977 0 200 255
0.332941 0.289409 0.113234 0 200 255
0.408846 0.327454 0.179624 0 200 255
0.360929 0.351062 0.127276 0 200 255
0.427683 0.349200 0.086328 0 200 255
0.426261 0.379353 0.139428 0 200 255
0.446424 0.394881 0.143115 0 200 255
0.457841 0.368599 0.176900 0 200 255
0.453524 0.369841 0.138161 0 200 255
0.490404 0.315288 0.179622 0 200 255
0.344274 0.363910 0.128310 0 200 255
0.413298 0.318502 0.159915 0 200 255
0.481853 0.339848 0.171966 0 200 255
0.441880 0.403188 0.101386 0 200 255
0.466681 0.368536 0.165664 0 200 255
0.344348 0.368381 0.096056 0 200 255
0.370112 0.356494 0.144801 0 200 255
0.361477 0.249576 0.152821 0 200 255
0.413416 0.352466 0.150295 0 200 255
0.444567 0.276825 0.142980 0 200 255
0.442700 0.357097 0.146537 0 200 255
0.357467 0.265182 0.151019 0 200 255
0.430995 0.275161 0.184191 0 200 255
0.412692 0.256388 0.161328 0 200 255
0.425201 0.341479 0.149357 0 200 255
0.424626 0.298712 0.149516 0 200 255
0.424886 0.370391 0.120585 0 200 255
0.452233 0.253452 0.163909 0 200 255
0.460260 0.283850 0.181387 0 200 255
0.434291 0.394921 0.141773 0 200 255
0.398141 0.254815 0.133930 0 200 255
0.446151 0.270777 0.163611 0 200 255
0.414451 0.369397 0.143858 0 200 255
0.425367 0.297473 0.187717 0 200 255
0.472625 0.265002 0.144099 0 200 255
0.403987 0.321578 0.167647 0 200 255
0.338151 0.294423 0.139281 0 200 255
0.324962 0.282268 0.136297 0 200 255
0.396641 0.308201 0.170550 0 200 255
0.465265 0.330720 0.191689 0 200 255
0.486642 0.273182 0.172090 0 200 255
0.453729 0.402585 0.135273 0 200 255
0.386232 0.270472 0.141894 0 200 255
0.427881 0.321673 0.191531 0 200 255
0.385852 0.245744 0.121948 0 200 255
0.395231 0.268870 0.150652 0 200 255
0.327818 0.300441 0.119385 0 200 255
0.457012 0.397163 0.097050 0 200 255
0.433007 0.382791 0.157970 0 200 255
0.421366 0.264191 0.152837 0 200 255
0.433857 0.280784 0.147149 0 200 255
0.421666 0.396858 0.095174 0 200 255
0.394825 0.241478 0.135852 0 200 255
0.362876 0.362924 0.121676 0 200 255
0.484818 0.250260 0.167161 0 200 255
0.432901 0.358970 0.174082 0 200 255
0.405176 0.291171 0.180314 0 200 255
0.347940 0.262652 0.139398 0 200 255
0.438022 0.393690 0.114307 0 200 255
0.320358 0.290117 0.130329 0 200 255
0.450634 0.396073 0.116779 0 200 255
0.446556 0.365966 0.157596 0 200 255
0.374055 0.242188 0.127502 0 200 255
0.414114 0.287817 0.149209 0 200 255
0.449364 0.354419 0.157147 0 200 255
0.440075 0.325031 0.176037 0 200 255
0.488573 0.305204 0.182775 0 200 255
0.470325 0.242594 0.185777 0 200 255
0.481568 0.261841 0.148993 0 200 255
0.488564 0.314757 0.165617 0 200 255
0.438259 0.338799 0.183980 0 200 255
0.430256 0.388175 0.120554 0 200 255
0.374642 0.251960 0.153462 0 200 255
0.472679 0.346444 0.188277 0 200 255
0.450996 0.245293 0.181998 0 200 255
0.463684 0.364243 0.145860 0 200 255
0.455860 0.340239 0.168486 0 200 255
0.403710 0.331993 0.169519 0 200 255
0.362451 0.271374 0.127729 0 200 255
0.448961 0.326222 0.155897 0 200 255
0.434846 0.321947 0.155524 0 200 255
0.342890 0.281266 0.126598 0 200 255
0.485950 0.331616 0.157617 0 200 255
0.390470 0.263743 0.158791 0 200 255
0.426510 0.350750 0.129123 0 200 255
0.458416 0.255949 0.154718 0 200 255
0.365705 0.252529 0.132920 0 200 255
0.351104 0.277509 0.138859 0 200 255
0.453968 0.245711 0.139606 0 200 255
0.452412 0.319524 0.191849 0 200 255
0.416897 0.321135 0.181909 0 200 255
0.445653 0.296699 0.190854 0 200 255
0.489993 0.279051 0.150595 0 200 255
0.369065 0.344131 0.133865 0 200 255
0.389216 0.249266 0.131156 0 200 255
0.385590 0.324597 0.168416 0 200 255
0.469411 0.293402 0.187793 0 200 255
0.418196 0.372788 0.102040 0 200 255
0.448129 0.270117 0.151043 0 200 255
0.420758 0.307764 0.146512 0 200 255
0.435415 0.258478 0.155163 0 200 255
0.326002 0.281215 0.123092 0 200 255
0.478973 0.288532 0.181171 0 200 255
0.347595 0.355392 0.113369 0 200 255
0.370739 0.336219 0.151171 0 200 255
0.418289 0.361427 0.107168 0 200 255
0.441381 0.256184 0.181684 0 200 255
0.345052 0.265556 0.130125 0 200 255
0.433623 0.392822 0.131887 0 200 255
0.378573 0.263475 0.157461 0 200 255
0.353764 0.366960 0.099452 0 200 255
0.414447 0.375832 0.121746 0 200 255
0.386978 0.241426 0.145314 0 200 255
0.402040 0.245568 0.150260 0 200 255
0.388988 0.333584 0.173034 0 200 255
0.419654 0.304990 0.184281 0 200 255
0.395245 0.316511 0.160442 0 200 255
0.493447 0.297753 0.166944 0 200 255
0.450282 0.383724 0.151028 0 200 255
0.443618 0.371211 0.165696 0 200 255
0.459000 0.391391 0.110832 0 200 255
0.399613 0.264264 0.126165 0 200 255
0.471900 0.325592 0.149235 0 200 255
0.431909 0.402024 0.112748 0 200 255
0.373954 0.339077 0.170518 0 200 255
0.440243 0.345746 0.168917 0 200 255
0.461290 0.384441 0.134841 0 200 255
0.454973 0.256074 0.140192 0 200 255
0.409375 0.266340 0.153281 0 200 255
0.427527 0.379692 0.116305 0 200 255
0.336901 0.290950 0.122141 0 200 255
0.423886 0.252323 0.160951 0 200 255
0.449393 0.391854 0.133076 0 200 255
0.406275 0.301877 0.186766 0 200 255
0.352951 0.364610 0.133970 0 200 255
0.435447 0.303393 0.151000 0 200 255
0.448425 0.357978 0.172829 0 200 255
0.462436 0.335948 0.159108 0 200 255
0.424537 0.327694 0.174419 0 200 255
0.422056 0.370172 0.130540 0 200 255
0.421703 0.361178 0.149380 0 200 255
0.383568 0.251049 0.149592 0 200 255
0.395110 0.327423 0.167427 0 200 255
0.453537 0.372820 0.160506 0 200 255
0.396572 0.255612 0.150681 0 200 255
0.431224 0.380531 0.148103 0 200 255
0.373515 0.271389 0.128948 0 200 255
0.356383 0.358614 0.106746 0 200 255
0.485325 0.311409 0.148690 0 200 255
0.460970 0.385698 0.144787 0 200 255
0.469968 0.342654 0.179385 0 200 255
0.369487 0.243907 0.135875 0 200 255
0.492866 0.283806 0.158429 0 200 255
0.404416 0.299046 0.150860 0 200 255
0.435526 0.271063 0.153938 0 200 255
0.442487 0.402580 0.123666 0 200 255
0.445763 0.240642 0.147908 0 200 255
0.484319 0.292787 0.145551 0 200 255
0.437521 0.267822 0.166365 0 200 255
0.468469 0.257796 0.139079 0 200 255
0.436931 0.388051 0.095112 0 200 255
0.357794 0.354770 0.136128 0 200 255
0.429421 0.347291 0.176741 0 200 255
0.472406 0.324230 0.190400 0 200 255
0.462043 0.271261 0.143012 0 200 255
0.414607 0.312100 0.180221 0 200 255
0.386402 0.334294 0.163668 0 200 255
0.433065 0.362169 0.139060 0 200 255
0.353652 0.361357 0.120058 0 200 255
0.458566 0.356412 0.156801 0 200 255
0.412710 0.317038 0.148587 0 200 255
0.441809 0.277120 0.188303 0 200 255
0.376886 0.340736 0.161738 0 200 255
0.441576 0.262692 0.149271 0 200 255
0.442585 0.375954 0.132989 0 200 255
0.424048 0.352533 0.106314 0 200 255
0.422008 0.386927 0.135887 0 200 255
0.446451 0.298952 0.149235 0 200 255
0.340459 0.271341 0.123805 0 200 255
0.421406 0.352461 0.161966 0 200 255
0.426061 0.343881 0.159107 0 200 255
0.421671 0.398093 0.112741 0 200 255
0.415678 0.344879 0.166740 0 200 255
0.356389 0.250320 0.125137 0 200 255
0.429686 0.252559 0.168268 0 200 255
0.470533 0.265854 0.167020 0 200 255
0.412480 0.359591 0.098449 0 200 255
0.467109 0.262053 0.181705 0 200 255
0.481953 0.332186 0.166692 0 200 255
0.405994 0.250151 0.127377 0 200 255
0.469863 0.302489 0.149375 0 200 255
0.384875 0.245924 0.157223 0 200 255
0.351065 0.284716 0.123048 0 200 255
0.386929 0.343677 0.161496 0 200 255
0.448314 0.373242 0.151442 0 200 255
0.336198 0.275183 0.147400 0 200 255
0.424221 0.370706 0.094181 0 200 255
0.369194 0.353677 0.131783 0 200 255
0.451478 0.407333 0.114412 0 200 255
0.402739 0.252900 0.157727 0 200 255
0.479609 0.270776 0.156786 0 200 255
0.416254 0.363966 0.117049 0 200 255
0.450962 0.386439 0.142297 0 200 255
0.399284 0.267319 0.135616 0 200 255
0.346456 0.261898 0.115000 0 200 255
0.480618 0.282185 0.143971 0 200 255
0.356222 0.258532 0.119876 0 200 255
0.372702 0.249318 0.118126 0 200 255
0.414464 0.321334 0.190719 0 200 255
0.410816 0.361029 0.148256 0 200 255
0.448107 0.350025 0.177290 0 200 255
0.429440 0.361498 0.094490 0 200 255
0.377653 0.351534 0.146048 0 200 255
0.437386 0.383130 0.124972 0 200 255
0.487718 0.317963 0.155652 0 200 255
0.475646 0.255865 0.176627 0 200 255
0.409496 0.365893 0.135750 0 200 255
0.440896 0.305574 0.189843 0 200 255
0.367823 0.252948 0.145618 0 200 255
0.419639 0.363642 0.163110 0 200 255
0.464155 0.279510 0.188294 0 200 255
0.395857 0.333727 0.158314 0 200 255
0.442872 0.288151 0.189931 0 200 255
0.471229 0.343772 0.158540 0 200 255
0.328387 0.302371 0.132700 0 200 255
0.444628 0.387646 0.110439 0 200 255
0.382887 0.250055 0.139132 0 200 255
0.457961 0.323872 0.149145 0 200 255
0.371143 0.353661 0.154369 0 200 255
0.343185 0.280269 0.145092 0 200 255
0.363188 0.350908 0.143911 0 200 255
0.423017 0.313805 0.189504 0 200 255
0.430278 0.357293 0.083597 0 200 255
0.353392 0.269950 0.143120 0 200 255
0.361672 0.273107 0.151401 0 200 255
0.364386 0.341099 0.144532 0 200 255
0.413939 0.270004 0.174986 0 200 255
0.360668 0.350566 0.158736 0 200 255
0.401442 0.322348 0.177248 0 200 255
0.457299 0.393192 0.149601 0 200 255
0.441349 0.252081 0.153702 0 200 255
0.487422 0.320247 0.172933 0 200 255
0.488268 0.300422 0.147513 0 200 255
0.344445 0.366335 0.112362 0 200 255
0.433138 0.402529 0.098932 0 200 255
0.428831 0.367428 0.161125 0 200 255
0.422761 0.268524 0.160362 0 200 255
0.429724 0.252522 0.152097 0 200 255
0.448273 0.406827 0.106258 0 200 255
0.430260 0.293144 0.144355 0 200 255
0.456769 0.291484 0.148082 0 200 255
0.473788 0.317528 0.153219 0 200 255
0.421214 0.320517 0.156805 0 200 255
0.399544 0.323250 0.156912 0 200 255
0.454825 0.339725 0.187373 0 200 255
0.486507 0.260655 0.159137 0 200 255
0.418028 0.294998 0.145267 0 200 255
0.475463 0.272257 0.184809 0 200 255
0.342139 0.255130 0.127109 0 200 255
0.414948 0.349233 0.141697 0 200 255
0.389129 0.332930 0.152527 0 200 255
0.425739 0.363802 0.078529 0 200 255
0.418671 0.373866 0.137613 0 200 255
0.442329 0.389524 0.137670 0 200 255
0.364408 0.266282 0.135430 0 200 255
0.340726 0.282441 0.134905 0 200 255
0.429583 0.330047 0.190125 0 200 255
0.453077 0.397906 0.125062 0 200 255
0.457005 0.359051 0.172576 0 200 255
0.372492 0.262472 0.117688 0 200 255
0.410960 0.316695 0.173324 0 200 255
0.425760 0.369789 0.110241 0 200 255
0.429561 0.354140 0.157997 0 200 255
0.470174 0.359031 0.166683 0 200 255
0.351084 0.349828 0.140166 0 200 255
0.467185 0.259644 0.152259 0 200 255
0.471497 0.249000 0.139809 0 200 255
0.332667 0.278267 0.134651 0 200 255
0.491946 0.280363 0.172326 0 200 255
0.352744 0.283897 0.132471 0 200 255
0.425123 0.290650 0.182575 0 200 255
0.475280 0.305946 0.187613 0 200 255
0.453080 0.400059 0.144410 0 200 255
0.451769 0.373880 0.168779 0 200 255
0.482880 0.328086 0.186305 0 200 255
0.423616 0.389960 0.127996 0 200 255
0.459107 0.392860 0.131179 0 200 255
0.433124 0.337654 0.161044 0 200 255
0.418030 0.353948 0.078706 0 200 255
0.422663 0.274242 0.183073 0 200 255
0.374079 0.251170 0.128738 0 200 255
0.459326 0.261830 0.185768 0 200 255
0.438401 0.259494 0.163439 0 200 255
0.359469 0.361050 0.129254 0 200 255
0.439791 0.285493 0.143487 0 200 255
0.456044 0.301448 0.190547 0 200 255
0.420530 0.333797 0.181579 0 200 255
0.364299 0.263475 0.119305 0 200 255
0.400908 0.299067 0.167105 0 200 255
0.452495 0.388480 0.125487 0 200 255
0.420301 0.337344 0.161846 0 200 255
0.444258 0.385182 0.129798 0 200 255
0.437606 0.368067 0.160760 0 200 255
0.411950 0.283604 0.168481 0 200 255
0.356863 0.245117 0.131681 0 200 255
0.434046 0.386977 0.110174 0 200 255
0.479518 0.253969 0.150912 0 200 255
0.459075 0.311572 0.150752 0 200 255
0.347665 0.266629 0.121987 0 200 255
0.431838 0.346361 0.148087 0 200 255
0.449129 0.332891 0.150899 0 200 255
0.420792 0.353684 0.095011 0 200 255
0.443293 0.400397 0.093545 0 200 255
0.359310 0.253252 0.145690 0 200 255
0.417011 0.343039 0.149179 0 200 255
0.350695 0.372311 0.110587 0 200 255
0.354758 0.256561 0.138017 0 200 255
0.388746 0.324735 0.176181 0 200 255
0.435714 0.352605 0.167880 0 200 255
0.424483 0.355691 0.119706 0 200 255
0.443025 0.327272 0.168085 0 200 255
0.335817 0.263655 0.126809 0 200 255
0.461905 0.325361 0.186373 0 200 255
0.426963 0.373614 0.146598 0 200 255
0.414039 0.326283 0.162592 0 200 255
0.481650 0.337406 0.179855 0 200 255
0.428100 0.391965 0.088631 0 200 255
0.419582 0.260828 0.162081 0 200 255
0.368056 0.244051 0.148506 0 200 255
0.333413 0.265842 0.135869 0 200 255
0.463099 0.377092 0.160177 0 200 255
0.420610 0.394365 0.103865 0 200 255
0.409496 0.322641 0.153943 0 200 255
0.449553 0.255018 0.181232 0 200 255
0.352421 0.277379 0.119672 0 200 255
0.451047 0.287710 0.190156 0 200 255
0.374551 0.331946 0.166244 0 200 255
0.433393 0.269033 0.179320 0 200 255
0.445249 0.241057 0.175133 0 200 255
0.443722 0.334346 0.179272 0 200 255
0.433941 0.340130 0.172712 0 200 255
0.436458 0.383814 0.102279 0 200 255
0.460756 0.361817 0.164892 0 200 255
0.443041 0.347887 0.159402 0 200 255
0.402287 0.312605 0.161651 0 200 255
0.383949 0.339986 0.174877 0 200 255
0.411560 0.358564 0.156646 0 200 255
0.433999 0.355613 0.148689 0 200 255
0.433588 0.264068 0.145522 0 200 255
0.426922 0.363681 0.133122 0 200 255
0.453009 0.261804 0.153210 0 200 255
0.466207 0.367959 0.174609 0 200 255
0.437544 0.253595 0.169944 0 200 255
0.418581 0.365321 0.098929 0 200 255
0.478449 0.247431 0.183021 0 200 255
0.361539 0.361995 0.113126 0 200 255
0.465631 0.334207 0.150423 0 200 255
0.448178 0.256002 0.144571 0 200 255
0.423469 0.386956 0.102346 0 200 255
0.447221 0.286746 0.147581 0 200 255
0.445895 0.307282 0.153391 0 200 255
0.342230 0.360340 0.107458 0 200 255
0.326073 0.295845 0.125761 0 200 255
0.400689 0.307141 0.150626 0 200 255
0.435203 0.399010 0.106055 0 200 255
0.446978 0.365669 0.149077 0 200 255
0.434876 0.314595 0.185538 0 200 255
0.344772 0.263613 0.150347 0 200 255
0.394519 0.242900 0.151089 0 200 255
0.401382 0.314383 0.172891 0 200 255
0.457057 0.353044 0.164548 0 200 255
0.442156 0.283693 0.183304 0 200 255
0.456684 0.400999 0.114954 0 200 255
0.444376 0.324266 0.190595 0 200 255
0.398259 0.308597 0.179079 0 200 255
0.435711 0.361922 0.167204 0 200 255
0.392005 0.265452 0.139591 0 200 255
0.463742 0.377955 0.148815 0 200 255
0.441798 0.379314 0.150051 0 200 255
0.422222 0.388908 0.118865 0 200 255
0.412677 0.360241 0.088010 0 200 255
0.357117 0.345930 0.145209 0 200 255
0.375756 0.243032 0.140685 0 200 255
0.428812 0.395032 0.114901 0 200 255
0.426318 0.353268 0.169445 0 200 255
0.337324 0.282806 0.113108 0 200 255
0.399663 0.256385 0.124526 0 200 255
0.429892 0.359401 0.102114 0 200 255
0.445236 0.363245 0.167470 0 200 255
0.355298 0.267432 0.131738 0 200 255
0.409713 0.368571 0.125437 0 200 255
0.493769 0.308889 0.164721 0 200 255
0.356775 0.368823 0.116964 0 200 255
0.337059 0.271687 0.115920 0 200 255
0.470116 0.352897 0.174534 0 200 255
0.366831 0.347127 0.153487 0 200 255
0.374589 0.272234 0.144043 0 200 255
0.394120 0.256800 0.158137 0 200 255
0.352596 0.352003 0.118473 0 200 255
0.420216 0.259337 0.146752 0 200 255
0.360665 0.358335 0.144826 0 200 255
0.412847 0.355713 0.132300 0 200 255
0.447311 0.403641 0.129980 0 200 255
0.451055 0.343564 0.163244 0 200 255
0.432719 0.261161 0.182239 0 200 255
0.432158 0.389372 0.151461 0 200 255
0.472070 0.338368 0.168116 0 200 255
0.420054 0.367105 0.087438 0 200 255
0.420263 0.369139 0.149095 0 200 255
0.425312 0.336236 0.187990 0 200 255
0.422490 0.287739 0.151526 0 200 255
0.455551 0.275572 0.143251 0 200 255
0.413538 0.356469 0.121770 0 200 255
0.335014 0.278530 0.125515 0 200 255
0.376444 0.343468 0.137673 0 200 255
0.377286 0.332012 0.151467 0 200 255
0.483007 0.280864 0.155261 0 200 255
0.430971 0.354379 0.091101 0 200 255
0.439548 0.320338 0.149549 0 200 255
0.320389 0.296738 0.135609 0 200 255
0.436657 0.396010 0.096003 0 200 255
0.416866 0.342748 0.176229 0 200 255
0.408510 0.309178 0.176407 0 200 255
0.390453 0.242216 0.128172 0 200 255
0.417235 0.365993 0.135390 0 200 255
0.468450 0.311227 0.189487 0 200 255
0.386942 0.253287 0.120750 0 200 255
0.445235 0.316805 0.154683 0 200 255
0.489094 0.286818 0.146490 0 200 255
0.428628 0.388423 0.140597 0 200 255
0.409672 0.245158 0.149348 0 200 255
0.390532 0.250319 0.153335 0 200 255
0.455344 0.389005 0.157760 0 200 255
0.427065 0.317761 0.148605 0 200 255
0.327358 0.284792 0.116440 0 200 255
0.428444 0.346159 0.139462 0 200 255
0.410358 0.363344 0.112211 0 200 255
0.419208 0.269939 0.148270 0 200 255
0.361089 0.258542 0.131906 0 200 255
0.348302 0.352472 0.133561 0 200 255
0.417256 0.328397 0.176618 0 200 255
0.428802 0.398403 0.128240 0 200 255
0.454845 0.405035 0.099473 0 200 255
0.410095 0.327856 0.170075 0 200 255
0.446840 0.263465 0.165644 0 200 255
0.446643 0.388784 0.099739 0 200 255
0.413707 0.350942 0.158086 0 200 255
0.366370 0.251367 0.124391 0 200 255
0.401698 0.251806 0.143614 0 200 255
0.420115 0.329344 0.165990 0 200 255
0.423510 0.364482 0.156573 0 200 255
0.447578 0.236826 0.161467 0 200 255
0.342952 0.357666 0.124206 0 200 255
0.462062 0.337088 0.177640 0 200 255
0.355504 0.347980 0.131709 0 200 255
0.481205 0.261007 0.176341 0 200 255
0.451433 0.391731 0.110625 0 200 255
0.430802 0.376662 0.161835 0 200 255
0.347292 0.368882 0.123077 0 200 255
0.461811 0.253916 0.137801 0 200 255
0.453884 0.293380 0.182184 0 200 255
0.405531 0.316121 0.187670 0 200 255
0.464911 0.243733 0.180336 0 200 255
0.385481 0.346079 0.149784 0 200 255
0.365035 0.339314 0.155036 0 200 255
0.408168 0.263100 0.159996 0 200 255
0.389028 0.265090 0.124484 0 200 255
0.428133 0.359313 0.145102 0 200 255
0.478246 0.263017 0.158358 0 200 255
0.440394 0.395980 0.129243 0 200 255
0.329493 0.287111 0.140105 0 200 255
0.350862 0.359937 0.127211 0 200 255
0.481899 0.269126 0.164448 0 200 255
0.395878 0.324096 0.181993 0 200 255
0.374457 0.346165 0.167576 0 200 255
0.469461 0.258426 0.167166 0 200 255
0.442586 0.396283 0.108345 0 200 255
0.482327 0.272926 0.180139 0 200 255
0.411984 0.374470 0.113758 0 200 255
0.337354 0.291487 0.129652 0 200 255
0.355423 0.246863 0.142298 0 200 255
0.400764 0.242381 0.143616 0 200 255
0.379458 0.348434 0.162403 0 200 255
0.417365 0.362630 0.142652 0 200 255
0.455035 0.378838 0.156353 0 200 255
0.434650 0.324571 0.190326 0 200 255
0.373057 0.346003 0.157794 0 200 255
0.459425 0.333692 0.166997 0 200 255
0.433703 0.382058 0.140668 0 200 255
0.359749 0.256789 0.153522 0 200 255
0.490844 0.275876 0.166483 0 200 255
0.326223 0.304101 0.125672 0 200 255
0.426788 0.382527 0.153740 0 200 255
0.431508 0.377748 0.126909 0 200 255
0.418057 0.328022 0.156026 0 200 255
0.439337 0.339138 0.164959 0 200 255
0.444253 0.386741 0.119022 0 200 255
0.342383 0.257603 0.141734 0 200 255
0.384932 0.326888 0.153495 0 200 255
0.457271 0.375669 0.135509 0 200 255
0.340340 0.371701 0.108519 0 200 255
0.452236 0.398348 0.091074 0 200 255
0.467332 0.337308 0.189009 0 200 255
0.416213 0.249963 0.162382 0 200 255
0.376201 0.270499 0.121211 0 200 255
0.426950 0.258999 0.154325 0 200 255
0.340476 0.277626 0.119232 0 200 255
0.335998 0.296970 0.117960 0 200 255
0.459677 0.367342 0.169688 0 200 255
0.446187 0.389100 0.148071 0 200 255
0.442882 0.396739 0.119179 0 200 255
0.406326 0.262490 0.146497 0 200 255
0.388571 0.340849 0.169194 0 200 255
0.454820 0.364282 0.142814 0 200 255
0.353768 0.357066 0.142304 0 200 255
0.408326 0.283096 0.155809 0 200 255
0.466108 0.252117 0.181223 0 200 255
0.444847 0.249226 0.159493 0 200 255
0.368095 0.272311 0.137420 0 200 255
0.327959 0.279186 0.142247 0 200 255
0.469382 0.259503 0.159261 0 200 255
0.447535 0.401941 0.139988 0 200 255
0.339887 0.371535 0.101158 0 200 255
0.430192 0.354936 0.133875 0 200 255
0.427860 0.276684 0.142631 0 200 255
0.457502 0.347017 0.170678 0 200 255
0.439605 0.272256 0.160403 0 200 255
0.428400 0.269716 0.155887 0 200 255
0.414332 0.282147 0.183191 0 200 255
0.367531 0.252963 0.155881 0 200 255
0.372368 0.334311 0.158112 0 200 255
0.431016 0.398638 0.136409 0 200 255
0.481892 0.307456 0.184625 0 200 255
0.478322 0.344325 0.184182 0 200 255
0.444711 0.342062 0.184887 0 200 255
0.456655 0.243236 0.177896 0 200 255
0.355886 0.353920 0.154397 0 200 255
0.468608 0.363043 0.152250 0 200 255
0.435895 0.348447 0.161914 0 200 255
0.417794 0.368541 0.108513 0 200 255
0.420918 0.359388 0.126135 0 200 255
0.450468 0.344095 0.173870 0 200 255
0.478803 0.346395 0.171535 0 200 255
0.413165 0.331337 0.188400 0 200 255
0.327062 0.288347 0.132359 0 200 255
0.463312 0.343951 0.184314 0 200 255
0.448344 0.402999 0.119469 0 200 255
0.436110 0.294175 0.188432 0 200 255
0.473819 0.309650 0.150282 0 200 255
0.488051 0.321848 0.181473 0 200 255
0.361036 0.252970 0.138655 0 200 255
0.446742 0.246560 0.168979 0 200 255
0.394021 0.248902 0.136465 0 200 255
0.373196 0.267941 0.155094 0 200 255
0.420740 0.348686 0.082733 0 200 255
0.327200 0.295089 0.114677 0 200 255
0.358225 0.266582 0.139081 0 200 255
0.436398 0.309582 0.147576 0 200 255
0.471758 0.273369 0.145428 0 200 255
0.437359 0.275157 0.180964 0 200 255
0.336131 0.268242 0.145770 0 200 255
0.387814 0.337372 0.147111 0 200 255
0.405966 0.287296 0.163396 0 200 255
0.458726 0.334997 0.192227 0 200 255
0.375207 0.251996 0.146368 0 200 255
0.441294 0.381650 0.139718 0 200 255
0.349216 0.269740 0.137365 0 200 255
0.351851 0.251824 0.130399 0 200 255
0.407254 0.320737 0.181994 0 200 255
0.447805 0.376845 0.158417 0 200 255
0.364576 0.266234 0.154155 0 200 255
0.320297 0.298211 0.122390 0 200 255
0.382516 0.250047 0.128970 0 200 255
0.422502 0.358236 0.102398 0 200 255
0.480804 0.327207 0.155572 0 200 255
0.363796 0.344852 0.161498 0 200 255
0.452150 0.332169 0.158022 0 200 255
0.448259 0.381977 0.137058 0 200 255
0.452799 0.360954 0.160748 0 200 255
0.428907 0.386209 0.130770 0 200 255
0.435316 0.327347 0.171380 0 200 255
0.432191 0.333055 0.175221 0 200 255
0.466293 0.370777 0.145863 0 200 255
0.487812 0.324934 0.154743 0 200 255
0.472355 0.254612 0.145569 0 200 255
0.457968 0.382126 0.162158 0 200 255
0.395517 0.336581 0.174538 0 200 255
0.445758 0.369464 0.143297 0 200 255
0.418130 0.357332 0.154566 0 200 255
0.333267 0.299208 0.136577 0 200 255
0.415462 0.261885 0.156537 0 200 255
0.402019 0.333970 0.162343 0 200 255
0.400561 0.244793 0.131401 0 200 255
0.434054 0.392351 0.124940 0 200 255
0.327466 0.279175 0.129599 0 200 255
0.397238 0.268412 0.157597 0 200 255
0.421592 0.347701 0.089571 0 200 255
0.481349 0.267673 0.171820 0 200 255
0.412570 0.272006 0.150808 0 200 255
0.399091 0.316731 0.166251 0 200 255
0.427133 0.399925 0.119540 0 200 255
0.409592 0.312772 0.158622 0 200 255
0.494006 0.299789 0.175363 0 200 255
0.434652 0.307717 0.184665 0 200 255
0.464336 0.290227 0.147804 0 200 255
0.393750 0.241570 0.143890 0 200 255
0.384703 0.327490 0.161624 0 200 255
0.427224 0.378527 0.132627 0 200 255
0.391395 0.321341 0.166068 0 200 255
0.434801 0.334126 0.188184 0 200 255
0.484601 0.271103 0.152043 0 200 255
0.427351 0.322111 0.162171 0 200 255
0.421240 0.322034 0.189791 0 200 255
0.346689 0.271641 0.127394 0 200 255
0.401656 0.260568 0.132617 0 200 255
0.365931 0.355660 0.139418 0 200 255
0.442952 0.352749 0.154559 0 200 255
0.399314 0.318173 0.185629 0 200 255
0.425296 0.363641 0.119446 0 200 255
0.352553 0.271145 0.123630 0 200 255
0.383462 0.270114 0.126235 0 200 255
0.348979 0.369285 0.130920 0 200 255
0.397591 0.315540 0.178796 0 200 255
0.439652 0.359127 0.172994 0 200 255
0.422102 0.375441 0.124601 0 200 255
0.486279 0.329276 0.171104 0 200 255
0.380355 0.244059 0.125653 0 200 255
0.436543 0.368322 0.135064 0 200 255
0.377826 0.334607 0.141396 0 200 255
0.467420 0.286056 0.185173 0 200 255
0.444266 0.236124 0.168899 0 200 255
0.447258 0.387363 0.156814 0 200 255
0.362330 0.264095 0.146387 0 200 255
0.390597 0.337857 0.159678 0 200 255
0.458134 0.396933 0.103839 0 200 255
0.426975 0.281551 0.181892 0 200 255
0.332483 0.273776 0.121395 0 200 255
0.475474 0.285398 0.146994 0 200 255
0.351952 0.363960 0.105252 0 200 255
0.377263 0.246365 0.156235 0 200 255
0.355587 0.355003 0.125930 0 200 255
0.461208 0.263386 0.159337 0 200 255
0.431738 0.387828 0.099561 0 200 255
0.420626 0.357090 0.166836 0 200 255
0.420344 0.357508 0.112757 0 200 255
0.427046 0.401175 0.095572 0 200 255
0.482807 0.337244 0.155587 0 200 255
0.411045 0.275248 0.164559 0 200 255
0.427701 0.372566 0.137191 0 200 255
0.407849 0.278625 0.170451 0 200 255
0.347085 0.362362 0.121374 0 200 255
0.430672 0.255371 0.162174 0 200 255
0.429845 0.366024 0.146055 0 200 255
0.455086 0.255493 0.148885 0 200 255
0.351380 0.267799 0.149852 0 200 255
0.407900 0.285464 0.148176 0 200 255
0.484512 0.254512 0.161964 0 200 255
0.475437 0.345309 0.165715 0 200 255
0.430292 0.284740 0.143053 0 200 255
0.374364 0.258249 0.157182 0 200 255
0.412436 0.358441 0.105798 0 200 255
0.437353 0.377924 0.162484 0 200 255
0.416905 0.252923 0.146014 0 200 255
0.398353 0.317187 0.151962 0 200 255
0.339873 0.290651 0.116161 0 200 255
0.354801 0.359105 0.113230 0 200 255
0.440397 0.245191 0.162423 0 200 255
0.446209 0.274573 0.157633 0 200 255
0.456092 0.339391 0.175731 0 200 255
0.414876 0.249069 0.153562 0 200 255
0.362923 0.246558 0.120079 0 200 255
0.345694 0.290515 0.121429 0 200 255
0.424450 0.380504 0.145745 0 200 255
0.413299 0.369613 0.098809 0 200 255
0.463719 0.265341 0.152235 0 200 255
0.407340 0.322888 0.174209 0 200 255
0.426269 0.255612 0.146894 0 200 255
0.438580 0.383237 0.154392 0 200 255
0.336990 0.273445 0.140679 0 200 255
0.351164 0.372741 0.103064 0 200 255
0.372229 0.256877 0.121231 0 200 255
0.477686 0.341754 0.153865 0 200 255
0.413846 0.318340 0.166510 0 200 255
0.416686 0.312649 0.186479 0 200 255
0.408715 0.295272 0.184112 0 200 255
0.459939 0.247591 0.137299 0 200 255
0.432269 0.345450 0.156693 0 200 255
0.339341 0.277010 0.130590 0 200 255
0.403921 0.308030 0.182444 0 200 255
0.458773 0.319694 0.189936 0 200 255
0.437674 0.359059 0.142631 0 200 255
0.435621 0.388226 0.139291 0 200 255
0.476123 0.263401 0.171617 0 200 255
0.455172 0.269249 0.145112 0 200 255
0.435560 0.367853 0.171851 0 200 255
0.435902 0.274254 0.148177 0 200 255
0.444415 0.329945 0.187241 0 200 255
0.424748 0.382702 0.111153 0 200 255
0.485536 0.261609 0.166875 0 200 255
0.407401 0.256583 0.149378 0 200 255
0.458970 0.373321 0.172433 0 200 255
0.348477 0.268130 0.114542 0 200 255
0.339288 0.297877 0.132184 0 200 255
0.381474 0.329671 0.167806 0 200 255
0.449788 0.273737 0.145793 0 200 255
0.457310 0.271604 0.186766 0 200 255
0.381960 0.271416 0.146768 0 200 255
0.381238 0.336830 0.169824 0 200 255
0.339160 0.287898 0.138160 0 200 255
0.440448 0.338890 0.175888 0 200 255
0.451981 0.368035 0.172095 0 200 255
0.361903 0.269441 0.120504 0 200 255
0.486672 0.298012 0.182841 0 200 255
0.476340 0.261269 0.180701 0 200 255
0.453533 0.396778 0.131484 0 200 255
0.452145 0.391864 0.145737 0 200 255
0.425245 0.366311 0.125672 0 200 255
0.466969 0.368400 0.159140 0 200 255
0.338217 0.363231 0.111720 0 200 255
0.449820 0.401811 0.111366 0 200 255
0.436884 0.289124 0.148049 0 200 255
0.364828 0.356820 0.128116 0 200 255
0.471769 0.300210 0.186152 0 200 255
0.432883 0.284201 0.181268 0 200 255
0.344332 0.261471 0.124114 0 200 255
0.418620 0.298432 0.187100 0 200 255
0.396951 0.309008 0.160794 0 200 255
0.446765 0.406556 0.098648 0 200 255
0.458821 0.395009 0.116226 0 200 255
0.401485 0.267347 0.149857 0 200 255
0.448028 0.375500 0.136858 0 200 255
0.391724 0.250160 0.123813 0 200 255
0.416811 0.274908 0.179062 0 200 255
0.450295 0.339601 0.158183 0 200 255
0.423130 0.390592 0.095852 0 200 255
0.445027 0.362217 0.142600 0 200 255
0.363950 0.352286 0.150182 0 200 255
0.433567 0.380028 0.112336 0 200 255
0.328983 0.272968 0.134474 0 200 255
0.398939 0.251347 0.128494 0 200 255
0.432972 0.376080 0.152436 0 200 255
0.381599 0.260006 0.119375 0 200 255
0.451167 0.393326 0.099050 0 200 255
0.395523 0.256743 0.141529 0 200 255
0.484194 0.291730 0.183190 0 200 255
0.383060 0.265915 0.138628 0 200 255
0.439041 0.335097 0.159951 0 200 255
0.464776 0.353634 0.159864 0 200 255
0.457610 0.386124 0.129840 0 200 255
0.377771 0.272284 0.151553 0 200 255
0.460518 0.372130 0.163324 0 200 255
0.421250 0.370530 0.115190 0 200 255
0.444999 0.271908 0.186344 0 200 255
0.442603 0.251608 0.166532 0 200 255
0.403259 0.294844 0.162886 0 200 255
0.463647 0.358552 0.153521 0 200 255
