ply
format ascii 1.0
element vertex 1024
property float x
property float y
property float z
property uchar red
property uchar green
property uchar blue
end_header
0.442147 0.333269 0.155741 0 200 255
0.325305 0.269673 0.102994 0 200 255
0.332313 0.380210 0.115617 0 200 255
0.428105 0.399458 0.074159 0 200 255
0.417575 0.241840 0.125886 0 200 255
0.489175 0.253523 0.173527 0 200 255
0.371542 0.336921 0.155469 0 200 255
0.427931 0.335046 0.067825 0 200 255
0.455657 0.392253 0.132919 0 200 255
0.431366 0.275777 0.176487 0 200 255
0.493700 0.305071 0.138226 0 200 255
0.362292 0.247094 0.141118 0 200 255
0.413907 0.360855 0.114859 0 200 255
0.405164 0.302913 0.138789 0 200 255
0.455940 0.270523 0.135400 0 200 255
0.469538 0.302299 0.178540 0 200 255
0.485073 0.343543 0.160335 0 200 255
0.450714 0.236063 0.165853 0 200 255
0.405618 0.323955 0.174873 0 200 255
0.458811 0.384070 0.094388 0 200 255
0.383924 0.253398 0.108748 0 200 255
0.360623 0.356416 0.124761 0 200 255
0.398454 0.264298 0.147952 0 200 255
0.432553 0.368047 0.148257 0 200 255
0.427428 0.393795 0.110329 0 200 255
0.349760 0.243278 0.107604 0 200 255
0.487107 0.250212 0.138292 0 200 255
0.469389 0.359809 0.133431 0 200 255
0.450956 0.305800 0.136324 0 200 255
0.497631 0.286370 0.165950 0 200 255
0.349514 0.272770 0.125297 0 200 255
0.426606 0.362470 0.084588 0 200 255
0.434736 0.311905 0.179112 0 200 255
0.428715 0.255071 0.152546 0 200 255
0.423562 0.335076 0.130374 0 200 255
0.461169 0.266271 0.179044 0 200 255
0.390514 0.234321 0.138154 0 200 255
0.443513 0.368761 0.116912 0 200 255
0.428581 0.282668 0.134726 0 200 255
0.408358 0.294508 0.170611 0 200 255
0.472443 0.330309 0.136463 0 200 255
0.461547 0.337425 0.177580 0 200 255
0.397857 0.331414 0.143838 0 200 255
0.494643 0.315311 0.167921 0 200 255
0.459957 0.368633 0.159412 0 200 255
0.460595 0.242481 0.135766 0 200 255
0.489544 0.277073 0.141416 0 200 255
0.417844 0.346391 0.155220 0 200 255
0.369708 0.232369 0.120344 0 200 255
0.419519 0.318895 0.153527 0 200 255
0.433644 0.345499 0.108635 0 200 255
0.452659 0.393222 0.071230 0 200 255
0.336988 0.361622 0.132253 0 200 255
0.466751 0.255226 0.157361 0 200 255
0.381537 0.348207 0.135873 0 200 255
0.378192 0.262983 0.130531 0 200 255
0.443613 0.350765 0.135080 0 200 255
0.445879 0.302184 0.159812 0 200 255
0.361439 0.357932 0.149141 0 200 255
0.340151 0.250168 0.128561 0 200 255
0.451584 0.400512 0.110340 0 200 255
0.472420 0.294235 0.138900 0 200 255
0.429711 0.386127 0.133047 0 200 255
0.469676 0.243226 0.182247 0 200 255
0.349542 0.266566 0.102462 0 200 255
0.416849 0.276066 0.156292 0 200 255
0.463114 0.343974 0.152689 0 200 255
0.405497 0.259648 0.117524 0 200 255
0.448341 0.271505 0.156988 0 200 255
0.410048 0.242410 0.149206 0 200 255
0.437052 0.382257 0.088345 0 200 255
0.341404 0.360020 0.110331 0 200 255
0.420089 0.341359 0.088152 0 200 255
0.428188 0.337011 0.172791 0 200 255
0.463942 0.377366 0.118246 0 200 255
0.327425 0.271698 0.125438 0 200 255
0.398744 0.237170 0.115393 0 200 255
0.427239 0.309565 0.135164 0 200 255
0.399298 0.311283 0.158267 0 200 255
0.416397 0.357164 0.136217 0 200 255
0.450070 0.292496 0.179354 0 200 255
0.481390 0.273652 0.175355 0 200 255
0.441931 0.257735 0.171878 0 200 255
0.481109 0.329247 0.175940 0 200 255
0.449617 0.372521 0.136949 0 200 255
0.390852 0.336856 0.163338 0 200 255
0.451039 0.402792 0.089656 0 200 255
0.361711 0.254710 0.120023 0 200 255
0.449487 0.329371 0.136813 0 200 255
0.415659 0.258951 0.137374 0 200 255
0.489483 0.322449 0.149588 0 200 255
0.455139 0.318196 0.179188 0 200 255
0.416849 0.351651 0.070702 0 200 255
0.419472 0.393546 0.091981 0 200 255
0.380627 0.251622 0.147486 0 200 255
0.447538 0.250020 0.148848 0 200 255
0.484850 0.262988 0.156597 0 200 255
0.335173 0.255377 0.110691 0 200 255
0.363046 0.341288 0.139165 0 200 255
0.338450 0.281674 0.108878 0 200 255
0.470692 0.258289 0.134478 0 200 255
0.426294 0.375869 0.115275 0 200 255
0.427508 0.293458 0.172469 0 200 255
0.443240 0.387115 0.119892 0 200 255
0.447038 0.357334 0.152808 0 200 255
0.437036 0.267630 0.140770 0 200 255
0.413163 0.356322 0.095765 0 200 255
0.380174 0.329798 0.140044 0 200 255
0.429988 0.357428 0.122368 0 200 255
0.498011 0.301654 0.156833 0 200 255
0.445860 0.343258 0.171625 0 200 255
0.428661 0.361645 0.102505 0 200 255
0.465490 0.376178 0.143916 0 200 255
0.464931 0.285443 0.172849 0 200 255
0.430297 0.350708 0.059315 0 200 255
0.349696 0.370118 0.123217 0 200 255
0.417469 0.310137 0.176305 0 200 255
0.472184 0.276413 0.138618 0 200 255
0.407924 0.292231 0.152442 0 200 255
0.472870 0.311333 0.135645 0 200 255
0.473206 0.357342 0.159195 0 200 255
0.455393 0.287718 0.135869 0 200 255
0.482489 0.343411 0.140994 0 200 255
0.434318 0.348233 0.079254 0 200 255
0.432988 0.344790 0.147156 0 200 255
0.483869 0.294082 0.172382 0 200 255
0.349721 0.352035 0.138267 0 200 255
0.402993 0.245932 0.134191 0 200 255
0.418017 0.344677 0.114979 0 200 255
0.407727 0.330345 0.157234 0 200 255
0.435322 0.397779 0.094820 0 200 255
0.355015 0.260174 0.134304 0 200 255
0.455969 0.250901 0.177552 0 200 255
0.382769 0.237091 0.111841 0 200 255
0.374167 0.236058 0.141163 0 200 255
0.425273 0.378909 0.099404 0 200 255
0.368348 0.246757 0.107650 0 200 255
0.444608 0.384059 0.104113 0 200 255
0.475616 0.344424 0.173985 0 200 255
0.413118 0.281358 0.138999 0 200 255
0.425576 0.260753 0.167243 0 200 255
0.328328 0.364938 0.119144 0 200 255
0.394289 0.258639 0.129896 0 200 255
0.406626 0.318230 0.142894 0 200 255
0.322628 0.281321 0.113778 0 200 255
0.383172 0.346783 0.151536 0 200 255
0.438732 0.319354 0.142357 0 200 255
0.498498 0.288194 0.147898 0 200 255
0.423433 0.322795 0.168441 0 200 255
0.389564 0.323298 0.154228 0 200 255
0.446735 0.275020 0.178570 0 200 255
0.425189 0.384320 0.078672 0 200 255
0.425078 0.330803 0.145132 0 200 255
0.381150 0.242409 0.128935 0 200 255
0.441266 0.293800 0.135187 0 200 255
0.428679 0.370801 0.132154 0 200 255
0.455996 0.361432 0.126294 0 200 255
0.331227 0.370074 0.104261 0 200 255
0.395054 0.248401 0.151034 0 200 255
0.460769 0.359003 0.146556 0 200 255
0.479866 0.314147 0.175039 0 200 255
0.444376 0.328832 0.175786 0 200 255
0.456914 0.330694 0.157235 0 200 255
0.494609 0.274642 0.157010 0 200 255
0.433367 0.270352 0.156605 0 200 255
0.355936 0.365614 0.136076 0 200 255
0.435140 0.342503 0.124566 0 200 255
0.414944 0.262074 0.151783 0 200 255
0.431155 0.349080 0.094050 0 200 255
0.351140 0.241647 0.122162 0 200 255
0.489292 0.290944 0.136529 0 200 255
0.346719 0.352184 0.122973 0 200 255
0.339094 0.264236 0.132443 0 200 255
0.441129 0.396992 0.080341 0 200 255
0.369837 0.259517 0.142042 0 200 255
0.494270 0.252938 0.150516 0 200 255
0.417977 0.277040 0.171497 0 200 255
0.412856 0.308776 0.162883 0 200 255
0.422723 0.246136 0.143212 0 200 255
0.455884 0.262757 0.147317 0 200 255
0.458407 0.388105 0.109351 0 200 255
0.347951 0.257207 0.118044 0 200 255
0.336896 0.268543 0.115520 0 200 255
0.430204 0.355690 0.138374 0 200 255
0.418249 0.298048 0.140054 0 200 255
0.368251 0.357101 0.136461 0 200 255
0.472625 0.258554 0.180777 0 200 255
0.452904 0.383427 0.081071 0 200 255
0.461877 0.321313 0.136098 0 200 255
0.349498 0.244002 0.136715 0 200 255
0.418071 0.344244 0.140775 0 200 255
0.450021 0.236665 0.151002 0 200 255
0.421767 0.358329 0.148821 0 200 255
0.359769 0.265380 0.111682 0 200 255
0.433253 0.345100 0.160738 0 200 255
0.421587 0.342252 0.102139 0 200 255
0.375413 0.259652 0.117725 0 200 255
0.417821 0.256660 0.122082 0 200 255
0.435307 0.321671 0.155905 0 200 255
0.396091 0.250254 0.113663 0 200 255
0.476443 0.259634 0.146653 0 200 255
0.344983 0.254015 0.101026 0 200 255
0.472539 0.352811 0.144688 0 200 255
0.435428 0.254299 0.140671 0 200 255
0.489619 0.331905 0.165203 0 200 255
0.447979 0.305684 0.178643 0 200 255
0.438250 0.378577 0.140528 0 200 255
0.466539 0.325040 0.178189 0 200 255
0.453673 0.249807 0.164483 0 200 255
0.372689 0.337900 0.130640 0 200 255
0.423321 0.388016 0.121486 0 200 255
0.370646 0.350028 0.154426 0 200 255
0.475183 0.338405 0.153415 0 200 255
0.331879 0.258681 0.122934 0 200 255
0.386107 0.264692 0.140800 0 200 255
0.437002 0.287382 0.179074 0 200 255
0.452645 0.383985 0.142509 0 200 255
0.363739 0.243775 0.126689 0 200 255
0.414432 0.356214 0.082591 0 200 255
0.485190 0.330928 0.138721 0 200 255
0.337586 0.270532 0.099085 0 200 255
0.424296 0.334064 0.160835 0 200 255
0.456599 0.396171 0.099263 0 200 255
0.402017 0.234329 0.128618 0 200 255
0.386804 0.232010 0.123794 0 200 255
0.412628 0.308678 0.149695 0 200 255
0.450444 0.340558 0.143173 0 200 255
0.338084 0.374978 0.126027 0 200 255
0.458232 0.354597 0.158597 0 200 255
0.449189 0.398177 0.122800 0 200 255
0.463883 0.347918 0.169963 0 200 255
0.494114 0.301777 0.171026 0 200 255
0.452307 0.372664 0.149529 0 200 255
0.434230 0.357290 0.155104 0 200 255
0.428489 0.356833 0.070496 0 200 255
0.384786 0.239640 0.148095 0 200 255
0.416202 0.331779 0.173615 0 200 255
0.390922 0.341827 0.142074 0 200 255
0.465397 0.376335 0.130737 0 200 255
0.446723 0.274967 0.144963 0 200 255
0.343847 0.372365 0.109646 0 200 255
0.444186 0.258417 0.157606 0 200 255
0.416495 0.348172 0.126973 0 200 255
0.425654 0.265132 0.145432 0 200 255
0.458833 0.255516 0.137433 0 200 255
0.334960 0.280649 0.121057 0 200 255
0.445375 0.384319 0.131879 0 200 255
0.451036 0.378456 0.114862 0 200 255
0.420128 0.342902 0.062176 0 200 255
0.402726 0.311832 0.170179 0 200 255
0.421627 0.320556 0.135765 0 200 255
0.357023 0.255640 0.104663 0 200 255
0.458152 0.394287 0.084302 0 200 255
0.460998 0.298825 0.138992 0 200 255
0.407350 0.245838 0.116865 0 200 255
0.440935 0.394199 0.109988 0 200 255
0.477537 0.284888 0.178290 0 200 255
0.443926 0.345564 0.153493 0 200 255
0.419664 0.364122 0.125092 0 200 255
0.461117 0.334739 0.136939 0 200 255
0.436551 0.376166 0.108651 0 200 255
0.480024 0.262460 0.170839 0 200 255
0.435620 0.251799 0.163104 0 200 255
0.480824 0.318131 0.142265 0 200 255
0.358428 0.346176 0.149255 0 200 255
0.450500 0.360013 0.140205 0 200 255
0.496224 0.314078 0.155176 0 200 255
0.435714 0.378070 0.122722 0 200 255
0.407595 0.255744 0.128880 0 200 255
0.402949 0.299726 0.160478 0 200 255
0.419135 0.247344 0.155390 0 200 255
0.452371 0.316162 0.142283 0 200 255
0.457352 0.387895 0.121333 0 200 255
0.352348 0.360748 0.116154 0 200 255
0.465061 0.337906 0.162892 0 200 255
0.380636 0.330794 0.160388 0 200 255
0.443059 0.358116 0.125597 0 200 255
0.405374 0.254439 0.150621 0 200 255
0.357059 0.345442 0.129677 0 200 255
0.397021 0.321532 0.164001 0 200 255
0.418210 0.353383 0.106201 0 200 255
0.438690 0.331265 0.142543 0 200 255
0.439373 0.303309 0.142101 0 200 255
0.445066 0.281933 0.134755 0 200 255
0.420598 0.339156 0.076207 0 200 255
0.402251 0.237008 0.142077 0 200 255
0.348522 0.275962 0.113971 0 200 255
0.390024 0.260543 0.115876 0 200 255
0.417222 0.288263 0.175169 0 200 255
0.431169 0.323059 0.178052 0 200 255
0.362214 0.237565 0.111592 0 200 255
0.427293 0.400606 0.086831 0 200 255
0.446855 0.259818 0.140548 0 200 255
0.453517 0.340364 0.163345 0 200 255
0.471055 0.246516 0.138718 0 200 255
0.469277 0.365913 0.152454 0 200 255
0.467359 0.313552 0.176843 0 200 255
0.458221 0.280991 0.181177 0 200 255
0.488326 0.271383 0.166390 0 200 255
0.397109 0.337512 0.153646 0 200 255
0.429378 0.295238 0.138990 0 200 255
0.491795 0.316787 0.139041 0 200 255
0.487492 0.260537 0.143549 0 200 255
0.368427 0.348781 0.128362 0 200 255
0.408520 0.320055 0.162296 0 200 255
0.402384 0.262811 0.137264 0 200 255
0.395241 0.319630 0.144943 0 200 255
0.424837 0.364404 0.114851 0 200 255
0.442465 0.367723 0.154237 0 200 255
0.458320 0.300842 0.180202 0 200 255
0.450280 0.328065 0.148310 0 200 255
0.413608 0.326563 0.146376 0 200 255
0.363992 0.236770 0.136039 0 200 255
0.323148 0.269421 0.114196 0 200 255
0.364979 0.254430 0.130952 0 200 255
0.419928 0.365503 0.095809 0 200 255
0.374416 0.246511 0.117285 0 200 255
0.445497 0.400635 0.100738 0 200 255
0.419611 0.271212 0.137996 0 200 255
0.485284 0.332442 0.152857 0 200 255
0.447699 0.385003 0.092879 0 200 255
0.337279 0.358437 0.121176 0 200 255
0.392758 0.241498 0.124278 0 200 255
0.433708 0.393365 0.119597 0 200 255
0.431998 0.339396 0.136348 0 200 255
0.344730 0.369302 0.134721 0 200 255
0.323846 0.373280 0.113259 0 200 255
0.435542 0.343349 0.069329 0 200 255
0.341900 0.247806 0.117839 0 200 255
0.355492 0.263495 0.123242 0 200 255
0.432786 0.386470 0.102532 0 200 255
0.466121 0.367233 0.124436 0 200 255
0.435390 0.388207 0.076834 0 200 255
0.371317 0.335676 0.143866 0 200 255
0.480668 0.283475 0.138715 0 200 255
0.452526 0.402276 0.078754 0 200 255
0.401195 0.305828 0.148618 0 200 255
0.419527 0.396053 0.080615 0 200 255
0.446663 0.244171 0.158306 0 200 255
0.490808 0.251282 0.162995 0 200 255
0.374864 0.352562 0.143821 0 200 255
0.429951 0.339383 0.083700 0 200 255
0.420123 0.391801 0.102615 0 200 255
0.448338 0.375719 0.124929 0 200 255
0.422995 0.351892 0.087470 0 200 255
0.447917 0.264368 0.179280 0 200 255
0.425299 0.380805 0.088806 0 200 255
0.443508 0.324996 0.162431 0 200 255
0.429760 0.340061 0.058527 0 200 255
0.329126 0.279616 0.102266 0 200 255
0.456600 0.369433 0.119370 0 200 255
0.468168 0.339714 0.143060 0 200 255
0.428763 0.339914 0.116172 0 200 255
0.489378 0.323889 0.172048 0 200 255
0.377558 0.232771 0.131233 0 200 255
0.378904 0.342591 0.160424 0 200 255
0.454370 0.350682 0.147357 0 200 255
0.473345 0.344375 0.163470 0 200 255
0.436704 0.266845 0.175062 0 200 255
0.354954 0.249514 0.127959 0 200 255
0.384831 0.337989 0.134452 0 200 255
0.336217 0.259723 0.100951 0 200 255
0.380557 0.244131 0.139226 0 200 255
0.433366 0.384445 0.114149 0 200 255
0.413564 0.248105 0.138626 0 200 255
0.440026 0.352117 0.144779 0 200 255
0.439984 0.301214 0.173696 0 200 255
0.437548 0.337688 0.166653 0 200 255
0.349268 0.360895 0.128037 0 200 255
0.374715 0.258040 0.107489 0 200 255
0.399582 0.325989 0.152526 0 200 255
0.417786 0.322166 0.177111 0 200 255
0.463363 0.309330 0.139155 0 200 255
0.394984 0.244293 0.141202 0 200 255
0.476028 0.266253 0.160834 0 200 255
0.425136 0.379223 0.126555 0 200 255
0.492626 0.322434 0.160026 0 200 255
0.457612 0.240809 0.176405 0 200 255
0.456502 0.246755 0.145076 0 200 255
0.457902 0.293343 0.172800 0 200 255
0.444541 0.394791 0.091497 0 200 255
0.411007 0.237168 0.132608 0 200 255
0.486692 0.284343 0.173538 0 200 255
0.440653 0.368451 0.142063 0 200 255
0.459920 0.355571 0.133649 0 200 255
0.422785 0.384335 0.109014 0 200 255
0.428324 0.304005 0.178666 0 200 255
0.467998 0.278228 0.180556 0 200 255
0.484074 0.302065 0.139004 0 200 255
0.372020 0.247853 0.143644 0 200 255
0.391123 0.257403 0.148827 0 200 255
0.446266 0.319394 0.172848 0 200 255
0.486874 0.289920 0.146238 0 200 255
0.411937 0.312763 0.136352 0 200 255
0.342712 0.263329 0.109215 0 200 255
0.456866 0.257704 0.159198 0 200 255
0.462350 0.383211 0.137512 0 200 255
0.495823 0.297009 0.143775 0 200 255
0.423296 0.354342 0.097634 0 200 255
0.480231 0.302496 0.176389 0 200 255
0.464225 0.283040 0.135758 0 200 255
0.433666 0.330602 0.160546 0 200 255
0.420302 0.338813 0.149200 0 200 255
0.408792 0.237285 0.121919 0 200 255
0.451185 0.296193 0.138968 0 200 255
0.407891 0.293359 0.139148 0 200 255
0.349207 0.361290 0.141927 0 200 255
0.417640 0.363262 0.105683 0 200 255
0.345123 0.253887 0.136271 0 200 255
0.444196 0.288168 0.172357 0 200 255
0.468522 0.368780 0.138126 0 200 255
0.329495 0.263461 0.109569 0 200 255
0.455047 0.345911 0.173864 0 200 255
0.425616 0.264423 0.155525 0 200 255
0.388683 0.328482 0.145972 0 200 255
0.438450 0.255619 0.150191 0 200 255
0.348040 0.257891 0.127860 0 200 255
0.472595 0.267697 0.177394 0 200 255
0.429403 0.369191 0.122005 0 200 255
0.468451 0.292677 0.179462 0 200 255
0.473150 0.335484 0.176831 0 200 255
0.443592 0.387652 0.083649 0 200 255
0.464719 0.261827 0.143449 0 200 255
0.485110 0.270251 0.150212 0 200 255
0.434858 0.275316 0.134436 0 200 255
0.487809 0.308688 0.174421 0 200 255
0.373082 0.233936 0.111443 0 200 255
0.472957 0.348927 0.154490 0 200 255
0.410862 0.303134 0.175828 0 200 255
0.431156 0.354794 0.109105 0 200 255
0.432430 0.351510 0.129551 0 200 255
0.424847 0.255503 0.142760 0 200 255
0.447759 0.366702 0.128206 0 200 255
0.417197 0.347403 0.079942 0 200 255
0.377623 0.243815 0.107316 0 200 255
0.478165 0.269116 0.136837 0 200 255
0.344732 0.265878 0.120573 0 200 255
0.377455 0.331469 0.150301 0 200 255
0.426271 0.398000 0.097888 0 200 255
0.424691 0.361473 0.132774 0 200 255
0.417997 0.316802 0.143762 0 200 255
0.389710 0.242526 0.133271 0 200 255
0.370594 0.243059 0.133268 0 200 255
0.425932 0.283592 0.176368 0 200 255
0.423482 0.344156 0.162502 0 200 255
0.414946 0.351711 0.145642 0 200 255
0.384733 0.337943 0.154435 0 200 255
0.338771 0.272412 0.123910 0 200 255
0.494354 0.295485 0.162951 0 200 255
0.406241 0.318572 0.152292 0 200 255
0.457307 0.395908 0.116400 0 200 255
0.356730 0.356476 0.133846 0 200 255
0.387439 0.245056 0.113612 0 200 255
0.494211 0.306599 0.149804 0 200 255
0.433205 0.349795 0.117957 0 200 255
0.420582 0.338850 0.121842 0 200 255
0.433792 0.398382 0.105239 0 200 255
0.467774 0.268517 0.136248 0 200 255
0.439650 0.269660 0.149721 0 200 255
0.359278 0.245952 0.105554 0 200 255
0.433980 0.378177 0.096150 0 200 255
0.383225 0.261737 0.122792 0 200 255
0.450499 0.388674 0.114229 0 200 255
0.416734 0.324252 0.161080 0 200 255
0.410720 0.316416 0.172967 0 200 255
0.460269 0.368914 0.146524 0 200 255
0.399378 0.330430 0.162940 0 200 255
0.436519 0.389041 0.127286 0 200 255
0.478579 0.252645 0.140879 0 200 255
0.412585 0.278818 0.164210 0 200 255
0.435731 0.363440 0.118351 0 200 255
0.481952 0.338750 0.170389 0 200 255
0.495892 0.277534 0.148097 0 200 255
0.437817 0.335283 0.176381 0 200 255
0.335962 0.377198 0.107715 0 200 255
0.408770 0.286266 0.145483 0 200 255
0.425372 0.350359 0.145955 0 200 255
0.362733 0.350543 0.139799 0 200 255
0.403121 0.250696 0.142547 0 200 255
0.455642 0.362443 0.153318 0 200 255
0.421876 0.356757 0.077294 0 200 255
0.454175 0.382198 0.133183 0 200 255
0.475172 0.267516 0.151821 0 200 255
0.441518 0.391607 0.099998 0 200 255
0.348449 0.253222 0.109873 0 200 255
0.467109 0.335068 0.150861 0 200 255
0.430139 0.358235 0.093075 0 200 255
0.434063 0.311583 0.142242 0 200 255
0.340891 0.375914 0.117447 0 200 255
0.464341 0.349222 0.143287 0 200 255
0.342406 0.272164 0.107252 0 200 255
0.365467 0.258371 0.111074 0 200 255
0.449706 0.391439 0.105290 0 200 255
0.471241 0.361754 0.144338 0 200 255
0.376891 0.264507 0.139344 0 200 255
0.406066 0.246972 0.125762 0 200 255
0.367474 0.262796 0.133250 0 200 255
0.426438 0.268080 0.172438 0 200 255
0.441131 0.349244 0.162174 0 200 255
0.474600 0.321043 0.177480 0 200 255
0.450700 0.350226 0.160841 0 200 255
0.421104 0.356751 0.120146 0 200 255
0.497558 0.289295 0.157304 0 200 255
0.454476 0.342646 0.154727 0 200 255
0.467917 0.323433 0.142371 0 200 255
0.355335 0.250866 0.136807 0 200 255
0.342058 0.366776 0.126468 0 200 255
0.356862 0.365264 0.125490 0 200 255
0.371009 0.255256 0.124407 0 200 255
0.451112 0.245033 0.171965 0 200 255
0.426599 0.314845 0.176901 0 200 255
0.382942 0.240915 0.120090 0 200 255
0.462924 0.255586 0.180550 0 200 255
0.430373 0.373980 0.141989 0 200 255
0.442313 0.380714 0.113680 0 200 255
0.365472 0.339604 0.149555 0 200 255
0.353888 0.353711 0.145934 0 200 255
0.332891 0.367279 0.126391 0 200 255
0.417370 0.268227 0.160405 0 200 255
0.343324 0.354352 0.132584 0 200 255
0.479358 0.350860 0.162945 0 200 255
0.356054 0.257448 0.113277 0 200 255
0.436089 0.380218 0.131392 0 200 255
0.443169 0.338711 0.147863 0 200 255
0.446795 0.334747 0.164596 0 200 255
0.330774 0.363824 0.110497 0 200 255
0.406302 0.331446 0.147292 0 200 255
0.461145 0.386512 0.129101 0 200 255
0.433616 0.297051 0.179025 0 200 255
0.459949 0.376751 0.150703 0 200 255
0.439622 0.361864 0.147713 0 200 255
0.432007 0.369851 0.112684 0 200 255
0.422978 0.290828 0.135122 0 200 255
0.432894 0.360757 0.129840 0 200 255
0.434229 0.395472 0.085962 0 200 255
0.433541 0.339502 0.154005 0 200 255
0.496081 0.285174 0.140139 0 200 255
0.432137 0.353559 0.085735 0 200 255
0.414716 0.357066 0.126003 0 200 255
0.429104 0.268161 0.137341 0 200 255
0.476452 0.337262 0.142576 0 200 255
0.449008 0.283488 0.177817 0 200 255
0.461854 0.253548 0.145352 0 200 255
0.422967 0.351707 0.063768 0 200 255
0.400778 0.242044 0.148913 0 200 255
0.330345 0.373640 0.120787 0 200 255
0.368514 0.233417 0.129554 0 200 255
0.444499 0.390229 0.075517 0 200 255
0.434167 0.260186 0.156728 0 200 255
0.416908 0.316057 0.164845 0 200 255
0.451715 0.380175 0.098679 0 200 255
0.416201 0.348390 0.096697 0 200 255
0.409420 0.263589 0.145448 0 200 255
0.350972 0.264308 0.111106 0 200 255
0.351943 0.247299 0.114917 0 200 255
0.360747 0.238794 0.120447 0 200 255
0.364720 0.248206 0.115413 0 200 255
0.348027 0.265697 0.131276 0 200 255
0.421840 0.283816 0.139822 0 200 255
0.331012 0.283976 0.112270 0 200 255
0.402061 0.261163 0.125409 0 200 255
0.392597 0.234364 0.129519 0 200 255
0.411231 0.283031 0.156992 0 200 255
0.431809 0.271437 0.146226 0 200 255
0.478111 0.345756 0.147819 0 200 255
0.406059 0.304023 0.168952 0 200 255
0.439965 0.384255 0.096167 0 200 255
0.374842 0.352728 0.133499 0 200 255
0.444614 0.399285 0.115578 0 200 255
0.455105 0.239330 0.141395 0 200 255
0.391505 0.331315 0.155812 0 200 255
0.426672 0.390127 0.072796 0 200 255
0.363008 0.255357 0.139501 0 200 255
0.346143 0.367416 0.116114 0 200 255
0.448475 0.364774 0.146808 0 200 255
0.356211 0.270070 0.117654 0 200 255
0.448052 0.259661 0.148839 0 200 255
0.450450 0.388960 0.125952 0 200 255
0.431124 0.320038 0.148841 0 200 255
0.466920 0.262583 0.153374 0 200 255
0.413468 0.253772 0.152637 0 200 255
0.457085 0.395520 0.124768 0 200 255
0.408283 0.254876 0.137170 0 200 255
0.451032 0.263725 0.158455 0 200 255
0.485667 0.252878 0.146354 0 200 255
0.410569 0.326171 0.168517 0 200 255
0.491824 0.292323 0.170607 0 200 255
0.463217 0.247581 0.175113 0 200 255
0.366157 0.350044 0.147401 0 200 255
0.431543 0.363889 0.138137 0 200 255
0.430564 0.357532 0.078511 0 200 255
0.339786 0.260544 0.116594 0 200 255
0.434032 0.347437 0.139388 0 200 255
0.492294 0.260718 0.153826 0 200 255
0.458071 0.325636 0.177149 0 200 255
0.378095 0.233362 0.123025 0 200 255
0.322370 0.275968 0.120038 0 200 255
0.424189 0.300530 0.134910 0 200 255
0.458112 0.289223 0.180908 0 200 255
0.460440 0.389018 0.101422 0 200 255
0.430725 0.349777 0.102228 0 200 255
0.457127 0.389190 0.077012 0 200 255
0.427844 0.378531 0.135508 0 200 255
0.355997 0.345651 0.137789 0 200 255
0.406349 0.310067 0.142602 0 200 255
0.363073 0.360889 0.131181 0 200 255
0.454128 0.236003 0.158435 0 200 255
0.429109 0.379135 0.107137 0 200 255
0.455848 0.327069 0.142450 0 200 255
0.422783 0.339568 0.110670 0 200 255
0.452233 0.277747 0.135264 0 200 255
0.396763 0.318456 0.155430 0 200 255
0.345064 0.360590 0.120357 0 200 255
0.390219 0.333661 0.139929 0 200 255
0.443411 0.253295 0.164748 0 200 255
0.484267 0.250113 0.178992 0 200 255
0.390098 0.342250 0.150170 0 200 255
0.371811 0.244960 0.125495 0 200 255
0.391437 0.238199 0.112063 0 200 255
0.452565 0.403017 0.097635 0 200 255
0.408181 0.290205 0.160233 0 200 255
0.327907 0.275586 0.109128 0 200 255
0.446829 0.397915 0.074731 0 200 255
0.342604 0.279391 0.118210 0 200 255
0.438492 0.315573 0.173025 0 200 255
0.422042 0.387173 0.096143 0 200 255
0.428834 0.336577 0.075659 0 200 255
0.407087 0.306200 0.157930 0 200 255
0.358725 0.359808 0.140873 0 200 255
0.439077 0.373416 0.148166 0 200 255
0.352778 0.238981 0.113669 0 200 255
0.365338 0.341083 0.130494 0 200 255
0.413491 0.279917 0.146863 0 200 255
0.426750 0.325850 0.161848 0 200 255
0.421860 0.360997 0.141300 0 200 255
0.430276 0.384697 0.123864 0 200 255
0.382624 0.236601 0.140843 0 200 255
0.423789 0.338737 0.140083 0 200 255
0.421227 0.388800 0.085827 0 200 255
0.403089 0.325367 0.143014 0 200 255
0.350459 0.351662 0.129987 0 200 255
0.452730 0.262097 0.135693 0 200 255
0.452977 0.389325 0.097455 0 200 255
0.441645 0.268064 0.159540 0 200 255
0.454443 0.310181 0.179703 0 200 255
0.346241 0.243518 0.128130 0 200 255
0.424897 0.349575 0.108166 0 200 255
0.416176 0.249018 0.120711 0 200 255
0.471235 0.356964 0.151323 0 200 255
0.458889 0.380042 0.112748 0 200 255
0.454941 0.388482 0.089057 0 200 255
0.457191 0.283820 0.173392 0 200 255
0.460505 0.346328 0.159793 0 200 255
0.454534 0.260048 0.178690 0 200 255
0.382577 0.259169 0.146098 0 200 255
0.422982 0.261925 0.137842 0 200 255
0.493020 0.277694 0.167175 0 200 255
0.452756 0.270236 0.146889 0 200 255
0.480138 0.258804 0.178338 0 200 255
0.452750 0.382720 0.108170 0 200 255
0.496539 0.307481 0.161952 0 200 255
0.421174 0.257230 0.151584 0 200 255
0.328051 0.376551 0.107426 0 200 255
0.431768 0.349043 0.154089 0 200 255
0.449672 0.388966 0.136836 0 200 255
0.426571 0.325353 0.139562 0 200 255
0.443513 0.376789 0.133138 0 200 255
0.491161 0.262537 0.161384 0 200 255
0.432205 0.350112 0.066905 0 200 255
0.414479 0.353116 0.115995 0 200 255
0.457520 0.313637 0.136218 0 200 255
0.491579 0.324047 0.141922 0 200 255
0.375070 0.250703 0.110733 0 200 255
0.432312 0.260618 0.144029 0 200 255
0.455839 0.396265 0.091488 0 200 255
0.377151 0.341834 0.151333 0 200 255
0.411459 0.254648 0.117874 0 200 255
0.438972 0.362429 0.158748 0 200 255
0.392293 0.263656 0.136193 0 200 255
0.443584 0.317219 0.136675 0 200 255
0.422747 0.299155 0.176265 0 200 255
0.327685 0.265830 0.119377 0 200 255
0.423054 0.321908 0.146690 0 200 255
0.430212 0.357009 0.146017 0 200 255
0.464294 0.353056 0.163182 0 200 255
0.475359 0.258989 0.158206 0 200 255
0.398581 0.259564 0.114059 0 200 255
0.432847 0.382735 0.081664 0 200 255
0.442247 0.340155 0.159247 0 200 255
0.417789 0.359214 0.088868 0 200 255
0.425959 0.328288 0.175779 0 200 255
0.387251 0.246825 0.146742 0 200 255
0.339678 0.277452 0.102346 0 200 255
0.344028 0.261447 0.099202 0 200 255
0.336827 0.252762 0.122105 0 200 255
0.465296 0.356565 0.139104 0 200 255
0.415774 0.313236 0.157180 0 200 255
0.399252 0.313174 0.147363 0 200 255
0.392305 0.240324 0.149543 0 200 255
0.425561 0.345890 0.083422 0 200 255
0.449713 0.327701 0.155953 0 200 255
0.384571 0.346073 0.142774 0 200 255
0.457872 0.395430 0.106788 0 200 255
0.396553 0.233156 0.123072 0 200 255
0.416388 0.348049 0.087546 0 200 255
0.433407 0.399860 0.079647 0 200 255
0.448986 0.251229 0.156553 0 200 255
0.475766 0.251697 0.181963 0 200 255
0.384793 0.234440 0.132991 0 200 255
0.351768 0.271681 0.107659 0 200 255
0.464275 0.275265 0.135983 0 200 255
0.431303 0.251389 0.146358 0 200 255
0.484110 0.276001 0.136214 0 200 255
0.424547 0.332507 0.153402 0 200 255
0.451570 0.382061 0.122273 0 200 255
0.407852 0.241912 0.140607 0 200 255
0.419001 0.344396 0.070148 0 200 255
0.337349 0.257499 0.128054 0 200 255
0.454052 0.361963 0.133800 0 200 255
0.427065 0.256838 0.160930 0 200 255
0.397417 0.235899 0.135155 0 200 255
0.441542 0.277749 0.140192 0 200 255
0.450583 0.353715 0.134902 0 200 255
0.475749 0.323508 0.136167 0 200 255
0.487690 0.335183 0.144458 0 200 255
0.455315 0.372595 0.141924 0 200 255
0.442393 0.394263 0.122167 0 200 255
0.468197 0.250683 0.133110 0 200 255
0.478002 0.246372 0.135809 0 200 255
0.474901 0.274552 0.179482 0 200 255
0.423989 0.332386 0.168592 0 200 255
0.405436 0.300269 0.153402 0 200 255
0.368276 0.356856 0.145028 0 200 255
0.435278 0.289301 0.134594 0 200 255
0.385915 0.325473 0.160633 0 200 255
0.387679 0.342910 0.159217 0 200 255
0.439530 0.260693 0.139215 0 200 255
0.394753 0.261480 0.122976 0 200 255
0.374117 0.333904 0.136814 0 200 255
0.464234 0.371412 0.153926 0 200 255
0.429599 0.384250 0.096130 0 200 255
0.480963 0.346414 0.168750 0 200 255
0.345385 0.360921 0.135475 0 200 255
0.377225 0.244026 0.147387 0 200 255
0.350083 0.251070 0.121721 0 200 255
0.337284 0.367132 0.108980 0 200 255
0.363389 0.348352 0.154456 0 200 255
0.341167 0.251018 0.106673 0 200 255
0.402316 0.240915 0.121444 0 200 255
0.352416 0.248273 0.102778 0 200 255
0.439475 0.386869 0.110626 0 200 255
0.419201 0.269361 0.167518 0 200 255
0.381758 0.259779 0.111870 0 200 255
0.367320 0.259468 0.119085 0 200 255
0.460532 0.252850 0.154104 0 200 255
0.475276 0.291357 0.175471 0 200 255
0.371759 0.241782 0.112238 0 200 255
0.416365 0.348388 0.134881 0 200 255
0.468377 0.343003 0.174562 0 200 255
0.426008 0.271679 0.154149 0 200 255
0.446982 0.400932 0.083459 0 200 255
0.445770 0.270587 0.139101 0 200 255
0.398134 0.255813 0.150503 0 200 255
0.351777 0.368568 0.130106 0 200 255
0.355379 0.256648 0.126254 0 200 255
0.354842 0.351432 0.124099 0 200 255
0.494860 0.283297 0.152527 0 200 255
0.334793 0.265674 0.105002 0 200 255
0.368538 0.241595 0.142060 0 200 255
0.430955 0.337918 0.128471 0 200 255
0.433958 0.344413 0.087223 0 200 255
0.455779 0.241359 0.166040 0 200 255
0.467058 0.285486 0.180293 0 200 255
0.449074 0.355583 0.145856 0 200 255
0.485918 0.320924 0.137662 0 200 255
0.418894 0.261730 0.145653 0 200 255
0.412465 0.358842 0.103064 0 200 255
0.448065 0.393679 0.130973 0 200 255
0.438806 0.388932 0.090702 0 200 255
0.345410 0.372931 0.128447 0 200 255
0.462291 0.273817 0.179593 0 200 255
0.447665 0.381016 0.137942 0 200 255
0.424011 0.360968 0.108330 0 200 255
0.456591 0.240131 0.148465 0 200 255
0.469247 0.367006 0.130991 0 200 255
0.416873 0.289117 0.139914 0 200 255
0.452996 0.243083 0.154922 0 200 255
0.335381 0.265031 0.126271 0 200 255
0.424920 0.248637 0.151223 0 200 255
0.471254 0.349622 0.171451 0 200 255
0.364175 0.252470 0.106126 0 200 255
0.414275 0.325997 0.154503 0 200 255
0.407497 0.313171 0.160315 0 200 255
0.490042 0.270213 0.144921 0 200 255
0.437563 0.284837 0.172333 0 200 255
0.351035 0.259372 0.103136 0 200 255
0.441975 0.250817 0.154266 0 200 255
0.418395 0.366594 0.112449 0 200 255
0.376266 0.346556 0.130049 0 200 255
0.478168 0.307874 0.139107 0 200 255
0.423615 0.305369 0.172708 0 200 255
0.492556 0.315150 0.146020 0 200 255
0.423827 0.354408 0.133895 0 200 255
0.428954 0.394840 0.091996 0 200 255
0.459543 0.381165 0.143821 0 200 255
0.434656 0.373810 0.134802 0 200 255
0.487323 0.269590 0.158043 0 200 255
0.425345 0.385788 0.102379 0 200 255
0.478514 0.315785 0.135845 0 200 255
0.449632 0.396487 0.096575 0 200 255
0.424482 0.346949 0.057405 0 200 255
0.472307 0.246854 0.176639 0 200 255
0.358464 0.245520 0.133187 0 200 255
0.438398 0.249684 0.146168 0 200 255
0.435488 0.344179 0.131528 0 200 255
0.448165 0.365646 0.135561 0 200 255
0.439580 0.274901 0.178624 0 200 255
0.329889 0.273710 0.098300 0 200 255
0.410275 0.287795 0.169043 0 200 255
0.434979 0.341482 0.076209 0 200 255
0.377649 0.348408 0.155772 0 200 255
0.447003 0.363408 0.157678 0 200 255
0.402477 0.253580 0.114304 0 200 255
0.419758 0.340012 0.157801 0 200 255
0.437860 0.326027 0.176604 0 200 255
0.461759 0.289001 0.138835 0 200 255
0.345940 0.355643 0.115286 0 200 255
0.477384 0.290795 0.135097 0 200 255
0.428477 0.392157 0.101694 0 200 255
0.342331 0.357704 0.126277 0 200 255
0.325541 0.282989 0.107488 0 200 255
0.332310 0.260159 0.115227 0 200 255
0.449408 0.357781 0.129168 0 200 255
0.402131 0.316567 0.164110 0 200 255
0.435085 0.252601 0.155696 0 200 255
0.423652 0.382162 0.117314 0 200 255
0.482118 0.340003 0.153159 0 200 255
0.393077 0.336551 0.147123 0 200 255
0.442340 0.379738 0.120753 0 200 255
0.460938 0.266529 0.138480 0 200 255
0.474770 0.262319 0.138667 0 200 255
0.322012 0.276286 0.105245 0 200 255
0.397726 0.336954 0.160709 0 200 255
0.372257 0.343940 0.158362 0 200 255
0.462670 0.362855 0.152560 0 200 255
0.468557 0.253771 0.176681 0 200 255
0.440268 0.355746 0.151197 0 200 255
0.416889 0.242387 0.142018 0 200 255
0.452238 0.250632 0.141053 0 200 255
0.443488 0.294782 0.180259 0 200 255
0.366441 0.248290 0.135436 0 200 255
0.454927 0.349651 0.154863 0 200 255
0.488204 0.280202 0.147555 0 200 255
0.400059 0.244483 0.114035 0 200 255
0.405435 0.253382 0.121232 0 200 255
0.446320 0.302852 0.140670 0 200 255
0.390260 0.234402 0.118217 0 200 255
0.384002 0.336953 0.161996 0 200 255
0.459656 0.391091 0.094193 0 200 255
0.450623 0.387168 0.074183 0 200 255
0.392152 0.264816 0.144275 0 200 255
0.459191 0.353491 0.140478 0 200 255
0.469366 0.287980 0.138806 0 200 255
0.440821 0.306204 0.135940 0 200 255
0.401706 0.305850 0.163846 0 200 255
0.383105 0.233688 0.117890 0 200 255
0.490909 0.328167 0.156500 0 200 255
0.498237 0.301717 0.165434 0 200 255
0.421440 0.313377 0.135305 0 200 255
0.443764 0.324153 0.136909 0 200 255
0.438507 0.308636 0.172964 0 200 255
0.404672 0.326181 0.164351 0 200 255
0.484503 0.335062 0.159229 0 200 255
0.433924 0.392381 0.112298 0 200 255
0.442482 0.336974 0.171458 0 200 255
0.449007 0.381738 0.086917 0 200 255
0.335433 0.359978 0.114692 0 200 255
0.477988 0.256838 0.135412 0 200 255
0.425316 0.345546 0.095125 0 200 255
0.450357 0.243601 0.144995 0 200 255
0.385354 0.262832 0.129267 0 200 255
0.374914 0.239201 0.117805 0 200 255
0.426299 0.362504 0.126144 0 200 255
0.446011 0.345836 0.143265 0 200 255
0.433134 0.313974 0.135844 0 200 255
0.444012 0.363391 0.121198 0 200 255
0.357624 0.244359 0.123026 0 200 255
0.421927 0.352005 0.140229 0 200 255
0.435575 0.389520 0.096770 0 200 255
0.424867 0.393066 0.117088 0 200 255
0.328895 0.277751 0.122545 0 200 255
0.456414 0.395979 0.077713 0 200 255
0.428470 0.343149 0.077581 0 200 255
0.390084 0.256002 0.110743 0 200 255
0.343427 0.271342 0.128813 0 200 255
0.435290 0.259305 0.171336 0 200 255
0.376617 0.258243 0.142078 0 200 255
0.419522 0.251416 0.138208 0 200 255
0.432969 0.393823 0.073804 0 200 255
0.396438 0.242401 0.129949 0 200 255
0.361388 0.250384 0.125905 0 200 255
0.412256 0.307167 0.140209 0 200 255
0.450036 0.377832 0.143748 0 200 255
0.449721 0.372565 0.119075 0 200 255
0.384089 0.326989 0.152637 0 200 255
0.458804 0.354282 0.151761 0 200 255
0.454780 0.400847 0.103823 0 200 255
0.342560 0.257653 0.123726 0 200 255
0.449690 0.339178 0.175424 0 200 255
0.454399 0.361159 0.145842 0 200 255
0.459587 0.339108 0.159109 0 200 255
0.427254 0.344132 0.142221 0 200 255
0.418876 0.346114 0.148552 0 200 255
0.451154 0.292147 0.172702 0 200 255
0.450584 0.329486 0.178333 0 200 255
0.432987 0.305278 0.140143 0 200 255
0.423379 0.366476 0.104247 0 200 255
0.463562 0.380773 0.126024 0 200 255
0.421779 0.355374 0.126696 0 200 255
0.387018 0.330965 0.164351 0 200 255
0.490452 0.254883 0.157329 0 200 255
0.440434 0.397308 0.103650 0 200 255
0.454357 0.343695 0.147647 0 200 255
0.369946 0.355211 0.129564 0 200 255
0.430607 0.288625 0.175946 0 200 255
0.421800 0.338032 0.066481 0 200 255
0.344045 0.247430 0.133290 0 200 255
0.435584 0.280877 0.178236 0 200 255
0.378757 0.340527 0.131765 0 200 255
0.339590 0.274339 0.112928 0 200 255
0.491321 0.298052 0.138928 0 200 255
0.438359 0.371786 0.113522 0 200 255
0.436379 0.384911 0.121124 0 200 255
0.418038 0.360816 0.130679 0 200 255
0.443238 0.374820 0.142926 0 200 255
0.403451 0.247881 0.150787 0 200 255
0.392462 0.326620 0.161363 0 200 255
0.485324 0.341270 0.146654 0 200 255
0.486692 0.262900 0.170798 0 200 255
0.434918 0.363377 0.152452 0 200 255
0.407325 0.311404 0.153757 0 200 255
0.432359 0.333289 0.143089 0 200 255
0.426877 0.337175 0.123251 0 200 255
0.464287 0.297562 0.177670 0 200 255
0.437772 0.348865 0.150132 0 200 255
0.418043 0.344691 0.108330 0 200 255
0.369405 0.238600 0.122613 0 200 255
0.388499 0.244102 0.139604 0 200 255
0.462072 0.384023 0.118727 0 200 255
0.419497 0.357944 0.112784 0 200 255
0.355919 0.251971 0.117433 0 200 255
0.433694 0.338922 0.063731 0 200 255
0.355490 0.265694 0.106468 0 200 255
0.386219 0.326358 0.140207 0 200 255
0.468103 0.369705 0.144667 0 200 255
0.456536 0.329830 0.136475 0 200 255
0.466540 0.244282 0.133331 0 200 255
0.474464 0.300525 0.138996 0 200 255
0.446961 0.257370 0.176152 0 200 255
0.432621 0.331265 0.175694 0 200 255
0.427180 0.355293 0.103543 0 200 255
0.496765 0.279544 0.162062 0 200 255
0.441902 0.324430 0.156054 0 200 255
0.491924 0.271111 0.152126 0 200 255
0.447750 0.321418 0.178941 0 200 255
0.351574 0.254485 0.132245 0 200 255
0.481591 0.347005 0.155954 0 200 255
0.432168 0.266500 0.151409 0 200 255
0.421597 0.390096 0.078754 0 200 255
0.330106 0.269421 0.112276 0 200 255
0.457629 0.249080 0.136850 0 200 255
0.353985 0.347289 0.143829 0 200 255
0.403263 0.300123 0.146094 0 200 255
0.424309 0.362288 0.092121 0 200 255
0.412615 0.242715 0.121675 0 200 255
0.377133 0.336433 0.159020 0 200 255
0.421847 0.260800 0.160631 0 200 255
0.455436 0.250882 0.171016 0 200 255
0.403608 0.237902 0.133870 0 200 255
0.424969 0.399689 0.080457 0 200 255
0.451885 0.367049 0.141385 0 200 255
0.487360 0.275212 0.173183 0 200 255
0.372718 0.347146 0.148932 0 200 255
0.455407 0.335191 0.177845 0 200 255
0.354934 0.267167 0.128610 0 200 255
0.402202 0.253946 0.132088 0 200 255
0.455891 0.388186 0.138711 0 200 255
0.484078 0.325644 0.142379 0 200 255
0.373764 0.261903 0.125867 0 200 255
0.432950 0.351741 0.073174 0 200 255
0.441142 0.393178 0.086080 0 200 255
0.441965 0.285972 0.138821 0 200 255
0.436754 0.356697 0.124775 0 200 255
0.372678 0.235511 0.134562 0 200 255
0.478514 0.267555 0.146235 0 200 255
0.485041 0.320345 0.175363 0 200 255
0.429132 0.359555 0.115422 0 200 255
0.441751 0.255576 0.144588 0 200 255
0.443921 0.389850 0.127741 0 200 255
0.446924 0.352394 0.140430 0 200 255
0.337685 0.369717 0.122234 0 200 255
0.358443 0.352912 0.151978 0 200 255
0.344741 0.365478 0.109192 0 200 255
0.413749 0.295715 0.174030 0 200 255
0.335110 0.378039 0.121112 0 200 255
0.425741 0.305702 0.140162 0 200 255
0.352507 0.367575 0.117382 0 200 255
0.424206 0.394930 0.084970 0 200 255
0.457354 0.372387 0.154737 0 200 255
0.352951 0.261864 0.116870 0 200 255
0.433624 0.362993 0.144340 0 200 255
0.342253 0.257365 0.105930 0 200 255
0.463428 0.330516 0.176660 0 200 255
0.460239 0.389354 0.115537 0 200 255
0.439117 0.345735 0.143022 0 200 255
0.444059 0.389953 0.114135 0 200 255
0.357283 0.239680 0.107979 0 200 255
0.345303 0.356151 0.141604 0 200 255
0.431735 0.282077 0.173187 0 200 255
0.434440 0.382953 0.137722 0 200 255
0.402322 0.259235 0.146996 0 200 255
0.402621 0.333842 0.152007 0 200 255
0.478391 0.262013 0.152707 0 200 255
0.466059 0.374674 0.137359 0 200 255
