ply
format ascii 1.0
element vertex 1024
property float x
property float y
property float z
property uchar red
property uchar green
property uchar blue
end_header
0.437039 0.335232 0.165421 0 200 255
0.320402 0.293650 0.113904 0 200 255
0.449664 0.404226 0.086734 0 200 255
0.457225 0.239757 0.180684 0 200 255
0.343521 0.377033 0.099758 0 200 255
0.393976 0.247111 0.121750 0 200 255
0.365634 0.340126 0.157240 0 200 255
0.490114 0.293057 0.146231 0 200 255
0.419402 0.346612 0.079931 0 200 255
0.448927 0.393788 0.148168 0 200 255
0.409171 0.280151 0.172741 0 200 255
0.409311 0.363406 0.129782 0 200 255
0.347429 0.259281 0.144385 0 200 255
0.443929 0.265989 0.138266 0 200 255
0.455266 0.294483 0.185742 0 200 255
0.484470 0.330654 0.174038 0 200 255
0.402231 0.315941 0.148622 0 200 255
0.485102 0.253414 0.151527 0 200 255
0.421185 0.397873 0.114678 0 200 255
0.466974 0.359025 0.152653 0 200 255
0.452820 0.304434 0.142284 0 200 255
0.366862 0.272316 0.114571 0 200 255
0.344292 0.359742 0.133517 0 200 255
0.381244 0.273453 0.149484 0 200 255
0.400272 0.325818 0.184042 0 200 255
0.405588 0.247389 0.154445 0 200 255
0.428457 0.368837 0.158980 0 200 255
0.458447 0.392138 0.116284 0 200 255
0.483562 0.281403 0.176447 0 200 255
0.344961 0.290464 0.134264 0 200 255
0.428800 0.312023 0.186658 0 200 255
0.420812 0.287688 0.139682 0 200 255
0.436539 0.267329 0.182041 0 200 255
0.335818 0.266231 0.114598 0 200 255
0.424847 0.369332 0.102037 0 200 255
0.440061 0.369620 0.129788 0 200 255
0.460102 0.344251 0.186266 0 200 255
0.438535 0.241103 0.154600 0 200 255
0.374563 0.352594 0.131477 0 200 255
0.479984 0.322666 0.145598 0 200 255
0.374505 0.244809 0.145695 0 200 255
0.422223 0.395457 0.086288 0 200 255
0.427745 0.344725 0.139958 0 200 255
0.459696 0.259307 0.160348 0 200 255
0.360062 0.246263 0.122359 0 200 255
0.392742 0.339794 0.160944 0 200 255
0.357038 0.355667 0.110019 0 200 255
0.455416 0.335657 0.145906 0 200 255
0.423001 0.387850 0.139279 0 200 255
0.467296 0.280473 0.142465 0 200 255
0.428317 0.313596 0.148568 0 200 255
0.425487 0.262882 0.159265 0 200 255
0.490152 0.306372 0.168284 0 200 255
0.463017 0.319323 0.184596 0 200 255
0.398247 0.302873 0.174118 0 200 255
0.414904 0.347230 0.169838 0 200 255
0.444010 0.305380 0.166225 0 200 255
0.460757 0.246386 0.139418 0 200 255
0.452496 0.374456 0.165053 0 200 255
0.460585 0.270642 0.182119 0 200 255
0.389148 0.270393 0.126808 0 200 255
0.462717 0.376251 0.134728 0 200 255
0.438883 0.388389 0.102067 0 200 255
0.480252 0.251944 0.174551 0 200 255
0.440435 0.401821 0.127933 0 200 255
0.381218 0.332668 0.141345 0 200 255
0.327871 0.275074 0.136411 0 200 255
0.410435 0.265077 0.140686 0 200 255
0.401301 0.291142 0.151018 0 200 255
0.342201 0.288009 0.112023 0 200 255
0.414489 0.323487 0.166770 0 200 255
0.323364 0.296862 0.135659 0 200 255
0.427574 0.354065 0.119923 0 200 255
0.431345 0.288743 0.183068 0 200 255
0.410158 0.358599 0.151293 0 200 255
0.449606 0.353025 0.169134 0 200 255
0.463578 0.336190 0.166130 0 200 255
0.437737 0.332365 0.186997 0 200 255
0.360366 0.359396 0.148684 0 200 255
0.446752 0.355951 0.146158 0 200 255
0.359832 0.275227 0.136509 0 200 255
0.483865 0.276080 0.156176 0 200 255
0.424391 0.366589 0.081130 0 200 255
0.438171 0.279379 0.152848 0 200 255
0.414108 0.351888 0.099730 0 200 255
0.337841 0.361975 0.112831 0 200 255
0.479680 0.343487 0.155690 0 200 255
0.475352 0.299245 0.180266 0 200 255
0.447603 0.406015 0.106949 0 200 255
0.444281 0.252614 0.170704 0 200 255
0.475133 0.350210 0.173815 0 200 255
0.425863 0.379487 0.119878 0 200 255
0.391320 0.320872 0.167460 0 200 255
0.365135 0.262751 0.151642 0 200 255
0.407956 0.366856 0.110847 0 200 255
0.376049 0.256109 0.118645 0 200 255
0.424919 0.365228 0.140107 0 200 255
0.456920 0.390433 0.097312 0 200 255
0.391599 0.250318 0.140321 0 200 255
0.441824 0.376561 0.147061 0 200 255
0.350769 0.262387 0.126306 0 200 255
0.357127 0.346395 0.132624 0 200 255
0.352580 0.370485 0.120205 0 200 255
0.416848 0.330134 0.149761 0 200 255
0.429581 0.350613 0.157363 0 200 255
0.334033 0.303660 0.122406 0 200 255
0.417937 0.330542 0.183379 0 200 255
0.377279 0.333399 0.169574 0 200 255
0.397894 0.263975 0.153861 0 200 255
0.446491 0.320473 0.150351 0 200 255
0.436092 0.296748 0.140975 0 200 255
0.411902 0.295321 0.182670 0 200 255
0.378053 0.350490 0.149873 0 200 255
0.345474 0.359812 0.096640 0 200 255
0.461244 0.381443 0.151702 0 200 255
0.429446 0.256901 0.140927 0 200 255
0.446835 0.386164 0.131459 0 200 255
0.429611 0.353926 0.091602 0 200 255
0.404403 0.260117 0.125080 0 200 255
0.381233 0.257325 0.154877 0 200 255
0.477228 0.303877 0.145088 0 200 255
0.410601 0.367761 0.093252 0 200 255
0.442125 0.261770 0.154410 0 200 255
0.379570 0.242784 0.129851 0 200 255
0.409243 0.311582 0.185190 0 200 255
0.476127 0.262780 0.162252 0 200 255
0.451501 0.284564 0.140215 0 200 255
0.429650 0.401942 0.099442 0 200 255
0.474937 0.254462 0.137914 0 200 255
0.448403 0.309305 0.186801 0 200 255
0.425215 0.272414 0.143889 0 200 255
0.359143 0.246660 0.138630 0 200 255
0.422394 0.386721 0.099984 0 200 255
0.362298 0.363142 0.130966 0 200 255
0.447742 0.280802 0.181592 0 200 255
0.331287 0.287921 0.124791 0 200 255
0.421895 0.268281 0.175402 0 200 255
0.350183 0.278798 0.124136 0 200 255
0.479422 0.318371 0.183065 0 200 255
0.414553 0.347460 0.131225 0 200 255
0.335310 0.262050 0.130344 0 200 255
0.411298 0.302938 0.146652 0 200 255
0.411293 0.270708 0.159348 0 200 255
0.455575 0.399422 0.133094 0 200 255
0.491963 0.287967 0.164729 0 200 255
0.374869 0.269345 0.133329 0 200 255
0.391267 0.326873 0.152157 0 200 255
0.343444 0.274431 0.143511 0 200 255
0.439626 0.366198 0.169677 0 200 255
0.438802 0.388488 0.117660 0 200 255
0.458835 0.262264 0.140843 0 200 255
0.464921 0.360690 0.169146 0 200 255
0.437904 0.334615 0.150252 0 200 255
0.454199 0.254553 0.182110 0 200 255
0.458298 0.347603 0.157922 0 200 255
0.466463 0.313961 0.142821 0 200 255
0.406505 0.311609 0.162574 0 200 255
0.329489 0.280309 0.110820 0 200 255
0.355819 0.369261 0.104029 0 200 255
0.473864 0.336300 0.182804 0 200 255
0.433780 0.385676 0.088382 0 200 255
0.470212 0.283200 0.182564 0 200 255
0.416529 0.344359 0.153799 0 200 255
0.447028 0.249624 0.146028 0 200 255
0.436158 0.348995 0.173670 0 200 255
0.351998 0.269411 0.112919 0 200 255
0.417120 0.358247 0.071179 0 200 255
0.480197 0.273519 0.141682 0 200 255
0.379861 0.346951 0.163952 0 200 255
0.466200 0.294880 0.140408 0 200 255
0.404811 0.330989 0.158834 0 200 255
0.487324 0.325679 0.160670 0 200 255
0.417293 0.253557 0.148137 0 200 255
0.452153 0.331040 0.185944 0 200 255
0.318376 0.303963 0.123911 0 200 255
0.456094 0.363879 0.138621 0 200 255
0.429682 0.382446 0.152015 0 200 255
0.427570 0.323698 0.160903 0 200 255
0.369295 0.338528 0.136132 0 200 255
0.371042 0.253853 0.135227 0 200 255
0.412900 0.353728 0.118583 0 200 255
0.362791 0.257233 0.113829 0 200 255
0.448593 0.340170 0.174900 0 200 255
0.440627 0.319537 0.181008 0 200 255
0.447265 0.239606 0.166217 0 200 255
0.426722 0.337893 0.175231 0 200 255
0.445237 0.366275 0.156303 0 200 255
0.389950 0.343014 0.147607 0 200 255
0.347061 0.354152 0.120983 0 200 255
0.468785 0.255594 0.181528 0 200 255
0.429305 0.256715 0.173459 0 200 255
0.413671 0.375875 0.125397 0 200 255
0.421470 0.396431 0.128454 0 200 255
0.396591 0.263146 0.139091 0 200 255
0.466794 0.267584 0.151907 0 200 255
0.402519 0.246299 0.132487 0 200 255
0.376318 0.331998 0.154314 0 200 255
0.460746 0.323909 0.150607 0 200 255
0.433862 0.381529 0.132535 0 200 255
0.357301 0.345677 0.148019 0 200 255
0.395315 0.332624 0.173022 0 200 255
0.332801 0.287406 0.139517 0 200 255
0.450581 0.384568 0.107784 0 200 255
0.446579 0.390588 0.088545 0 200 255
0.452214 0.403414 0.120479 0 200 255
0.389719 0.259921 0.118256 0 200 255
0.470899 0.338234 0.146895 0 200 255
0.401048 0.293163 0.165276 0 200 255
0.421751 0.365627 0.116385 0 200 255
0.477755 0.288805 0.149136 0 200 255
0.415194 0.318493 0.143403 0 200 255
0.486912 0.306519 0.153855 0 200 255
0.419137 0.358411 0.161120 0 200 255
0.412398 0.357257 0.083767 0 200 255
0.434549 0.400129 0.112840 0 200 255
0.435723 0.357413 0.138909 0 200 255
0.419315 0.335539 0.164349 0 200 255
0.411800 0.278183 0.141504 0 200 255
0.363890 0.262911 0.125821 0 200 255
0.474463 0.268682 0.173838 0 200 255
0.433466 0.301686 0.180135 0 200 255
0.445129 0.343809 0.186947 0 200 255
0.334870 0.367280 0.100023 0 200 255
0.417364 0.377090 0.109374 0 200 255
0.396488 0.305117 0.153077 0 200 255
0.391811 0.249778 0.155360 0 200 255
0.368070 0.275369 0.146506 0 200 255
0.411472 0.367600 0.142156 0 200 255
0.460841 0.306652 0.183871 0 200 255
0.448644 0.331301 0.161532 0 200 255
0.465774 0.369301 0.145073 0 200 255
0.328072 0.274069 0.123644 0 200 255
0.463848 0.371417 0.160139 0 200 255
0.418590 0.284580 0.181243 0 200 255
0.459365 0.387576 0.139431 0 200 255
0.487294 0.294916 0.174273 0 200 255
0.401981 0.316403 0.175712 0 200 255
0.434310 0.252284 0.158678 0 200 255
0.345021 0.257055 0.116428 0 200 255
0.429475 0.355564 0.077927 0 200 255
0.380156 0.267825 0.116572 0 200 255
0.343827 0.374856 0.112070 0 200 255
0.444168 0.292238 0.178092 0 200 255
0.433984 0.399364 0.087729 0 200 255
0.456262 0.361184 0.159085 0 200 255
0.367806 0.352317 0.157620 0 200 255
0.432859 0.379949 0.108834 0 200 255
0.434597 0.392134 0.139318 0 200 255
0.343236 0.295462 0.122899 0 200 255
0.404409 0.281826 0.158436 0 200 255
0.448544 0.382357 0.156495 0 200 255
0.406774 0.253100 0.141776 0 200 255
0.448776 0.266744 0.182008 0 200 255
0.338884 0.276171 0.131215 0 200 255
0.469684 0.351104 0.161486 0 200 255
0.350150 0.354305 0.143274 0 200 255
0.442022 0.403095 0.096544 0 200 255
0.430637 0.360140 0.149907 0 200 255
0.382473 0.345651 0.137442 0 200 255
0.335330 0.264466 0.142162 0 200 255
0.445569 0.343331 0.153524 0 200 255
0.342275 0.275980 0.110221 0 200 255
0.427605 0.274718 0.158733 0 200 255
0.439575 0.306304 0.147351 0 200 255
0.455318 0.402746 0.097202 0 200 255
0.456512 0.383029 0.125134 0 200 255
0.420065 0.365674 0.151048 0 200 255
0.437974 0.376081 0.158860 0 200 255
0.416959 0.260707 0.167321 0 200 255
0.330880 0.292023 0.108437 0 200 255
0.353466 0.365727 0.138555 0 200 255
0.427562 0.370455 0.129733 0 200 255
0.357386 0.263773 0.138630 0 200 255
0.406774 0.329227 0.174704 0 200 255
0.358739 0.352470 0.122303 0 200 255
0.412975 0.350756 0.142865 0 200 255
0.488221 0.315841 0.175122 0 200 255
0.342195 0.365416 0.123257 0 200 255
0.411225 0.319889 0.155174 0 200 255
0.447067 0.395350 0.111975 0 200 255
0.433084 0.392194 0.127651 0 200 255
0.480059 0.340384 0.167002 0 200 255
0.430253 0.359790 0.166192 0 200 255
0.342158 0.369462 0.090946 0 200 255
0.358302 0.252238 0.148831 0 200 255
0.368086 0.358040 0.139697 0 200 255
0.441886 0.277417 0.139070 0 200 255
0.409637 0.257802 0.157612 0 200 255
0.428201 0.276706 0.180270 0 200 255
0.422265 0.299718 0.145160 0 200 255
0.449152 0.254314 0.160437 0 200 255
0.457600 0.284899 0.177381 0 200 255
0.452606 0.373526 0.130202 0 200 255
0.394381 0.310009 0.165950 0 200 255
0.443333 0.271721 0.159811 0 200 255
0.445463 0.397694 0.138004 0 200 255
0.426308 0.357604 0.101820 0 200 255
0.427149 0.336983 0.152971 0 200 255
0.428073 0.390214 0.109939 0 200 255
0.422904 0.299161 0.183379 0 200 255
0.469760 0.265193 0.140471 0 200 255
0.336019 0.297370 0.134431 0 200 255
0.322633 0.285405 0.131561 0 200 255
0.463292 0.331868 0.186847 0 200 255
0.483838 0.273667 0.168344 0 200 255
0.435598 0.323061 0.150762 0 200 255
0.395231 0.256155 0.130140 0 200 255
0.446932 0.355114 0.157955 0 200 255
0.360074 0.273632 0.123437 0 200 255
0.425776 0.323385 0.186760 0 200 255
0.452456 0.364155 0.169245 0 200 255
0.382773 0.247264 0.118198 0 200 255
0.392608 0.270529 0.146636 0 200 255
0.384127 0.272233 0.138854 0 200 255
0.325918 0.303245 0.114374 0 200 255
0.418483 0.265326 0.149045 0 200 255
0.419859 0.396917 0.103751 0 200 255
0.437064 0.378544 0.122416 0 200 255
0.431228 0.281613 0.143141 0 200 255
0.424586 0.377373 0.143689 0 200 255
0.461416 0.342929 0.175466 0 200 255
0.425439 0.364054 0.091872 0 200 255
0.391523 0.242947 0.132228 0 200 255
0.360762 0.364226 0.116558 0 200 255
0.357301 0.271621 0.146490 0 200 255
0.481677 0.250689 0.163827 0 200 255
0.402636 0.293032 0.176042 0 200 255
0.427911 0.357541 0.131360 0 200 255
0.444074 0.385909 0.142016 0 200 255
0.345236 0.265436 0.135128 0 200 255
0.397249 0.319256 0.157658 0 200 255
0.318207 0.293235 0.125436 0 200 255
0.358388 0.255130 0.130955 0 200 255
0.455739 0.314983 0.143342 0 200 255
0.428734 0.342012 0.164431 0 200 255
0.457503 0.396499 0.106189 0 200 255
0.370840 0.244127 0.123715 0 200 255
0.448978 0.368609 0.146000 0 200 255
0.411590 0.288979 0.145024 0 200 255
0.438053 0.326277 0.171238 0 200 255
0.486230 0.305844 0.178453 0 200 255
0.467029 0.243583 0.182542 0 200 255
0.478643 0.261987 0.145444 0 200 255
0.486404 0.315084 0.161125 0 200 255
0.422837 0.382573 0.130053 0 200 255
0.371525 0.254255 0.149536 0 200 255
0.470951 0.347413 0.183169 0 200 255
0.447752 0.246504 0.178668 0 200 255
0.469941 0.325871 0.144509 0 200 255
0.415872 0.349155 0.089669 0 200 255
0.340599 0.283925 0.121995 0 200 255
0.484063 0.331833 0.152815 0 200 255
0.419556 0.355182 0.110625 0 200 255
0.455392 0.256550 0.151218 0 200 255
0.416359 0.362048 0.100695 0 200 255
0.348669 0.280223 0.134367 0 200 255
0.438551 0.346855 0.163745 0 200 255
0.387645 0.265659 0.154812 0 200 255
0.450822 0.246109 0.136283 0 200 255
0.424620 0.347825 0.128563 0 200 255
0.450271 0.320872 0.187178 0 200 255
0.456805 0.356982 0.148659 0 200 255
0.436838 0.351783 0.149806 0 200 255
0.426100 0.350290 0.170137 0 200 255
0.443169 0.298138 0.186579 0 200 255
0.414806 0.322839 0.177123 0 200 255
0.487324 0.279094 0.146754 0 200 255
0.366884 0.345563 0.128907 0 200 255
0.393483 0.329389 0.161987 0 200 255
0.417976 0.341454 0.140508 0 200 255
0.386171 0.250823 0.127379 0 200 255
0.383535 0.326335 0.163471 0 200 255
0.466881 0.294427 0.183637 0 200 255
0.445328 0.270804 0.147262 0 200 255
0.418541 0.308772 0.141983 0 200 255
0.460198 0.353092 0.174479 0 200 255
0.448911 0.387567 0.119233 0 200 255
0.432426 0.259434 0.151553 0 200 255
0.436429 0.340212 0.178926 0 200 255
0.323735 0.284118 0.118381 0 200 255
0.476382 0.289293 0.177127 0 200 255
0.345398 0.356682 0.108415 0 200 255
0.368642 0.337833 0.146287 0 200 255
0.371126 0.273349 0.124737 0 200 255
0.438303 0.257532 0.178133 0 200 255
0.342457 0.268238 0.125790 0 200 255
0.375756 0.265711 0.153398 0 200 255
0.417054 0.372779 0.135495 0 200 255
0.351580 0.368026 0.094322 0 200 255
0.383611 0.243256 0.141631 0 200 255
0.398751 0.247039 0.146629 0 200 255
0.466930 0.344868 0.153487 0 200 255
0.423294 0.389147 0.121169 0 200 255
0.412556 0.364237 0.120295 0 200 255
0.417313 0.306699 0.179793 0 200 255
0.447743 0.386365 0.097622 0 200 255
0.386983 0.335379 0.167938 0 200 255
0.491026 0.298035 0.162771 0 200 255
0.451322 0.343846 0.164029 0 200 255
0.372020 0.340885 0.165576 0 200 255
0.447825 0.331657 0.151639 0 200 255
0.451982 0.256465 0.136684 0 200 255
0.350892 0.366138 0.128906 0 200 255
0.334812 0.293640 0.117343 0 200 255
0.420768 0.253557 0.157372 0 200 255
0.423873 0.351059 0.071180 0 200 255
0.403883 0.303835 0.182301 0 200 255
0.406655 0.267636 0.149406 0 200 255
0.424116 0.386189 0.090176 0 200 255
0.430373 0.372367 0.149822 0 200 255
0.445242 0.364955 0.137702 0 200 255
0.428171 0.398503 0.121526 0 200 255
0.460614 0.336546 0.154169 0 200 255
0.368263 0.253554 0.124294 0 200 255
0.412374 0.371531 0.103056 0 200 255
0.380448 0.253034 0.145746 0 200 255
0.387224 0.335584 0.153850 0 200 255
0.452290 0.373528 0.154771 0 200 255
0.433658 0.383235 0.143167 0 200 255
0.393569 0.257240 0.146865 0 200 255
0.455727 0.395560 0.089136 0 200 255
0.354178 0.359761 0.101714 0 200 255
0.483151 0.311479 0.144253 0 200 255
0.366265 0.246097 0.132029 0 200 255
0.436623 0.363455 0.159985 0 200 255
0.490252 0.283946 0.154508 0 200 255
0.462297 0.369913 0.169540 0 200 255
0.402060 0.300382 0.146448 0 200 255
0.432735 0.271992 0.150108 0 200 255
0.442523 0.241316 0.144655 0 200 255
0.481870 0.292821 0.141449 0 200 255
0.434653 0.268947 0.162596 0 200 255
0.397028 0.265444 0.122251 0 200 255
0.465505 0.257962 0.135573 0 200 255
0.355693 0.356294 0.131136 0 200 255
0.446149 0.377338 0.136027 0 200 255
0.439690 0.397241 0.105405 0 200 255
0.470337 0.325248 0.185693 0 200 255
0.459275 0.271592 0.139246 0 200 255
0.412383 0.313810 0.175593 0 200 255
0.458024 0.393025 0.126559 0 200 255
0.414128 0.350407 0.160700 0 200 255
0.351521 0.362696 0.115000 0 200 255
0.439034 0.278575 0.184373 0 200 255
0.374896 0.342430 0.156756 0 200 255
0.433033 0.381473 0.099538 0 200 255
0.426585 0.253841 0.164756 0 200 255
0.438667 0.263448 0.145608 0 200 255
0.338008 0.274000 0.119347 0 200 255
0.430248 0.392619 0.082410 0 200 255
0.353431 0.252724 0.121103 0 200 255
0.467631 0.266493 0.163368 0 200 255
0.464117 0.263011 0.178111 0 200 255
0.429094 0.345448 0.149614 0 200 255
0.480055 0.332628 0.161868 0 200 255
0.451436 0.381909 0.147669 0 200 255
0.467554 0.302808 0.145062 0 200 255
0.381554 0.247986 0.153459 0 200 255
0.348856 0.287170 0.118442 0 200 255
0.402527 0.249970 0.123912 0 200 255
0.417542 0.367478 0.127401 0 200 255
0.384953 0.345308 0.156406 0 200 255
0.333672 0.278304 0.142849 0 200 255
0.367053 0.355085 0.126718 0 200 255
0.427350 0.348256 0.084329 0 200 255
0.401819 0.324723 0.151800 0 200 255
0.421352 0.327987 0.170976 0 200 255
0.417110 0.367385 0.086754 0 200 255
0.399652 0.254410 0.154008 0 200 255
0.476802 0.271090 0.153069 0 200 255
0.442811 0.391880 0.125540 0 200 255
0.396720 0.268645 0.131654 0 200 255
0.343888 0.264308 0.110737 0 200 255
0.478012 0.282249 0.140052 0 200 255
0.353563 0.260850 0.115728 0 200 255
0.369757 0.251156 0.114228 0 200 255
0.412357 0.323234 0.185922 0 200 255
0.444455 0.404684 0.115407 0 200 255
0.375607 0.353049 0.140942 0 200 255
0.425476 0.362308 0.073173 0 200 255
0.485628 0.318122 0.151101 0 200 255
0.401634 0.322728 0.169189 0 200 255
0.472570 0.256603 0.173166 0 200 255
0.418149 0.372125 0.096074 0 200 255
0.438549 0.307064 0.185396 0 200 255
0.363912 0.255398 0.140622 0 200 255
0.411821 0.358778 0.092914 0 200 255
0.461414 0.280627 0.184375 0 200 255
0.440261 0.289617 0.185804 0 200 255
0.326440 0.305382 0.127660 0 200 255
0.379812 0.251908 0.135296 0 200 255
0.427156 0.362472 0.109960 0 200 255
0.411440 0.357206 0.107394 0 200 255
0.415583 0.359703 0.144243 0 200 255
0.369173 0.355306 0.149288 0 200 255
0.340763 0.283226 0.140504 0 200 255
0.361122 0.352486 0.138921 0 200 255
0.436641 0.395762 0.097138 0 200 255
0.454976 0.403319 0.111983 0 200 255
0.420798 0.315556 0.184864 0 200 255
0.454945 0.387770 0.153415 0 200 255
0.350795 0.272695 0.138765 0 200 255
0.362268 0.342677 0.139642 0 200 255
0.411055 0.373750 0.117186 0 200 255
0.443080 0.359206 0.164821 0 200 255
0.411089 0.271642 0.171119 0 200 255
0.445263 0.299805 0.141973 0 200 255
0.358714 0.352323 0.153767 0 200 255
0.366137 0.269720 0.131869 0 200 255
0.456936 0.379832 0.159602 0 200 255
0.438270 0.252923 0.150229 0 200 255
0.485329 0.320722 0.168338 0 200 255
0.424800 0.395836 0.095276 0 200 255
0.355490 0.261595 0.147158 0 200 255
0.485930 0.300430 0.143282 0 200 255
0.342313 0.367631 0.107278 0 200 255
0.419901 0.269762 0.156506 0 200 255
0.426657 0.253511 0.148589 0 200 255
0.395684 0.322442 0.177365 0 200 255
0.427825 0.293973 0.140114 0 200 255
0.454298 0.291981 0.143936 0 200 255
0.444817 0.348176 0.174617 0 200 255
0.471698 0.317853 0.148642 0 200 255
0.411966 0.354914 0.127496 0 200 255
0.419168 0.321701 0.152045 0 200 255
0.449732 0.404723 0.128739 0 200 255
0.451332 0.391509 0.139818 0 200 255
0.429182 0.353021 0.142634 0 200 255
0.348936 0.267669 0.146091 0 200 255
0.452999 0.340949 0.182343 0 200 255
0.401576 0.333421 0.167058 0 200 255
0.483541 0.260911 0.155619 0 200 255
0.415621 0.296028 0.140963 0 200 255
0.472618 0.273142 0.181051 0 200 255
0.338405 0.285273 0.130267 0 200 255
0.427608 0.331706 0.185207 0 200 255
0.397645 0.333156 0.154485 0 200 255
0.361154 0.266299 0.117047 0 200 255
0.339377 0.257817 0.122925 0 200 255
0.439351 0.397928 0.120300 0 200 255
0.369927 0.264302 0.113600 0 200 255
0.442560 0.398163 0.087779 0 200 255
0.427479 0.399381 0.108025 0 200 255
0.468690 0.359630 0.161325 0 200 255
0.348967 0.351450 0.135269 0 200 255
0.423787 0.382715 0.108647 0 200 255
0.464221 0.260068 0.148714 0 200 255
0.468398 0.249136 0.136469 0 200 255
0.410019 0.360328 0.137773 0 200 255
0.330275 0.281240 0.130030 0 200 255
0.489250 0.280770 0.168463 0 200 255
0.350463 0.286475 0.127887 0 200 255
0.382797 0.328443 0.148606 0 200 255
0.422568 0.292250 0.178361 0 200 255
0.472940 0.306875 0.183244 0 200 255
0.480877 0.328871 0.181555 0 200 255
0.462616 0.378242 0.143009 0 200 255
0.424075 0.350065 0.096788 0 200 255
0.427031 0.393863 0.134803 0 200 255
0.434842 0.363633 0.132819 0 200 255
0.419858 0.275893 0.179149 0 200 255
0.394473 0.313581 0.152039 0 200 255
0.457114 0.348516 0.168080 0 200 255
0.456323 0.262980 0.182158 0 200 255
0.380821 0.336425 0.162276 0 200 255
0.417267 0.363212 0.078159 0 200 255
0.435414 0.260556 0.159824 0 200 255
0.357353 0.362488 0.124180 0 200 255
0.426636 0.361808 0.123093 0 200 255
0.437241 0.286164 0.139408 0 200 255
0.453631 0.302723 0.186212 0 200 255
0.418631 0.335437 0.176573 0 200 255
0.423170 0.371656 0.122077 0 200 255
0.398517 0.300751 0.162682 0 200 255
0.409320 0.285150 0.164364 0 200 255
0.353710 0.247605 0.127724 0 200 255
0.476469 0.254183 0.147500 0 200 255
0.408836 0.317030 0.168453 0 200 255
0.420212 0.350325 0.120881 0 200 255
0.348593 0.373543 0.105398 0 200 255
0.345199 0.269227 0.117654 0 200 255
0.461810 0.330443 0.145137 0 200 255
0.386667 0.326590 0.171242 0 200 255
0.442565 0.388674 0.110050 0 200 255
0.441055 0.328329 0.163254 0 200 255
0.333210 0.266449 0.122446 0 200 255
0.434284 0.370395 0.164968 0 200 255
0.459864 0.326464 0.181620 0 200 255
0.479803 0.338090 0.174934 0 200 255
0.440909 0.313629 0.143825 0 200 255
0.447790 0.380988 0.124061 0 200 255
0.416591 0.262146 0.158333 0 200 255
0.364750 0.246466 0.144645 0 200 255
0.330791 0.268826 0.131454 0 200 255
0.352514 0.250514 0.141546 0 200 255
0.425942 0.358374 0.156544 0 200 255
0.416455 0.329680 0.159381 0 200 255
0.446458 0.256235 0.177723 0 200 255
0.350101 0.279755 0.115194 0 200 255
0.448428 0.289057 0.186057 0 200 255
0.440028 0.327708 0.145678 0 200 255
0.372543 0.333704 0.161376 0 200 255
0.430516 0.270455 0.175517 0 200 255
0.441956 0.242232 0.171866 0 200 255
0.441834 0.335593 0.174313 0 200 255
0.351953 0.259202 0.133889 0 200 255
0.382053 0.341782 0.169849 0 200 255
0.419474 0.358910 0.120553 0 200 255
0.415340 0.363458 0.111069 0 200 255
0.430709 0.264876 0.141815 0 200 255
0.358227 0.267633 0.129211 0 200 255
0.450077 0.262459 0.149591 0 200 255
0.431589 0.305053 0.146693 0 200 255
0.441304 0.379517 0.129906 0 200 255
0.434454 0.254789 0.166432 0 200 255
0.475232 0.248246 0.179719 0 200 255
0.359382 0.363192 0.108027 0 200 255
0.439819 0.394612 0.132540 0 200 255
0.445177 0.256575 0.141046 0 200 255
0.417042 0.364210 0.134770 0 200 255
0.444680 0.287379 0.143497 0 200 255
0.453763 0.353916 0.162067 0 200 255
0.389363 0.267044 0.135602 0 200 255
0.340039 0.361586 0.102463 0 200 255
0.324052 0.298786 0.120813 0 200 255
0.398457 0.308527 0.146059 0 200 255
0.432676 0.316095 0.180914 0 200 255
0.428573 0.390407 0.144465 0 200 255
0.376061 0.252374 0.125780 0 200 255
0.391151 0.244599 0.147440 0 200 255
0.439491 0.285051 0.179257 0 200 255
0.457570 0.388478 0.107394 0 200 255
0.370421 0.274433 0.137627 0 200 255
0.442310 0.325711 0.185819 0 200 255
0.409650 0.327487 0.152043 0 200 255
0.395987 0.310535 0.174474 0 200 255
0.431974 0.392483 0.116642 0 200 255
0.423530 0.372101 0.112106 0 200 255
0.355032 0.347558 0.140319 0 200 255
0.464330 0.361539 0.144130 0 200 255
0.372472 0.245114 0.136897 0 200 255
0.335145 0.285343 0.108446 0 200 255
0.396864 0.257544 0.120726 0 200 255
0.417895 0.357224 0.152237 0 200 255
0.415033 0.352631 0.077269 0 200 255
0.354678 0.370101 0.111795 0 200 255
0.491521 0.309123 0.160348 0 200 255
0.334663 0.274278 0.111436 0 200 255
0.419133 0.369782 0.142934 0 200 255
0.468508 0.353677 0.169312 0 200 255
0.364816 0.348789 0.148510 0 200 255
0.391100 0.258606 0.154285 0 200 255
0.350400 0.353329 0.113543 0 200 255
0.431985 0.320046 0.144453 0 200 255
0.417293 0.260389 0.143036 0 200 255
0.358650 0.359938 0.139772 0 200 255
0.459817 0.386588 0.131308 0 200 255
0.437335 0.342167 0.169978 0 200 255
0.426231 0.373516 0.136836 0 200 255
0.429716 0.262649 0.178577 0 200 255
0.437126 0.385683 0.125640 0 200 255
0.470264 0.338983 0.163155 0 200 255
0.464220 0.372959 0.152471 0 200 255
0.455978 0.324361 0.144416 0 200 255
0.449620 0.396748 0.084390 0 200 255
0.438380 0.340991 0.158573 0 200 255
0.423436 0.337919 0.182950 0 200 255
0.419959 0.288817 0.147363 0 200 255
0.452849 0.276003 0.139390 0 200 255
0.332682 0.281312 0.120906 0 200 255
0.374287 0.344899 0.132666 0 200 255
0.375167 0.333591 0.146580 0 200 255
0.432260 0.384439 0.116471 0 200 255
0.480356 0.281097 0.151370 0 200 255
0.469184 0.343261 0.175376 0 200 255
0.318324 0.299941 0.130609 0 200 255
0.448902 0.406688 0.095342 0 200 255
0.387227 0.243697 0.124506 0 200 255
0.429420 0.350437 0.134989 0 200 255
0.429869 0.376199 0.157039 0 200 255
0.416380 0.342824 0.161379 0 200 255
0.466186 0.312292 0.185005 0 200 255
0.439233 0.355602 0.157748 0 200 255
0.421869 0.342697 0.147053 0 200 255
0.384086 0.254755 0.116900 0 200 255
0.400272 0.315350 0.165138 0 200 255
0.420501 0.391120 0.108839 0 200 255
0.416303 0.339588 0.170514 0 200 255
0.376581 0.273967 0.143376 0 200 255
0.486552 0.286798 0.142508 0 200 255
0.385965 0.338641 0.142393 0 200 255
0.406374 0.246399 0.145779 0 200 255
0.387362 0.252161 0.149550 0 200 255
0.445905 0.386929 0.150898 0 200 255
0.410525 0.371831 0.131123 0 200 255
0.429100 0.358746 0.084909 0 200 255
0.325196 0.287560 0.111681 0 200 255
0.428481 0.332509 0.170056 0 200 255
0.434169 0.353205 0.167609 0 200 255
0.420023 0.356789 0.096536 0 200 255
0.346173 0.354024 0.128641 0 200 255
0.443907 0.264438 0.161978 0 200 255
0.409307 0.363651 0.103093 0 200 255
0.426732 0.401307 0.090341 0 200 255
0.416414 0.271013 0.144421 0 200 255
0.398678 0.253095 0.139909 0 200 255
0.434311 0.388536 0.095415 0 200 255
0.450896 0.367548 0.161225 0 200 255
0.349857 0.269955 0.125401 0 200 255
0.444251 0.237719 0.158285 0 200 255
0.340816 0.359128 0.119241 0 200 255
0.353339 0.349462 0.126819 0 200 255
0.478208 0.261655 0.172801 0 200 255
0.353239 0.273608 0.131664 0 200 255
0.345222 0.370300 0.117946 0 200 255
0.430340 0.398936 0.129700 0 200 255
0.458793 0.254160 0.134348 0 200 255
0.451367 0.294537 0.177990 0 200 255
0.455653 0.390802 0.146445 0 200 255
0.403353 0.318102 0.182946 0 200 255
0.461644 0.244704 0.177068 0 200 255
0.383431 0.347590 0.144680 0 200 255
0.362985 0.341004 0.150159 0 200 255
0.437232 0.380950 0.153135 0 200 255
0.386483 0.266547 0.120480 0 200 255
0.475318 0.263383 0.154778 0 200 255
0.405227 0.264560 0.156141 0 200 255
0.451105 0.362386 0.149669 0 200 255
0.327227 0.290228 0.135319 0 200 255
0.348753 0.361388 0.122183 0 200 255
0.479051 0.269546 0.160765 0 200 255
0.441507 0.369529 0.163078 0 200 255
0.372543 0.347937 0.162552 0 200 255
0.466446 0.259086 0.163646 0 200 255
0.479501 0.273622 0.176386 0 200 255
0.442459 0.372935 0.153588 0 200 255
0.335228 0.294292 0.124847 0 200 255
0.397431 0.243793 0.140022 0 200 255
0.377517 0.350119 0.157316 0 200 255
0.454574 0.404814 0.104567 0 200 255
0.432591 0.326159 0.185520 0 200 255
0.417804 0.376415 0.118907 0 200 255
0.371067 0.347675 0.152783 0 200 255
0.457552 0.334479 0.162090 0 200 255
0.488092 0.276196 0.162700 0 200 255
0.324350 0.307035 0.120591 0 200 255
0.436309 0.368973 0.154949 0 200 255
0.450702 0.391233 0.104479 0 200 255
0.463358 0.367042 0.138414 0 200 255
0.406317 0.310898 0.171815 0 200 255
0.339575 0.260525 0.137510 0 200 255
0.421612 0.349764 0.154098 0 200 255
0.362076 0.250277 0.116320 0 200 255
0.419774 0.334658 0.154858 0 200 255
0.338225 0.372972 0.103381 0 200 255
0.465465 0.338374 0.184053 0 200 255
0.413051 0.251341 0.158794 0 200 255
0.373839 0.272271 0.117035 0 200 255
0.415302 0.363869 0.157932 0 200 255
0.423976 0.260068 0.150692 0 200 255
0.338165 0.280208 0.114674 0 200 255
0.424863 0.354852 0.164137 0 200 255
0.334043 0.299606 0.113058 0 200 255
0.453244 0.395959 0.119870 0 200 255
0.410608 0.357080 0.158503 0 200 255
0.420801 0.389360 0.132120 0 200 255
0.386637 0.342555 0.164122 0 200 255
0.454435 0.391485 0.133126 0 200 255
0.382691 0.329111 0.156625 0 200 255
0.351727 0.358682 0.137317 0 200 255
0.405717 0.284467 0.151695 0 200 255
0.462967 0.253084 0.177807 0 200 255
0.438710 0.386225 0.135431 0 200 255
0.441712 0.250122 0.156080 0 200 255
0.403248 0.314367 0.156601 0 200 255
0.325538 0.282368 0.137580 0 200 255
0.466400 0.260020 0.155722 0 200 255
0.432983 0.373277 0.125673 0 200 255
0.419636 0.324219 0.144537 0 200 255
0.337740 0.372711 0.096025 0 200 255
0.436801 0.273231 0.156590 0 200 255
0.454774 0.339862 0.169108 0 200 255
0.458085 0.367081 0.163004 0 200 255
0.425584 0.270790 0.152047 0 200 255
0.411647 0.283924 0.179103 0 200 255
0.364428 0.255496 0.151887 0 200 255
0.425180 0.277523 0.138683 0 200 255
0.370312 0.335992 0.153235 0 200 255
0.479580 0.308230 0.180245 0 200 255
0.476570 0.345135 0.179127 0 200 255
0.459677 0.355677 0.155228 0 200 255
0.442927 0.343394 0.179790 0 200 255
0.453388 0.244288 0.174617 0 200 255
0.403545 0.263776 0.142655 0 200 255
0.407694 0.329557 0.166291 0 200 255
0.353918 0.355657 0.149428 0 200 255
0.420792 0.344256 0.133613 0 200 255
0.408321 0.320240 0.175113 0 200 255
0.428478 0.378361 0.128327 0 200 255
0.418494 0.364891 0.093766 0 200 255
0.466693 0.365875 0.154997 0 200 255
0.412277 0.365194 0.148939 0 200 255
0.477110 0.346969 0.166445 0 200 255
0.411215 0.333213 0.183419 0 200 255
0.436329 0.348232 0.156080 0 200 255
0.324866 0.291380 0.127538 0 200 255
0.433594 0.295715 0.184179 0 200 255
0.435043 0.391201 0.108366 0 200 255
0.440742 0.403368 0.109365 0 200 255
0.471616 0.309924 0.145849 0 200 255
0.485963 0.322469 0.176848 0 200 255
0.443442 0.372581 0.141296 0 200 255
0.443545 0.247599 0.165618 0 200 255
0.451098 0.310592 0.146609 0 200 255
0.390927 0.250400 0.132728 0 200 255
0.370525 0.270293 0.150927 0 200 255
0.437113 0.392267 0.089987 0 200 255
0.325233 0.297828 0.109750 0 200 255
0.450546 0.347029 0.157678 0 200 255
0.459246 0.314742 0.149555 0 200 255
0.424994 0.318709 0.143910 0 200 255
0.469016 0.273596 0.141647 0 200 255
0.434571 0.276548 0.177060 0 200 255
0.356219 0.256248 0.138785 0 200 255
0.333491 0.271339 0.141332 0 200 255
0.396051 0.317740 0.171778 0 200 255
0.450501 0.392287 0.094773 0 200 255
0.403404 0.288839 0.159199 0 200 255
0.456818 0.336252 0.187291 0 200 255
0.427127 0.382051 0.095130 0 200 255
0.372140 0.254172 0.142446 0 200 255
0.348902 0.254433 0.126309 0 200 255
0.412599 0.351632 0.149909 0 200 255
0.318340 0.301199 0.117367 0 200 255
0.440845 0.379886 0.140164 0 200 255
0.458348 0.343168 0.163492 0 200 255
0.452128 0.399482 0.139581 0 200 255
0.478855 0.327466 0.150838 0 200 255
0.440291 0.394734 0.113921 0 200 255
0.361829 0.346621 0.156569 0 200 255
0.433340 0.328580 0.166529 0 200 255
0.422537 0.370373 0.090106 0 200 255
0.485830 0.325073 0.150067 0 200 255
0.423453 0.381217 0.136920 0 200 255
0.469329 0.254837 0.142128 0 200 255
0.393528 0.338356 0.169410 0 200 255
0.352473 0.248161 0.134591 0 200 255
0.394553 0.270116 0.153602 0 200 255
0.342019 0.266632 0.146039 0 200 255
0.331239 0.302196 0.131619 0 200 255
0.445545 0.401769 0.121773 0 200 255
0.422180 0.385709 0.115190 0 200 255
0.426185 0.383801 0.145885 0 200 255
0.397382 0.246033 0.127773 0 200 255
0.325122 0.282158 0.124931 0 200 255
0.407705 0.369006 0.121778 0 200 255
0.478462 0.268235 0.168161 0 200 255
0.431156 0.343581 0.156067 0 200 255
0.434205 0.310372 0.143053 0 200 255
0.491596 0.300215 0.171153 0 200 255
0.391899 0.322809 0.160448 0 200 255
0.432350 0.309206 0.180165 0 200 255
0.461845 0.290604 0.143699 0 200 255
0.433996 0.401180 0.105422 0 200 255
0.390394 0.243187 0.140256 0 200 255
0.412589 0.263057 0.152770 0 200 255
0.432891 0.335669 0.183206 0 200 255
0.481809 0.271257 0.148333 0 200 255
0.455438 0.370288 0.170258 0 200 255
0.421744 0.352648 0.090573 0 200 255
0.428717 0.365775 0.146440 0 200 255
0.409803 0.273225 0.146905 0 200 255
0.419145 0.323814 0.184998 0 200 255
0.344220 0.274248 0.122971 0 200 255
0.363859 0.357171 0.134355 0 200 255
0.346945 0.370796 0.125776 0 200 255
0.424472 0.344312 0.174343 0 200 255
0.350203 0.273625 0.119269 0 200 255
0.381051 0.271753 0.122117 0 200 255
0.427417 0.358271 0.138625 0 200 255
0.407170 0.253972 0.126935 0 200 255
0.484327 0.329733 0.166342 0 200 255
0.377204 0.245791 0.121886 0 200 255
0.453741 0.392977 0.111411 0 200 255
0.415236 0.344169 0.146453 0 200 255
0.375645 0.336072 0.136476 0 200 255
0.398919 0.261785 0.128770 0 200 255
0.346652 0.272465 0.132988 0 200 255
0.464784 0.287065 0.181145 0 200 255
0.440912 0.237203 0.165720 0 200 255
0.411658 0.250221 0.149976 0 200 255
0.402872 0.325949 0.163142 0 200 255
0.424283 0.283113 0.177846 0 200 255
0.438479 0.383553 0.106812 0 200 255
0.409402 0.366767 0.135674 0 200 255
0.409987 0.374851 0.110579 0 200 255
0.428427 0.387647 0.125340 0 200 255
0.330092 0.276537 0.116848 0 200 255
0.427142 0.348750 0.076651 0 200 255
0.472911 0.285593 0.143004 0 200 255
0.349774 0.365115 0.100168 0 200 255
0.455015 0.401244 0.126316 0 200 255
0.373965 0.248629 0.152408 0 200 255
0.458286 0.264028 0.155708 0 200 255
0.440631 0.355253 0.143375 0 200 255
0.442938 0.354666 0.151588 0 200 255
0.481009 0.337470 0.150676 0 200 255
0.408297 0.276739 0.160592 0 200 255
0.353410 0.356428 0.120953 0 200 255
0.405140 0.280270 0.166414 0 200 255
0.429306 0.384269 0.104414 0 200 255
0.344967 0.363760 0.116330 0 200 255
0.427594 0.256519 0.158586 0 200 255
0.364422 0.254338 0.133846 0 200 255
0.452067 0.256039 0.145386 0 200 255
0.405343 0.286703 0.144019 0 200 255
0.481447 0.254851 0.158552 0 200 255
0.427733 0.285547 0.138965 0 200 255
0.421745 0.366305 0.108889 0 200 255
0.371401 0.260603 0.153163 0 200 255
0.382011 0.268212 0.133917 0 200 255
0.473740 0.345828 0.160638 0 200 255
0.465786 0.366605 0.164388 0 200 255
0.431484 0.386436 0.137658 0 200 255
0.413886 0.254015 0.142384 0 200 255
0.410200 0.359906 0.115759 0 200 255
0.421945 0.368353 0.132861 0 200 255
0.459158 0.374895 0.165555 0 200 255
0.396269 0.318629 0.147207 0 200 255
0.337815 0.293190 0.111387 0 200 255
0.352627 0.360347 0.108197 0 200 255
0.437194 0.246208 0.159072 0 200 255
0.443462 0.275406 0.153765 0 200 255
0.343601 0.293036 0.116694 0 200 255
0.452514 0.357889 0.154657 0 200 255
0.460841 0.265815 0.148578 0 200 255
0.419782 0.374024 0.127309 0 200 255
0.460039 0.378848 0.128930 0 200 255
0.433547 0.401834 0.094062 0 200 255
0.334474 0.276442 0.136163 0 200 255
0.349032 0.373871 0.097868 0 200 255
0.432933 0.357246 0.160688 0 200 255
0.369479 0.258769 0.117220 0 200 255
0.419758 0.372097 0.105734 0 200 255
0.469275 0.347101 0.169573 0 200 255
0.475962 0.342025 0.148860 0 200 255
0.411751 0.319842 0.161773 0 200 255
0.386380 0.333742 0.146904 0 200 255
0.414456 0.314442 0.181845 0 200 255
0.406228 0.297147 0.179774 0 200 255
0.456825 0.247856 0.133957 0 200 255
0.336950 0.279798 0.126033 0 200 255
0.450335 0.368699 0.135763 0 200 255
0.443775 0.391321 0.137512 0 200 255
0.401632 0.309943 0.177863 0 200 255
0.456638 0.320911 0.185278 0 200 255
0.423218 0.257536 0.143684 0 200 255
0.473173 0.264039 0.168022 0 200 255
0.419325 0.351822 0.171562 0 200 255
0.452370 0.269722 0.141365 0 200 255
0.448099 0.373874 0.159854 0 200 255
0.442443 0.331327 0.182362 0 200 255
0.433202 0.275081 0.144309 0 200 255
0.428853 0.353165 0.151335 0 200 255
0.446760 0.305123 0.145541 0 200 255
0.482568 0.262019 0.163336 0 200 255
0.404430 0.257883 0.145629 0 200 255
0.415267 0.329988 0.172435 0 200 255
0.449928 0.346552 0.170207 0 200 255
0.346024 0.270495 0.110190 0 200 255
0.337261 0.300687 0.127286 0 200 255
0.428107 0.400295 0.114493 0 200 255
0.447053 0.274303 0.141951 0 200 255
0.398263 0.336270 0.160589 0 200 255
0.361110 0.261064 0.131573 0 200 255
0.454454 0.272799 0.182974 0 200 255
0.458902 0.335495 0.171719 0 200 255
0.457366 0.370546 0.133575 0 200 255
0.412250 0.363804 0.083862 0 200 255
0.444006 0.332893 0.146099 0 200 255
0.336918 0.290811 0.133424 0 200 255
0.459057 0.374507 0.156176 0 200 255
0.484220 0.298685 0.178644 0 200 255
0.427822 0.395840 0.102539 0 200 255
0.473338 0.262070 0.177144 0 200 255
0.336062 0.364558 0.106702 0 200 255
0.434380 0.289921 0.143897 0 200 255
0.362677 0.358213 0.123050 0 200 255
0.445374 0.380108 0.151272 0 200 255
0.469346 0.301167 0.181879 0 200 255
0.430232 0.285662 0.177189 0 200 255
0.363257 0.271683 0.149103 0 200 255
0.341705 0.264197 0.119830 0 200 255
0.416322 0.370477 0.121772 0 200 255
0.416174 0.300211 0.182728 0 200 255
0.443261 0.390564 0.094125 0 200 255
0.398821 0.268817 0.145909 0 200 255
0.388755 0.251538 0.120043 0 200 255
0.414026 0.276575 0.175112 0 200 255
0.361941 0.353929 0.145170 0 200 255
0.326497 0.276006 0.129915 0 200 255
0.421412 0.362726 0.085358 0 200 255
0.395968 0.252587 0.124760 0 200 255
0.453844 0.401577 0.090874 0 200 255
0.378948 0.261602 0.115390 0 200 255
0.392617 0.258267 0.137691 0 200 255
0.481647 0.292448 0.179100 0 200 255
0.448630 0.401766 0.099468 0 200 255
0.451434 0.362530 0.142834 0 200 255
0.378179 0.330269 0.161050 0 200 255
0.439489 0.252664 0.163070 0 200 255
0.442149 0.273282 0.182516 0 200 255
0.400813 0.296417 0.158545 0 200 255
0.424978 0.360100 0.115507 0 200 255
0.438556 0.274283 0.148692 0 200 255
0.394153 0.312438 0.158333 0 200 255
0.385797 0.244149 0.134824 0 200 255
0.391533 0.340308 0.154065 0 200 255
0.478805 0.297722 0.144356 0 200 255
0.427525 0.362537 0.097722 0 200 255
0.358151 0.246212 0.132331 0 200 255
0.400380 0.327964 0.172630 0 200 255
0.473140 0.319505 0.183233 0 200 255
0.361543 0.254158 0.125488 0 200 255
