ply
format ascii 1.0
element vertex 1024
property float x
property float y
property float z
property uchar red
property uchar green
property uchar blue
end_header
0.468287 0.319648 0.257227 0 200 255
0.348237 0.226844 0.198724 0 200 255
0.355269 0.381720 0.244086 0 200 255
0.466576 0.407172 0.193820 0 200 255
0.446936 0.226170 0.223430 0 200 255
0.517319 0.240113 0.269779 0 200 255
0.448072 0.331451 0.165373 0 200 255
0.400141 0.332838 0.267089 0 200 255
0.448422 0.377585 0.245385 0 200 255
0.459059 0.260800 0.274655 0 200 255
0.520255 0.293738 0.237538 0 200 255
0.391667 0.215138 0.234027 0 200 255
0.431803 0.289485 0.238901 0 200 255
0.442177 0.335746 0.215531 0 200 255
0.493095 0.357867 0.237819 0 200 255
0.483257 0.258545 0.233074 0 200 255
0.496642 0.288039 0.277868 0 200 255
0.511934 0.328589 0.263452 0 200 255
0.479175 0.222241 0.261493 0 200 255
0.432208 0.308375 0.276158 0 200 255
0.410483 0.236282 0.206223 0 200 255
0.418485 0.243255 0.242721 0 200 255
0.478811 0.391438 0.227315 0 200 255
0.437085 0.397029 0.215476 0 200 255
0.387882 0.364798 0.252113 0 200 255
0.514909 0.238831 0.234434 0 200 255
0.380127 0.212270 0.200775 0 200 255
0.468143 0.354238 0.262184 0 200 255
0.477486 0.293580 0.236131 0 200 255
0.440733 0.338523 0.250054 0 200 255
0.524936 0.273538 0.264066 0 200 255
0.447308 0.260020 0.235597 0 200 255
0.369789 0.236592 0.221325 0 200 255
0.451106 0.352864 0.189375 0 200 255
0.495113 0.320141 0.237413 0 200 255
0.461639 0.296780 0.279372 0 200 255
0.489098 0.251858 0.276333 0 200 255
0.419830 0.210428 0.220038 0 200 255
0.417204 0.313980 0.250088 0 200 255
0.435564 0.279301 0.270137 0 200 255
0.451915 0.235242 0.251611 0 200 255
0.464104 0.354544 0.231675 0 200 255
0.487614 0.323070 0.279051 0 200 255
0.521317 0.302234 0.267773 0 200 255
0.488551 0.230646 0.231734 0 200 255
0.516772 0.265512 0.239113 0 200 255
0.476780 0.378149 0.250887 0 200 255
0.405270 0.345252 0.244080 0 200 255
0.451811 0.306584 0.236778 0 200 255
0.465856 0.383675 0.206163 0 200 255
0.494164 0.353786 0.263016 0 200 255
0.476185 0.246754 0.254389 0 200 255
0.418286 0.218124 0.243901 0 200 255
0.461641 0.329553 0.231662 0 200 255
0.431218 0.244661 0.222044 0 200 255
0.472771 0.288473 0.259416 0 200 255
0.456186 0.282379 0.238395 0 200 255
0.448283 0.376282 0.221353 0 200 255
0.499235 0.282388 0.237794 0 200 255
0.400080 0.236972 0.228951 0 200 255
0.498162 0.228869 0.278081 0 200 255
0.365275 0.366128 0.258428 0 200 255
0.488501 0.331923 0.257497 0 200 255
0.441696 0.298623 0.257741 0 200 255
0.371550 0.213856 0.222416 0 200 255
0.370989 0.232776 0.197791 0 200 255
0.422450 0.329028 0.267415 0 200 255
0.403091 0.215137 0.204654 0 200 255
0.445236 0.331331 0.187732 0 200 255
0.454449 0.322054 0.274613 0 200 255
0.467843 0.239689 0.234951 0 200 255
0.444278 0.405630 0.196220 0 200 255
0.503736 0.253257 0.257999 0 200 255
0.477411 0.277753 0.278307 0 200 255
0.384002 0.347149 0.265217 0 200 255
0.443423 0.264731 0.256167 0 200 255
0.459318 0.337927 0.202825 0 200 255
0.480248 0.369924 0.225883 0 200 255
0.454995 0.395587 0.227273 0 200 255
0.372178 0.370120 0.238710 0 200 255
0.515488 0.319130 0.244838 0 200 255
0.476078 0.343268 0.244693 0 200 255
0.503219 0.308532 0.276143 0 200 255
0.352905 0.224428 0.219414 0 200 255
0.443801 0.348790 0.231761 0 200 255
0.431200 0.227337 0.209766 0 200 255
0.389325 0.228916 0.212084 0 200 255
0.509018 0.265274 0.273782 0 200 255
0.469579 0.403526 0.213640 0 200 255
0.481894 0.303530 0.279605 0 200 255
0.437584 0.223521 0.241085 0 200 255
0.453237 0.358538 0.248859 0 200 255
0.436819 0.317368 0.249303 0 200 255
0.475488 0.317041 0.238025 0 200 255
0.450300 0.350459 0.169681 0 200 255
0.458510 0.336528 0.258778 0 200 255
0.420639 0.333051 0.247789 0 200 255
0.520937 0.246783 0.251608 0 200 255
0.466661 0.259325 0.243276 0 200 255
0.500315 0.301710 0.239223 0 200 255
0.386334 0.346805 0.245151 0 200 255
0.464075 0.374245 0.235111 0 200 255
0.448662 0.353076 0.211658 0 200 255
0.498271 0.246733 0.231276 0 200 255
0.436582 0.245017 0.246721 0 200 255
0.454753 0.278592 0.271728 0 200 255
0.403131 0.327588 0.249280 0 200 255
0.464567 0.243338 0.267885 0 200 255
0.363028 0.218068 0.205832 0 200 255
0.401716 0.350385 0.263187 0 200 255
0.356474 0.240440 0.209805 0 200 255
0.446836 0.385048 0.205718 0 200 255
0.438987 0.343431 0.199746 0 200 255
0.524862 0.289335 0.255864 0 200 255
0.499748 0.342690 0.248900 0 200 255
0.447852 0.240855 0.233700 0 200 255
0.492350 0.271444 0.271242 0 200 255
0.444101 0.330650 0.233376 0 200 255
0.474203 0.360813 0.246992 0 200 255
0.444385 0.294778 0.276647 0 200 255
0.499400 0.264612 0.236463 0 200 255
0.459212 0.336458 0.178422 0 200 255
0.432462 0.278301 0.252899 0 200 255
0.471960 0.328770 0.273632 0 200 255
0.403008 0.221655 0.221361 0 200 255
0.476782 0.228555 0.245572 0 200 255
0.456163 0.342185 0.242012 0 200 255
0.389884 0.211310 0.215013 0 200 255
0.482326 0.275665 0.234562 0 200 255
0.370145 0.381477 0.252778 0 200 255
0.453068 0.400598 0.210818 0 200 255
0.490493 0.241076 0.247474 0 200 255
0.454712 0.252125 0.252716 0 200 255
0.497199 0.335724 0.273568 0 200 255
0.407973 0.209229 0.231810 0 200 255
0.381601 0.228237 0.229695 0 200 255
0.426878 0.225055 0.228411 0 200 255
0.404133 0.226539 0.241278 0 200 255
0.489344 0.365838 0.252733 0 200 255
0.416083 0.237288 0.224948 0 200 255
0.428037 0.293119 0.265112 0 200 255
0.483620 0.236838 0.267471 0 200 255
0.475230 0.393450 0.195861 0 200 255
0.429249 0.303017 0.248005 0 200 255
0.445676 0.325962 0.259879 0 200 255
0.450464 0.365513 0.234158 0 200 255
0.439246 0.346017 0.180837 0 200 255
0.456791 0.341957 0.222670 0 200 255
0.517908 0.287145 0.271987 0 200 255
0.458351 0.320183 0.244701 0 200 255
0.373149 0.356015 0.248856 0 200 255
0.475526 0.340068 0.261788 0 200 255
0.454264 0.312708 0.261561 0 200 255
0.479777 0.389036 0.211810 0 200 255
0.462391 0.370905 0.252048 0 200 255
0.525549 0.276439 0.246145 0 200 255
0.409112 0.320950 0.262156 0 200 255
0.517958 0.259709 0.261913 0 200 255
0.466596 0.389844 0.236874 0 200 255
0.469488 0.380162 0.220884 0 200 255
0.474464 0.260281 0.276528 0 200 255
0.422416 0.310874 0.264371 0 200 255
0.503959 0.248258 0.273734 0 200 255
0.456279 0.328151 0.215681 0 200 255
0.419097 0.216927 0.206010 0 200 255
0.412087 0.340680 0.257749 0 200 255
0.467299 0.273381 0.233326 0 200 255
0.443701 0.238732 0.215639 0 200 255
0.470853 0.314093 0.276950 0 200 255
0.462769 0.297922 0.242473 0 200 255
0.479131 0.354186 0.232677 0 200 255
0.483125 0.317335 0.258411 0 200 255
0.483501 0.379718 0.236809 0 200 255
0.392882 0.337137 0.254586 0 200 255
0.443534 0.384806 0.232700 0 200 255
0.451516 0.308110 0.278730 0 200 255
0.406104 0.206452 0.216230 0 200 255
0.516148 0.279637 0.235055 0 200 255
0.508211 0.331578 0.242681 0 200 255
0.470154 0.330003 0.245270 0 200 255
0.373510 0.226458 0.211188 0 200 255
0.509474 0.249149 0.242941 0 200 255
0.516897 0.311664 0.257802 0 200 255
0.447896 0.329040 0.204272 0 200 255
0.446937 0.254640 0.265450 0 200 255
0.425130 0.241222 0.209764 0 200 255
0.378550 0.372332 0.259536 0 200 255
0.501167 0.325681 0.254861 0 200 255
0.446579 0.267241 0.272933 0 200 255
0.480848 0.351479 0.255579 0 200 255
0.432884 0.320055 0.262598 0 200 255
0.434825 0.235663 0.233413 0 200 255
0.504864 0.324055 0.274608 0 200 255
0.443835 0.275924 0.239087 0 200 255
0.424566 0.230898 0.244889 0 200 255
0.461313 0.393642 0.195837 0 200 255
0.397750 0.355170 0.250353 0 200 255
0.436129 0.218207 0.220331 0 200 255
0.466062 0.237452 0.254685 0 200 255
0.345144 0.232311 0.210858 0 200 255
0.366721 0.225075 0.228446 0 200 255
0.441832 0.300015 0.243760 0 200 255
0.443546 0.343628 0.160059 0 200 255
0.360415 0.369075 0.245445 0 200 255
0.479417 0.248256 0.241279 0 200 255
0.390749 0.358741 0.264051 0 200 255
0.518040 0.305509 0.243683 0 200 255
0.457563 0.246967 0.240659 0 200 255
0.475014 0.290908 0.278397 0 200 255
0.360802 0.224984 0.194026 0 200 255
0.461178 0.390814 0.216501 0 200 255
0.382967 0.226492 0.200659 0 200 255
0.478839 0.305013 0.242779 0 200 255
0.479033 0.260018 0.248007 0 200 255
0.514342 0.313597 0.270640 0 200 255
0.438351 0.395191 0.202527 0 200 255
0.464460 0.272361 0.277863 0 200 255
0.507357 0.278079 0.272071 0 200 255
0.442017 0.309301 0.265191 0 200 255
0.447042 0.389080 0.219287 0 200 255
0.507581 0.294671 0.275902 0 200 255
0.447529 0.292099 0.235255 0 200 255
0.457330 0.349321 0.256955 0 200 255
0.447280 0.327831 0.247120 0 200 255
0.413680 0.220738 0.231760 0 200 255
0.488877 0.346587 0.242238 0 200 255
0.442118 0.406976 0.208979 0 200 255
0.400696 0.233348 0.216750 0 200 255
0.458045 0.383169 0.228303 0 200 255
0.498715 0.339559 0.261206 0 200 255
0.495599 0.242418 0.259060 0 200 255
0.490391 0.329442 0.245157 0 200 255
0.457821 0.341864 0.189855 0 200 255
0.378806 0.359431 0.259836 0 200 255
0.379063 0.216031 0.233239 0 200 255
0.497078 0.251498 0.243238 0 200 255
0.439922 0.347865 0.219837 0 200 255
0.458068 0.339005 0.165584 0 200 255
0.453946 0.387596 0.239250 0 200 255
0.519414 0.258988 0.249426 0 200 255
0.398753 0.226757 0.203340 0 200 255
0.457486 0.306591 0.249673 0 200 255
0.453593 0.244011 0.262106 0 200 255
0.368883 0.239292 0.209264 0 200 255
0.442596 0.316505 0.275253 0 200 255
0.488487 0.299923 0.236012 0 200 255
0.454133 0.349229 0.200820 0 200 255
0.392387 0.209421 0.202258 0 200 255
0.422703 0.323277 0.256463 0 200 255
0.487714 0.286696 0.238277 0 200 255
0.451136 0.322905 0.225452 0 200 255
0.359005 0.377004 0.255026 0 200 255
0.361560 0.229637 0.212304 0 200 255
0.394452 0.227312 0.233803 0 200 255
0.460987 0.365475 0.227283 0 200 255
0.455623 0.270066 0.233405 0 200 255
0.442981 0.335087 0.175773 0 200 255
0.465903 0.256058 0.255274 0 200 255
0.486233 0.226523 0.273239 0 200 255
0.445163 0.309102 0.253001 0 200 255
0.485211 0.332761 0.272389 0 200 255
0.408429 0.241317 0.236397 0 200 255
0.379953 0.236763 0.213146 0 200 255
0.419974 0.229039 0.205934 0 200 255
0.394340 0.344164 0.270395 0 200 255
0.494127 0.355085 0.250760 0 200 255
0.428126 0.216955 0.237049 0 200 255
0.436181 0.231602 0.221463 0 200 255
0.473799 0.403182 0.202517 0 200 255
0.438878 0.232752 0.248440 0 200 255
0.491610 0.313201 0.273801 0 200 255
0.383497 0.220700 0.220755 0 200 255
0.439131 0.248840 0.234416 0 200 255
0.522774 0.301790 0.254962 0 200 255
0.373064 0.211780 0.210874 0 200 255
0.411354 0.335667 0.269554 0 200 255
0.478212 0.367799 0.256420 0 200 255
0.488259 0.368982 0.237882 0 200 255
0.382774 0.209362 0.224183 0 200 255
0.449710 0.394014 0.198681 0 200 255
0.464867 0.340620 0.249748 0 200 255
0.462222 0.403900 0.204233 0 200 255
0.475062 0.242814 0.273070 0 200 255
0.449169 0.231334 0.240384 0 200 255
0.430576 0.303275 0.259876 0 200 255
0.438102 0.267834 0.245206 0 200 255
0.461718 0.259110 0.232729 0 200 255
0.357199 0.234855 0.199000 0 200 255
0.379759 0.372845 0.247051 0 200 255
0.424096 0.221331 0.216689 0 200 255
0.498950 0.234743 0.234809 0 200 255
0.494187 0.299318 0.276862 0 200 255
0.485842 0.266355 0.279363 0 200 255
0.368330 0.380900 0.240333 0 200 255
0.396759 0.336025 0.243757 0 200 255
0.466263 0.310101 0.237755 0 200 255
0.361446 0.216889 0.217534 0 200 255
0.485595 0.316958 0.243578 0 200 255
0.351899 0.221589 0.208317 0 200 255
0.412543 0.323382 0.244231 0 200 255
0.427819 0.245565 0.232945 0 200 255
0.445605 0.346789 0.243831 0 200 255
0.477061 0.388480 0.241277 0 200 255
0.485480 0.286225 0.279560 0 200 255
0.466405 0.287365 0.238625 0 200 255
0.484647 0.360150 0.261863 0 200 255
0.472863 0.364451 0.232536 0 200 255
0.380422 0.349300 0.254506 0 200 255
0.449182 0.321497 0.237910 0 200 255
0.447385 0.400871 0.220614 0 200 255
0.479275 0.334464 0.251480 0 200 255
0.455772 0.353369 0.239175 0 200 255
0.407491 0.215801 0.241461 0 200 255
0.496540 0.239992 0.278258 0 200 255
0.468009 0.393594 0.225282 0 200 255
0.412920 0.233089 0.243584 0 200 255
0.370026 0.217806 0.197109 0 200 255
0.471447 0.371697 0.243475 0 200 255
0.463719 0.323310 0.268428 0 200 255
0.467760 0.345062 0.237544 0 200 255
0.460215 0.361134 0.258600 0 200 255
0.479582 0.326547 0.265116 0 200 255
0.453920 0.347078 0.179613 0 200 255
0.486513 0.243516 0.234186 0 200 255
0.440734 0.339261 0.226988 0 200 255
0.426510 0.318969 0.245577 0 200 255
0.446741 0.248206 0.243669 0 200 255
0.446773 0.342403 0.189570 0 200 255
0.457769 0.331335 0.246781 0 200 255
0.507723 0.271853 0.236888 0 200 255
0.467670 0.330804 0.256531 0 200 255
0.451347 0.339469 0.210656 0 200 255
0.476447 0.315081 0.249416 0 200 255
0.409447 0.334384 0.243373 0 200 255
0.427886 0.291725 0.248926 0 200 255
0.518877 0.238534 0.259117 0 200 255
0.513878 0.251141 0.267223 0 200 255
0.467395 0.252623 0.272773 0 200 255
0.413363 0.217710 0.215217 0 200 255
0.409580 0.223848 0.204511 0 200 255
0.482097 0.380594 0.225228 0 200 255
0.464084 0.344523 0.264755 0 200 255
0.450087 0.318768 0.252335 0 200 255
0.444692 0.279230 0.275923 0 200 255
0.483229 0.237299 0.254479 0 200 255
0.492489 0.308165 0.242824 0 200 255
0.469914 0.311030 0.263402 0 200 255
0.359757 0.232987 0.222516 0 200 255
0.440569 0.345561 0.170215 0 200 255
0.451229 0.340491 0.251366 0 200 255
0.438337 0.297809 0.268380 0 200 255
0.393276 0.226823 0.223208 0 200 255
0.469076 0.243187 0.246242 0 200 255
0.418048 0.319848 0.270505 0 200 255
0.459116 0.379248 0.246359 0 200 255
0.491173 0.324390 0.264398 0 200 255
0.396447 0.219954 0.211285 0 200 255
0.501867 0.311841 0.236759 0 200 255
0.377678 0.361388 0.240726 0 200 255
0.451903 0.369470 0.251051 0 200 255
0.484472 0.234269 0.241324 0 200 255
0.455738 0.390347 0.207044 0 200 255
0.485936 0.373821 0.246838 0 200 255
0.453729 0.382756 0.214393 0 200 255
0.427465 0.314030 0.254701 0 200 255
0.467064 0.286551 0.273279 0 200 255
0.438048 0.224254 0.228595 0 200 255
0.447827 0.375230 0.231760 0 200 255
0.440539 0.338315 0.239715 0 200 255
0.475123 0.374427 0.233996 0 200 255
0.387221 0.357081 0.245326 0 200 255
0.454434 0.346526 0.231601 0 200 255
0.479436 0.325095 0.244774 0 200 255
0.455063 0.328154 0.265756 0 200 255
0.485144 0.279167 0.271732 0 200 255
0.438535 0.345647 0.209933 0 200 255
0.433403 0.278775 0.242740 0 200 255
0.440858 0.393720 0.225949 0 200 255
0.347691 0.236916 0.202027 0 200 255
0.455403 0.288772 0.278528 0 200 255
0.389679 0.218863 0.199580 0 200 255
0.495671 0.263861 0.278477 0 200 255
0.522679 0.267117 0.254593 0 200 255
0.461591 0.309941 0.277137 0 200 255
0.383106 0.221096 0.210316 0 200 255
0.452717 0.340427 0.157100 0 200 255
0.510709 0.290468 0.238238 0 200 255
0.419766 0.333275 0.257852 0 200 255
0.427285 0.215460 0.225304 0 200 255
0.503006 0.246410 0.250619 0 200 255
0.452045 0.330080 0.175332 0 200 255
0.375266 0.365746 0.252605 0 200 255
0.395340 0.346837 0.255706 0 200 255
0.472922 0.304891 0.273441 0 200 255
0.513869 0.277988 0.244712 0 200 255
0.394839 0.214981 0.222946 0 200 255
0.431851 0.284439 0.260830 0 200 255
0.499649 0.273966 0.277658 0 200 255
0.484262 0.341484 0.256634 0 200 255
0.522626 0.285415 0.242579 0 200 255
0.433985 0.237534 0.212620 0 200 255
0.491259 0.271209 0.234082 0 200 255
0.513258 0.249773 0.257211 0 200 255
0.477964 0.283842 0.238200 0 200 255
0.475690 0.398134 0.219327 0 200 255
0.511394 0.319999 0.253846 0 200 255
0.400902 0.206506 0.225397 0 200 255
0.456587 0.237486 0.237971 0 200 255
0.444333 0.351697 0.202866 0 200 255
0.471555 0.273708 0.271128 0 200 255
0.457937 0.252238 0.269883 0 200 255
0.459842 0.374612 0.223779 0 200 255
0.405427 0.347289 0.254617 0 200 255
0.518500 0.269786 0.270489 0 200 255
0.452826 0.333259 0.196889 0 200 255
0.468441 0.320070 0.246751 0 200 255
0.428128 0.240530 0.244682 0 200 255
0.469901 0.382521 0.244256 0 200 255
0.473852 0.352036 0.240667 0 200 255
0.442914 0.334082 0.197582 0 200 255
0.441431 0.227392 0.214457 0 200 255
0.452122 0.350123 0.220250 0 200 255
0.506946 0.332907 0.270580 0 200 255
0.436961 0.309127 0.244173 0 200 255
0.490066 0.339475 0.265590 0 200 255
0.467629 0.397847 0.189811 0 200 255
0.499798 0.325846 0.245279 0 200 255
0.441179 0.263726 0.265729 0 200 255
0.437933 0.287663 0.275827 0 200 255
0.475214 0.386055 0.203874 0 200 255
0.475877 0.262132 0.238100 0 200 255
0.487925 0.236352 0.276065 0 200 255
0.505523 0.257575 0.234192 0 200 255
0.432577 0.310536 0.266403 0 200 255
0.459522 0.325769 0.255951 0 200 255
0.408797 0.238169 0.218440 0 200 255
0.504936 0.334479 0.254529 0 200 255
0.469914 0.389803 0.212715 0 200 255
0.459175 0.244161 0.249875 0 200 255
0.483563 0.223499 0.249999 0 200 255
0.483483 0.350307 0.264669 0 200 255
0.429490 0.301333 0.270342 0 200 255
0.448209 0.341408 0.201027 0 200 255
0.484794 0.362402 0.229553 0 200 255
0.449403 0.335157 0.262666 0 200 255
0.464225 0.354636 0.252930 0 200 255
0.499314 0.331005 0.265270 0 200 255
0.416364 0.212152 0.235115 0 200 255
0.361583 0.385759 0.249879 0 200 255
0.455597 0.269776 0.275801 0 200 255
0.473116 0.345763 0.253312 0 200 255
0.521418 0.282733 0.261645 0 200 255
0.429938 0.298710 0.239197 0 200 255
0.413607 0.208852 0.211077 0 200 255
0.494089 0.346515 0.255365 0 200 255
0.403263 0.341475 0.269165 0 200 255
0.520868 0.294595 0.249180 0 200 255
0.404516 0.217944 0.232190 0 200 255
0.507756 0.255772 0.249362 0 200 255
0.366960 0.362351 0.245788 0 200 255
0.474851 0.230682 0.254480 0 200 255
0.417959 0.243244 0.231915 0 200 255
0.495143 0.256768 0.233678 0 200 255
0.454292 0.333530 0.187081 0 200 255
0.367102 0.227247 0.204237 0 200 255
0.390315 0.339256 0.263545 0 200 255
0.496646 0.320764 0.278520 0 200 255
0.467875 0.363267 0.253715 0 200 255
0.400161 0.329927 0.257811 0 200 255
0.388548 0.353873 0.254616 0 200 255
0.422618 0.224477 0.237068 0 200 255
0.436216 0.295684 0.249716 0 200 255
0.467125 0.381894 0.229665 0 200 255
0.439892 0.389740 0.209835 0 200 255
0.398357 0.219670 0.239081 0 200 255
0.506359 0.240909 0.237250 0 200 255
0.374590 0.222556 0.222943 0 200 255
0.419458 0.241276 0.217339 0 200 255
0.464157 0.320344 0.277994 0 200 255
0.458310 0.338145 0.231901 0 200 255
0.509559 0.308961 0.242645 0 200 255
0.466985 0.335189 0.264602 0 200 255
0.384316 0.208264 0.207888 0 200 255
0.471899 0.249750 0.236237 0 200 255
0.443336 0.382011 0.214776 0 200 255
0.457414 0.349314 0.247629 0 200 255
0.449880 0.405834 0.204017 0 200 255
0.382346 0.229632 0.218329 0 200 255
0.449967 0.308012 0.269482 0 200 255
0.436081 0.308746 0.253765 0 200 255
0.400509 0.234316 0.238189 0 200 255
0.444039 0.255670 0.255367 0 200 255
0.409663 0.326731 0.269943 0 200 255
0.493142 0.322312 0.252199 0 200 255
0.463109 0.396479 0.209646 0 200 255
0.451018 0.249331 0.234565 0 200 255
0.447130 0.327184 0.213124 0 200 255
0.443048 0.307200 0.275646 0 200 255
0.376816 0.236313 0.204668 0 200 255
0.396256 0.345683 0.244661 0 200 255
0.494804 0.249736 0.252462 0 200 255
0.444688 0.329720 0.224413 0 200 255
0.369703 0.374478 0.258459 0 200 255
0.419079 0.220547 0.224136 0 200 255
0.508083 0.256310 0.273643 0 200 255
0.399183 0.209533 0.211368 0 200 255
0.416744 0.315439 0.258959 0 200 255
0.447921 0.311598 0.243150 0 200 255
0.459759 0.335773 0.211527 0 200 255
0.524695 0.276963 0.255609 0 200 255
0.455957 0.357481 0.229368 0 200 255
0.411949 0.341377 0.248545 0 200 255
0.429216 0.223322 0.244144 0 200 255
0.476284 0.359099 0.256531 0 200 255
0.485308 0.339578 0.246396 0 200 255
0.471470 0.239333 0.261484 0 200 255
0.480266 0.249555 0.275607 0 200 255
0.477612 0.394571 0.204706 0 200 255
0.429605 0.218302 0.210411 0 200 255
0.445010 0.284861 0.239739 0 200 255
0.450001 0.366170 0.242987 0 200 255
0.473005 0.320710 0.266104 0 200 255
0.460277 0.253507 0.246000 0 200 255
0.457728 0.370548 0.244516 0 200 255
0.475495 0.387312 0.219323 0 200 255
0.437138 0.404673 0.201294 0 200 255
0.386262 0.222202 0.234107 0 200 255
0.449609 0.340787 0.236214 0 200 255
0.430977 0.322766 0.253062 0 200 255
0.399014 0.210305 0.233939 0 200 255
0.451258 0.240219 0.244394 0 200 255
0.351886 0.233094 0.218430 0 200 255
0.480714 0.366863 0.248031 0 200 255
0.410996 0.319837 0.252118 0 200 255
0.480219 0.327740 0.278421 0 200 255
0.386390 0.343030 0.253137 0 200 255
0.453412 0.299654 0.277424 0 200 255
0.407713 0.330457 0.262220 0 200 255
0.463966 0.398951 0.218565 0 200 255
0.460856 0.281935 0.278420 0 200 255
0.459067 0.402978 0.195313 0 200 255
0.453665 0.347745 0.162112 0 200 255
0.511692 0.306597 0.275600 0 200 255
0.460944 0.381920 0.237723 0 200 255
0.378303 0.220379 0.196535 0 200 255
0.443147 0.233425 0.234473 0 200 255
0.477339 0.238761 0.243392 0 200 255
0.424336 0.239932 0.225327 0 200 255
0.483296 0.250314 0.250929 0 200 255
0.523108 0.273824 0.238248 0 200 255
0.362198 0.373581 0.238266 0 200 255
0.446943 0.343265 0.222478 0 200 255
0.476536 0.268829 0.276252 0 200 255
0.472670 0.395475 0.232319 0 200 255
0.469211 0.362489 0.240132 0 200 255
0.519052 0.279069 0.269128 0 200 255
0.463863 0.236782 0.243695 0 200 255
0.356080 0.221902 0.200769 0 200 255
0.461227 0.329534 0.222602 0 200 255
0.513504 0.240985 0.242654 0 200 255
0.480242 0.250043 0.232902 0 200 255
0.472643 0.381800 0.211150 0 200 255
0.504230 0.295032 0.234911 0 200 255
0.405342 0.225405 0.213993 0 200 255
0.437993 0.300433 0.277553 0 200 255
0.452060 0.369227 0.224383 0 200 255
0.523187 0.265727 0.245743 0 200 255
0.412230 0.210096 0.224449 0 200 255
0.455475 0.372097 0.236300 0 200 255
0.473258 0.347817 0.264592 0 200 255
0.516793 0.295576 0.271371 0 200 255
0.369995 0.359391 0.256257 0 200 255
0.514287 0.320559 0.262018 0 200 255
0.419711 0.324632 0.248641 0 200 255
0.446687 0.350879 0.182413 0 200 255
0.377775 0.233530 0.224293 0 200 255
0.430676 0.294673 0.257221 0 200 255
0.371481 0.218259 0.230209 0 200 255
0.487158 0.351772 0.235776 0 200 255
0.486738 0.243937 0.272511 0 200 255
0.411858 0.224187 0.243739 0 200 255
0.458097 0.325928 0.238522 0 200 255
0.441630 0.385051 0.224358 0 200 255
0.423664 0.212627 0.212851 0 200 255
0.391898 0.349741 0.263907 0 200 255
0.483201 0.227042 0.237226 0 200 255
0.385999 0.216673 0.227784 0 200 255
0.509329 0.244149 0.268196 0 200 255
0.507857 0.336428 0.262152 0 200 255
0.371355 0.219395 0.205233 0 200 255
0.384790 0.366667 0.259674 0 200 255
0.478505 0.376266 0.242913 0 200 255
0.461714 0.307904 0.256777 0 200 255
0.515081 0.256459 0.242737 0 200 255
0.449863 0.318979 0.268333 0 200 255
0.447291 0.304223 0.260426 0 200 255
0.444951 0.399591 0.212508 0 200 255
0.439774 0.346878 0.189192 0 200 255
0.466432 0.264898 0.237122 0 200 255
0.416096 0.327343 0.262359 0 200 255
0.397953 0.342240 0.262330 0 200 255
0.443378 0.332827 0.255465 0 200 255
0.422862 0.308711 0.247101 0 200 255
0.455085 0.387328 0.221132 0 200 255
0.484633 0.311143 0.277978 0 200 255
0.450499 0.260563 0.270087 0 200 255
0.485543 0.274584 0.279580 0 200 255
0.448871 0.381089 0.237960 0 200 255
0.461597 0.318533 0.262083 0 200 255
0.454561 0.395612 0.217258 0 200 255
0.410620 0.218491 0.224484 0 200 255
0.478832 0.385444 0.233254 0 200 255
0.378217 0.210811 0.217175 0 200 255
0.385360 0.233006 0.206190 0 200 255
0.470489 0.370090 0.227100 0 200 255
0.410620 0.216245 0.207648 0 200 255
0.467317 0.386763 0.198736 0 200 255
0.488743 0.353273 0.256924 0 200 255
0.438092 0.270748 0.252834 0 200 255
0.444014 0.335654 0.207576 0 200 255
0.440822 0.273069 0.270316 0 200 255
0.397020 0.221347 0.227909 0 200 255
0.507566 0.315356 0.276743 0 200 255
0.366801 0.222079 0.212421 0 200 255
0.456287 0.345270 0.171381 0 200 255
0.512554 0.236274 0.275085 0 200 255
0.432558 0.227021 0.233855 0 200 255
0.486305 0.373645 0.231571 0 200 255
0.472722 0.354117 0.251258 0 200 255
0.380497 0.352652 0.245947 0 200 255
0.481057 0.232788 0.260974 0 200 255
0.459957 0.302500 0.273682 0 200 255
0.442782 0.240388 0.248934 0 200 255
0.491573 0.281608 0.277047 0 200 255
0.515780 0.310316 0.249949 0 200 255
0.424117 0.318680 0.263424 0 200 255
0.461398 0.361688 0.249212 0 200 255
0.473455 0.401151 0.194365 0 200 255
0.351712 0.230288 0.205098 0 200 255
0.423863 0.307154 0.256758 0 200 255
0.509015 0.287131 0.273571 0 200 255
0.366649 0.222036 0.220816 0 200 255
0.479829 0.227575 0.267432 0 200 255
0.401434 0.232326 0.208429 0 200 255
0.503484 0.323300 0.238647 0 200 255
0.406106 0.213971 0.218944 0 200 255
0.454420 0.347703 0.212992 0 200 255
0.371524 0.229408 0.218331 0 200 255
0.464918 0.382971 0.214045 0 200 255
0.500852 0.281693 0.275583 0 200 255
0.480815 0.329935 0.257888 0 200 255
0.449842 0.278056 0.234341 0 200 255
0.449143 0.390510 0.229046 0 200 255
0.481386 0.295485 0.279653 0 200 255
0.480985 0.268229 0.236990 0 200 255
0.441018 0.338865 0.185409 0 200 255
0.451491 0.304342 0.244382 0 200 255
0.484656 0.269612 0.271769 0 200 255
0.504055 0.237483 0.278234 0 200 255
0.457765 0.254350 0.237794 0 200 255
0.461202 0.240094 0.260354 0 200 255
0.380670 0.360042 0.251605 0 200 255
0.435912 0.400134 0.208210 0 200 255
0.496071 0.351158 0.244174 0 200 255
0.470395 0.260436 0.250150 0 200 255
0.523319 0.294815 0.261333 0 200 255
0.373748 0.366303 0.261215 0 200 255
0.393422 0.235128 0.234049 0 200 255
0.448506 0.232093 0.218484 0 200 255
0.382863 0.365371 0.245108 0 200 255
0.368798 0.225172 0.194631 0 200 255
0.473033 0.368206 0.250414 0 200 255
0.486994 0.322663 0.238345 0 200 255
0.494511 0.328868 0.276312 0 200 255
0.409334 0.240067 0.227838 0 200 255
0.425773 0.233441 0.210565 0 200 255
0.485028 0.358916 0.252935 0 200 255
0.485789 0.347170 0.251269 0 200 255
0.486578 0.247422 0.244370 0 200 255
0.389950 0.219088 0.215936 0 200 255
0.474452 0.238557 0.254288 0 200 255
0.406732 0.344403 0.262629 0 200 255
0.449638 0.246306 0.250684 0 200 255
0.493088 0.340003 0.245698 0 200 255
0.475579 0.399548 0.210600 0 200 255
0.454657 0.271438 0.241033 0 200 255
0.390262 0.340125 0.247027 0 200 255
0.442894 0.339065 0.166590 0 200 255
0.464054 0.345299 0.257009 0 200 255
0.475076 0.333477 0.265903 0 200 255
0.438894 0.241887 0.230937 0 200 255
0.445408 0.343980 0.176092 0 200 255
0.453677 0.296853 0.235444 0 200 255
0.440245 0.268147 0.237755 0 200 255
0.436509 0.239366 0.220001 0 200 255
0.480414 0.348225 0.239099 0 200 255
0.519989 0.309231 0.264754 0 200 255
0.432698 0.230463 0.244403 0 200 255
0.390350 0.226129 0.202907 0 200 255
0.354171 0.229010 0.194280 0 200 255
0.450594 0.290374 0.272710 0 200 255
0.435362 0.275613 0.259525 0 200 255
0.359494 0.221121 0.223679 0 200 255
0.445842 0.349281 0.193721 0 200 255
0.417963 0.238071 0.206743 0 200 255
0.374578 0.377031 0.242643 0 200 255
0.364450 0.371382 0.252856 0 200 255
0.462475 0.387533 0.223774 0 200 255
0.455117 0.341882 0.197683 0 200 255
0.440753 0.313038 0.258109 0 200 255
0.355902 0.374796 0.247858 0 200 255
0.432309 0.285994 0.253329 0 200 255
0.475979 0.314255 0.257030 0 200 255
0.433030 0.288841 0.269066 0 200 255
0.522152 0.241000 0.246723 0 200 255
0.446417 0.337275 0.245076 0 200 255
0.460126 0.346154 0.236709 0 200 255
0.451310 0.340196 0.183814 0 200 255
0.502643 0.260417 0.277115 0 200 255
0.514919 0.257014 0.255292 0 200 255
0.488049 0.309330 0.236706 0 200 255
0.438322 0.299617 0.236979 0 200 255
0.417604 0.334728 0.265262 0 200 255
0.462976 0.248501 0.254882 0 200 255
0.445369 0.344526 0.215120 0 200 255
0.464052 0.339875 0.241723 0 200 255
0.491488 0.263437 0.233848 0 200 255
0.465410 0.293967 0.273003 0 200 255
0.363396 0.233809 0.205221 0 200 255
0.511303 0.264621 0.233913 0 200 255
0.515008 0.261737 0.270736 0 200 255
0.470965 0.356338 0.234353 0 200 255
0.471292 0.305661 0.242933 0 200 255
0.489772 0.365302 0.244327 0 200 255
0.475894 0.258079 0.254760 0 200 255
0.495932 0.239165 0.229488 0 200 255
0.439262 0.390698 0.219220 0 200 255
0.432553 0.223353 0.216025 0 200 255
0.495639 0.255255 0.277900 0 200 255
0.432471 0.238871 0.226700 0 200 255
0.505864 0.234932 0.231825 0 200 255
0.382029 0.355161 0.265136 0 200 255
0.470208 0.280244 0.234355 0 200 255
0.445889 0.351287 0.224979 0 200 255
0.456440 0.324145 0.231137 0 200 255
0.437343 0.305231 0.269450 0 200 255
0.454022 0.336599 0.171431 0 200 255
0.503084 0.245800 0.258574 0 200 255
0.459040 0.397003 0.202120 0 200 255
0.375825 0.228147 0.204283 0 200 255
0.394775 0.354523 0.258673 0 200 255
0.441392 0.351712 0.213202 0 200 255
0.445647 0.255152 0.241191 0 200 255
0.384364 0.210799 0.233004 0 200 255
0.475453 0.301937 0.236922 0 200 255
0.440624 0.339427 0.192972 0 200 255
0.365248 0.366919 0.240198 0 200 255
0.484756 0.244374 0.256063 0 200 255
0.441375 0.398826 0.196314 0 200 255
0.491355 0.322143 0.244438 0 200 255
0.459478 0.301350 0.236321 0 200 255
0.454851 0.343534 0.205614 0 200 255
0.378387 0.218233 0.215188 0 200 255
0.433140 0.247691 0.238524 0 200 255
0.506166 0.328295 0.250153 0 200 255
0.424661 0.224082 0.208978 0 200 255
0.446769 0.231643 0.247314 0 200 255
0.372839 0.228870 0.227193 0 200 255
0.444540 0.262064 0.249461 0 200 255
0.395257 0.334479 0.261095 0 200 255
0.481253 0.255304 0.241698 0 200 255
0.396950 0.224046 0.217563 0 200 255
0.429124 0.216193 0.217838 0 200 255
0.396092 0.216755 0.202298 0 200 255
0.449920 0.329413 0.182508 0 200 255
0.419851 0.213130 0.228809 0 200 255
0.431174 0.313478 0.244579 0 200 255
0.470610 0.377372 0.239045 0 200 255
0.501708 0.330490 0.275745 0 200 255
0.455443 0.332104 0.204672 0 200 255
0.449491 0.314324 0.275331 0 200 255
0.464999 0.270231 0.270978 0 200 255
0.445617 0.345162 0.250867 0 200 255
0.448337 0.348632 0.237406 0 200 255
0.427547 0.325021 0.263033 0 200 255
0.395066 0.234000 0.224697 0 200 255
0.434653 0.219705 0.235701 0 200 255
0.454083 0.334259 0.161907 0 200 255
0.375215 0.353706 0.257335 0 200 255
0.425107 0.246259 0.241548 0 200 255
0.442689 0.228476 0.242160 0 200 255
0.495254 0.306429 0.277067 0 200 255
0.489041 0.240998 0.240430 0 200 255
0.509929 0.325045 0.269375 0 200 255
0.500644 0.232881 0.272670 0 200 255
0.392646 0.359793 0.254052 0 200 255
0.484159 0.295345 0.239447 0 200 255
0.511806 0.272194 0.271418 0 200 255
0.464378 0.373132 0.243851 0 200 255
0.454882 0.348146 0.193226 0 200 255
0.467315 0.259992 0.276650 0 200 255
0.375184 0.376640 0.251251 0 200 255
0.482448 0.373230 0.253047 0 200 255
0.448927 0.405425 0.214073 0 200 255
0.461627 0.328936 0.261998 0 200 255
0.488696 0.276919 0.237532 0 200 255
0.491975 0.300184 0.242235 0 200 255
0.504230 0.279294 0.233743 0 200 255
0.437541 0.303730 0.261312 0 200 255
0.441327 0.225131 0.234860 0 200 255
0.511354 0.330050 0.256510 0 200 255
0.455269 0.388709 0.232178 0 200 255
0.362509 0.240021 0.213542 0 200 255
0.462782 0.326131 0.249645 0 200 255
0.346828 0.226422 0.214461 0 200 255
0.375523 0.366268 0.245525 0 200 255
0.488381 0.254494 0.235860 0 200 255
0.502306 0.250604 0.235653 0 200 255
0.445615 0.346631 0.207671 0 200 255
0.389020 0.227500 0.229240 0 200 255
0.471358 0.291277 0.241857 0 200 255
0.441747 0.239730 0.237386 0 200 255
0.401793 0.215186 0.224431 0 200 255
0.380316 0.221674 0.227373 0 200 255
0.480428 0.382855 0.244606 0 200 255
0.465522 0.303028 0.277988 0 200 255
0.465767 0.317060 0.238765 0 200 255
0.476907 0.245587 0.247294 0 200 255
0.363489 0.231901 0.197868 0 200 255
0.434605 0.237237 0.244610 0 200 255
0.406146 0.230850 0.203413 0 200 255
0.467341 0.293770 0.235877 0 200 255
0.491073 0.230556 0.270115 0 200 255
0.398843 0.215922 0.217242 0 200 255
0.449910 0.283943 0.275903 0 200 255
0.484752 0.227461 0.244314 0 200 255
0.517748 0.312410 0.242369 0 200 255
0.393491 0.353388 0.245056 0 200 255
0.470790 0.279828 0.279414 0 200 255
0.444637 0.392597 0.204271 0 200 255
0.515435 0.268242 0.245439 0 200 255
0.361904 0.383388 0.241663 0 200 255
0.492076 0.247423 0.235910 0 200 255
0.477957 0.361091 0.228710 0 200 255
0.459282 0.335661 0.238783 0 200 255
0.498506 0.313184 0.278401 0 200 255
0.427175 0.242985 0.216215 0 200 255
0.367486 0.374337 0.242778 0 200 255
0.367848 0.214780 0.214408 0 200 255
0.460756 0.353328 0.261526 0 200 255
0.419014 0.226769 0.243994 0 200 255
0.438054 0.284335 0.239797 0 200 255
0.492593 0.358945 0.244802 0 200 255
0.470721 0.237246 0.241814 0 200 255
0.490055 0.259383 0.277315 0 200 255
0.443646 0.301698 0.266089 0 200 255
0.496323 0.276080 0.237363 0 200 255
0.420974 0.237231 0.245145 0 200 255
0.445620 0.303508 0.248906 0 200 255
0.525188 0.288898 0.264451 0 200 255
0.481167 0.229943 0.250972 0 200 255
0.385497 0.215086 0.207402 0 200 255
0.447795 0.300513 0.235870 0 200 255
0.473702 0.352016 0.257793 0 200 255
0.441727 0.312735 0.247747 0 200 255
0.456532 0.365498 0.254333 0 200 255
0.468724 0.322430 0.273130 0 200 255
0.463390 0.392251 0.230256 0 200 255
0.505608 0.245400 0.232047 0 200 255
0.468150 0.364576 0.246931 0 200 255
0.434319 0.291808 0.262546 0 200 255
0.505358 0.305436 0.236320 0 200 255
0.440954 0.344142 0.236035 0 200 255
0.473845 0.263615 0.244523 0 200 255
0.439925 0.223863 0.221972 0 200 255
0.403564 0.338614 0.243334 0 200 255
0.373636 0.212958 0.202980 0 200 255
0.468844 0.396612 0.214303 0 200 255
0.356281 0.238116 0.216739 0 200 255
0.424154 0.304241 0.264933 0 200 255
0.447391 0.312681 0.261844 0 200 255
0.413247 0.229555 0.207228 0 200 255
0.404924 0.325468 0.255672 0 200 255
0.380986 0.370051 0.253539 0 200 255
0.363833 0.220079 0.199322 0 200 255
0.446055 0.375020 0.239488 0 200 255
0.446612 0.325147 0.230161 0 200 255
0.401714 0.331078 0.243558 0 200 255
0.457980 0.237352 0.249241 0 200 255
0.445295 0.347753 0.165777 0 200 255
0.469545 0.325529 0.252627 0 200 255
0.451518 0.400520 0.199667 0 200 255
0.345903 0.226376 0.207576 0 200 255
0.416000 0.337176 0.253402 0 200 255
0.360522 0.239869 0.204004 0 200 255
0.475654 0.382080 0.239398 0 200 255
0.435294 0.298014 0.243379 0 200 255
0.485338 0.225113 0.261901 0 200 255
0.389879 0.344619 0.259106 0 200 255
0.491981 0.331690 0.270665 0 200 255
0.512278 0.245057 0.237349 0 200 255
0.470736 0.240115 0.268193 0 200 255
0.444641 0.329529 0.241094 0 200 255
0.447148 0.394711 0.223583 0 200 255
0.459579 0.292415 0.240100 0 200 255
0.356128 0.225590 0.212789 0 200 255
0.414150 0.239169 0.239463 0 200 255
0.416429 0.328295 0.270463 0 200 255
0.453366 0.251983 0.242471 0 200 255
0.492440 0.358947 0.257311 0 200 255
0.448722 0.382989 0.222109 0 200 255
0.485628 0.325684 0.260750 0 200 255
0.471024 0.243591 0.239498 0 200 255
0.512048 0.324443 0.242469 0 200 255
0.485272 0.335274 0.262396 0 200 255
0.349191 0.237720 0.210972 0 200 255
0.468263 0.383218 0.236609 0 200 255
0.367535 0.383412 0.246862 0 200 255
0.478424 0.277821 0.271635 0 200 255
0.442690 0.409187 0.202630 0 200 255
0.400828 0.350585 0.245414 0 200 255
0.477075 0.314741 0.279466 0 200 255
0.433909 0.217259 0.226627 0 200 255
0.425347 0.298799 0.257324 0 200 255
0.456725 0.355275 0.253614 0 200 255
0.435215 0.318474 0.256479 0 200 255
0.440768 0.250038 0.240833 0 200 255
0.447598 0.341810 0.229012 0 200 255
0.482521 0.317683 0.237641 0 200 255
0.464838 0.255060 0.238415 0 200 255
0.462683 0.268400 0.232786 0 200 255
0.452967 0.376102 0.250099 0 200 255
0.463181 0.265886 0.276657 0 200 255
0.468035 0.407087 0.203202 0 200 255
0.449928 0.324278 0.219001 0 200 255
0.402657 0.222195 0.206324 0 200 255
0.458787 0.337680 0.217911 0 200 255
0.518044 0.286636 0.237849 0 200 255
0.447483 0.386713 0.212439 0 200 255
0.383314 0.219917 0.201846 0 200 255
0.378542 0.218280 0.206316 0 200 255
0.479951 0.355057 0.261555 0 200 255
0.455377 0.379180 0.240204 0 200 255
0.363563 0.382162 0.255143 0 200 255
0.511664 0.250364 0.249553 0 200 255
0.500860 0.246019 0.243611 0 200 255
0.407184 0.327277 0.243465 0 200 255
0.517179 0.307566 0.271951 0 200 255
0.460700 0.394551 0.222350 0 200 255
0.463296 0.335818 0.254083 0 200 255
0.416002 0.319860 0.264171 0 200 255
0.437756 0.314204 0.271305 0 200 255
0.491542 0.269533 0.277563 0 200 255
0.469593 0.399307 0.222095 0 200 255
0.463800 0.335025 0.246255 0 200 255
0.447393 0.270344 0.238620 0 200 255
0.395447 0.337936 0.268408 0 200 255
0.440166 0.341239 0.218646 0 200 255
0.422963 0.329043 0.252523 0 200 255
0.494424 0.232725 0.229348 0 200 255
0.501137 0.288707 0.238240 0 200 255
0.468550 0.388548 0.219060 0 200 255
0.470303 0.370086 0.235238 0 200 255
0.459046 0.316252 0.277125 0 200 255
0.468246 0.310802 0.257020 0 200 255
0.455076 0.337629 0.246661 0 200 255
0.474431 0.306588 0.279626 0 200 255
0.477999 0.392091 0.234203 0 200 255
0.488858 0.357692 0.232793 0 200 255
0.434482 0.244468 0.216339 0 200 255
0.451342 0.345367 0.246711 0 200 255
0.485449 0.237099 0.233238 0 200 255
0.406810 0.232482 0.238549 0 200 255
0.430053 0.286228 0.246048 0 200 255
0.393999 0.229837 0.206920 0 200 255
0.484475 0.365328 0.257106 0 200 255
0.413015 0.339318 0.264278 0 200 255
0.478877 0.311553 0.243268 0 200 255
0.478939 0.350065 0.249471 0 200 255
0.379286 0.350552 0.261379 0 200 255
0.469506 0.324856 0.262445 0 200 255
0.414559 0.330346 0.243964 0 200 255
0.505209 0.255119 0.243379 0 200 255
0.459934 0.334737 0.226323 0 200 255
0.439945 0.340420 0.205455 0 200 255
0.397996 0.332544 0.249136 0 200 255
0.474947 0.393754 0.214548 0 200 255
0.405164 0.232476 0.221420 0 200 255
0.386621 0.360260 0.259237 0 200 255
0.386547 0.212926 0.199838 0 200 255
0.376233 0.212637 0.226786 0 200 255
0.496611 0.347219 0.261333 0 200 255
0.481088 0.386537 0.222757 0 200 255
0.363507 0.365416 0.250425 0 200 255
0.502880 0.288680 0.275096 0 200 255
0.453424 0.327493 0.242768 0 200 255
0.407094 0.211366 0.212086 0 200 255
0.381559 0.229556 0.210176 0 200 255
0.448236 0.273131 0.275118 0 200 255
0.472758 0.310043 0.237659 0 200 255
0.452327 0.292668 0.240221 0 200 255
0.388276 0.216371 0.221590 0 200 255
0.463539 0.376276 0.228838 0 200 255
0.440150 0.345702 0.226620 0 200 255
0.452751 0.336387 0.177987 0 200 255
0.396812 0.350672 0.268021 0 200 255
0.384564 0.207671 0.214403 0 200 255
0.500829 0.339994 0.255104 0 200 255
0.449439 0.321784 0.246315 0 200 255
0.420242 0.218791 0.212159 0 200 255
0.433166 0.299769 0.265035 0 200 255
0.471268 0.376990 0.247303 0 200 255
0.451831 0.352219 0.206093 0 200 255
0.454071 0.379525 0.221093 0 200 255
0.487755 0.333970 0.248922 0 200 255
0.501680 0.254253 0.274386 0 200 255
0.430323 0.294503 0.270973 0 200 255
0.451908 0.373333 0.242034 0 200 255
0.403878 0.327612 0.266646 0 200 255
0.480074 0.238274 0.237582 0 200 255
0.472583 0.252608 0.276576 0 200 255
0.494383 0.243597 0.273392 0 200 255
0.476967 0.283970 0.279875 0 200 255
0.416585 0.313451 0.265129 0 200 255
