ply
format ascii 1.0
element vertex 1024
property float x
property float y
property float z
end_header
0.557120 0.044389 0.081445
0.629072 -0.049263 0.037402
0.572277 0.053842 0.057128
0.572536 0.052935 0.049988
0.625803 -0.041480 0.041332
0.591804 0.022244 0.060452
0.531285 0.063745 0.024933
0.598092 0.011166 0.045980
0.605791 -0.040052 0.017959
0.526175 0.073853 0.066989
0.626177 -0.042484 0.041379
0.575055 0.026116 0.025329
0.514270 0.012959 0.078893
0.500264 0.011610 0.057731
0.514502 0.061809 0.025135
0.581275 0.022141 0.028612
0.595947 -0.069377 0.023469
0.627552 -0.057901 0.036277
0.513916 0.024397 0.081227
0.537415 -0.023691 0.012081
0.525121 -0.035812 0.038476
0.555557 -0.059813 0.032597
0.494153 0.056302 0.051843
0.607380 -0.062790 0.018646
0.587782 -0.071744 0.038220
0.505375 -0.006437 0.041102
0.537215 -0.030808 0.014273
0.573680 -0.017031 0.012189
0.548116 0.072424 0.054502
0.525896 0.056520 0.019181
0.515932 0.044379 0.016249
0.601373 -0.013530 0.027144
0.500923 0.048802 0.027313
0.571831 0.036883 0.028822
0.493731 0.054810 0.050212
0.613085 -0.021147 0.035071
0.557632 -0.039451 0.069680
0.610150 -0.058831 0.017386
0.499249 0.025646 0.064858
0.592746 -0.032749 0.067740
0.510683 0.025024 0.017167
0.534531 0.071016 0.070574
0.571714 0.046516 0.036656
0.561554 0.023252 0.085043
0.520702 -0.026788 0.052006
0.608135 -0.071728 0.028513
0.529165 -0.039884 0.029594
0.498209 0.015730 0.054531
0.504769 0.064860 0.034121
0.493729 0.048462 0.040875
0.616105 -0.032549 0.026172
0.555400 -0.050306 0.017865
0.570071 0.035386 0.078504
0.575833 0.037695 0.072728
0.522717 -0.007952 0.075491
0.569514 -0.028293 0.075526
0.583427 0.033130 0.066363
0.519235 0.076501 0.060752
0.575136 -0.058270 0.018069
0.603591 -0.021881 0.061396
0.599585 -0.045117 0.015673
0.567766 -0.007308 0.081130
0.575872 0.042494 0.069108
0.570393 0.043017 0.031880
0.540528 0.061307 0.077535
0.548326 0.016586 0.009974
0.607585 -0.070551 0.026050
0.606165 -0.016766 0.056828
0.500249 0.037473 0.026805
0.608948 -0.051618 0.056181
0.572256 0.040220 0.031605
0.575582 -0.059722 0.018877
0.608258 -0.041061 0.018346
0.527123 -0.012109 0.075930
0.516500 0.063767 0.074993
0.520305 -0.010561 0.071713
0.600299 -0.027720 0.019524
0.547136 -0.044010 0.061423
0.496488 0.051663 0.062817
0.576324 0.019704 0.023204
0.515601 0.077191 0.046446
0.496485 0.049696 0.063168
0.539195 -0.002572 0.084565
0.502922 -0.000797 0.040059
0.570103 0.000201 0.013604
0.603238 -0.022714 0.061850
0.501840 0.064300 0.065291
0.513268 0.053651 0.077980
0.536349 -0.044138 0.024053
0.545599 -0.031865 0.012072
0.583377 -0.061396 0.018690
0.573750 -0.058855 0.018684
0.513246 -0.015688 0.029132
0.516350 0.069947 0.070332
0.583229 0.009718 0.075406
0.504454 0.002118 0.030048
0.544201 0.045159 0.017050
0.613031 -0.026762 0.027990
0.558669 0.033016 0.084582
0.611348 -0.033688 0.022344
0.569882 -0.037762 0.071517
0.559314 -0.061759 0.036570
0.496442 0.035792 0.062339
0.603607 -0.014060 0.059203
0.590682 0.024047 0.061215
0.549486 0.070132 0.044934
0.580847 0.009466 0.076965
0.502600 0.052562 0.027050
0.571120 -0.033889 0.073160
0.575697 -0.027811 0.074474
0.543295 -0.007451 0.008680
0.560696 -0.062630 0.035431
0.519416 0.060019 0.022290
0.581688 -0.008882 0.016395
0.496549 0.019852 0.042589
0.586257 -0.051313 0.014390
0.592533 -0.036920 0.066953
0.520615 0.055708 0.079846
0.531831 0.004782 0.009689
0.554895 -0.057849 0.043409
0.574619 0.019943 0.022092
0.557290 0.009882 0.086160
0.564147 0.060315 0.062472
0.535846 -0.043735 0.024118
0.502202 0.000470 0.045108
0.591153 0.018060 0.065045
0.566619 0.059492 0.054386
0.579212 -0.002236 0.077450
0.500480 0.020678 0.064977
0.545038 0.066879 0.034313
0.588686 -0.034524 0.014352
0.578893 -0.064589 0.050325
0.523929 0.068136 0.029015
0.493109 0.047005 0.043129
0.525858 0.049702 0.015980
0.588114 -0.055155 0.015423
0.498798 0.016874 0.058077
0.523419 0.013475 0.084413
0.528450 0.076237 0.042517
0.555730 0.022748 0.086840
0.564802 0.007378 0.083860
0.563870 -0.062928 0.042476
0.545795 -0.038357 0.014341
0.501341 0.004965 0.052707
0.498263 0.065793 0.048849
0.594705 -0.055052 0.015389
0.519540 0.060042 0.077765
0.496512 0.029590 0.060091
0.515720 0.077848 0.051156
0.511812 0.067195 0.071066
0.495855 0.060091 0.056082
0.575980 0.017299 0.021893
0.564699 -0.047517 0.065096
0.625908 -0.049545 0.044164
0.572744 0.052066 0.062026
0.546306 -0.043418 0.016736
0.555541 -0.020130 0.008648
0.546797 0.065823 0.071847
0.534521 -0.042994 0.024797
0.496657 0.021447 0.039841
0.621537 -0.043681 0.022647
0.522764 0.061579 0.077659
0.517098 -0.002394 0.074215
0.603126 -0.073208 0.030963
0.510427 0.049514 0.020095
0.524867 -0.017911 0.069725
0.557035 -0.047880 0.062738
0.508088 0.007305 0.070092
0.579513 0.025390 0.075196
0.596955 -0.011106 0.065813
0.568949 -0.065811 0.040703
0.616099 -0.061736 0.020594
0.623986 -0.062659 0.036570
0.590091 -0.043953 0.065648
0.616191 -0.024917 0.036429
0.535557 -0.013634 0.079281
0.576256 -0.069629 0.036847
0.520327 0.018564 0.012337
0.554425 -0.011277 0.008364
0.575115 0.004693 0.079798
0.561753 0.051282 0.075626
0.512109 0.024938 0.080152
0.566997 -0.063321 0.045598
0.497005 0.032658 0.062695
0.496252 0.037934 0.033544
0.620698 -0.051951 0.048951
0.556177 0.010555 0.010886
0.526699 0.064332 0.024991
0.588264 0.022193 0.067062
0.594411 -0.041274 0.015030
0.527409 0.058994 0.020712
0.503556 0.054853 0.027348
0.542992 -0.050720 0.026537
0.531051 0.076512 0.044637
0.580914 0.006351 0.076984
0.565391 -0.062684 0.025222
0.516283 -0.016762 0.060421
0.519547 0.042269 0.082882
0.580150 -0.011650 0.076086
0.495163 0.058063 0.044916
0.599603 -0.041891 0.016068
0.616421 -0.067693 0.027342
0.537677 0.041589 0.086352
0.581517 -0.054469 0.015460
0.562913 0.025674 0.084294
0.509147 0.072203 0.039940
0.590043 -0.069530 0.044255
0.595265 -0.070854 0.025189
0.567515 -0.065451 0.039547
0.542542 -0.019045 0.009975
0.555419 0.066500 0.063017
0.531455 0.047056 0.084476
0.527157 0.054367 0.017986
0.620002 -0.034601 0.046449
0.622989 -0.051713 0.047077
0.607354 -0.011077 0.038755
0.525153 0.071100 0.032797
0.594851 -0.040471 0.015197
0.605217 -0.037917 0.018335
0.543660 0.006517 0.087170
0.558077 -0.049827 0.061171
0.581130 0.018173 0.075797
0.549145 0.011774 0.087685
0.597147 -0.002633 0.063712
0.517492 0.029482 0.083082
0.624175 -0.041698 0.044535
0.582381 -0.071684 0.034767
0.610325 -0.062857 0.049315
0.512700 0.032532 0.015894
0.513383 -0.019819 0.036145
0.562902 0.030188 0.019092
0.548339 0.055469 0.078908
0.512067 0.047680 0.018669
0.563882 -0.038188 0.071225
0.575847 -0.023033 0.012163
0.562937 -0.001281 0.010851
0.607353 -0.034638 0.059557
0.511779 0.076641 0.049364
0.522992 -0.009671 0.074602
0.519048 0.001052 0.077514
0.577369 -0.069854 0.037455
0.518772 0.022483 0.083579
0.559839 0.032818 0.018559
0.502089 0.003000 0.036398
0.541899 0.019412 0.088605
0.565435 -0.054888 0.058437
0.553448 -0.050238 0.058034
0.602389 -0.060118 0.016906
0.576816 0.001695 0.078849
0.560144 0.009120 0.011914
0.523256 0.075042 0.039136
0.517767 -0.026378 0.042571
0.595618 0.004526 0.063719
0.541265 0.006416 0.087050
0.582345 -0.043770 0.067358
0.550289 0.038046 0.085781
0.540399 0.034334 0.012300
0.506068 0.069454 0.038522
0.538364 0.042549 0.014358
0.537065 -0.029338 0.013811
0.502341 0.034562 0.072082
0.562633 0.003720 0.011632
0.598802 -0.045155 0.015529
0.577746 -0.024531 0.074773
0.582584 -0.016194 0.015223
0.587282 0.009651 0.072214
0.555763 0.065046 0.065616
0.558768 0.065373 0.049512
0.520949 0.042038 0.014374
0.582739 0.040076 0.057195
0.531811 0.056083 0.019216
0.607597 -0.027044 0.023664
0.597062 0.005425 0.035741
0.559670 -0.049831 0.016381
0.555478 0.042871 0.020766
0.566334 -0.046829 0.013754
0.561766 -0.041721 0.068840
0.498827 0.047285 0.029569
0.595563 0.015064 0.057908
0.557241 0.039562 0.083245
0.535939 -0.031946 0.065704
0.533762 0.072995 0.037503
0.500535 0.050614 0.028418
0.496943 0.025143 0.036151
0.508596 -0.008848 0.055710
0.563518 -0.062227 0.044183
0.625510 -0.046870 0.024775
0.565627 0.021731 0.017443
0.551453 -0.050455 0.056094
0.498497 0.053915 0.032769
0.576777 0.019392 0.023398
0.599551 -0.060429 0.016997
0.566277 -0.007651 0.011004
0.517466 -0.024826 0.047308
0.504695 0.047204 0.073890
0.603200 -0.047291 0.060151
0.586520 0.021593 0.069674
0.508151 0.033525 0.018764
0.583947 0.032787 0.040063
0.602847 -0.007379 0.033688
0.511784 0.009712 0.017503
0.608499 -0.070737 0.039064
0.549990 0.007421 0.087085
0.602679 -0.037400 0.062321
0.564336 0.006250 0.083922
0.547647 -0.017782 0.080103
0.590783 -0.013224 0.019736
0.530936 0.001462 0.010051
0.528032 0.074900 0.065054
0.594448 0.018973 0.046249
0.496226 0.051404 0.035416
0.561963 -0.051731 0.016933
0.552879 -0.057504 0.028083
0.584058 -0.060555 0.055989
0.526883 -0.036444 0.043951
0.525313 -0.013138 0.073983
0.576149 -0.051290 0.014555
0.590909 -0.007109 0.022259
0.558954 0.056476 0.073395
0.606688 -0.072677 0.031339
0.573270 0.037443 0.075255
0.504534 0.071391 0.043992
0.536135 0.011851 0.087550
0.517341 0.000331 0.015278
0.560141 0.064766 0.056051
0.571915 -0.039361 0.070616
0.572293 0.009880 0.081212
0.503715 0.072109 0.051617
0.556088 -0.013299 0.008469
0.600376 -0.066365 0.020683
0.565544 0.049330 0.032347
0.598001 0.011413 0.046097
0.502873 0.000917 0.052376
0.555362 0.064166 0.039641
0.620220 -0.065138 0.039140
0.592759 -0.048383 0.063240
0.493721 0.044624 0.056467
0.524321 -0.004372 0.078518
0.625689 -0.045194 0.026010
0.623274 -0.047541 0.022146
0.538276 -0.001201 0.084815
0.570720 0.054988 0.050464
0.512798 -0.001197 0.070606
0.599700 -0.021172 0.064627
0.551872 0.059417 0.030226
0.581892 0.029374 0.033956
0.519204 0.065989 0.074332
0.513841 0.040854 0.080706
0.626973 -0.041322 0.034717
0.566513 0.042090 0.077882
0.597681 -0.051696 0.015150
0.598017 -0.072882 0.028455
0.543759 -0.050566 0.044757
0.610322 -0.046729 0.056730
0.587400 0.021648 0.068547
0.553916 0.036339 0.085296
0.588248 -0.069125 0.044799
0.579580 -0.004077 0.077123
0.600731 -0.065833 0.049446
0.519306 0.031959 0.013197
0.595357 0.017473 0.055079
0.618154 -0.029894 0.031331
0.601747 -0.063961 0.051251
0.611143 -0.017527 0.037269
0.525862 0.011860 0.085032
0.536664 -0.040993 0.054587
0.558946 0.013047 0.012411
0.601071 -0.062937 0.052387
0.501603 0.053074 0.028309
0.591210 -0.043115 0.065638
0.551649 -0.010132 0.083185
0.567104 -0.040614 0.011605
0.558839 -0.061643 0.031983
0.579849 -0.035819 0.071016
0.614670 -0.023376 0.034861
0.578623 -0.048895 0.013659
0.581032 -0.018571 0.074793
0.492970 0.050289 0.050086
0.537821 0.073339 0.040390
0.517437 0.021514 0.013475
0.585127 0.036795 0.052054
0.505369 -0.002063 0.031930
0.544172 0.074156 0.055709
0.562185 0.002079 0.011170
0.534307 -0.018823 0.075626
0.568961 0.038633 0.027411
0.534810 -0.045731 0.035019
0.520911 0.010660 0.082393
0.577470 -0.063263 0.051850
0.564062 -0.054720 0.058141
0.529350 0.077496 0.056491
0.534457 -0.043813 0.043368
0.629221 -0.050819 0.031348
0.568682 0.030254 0.022620
0.590072 -0.002801 0.023530
0.572739 0.015491 0.080987
0.522152 0.062348 0.023528
0.577878 0.019365 0.024224
0.545565 0.071745 0.063889
0.542854 -0.050867 0.027113
0.492960 0.049805 0.046594
0.545318 -0.045827 0.057430
0.609549 -0.027652 0.056748
0.588236 -0.015596 0.017650
0.501692 0.069208 0.057902
0.561433 0.054793 0.033556
0.509952 0.006261 0.019835
0.608451 -0.039094 0.058722
0.542501 0.007718 0.008644
0.582879 0.005609 0.021806
0.541767 -0.016881 0.079500
0.518442 -0.021031 0.057949
0.603457 -0.002564 0.041492
0.521503 0.077192 0.044132
0.583643 0.008306 0.075202
0.527100 -0.034487 0.049913
0.620862 -0.031512 0.036279
0.499190 0.039338 0.067950
0.592730 -0.002200 0.068541
0.583209 0.029809 0.069258
0.500791 0.029439 0.069003
0.519229 0.076637 0.043014
0.554026 0.033716 0.016393
0.551442 -0.017143 0.080709
0.584198 -0.036442 0.013140
0.515856 0.076638 0.044400
0.509219 0.041204 0.018524
0.624809 -0.037635 0.034441
0.522065 -0.019244 0.065454
0.517156 0.070798 0.069644
0.596220 -0.030484 0.017096
0.558972 0.040737 0.082188
0.596102 -0.069745 0.023849
0.547995 0.008728 0.008875
0.551098 -0.016659 0.080888
0.564174 0.056942 0.068570
0.604079 -0.015479 0.028299
0.557694 0.060707 0.070033
0.507781 0.038557 0.019162
0.610194 -0.054606 0.054433
0.593448 -0.072211 0.037989
0.536346 0.038112 0.087184
0.507012 0.008787 0.069497
0.614967 -0.027060 0.029928
0.607485 -0.045154 0.058603
0.583985 -0.028595 0.071881
0.508583 -0.001587 0.064383
0.508737 -0.003424 0.026131
0.550228 0.050729 0.022320
0.615861 -0.046027 0.053302
0.549674 -0.003675 0.008282
0.615794 -0.069008 0.030829
0.540241 -0.014118 0.080456
0.543856 -0.051756 0.027651
0.573872 -0.013185 0.078216
0.500709 0.050419 0.069307
0.581075 0.019805 0.027130
0.587127 -0.019370 0.072172
0.519803 0.063735 0.025124
0.499994 0.066910 0.044294
0.592681 0.000157 0.068268
0.534661 0.007260 0.009200
0.539606 0.000474 0.085489
0.585685 -0.022018 0.015207
0.581607 0.041937 0.051691
0.546857 -0.002748 0.085236
0.610449 -0.016172 0.046280
0.604853 -0.009478 0.034880
0.598967 0.006683 0.055854
0.575802 -0.067707 0.026261
0.573785 -0.020084 0.076894
0.556044 -0.051590 0.018561
0.499939 0.048159 0.068672
0.575202 0.040492 0.035138
0.514196 -0.008472 0.021658
0.625538 -0.055563 0.024296
0.573888 -0.021201 0.011793
0.524926 -0.027902 0.058167
0.494130 0.047087 0.038989
0.513078 0.061896 0.025823
0.550462 -0.055875 0.040982
0.533512 0.006024 0.085880
0.614929 -0.067871 0.026110
0.521075 0.078048 0.047584
0.539120 -0.045618 0.049048
0.565392 0.060174 0.050572
0.500714 0.026639 0.027652
0.593859 -0.006252 0.024889
0.527650 -0.016108 0.013783
0.596394 -0.020509 0.020180
0.535538 -0.046380 0.032925
0.585692 -0.026288 0.071733
0.586350 -0.008991 0.018682
0.561262 0.055679 0.072522
0.556037 0.039186 0.019345
0.508761 0.001323 0.067028
0.536338 -0.045094 0.025593
0.527407 -0.010880 0.012703
0.569077 -0.027354 0.075918
0.541231 -0.018743 0.078384
0.603459 -0.070229 0.042019
0.568551 -0.060257 0.052716
0.544433 0.059803 0.026090
0.615448 -0.025280 0.045856
0.560185 -0.008043 0.082863
0.515716 0.066274 0.073208
0.560622 -0.017778 0.008890
0.565600 0.011104 0.083808
0.510514 -0.014126 0.034712
0.530993 -0.038921 0.048373
0.536557 0.076570 0.053512
0.624345 -0.059418 0.025188
0.596486 0.011010 0.059013
0.613077 -0.052922 0.053567
0.606199 -0.068992 0.043612
0.547912 0.016509 0.009878
0.584254 0.023284 0.071503
0.596959 -0.002742 0.029708
0.613630 -0.062681 0.020220
0.577757 -0.000550 0.016646
0.567114 0.041715 0.027873
0.498751 0.066453 0.054471
0.613491 -0.024680 0.049750
0.533916 0.075323 0.063052
0.578378 0.016617 0.023314
0.528819 0.076864 0.044561
0.549456 0.066322 0.037003
0.520988 0.004537 0.080268
0.513848 0.034219 0.081252
0.553763 0.001907 0.008970
0.580742 0.042424 0.048705
0.613558 -0.064347 0.021434
0.527919 0.033385 0.011621
0.601528 -0.073390 0.031431
0.565183 0.058547 0.044453
0.525999 0.068639 0.029586
0.550315 0.068558 0.065447
0.574919 -0.025114 0.075390
0.537345 0.030719 0.088241
0.564243 -0.062721 0.043738
0.509986 -0.014890 0.040891
0.553883 0.014936 0.011112
0.552261 -0.020115 0.008765
0.586935 -0.017568 0.072442
0.600293 -0.009167 0.029065
0.598885 -0.070716 0.024936
0.508591 -0.012548 0.044849
0.551827 0.047679 0.081806
0.536947 -0.040386 0.056026
0.594938 -0.050149 0.014830
0.624346 -0.055898 0.044397
0.578142 -0.028242 0.012279
0.580752 -0.058316 0.057896
0.509026 0.070073 0.036810
0.612933 -0.055409 0.017275
0.596114 -0.061296 0.054738
0.493297 0.051096 0.052726
0.538312 0.042632 0.014375
0.502119 0.027815 0.025348
0.532452 0.014675 0.087358
0.619596 -0.064817 0.040852
0.607115 -0.013455 0.034122
0.548687 -0.010382 0.008358
0.620855 -0.033624 0.030959
0.606952 -0.030217 0.021725
0.512999 0.030526 0.080908
0.571045 -0.030558 0.074477
0.558487 0.062724 0.041179
0.550940 0.070577 0.058570
0.571333 0.033461 0.078406
0.609964 -0.026081 0.025852
0.549832 -0.052953 0.049106
0.559276 0.036586 0.019827
0.502983 0.007284 0.029714
0.614938 -0.064957 0.044935
0.558196 0.040603 0.021108
0.493711 0.041604 0.055915
0.498063 0.029224 0.063808
0.579398 0.044493 0.049598
0.586489 -0.055030 0.060531
0.506939 0.025073 0.020175
0.626609 -0.040733 0.037069
0.604068 -0.055512 0.015909
0.564093 0.007796 0.013025
0.529601 0.020760 0.087187
0.525316 -0.035410 0.029127
0.554598 -0.037899 0.070092
0.525212 -0.036210 0.034744
0.595915 -0.069421 0.044658
0.492641 0.042564 0.047743
0.518720 0.075098 0.063804
0.566723 0.009635 0.014426
0.529188 0.041199 0.013116
0.503246 0.024106 0.024398
0.524778 0.018665 0.011001
0.566303 0.024663 0.083070
0.563015 -0.011605 0.009657
0.528763 -0.036154 0.023501
0.529253 0.010848 0.085946
0.584061 -0.029856 0.071578
0.553168 0.058808 0.074804
0.589283 0.009259 0.028927
0.536857 -0.005029 0.009455
0.605361 -0.023649 0.060053
0.514536 0.026637 0.081685
0.540868 -0.020984 0.076974
0.501839 0.027759 0.070234
0.558764 -0.032318 0.074118
0.559906 -0.037447 0.011204
0.593595 -0.002583 0.026541
0.539186 -0.000382 0.085199
0.506895 0.032761 0.076794
0.533665 -0.014531 0.011360
0.554605 -0.033773 0.072749
0.539139 0.024313 0.010054
0.628751 -0.054231 0.037129
0.508052 0.070010 0.066095
0.569832 -0.066907 0.037851
0.559610 0.034814 0.019244
0.549978 0.038154 0.085824
0.606216 -0.029747 0.060150
0.537045 0.027916 0.088368
0.593584 -0.038966 0.066077
0.538816 0.046612 0.084630
0.528899 -0.012989 0.076467
0.621114 -0.040489 0.024442
0.579649 0.039753 0.066060
0.518742 0.018240 0.012937
0.514925 -0.012668 0.063379
0.574324 0.001862 0.015672
0.578998 -0.069986 0.028454
0.584053 -0.048773 0.013756
0.555793 -0.040306 0.012740
0.516283 -0.024037 0.044781
0.555323 -0.045162 0.014929
0.505052 -0.002354 0.033221
0.527442 -0.035354 0.048658
0.557910 0.000687 0.084928
0.592686 -0.057079 0.015940
0.540957 0.022273 0.088678
0.618736 -0.060547 0.046385
0.508979 0.003746 0.069055
0.526359 -0.022204 0.066938
0.613921 -0.041186 0.054853
0.618349 -0.060591 0.020975
0.620014 -0.040413 0.049321
0.581328 -0.036407 0.070477
0.591567 0.025702 0.054851
0.502830 0.023314 0.025085
0.508351 0.026377 0.077483
0.554900 0.036687 0.017811
0.543799 0.074116 0.050552
0.519817 0.013719 0.082714
0.578104 0.002124 0.017590
0.578518 -0.025971 0.012600
0.621084 -0.052943 0.048404
0.573810 -0.050356 0.063960
0.505083 0.051424 0.073467
0.560947 0.062268 0.063784
0.516514 -0.005312 0.071849
0.565501 0.019507 0.083832
0.600208 -0.037374 0.063592
0.578578 0.023311 0.076546
0.528214 0.071637 0.070194
0.546234 -0.000920 0.008344
0.559477 0.057580 0.034704
0.525629 -0.036648 0.033669
0.544855 0.068386 0.036418
0.592447 -0.002252 0.025718
0.496464 0.027675 0.036268
0.504931 0.023584 0.022388
0.610944 -0.063883 0.048135
0.561900 0.051675 0.075263
0.515102 0.045622 0.080630
0.578656 -0.070731 0.034730
0.612828 -0.026232 0.052041
0.561023 0.062837 0.062166
0.618751 -0.034465 0.048307
0.591175 -0.072331 0.037246
0.592439 0.022451 0.058279
0.549989 0.012389 0.009600
0.531434 -0.031043 0.062367
0.559624 -0.050269 0.061336
0.534836 -0.044561 0.027190
0.616777 -0.036188 0.051534
0.548975 0.049205 0.020838
0.536479 0.052592 0.082407
0.553712 0.028077 0.014540
0.497494 0.016105 0.050908
0.589267 0.029448 0.048756
0.586004 0.006738 0.024713
0.527961 0.069218 0.030438
0.506991 -0.009765 0.043921
0.566082 -0.027188 0.076360
0.509018 0.028907 0.018223
0.526025 0.002693 0.082334
0.573096 -0.053220 0.061672
0.533667 0.077084 0.050752
0.588168 0.031442 0.056819
0.541079 -0.031036 0.013027
0.609707 -0.050717 0.056082
0.549968 0.057465 0.027119
0.526800 -0.006575 0.012109
0.586338 -0.030153 0.070718
0.597104 -0.011834 0.024609
0.618094 -0.049019 0.051405
0.603904 -0.010375 0.032395
0.534880 -0.029153 0.067562
0.527930 -0.026414 0.017149
0.538205 0.075188 0.061058
0.615184 -0.057420 0.050494
0.573381 -0.007195 0.013476
0.584865 -0.056512 0.016079
0.565203 0.043502 0.077995
0.568013 0.056396 0.045916
0.569135 -0.034822 0.072934
0.525797 -0.026088 0.018570
0.556023 -0.054973 0.021426
0.553264 -0.056575 0.044540
0.511970 0.005970 0.073833
0.525918 0.074460 0.065938
0.583276 0.036545 0.062854
0.494323 0.029194 0.048008
0.588405 -0.047254 0.064682
0.593067 -0.018383 0.019159
0.513826 -0.010155 0.023254
0.539754 0.024810 0.010165
0.569768 0.002593 0.081765
0.573732 0.016828 0.080445
0.581839 0.041310 0.057600
0.617452 -0.062245 0.021595
0.579683 -0.057784 0.058297
0.552451 0.031213 0.015044
0.597132 -0.073172 0.034724
0.558730 -0.029588 0.009591
0.531140 -0.040801 0.026652
0.583460 0.003488 0.075442
0.580038 -0.006423 0.076695
0.529814 0.020615 0.087232
0.610623 -0.016988 0.036702
0.498164 0.056902 0.064265
0.547761 0.021600 0.010873
0.537474 0.038507 0.012891
0.627512 -0.049271 0.026870
0.511897 0.053101 0.020896
0.574000 -0.057108 0.058240
0.495146 0.036772 0.059284
0.528858 0.018535 0.086919
0.550087 0.030710 0.014110
0.572180 -0.040013 0.011499
0.524016 0.071778 0.069776
0.599287 -0.002075 0.032992
0.539988 0.066922 0.073540
0.527891 -0.036673 0.025536
0.618942 -0.028781 0.036329
0.569776 -0.019190 0.010796
0.623865 -0.054494 0.022119
0.588861 0.028748 0.045533
0.545668 0.003618 0.008450
0.552186 -0.034942 0.071484
0.606013 -0.061738 0.017869
0.545418 0.028307 0.011925
0.591139 -0.002227 0.024636
0.551451 0.001351 0.085971
0.493053 0.051142 0.048929
0.520575 -0.030571 0.035236
0.514029 -0.020668 0.046156
0.507963 -0.000751 0.064042
0.533778 0.076946 0.049474
0.595050 -0.050258 0.014846
0.537191 0.074992 0.062434
0.616040 -0.066790 0.025382
0.543556 0.033708 0.087921
0.587945 -0.013347 0.072231
0.493722 0.051332 0.042803
0.508805 0.022102 0.077150
0.549487 -0.052650 0.022849
0.624429 -0.044500 0.024854
0.533813 0.076669 0.047660
0.568867 -0.034759 0.010546
0.557631 0.059112 0.034718
0.571380 0.000551 0.014155
0.526050 0.027026 0.011137
0.615978 -0.068088 0.038662
0.557968 0.065637 0.048030
0.614601 -0.038706 0.021437
0.598169 -0.060993 0.054640
0.572052 -0.023351 0.011075
0.526082 -0.004719 0.079382
0.548032 -0.035340 0.069902
0.551883 0.020226 0.087759
0.506169 0.015261 0.022108
0.602769 -0.055662 0.056979
0.510108 0.063942 0.029197
0.517650 0.074072 0.065387
0.541242 0.071427 0.038971
0.503728 0.046498 0.073089
0.572753 -0.020232 0.077145
0.515168 -0.003933 0.071400
0.551943 -0.010451 0.008282
0.493127 0.050866 0.051367
0.565781 -0.042625 0.012291
0.585855 -0.037653 0.013449
0.579058 -0.049273 0.013762
0.548614 0.059151 0.076540
0.611429 -0.024899 0.053372
0.532650 0.023826 0.087836
0.542616 -0.008312 0.083227
0.602245 -0.050324 0.059555
0.578939 0.043953 0.061687
0.541898 0.061054 0.025996
0.519224 0.074740 0.039065
0.499169 0.064767 0.042432
0.570569 0.014024 0.081963
0.498071 0.055809 0.064505
0.505967 0.022257 0.021400
0.513843 0.043004 0.080450
0.575585 -0.027579 0.011678
0.507738 0.022375 0.076191
0.612173 -0.018392 0.042213
0.567304 0.030843 0.081467
0.536514 0.002617 0.085580
0.589557 0.016356 0.033659
0.529219 -0.020228 0.014159
0.596183 0.015058 0.045464
0.602874 -0.001099 0.041932
0.570484 0.040962 0.030394
0.530373 -0.040917 0.040232
0.585751 -0.028366 0.071307
0.509691 0.012231 0.074566
0.507374 -0.010362 0.045518
0.566428 0.036149 0.024000
0.555572 0.067221 0.060607
0.598130 -0.027866 0.018519
0.548336 0.020953 0.010874
0.541542 -0.043519 0.056840
0.560384 0.060710 0.067439
0.585800 0.027012 0.037167
0.572311 0.036098 0.028748
0.594142 0.020374 0.048341
0.500963 0.038905 0.070447
0.522788 -0.015874 0.016464
0.599508 -0.012032 0.063460
0.494185 0.047285 0.038867
0.500749 0.016361 0.030341
0.514040 -0.013308 0.061159
0.542921 -0.027140 0.073723
0.615939 -0.038640 0.052951
0.519334 -0.026243 0.027599
0.555115 -0.001067 0.008913
0.596506 0.010955 0.040191
0.508025 0.050198 0.021729
0.535936 -0.006067 0.082712
0.494645 0.047391 0.059353
0.505945 0.023334 0.021301
0.603233 -0.070435 0.024905
0.524336 0.049005 0.015861
0.496556 0.029374 0.035261
0.501871 0.011454 0.029925
0.614545 -0.026571 0.049392
0.551667 -0.025677 0.076786
0.537187 -0.014761 0.079269
0.560097 0.023377 0.015503
0.510898 -0.014407 0.051784
0.548196 -0.013733 0.008570
0.587989 -0.067212 0.022237
0.496940 0.017624 0.043794
0.550726 0.031625 0.087141
0.577540 -0.023932 0.074968
0.573047 0.040186 0.032403
0.498592 0.050892 0.031086
0.513477 0.058757 0.023366
0.492854 0.040690 0.045310
0.547589 -0.046861 0.058091
0.569105 -0.031998 0.074156
0.553637 0.028882 0.086856
0.593484 -0.013961 0.068849
0.585785 0.033907 0.045928
0.564593 -0.056314 0.056370
0.524133 -0.034875 0.033192
0.542940 -0.036586 0.066369
0.495565 0.033657 0.059347
0.548650 0.013921 0.087932
0.505789 0.041963 0.021082
0.532107 -0.022961 0.013713
0.510622 0.040923 0.017692
0.511872 0.023303 0.016427
0.557569 0.034560 0.018167
0.549679 0.044171 0.018680
0.579889 -0.006321 0.076773
0.587029 0.028366 0.040574
0.560922 0.030148 0.084358
0.522908 0.058381 0.020565
0.550603 -0.029889 0.074258
0.524417 -0.028254 0.056764
0.533328 -0.036126 0.019000
0.552626 0.069514 0.058913
0.572504 -0.034651 0.072684
0.519934 0.040160 0.083303
0.494090 0.032606 0.042808
0.551628 -0.034470 0.011539
0.518379 0.044561 0.015576
0.538241 -0.001027 0.008982
0.590537 0.003675 0.027077
0.535926 0.047483 0.084458
0.573114 -0.000431 0.014630
0.556001 0.025717 0.014654
0.498081 0.057119 0.064050
0.554738 0.068429 0.050983
0.627546 -0.046321 0.040811
0.573877 0.006335 0.016675
0.549168 -0.000174 0.085818
0.573216 -0.049862 0.064296
0.503749 -0.002279 0.038481
0.550328 0.044658 0.019173
0.588516 0.031380 0.053882
0.612424 -0.019168 0.037966
0.547208 -0.009813 0.008429
0.561361 0.062296 0.062969
0.597388 -0.070778 0.025006
0.594720 0.016709 0.058643
0.582090 -0.038087 0.069718
0.600257 -0.005824 0.060489
0.516184 -0.024301 0.035589
0.567126 0.055745 0.066469
0.510657 0.007526 0.073291
0.503062 0.025088 0.071273
0.614289 -0.057512 0.050932
0.615899 -0.024164 0.040589
0.564994 0.054120 0.036799
0.528526 0.043827 0.013882
0.622782 -0.064165 0.031810
0.580903 -0.030243 0.072445
0.496846 0.017651 0.047823
0.535002 -0.013802 0.010889
0.530213 -0.036994 0.051132
0.580109 -0.017121 0.014227
0.584176 -0.031467 0.013525
0.590743 0.000954 0.070029
0.526972 0.068770 0.029790
0.527975 -0.038797 0.030332
0.579634 -0.027897 0.073407
0.523577 -0.015300 0.015728
0.528629 0.022024 0.086966
0.502562 0.000683 0.050034
0.533180 0.070954 0.033965
0.503298 0.051898 0.026087
0.547643 -0.053537 0.043301
0.558820 -0.058273 0.023579
0.500843 0.042946 0.070224
0.519584 0.004078 0.013354
0.606511 -0.008191 0.044042
0.523345 0.039603 0.084508
0.543472 0.063044 0.075589
0.555768 0.064238 0.040288
0.511698 0.001059 0.019730
0.537258 0.029102 0.088333
0.538125 -0.031223 0.068023
0.501222 0.009646 0.032509
0.622704 -0.063436 0.028133
0.532497 0.066214 0.075346
0.526106 0.035512 0.012177
0.550498 -0.007383 0.008264
0.532073 -0.041069 0.025439
0.597915 0.010492 0.043680
0.576159 -0.051545 0.014656
0.572734 0.036906 0.075964
0.580108 -0.068171 0.044265
0.594656 -0.031801 0.016315
0.550010 0.052661 0.023439
0.579506 -0.070757 0.036106
0.557126 0.003295 0.085461
0.565225 -0.019732 0.009628
0.547108 0.025233 0.088425
0.517940 0.033402 0.013766
0.584800 -0.010224 0.074094
0.588444 0.007340 0.071472
0.528134 -0.037936 0.027327
0.536859 0.006109 0.008965
0.614004 -0.050414 0.053792
0.581306 -0.006294 0.076114
0.494702 0.053517 0.057935
0.568916 -0.058311 0.055596
0.523008 0.015401 0.011461
0.564103 -0.060690 0.023394
0.547655 0.067714 0.069132
0.543745 -0.034940 0.013589
0.495385 0.058574 0.044720
0.613299 -0.065848 0.044914
0.506888 0.040441 0.020007
0.523410 0.056113 0.080285
0.597624 0.008554 0.039960
0.578517 -0.046233 0.066550
0.526794 0.049099 0.083315
0.539705 0.020980 0.088595
0.494617 0.041204 0.058856
0.535731 -0.004731 0.083146
0.586091 -0.067697 0.022978
0.585236 -0.030368 0.013912
0.509600 0.045152 0.019135
0.511209 0.049670 0.077980
0.510780 0.051910 0.077220
0.594012 -0.034369 0.066904
0.550866 -0.022223 0.009132
0.579707 0.032258 0.033618
0.557418 0.013106 0.086341
0.528997 -0.019437 0.014042
0.494598 0.032113 0.040432
0.554768 -0.047828 0.016489
0.603563 -0.068213 0.045604
0.570604 0.050333 0.039768
0.519400 0.022564 0.083864
0.507834 0.042200 0.077102
0.562124 -0.035932 0.072388
0.528280 -0.038720 0.040810
0.583292 0.036126 0.063378
0.503665 0.068502 0.039920
0.493136 0.038462 0.051493
0.514425 -0.013569 0.024819
0.536834 0.027094 0.010371
0.499222 0.063446 0.040317
0.605573 -0.006195 0.044433
0.552201 0.059617 0.030674
0.510640 0.069096 0.068824
