ply
format ascii 1.0
element vertex 1024
property float x
property float y
property float z
end_header
0.554873 0.042649 0.083175
0.628999 -0.049189 0.038916
0.571639 0.053242 0.060435
0.572358 0.052715 0.053289
0.625526 -0.041596 0.043039
0.590723 0.021332 0.063314
0.532894 0.065229 0.026230
0.597878 0.010983 0.048705
0.607090 -0.038738 0.018528
0.525109 0.073128 0.068348
0.625891 -0.042605 0.043056
0.576324 0.027227 0.027438
0.512098 0.011800 0.076162
0.499495 0.011711 0.054095
0.516122 0.063441 0.025239
0.582294 0.023024 0.030899
0.596737 -0.068222 0.021802
0.627506 -0.057740 0.037232
0.511659 0.023100 0.079081
0.539340 -0.021451 0.009117
0.525279 -0.034847 0.033969
0.555894 -0.058783 0.028793
0.494042 0.056709 0.050235
0.608499 -0.061494 0.018093
0.587613 -0.071296 0.035844
0.505575 -0.005471 0.036886
0.538956 -0.028672 0.010906
0.575558 -0.015144 0.011935
0.547810 0.072163 0.057252
0.527849 0.058371 0.019760
0.518027 0.046498 0.015539
0.602236 -0.012704 0.028821
0.502354 0.050464 0.025829
0.572942 0.037822 0.031288
0.493719 0.055310 0.048503
0.613362 -0.020841 0.037069
0.555663 -0.040447 0.066975
0.611368 -0.057500 0.017230
0.498099 0.025356 0.061885
0.590867 -0.033978 0.067679
0.512616 0.027170 0.015072
0.533196 0.070027 0.072310
0.572370 0.047024 0.039605
0.558940 0.021310 0.085910
0.520039 -0.026516 0.047650
0.608556 -0.070952 0.027492
0.529870 -0.038477 0.025162
0.497677 0.016015 0.050995
0.505841 0.066100 0.033725
0.494289 0.049468 0.038858
0.616890 -0.031780 0.027785
0.556754 -0.048503 0.014615
0.567935 0.033695 0.080600
0.574076 0.036255 0.075342
0.520627 -0.008978 0.072196
0.567204 -0.029727 0.074170
0.582042 0.031965 0.069246
0.518607 0.076169 0.061825
0.576387 -0.056650 0.015669
0.602167 -0.022889 0.062646
0.601017 -0.043616 0.015575
0.565215 -0.009055 0.080771
0.574379 0.041239 0.071996
0.571343 0.043797 0.034572
0.538670 0.059905 0.079112
0.550599 0.018778 0.009892
0.608175 -0.069641 0.025066
0.605063 -0.017561 0.058536
0.501648 0.039185 0.024669
0.607679 -0.052354 0.056196
0.573204 0.041001 0.034269
0.576771 -0.058147 0.016426
0.609521 -0.039789 0.019019
0.524971 -0.013193 0.072695
0.514874 0.062720 0.075154
0.518452 -0.011359 0.068134
0.601580 -0.026457 0.020395
0.545701 -0.044461 0.057821
0.495629 0.051470 0.061073
0.577692 0.020925 0.025058
0.515918 0.077654 0.047372
0.495591 0.049487 0.061316
0.536510 -0.004243 0.082595
0.503228 0.000239 0.035991
0.571997 0.002020 0.014039
0.601780 -0.023741 0.063030
0.500881 0.063906 0.064565
0.511395 0.052491 0.077377
0.537376 -0.042496 0.019877
0.547459 -0.029689 0.009199
0.584552 -0.059882 0.016655
0.574961 -0.057254 0.016161
0.514156 -0.014144 0.024971
0.515064 0.069141 0.070832
0.581118 0.008108 0.076985
0.505427 0.003669 0.026272
0.546187 0.046970 0.018212
0.613738 -0.026070 0.029708
0.556148 0.031111 0.085789
0.612386 -0.032669 0.023600
0.567777 -0.038972 0.069690
0.559372 -0.060972 0.032892
0.495521 0.035647 0.059740
0.602372 -0.014962 0.060882
0.589565 0.023102 0.064098
0.549787 0.070371 0.047683
0.578638 0.007795 0.078370
0.504066 0.054217 0.025877
0.568927 -0.035204 0.071616
0.573444 -0.029247 0.073549
0.545523 -0.005108 0.006983
0.560820 -0.061794 0.031799
0.521201 0.061760 0.022626
0.583322 -0.007306 0.017083
0.496824 0.020782 0.039209
0.587765 -0.049611 0.013100
0.590682 -0.038099 0.066656
0.518616 0.054376 0.079823
0.534090 0.007159 0.007904
0.554539 -0.057392 0.039630
0.576065 0.021239 0.023853
0.554534 0.007939 0.086028
0.563215 0.059497 0.065581
0.536872 -0.042093 0.019932
0.502188 0.001242 0.041043
0.589750 0.016915 0.067623
0.566205 0.059083 0.057640
0.576907 -0.003901 0.078118
0.499290 0.020378 0.061816
0.546023 0.067730 0.036637
0.590289 -0.032866 0.014122
0.577995 -0.064714 0.047715
0.525313 0.069465 0.030057
0.493514 0.047900 0.040984
0.527981 0.051734 0.016201
0.589528 -0.053519 0.014043
0.498041 0.016962 0.054627
0.520871 0.011935 0.082284
0.528990 0.076792 0.044239
0.553008 0.020765 0.087296
0.562166 0.005492 0.084088
0.563526 -0.062497 0.039009
0.547469 -0.036294 0.011123
0.500859 0.005334 0.048801
0.498394 0.066307 0.048030
0.596108 -0.053476 0.014441
0.517705 0.058825 0.077913
0.495702 0.029574 0.057170
0.515733 0.078058 0.052108
0.510472 0.066396 0.071122
0.495486 0.060250 0.054774
0.577420 0.018597 0.023600
0.562967 -0.048322 0.062431
0.625399 -0.049802 0.045434
0.571775 0.051204 0.065251
0.547792 -0.041480 0.013271
0.557671 -0.017881 0.007063
0.545324 0.064659 0.074094
0.535510 -0.041377 0.020562
0.497120 0.022520 0.036563
0.622476 -0.042758 0.024025
0.520938 0.060335 0.078099
0.515136 -0.003308 0.070858
0.603390 -0.072514 0.029530
0.512313 0.051471 0.019290
0.523091 -0.018635 0.066054
0.555471 -0.048487 0.059565
0.506471 0.006681 0.066688
0.577515 0.023802 0.077377
0.595319 -0.012303 0.067196
0.568693 -0.065329 0.037417
0.617078 -0.060627 0.020656
0.623900 -0.062473 0.037037
0.588289 -0.045029 0.064819
0.616351 -0.024706 0.038421
0.533159 -0.014973 0.076498
0.576213 -0.069004 0.033843
0.522518 0.020888 0.010537
0.556628 -0.009016 0.007184
0.572706 0.002931 0.080565
0.559916 0.049799 0.078048
0.509929 0.023715 0.077921
0.566441 -0.063085 0.042302
0.496041 0.032494 0.059962
0.497224 0.039324 0.031149
0.619874 -0.052411 0.049737
0.558338 0.012633 0.010985
0.528317 0.065855 0.026021
0.586760 0.020962 0.069668
0.595918 -0.039696 0.014806
0.529273 0.060746 0.021516
0.505015 0.056479 0.026359
0.543804 -0.049263 0.022429
0.531449 0.076930 0.046535
0.578685 0.004683 0.078226
0.566171 -0.061348 0.021928
0.515139 -0.016912 0.056287
0.517274 0.040805 0.082056
0.577877 -0.013237 0.076313
0.495512 0.058827 0.043493
0.601029 -0.040417 0.016144
0.616924 -0.066938 0.027080
0.535135 0.039773 0.086652
0.582948 -0.052775 0.013688
0.560359 0.023755 0.085382
0.509873 0.073081 0.040202
0.589488 -0.069428 0.042123
0.595936 -0.069782 0.023392
0.567340 -0.064894 0.036191
0.544620 -0.016748 0.007601
0.554507 0.065725 0.065891
0.529080 0.045390 0.084674
0.529173 0.056274 0.018535
0.619444 -0.034946 0.048131
0.622283 -0.052095 0.048030
0.607461 -0.010929 0.040910
0.526304 0.072211 0.034064
0.596351 -0.038907 0.015044
0.606505 -0.036621 0.018980
0.540847 0.004652 0.085969
0.556602 -0.050357 0.057967
0.579047 0.016549 0.077694
0.546318 0.009823 0.087121
0.595697 -0.003732 0.065570
0.515136 0.028045 0.081434
0.623691 -0.041969 0.046113
0.582449 -0.071002 0.032057
0.609435 -0.063223 0.048840
0.514756 0.034717 0.014339
0.513812 -0.018643 0.031745
0.564628 0.031738 0.020654
0.546341 0.053930 0.080674
0.514032 0.049700 0.017877
0.561807 -0.039326 0.068987
0.577688 -0.021157 0.011726
0.565018 0.000754 0.010752
0.605967 -0.035564 0.060371
0.511910 0.076986 0.050002
0.520950 -0.010650 0.071235
0.516887 -0.000061 0.074458
0.577284 -0.069271 0.034508
0.516340 0.021018 0.081636
0.561622 0.034421 0.020066
0.502658 0.004234 0.032493
0.539072 0.017468 0.087979
0.564093 -0.055334 0.055447
0.552185 -0.050557 0.054518
0.603647 -0.058687 0.016179
0.574447 -0.000028 0.079568
0.562222 0.011109 0.012189
0.524020 0.075827 0.040469
0.517729 -0.025577 0.038080
0.594212 0.003430 0.065864
0.538465 0.004580 0.085689
0.580449 -0.044865 0.066031
0.547737 0.036147 0.086711
0.542641 0.036449 0.012650
0.506877 0.070440 0.038442
0.540524 0.044561 0.015011
0.538844 -0.027179 0.010515
0.500765 0.033845 0.069764
0.564693 0.005709 0.011779
0.600245 -0.043639 0.015379
0.575489 -0.026007 0.074156
0.584250 -0.014553 0.015580
0.585370 0.008173 0.074063
0.554672 0.064131 0.068425
0.558724 0.065289 0.052591
0.523142 0.044213 0.013870
0.581995 0.039396 0.060440
0.533747 0.057878 0.020154
0.608596 -0.026070 0.025030
0.597485 0.005806 0.038127
0.561114 -0.047990 0.013439
0.557185 0.044382 0.022523
0.567953 -0.044914 0.011415
0.559830 -0.042707 0.066284
0.500107 0.048849 0.027859
0.594599 0.014263 0.060636
0.554848 0.037732 0.084717
0.534320 -0.032538 0.062010
0.534599 0.073772 0.039412
0.501906 0.052218 0.027001
0.497668 0.026406 0.033104
0.507822 -0.008687 0.051521
0.563068 -0.061885 0.040725
0.626283 -0.046094 0.026232
0.567406 0.023356 0.018733
0.550319 -0.050653 0.052445
0.499607 0.055301 0.031383
0.578130 0.020599 0.025263
0.600808 -0.058976 0.016069
0.568304 -0.005646 0.010778
0.517128 -0.024276 0.042865
0.503070 0.046350 0.072398
0.601710 -0.048192 0.060013
0.584845 0.020239 0.072125
0.510035 0.035598 0.016957
0.584275 0.033019 0.043056
0.603317 -0.006924 0.035768
0.513604 0.011853 0.014655
0.608237 -0.070529 0.038083
0.547175 0.005500 0.086343
0.601106 -0.038425 0.062673
0.561690 0.004367 0.084059
0.545145 -0.019271 0.077879
0.592155 -0.011905 0.020768
0.533154 0.003834 0.008027
0.527094 0.074260 0.066597
0.594270 0.018798 0.049158
0.497154 0.052674 0.033738
0.563354 -0.049937 0.014035
0.553529 -0.056212 0.024247
0.582803 -0.061036 0.053911
0.526676 -0.035786 0.039505
0.523286 -0.014100 0.070582
0.577668 -0.049502 0.012610
0.592152 -0.005934 0.023619
0.557299 0.055130 0.075922
0.606922 -0.072037 0.030164
0.571352 0.035893 0.077681
0.505000 0.072097 0.043898
0.533345 0.010028 0.086147
0.519240 0.002553 0.012293
0.559663 0.064321 0.059163
0.569855 -0.040539 0.068839
0.569828 0.008062 0.082070
0.503690 0.072415 0.051481
0.558269 -0.011056 0.007288
0.601356 -0.065107 0.019476
0.566512 0.050121 0.035063
0.597781 0.011224 0.048829
0.502386 0.001295 0.048353
0.555962 0.064642 0.042469
0.619960 -0.065051 0.039220
0.591083 -0.049349 0.062355
0.493241 0.044806 0.054187
0.522051 -0.005580 0.075508
0.626391 -0.044488 0.027564
0.624219 -0.046602 0.023431
0.535584 -0.002878 0.082858
0.570527 0.054757 0.053755
0.511087 -0.001880 0.067048
0.598077 -0.022316 0.065651
0.553065 0.060434 0.032605
0.582603 0.029956 0.036653
0.517628 0.064950 0.074790
0.511714 0.039562 0.079442
0.627126 -0.041097 0.036531
0.564465 0.040456 0.080110
0.599113 -0.050141 0.014577
0.598457 -0.072007 0.026717
0.543381 -0.050087 0.040643
0.609043 -0.047514 0.057096
0.585797 0.020346 0.071063
0.551378 0.034435 0.086372
0.587664 -0.069036 0.042571
0.577285 -0.005726 0.077718
0.599836 -0.066113 0.048188
0.521521 0.034226 0.012048
0.594592 0.016822 0.057934
0.618614 -0.029423 0.033200
0.600743 -0.064349 0.050153
0.611302 -0.017325 0.039328
0.523258 0.010267 0.082972
0.535716 -0.040986 0.050493
0.561017 0.015015 0.012819
0.600000 -0.063381 0.051296
0.502993 0.054670 0.027095
0.589412 -0.044202 0.064927
0.548982 -0.011834 0.081621
0.568897 -0.038600 0.009657
0.559198 -0.060608 0.028296
0.577767 -0.037098 0.069942
0.614944 -0.023070 0.036843
0.580210 -0.047086 0.012005
0.578801 -0.020087 0.074711
0.492941 0.050809 0.048085
0.538463 0.073924 0.042572
0.519577 0.023800 0.011643
0.584694 0.036372 0.055295
0.506193 -0.000614 0.027981
0.543805 0.073865 0.058291
0.564266 0.004099 0.011202
0.532121 -0.019948 0.072497
0.570181 0.039671 0.029791
0.535115 -0.044657 0.030619
0.518483 0.009255 0.079957
0.576483 -0.063458 0.049214
0.562744 -0.055138 0.055073
0.528984 0.077296 0.058289
0.534229 -0.043183 0.039019
0.629533 -0.050421 0.032810
0.570166 0.031562 0.024548
0.591258 -0.001693 0.025063
0.570320 0.013672 0.082177
0.523863 0.063994 0.024162
0.579174 0.020518 0.026157
0.544647 0.071008 0.066403
0.543628 -0.049440 0.022987
0.493156 0.050512 0.044578
0.544138 -0.046046 0.053627
0.608382 -0.028459 0.058090
0.589735 -0.014139 0.018397
0.501244 0.069203 0.057456
0.562362 0.055550 0.036295
0.511603 0.008300 0.016674
0.607090 -0.039979 0.059370
0.544822 0.010048 0.007712
0.584243 0.006864 0.023332
0.539323 -0.018284 0.076945
0.517429 -0.021063 0.053735
0.603444 -0.002537 0.043843
0.521958 0.077724 0.045450
0.581536 0.006704 0.076733
0.526515 -0.034151 0.045566
0.620983 -0.031328 0.038220
0.497918 0.038864 0.065699
0.590977 -0.003515 0.070119
0.581616 0.028497 0.071938
0.499389 0.028908 0.066320
0.519758 0.077251 0.044158
0.555968 0.035487 0.017579
0.548896 -0.018701 0.078763
0.585879 -0.034676 0.012520
0.516302 0.077210 0.045320
0.511162 0.043268 0.017200
0.625006 -0.037380 0.036314
0.520565 -0.019712 0.061544
0.515918 0.070020 0.070245
0.597652 -0.029049 0.017562
0.556652 0.038946 0.083838
0.596865 -0.068612 0.022171
0.550295 0.010993 0.008352
0.548544 -0.018224 0.078946
0.562825 0.055804 0.071478
0.604850 -0.014737 0.030042
0.556286 0.059546 0.072719
0.509669 0.040604 0.017600
0.609019 -0.055256 0.054375
0.593279 -0.071803 0.035956
0.533733 0.036269 0.087209
0.505445 0.008202 0.066104
0.615542 -0.026489 0.031749
0.606099 -0.046015 0.058863
0.581879 -0.029969 0.071461
0.507285 -0.001899 0.060552
0.509924 -0.001695 0.022348
0.551890 0.052195 0.024154
0.614797 -0.046682 0.054077
0.551937 -0.001376 0.007203
0.616063 -0.068431 0.030443
0.537754 -0.015562 0.077947
0.544587 -0.050365 0.023540
0.571465 -0.014825 0.077946
0.499410 0.049842 0.067747
0.582178 0.020773 0.029283
0.585049 -0.020802 0.072451
0.521424 0.065316 0.025674
0.500425 0.067649 0.043663
0.590960 -0.001148 0.069971
0.536960 0.009634 0.007733
0.536877 -0.001254 0.083706
0.587312 -0.020396 0.015452
0.581235 0.041558 0.054982
0.544110 -0.004526 0.083751
0.610030 -0.016446 0.048335
0.605228 -0.009102 0.036972
0.598080 0.005972 0.058359
0.576462 -0.066516 0.023368
0.571424 -0.021642 0.076253
0.557344 -0.049828 0.015281
0.498670 0.047627 0.066942
0.575915 0.041058 0.037995
0.515634 -0.006549 0.017973
0.626291 -0.054748 0.025289
0.575768 -0.019289 0.011329
0.523845 -0.027996 0.054003
0.494804 0.048192 0.036930
0.514656 0.063505 0.025836
0.550286 -0.055250 0.037031
0.530803 0.004323 0.083999
0.615515 -0.067036 0.025746
0.521311 0.078399 0.048907
0.538501 -0.045333 0.044884
0.565234 0.059979 0.053797
0.501994 0.028317 0.024960
0.594929 -0.005246 0.026477
0.529529 -0.013879 0.010587
0.597683 -0.019255 0.021183
0.535974 -0.045200 0.028545
0.583606 -0.027673 0.071548
0.587825 -0.007581 0.019658
0.559654 0.054359 0.075160
0.557814 0.040773 0.020946
0.507307 0.000865 0.063356
0.537259 -0.043533 0.021360
0.529387 -0.008599 0.009778
0.566747 -0.028806 0.074583
0.538850 -0.020080 0.075698
0.603018 -0.070132 0.040728
0.567544 -0.060420 0.049660
0.545915 0.061108 0.028023
0.614993 -0.025564 0.047747
0.557533 -0.009810 0.081966
0.514223 0.065327 0.073459
0.562740 -0.015593 0.007760
0.562987 0.009208 0.084289
0.511075 -0.012856 0.030438
0.530475 -0.038533 0.044044
0.536364 0.076463 0.055738
0.625019 -0.058634 0.025893
0.595424 0.010148 0.061580
0.611962 -0.053555 0.053790
0.605655 -0.069007 0.042559
0.550191 0.018710 0.009765
0.582475 0.021852 0.073892
0.597728 -0.002027 0.031670
0.614633 -0.061528 0.020072
0.579432 0.001037 0.017527
0.568325 0.042741 0.030297
0.498517 0.066662 0.053698
0.612789 -0.025154 0.051532
0.533099 0.074734 0.065006
0.579716 0.017817 0.025135
0.529229 0.077305 0.046333
0.550253 0.066990 0.039573
0.518663 0.003254 0.077515
0.511647 0.032907 0.079629
0.556005 0.004123 0.008454
0.580569 0.042212 0.051977
0.614472 -0.063255 0.021187
0.530226 0.035654 0.011113
0.601763 -0.072705 0.029882
0.565415 0.058683 0.047599
0.527344 0.069917 0.030787
0.549267 0.067698 0.068092
0.572624 -0.026595 0.074557
0.534617 0.028821 0.087929
0.563817 -0.062361 0.040302
0.510140 -0.013943 0.036520
0.556061 0.017017 0.011297
0.554391 -0.017842 0.006968
0.584851 -0.019015 0.072804
0.601059 -0.008439 0.030900
0.599566 -0.069665 0.023383
0.508504 -0.011802 0.040499
0.549587 0.045964 0.083368
0.535907 -0.040459 0.051977
0.596406 -0.048553 0.014164
0.623788 -0.056143 0.045223
0.579940 -0.026386 0.011711
0.579392 -0.058871 0.055717
0.509944 0.071122 0.036961
0.614172 -0.054103 0.017483
0.594911 -0.061821 0.053406
0.493099 0.051471 0.050779
0.540471 0.044644 0.015029
0.503553 0.029601 0.022819
0.529699 0.012893 0.085868
0.619228 -0.064815 0.040903
0.607512 -0.013054 0.036150
0.550907 -0.008068 0.006854
0.621311 -0.033152 0.032805
0.608060 -0.029129 0.022885
0.510801 0.029245 0.079033
0.568786 -0.031947 0.073103
0.558971 0.063090 0.044126
0.550352 0.070075 0.061389
0.569190 0.031766 0.080480
0.610820 -0.025248 0.027415
0.549144 -0.052759 0.045242
0.560999 0.038121 0.021495
0.504011 0.008860 0.026121
0.614312 -0.065129 0.044661
0.559861 0.042074 0.022918
0.493250 0.041819 0.053473
0.497005 0.028996 0.060955
0.579182 0.044243 0.052891
0.584965 -0.055784 0.058891
0.508685 0.027094 0.017830
0.626613 -0.040631 0.038884
0.605415 -0.054050 0.015542
0.566083 0.009691 0.013481
0.526901 0.019005 0.085840
0.526086 -0.033949 0.024688
0.552618 -0.038890 0.067272
0.525611 -0.035046 0.030235
0.595322 -0.069395 0.042911
0.492721 0.043224 0.045313
0.517885 0.074611 0.064758
0.568626 0.011428 0.015147
0.531441 0.043366 0.013106
0.504718 0.025938 0.021745
0.527047 0.021018 0.009500
0.563815 0.022780 0.084328
0.565113 -0.009492 0.009012
0.529888 -0.034424 0.019265
0.526576 0.009177 0.084048
0.581967 -0.031213 0.071095
0.551446 0.057438 0.077077
0.590189 0.010069 0.031039
0.539063 -0.002671 0.007468
0.604010 -0.024599 0.061327
0.512261 0.025307 0.079698
0.538566 -0.022239 0.074150
0.500345 0.027155 0.067525
0.556545 -0.033571 0.071854
0.561759 -0.035349 0.008962
0.594579 -0.001668 0.028305
0.536472 -0.002089 0.083344
0.504991 0.031753 0.074658
0.535697 -0.012231 0.008648
0.552476 -0.034912 0.070142
0.541471 0.026574 0.009792
0.628668 -0.054133 0.038356
0.507061 0.069507 0.066075
0.569754 -0.066279 0.034573
0.561360 0.036380 0.020841
0.547424 0.036256 0.086740
0.604821 -0.030701 0.061151
0.534294 0.026018 0.087885
0.591776 -0.040105 0.065742
0.536413 0.044870 0.085281
0.526703 -0.014117 0.073298
0.621955 -0.039663 0.025958
0.578331 0.038630 0.069055
0.520895 0.020547 0.011015
0.513615 -0.012969 0.059367
0.576084 0.003529 0.016463
0.579496 -0.068938 0.025638
0.585622 -0.047020 0.012461
0.557538 -0.038248 0.010072
0.516117 -0.023342 0.040312
0.556898 -0.043209 0.011961
0.505790 -0.000971 0.029231
0.526933 -0.034954 0.044290
0.555179 -0.001182 0.084346
0.594046 -0.055511 0.014750
0.538144 0.020330 0.088144
0.618033 -0.060839 0.046590
0.507407 0.003174 0.065520
0.524736 -0.022787 0.063143
0.612789 -0.041912 0.055757
0.619305 -0.059525 0.021243
0.619235 -0.040903 0.050682
0.579274 -0.037670 0.069469
0.590873 0.025085 0.057904
0.504254 0.025114 0.022360
0.506362 0.025328 0.075095
0.556765 0.038371 0.019209
0.543769 0.074103 0.053126
0.517388 0.012303 0.080370
0.579732 0.003654 0.018633
0.580308 -0.024139 0.012177
0.620289 -0.053376 0.049163
0.572116 -0.051181 0.061738
0.503509 0.050583 0.072229
0.559948 0.061407 0.066786
0.514691 -0.006090 0.068306
0.562936 0.017598 0.084758
0.598557 -0.038445 0.063781
0.576482 0.021663 0.078551
0.526921 0.070725 0.071555
0.548516 0.001404 0.007190
0.560352 0.058289 0.037462
0.526095 -0.035430 0.029167
0.545712 0.069124 0.038803
0.593489 -0.001282 0.027428
0.497197 0.028932 0.033325
0.506528 0.025508 0.019824
0.610124 -0.064191 0.047649
0.560088 0.050209 0.077716
0.513005 0.044314 0.079704
0.578740 -0.070014 0.031830
0.611969 -0.026821 0.053688
0.560133 0.062061 0.065209
0.618075 -0.034898 0.049909
0.591059 -0.071862 0.035062
0.591500 0.021649 0.061201
0.552258 0.014591 0.009401
0.530047 -0.031417 0.058441
0.558132 -0.050822 0.058207
0.535658 -0.043072 0.022882
0.615885 -0.036772 0.052903
0.550728 0.050764 0.022514
0.534261 0.050981 0.083236
0.555743 0.029958 0.015409
0.497202 0.016589 0.047358
0.588997 0.029173 0.051882
0.587178 0.007808 0.026492
0.529249 0.070431 0.031794
0.506985 -0.008959 0.039620
0.563731 -0.028636 0.074839
0.510909 0.031007 0.016226
0.523543 0.001256 0.079801
0.571536 -0.053912 0.059258
0.533664 0.077150 0.052829
0.587386 0.030744 0.059952
0.542891 -0.028870 0.009902
0.608448 -0.051456 0.056196
0.551358 0.058668 0.029281
0.528845 -0.004262 0.009377
0.584294 -0.031484 0.070370
0.598152 -0.010835 0.026109
0.617132 -0.049590 0.052171
0.604439 -0.009857 0.034387
0.533158 -0.029839 0.063943
0.529528 -0.024352 0.013406
0.537508 0.074665 0.063291
0.614240 -0.057902 0.050622
0.575234 -0.005389 0.013727
0.586236 -0.054879 0.014412
0.563158 0.041872 0.080213
0.568130 0.056430 0.049124
0.566957 -0.036104 0.071212
0.527309 -0.024083 0.014701
0.557116 -0.053358 0.017953
0.552845 -0.056165 0.040720
0.510092 0.005112 0.070595
0.524924 0.073793 0.067317
0.582141 0.035563 0.065924
0.494303 0.029843 0.044967
0.586651 -0.048258 0.063570
0.594441 -0.017047 0.020064
0.515150 -0.008311 0.019449
0.542081 0.027059 0.009969
0.567230 0.000779 0.082065
0.571354 0.015026 0.081773
0.581077 0.040615 0.060851
0.618359 -0.061202 0.021713
0.578302 -0.058351 0.056076
0.554470 0.033075 0.015998
0.597163 -0.072623 0.032891
0.560737 -0.027405 0.007701
0.532028 -0.039254 0.022309
0.581310 0.001882 0.076701
0.577756 -0.008049 0.077194
0.527109 0.018855 0.085892
0.610823 -0.016752 0.038758
0.497237 0.056609 0.062905
0.550006 0.023741 0.011021
0.539708 0.040612 0.013274
0.628129 -0.048621 0.028320
0.513748 0.054996 0.020377
0.572640 -0.057620 0.055687
0.494433 0.036801 0.056664
0.526163 0.016804 0.085405
0.552169 0.032644 0.014887
0.573972 -0.038042 0.009914
0.522761 0.070928 0.070874
0.599841 -0.001557 0.035129
0.538425 0.065729 0.075399
0.528882 -0.035043 0.021209
0.619080 -0.028586 0.038291
0.571742 -0.017190 0.010177
0.624770 -0.053549 0.023069
0.588798 0.028649 0.048607
0.547971 0.005935 0.007503
0.550137 -0.035989 0.068661
0.607191 -0.060390 0.017286
0.547638 0.030404 0.012278
0.592254 -0.001188 0.026266
0.548670 -0.000514 0.085001
0.493104 0.051722 0.046983
0.520984 -0.029398 0.030728
0.513797 -0.020031 0.041717
0.506693 -0.001040 0.060218
0.533857 0.077080 0.051555
0.596515 -0.048663 0.014181
0.536406 0.074406 0.064585
0.616677 -0.065929 0.025151
0.540854 0.031765 0.088173
0.585897 -0.014798 0.072887
0.494173 0.052231 0.040932
0.506812 0.021073 0.074563
0.550514 -0.051054 0.019071
0.625212 -0.043721 0.026367
0.534008 0.076899 0.049735
0.570760 -0.032714 0.009032
0.558518 0.059836 0.037439
0.573238 0.002328 0.014690
0.528356 0.029347 0.010168
0.615741 -0.067932 0.038310
0.558023 0.065639 0.051076
0.615663 -0.037662 0.022638
0.596969 -0.061533 0.053458
0.573970 -0.021381 0.010379
0.523750 -0.005988 0.076465
0.546093 -0.036264 0.066794
0.549095 0.018234 0.087827
0.507733 0.017201 0.019178
0.601438 -0.056377 0.056373
0.511484 0.065396 0.029116
0.516708 0.073512 0.066211
0.541957 0.072059 0.041277
0.502153 0.045698 0.071499
0.570376 -0.021794 0.076427
0.513385 -0.004676 0.067846
0.554161 -0.008163 0.006986
0.493017 0.051315 0.049402
0.567521 -0.040633 0.010147
0.587505 -0.035916 0.012870
0.580634 -0.047473 0.012116
0.546792 0.057730 0.078529
0.610494 -0.025547 0.054996
0.529919 0.022003 0.086850
0.539976 -0.009935 0.081175
0.600777 -0.051179 0.059194
0.577932 0.043064 0.064878
0.543399 0.062386 0.027832
0.520000 0.075567 0.040121
0.499711 0.065616 0.041638
0.568083 0.012175 0.082929
0.497122 0.055505 0.063080
0.507618 0.024226 0.018835
0.511746 0.041722 0.079302
0.577431 -0.025667 0.010982
0.505812 0.021407 0.073553
0.612002 -0.018462 0.044275
0.564955 0.029027 0.083128
0.533798 0.000909 0.083711
0.590195 0.016902 0.036154
0.531046 -0.018028 0.010842
0.596029 0.014914 0.048277
0.602842 -0.001093 0.044322
0.571520 0.041824 0.032987
0.530375 -0.040086 0.035785
0.583680 -0.029726 0.071016
0.507807 0.011346 0.071515
0.507258 -0.009644 0.041205
0.567862 0.037395 0.026094
0.554821 0.066573 0.063539
0.599480 -0.026529 0.019245
0.550575 0.023090 0.011024
0.540422 -0.043674 0.052918
0.559139 0.059661 0.070308
0.586279 0.027390 0.039979
0.573421 0.037037 0.031204
0.593836 0.020088 0.051297
0.499522 0.038282 0.068279
0.524503 -0.013743 0.012956
0.598015 -0.013126 0.064967
0.494868 0.048396 0.036823
0.501794 0.017911 0.027089
0.512873 -0.013482 0.057064
0.540792 -0.028232 0.070711
0.614942 -0.039287 0.054129
0.520270 -0.024658 0.023271
0.557340 0.001143 0.008326
0.596672 0.011096 0.042823
0.509813 0.052089 0.020800
0.533358 -0.007604 0.080349
0.493991 0.047405 0.057272
0.507609 0.025307 0.018793
0.603907 -0.069423 0.023650
0.526465 0.051059 0.015946
0.497365 0.030681 0.032419
0.502912 0.013023 0.026483
0.613853 -0.027034 0.051142
0.549328 -0.027015 0.074410
0.534780 -0.016113 0.076532
0.562024 0.025155 0.016529
0.510343 -0.014049 0.047459
0.550385 -0.011421 0.006854
0.588889 -0.065921 0.020175
0.497122 0.018490 0.040316
0.548047 0.029660 0.087750
0.575274 -0.025417 0.074370
0.573941 0.040918 0.035113
0.499794 0.052371 0.029550
0.515197 0.060497 0.023245
0.493081 0.041480 0.042801
0.546354 -0.047134 0.054377
0.566863 -0.033350 0.072580
0.550954 0.026909 0.087506
0.591642 -0.015283 0.069842
0.585733 0.033808 0.049078
0.563379 -0.056640 0.053256
0.524644 -0.033620 0.028690
0.541235 -0.037272 0.062877
0.494829 0.033683 0.056586
0.545820 0.011959 0.087450
0.507576 0.043921 0.019567
0.533940 -0.020760 0.010439
0.512614 0.043019 0.016447
0.513841 0.025480 0.014319
0.559392 0.036202 0.019622
0.551542 0.045846 0.020138
0.577603 -0.007950 0.077268
0.587292 0.028549 0.043526
0.558394 0.028238 0.085558
0.524788 0.060184 0.021045
0.548406 -0.031077 0.071595
0.523428 -0.028268 0.052554
0.534737 -0.034198 0.015078
0.552005 0.068980 0.061783
0.570335 -0.035952 0.071191
0.517620 0.038673 0.082387
0.494430 0.033530 0.039953
0.553495 -0.032318 0.008919
0.520514 0.046692 0.015037
0.540498 0.001337 0.007302
0.591529 0.004581 0.028977
0.533546 0.045775 0.084969
0.574931 0.001306 0.015224
0.558006 0.027574 0.015544
0.497170 0.056838 0.062697
0.554624 0.068300 0.053959
0.627271 -0.046419 0.042373
0.575599 0.007946 0.017674
0.546393 -0.002008 0.084619
0.571505 -0.050700 0.062060
0.504148 -0.001164 0.034393
0.552160 0.046299 0.020698
0.587925 0.030836 0.057046
0.612525 -0.019013 0.040018
0.549431 -0.007490 0.006860
0.560415 0.061475 0.066003
0.598066 -0.069717 0.023352
0.593719 0.015875 0.061403
0.580074 -0.039314 0.068672
0.598992 -0.006775 0.062389
0.516617 -0.023115 0.031132
0.565901 0.054693 0.069511
0.508827 0.006708 0.070054
0.501482 0.024421 0.068495
0.613317 -0.058009 0.050996
0.615792 -0.024173 0.042588
0.565699 0.054671 0.039722
0.530745 0.045954 0.013967
0.623001 -0.063713 0.032134
0.578758 -0.031616 0.071734
0.496766 0.018303 0.044325
0.537067 -0.011490 0.008305
0.529527 -0.036749 0.046847
0.581840 -0.015403 0.014377
0.585861 -0.029728 0.013170
0.588916 -0.000428 0.071643
0.528302 0.070028 0.031060
0.528641 -0.037420 0.025879
0.577442 -0.029313 0.072736
0.525342 -0.013137 0.012305
0.525953 0.020288 0.085625
0.502227 0.001189 0.045986
0.534237 0.071929 0.035740
0.504822 0.053598 0.024927
0.547334 -0.053013 0.039284
0.559747 -0.056795 0.020102
0.499441 0.042331 0.068267
0.521625 0.006375 0.010724
0.606292 -0.008321 0.046279
0.520943 0.038021 0.083779
0.541745 0.061715 0.077458
0.556325 0.064675 0.043144
0.513322 0.003095 0.016403
0.534515 0.027202 0.087928
0.536354 -0.031960 0.064501
0.502086 0.011086 0.028919
0.623166 -0.062788 0.028505
0.530828 0.064997 0.076675
0.528393 0.037765 0.011665
0.552738 -0.005086 0.007039
0.533036 -0.039466 0.021146
0.597848 0.010435 0.046366
0.577670 -0.049763 0.012697
0.570768 0.035323 0.078323
0.579582 -0.067979 0.041563
0.596134 -0.030308 0.016611
0.551611 0.054066 0.025358
0.579499 -0.070121 0.033255
0.554377 0.001401 0.084966
0.567273 -0.017626 0.008689
0.544316 0.023243 0.088450
0.520129 0.035650 0.012605
0.582655 -0.011750 0.074707
0.586565 0.005894 0.073275
0.529000 -0.036401 0.022941
0.539161 0.008477 0.007579
0.612887 -0.051071 0.054209
0.579060 -0.007901 0.076704
0.494176 0.053598 0.056192
0.567732 -0.058633 0.052658
0.525232 0.017751 0.009668
0.565016 -0.059248 0.020131
0.546368 0.066684 0.071546
0.545492 -0.032822 0.010425
0.495749 0.059345 0.043340
0.612673 -0.066003 0.044487
0.508734 0.042449 0.018485
0.521380 0.054732 0.080464
0.597788 0.008700 0.042536
0.576668 -0.047246 0.064845
0.524518 0.047534 0.083324
0.536892 0.019055 0.087910
0.493959 0.041255 0.056442
0.533133 -0.006290 0.080840
0.586944 -0.066427 0.020764
0.586900 -0.028661 0.013684
0.511525 0.047174 0.018046
0.509317 0.048535 0.077029
0.508952 0.050815 0.076364
0.592175 -0.035563 0.066841
0.552962 -0.019954 0.007130
0.580461 0.032874 0.036329
0.554669 0.011148 0.086390
0.530837 -0.017230 0.010755
0.495089 0.033159 0.037593
0.556227 -0.045949 0.013336
0.602899 -0.068310 0.044415
0.571082 0.050680 0.042840
0.516949 0.021078 0.081965
0.505963 0.041153 0.075534
0.559989 -0.037118 0.070153
0.528262 -0.037904 0.036343
0.582120 0.035117 0.066424
0.504382 0.069438 0.039628
0.492946 0.038923 0.048861
0.515626 -0.011809 0.020864
0.539167 0.029356 0.010108
0.499893 0.064409 0.039463
0.605342 -0.006340 0.046715
0.553366 0.060606 0.033085
0.509460 0.068425 0.068914
