ply
format ascii 1.0
element vertex 1024
property float x
property float y
property float z
end_header
0.634323 0.075189 0.037392
0.635637 -0.002549 0.012287
0.656306 0.038863 0.042740
0.591575 -0.001677 0.056702
0.629834 -0.021834 0.083527
0.615002 0.054513 0.095164
0.655333 -0.059255 0.043999
0.648724 -0.052254 0.055267
0.628389 -0.059197 0.058608
0.617737 -0.057696 0.052576
0.654259 0.013231 0.027168
0.643115 0.028504 0.023268
0.612162 -0.004444 0.015936
0.647125 0.079009 0.080951
0.622334 0.031207 0.019597
0.650284 0.078233 0.062082
0.653724 0.019801 0.079266
0.610200 0.071604 0.096662
0.592136 0.068844 0.049743
0.588455 0.072882 0.069392
0.625210 -0.030013 0.019652
0.594103 0.067587 0.083709
0.642472 0.053249 0.034001
0.620061 0.026638 0.018913
0.613439 -0.046254 0.037204
0.634303 -0.022460 0.082783
0.651763 0.018436 0.026440
0.645505 -0.049826 0.056515
0.637731 0.071233 0.092328
0.656335 -0.052236 0.034268
0.640560 0.028282 0.021915
0.599302 -0.016025 0.028436
0.648495 0.012224 0.021684
0.639800 -0.069798 0.034524
0.654191 -0.047923 0.028853
0.629939 -0.054698 0.060345
0.593757 0.052951 0.079653
0.648562 0.049177 0.038201
0.593051 0.055288 0.045756
0.596687 0.091511 0.062338
0.594228 0.073637 0.047163
0.646128 0.066479 0.043650
0.595134 0.077168 0.087297
0.647471 0.046823 0.035836
0.601586 0.002022 0.078451
0.635026 -0.053214 0.060951
0.600205 0.008501 0.026853
0.601865 0.038932 0.031801
0.656923 -0.030482 0.049905
0.588706 0.059229 0.062447
0.622034 -0.053787 0.019738
0.614374 0.045016 0.026301
0.631997 0.073081 0.035527
0.639081 -0.011589 0.013958
0.628302 -0.009182 0.011676
0.629884 -0.072066 0.054484
0.627752 0.083231 0.098431
0.601417 -0.025292 0.036342
0.622727 0.026404 0.091807
0.593844 0.075555 0.085153
0.635928 0.051971 0.029631
0.629006 0.040389 0.022994
0.620874 0.017548 0.092117
0.627452 -0.026936 0.078919
0.645643 0.095901 0.066381
0.614136 -0.046432 0.032648
0.655870 -0.032339 0.043022
0.617460 -0.035519 0.025924
0.596309 0.016455 0.032259
0.635839 0.030971 0.020875
0.638645 0.031865 0.089055
0.650776 0.014259 0.024140
0.665562 0.000024 0.049778
0.601619 0.054909 0.089051
0.626130 0.029625 0.091990
0.646081 -0.043267 0.021399
0.612889 -0.060537 0.037580
0.611726 0.088137 0.085755
0.621343 -0.031206 0.074127
0.618798 0.030813 0.020004
0.637814 0.010916 0.016171
0.619063 -0.034967 0.024545
0.650759 0.052494 0.078621
0.590882 0.035261 0.049466
0.621621 0.055681 0.095981
0.618104 0.061300 0.029896
0.630195 -0.041746 0.063488
0.602304 -0.016048 0.025774
0.588008 0.081440 0.067296
0.602476 0.050088 0.033630
0.602511 0.022544 0.026251
0.646696 0.068581 0.045542
0.598199 0.016322 0.079542
0.597996 0.043450 0.083057
0.590412 0.005062 0.054012
0.642468 -0.020399 0.081471
0.638276 -0.066604 0.018899
0.619728 -0.052549 0.021629
0.633988 0.021094 0.017860
0.617738 0.023547 0.018764
0.654966 0.026349 0.078052
0.628010 0.067888 0.032465
0.610425 -0.020787 0.078293
0.642831 -0.066476 0.055461
0.593187 -0.016573 0.043913
0.593564 0.040831 0.042797
0.639323 -0.059826 0.015323
0.618251 0.071176 0.098043
0.651303 -0.063709 0.021519
0.628484 0.096358 0.042615
0.598197 -0.026072 0.052149
0.638323 0.033597 0.089362
0.660832 0.034143 0.060851
0.662268 0.024487 0.051356
0.630575 0.070478 0.096030
0.624185 -0.025004 0.018110
0.633789 0.093172 0.077355
0.649334 0.079301 0.074870
0.593616 -0.014026 0.039795
0.619489 0.078985 0.035063
0.611554 0.097374 0.046145
0.592098 -0.009240 0.049506
0.602933 -0.022430 0.071336
0.598717 0.012182 0.028852
0.655381 -0.025419 0.063661
0.627257 -0.025071 0.081437
0.657317 -0.018239 0.029307
0.649663 -0.041814 0.051293
0.638271 0.089257 0.090968
0.650270 0.004747 0.081111
0.632757 0.037778 0.091937
0.613064 0.006272 0.087310
0.628896 0.085225 0.038695
0.624234 0.080308 0.035837
0.592822 0.002521 0.064709
0.647375 -0.068081 0.030187
0.662085 -0.012326 0.033708
0.633565 0.057980 0.093754
0.599221 0.079636 0.042910
0.621392 0.001901 0.088503
0.616538 -0.043796 0.052870
0.642025 -0.021648 0.018669
0.589117 0.018814 0.050643
0.615972 0.098345 0.044685
0.637378 0.092661 0.046663
0.629427 0.028652 0.091534
0.660358 -0.023316 0.052364
0.640228 0.096861 0.065534
0.657200 -0.017759 0.029058
0.593448 0.061335 0.046045
0.606398 0.085884 0.092331
0.650853 0.041083 0.079440
0.593670 0.051443 0.079105
0.645510 0.090541 0.080895
0.645251 -0.004534 0.014796
0.641346 0.000403 0.085744
0.661098 0.016848 0.066544
0.597362 0.006803 0.075186
0.661819 0.025624 0.049238
0.643149 -0.047557 0.056906
0.608011 0.090063 0.075233
0.598716 0.093794 0.053793
0.627686 -0.042367 0.062397
0.603224 0.045811 0.032134
0.653862 0.054692 0.051659
0.591102 0.089702 0.066813
0.602008 0.004857 0.079791
0.656826 0.046376 0.060778
0.658856 0.013558 0.033670
0.638062 -0.046886 0.016993
0.635343 -0.005424 0.011642
0.630533 0.027120 0.091432
0.658384 0.020725 0.036062
0.634010 0.071552 0.094595
0.631531 -0.053011 0.015937
0.636100 -0.021360 0.016576
0.641276 0.015288 0.018557
0.611372 -0.031009 0.028184
0.638383 0.091693 0.047136
0.606309 0.088159 0.082418
0.644828 0.055764 0.086069
0.640837 0.065462 0.089791
0.626014 0.043052 0.024398
0.606324 -0.019676 0.075632
0.638578 -0.066894 0.020394
0.659774 0.029452 0.043813
0.598823 0.051891 0.085920
0.648531 0.086817 0.072773
0.655653 -0.051955 0.031346
0.636447 0.017835 0.090628
0.643143 0.060000 0.087699
0.594259 0.040361 0.041434
0.636863 -0.065702 0.057168
0.610803 0.020432 0.020643
0.649101 0.061807 0.045538
0.604068 0.069900 0.037027
0.640311 0.050489 0.031413
0.649312 -0.070310 0.050171
0.655207 -0.059107 0.028351
0.620488 0.096349 0.055732
0.620007 -0.022040 0.017705
0.633027 -0.037518 0.021361
0.638555 -0.056503 0.015705
0.599883 0.044549 0.085282
0.642510 0.028244 0.022862
0.630695 0.089851 0.089838
0.589887 0.029084 0.060022
0.636414 -0.050105 0.059457
0.645571 0.055849 0.085303
0.649342 0.012004 0.082750
0.629854 -0.062894 0.057813
0.611277 -0.037446 0.034632
0.660576 0.002370 0.068561
0.588257 0.074951 0.065351
0.656931 0.012902 0.030380
0.605155 -0.013922 0.021403
0.611515 0.090779 0.074242
0.611251 0.087816 0.038671
0.621256 -0.072140 0.036082
0.605515 0.077369 0.038058
0.652409 -0.041861 0.033088
0.604833 -0.005808 0.078846
0.642474 0.047608 0.031754
0.637877 0.064677 0.091941
0.635664 0.090162 0.044218
0.636590 -0.002984 0.086681
0.640200 0.093941 0.050131
0.664425 -0.009477 0.060674
0.617782 0.025510 0.091206
0.605491 0.089789 0.074902
0.590385 0.065266 0.053314
0.603994 0.002828 0.080898
0.597625 0.006551 0.075448
0.652908 -0.034304 0.055629
0.600295 0.090851 0.044486
0.652928 -0.067300 0.047146
0.597304 0.043487 0.037415
0.607344 0.049619 0.030313
0.656479 -0.020594 0.030459
0.655132 0.055163 0.063285
0.605852 -0.000862 0.020611
0.624966 0.039956 0.093603
0.655404 -0.065531 0.028339
0.630182 0.023943 0.092777
0.641043 0.037910 0.024966
0.647332 0.006482 0.083504
0.651147 0.036585 0.079241
0.592748 0.010486 0.038542
0.664645 0.005131 0.055294
0.614596 0.013940 0.017915
0.613782 0.005419 0.016763
0.630831 0.088004 0.096130
0.604716 -0.000727 0.080369
0.591421 -0.003261 0.052719
0.591832 0.067662 0.050146
0.625513 0.034916 0.020308
0.630609 0.025201 0.092029
0.655489 0.006825 0.026195
0.604126 0.096273 0.046514
0.648662 0.049632 0.038549
0.589186 0.048634 0.063302
0.614707 -0.066623 0.031841
0.590589 0.023688 0.043203
0.589666 0.079472 0.077714
0.617124 0.006929 0.015770
0.618905 0.011886 0.090468
0.655683 0.047216 0.067996
0.636794 0.071500 0.037379
0.633044 -0.069862 0.031468
0.649423 0.058555 0.080100
0.640903 -0.069042 0.031562
0.598127 0.090376 0.068033
0.645016 0.093364 0.057679
0.652166 -0.020116 0.024747
0.630297 0.097727 0.055764
0.600227 0.060155 0.088987
0.610144 -0.019590 0.078474
0.624047 -0.070749 0.031076
0.662067 0.006215 0.036751
0.621813 -0.051555 0.056261
0.637916 0.082464 0.042662
0.646225 0.094856 0.068912
0.592669 0.031867 0.071108
0.651526 0.055184 0.046049
0.642051 0.044553 0.088062
0.663656 0.007755 0.042873
0.588808 0.020023 0.057865
0.599848 0.003018 0.026793
0.597203 0.076636 0.089537
0.629432 0.084599 0.038674
0.662029 0.018643 0.044309
0.606649 0.085875 0.092523
0.662567 0.018308 0.060833
0.623313 0.081524 0.036099
0.605114 0.072173 0.036969
0.604264 0.079178 0.039193
0.656603 -0.051472 0.037882
0.594657 0.074925 0.086152
0.589689 0.042196 0.064049
0.634880 0.032975 0.090695
0.610728 0.083621 0.037653
0.664008 0.009331 0.057052
0.607629 0.088120 0.039900
0.644812 0.062276 0.086008
0.645672 0.059438 0.085127
0.594289 0.030144 0.035986
0.643761 0.073511 0.086800
0.631880 -0.032873 0.072468
0.599135 0.023241 0.081528
0.620816 0.072019 0.098158
0.636393 0.056532 0.092301
0.594333 0.079886 0.048300
0.603770 0.001831 0.080395
0.622953 0.066738 0.031373
0.628011 0.040776 0.023251
0.611991 -0.024205 0.077340
0.652508 -0.070127 0.042111
0.635379 -0.032148 0.072550
0.609972 0.080621 0.037063
0.598098 -0.023459 0.060267
0.649745 0.075409 0.056375
0.595692 -0.010303 0.065245
0.650022 0.013020 0.023095
0.604831 -0.012615 0.020657
0.644302 0.077903 0.085813
0.590552 0.003827 0.053614
0.607501 0.035193 0.088815
0.592457 0.087351 0.052336
0.629131 0.000143 0.088482
0.592727 0.023535 0.073241
0.639583 0.044123 0.028594
0.642845 0.087032 0.087148
0.621052 0.064653 0.097209
0.619176 0.040992 0.023985
0.622723 0.033412 0.092636
0.648518 0.083803 0.075411
0.643656 0.048297 0.087006
0.616237 -0.066658 0.027335
0.642276 -0.071453 0.054050
0.616343 -0.039458 0.059604
0.652471 -0.048780 0.050528
0.603213 0.013874 0.024582
0.614036 -0.014881 0.017039
0.643750 -0.063064 0.016340
0.626271 0.079935 0.036108
0.623150 -0.042716 0.060505
0.648246 0.082143 0.077243
0.634521 0.008268 0.014763
0.647923 -0.058184 0.054683
0.626283 -0.033544 0.071762
0.630659 0.085686 0.039569
0.636439 -0.068240 0.025621
0.646441 0.016649 0.021674
0.665954 -0.003434 0.050862
0.587958 0.083005 0.072477
0.633634 -0.015441 0.084732
0.594236 0.021859 0.035636
0.654007 0.018627 0.078848
0.662327 -0.003266 0.032432
0.614203 0.090094 0.038748
0.590077 0.023951 0.067543
0.662064 0.026656 0.052798
0.651541 -0.060087 0.050560
0.613476 0.083837 0.098758
0.598315 -0.011990 0.028150
0.648504 -0.034652 0.062154
0.589730 0.040185 0.063062
0.594281 0.060908 0.044639
0.641908 -0.071358 0.042754
0.590488 0.014867 0.044776
0.605236 0.082079 0.096252
0.623416 0.014509 0.015905
0.620973 0.050490 0.026585
0.625268 0.021966 0.017371
0.652207 -0.052284 0.051340
0.634270 -0.004208 0.011697
0.658057 -0.024422 0.036936
0.644890 -0.031440 0.024009
0.662275 -0.005206 0.065412
0.593066 0.004181 0.038246
0.663062 -0.014078 0.037976
0.618052 -0.034017 0.024583
0.609699 0.003328 0.018526
0.647217 0.092681 0.064692
0.630729 0.062475 0.031357
0.610529 0.027483 0.021969
0.590489 0.030037 0.062917
0.656085 0.049491 0.063710
0.591373 0.032362 0.067552
0.650426 0.021004 0.082836
0.649575 0.015305 0.023484
0.631629 -0.072745 0.044082
0.598793 0.037599 0.034545
0.650120 0.002775 0.019856
0.656495 -0.055401 0.034406
0.642142 0.049345 0.088235
0.646132 -0.035379 0.063676
0.591651 0.012142 0.041301
0.650205 0.080096 0.066761
0.590842 0.010974 0.044253
0.632204 0.021752 0.017710
0.656937 -0.020940 0.067546
0.649976 -0.039314 0.053498
0.645815 0.071096 0.045630
0.605312 0.083240 0.039659
0.640114 0.086889 0.090496
0.648649 0.006388 0.019962
0.649293 -0.065003 0.019952
0.622634 -0.049842 0.019651
0.658842 -0.009475 0.070910
0.592464 0.076137 0.083071
0.616010 0.089778 0.081231
0.653169 -0.042395 0.035323
0.660792 0.007653 0.034589
0.644058 0.014231 0.086673
0.646491 -0.071000 0.043351
0.658029 -0.023129 0.061457
0.607914 0.044123 0.028745
0.605591 -0.033642 0.045364
0.589596 0.042552 0.063449
0.641312 -0.040959 0.061031
0.633862 0.012626 0.090367
0.614531 -0.031335 0.025097
0.589377 0.054070 0.068122
0.593732 -0.008437 0.061173
0.645339 -0.017657 0.018958
0.640775 0.026412 0.089253
0.601057 0.050064 0.034788
0.621535 -0.051580 0.056088
0.608801 0.094949 0.054769
0.628573 -0.033057 0.072486
0.590248 0.068031 0.054084
0.592536 0.007762 0.039297
0.647968 0.086877 0.075767
0.609005 0.091964 0.067648
0.617802 0.002434 0.087900
0.607867 0.046836 0.029387
0.599970 0.062875 0.089316
0.645071 0.024077 0.087468
0.651091 0.018234 0.081928
0.622974 0.073201 0.033402
0.652796 0.062886 0.055541
0.651676 0.033901 0.078732
0.641221 -0.071683 0.043931
0.629123 -0.043903 0.060929
0.649756 -0.040649 0.052019
0.635605 0.091657 0.085026
0.602019 0.082385 0.041394
0.600817 0.056791 0.036401
0.644002 0.086273 0.085441
0.636502 0.019640 0.090936
0.589054 0.059400 0.068421
0.627005 -0.015738 0.013888
0.626877 0.093178 0.040832
0.588374 0.023870 0.058024
0.591609 0.057369 0.049065
0.639821 -0.017786 0.082969
0.638574 -0.069184 0.055915
0.626819 0.059614 0.029556
0.644033 -0.060363 0.056784
0.655450 -0.045671 0.033225
0.605579 0.023281 0.024065
0.609209 -0.002263 0.083028
0.665575 -0.002385 0.053808
0.593676 0.022383 0.075291
0.620930 -0.031839 0.021908
0.616596 -0.023916 0.019672
0.631637 -0.009416 0.012133
0.619382 -0.062587 0.022123
0.594540 0.087046 0.080244
0.665506 0.000445 0.050060
0.592343 0.069675 0.049499
0.603178 -0.008648 0.022147
0.604968 0.025492 0.085597
0.641486 -0.028116 0.074630
0.609527 -0.038622 0.043771
0.589948 0.012232 0.048365
0.645545 -0.020786 0.020056
0.639240 0.053596 0.031938
0.634071 -0.032117 0.020212
0.610036 -0.005067 0.082696
0.650218 0.078596 0.070945
0.614375 -0.029524 0.024713
0.603218 0.070572 0.037731
0.641706 -0.028082 0.074534
0.634849 0.078310 0.094531
0.607564 -0.033413 0.059066
0.595427 -0.012610 0.063502
0.663520 0.013129 0.057944
0.644326 -0.046588 0.019093
0.631370 -0.067315 0.018770
0.593716 0.011648 0.071125
0.643925 0.050843 0.086852
0.626909 0.056550 0.028609
0.590066 0.033688 0.054334
0.599279 0.018220 0.028764
0.628157 0.075293 0.097279
0.617701 -0.008524 0.012990
0.644493 -0.067188 0.024665
0.609690 -0.011089 0.080727
0.648218 -0.006271 0.081109
0.657469 0.020616 0.074067
0.595423 0.030549 0.034428
0.592678 0.021400 0.038391
0.641719 -0.013029 0.014980
0.594639 0.007039 0.070949
0.588680 0.059656 0.063849
0.607795 0.057199 0.093251
0.658352 0.005486 0.029383
0.588858 0.073996 0.072613
0.591691 0.014839 0.040898
0.660455 -0.022459 0.055775
0.626959 -0.073615 0.045728
0.602506 -0.021478 0.029127
0.616117 -0.066725 0.027612
0.618126 -0.030606 0.073068
0.646858 0.068812 0.045905
0.589893 0.038851 0.054560
0.594275 -0.014803 0.059012
0.660847 0.001102 0.068070
0.628667 -0.032734 0.020397
0.609805 0.029589 0.022663
0.590110 0.033085 0.054004
0.597587 0.090586 0.046616
0.646174 -0.067598 0.027377
0.612945 -0.034223 0.064691
0.606774 -0.035436 0.045031
0.664050 -0.003055 0.060797
0.594402 -0.009095 0.062750
0.647219 0.053130 0.083518
0.593106 0.080101 0.050158
0.608490 0.037038 0.025644
0.644384 -0.058850 0.056829
0.616443 0.096342 0.053371
0.654364 0.059256 0.060923
0.655506 -0.062538 0.028325
0.618011 -0.019539 0.082252
0.658104 -0.025372 0.057423
0.656720 0.032861 0.072302
0.618515 0.023755 0.091882
0.640942 -0.050819 0.016950
0.658370 0.013502 0.072483
0.591027 0.039828 0.049053
0.604037 0.006959 0.023056
0.635135 0.013812 0.016257
0.629487 0.041671 0.024041
0.657203 0.040816 0.051019
0.660631 -0.021786 0.042588
0.663654 0.013877 0.049285
0.595800 0.003875 0.032547
0.591047 0.049137 0.072778
0.653111 -0.041944 0.038309
0.593031 -0.015076 0.052405
0.632834 0.029801 0.019825
0.604294 -0.017929 0.025135
0.608108 0.028591 0.087786
0.623991 -0.073992 0.045964
0.647744 0.091666 0.071654
0.653485 -0.021522 0.027055
0.592401 -0.009449 0.054199
0.595347 0.031122 0.034570
0.650362 -0.009769 0.079160
0.596814 0.031907 0.078583
0.589922 0.028514 0.044725
0.621339 0.001382 0.088370
0.589343 0.018086 0.049417
0.638641 0.054708 0.032005
0.590289 0.035101 0.063974
0.591794 0.018747 0.040370
0.641431 0.012178 0.017756
0.602319 0.027811 0.083609
0.653146 -0.037859 0.041476
0.629344 -0.037658 0.067706
0.651355 -0.036175 0.055490
0.640447 -0.005291 0.085075
0.624847 -0.071466 0.034811
0.648372 -0.047138 0.021587
0.643791 0.051852 0.034492
0.605816 0.004858 0.021369
0.612175 -0.041636 0.043127
0.645354 -0.024992 0.021632
0.662187 0.009122 0.064472
0.589156 0.063768 0.070660
0.653435 -0.003398 0.077433
0.654174 0.054815 0.052925
0.600550 0.040484 0.033340
0.616010 -0.003277 0.085884
0.658655 0.022329 0.037328
0.606548 0.088817 0.079733
0.597634 0.055645 0.039285
0.618039 -0.047613 0.052494
0.595453 0.080500 0.046980
0.652748 -0.010708 0.077198
0.606298 0.082784 0.039062
0.636602 -0.058620 0.015212
0.660692 0.031899 0.064463
0.665247 0.001851 0.052578
0.652053 -0.019296 0.075259
0.631307 -0.073799 0.048790
0.651576 0.048102 0.077778
0.591750 0.079032 0.052323
0.638184 -0.066128 0.016535
0.636073 0.007973 0.014987
0.662989 0.019889 0.052147
0.626824 0.088659 0.092632
0.643339 0.081346 0.047632
0.628708 -0.063551 0.015896
0.592641 0.001598 0.039781
0.607251 -0.034970 0.051862
0.592647 0.052979 0.077638
0.654487 0.024226 0.078588
0.591610 -0.001852 0.045225
0.602952 0.032536 0.085201
0.609342 -0.003241 0.017788
0.650935 0.063784 0.050470
0.650210 0.079844 0.068559
0.619936 -0.011392 0.013716
0.622788 0.094472 0.065142
0.646048 0.017321 0.021631
0.593116 0.087491 0.077496
0.643692 0.009533 0.018028
0.662642 0.022864 0.054191
0.655519 -0.046287 0.040739
0.631980 0.086874 0.040637
0.660699 0.035550 0.053639
0.594353 -0.006448 0.064037
0.659920 -0.020502 0.061112
0.641669 -0.051589 0.059161
0.660449 0.018221 0.039219
0.606109 -0.029375 0.032999
0.587973 0.086203 0.064216
0.622480 0.049881 0.026346
0.602045 0.040714 0.086322
0.652498 -0.005086 0.019273
0.639203 0.020423 0.090066
0.647242 0.065546 0.082746
0.612863 0.076855 0.098200
0.614487 -0.025950 0.022157
0.657512 -0.025806 0.036583
0.651717 0.055064 0.046361
0.613005 0.093753 0.062361
0.635238 -0.067648 0.056699
0.597994 0.036655 0.035209
0.633063 -0.030902 0.074593
0.633044 -0.019535 0.083940
0.627000 -0.010273 0.012384
0.646303 -0.043838 0.020813
0.607192 0.055506 0.092658
0.608035 0.086434 0.090921
0.614107 0.095913 0.041005
0.597304 0.052869 0.039120
0.647659 -0.061575 0.018382
0.588956 0.052574 0.061774
0.643508 0.097919 0.063221
0.616815 -0.040281 0.029264
0.639701 -0.004824 0.085420
0.632988 0.081501 0.095819
0.619731 -0.044212 0.056195
0.590191 0.084119 0.079637
0.588639 0.022166 0.059020
0.634007 -0.064996 0.057499
0.596043 0.092603 0.049966
0.611199 0.072264 0.097075
0.649632 -0.002664 0.080645
0.615060 -0.057839 0.048728
0.654501 -0.020502 0.070994
0.645462 0.085187 0.053124
0.641381 0.007141 0.016348
0.597975 0.035251 0.034400
0.618476 0.009239 0.015808
0.628500 0.081146 0.037127
0.636169 -0.028157 0.018923
0.618206 -0.060189 0.051987
0.634074 0.066637 0.094219
0.592163 0.029816 0.069137
0.600573 0.074816 0.092166
0.594204 0.028313 0.036005
0.608279 0.090101 0.075228
0.636933 -0.055067 0.060181
0.633913 0.041197 0.091966
0.637589 0.092217 0.083843
0.588485 0.079077 0.062558
0.626915 -0.018729 0.084204
0.607074 0.051199 0.030827
0.631798 0.091211 0.084588
0.609393 -0.016342 0.020177
0.633071 -0.070234 0.033206
0.625248 0.073871 0.033896
0.652442 0.062987 0.072033
0.590941 0.074971 0.079714
0.642008 0.033417 0.024129
0.656061 -0.053650 0.031855
0.634609 -0.071323 0.038990
0.588740 0.061758 0.060913
0.612459 0.056768 0.094915
0.589912 0.042513 0.065747
0.640923 0.078988 0.043755
0.661382 0.020164 0.043007
0.600246 -0.027035 0.058991
0.621443 0.058670 0.096398
0.645554 -0.009284 0.082191
0.655064 0.043719 0.046441
0.626518 0.049990 0.094825
0.600430 -0.012036 0.072214
0.630574 -0.060013 0.058808
0.648427 0.084000 0.059892
0.652860 0.062457 0.055349
0.647133 0.083842 0.079711
0.656682 -0.063115 0.037262
0.644015 -0.010926 0.015655
0.654320 -0.020885 0.027677
0.633635 0.016918 0.016745
0.616745 0.053866 0.028045
0.595769 0.053508 0.082767
0.609001 -0.008036 0.017343
0.625075 -0.070714 0.031442
0.600523 -0.012963 0.025126
0.640032 -0.064244 0.056988
0.654705 -0.016620 0.074807
0.609910 0.030144 0.088997
0.633055 -0.006942 0.011237
0.609655 0.039296 0.090698
0.648017 0.013631 0.083978
0.613620 -0.041028 0.034944
0.618040 -0.015767 0.015327
0.614904 -0.022490 0.080197
0.589816 0.050091 0.054158
0.624277 0.081747 0.036318
0.640234 0.032470 0.088311
0.630554 -0.043800 0.061149
0.592376 0.092231 0.056801
0.615582 -0.067302 0.029185
0.623806 0.016895 0.016369
0.656440 0.048551 0.059265
0.652312 -0.040897 0.044902
0.650117 -0.069048 0.035996
0.620583 -0.034296 0.069447
0.621602 0.015245 0.016317
0.594414 0.046975 0.042106
0.596789 0.074667 0.044168
0.649536 -0.065394 0.020664
0.603668 -0.002976 0.078756
0.633582 -0.073156 0.054599
0.646982 0.039543 0.083822
0.615045 -0.047356 0.028828
0.658297 0.036963 0.063611
0.666144 -0.010971 0.044003
0.644360 0.097155 0.066999
0.590078 0.008741 0.049934
0.622785 0.019151 0.092664
0.602099 -0.029394 0.052642
0.611298 -0.012382 0.016914
0.619256 0.044994 0.094274
0.594182 0.007742 0.035532
0.605565 0.083228 0.039529
0.588626 0.022891 0.059872
0.614465 -0.040195 0.032544
0.631405 0.009140 0.090139
0.656299 0.043745 0.067402
0.588347 0.074804 0.063864
0.593314 0.035148 0.073666
0.663135 0.003439 0.038060
0.634670 -0.057801 0.059694
0.657537 0.040117 0.064003
0.640681 -0.004458 0.085138
0.661804 0.007597 0.036851
0.602912 0.080033 0.040226
0.613774 0.071349 0.097535
0.605360 0.067307 0.093857
0.592988 0.019784 0.037770
0.590942 0.039568 0.049337
0.614673 0.059002 0.095814
0.657436 -0.029314 0.050169
0.618337 -0.030776 0.022333
0.590316 0.078458 0.079155
0.632800 -0.054207 0.060761
0.609507 0.086475 0.091626
0.650978 -0.013957 0.078160
0.646603 0.030507 0.026130
0.601049 0.024031 0.082930
0.603562 -0.031793 0.052978
0.596246 0.073859 0.044613
0.604016 -0.011413 0.021189
0.633320 0.089581 0.092743
0.612155 -0.056572 0.038953
0.606905 0.005795 0.020701
0.608628 -0.034078 0.059175
0.651478 -0.056053 0.022863
0.592663 -0.002772 0.040516
0.611172 -0.009234 0.082119
0.630933 0.077636 0.036751
0.591479 0.031447 0.044233
0.664593 -0.015302 0.049479
0.643812 0.025117 0.022644
0.659551 -0.018006 0.032883
0.613798 -0.062712 0.033295
0.595421 0.031683 0.034562
0.607536 0.005074 0.020163
0.588900 0.060149 0.059447
0.631639 -0.024790 0.017524
0.604209 -0.031818 0.055606
0.623939 0.093798 0.068722
0.642343 0.050474 0.088127
0.629867 0.039063 0.092817
0.652003 0.037247 0.078054
0.597794 0.075827 0.043369
0.656192 -0.055791 0.042478
0.641259 0.078318 0.043778
0.638954 0.027285 0.089383
0.648354 0.063559 0.045303
0.604832 -0.015658 0.075645
0.607506 0.029676 0.087666
0.589108 0.049646 0.060131
0.591628 0.082562 0.053193
0.590156 0.033857 0.062310
0.610896 0.097590 0.044886
0.598558 0.071316 0.089756
0.596179 0.092716 0.049866
0.626273 0.079266 0.035883
0.589013 0.051398 0.061129
0.649457 -0.061904 0.052356
0.590399 0.007227 0.048189
0.615527 0.083731 0.036733
0.654729 0.057022 0.064303
0.598970 0.068620 0.040632
0.622509 0.048974 0.026087
0.652051 -0.019795 0.024357
0.592793 0.011378 0.038383
0.648822 -0.071517 0.049405
0.636959 0.078149 0.093126
0.657879 0.014793 0.073310
0.595986 0.086976 0.081398
0.641152 -0.016092 0.082867
0.593448 0.058958 0.045631
0.659418 -0.020950 0.061684
0.631418 0.045686 0.093253
0.659274 -0.019664 0.064756
0.659633 -0.012297 0.029415
0.658516 -0.027419 0.047386
0.653338 0.020828 0.028921
0.596837 0.059361 0.040929
0.652730 -0.037186 0.037461
0.604012 0.065578 0.092782
0.655724 -0.016439 0.073846
0.646846 -0.032759 0.026014
0.662799 0.016204 0.045826
0.650859 0.066327 0.075610
0.626697 -0.070692 0.032160
0.649864 -0.025471 0.071014
0.592878 0.030949 0.038573
0.613984 0.089069 0.083078
0.636731 0.058356 0.032310
0.612816 0.041353 0.025866
0.653306 0.057408 0.052178
0.623476 -0.017431 0.084123
0.591474 -0.004069 0.050547
0.608112 0.095309 0.042422
0.654126 -0.034108 0.038821
0.612933 0.075943 0.034944
0.602800 0.042136 0.087239
0.592681 0.029479 0.070392
0.598549 0.041405 0.035573
0.648323 0.025671 0.025880
0.660393 -0.020539 0.038965
0.590032 0.036226 0.062904
0.635604 -0.053064 0.060888
0.646737 -0.043593 0.021258
0.601766 -0.006789 0.075640
0.626347 -0.022878 0.016720
0.629815 0.080931 0.097258
0.611940 0.025739 0.021050
0.663326 0.016074 0.049271
0.658070 0.007369 0.029749
0.653873 0.005300 0.077895
0.645281 -0.022561 0.077490
0.660997 0.021591 0.042677
0.623790 -0.004568 0.011914
0.634939 0.098913 0.048899
0.610724 -0.037480 0.056284
0.647956 0.008746 0.083380
0.612916 0.001127 0.016445
0.610846 0.001105 0.084878
0.657941 0.020768 0.073268
0.629733 0.073196 0.096571
0.655995 -0.048646 0.033980
0.590872 0.021199 0.042613
0.613511 -0.052162 0.029977
0.591301 0.035772 0.068687
0.627702 -0.020939 0.015730
0.649951 0.009988 0.022049
0.589977 0.030536 0.051259
0.633553 -0.074163 0.053177
0.647340 -0.069294 0.035808
0.635848 0.093506 0.077192
0.612216 -0.041683 0.044459
0.651163 0.011538 0.023564
0.655742 0.031641 0.074966
0.588385 0.084863 0.073695
0.615912 0.091573 0.038998
0.591153 0.056443 0.050068
0.650263 0.032615 0.029963
0.604858 0.014180 0.084988
0.641018 -0.069660 0.034481
0.598135 0.002740 0.074736
0.591471 0.064091 0.078107
0.614565 -0.032901 0.026268
0.641624 -0.062783 0.015589
0.595556 0.082296 0.047246
0.629157 0.059412 0.029928
0.621918 0.082768 0.099624
0.633356 0.055341 0.029772
0.642232 0.068688 0.040354
0.624026 0.083491 0.036849
0.656649 0.022762 0.034015
0.627112 -0.068726 0.054815
0.608371 -0.030910 0.064661
0.663882 -0.016839 0.050140
0.648887 -0.061520 0.052974
0.633426 0.061908 0.032106
0.643734 -0.048196 0.018448
0.636220 -0.005938 0.086192
0.632559 -0.049515 0.059394
0.619933 0.008256 0.089793
0.632459 0.066914 0.033506
0.592310 -0.010462 0.051591
0.608313 0.069439 0.095613
0.619244 -0.051291 0.022091
0.648860 0.072865 0.078655
0.643289 0.081142 0.086938
0.660062 -0.022071 0.040467
0.595089 0.053888 0.081930
0.592151 0.035266 0.045329
0.647892 0.010559 0.020748
0.609090 -0.017980 0.078264
0.638163 0.098902 0.055642
0.634628 -0.004070 0.086902
0.600712 -0.026877 0.041805
0.640203 -0.032113 0.071405
0.628443 -0.010341 0.012417
0.654924 -0.003256 0.075995
0.640938 0.023345 0.020676
0.592317 0.056572 0.047387
0.638707 -0.052316 0.060235
0.616938 -0.061162 0.025163
0.627509 0.039449 0.022054
0.626569 -0.068324 0.021021
0.620510 0.006690 0.089517
0.630022 0.095372 0.042887
0.634620 -0.069506 0.030608
0.631840 -0.064061 0.015188
0.603340 0.093622 0.043629
0.623527 -0.006409 0.086801
0.660451 -0.006906 0.068687
0.604141 -0.025602 0.068466
0.631665 0.005807 0.089417
0.629952 -0.073524 0.046830
0.646827 -0.018530 0.019763
0.616791 -0.052483 0.024623
0.592383 0.038120 0.045063
0.594019 0.033705 0.074613
0.593103 0.013582 0.037616
0.621069 0.073331 0.098306
0.620601 0.088508 0.089494
0.615983 0.042055 0.025085
0.611937 0.005935 0.017708
0.637523 0.009438 0.088755
0.595018 0.041500 0.078630
0.634784 -0.039808 0.065454
0.612567 0.028374 0.021274
0.646252 -0.025230 0.074984
0.612682 -0.015323 0.017853
0.615863 0.085648 0.098798
0.616390 0.095029 0.039997
0.645542 -0.040347 0.058329
0.665040 -0.005802 0.038403
0.602823 -0.017592 0.073002
0.608611 0.095592 0.051946
0.617426 -0.056358 0.052732
0.591701 0.008362 0.041679
0.631084 0.086841 0.096241
0.589588 0.039297 0.059051
0.626890 -0.067457 0.018051
0.659221 0.034187 0.045116
0.645907 -0.069597 0.036536
0.590513 0.052963 0.051590
0.653795 -0.011134 0.076251
0.589676 0.045420 0.055100
0.596193 0.006443 0.073346
0.651720 0.072511 0.066646
0.662970 -0.005072 0.063877
0.602213 -0.019051 0.028097
0.607293 0.029019 0.087404
0.646109 -0.050477 0.056683
0.610857 -0.029074 0.070424
0.620027 -0.006460 0.086187
0.651064 0.065865 0.052350
0.656295 -0.051410 0.034329
0.611660 0.055015 0.094373
0.660699 -0.017074 0.064842
0.629904 0.078448 0.036657
0.648344 0.085877 0.061597
0.644634 0.072895 0.044982
0.639710 0.099281 0.054875
0.652020 -0.007795 0.078150
0.593181 0.070325 0.082907
0.625674 -0.012303 0.013153
0.619323 0.066230 0.031228
0.594032 0.007050 0.035855
0.650847 0.074337 0.059826
0.597369 -0.023942 0.054848
0.657672 0.011441 0.030851
0.600338 -0.006822 0.074005
0.615640 -0.057947 0.026658
0.597400 0.092241 0.059635
0.657656 -0.029340 0.044321
0.608228 0.037160 0.025933
0.632735 -0.049804 0.059476
0.662556 0.005936 0.037882
0.647698 0.087222 0.060355
0.615344 0.045018 0.093645
0.645786 0.007077 0.084582
0.656562 0.047724 0.058150
0.651467 -0.040837 0.047896
0.666244 -0.006162 0.044971
