ply
format ascii 1.0
element vertex 1024
property float x
property float y
property float z
end_header
0.641831 0.076812 0.044461
0.644186 0.000035 0.016621
0.659698 0.038866 0.052968
0.591137 0.002573 0.049700
0.620795 -0.021103 0.083604
0.608368 0.055682 0.095177
0.652450 -0.058926 0.049248
0.643842 -0.051845 0.059017
0.622902 -0.057437 0.057253
0.614059 -0.054992 0.049012
0.659765 0.013965 0.036128
0.650792 0.030107 0.030508
0.620436 -0.000312 0.014678
0.644354 0.078295 0.089928
0.631641 0.034392 0.022291
0.651763 0.077912 0.072277
0.647525 0.018854 0.086960
0.604405 0.073011 0.096350
0.597621 0.073067 0.046457
0.589723 0.076713 0.064904
0.630669 -0.026847 0.020061
0.591549 0.070567 0.079864
0.649185 0.054473 0.041984
0.629314 0.030019 0.020883
0.614165 -0.042779 0.033633
0.625267 -0.022019 0.083879
0.657831 0.019355 0.035097
0.640576 -0.049238 0.059606
0.632113 0.070836 0.098452
0.656117 -0.051681 0.040357
0.648613 0.030111 0.028595
0.604335 -0.011356 0.023313
0.655385 0.013548 0.029423
0.638933 -0.068029 0.035958
0.655561 -0.047053 0.034808
0.624278 -0.053119 0.059515
0.591261 0.056133 0.075138
0.653869 0.049845 0.047271
0.598606 0.059618 0.042141
0.600496 0.094933 0.060837
0.600546 0.077782 0.044662
0.651299 0.067089 0.052840
0.592302 0.079930 0.084050
0.653217 0.047653 0.044608
0.596019 0.004844 0.073321
0.629165 -0.052019 0.061345
0.607083 0.013083 0.023162
0.609406 0.043143 0.029817
0.654382 -0.030545 0.056738
0.590746 0.063310 0.057554
0.626110 -0.050328 0.018270
0.623201 0.048503 0.027641
0.639878 0.074935 0.042011
0.646587 -0.009275 0.018603
0.636802 -0.006039 0.014021
0.624525 -0.070239 0.052969
0.621741 0.083304 0.102666
0.603981 -0.021002 0.031038
0.614924 0.027221 0.092338
0.591450 0.078483 0.081592
0.643773 0.053804 0.036169
0.637889 0.042963 0.027569
0.612512 0.018513 0.091787
0.619243 -0.025871 0.078332
0.647341 0.095715 0.076238
0.615891 -0.042857 0.029356
0.654848 -0.032098 0.049716
0.621350 -0.031993 0.024110
0.602530 0.021113 0.027903
0.644437 0.033159 0.026628
0.631350 0.031630 0.093587
0.657151 0.015336 0.032433
0.664666 -0.000739 0.060069
0.596824 0.057222 0.086175
0.618382 0.030186 0.093453
0.649709 -0.041594 0.025922
0.612669 -0.056991 0.033184
0.609436 0.089742 0.086895
0.614167 -0.029540 0.072064
0.628090 0.034236 0.021854
0.646221 0.013179 0.021544
0.623262 -0.031511 0.023164
0.646800 0.051679 0.087224
0.594411 0.039685 0.044284
0.614673 0.056351 0.097549
0.626982 0.064356 0.032775
0.624589 -0.040327 0.063251
0.607867 -0.011504 0.021415
0.590301 0.085345 0.063176
0.610257 0.054162 0.032271
0.610321 0.026940 0.023782
0.651538 0.069083 0.054911
0.593354 0.019305 0.074290
0.594000 0.046250 0.078965
0.591047 0.009462 0.047142
0.633624 -0.020499 0.084580
0.641285 -0.064227 0.020574
0.623508 -0.048991 0.019637
0.642737 0.023542 0.022797
0.626905 0.027107 0.020056
0.649413 0.025334 0.086381
0.636402 0.070140 0.037868
0.603238 -0.018516 0.074103
0.637206 -0.065614 0.057166
0.594765 -0.011974 0.036924
0.598907 0.045265 0.038687
0.643549 -0.057427 0.017665
0.611871 0.071971 0.099524
0.653497 -0.062348 0.026256
0.636244 0.098159 0.049213
0.597129 -0.022067 0.045625
0.631071 0.033369 0.093895
0.659588 0.033251 0.071386
0.662599 0.023832 0.062022
0.624259 0.070469 0.100369
0.630340 -0.021731 0.018567
0.633115 0.093475 0.084047
0.647931 0.078628 0.084540
0.596296 -0.009331 0.033142
0.628207 0.081722 0.038968
0.619053 0.100255 0.048799
0.592855 -0.004769 0.042462
0.597484 -0.019397 0.065539
0.605399 0.016793 0.024939
0.649994 -0.025837 0.069998
0.618582 -0.024080 0.080824
0.660308 -0.017695 0.037397
0.646318 -0.041374 0.055872
0.634057 0.088811 0.098122
0.642821 0.004030 0.087235
0.625326 0.037846 0.095319
0.605358 0.007980 0.084776
0.636875 0.087159 0.044961
0.632714 0.082680 0.040875
0.590741 0.006409 0.057972
0.647400 -0.066711 0.033568
0.664274 -0.012281 0.043055
0.626925 0.057872 0.098242
0.606748 0.083548 0.041964
0.612897 0.002995 0.087641
0.613678 -0.041059 0.049690
0.647731 -0.019666 0.023375
0.591416 0.023373 0.044231
0.623740 0.100958 0.048442
0.643709 0.093712 0.055015
0.621629 0.028997 0.093722
0.657583 -0.023724 0.060263
0.642341 0.097082 0.074216
0.660281 -0.017200 0.037150
0.599295 0.065609 0.042803
0.602597 0.087658 0.091953
0.646001 0.040270 0.087493
0.591211 0.054654 0.074513
0.643506 0.089907 0.090057
0.652812 -0.002706 0.021176
0.632815 0.000180 0.089476
0.657462 0.015804 0.076149
0.592971 0.010016 0.069406
0.662726 0.025066 0.059915
0.638338 -0.046822 0.059554
0.608398 0.092268 0.075906
0.604593 0.097344 0.053107
0.622369 -0.040733 0.061584
0.611069 0.049894 0.030783
0.656221 0.054530 0.061836
0.593922 0.093379 0.063815
0.596290 0.007597 0.074857
0.656466 0.045733 0.070981
0.662733 0.013754 0.043521
0.642729 -0.044492 0.019620
0.643875 -0.002789 0.015788
0.622632 0.027395 0.093803
0.662158 0.020855 0.046082
0.627993 0.071344 0.099815
0.636260 -0.050102 0.016797
0.642485 -0.018891 0.019992
0.649293 0.017215 0.024871
0.615191 -0.027140 0.025123
0.644515 0.092661 0.055660
0.604957 0.090256 0.082406
0.639510 0.055116 0.093256
0.635364 0.064946 0.096423
0.634821 0.045784 0.028374
0.599945 -0.017031 0.070627
0.641213 -0.064586 0.022082
0.662238 0.029205 0.054356
0.594654 0.054514 0.082344
0.648100 0.086246 0.082678
0.656152 -0.051258 0.037373
0.627991 0.017746 0.093936
0.637755 0.059404 0.094657
0.599870 0.044792 0.037499
0.631064 -0.064476 0.057489
0.619545 0.024431 0.020137
0.653459 0.062160 0.055134
0.612225 0.073691 0.036893
0.647521 0.051958 0.038838
0.644493 -0.069723 0.053330
0.655979 -0.058259 0.034016
0.625430 0.098288 0.060123
0.626561 -0.018467 0.017355
0.637399 -0.034939 0.023159
0.642919 -0.054072 0.018019
0.595382 0.047140 0.081615
0.650283 0.029904 0.029962
0.627003 0.089976 0.095309
0.590610 0.033252 0.054019
0.631050 -0.048969 0.060362
0.640414 0.055173 0.092687
0.641983 0.011278 0.088963
0.624283 -0.061202 0.056639
0.613205 -0.033761 0.031059
0.655599 0.001341 0.077292
0.590597 0.078922 0.061030
0.661590 0.013344 0.039849
0.611782 -0.009444 0.017924
0.612073 0.092766 0.075783
0.619913 0.090991 0.041005
0.620427 -0.069103 0.033095
0.613848 0.081002 0.038586
0.653217 -0.041022 0.038807
0.598599 -0.003205 0.074075
0.649365 0.048922 0.039529
0.631942 0.064302 0.097794
0.642462 0.091422 0.052124
0.627773 -0.002891 0.089130
0.645719 0.094676 0.059097
0.660444 -0.010486 0.069942
0.610209 0.026699 0.090574
0.606011 0.092184 0.074991
0.594871 0.069508 0.049354
0.597837 0.005398 0.076292
0.593151 0.009737 0.069709
0.648919 -0.034257 0.061194
0.608112 0.094602 0.044283
0.648891 -0.066878 0.051366
0.603952 0.047824 0.034443
0.615725 0.053459 0.030144
0.659081 -0.020022 0.038210
0.654776 0.054531 0.073452
0.613443 0.003552 0.017942
0.617510 0.040516 0.095250
0.655779 -0.064677 0.033740
0.621784 0.024209 0.094877
0.648962 0.039576 0.032135
0.639518 0.005890 0.088968
0.646057 0.035771 0.087150
0.597247 0.015209 0.032903
0.662805 0.004238 0.065465
0.623464 0.017780 0.018045
0.622420 0.009379 0.016328
0.625558 0.087920 0.101367
0.598443 0.001819 0.075772
0.591817 0.001135 0.045718
0.597160 0.071898 0.046723
0.634789 0.037841 0.023892
0.622449 0.025457 0.094309
0.660793 0.007524 0.035157
0.611690 0.099670 0.047396
0.653913 0.050281 0.047654
0.590364 0.052686 0.057986
0.615396 -0.063001 0.027732
0.594875 0.028371 0.037572
0.589365 0.082926 0.073588
0.625987 0.010681 0.016205
0.610637 0.013062 0.089459
0.653728 0.046415 0.077775
0.644006 0.072960 0.044839
0.633083 -0.067515 0.031431
0.645529 0.057768 0.088645
0.640739 -0.067256 0.033369
0.600499 0.093515 0.066649
0.648602 0.093513 0.067513
0.656254 -0.019053 0.031689
0.635028 0.098967 0.062476
0.595809 0.062553 0.086046
0.602996 -0.017308 0.074272
0.624387 -0.067750 0.028938
0.664684 0.006106 0.046901
0.617534 -0.049277 0.053827
0.644538 0.083639 0.050759
0.647253 0.094549 0.078782
0.590901 0.035469 0.065568
0.655288 0.055369 0.055870
0.635663 0.044070 0.094016
0.664896 0.007329 0.053291
0.589510 0.024365 0.051238
0.606414 0.007645 0.022758
0.593756 0.079180 0.086677
0.637362 0.086498 0.045034
0.663649 0.018252 0.054836
0.602795 0.087625 0.092196
0.660306 0.017341 0.071005
0.631834 0.083948 0.040976
0.613394 0.075885 0.037186
0.612480 0.082857 0.039490
0.655583 -0.051057 0.043968
0.591968 0.077765 0.082719
0.590284 0.046208 0.058518
0.627382 0.032948 0.094369
0.619385 0.086879 0.039693
0.662035 0.008413 0.067230
0.616130 0.091510 0.041381
0.639908 0.061611 0.093507
0.640773 0.058749 0.092711
0.600541 0.034781 0.031719
0.639391 0.072860 0.094576
0.624678 -0.031892 0.072794
0.594225 0.026071 0.076768
0.614386 0.072626 0.100266
0.629919 0.056275 0.097411
0.600766 0.083967 0.046091
0.597675 0.004436 0.075703
0.631678 0.069386 0.035589
0.636887 0.043411 0.027608
0.604770 -0.022003 0.073372
0.649482 -0.069503 0.046240
0.628099 -0.031420 0.073713
0.618604 0.083961 0.038801
0.595304 -0.019719 0.053618
0.652396 0.075322 0.066470
0.592617 -0.006596 0.058536
0.656587 0.014187 0.031184
0.611721 -0.008094 0.017187
0.640415 0.077233 0.093952
0.591200 0.008234 0.046728
0.601381 0.037158 0.086351
0.598463 0.091411 0.049942
0.620306 0.000696 0.089316
0.589951 0.027088 0.067254
0.647080 0.045755 0.035625
0.639250 0.086393 0.095353
0.614385 0.065296 0.099044
0.628154 0.044228 0.026300
0.615157 0.034181 0.093480
0.647289 0.083156 0.085094
0.637697 0.047724 0.093538
0.617927 -0.062997 0.023702
0.636692 -0.070491 0.055427
0.612188 -0.036940 0.056400
0.648795 -0.048492 0.055439
0.610860 0.018301 0.021904
0.621359 -0.010886 0.015679
0.647411 -0.061002 0.019516
0.634605 0.082154 0.041589
0.618386 -0.040698 0.058685
0.646497 0.081461 0.086733
0.643190 0.010818 0.019292
0.642838 -0.057682 0.057979
0.619368 -0.032143 0.070788
0.638411 0.087465 0.046239
0.637838 -0.065947 0.026606
0.653665 0.018105 0.029154
0.664582 -0.004249 0.061046
0.589143 0.086739 0.068275
0.624594 -0.015038 0.085957
0.600063 0.026536 0.030968
0.647825 0.017678 0.086562
0.665360 -0.003224 0.042307
0.622899 0.093050 0.041868
0.588730 0.027876 0.061126
0.662199 0.025962 0.063481
0.647192 -0.059701 0.054713
0.607846 0.084907 0.099730
0.603691 -0.007254 0.023002
0.643104 -0.034506 0.066507
0.590430 0.044232 0.057472
0.600404 0.065171 0.041608
0.638968 -0.070001 0.044368
0.593870 0.019533 0.038654
0.600324 0.083820 0.095314
0.632527 0.017788 0.018147
0.629875 0.053484 0.029698
0.634440 0.025043 0.020358
0.648136 -0.051993 0.055999
0.642895 -0.001502 0.015654
0.658872 -0.024160 0.044685
0.648670 -0.029804 0.028753
0.657517 -0.006230 0.074258
0.597237 0.008910 0.032386
0.664122 -0.014236 0.047344
0.622329 -0.030494 0.023014
0.617919 0.007525 0.017002
0.649064 0.092448 0.074803
0.638968 0.064587 0.037156
0.619403 0.031436 0.021702
0.590579 0.034066 0.057017
0.655254 0.048795 0.073811
0.590501 0.036170 0.061838
0.643566 0.020171 0.089729
0.656203 0.016484 0.031570
0.628597 -0.070700 0.043228
0.605705 0.041942 0.031713
0.656808 0.004072 0.027565
0.656047 -0.054853 0.040376
0.636006 0.048836 0.094436
0.640404 -0.035113 0.067406
0.595641 0.016847 0.035412
0.650712 0.079623 0.076897
0.594098 0.015644 0.038040
0.641081 0.024329 0.022271
0.650875 -0.021608 0.074347
0.646262 -0.038976 0.058208
0.650818 0.071650 0.054915
0.613638 0.086817 0.040379
0.635811 0.086335 0.097973
0.655577 0.007775 0.027504
0.651832 -0.063445 0.024208
0.626955 -0.046434 0.018513
0.652643 -0.010422 0.078607
0.590630 0.079229 0.079278
0.614748 0.091223 0.083562
0.653402 -0.041681 0.041128
0.664038 0.007700 0.044575
0.636078 0.013744 0.091668
0.643299 -0.069989 0.046019
0.653217 -0.023669 0.068574
0.616308 0.047990 0.028487
0.605422 -0.029917 0.040366
0.590355 0.046588 0.057931
0.635999 -0.040248 0.063459
0.625223 0.012745 0.092837
0.618956 -0.027588 0.022833
0.589760 0.057934 0.062977
0.591776 -0.004464 0.054217
0.651125 -0.015930 0.024610
0.633038 0.026036 0.094007
0.608609 0.054201 0.033070
0.617303 -0.049277 0.053593
0.614226 0.097751 0.056431
0.621453 -0.031843 0.072043
0.594728 0.072249 0.050203
0.596698 0.012483 0.033457
0.646861 0.086248 0.085461
0.611243 0.094340 0.068854
0.609585 0.003800 0.086255
0.616278 0.050677 0.029231
0.595650 0.065272 0.086437
0.637479 0.023463 0.093148
0.644253 0.017392 0.088867
0.631622 0.075762 0.037876
0.654784 0.062648 0.065758
0.646525 0.033074 0.086648
0.638008 -0.070315 0.045338
0.624011 -0.042318 0.060414
0.646311 -0.040243 0.056655
0.632999 0.091586 0.091848
0.609986 0.086140 0.041267
0.608412 0.060872 0.034906
0.640723 0.085611 0.093923
0.628083 0.019532 0.094335
0.589704 0.063262 0.063450
0.634627 -0.012555 0.015558
0.634905 0.095161 0.046957
0.589287 0.028226 0.051478
0.596564 0.061686 0.045125
0.630866 -0.017755 0.085554
0.632802 -0.068027 0.056498
0.635416 0.062070 0.034369
0.638440 -0.059647 0.059023
0.655903 -0.045039 0.039456
0.613853 0.027529 0.022398
0.602091 -0.000116 0.079317
0.663592 -0.003272 0.063873
0.590325 0.025806 0.069410
0.625878 -0.028439 0.021181
0.622678 -0.020161 0.018392
0.639920 -0.006523 0.015221
0.622442 -0.058991 0.019555
0.593971 0.090049 0.077533
0.664571 -0.000324 0.060350
0.597929 0.073890 0.046308
0.610013 -0.004070 0.018446
0.599077 0.027770 0.082174
0.633790 -0.027900 0.077334
0.609308 -0.035108 0.039483
0.592350 0.016827 0.041891
0.650878 -0.019100 0.025574
0.646550 0.055115 0.039251
0.639011 -0.029591 0.022542
0.602798 -0.002959 0.079049
0.649659 0.077990 0.080893
0.619005 -0.025759 0.022512
0.611279 0.074398 0.037413
0.634028 -0.027879 0.077293
0.629236 0.078024 0.100271
0.604162 -0.030274 0.054149
0.592624 -0.008820 0.056670
0.661586 0.012205 0.068168
0.648339 -0.044707 0.023116
0.634569 -0.064444 0.018825
0.590675 0.015237 0.064852
0.638149 0.050248 0.093574
0.635536 0.059040 0.033322
0.592390 0.038015 0.048753
0.606335 0.022776 0.025274
0.621916 0.075400 0.101257
0.626247 -0.004675 0.012892
0.645942 -0.065437 0.027580
0.602553 -0.008875 0.076767
0.640154 -0.006809 0.086230
0.652419 0.019571 0.082807
0.602029 0.035156 0.030485
0.597882 0.026099 0.033265
0.648821 -0.010931 0.020133
0.591330 0.010581 0.064672
0.590421 0.063692 0.058932
0.601982 0.058932 0.091789
0.662748 0.005882 0.038849
0.589433 0.077690 0.068181
0.595939 0.019546 0.035160
0.656935 -0.022988 0.063642
0.623629 -0.071291 0.043712
0.606950 -0.017042 0.024459
0.617743 -0.063065 0.023940
0.611327 -0.028679 0.070323
0.651626 0.069290 0.055311
0.592485 0.043167 0.049181
0.592416 -0.010779 0.051935
0.655898 0.000074 0.076817
0.633685 -0.029830 0.021449
0.618667 0.033565 0.022311
0.592472 0.037421 0.048413
0.604972 0.094460 0.045717
0.646918 -0.066053 0.030583
0.608026 -0.031645 0.060816
0.606537 -0.031778 0.040227
0.660444 -0.004061 0.070284
0.592019 -0.005219 0.055873
0.642263 0.052404 0.091200
0.599155 0.084208 0.047626
0.617154 0.040987 0.025265
0.638862 -0.058165 0.059220
0.622053 0.098644 0.056897
0.654831 0.058743 0.071175
0.656065 -0.061699 0.033894
0.609756 -0.017937 0.079756
0.654092 -0.025779 0.064563
0.652853 0.031890 0.081508
0.610657 0.024876 0.091315
0.645293 -0.048615 0.020052
0.653227 0.012467 0.081133
0.594927 0.044241 0.044135
0.611592 0.011399 0.020278
0.643777 0.016253 0.021152
0.638190 0.044173 0.028759
0.658762 0.040480 0.061315
0.660216 -0.021899 0.050897
0.663776 0.013224 0.059817
0.601198 0.008598 0.027460
0.589997 0.052747 0.067649
0.652678 -0.041325 0.044039
0.592729 -0.010748 0.045214
0.641693 0.032240 0.024860
0.609832 -0.013500 0.021160
0.601805 0.030567 0.085172
0.620670 -0.071465 0.043240
0.647893 0.091172 0.081642
0.656911 -0.020624 0.034168
0.592045 -0.005152 0.047084
0.601958 0.035727 0.030633
0.642475 -0.010385 0.084662
0.593188 0.034971 0.073789
0.594169 0.033180 0.039130
0.612844 0.002485 0.087475
0.591876 0.022672 0.043057
0.646021 0.056263 0.039232
0.590449 0.039093 0.058242
0.596401 0.023452 0.034859
0.649440 0.014130 0.023978
0.597111 0.030335 0.079743
0.652226 -0.037357 0.047322
0.623031 -0.036328 0.067352
0.647329 -0.036009 0.060612
0.631749 -0.005411 0.088346
0.624250 -0.068643 0.032717
0.651652 -0.045622 0.026446
0.650266 0.052971 0.042697
0.613582 0.009233 0.018946
0.611843 -0.038279 0.039321
0.650069 -0.023331 0.026859
0.658527 0.008092 0.074013
0.589550 0.067536 0.065859
0.646250 -0.004194 0.083996
0.656236 0.054589 0.063144
0.607867 0.044733 0.031085
0.607966 -0.001701 0.083608
0.662225 0.022394 0.047452
0.605854 0.090983 0.079883
0.604582 0.059860 0.036922
0.614989 -0.044957 0.049487
0.602197 0.084544 0.045096
0.645190 -0.011426 0.083258
0.614706 0.086311 0.040004
0.641007 -0.056029 0.016989
0.658474 0.030905 0.074756
0.663820 0.001014 0.062806
0.644440 -0.019875 0.080800
0.627124 -0.071882 0.047679
0.647520 0.047270 0.086381
0.597270 0.083168 0.049367
0.641776 -0.063670 0.018277
0.644626 0.010407 0.019852
0.662834 0.019171 0.062735
0.622523 0.088971 0.097077
0.648576 0.081979 0.056784
0.632884 -0.060409 0.015601
0.596310 0.006315 0.033656
0.605439 -0.031569 0.047000
0.590653 0.056306 0.072925
0.648694 0.023234 0.086690
0.593830 0.002771 0.038544
0.597643 0.034948 0.081664
0.617341 0.001026 0.015887
0.654213 0.063840 0.060445
0.650283 0.079313 0.078633
0.628073 -0.007717 0.013974
0.625359 0.095948 0.069708
0.653334 0.018804 0.029054
0.593256 0.090684 0.074556
0.651408 0.011324 0.024635
0.662203 0.022095 0.064786
0.654184 -0.045904 0.046745
0.639517 0.088521 0.047638
0.661223 0.034897 0.064413
0.591834 -0.002619 0.057239
0.655295 -0.021173 0.068800
0.636130 -0.050810 0.061211
0.663275 0.018110 0.049505
0.609063 -0.025296 0.028671
0.591275 0.090197 0.060403
0.631356 0.052778 0.029783
0.597003 0.043130 0.082938
0.658771 -0.003914 0.027168
0.630955 0.020150 0.094147
0.643226 0.064806 0.091052
0.606953 0.078009 0.098710
0.619928 -0.022120 0.020224
0.658340 -0.025491 0.044149
0.655394 0.055225 0.056211
0.616466 0.096013 0.064720
0.629476 -0.066285 0.056567
0.604717 0.041036 0.032130
0.625452 -0.030080 0.075227
0.623955 -0.019052 0.084854
0.635307 -0.007057 0.014357
0.650026 -0.042161 0.025376
0.601430 0.057306 0.090992
0.604547 0.088137 0.090985
0.622638 0.098785 0.044320
0.604130 0.057122 0.036552
0.650821 -0.059860 0.022471
0.590738 0.056679 0.056637
0.646128 0.097981 0.072772
0.619656 -0.036804 0.026979
0.630974 -0.004904 0.088532
0.627326 0.081294 0.101248
0.615978 -0.041807 0.053638
0.589712 0.087459 0.075802
0.589208 0.026476 0.052425
0.628258 -0.063581 0.057188
0.602817 0.096471 0.048716
0.605319 0.073585 0.097013
0.641856 -0.003298 0.086278
0.612347 -0.054819 0.044650
0.647735 -0.021111 0.077160
0.649594 0.085479 0.062795
0.649410 0.009157 0.022356
0.604801 0.039664 0.031272
0.627433 0.012887 0.016663
0.636605 0.083171 0.043150
0.641590 -0.025749 0.021962
0.614499 -0.057491 0.048428
0.627841 0.066451 0.099227
0.590743 0.033524 0.063437
0.596303 0.077042 0.089920
0.600342 0.032961 0.031630
0.608661 0.092287 0.075964
0.631082 -0.053976 0.060946
0.626651 0.041173 0.095777
0.635234 0.092042 0.091181
0.591722 0.083110 0.058566
0.617994 -0.017823 0.083740
0.615441 0.055036 0.030658
0.629378 0.091425 0.090525
0.616032 -0.012116 0.017590
0.632682 -0.067944 0.033108
0.633755 0.076254 0.038912
0.650609 0.062235 0.081712
0.589862 0.078284 0.075609
0.649817 0.035056 0.031327
0.656327 -0.052993 0.037881
0.632761 -0.069327 0.039032
0.591291 0.065879 0.056193
0.606095 0.058118 0.094458
0.590125 0.046452 0.060236
0.646989 0.079925 0.052346
0.663418 0.019857 0.053495
0.597467 -0.023395 0.052699
0.614587 0.059330 0.098057
0.637133 -0.009660 0.086525
0.657929 0.043675 0.056513
0.619346 0.050369 0.097278
0.595487 -0.008886 0.066317
0.624927 -0.058413 0.057911
0.650824 0.083865 0.069998
0.654864 0.062222 0.065565
0.644946 0.083153 0.088958
0.655091 -0.062649 0.042824
0.651022 -0.009019 0.021419
0.657616 -0.020068 0.034995
0.642398 0.019440 0.021431
0.625638 0.057102 0.030307
0.592522 0.056445 0.078654
0.616821 -0.003715 0.015146
0.625302 -0.067800 0.029531
0.606478 -0.008282 0.020524
0.634271 -0.063240 0.058113
0.647284 -0.017380 0.081100
0.603367 0.031948 0.086839
0.641656 -0.004127 0.014796
0.603284 0.041034 0.088873
0.640511 0.012954 0.089931
0.615186 -0.037508 0.031729
0.625589 -0.011997 0.014893
0.607038 -0.020592 0.076902
0.593193 0.054392 0.049313
0.632732 0.084096 0.041421
0.633102 0.032144 0.093258
0.625355 -0.042323 0.060961
0.597644 0.096137 0.054498
0.616822 -0.063654 0.025319
0.632944 0.020124 0.018803
0.656577 0.047977 0.069527
0.650433 -0.040439 0.050314
0.648650 -0.068059 0.039798
0.614329 -0.032414 0.067191
0.630716 0.018637 0.018166
0.600269 0.051353 0.038506
0.603791 0.078725 0.042389
0.651878 -0.063875 0.024937
0.597663 -0.000295 0.073856
0.628020 -0.071591 0.053879
0.641130 0.038865 0.090788
0.617605 -0.043718 0.025808
0.656658 0.036152 0.073621
0.665900 -0.011553 0.054060
0.646029 0.097036 0.076603
0.591897 0.013286 0.043279
0.614337 0.019959 0.092835
0.600598 -0.025672 0.046841
0.618884 -0.008197 0.015048
0.612120 0.045919 0.094832
0.599171 0.012470 0.030176
0.613914 0.086791 0.040310
0.589042 0.027173 0.053285
0.616616 -0.036659 0.029631
0.622678 0.009450 0.091883
0.654251 0.042931 0.077172
0.591022 0.078817 0.059598
0.591133 0.038610 0.068360
0.665246 0.003220 0.048286
0.628832 -0.056526 0.059820
0.656022 0.039337 0.073979
0.632013 -0.004600 0.088500
0.664490 0.007499 0.047004
0.610980 0.083771 0.040224
0.607655 0.072476 0.098009
0.600097 0.069162 0.092304
0.598229 0.024487 0.032656
0.594763 0.043978 0.044380
0.608172 0.060159 0.095948
0.654890 -0.029426 0.057169
0.623328 -0.027209 0.021049
0.589599 0.081822 0.075089
0.626988 -0.052845 0.060601
0.605814 0.088051 0.092011
0.643049 -0.014571 0.083629
0.653634 0.031765 0.034189
0.595803 0.026679 0.078609
0.601794 -0.028178 0.047389
0.603111 0.077944 0.042658
0.610880 -0.006855 0.017575
0.628859 0.089427 0.098723
0.611880 -0.053032 0.034541
0.614852 0.010112 0.018593
0.605129 -0.031016 0.054468
0.653823 -0.054771 0.027971
0.595892 0.001933 0.034164
0.603780 -0.007176 0.078550
0.638839 0.079512 0.043175
0.595975 0.036010 0.039151
0.662856 -0.015940 0.058819
0.651406 0.026701 0.029899
0.661658 -0.017737 0.041397
0.614415 -0.059085 0.029124
0.602066 0.036282 0.030670
0.615545 0.009366 0.018180
0.591689 0.064311 0.054727
0.637725 -0.022026 0.019722
0.601808 -0.028334 0.050091
0.625601 0.095077 0.073421
0.636295 0.049950 0.094431
0.622395 0.039303 0.095571
0.647205 0.036409 0.086225
0.605023 0.079837 0.041899
0.653850 -0.055483 0.048134
0.647269 0.079233 0.052413
0.631293 0.027031 0.093756
0.652897 0.063967 0.054818
0.598739 -0.012920 0.070490
0.601315 0.031695 0.084969
0.591088 0.053803 0.054935
0.597165 0.086668 0.050353
0.590631 0.037917 0.056534
0.618721 0.100557 0.047434
0.594694 0.073774 0.086946
0.602978 0.096577 0.048655
0.634618 0.081495 0.041338
0.590871 0.055524 0.055967
0.644640 -0.061423 0.055892
0.592522 0.011812 0.041583
0.624264 0.086679 0.039908
0.654262 0.056379 0.074437
0.606361 0.072658 0.039163
0.631389 0.051880 0.029493
0.656253 -0.018713 0.031299
0.597382 0.016100 0.032802
0.644122 -0.070866 0.052415
0.631601 0.077759 0.099383
0.652637 0.013762 0.081885
0.595102 0.089841 0.078984
0.632285 -0.016158 0.085842
0.599245 0.063253 0.042287
0.654646 -0.021603 0.069219
0.624205 0.045782 0.096670
0.653871 -0.020410 0.072234
0.662894 -0.011939 0.038320
0.656702 -0.027521 0.054803
0.658928 0.021547 0.037985
0.603654 0.063568 0.038515
0.652798 -0.036527 0.043356
0.598932 0.067568 0.090866
0.648507 -0.017240 0.080409
0.650021 -0.031323 0.031089
0.663894 0.015717 0.056370
0.648445 0.065561 0.084985
0.626710 -0.067916 0.030604
0.642925 -0.025738 0.075874
0.598619 0.035600 0.033948
0.612308 0.090599 0.084857
0.644320 0.060025 0.039265
0.621566 0.044975 0.026684
0.655726 0.057260 0.062343
0.614754 -0.016283 0.082932
0.592324 0.000397 0.043579
0.616452 0.098561 0.044289
0.654024 -0.033601 0.045147
0.621686 0.079156 0.037198
0.597610 0.044464 0.084071
0.590933 0.033110 0.064760
0.605462 0.045720 0.032839
0.655065 0.026830 0.034109
0.660905 -0.020521 0.047381
0.590518 0.040268 0.057197
0.629750 -0.051908 0.061424
0.650359 -0.041962 0.025920
0.596308 -0.003861 0.070206
0.632893 -0.019719 0.017816
0.623875 0.080903 0.101890
0.620879 0.029629 0.021050
0.663596 0.015437 0.059834
0.662504 0.007768 0.039231
0.647100 0.004432 0.084964
0.637148 -0.022724 0.081254
0.663208 0.021318 0.053155
0.632651 -0.001127 0.013437
0.641204 0.100045 0.056928
0.607628 -0.034461 0.051976
0.640291 0.008107 0.089100
0.621390 0.005172 0.015614
0.603455 0.003066 0.081653
0.653073 0.019716 0.082146
0.623483 0.073221 0.100831
0.656075 -0.048069 0.040172
0.595134 0.025889 0.036944
0.615555 -0.048438 0.026340
0.590376 0.039537 0.063088
0.634557 -0.017850 0.017258
0.656576 0.011203 0.030005
0.592825 0.034979 0.045592
0.628262 -0.072546 0.052442
0.645984 -0.068101 0.038965
0.635171 0.093667 0.084378
0.611570 -0.038372 0.040623
0.657495 0.012614 0.031831
0.651209 0.030656 0.083814
0.589387 0.088522 0.069646
0.624591 0.094396 0.042576
0.595832 0.060763 0.045950
0.656423 0.033482 0.038858
0.598419 0.016521 0.081012
0.640134 -0.067975 0.036204
0.593578 0.005926 0.068951
0.590084 0.067451 0.073646
0.618621 -0.029190 0.023904
0.645540 -0.060547 0.018310
0.602345 0.086319 0.045464
0.637587 0.061691 0.035259
0.615773 0.083217 0.102461
0.641450 0.057341 0.035877
0.648420 0.069674 0.048846
0.632472 0.085835 0.041964
0.661076 0.023075 0.043791
0.621961 -0.066724 0.052814
0.603796 -0.028019 0.059893
0.661917 -0.017443 0.059223
0.643967 -0.061020 0.056379
0.641377 0.063807 0.038477
0.647815 -0.046246 0.022276
0.627347 -0.005794 0.088429
0.627360 -0.048106 0.059442
0.611570 0.009392 0.088865
0.640419 0.068821 0.039856
0.592502 -0.006070 0.044479
0.602684 0.071021 0.094793
0.623008 -0.047718 0.020035
0.646196 0.072122 0.087800
0.639368 0.080497 0.094968
0.660140 -0.022074 0.048691
0.592081 0.056899 0.077703
0.596605 0.039734 0.040555
0.654915 0.011961 0.028294
0.602121 -0.015621 0.073903
0.642764 0.099586 0.064224
0.625751 -0.003842 0.088842
0.601928 -0.022711 0.036109
0.633050 -0.031689 0.073712
0.636696 -0.007228 0.014718
0.648039 -0.004111 0.082947
0.648966 0.025203 0.027240
0.597592 0.060897 0.043619
0.632960 -0.051360 0.061539
0.619450 -0.057497 0.022016
0.636597 0.042163 0.026265
0.629323 -0.065183 0.019861
0.612098 0.007799 0.088654
0.637614 0.097059 0.049783
0.634835 -0.067244 0.030974
0.636058 -0.061116 0.015608
0.611436 0.097177 0.044283
0.614856 -0.005385 0.086077
0.654880 -0.007903 0.076939
0.599131 -0.022551 0.062874
0.622894 0.006133 0.091080
0.626283 -0.071448 0.045475
0.652329 -0.016933 0.025692
0.619965 -0.048816 0.021875
0.597067 0.042572 0.040487
0.591508 0.037091 0.069374
0.597997 0.018301 0.032234
0.614677 0.073911 0.100531
0.617203 0.089362 0.092588
0.624864 0.045477 0.026686
0.620441 0.009993 0.016848
0.628957 0.009360 0.091958
0.592021 0.044661 0.073883
0.628704 -0.038783 0.066311
0.621597 0.032203 0.021538
0.638510 -0.025372 0.078913
0.619828 -0.011257 0.016138
0.610264 0.086543 0.100404
0.625034 0.097775 0.043822
0.640771 -0.039850 0.061834
0.666448 -0.006139 0.048613
0.597286 -0.014620 0.067365
0.614737 0.098497 0.053675
0.613802 -0.053640 0.049157
0.595370 0.013063 0.035610
0.625706 0.086739 0.101477
0.591172 0.043487 0.053498
0.630379 -0.064245 0.017090
0.661689 0.033921 0.055722
0.644405 -0.068326 0.039328
0.594643 0.057290 0.047116
0.646400 -0.011894 0.082558
0.592552 0.049714 0.049972
0.592243 0.009800 0.067331
0.651745 0.071958 0.076768
0.658556 -0.006095 0.072932
0.607055 -0.014567 0.023507
0.601128 0.031063 0.084635
0.641084 -0.049936 0.059878
0.604981 -0.026552 0.066155
0.611598 -0.005169 0.084673
0.654028 0.065844 0.062401
0.656115 -0.050857 0.040447
0.605338 0.056444 0.093663
0.655392 -0.017932 0.072771
0.637913 0.080397 0.042887
0.650462 0.085686 0.071727
0.649932 0.073548 0.054099
0.644467 0.099880 0.063852
0.644440 -0.008500 0.084156
0.591008 0.073389 0.079004
0.633717 -0.009013 0.014702
0.628157 0.069142 0.034588
0.598907 0.011780 0.030422
0.652596 0.074062 0.070026
0.595828 -0.019974 0.048160
0.662111 0.011819 0.040407
0.595300 -0.003740 0.068286
0.618039 -0.054248 0.023325
0.601862 0.095699 0.058409
0.656463 -0.029276 0.051534
0.616840 0.041118 0.025492
0.627494 -0.048410 0.059548
0.664878 0.005756 0.048099
0.650206 0.087113 0.070436
0.608471 0.046241 0.093322
0.637803 0.006557 0.089689
0.656904 0.047180 0.068431
0.648920 -0.040417 0.053033
0.666067 -0.006797 0.055256
