ply
format ascii 1.0
element vertex 1024
property float x
property float y
property float z
property uchar red
property uchar green
property uchar blue
end_header
0.469500 -0.059620 0.047260 255 220 0
0.478475 0.062307 0.034211 255 220 0
0.541323 0.026085 0.037092 255 220 0
0.500088 0.010391 0.015542 255 220 0
0.493072 0.032397 0.098297 255 220 0
0.539852 0.066373 0.088056 255 220 0
0.504209 0.022086 0.093198 255 220 0
0.524785 0.010669 0.077868 255 220 0
0.545220 0.029373 0.055983 255 220 0
0.519492 0.068937 0.103085 255 220 0
0.489427 -0.048817 0.065535 255 220 0
0.530558 0.105516 0.072092 255 220 0
0.468100 0.073331 0.057965 255 220 0
0.466045 -0.003862 0.078695 255 220 0
0.510278 0.071605 0.105074 255 220 0
0.485263 -0.054852 0.035812 255 220 0
0.478903 0.044483 0.027271 255 220 0
0.525154 0.005982 0.074542 255 220 0
0.470187 -0.001093 0.028580 255 220 0
0.513722 -0.030544 0.029959 255 220 0
0.547412 0.055574 0.062474 255 220 0
0.523043 0.002029 0.073754 255 220 0
0.466930 -0.057563 0.046101 255 220 0
0.528276 -0.015194 0.043685 255 220 0
0.507106 0.106418 0.091210 255 220 0
0.519777 0.095504 0.097300 255 220 0
0.538067 0.020427 0.031941 255 220 0
0.459823 0.056410 0.073263 255 220 0
0.482781 -0.058765 0.062694 255 220 0
0.509088 0.024153 0.016800 255 220 0
0.527360 -0.012601 0.054317 255 220 0
0.493323 -0.005033 0.083553 255 220 0
0.519270 0.110702 0.082142 255 220 0
0.485841 -0.039799 0.026448 255 220 0
0.526137 0.081235 0.039096 255 220 0
0.510489 -0.036468 0.032326 255 220 0
0.527991 -0.012565 0.052610 255 220 0
0.536685 0.024343 0.072845 255 220 0
0.473336 -0.019310 0.078822 255 220 0
0.500344 0.061550 0.105254 255 220 0
0.459512 0.035250 0.081320 255 220 0
0.496958 0.064153 0.025589 255 220 0
0.522476 0.110812 0.070751 255 220 0
0.474979 0.077191 0.093874 255 220 0
0.497537 0.104279 0.089619 255 220 0
0.502320 0.067296 0.026117 255 220 0
0.508845 0.027821 0.094364 255 220 0
0.479606 0.036209 0.097606 255 220 0
0.545297 0.055378 0.048520 255 220 0
0.507706 -0.007302 0.077390 255 220 0
0.534464 0.041531 0.085840 255 220 0
0.466312 0.061546 0.089759 255 220 0
0.535298 0.009993 0.029985 255 220 0
0.458525 0.007709 0.071029 255 220 0
0.488920 -0.054236 0.035432 255 220 0
0.512233 -0.013511 0.071041 255 220 0
0.520754 0.034452 0.020531 255 220 0
0.458149 -0.027934 0.046119 255 220 0
0.473896 0.043433 0.096715 255 220 0
0.495053 -0.053723 0.052936 255 220 0
0.462990 0.059881 0.083793 255 220 0
0.517936 0.053928 0.100758 255 220 0
0.533188 0.046132 0.029095 255 220 0
0.501929 0.070366 0.105606 255 220 0
0.518356 0.102923 0.093270 255 220 0
0.485856 -0.033516 0.023990 255 220 0
0.526249 -0.014389 0.031342 255 220 0
0.525894 0.087188 0.042928 255 220 0
0.471182 0.069733 0.093346 255 220 0
0.518039 0.103218 0.093164 255 220 0
0.493486 0.013243 0.091148 255 220 0
0.480252 0.091183 0.089590 255 220 0
0.518726 0.062330 0.025955 255 220 0
0.490053 -0.029950 0.022209 255 220 0
0.529719 0.035999 0.087764 255 220 0
0.521182 -0.019100 0.028778 255 220 0
0.504959 0.070433 0.027318 255 220 0
0.492487 0.052595 0.103610 255 220 0
0.538229 0.004214 0.047834 255 220 0
0.524436 0.099407 0.052329 255 220 0
0.499172 0.057366 0.104719 255 220 0
0.509799 0.113266 0.075514 255 220 0
0.488712 0.102237 0.084314 255 220 0
0.517478 -0.014983 0.066242 255 220 0
0.502664 0.033076 0.097862 255 220 0
0.527521 0.102778 0.058616 255 220 0
0.482914 0.019363 0.020523 255 220 0
0.484230 0.017038 0.092521 255 220 0
0.488147 0.041588 0.021147 255 220 0
0.519493 -0.010172 0.068147 255 220 0
0.512436 0.050159 0.020658 255 220 0
0.481883 0.046720 0.100452 255 220 0
0.470296 -0.008649 0.028334 255 220 0
0.530940 0.011474 0.071921 255 220 0
0.510680 0.088227 0.102429 255 220 0
0.485799 0.100042 0.067263 255 220 0
0.468082 0.002746 0.031090 255 220 0
0.465291 0.031714 0.088922 255 220 0
0.482039 0.050209 0.026793 255 220 0
0.466985 -0.048379 0.038525 255 220 0
0.487382 0.093705 0.052627 255 220 0
0.539878 0.078206 0.087861 255 220 0
0.514261 -0.026132 0.059822 255 220 0
0.481136 0.042512 0.025151 255 220 0
0.474955 0.075078 0.094882 255 220 0
0.498564 0.108959 0.067321 255 220 0
0.516912 -0.014833 0.066840 255 220 0
0.468586 -0.023758 0.030527 255 220 0
0.481517 -0.055221 0.036545 255 220 0
0.501841 0.084332 0.103671 255 220 0
0.533964 0.085363 0.092815 255 220 0
0.482241 0.059102 0.101838 255 220 0
0.500576 0.083732 0.103712 255 220 0
0.470144 0.052262 0.094956 255 220 0
0.469967 -0.054224 0.039952 255 220 0
0.464585 -0.020830 0.074180 255 220 0
0.504126 0.062254 0.023896 255 220 0
0.484531 0.091246 0.094319 255 220 0
0.525354 0.078840 0.100505 255 220 0
0.477491 0.049383 0.029922 255 220 0
0.532602 -0.008133 0.042367 255 220 0
0.458700 0.037211 0.079327 255 220 0
0.483540 0.096667 0.063871 255 220 0
0.523633 -0.005190 0.024167 255 220 0
0.480343 0.091311 0.089578 255 220 0
0.497488 0.015152 0.015781 255 220 0
0.458542 -0.025293 0.066111 255 220 0
0.490752 0.097377 0.054198 255 220 0
0.543534 0.026497 0.042859 255 220 0
0.457310 0.035031 0.058826 255 220 0
0.540740 0.032179 0.071635 255 220 0
0.521000 0.095663 0.096704 255 220 0
0.481259 0.083873 0.096301 255 220 0
0.484177 -0.059915 0.042391 255 220 0
0.547544 0.045937 0.057896 255 220 0
0.530237 0.104236 0.081431 255 220 0
0.458418 -0.020230 0.065877 255 220 0
0.515419 0.070522 0.104188 255 220 0
0.517378 0.106483 0.057201 255 220 0
0.534348 0.061288 0.093314 255 220 0
0.540677 0.037197 0.036521 255 220 0
0.482597 0.014302 0.091366 255 220 0
0.467487 0.042562 0.039067 255 220 0
0.513221 0.009567 0.084078 255 220 0
0.500745 -0.038118 0.062925 255 220 0
0.482526 0.071583 0.101093 255 220 0
0.493607 0.059859 0.104711 255 220 0
0.461718 0.047466 0.051713 255 220 0
0.479973 -0.011377 0.081809 255 220 0
0.503009 0.031320 0.097150 255 220 0
0.463908 -0.004103 0.036168 255 220 0
0.499103 0.027516 0.016658 255 220 0
0.458392 -0.031098 0.045625 255 220 0
0.490985 -0.018368 0.019181 255 220 0
0.509083 -0.024048 0.023468 255 220 0
0.532477 0.009751 0.027201 255 220 0
0.538310 0.072758 0.090536 255 220 0
0.462310 0.064744 0.067877 255 220 0
0.481823 0.014252 0.020682 255 220 0
0.522074 0.014545 0.082120 255 220 0
0.506189 -0.032728 0.062254 255 220 0
0.498975 -0.050358 0.038294 255 220 0
0.480626 -0.020634 0.079149 255 220 0
0.483827 0.019723 0.020089 255 220 0
0.522582 0.100662 0.092882 255 220 0
0.478723 -0.062742 0.051788 255 220 0
0.480904 -0.041927 0.072964 255 220 0
0.522563 0.021053 0.020748 255 220 0
0.481875 -0.028708 0.023644 255 220 0
0.495243 0.043487 0.019367 255 220 0
0.509358 0.036791 0.017970 255 220 0
0.495077 -0.051943 0.035412 255 220 0
0.528375 -0.008488 0.029513 255 220 0
0.527041 0.057887 0.097892 255 220 0
0.474442 0.088105 0.079737 255 220 0
0.498570 0.037884 0.099978 255 220 0
0.526856 0.029928 0.086994 255 220 0
0.473799 0.041954 0.031041 255 220 0
0.484054 0.007555 0.019251 255 220 0
0.519111 -0.025816 0.051181 255 220 0
0.505363 0.044926 0.101417 255 220 0
0.509006 0.038695 0.018155 255 220 0
0.496555 0.083001 0.036187 255 220 0
0.457264 0.000854 0.052519 255 220 0
0.508108 0.057787 0.104171 255 220 0
0.519955 0.026231 0.089064 255 220 0
0.505370 -0.044535 0.039532 255 220 0
0.517831 0.085858 0.038051 255 220 0
0.542093 0.074937 0.084907 255 220 0
0.458773 -0.025087 0.066583 255 220 0
0.462366 -0.034338 0.038752 255 220 0
0.509403 -0.006965 0.018739 255 220 0
0.523958 0.104728 0.088413 255 220 0
0.506453 0.052931 0.020707 255 220 0
0.516805 0.051985 0.022062 255 220 0
0.511796 -0.026118 0.062485 255 220 0
0.472402 -0.041659 0.031762 255 220 0
0.497538 0.089093 0.040940 255 220 0
0.521947 0.029305 0.020691 255 220 0
0.495596 0.045823 0.019798 255 220 0
0.493980 -0.016540 0.078502 255 220 0
0.520606 0.048250 0.022399 255 220 0
0.511026 0.110399 0.085902 255 220 0
0.546998 0.060212 0.060330 255 220 0
0.503682 0.044868 0.018805 255 220 0
0.538443 0.041161 0.033652 255 220 0
0.531320 0.012942 0.072476 255 220 0
0.499088 -0.040282 0.062807 255 220 0
0.461901 0.053769 0.055004 255 220 0
0.526559 0.022455 0.083345 255 220 0
0.471423 0.012742 0.087769 255 220 0
0.509723 0.072842 0.105107 255 220 0
0.512052 0.052507 0.021172 255 220 0
0.459762 0.032649 0.081707 255 220 0
0.547083 0.060547 0.064518 255 220 0
0.459228 -0.011396 0.044208 255 220 0
0.518371 0.001034 0.076447 255 220 0
0.504221 -0.003543 0.081178 255 220 0
0.527926 0.043263 0.092267 255 220 0
0.545412 0.044357 0.069041 255 220 0
0.533634 0.073269 0.040082 255 220 0
0.466317 0.071248 0.084181 255 220 0
0.517871 0.012508 0.019000 255 220 0
0.497486 0.078566 0.032584 255 220 0
0.522963 0.064661 0.028575 255 220 0
0.486525 -0.034164 0.024085 255 220 0
0.522067 0.105594 0.058096 255 220 0
0.537995 0.003052 0.041317 255 220 0
0.531521 0.101372 0.061612 255 220 0
0.472467 0.058984 0.038875 255 220 0
0.526469 -0.003626 0.066005 255 220 0
0.510376 0.050873 0.020519 255 220 0
0.465210 0.020694 0.037480 255 220 0
0.518723 0.060686 0.025340 255 220 0
0.536500 0.031172 0.030401 255 220 0
0.533330 0.087227 0.048939 255 220 0
0.547596 0.051442 0.059491 255 220 0
0.494725 0.072084 0.029697 255 220 0
0.540118 0.079097 0.087285 255 220 0
0.526158 0.043136 0.093239 255 220 0
0.512297 0.078649 0.031926 255 220 0
0.485137 0.009007 0.089589 255 220 0
0.472657 0.084321 0.082736 255 220 0
0.470915 0.036766 0.093970 255 220 0
0.475237 0.079458 0.050232 255 220 0
0.483670 0.033763 0.021855 255 220 0
0.495974 0.012197 0.015838 255 220 0
0.456584 -0.018427 0.054160 255 220 0
0.461042 0.049973 0.054854 255 220 0
0.494750 0.007254 0.015975 255 220 0
0.514911 0.019342 0.088148 255 220 0
0.474116 -0.013109 0.025407 255 220 0
0.534274 0.057320 0.092377 255 220 0
0.479116 0.037634 0.025408 255 220 0
0.537820 0.097020 0.073872 255 220 0
0.516257 -0.026277 0.056772 255 220 0
0.539705 0.052695 0.084370 255 220 0
0.459312 0.039315 0.054017 255 220 0
0.503088 -0.046051 0.036076 255 220 0
0.529416 0.010207 0.072933 255 220 0
0.495611 0.066860 0.027046 255 220 0
0.499532 0.069526 0.105551 255 220 0
0.518185 -0.028603 0.046674 255 220 0
0.516617 0.103543 0.053426 255 220 0
0.496268 -0.049768 0.057884 255 220 0
0.465939 0.063424 0.052224 255 220 0
0.514008 0.058721 0.103186 255 220 0
0.464360 0.017350 0.038239 255 220 0
0.457002 0.004672 0.054821 255 220 0
0.469778 -0.029096 0.030209 255 220 0
0.476285 -0.061780 0.061541 255 220 0
0.456232 -0.035155 0.054417 255 220 0
0.457678 0.031418 0.056088 255 220 0
0.457346 -0.013585 0.062900 255 220 0
0.489199 0.079907 0.037675 255 220 0
0.499065 0.048538 0.102980 255 220 0
0.465677 0.058374 0.049132 255 220 0
0.517910 -0.026271 0.031204 255 220 0
0.546361 0.047529 0.067464 255 220 0
0.500224 -0.042766 0.028899 255 220 0
0.498444 0.099490 0.095404 255 220 0
0.480133 0.071959 0.038454 255 220 0
0.510108 0.060381 0.023352 255 220 0
0.470158 -0.000054 0.028651 255 220 0
0.535598 0.019601 0.029148 255 220 0
0.527995 0.098269 0.090859 255 220 0
0.512769 0.081809 0.033908 255 220 0
0.502187 0.001133 0.016068 255 220 0
0.475781 -0.061956 0.061272 255 220 0
0.485816 0.030635 0.097293 255 220 0
0.484940 0.030097 0.097022 255 220 0
0.534151 0.044619 0.087640 255 220 0
0.456801 0.005249 0.056953 255 220 0
0.504642 0.038365 0.099430 255 220 0
0.461013 0.049194 0.054466 255 220 0
0.537382 0.033783 0.077987 255 220 0
0.501809 0.023444 0.094248 255 220 0
0.463035 0.032499 0.043680 255 220 0
0.499940 0.061328 0.105232 255 220 0
0.531152 0.081407 0.042844 255 220 0
0.520166 0.068539 0.029100 255 220 0
0.527144 0.040739 0.024134 255 220 0
0.470373 0.065175 0.093931 255 220 0
0.480504 0.095150 0.083509 255 220 0
0.529904 0.087562 0.046028 255 220 0
0.536543 0.001835 0.036414 255 220 0
0.486018 0.033316 0.098138 255 220 0
0.538886 0.074831 0.047324 255 220 0
0.528797 -0.002542 0.063640 255 220 0
0.473656 0.081005 0.055411 255 220 0
0.475565 0.087014 0.086259 255 220 0
0.518576 -0.027792 0.035101 255 220 0
0.500130 -0.049168 0.050224 255 220 0
0.515143 0.011290 0.084058 255 220 0
0.476513 0.015216 0.090509 255 220 0
0.466975 -0.031653 0.033073 255 220 0
0.495828 0.104368 0.060171 255 220 0
0.489511 0.046540 0.102054 255 220 0
0.516315 0.051098 0.100492 255 220 0
0.468885 0.063695 0.092661 255 220 0
0.474952 0.086064 0.062240 255 220 0
0.527507 0.055339 0.096892 255 220 0
0.498454 0.052192 0.103795 255 220 0
0.492660 0.064813 0.026999 255 220 0
0.546076 0.071164 0.067257 255 220 0
0.470917 -0.054524 0.070276 255 220 0
0.508593 0.006604 0.084664 255 220 0
0.479260 0.012672 0.022064 255 220 0
0.519013 -0.006867 0.070891 255 220 0
0.481415 0.089260 0.053917 255 220 0
0.503679 0.025781 0.016400 255 220 0
0.526780 -0.011094 0.057890 255 220 0
0.466180 -0.056967 0.066683 255 220 0
0.503649 0.023319 0.016187 255 220 0
0.539459 0.076153 0.088830 255 220 0
0.506250 0.111080 0.082829 255 220 0
0.485770 -0.045141 0.029150 255 220 0
0.489498 -0.021940 0.020173 255 220 0
0.508544 -0.018374 0.070325 255 220 0
0.476146 -0.061159 0.045623 255 220 0
0.503869 -0.023636 0.021555 255 220 0
0.539196 0.063632 0.088415 255 220 0
0.483430 0.022882 0.094481 255 220 0
0.459776 -0.032927 0.068394 255 220 0
0.474686 0.053470 0.033999 255 220 0
0.494286 -0.053622 0.037810 255 220 0
0.528669 -0.004481 0.061928 255 220 0
0.500224 0.051915 0.103701 255 220 0
0.543901 0.033389 0.065910 255 220 0
0.471382 -0.028188 0.076708 255 220 0
0.539671 0.071504 0.088797 255 220 0
0.476344 -0.007510 0.082515 255 220 0
0.471111 0.079261 0.059301 255 220 0
0.472517 0.060946 0.096483 255 220 0
0.545091 0.075528 0.064598 255 220 0
0.498472 0.001161 0.085334 255 220 0
0.463674 0.066696 0.063613 255 220 0
0.524716 0.083039 0.100004 255 220 0
0.462340 0.014065 0.041221 255 220 0
0.496581 0.007628 0.088521 255 220 0
0.510887 -0.035312 0.052997 255 220 0
0.508966 0.098299 0.098125 255 220 0
0.502428 0.070953 0.105590 255 220 0
0.490730 -0.043042 0.067561 255 220 0
0.504205 0.084560 0.103730 255 220 0
0.459200 -0.010059 0.044421 255 220 0
0.500471 0.061336 0.105232 255 220 0
0.483612 0.042366 0.100063 255 220 0
0.545501 0.047808 0.070486 255 220 0
0.460612 0.014768 0.044850 255 220 0
0.510962 -0.012882 0.072220 255 220 0
0.478927 0.078836 0.096786 255 220 0
0.480875 0.053530 0.100986 255 220 0
0.517173 -0.004889 0.020950 255 220 0
0.474403 0.040036 0.096429 255 220 0
0.544639 0.073659 0.060187 255 220 0
0.462452 0.026357 0.043346 255 220 0
0.507881 0.000170 0.017112 255 220 0
0.491895 -0.048188 0.063893 255 220 0
0.526513 -0.007115 0.062776 255 220 0
0.537058 0.059916 0.090158 255 220 0
0.542586 0.063484 0.046557 255 220 0
0.473893 0.018177 0.026538 255 220 0
0.473406 -0.006472 0.082042 255 220 0
0.467350 0.063816 0.090638 255 220 0
0.525928 -0.012577 0.057664 255 220 0
0.522391 0.033684 0.021130 255 220 0
0.526078 0.068752 0.032024 255 220 0
0.525890 0.109037 0.076377 255 220 0
0.461838 0.046673 0.051051 255 220 0
0.546087 0.048356 0.048669 255 220 0
0.546339 0.065433 0.071768 255 220 0
0.502656 -0.034301 0.064071 255 220 0
0.543841 0.021522 0.049932 255 220 0
0.472766 -0.029687 0.076697 255 220 0
0.488031 0.085884 0.043747 255 220 0
0.479328 0.043036 0.098984 255 220 0
0.523830 -0.014610 0.058979 255 220 0
0.542485 0.037655 0.071989 255 220 0
0.458962 -0.034917 0.067169 255 220 0
0.487296 -0.052528 0.033850 255 220 0
0.460534 0.058463 0.065671 255 220 0
0.494074 0.085030 0.102185 255 220 0
0.471627 -0.018998 0.027643 255 220 0
0.502829 -0.005089 0.080938 255 220 0
0.473638 0.087312 0.075414 255 220 0
0.483455 0.081117 0.042940 255 220 0
0.485745 0.077034 0.101497 255 220 0
0.464206 -0.047480 0.040808 255 220 0
0.503973 0.066813 0.025790 255 220 0
0.491604 0.036278 0.018972 255 220 0
0.547522 0.049543 0.056393 255 220 0
0.506243 0.059922 0.022960 255 220 0
0.501801 -0.040740 0.059823 255 220 0
0.527470 0.097444 0.052457 255 220 0
0.525395 0.031698 0.022369 255 220 0
0.463566 0.068636 0.072975 255 220 0
0.472416 0.074633 0.092393 255 220 0
0.484233 0.080300 0.041597 255 220 0
0.501598 0.055910 0.104433 255 220 0
0.516921 0.112809 0.074203 255 220 0
0.480142 -0.045270 0.072267 255 220 0
0.461024 0.016634 0.044316 255 220 0
0.497280 0.099252 0.051606 255 220 0
0.526007 0.096001 0.050080 255 220 0
0.506184 0.111018 0.064973 255 220 0
0.528449 0.044294 0.025432 255 220 0
0.536606 0.004132 0.034448 255 220 0
0.508759 0.038593 0.018111 255 220 0
0.529541 0.059555 0.030270 255 220 0
0.529574 0.039595 0.025449 255 220 0
0.485364 0.098744 0.086488 255 220 0
0.476721 0.009262 0.023562 255 220 0
0.544005 0.059573 0.047356 255 220 0
0.497942 -0.016991 0.076924 255 220 0
0.471316 -0.009854 0.027451 255 220 0
0.508812 0.095225 0.099772 255 220 0
0.471157 0.024724 0.030182 255 220 0
0.463420 -0.025752 0.036348 255 220 0
0.529830 0.083918 0.043415 255 220 0
0.461253 0.061820 0.073517 255 220 0
0.540297 0.011609 0.052714 255 220 0
0.514895 0.062724 0.103687 255 220 0
0.512694 0.109628 0.087286 255 220 0
0.470254 0.001248 0.028630 255 220 0
0.492996 -0.027118 0.021176 255 220 0
0.538241 0.089223 0.085368 255 220 0
0.503639 -0.043438 0.032071 255 220 0
0.492623 0.006803 0.088596 255 220 0
0.528384 0.007205 0.024482 255 220 0
0.535768 0.009384 0.062149 255 220 0
0.465199 0.072403 0.075118 255 220 0
0.527703 0.035542 0.023884 255 220 0
0.478272 -0.013268 0.081100 255 220 0
0.470836 -0.058505 0.044002 255 220 0
0.460855 -0.024071 0.040228 255 220 0
0.492971 0.083382 0.038320 255 220 0
0.525200 0.098554 0.051956 255 220 0
0.518993 0.032589 0.019767 255 220 0
0.499700 0.039601 0.018062 255 220 0
0.481120 0.094700 0.065245 255 220 0
0.464846 0.069519 0.081360 255 220 0
0.541177 0.013374 0.051776 255 220 0
0.531610 -0.008521 0.048538 255 220 0
0.483934 0.010056 0.019379 255 220 0
0.538772 0.053657 0.086029 255 220 0
0.528730 0.032428 0.086830 255 220 0
0.504178 0.111771 0.078370 255 220 0
0.474234 -0.060659 0.045673 255 220 0
0.461695 -0.022402 0.071141 255 220 0
0.468946 0.078806 0.080368 255 220 0
0.493443 0.104405 0.063153 255 220 0
0.472356 0.065435 0.042554 255 220 0
0.537097 0.063591 0.090966 255 220 0
0.531125 0.104784 0.070082 255 220 0
0.509337 0.104730 0.093341 255 220 0
0.546959 0.056049 0.055442 255 220 0
0.458598 -0.048934 0.064277 255 220 0
0.464490 -0.001101 0.035527 255 220 0
0.521675 -0.009952 0.066274 255 220 0
0.538489 0.030849 0.032752 255 220 0
0.505187 0.111924 0.079063 255 220 0
0.467564 0.012208 0.085343 255 220 0
0.485167 -0.001822 0.085423 255 220 0
0.467253 -0.045987 0.037120 255 220 0
0.469280 0.042821 0.036587 255 220 0
0.458284 0.035727 0.055597 255 220 0
0.462858 -0.053962 0.066768 255 220 0
0.490493 0.094107 0.050342 255 220 0
0.471820 -0.000791 0.027055 255 220 0
0.506325 -0.040422 0.053635 255 220 0
0.541356 0.088938 0.065515 255 220 0
0.456437 -0.030939 0.052948 255 220 0
0.475092 0.046098 0.031000 255 220 0
0.532789 -0.004348 0.052734 255 220 0
0.540902 0.090547 0.066700 255 220 0
0.480545 -0.008965 0.082630 255 220 0
0.462004 -0.017893 0.038342 255 220 0
0.478270 -0.009367 0.082255 255 220 0
0.509661 -0.029647 0.026101 255 220 0
0.504892 -0.019270 0.072040 255 220 0
0.473865 0.086838 0.081183 255 220 0
0.468698 0.068791 0.050881 255 220 0
0.540109 0.008588 0.042007 255 220 0
0.481863 0.081648 0.044797 255 220 0
0.534425 0.075056 0.041945 255 220 0
0.459555 0.038959 0.053257 255 220 0
0.485352 0.101209 0.076606 255 220 0
0.513160 0.076379 0.104416 255 220 0
0.533050 -0.007090 0.044692 255 220 0
0.456116 0.027723 0.065621 255 220 0
0.545040 0.041842 0.068716 255 220 0
0.536446 0.057573 0.035305 255 220 0
0.457548 -0.025721 0.048061 255 220 0
0.471062 0.059327 0.040827 255 220 0
0.509094 -0.023088 0.023122 255 220 0
0.504009 0.061272 0.105107 255 220 0
0.523386 0.086563 0.099606 255 220 0
0.510654 0.065134 0.025254 255 220 0
0.496532 0.029600 0.017144 255 220 0
0.521661 0.062532 0.101538 255 220 0
0.517625 0.108669 0.060361 255 220 0
0.522733 -0.023138 0.043644 255 220 0
0.497516 0.108760 0.079471 255 220 0
0.525650 0.083152 0.099513 255 220 0
0.544113 0.045194 0.043251 255 220 0
0.500961 0.071818 0.028263 255 220 0
0.456371 0.018693 0.063601 255 220 0
0.483826 0.096224 0.062179 255 220 0
0.472632 0.015372 0.027411 255 220 0
0.542199 0.039335 0.039288 255 220 0
0.492428 -0.048932 0.031343 255 220 0
0.543417 0.063629 0.048423 255 220 0
0.486555 -0.044970 0.069314 255 220 0
0.456758 -0.015018 0.059744 255 220 0
0.457774 -0.013195 0.048217 255 220 0
0.506606 -0.035508 0.059394 255 220 0
0.527322 0.108070 0.076336 255 220 0
0.514985 0.026401 0.018168 255 220 0
0.529784 0.106244 0.073919 255 220 0
0.531099 0.101291 0.084665 255 220 0
0.466896 0.061581 0.048793 255 220 0
0.498460 0.073998 0.029714 255 220 0
0.465031 0.054387 0.089286 255 220 0
0.493342 0.053230 0.103802 255 220 0
0.497841 0.103798 0.057451 255 220 0
0.543896 0.024828 0.056757 255 220 0
0.462428 0.016110 0.081858 255 220 0
0.543674 0.073992 0.056922 255 220 0
0.509951 0.112224 0.066638 255 220 0
0.459951 0.048252 0.080498 255 220 0
0.544994 0.072567 0.060731 255 220 0
0.539469 0.073045 0.047068 255 220 0
0.507238 0.030259 0.017037 255 220 0
0.516688 -0.027731 0.053630 255 220 0
0.534139 0.062360 0.035036 255 220 0
0.491630 -0.042463 0.067238 255 220 0
0.527757 0.065068 0.099047 255 220 0
0.508115 -0.006558 0.018301 255 220 0
0.531334 -0.004778 0.031113 255 220 0
0.474719 -0.038260 0.029329 255 220 0
0.519674 0.009010 0.019909 255 220 0
0.461827 0.009516 0.078588 255 220 0
0.506566 -0.029321 0.064511 255 220 0
0.468881 -0.037298 0.074517 255 220 0
0.468217 0.072178 0.087748 255 220 0
0.537304 0.080496 0.048846 255 220 0
0.540676 0.014093 0.054882 255 220 0
0.539473 0.070961 0.045745 255 220 0
0.533797 0.076348 0.042106 255 220 0
0.533782 0.029109 0.079883 255 220 0
0.485581 -0.016597 0.020103 255 220 0
0.537573 0.050411 0.086291 255 220 0
0.472667 -0.003961 0.026273 255 220 0
0.520230 0.078254 0.102593 255 220 0
0.490986 0.005930 0.088339 255 220 0
0.464069 0.034698 0.088162 255 220 0
0.517318 0.008392 0.081406 255 220 0
0.482988 0.077350 0.100020 255 220 0
0.525795 -0.005828 0.025815 255 220 0
0.509487 0.068556 0.026586 255 220 0
0.519976 0.099407 0.095027 255 220 0
0.471216 -0.018987 0.078269 255 220 0
0.502614 -0.024378 0.070445 255 220 0
0.461834 -0.045570 0.069585 255 220 0
0.506534 0.092830 0.041659 255 220 0
0.482285 0.096315 0.066286 255 220 0
0.517277 0.108958 0.060699 255 220 0
0.537772 0.096568 0.076651 255 220 0
0.500344 -0.023229 0.072501 255 220 0
0.477111 0.055319 0.032414 255 220 0
0.496668 0.032977 0.017500 255 220 0
0.477057 0.006816 0.023220 255 220 0
0.542575 0.027747 0.064337 255 220 0
0.491355 -0.006678 0.017327 255 220 0
0.489673 0.003728 0.017119 255 220 0
0.536577 0.024454 0.073093 255 220 0
0.457415 0.028637 0.056298 255 220 0
0.518776 -0.027562 0.035184 255 220 0
0.540453 0.050047 0.082142 255 220 0
0.504465 0.089876 0.102087 255 220 0
0.504432 0.014552 0.089894 255 220 0
0.494237 -0.035985 0.069006 255 220 0
0.539241 0.080414 0.088222 255 220 0
0.486656 0.036329 0.020789 255 220 0
0.526420 -0.004025 0.065726 255 220 0
0.467684 0.067252 0.089835 255 220 0
0.505799 0.037998 0.099088 255 220 0
0.483206 0.082698 0.044573 255 220 0
0.461183 0.061161 0.067121 255 220 0
0.469700 0.068613 0.048786 255 220 0
0.532469 -0.008120 0.044747 255 220 0
0.544805 0.056262 0.047604 255 220 0
0.529092 -0.014059 0.042055 255 220 0
0.530900 0.083241 0.096175 255 220 0
0.500099 0.064116 0.105463 255 220 0
0.545899 0.052349 0.071126 255 220 0
0.532072 0.102732 0.065553 255 220 0
0.525088 0.017326 0.021968 255 220 0
0.524098 -0.015209 0.029118 255 220 0
0.519604 -0.021137 0.057919 255 220 0
0.456828 0.034760 0.072792 255 220 0
0.514528 0.085893 0.037021 255 220 0
0.499006 0.001877 0.085542 255 220 0
0.473838 0.076832 0.049507 255 220 0
0.480718 -0.004947 0.020997 255 220 0
0.527136 0.056732 0.027729 255 220 0
0.513946 0.039308 0.019034 255 220 0
0.510913 0.106084 0.055786 255 220 0
0.543340 0.074240 0.082539 255 220 0
0.492519 0.008273 0.089208 255 220 0
0.542988 0.086444 0.071712 255 220 0
0.485885 0.080042 0.040109 255 220 0
0.501902 0.061757 0.023859 255 220 0
0.543455 0.047398 0.075411 255 220 0
0.535685 0.042221 0.084797 255 220 0
0.471167 0.053791 0.038143 255 220 0
0.496800 0.088363 0.040646 255 220 0
0.463381 0.058871 0.054808 255 220 0
0.537443 0.097147 0.068162 255 220 0
0.513161 0.039459 0.018895 255 220 0
0.490452 0.019856 0.017516 255 220 0
0.464981 0.014983 0.084199 255 220 0
0.537490 0.053694 0.035076 255 220 0
0.519231 -0.020705 0.059055 255 220 0
0.471327 0.082584 0.067337 255 220 0
0.473970 -0.045444 0.032580 255 220 0
0.456445 -0.020912 0.055702 255 220 0
0.518377 -0.027234 0.050075 255 220 0
0.474888 0.088932 0.072641 255 220 0
0.533477 0.007104 0.064477 255 220 0
0.519128 0.062993 0.102532 255 220 0
0.494566 0.020686 0.016603 255 220 0
0.544535 0.028327 0.058657 255 220 0
0.497799 -0.052129 0.046277 255 220 0
0.507189 0.059322 0.022758 255 220 0
0.511500 0.029903 0.017610 255 220 0
0.536743 0.059839 0.090499 255 220 0
0.493760 0.018554 0.016581 255 220 0
0.473671 -0.061630 0.062471 255 220 0
0.490683 -0.021370 0.077368 255 220 0
0.528731 0.000734 0.025968 255 220 0
0.497514 0.100154 0.052576 255 220 0
0.461812 0.034574 0.085317 255 220 0
0.518832 0.096146 0.097336 255 220 0
0.503630 0.106238 0.090241 255 220 0
0.491640 -0.022244 0.076742 255 220 0
0.503389 0.039689 0.017940 255 220 0
0.528313 0.025790 0.083717 255 220 0
0.500050 0.020044 0.015929 255 220 0
0.529669 -0.009966 0.052427 255 220 0
0.533699 0.102335 0.071488 255 220 0
0.524735 0.108030 0.064727 255 220 0
0.528941 0.106889 0.075550 255 220 0
0.506629 0.109967 0.085625 255 220 0
0.508667 -0.031280 0.061085 255 220 0
0.525453 0.095991 0.094156 255 220 0
0.498038 0.004023 0.015750 255 220 0
0.472424 0.003251 0.084967 255 220 0
0.475573 -0.038998 0.074771 255 220 0
0.459399 0.031646 0.051228 255 220 0
0.537351 0.013978 0.031746 255 220 0
0.524596 0.105391 0.059649 255 220 0
0.467142 0.070111 0.056102 255 220 0
0.534281 0.004353 0.060252 255 220 0
0.457572 0.044612 0.064457 255 220 0
0.474755 0.087255 0.083639 255 220 0
0.531780 0.069805 0.036559 255 220 0
0.508475 0.100815 0.096502 255 220 0
0.507279 -0.019122 0.021196 255 220 0
0.456741 0.014514 0.058145 255 220 0
0.533854 0.099278 0.082731 255 220 0
0.493407 0.091614 0.045643 255 220 0
0.524139 -0.008283 0.025539 255 220 0
0.503111 0.045941 0.019022 255 220 0
0.493635 0.000412 0.016350 255 220 0
0.466388 0.004649 0.033412 255 220 0
0.544092 0.023730 0.046749 255 220 0
0.528113 0.107155 0.078329 255 220 0
0.473881 0.078407 0.091866 255 220 0
0.513355 -0.026837 0.060195 255 220 0
0.499052 0.098795 0.050071 255 220 0
0.544986 0.048559 0.045620 255 220 0
0.513312 -0.034302 0.034580 255 220 0
0.523744 0.034717 0.091015 255 220 0
0.481454 0.063118 0.032151 255 220 0
0.521326 0.045738 0.022174 255 220 0
0.481791 0.021748 0.021355 255 220 0
0.470562 -0.002384 0.028179 255 220 0
0.481205 0.096627 0.081303 255 220 0
0.481923 0.081520 0.044626 255 220 0
0.473119 0.028432 0.093296 255 220 0
0.490902 -0.052329 0.061880 255 220 0
0.544930 0.077098 0.075859 255 220 0
0.464049 0.046555 0.088664 255 220 0
0.541671 0.041986 0.076061 255 220 0
0.520990 0.054034 0.099577 255 220 0
0.518907 0.012108 0.019421 255 220 0
0.485668 0.101076 0.080572 255 220 0
0.512289 0.081135 0.033397 255 220 0
0.546298 0.068662 0.070853 255 220 0
0.498350 0.042359 0.018656 255 220 0
0.509451 -0.033714 0.057761 255 220 0
0.463540 -0.055760 0.065787 255 220 0
0.476408 0.056550 0.033556 255 220 0
0.544608 0.063088 0.051130 255 220 0
0.510490 0.112769 0.079169 255 220 0
0.471073 0.081398 0.083178 255 220 0
0.459921 -0.035335 0.068586 255 220 0
0.546112 0.069615 0.072431 255 220 0
0.466973 0.076122 0.074469 255 220 0
0.460669 0.029684 0.047798 255 220 0
0.458527 0.043007 0.058265 255 220 0
0.544454 0.060574 0.049026 255 220 0
0.511450 0.113138 0.070252 255 220 0
0.513440 0.080846 0.033470 255 220 0
0.512061 0.112810 0.068513 255 220 0
0.528993 0.105974 0.079959 255 220 0
0.456565 -0.039542 0.061239 255 220 0
0.498756 0.097474 0.048711 255 220 0
0.545415 0.072108 0.062526 255 220 0
0.481554 0.094814 0.064318 255 220 0
0.494528 0.102923 0.058984 255 220 0
0.506510 0.001653 0.082971 255 220 0
0.493605 -0.043408 0.065317 255 220 0
0.476307 -0.047197 0.072735 255 220 0
0.473840 0.021386 0.026957 255 220 0
0.476125 0.039830 0.028296 255 220 0
0.486013 0.074128 0.102219 255 220 0
0.540206 0.042378 0.078733 255 220 0
0.467088 -0.033960 0.033398 255 220 0
0.465093 -0.053828 0.043810 255 220 0
0.463207 0.052404 0.050879 255 220 0
0.458514 0.019515 0.051011 255 220 0
0.458929 0.043541 0.078954 255 220 0
0.490736 0.073033 0.031747 255 220 0
0.510072 0.097093 0.098763 255 220 0
0.509761 0.043802 0.019001 255 220 0
0.474524 -0.026191 0.077623 255 220 0
0.481058 0.085796 0.049829 255 220 0
0.520328 -0.021207 0.056540 255 220 0
0.528967 0.101502 0.058425 255 220 0
0.504113 0.106950 0.058487 255 220 0
0.457065 0.005150 0.063887 255 220 0
0.526929 0.018811 0.022900 255 220 0
0.547317 0.056292 0.059107 255 220 0
0.525300 0.109494 0.075385 255 220 0
0.526389 0.018050 0.080977 255 220 0
0.473727 -0.021434 0.078476 255 220 0
0.457711 0.008725 0.068584 255 220 0
0.514432 0.068454 0.027316 255 220 0
0.506144 0.104195 0.053997 255 220 0
0.499970 -0.013325 0.077891 255 220 0
0.494485 -0.052321 0.035499 255 220 0
0.539292 0.015148 0.034522 255 220 0
0.463188 -0.046515 0.070386 255 220 0
0.515147 0.106236 0.056368 255 220 0
0.508682 -0.014659 0.072499 255 220 0
0.545484 0.072696 0.075545 255 220 0
0.473089 0.004264 0.026154 255 220 0
0.504385 0.045222 0.101647 255 220 0
0.458101 0.020315 0.052444 255 220 0
0.504826 0.024248 0.093955 255 220 0
0.510110 0.051740 0.020693 255 220 0
0.520537 -0.007440 0.069270 255 220 0
0.531691 0.085891 0.046347 255 220 0
0.478728 0.092002 0.065366 255 220 0
0.537618 0.097410 0.072489 255 220 0
0.457091 0.031889 0.058526 255 220 0
0.473973 0.052535 0.097601 255 220 0
0.537812 0.006958 0.035185 255 220 0
0.529402 0.071012 0.098622 255 220 0
0.532881 0.100957 0.082013 255 220 0
0.501071 -0.048435 0.049012 255 220 0
0.526917 0.000995 0.024620 255 220 0
0.532157 -0.008510 0.038329 255 220 0
0.546878 0.050700 0.052220 255 220 0
0.489947 0.002922 0.087172 255 220 0
0.513441 -0.035242 0.038697 255 220 0
0.478397 0.016035 0.091270 255 220 0
0.534213 -0.005063 0.040652 255 220 0
0.494671 0.030360 0.097588 255 220 0
0.533678 0.062992 0.034906 255 220 0
0.511638 0.008227 0.084132 255 220 0
0.508579 0.106704 0.056821 255 220 0
0.478520 0.084864 0.052029 255 220 0
0.511270 -0.022554 0.023845 255 220 0
0.536561 0.022030 0.071348 255 220 0
0.466557 0.058179 0.090843 255 220 0
0.457152 -0.035556 0.049715 255 220 0
0.503869 -0.042414 0.055194 255 220 0
0.529385 0.086195 0.096327 255 220 0
0.546705 0.059094 0.069286 255 220 0
0.472179 0.029373 0.093086 255 220 0
0.470572 0.061642 0.042723 255 220 0
0.488516 0.027534 0.018861 255 220 0
0.456909 0.003284 0.055384 255 220 0
0.545129 0.051424 0.073193 255 220 0
0.534332 0.094016 0.056013 255 220 0
0.489770 -0.048378 0.065507 255 220 0
0.467370 -0.010279 0.077979 255 220 0
0.489994 0.102387 0.085889 255 220 0
0.508085 0.020884 0.016455 255 220 0
0.542717 0.084244 0.063849 255 220 0
0.484349 -0.005386 0.019356 255 220 0
0.475761 0.090376 0.076412 255 220 0
0.495663 -0.023819 0.020279 255 220 0
0.510434 -0.015134 0.021075 255 220 0
0.517036 -0.020469 0.026125 255 220 0
0.494451 -0.034712 0.023826 255 220 0
0.469227 0.001666 0.029709 255 220 0
0.533785 0.028903 0.079756 255 220 0
0.466321 -0.022410 0.075308 255 220 0
0.514495 0.029347 0.092924 255 220 0
0.547315 0.052533 0.055614 255 220 0
0.478216 0.087978 0.057537 255 220 0
0.539801 0.040213 0.078179 255 220 0
0.516320 0.007926 0.018719 255 220 0
0.457849 -0.012874 0.064682 255 220 0
0.540940 0.045320 0.079096 255 220 0
0.541058 0.046959 0.037995 255 220 0
0.470379 0.041885 0.034868 255 220 0
0.460638 -0.056108 0.055344 255 220 0
0.539968 0.083221 0.055310 255 220 0
0.499429 -0.041675 0.061470 255 220 0
0.521621 0.092780 0.097863 255 220 0
0.527521 0.082665 0.040905 255 220 0
0.478352 -0.060087 0.063971 255 220 0
0.516940 -0.021073 0.026378 255 220 0
0.498598 -0.027045 0.071384 255 220 0
0.466276 0.063887 0.051837 255 220 0
0.524669 0.096755 0.094189 255 220 0
0.509252 -0.021150 0.068114 255 220 0
0.486682 0.072586 0.102742 255 220 0
0.493181 -0.020103 0.077192 255 220 0
0.519400 0.004679 0.078050 255 220 0
0.478253 0.056369 0.031830 255 220 0
0.466296 0.074412 0.077724 255 220 0
0.519068 0.018087 0.019312 255 220 0
0.502239 -0.020692 0.020288 255 220 0
0.478076 0.018583 0.092051 255 220 0
0.496190 0.074462 0.104883 255 220 0
0.520878 0.084845 0.038606 255 220 0
0.472962 0.073434 0.047536 255 220 0
0.542361 0.025739 0.062957 255 220 0
0.471622 0.071627 0.048035 255 220 0
0.541678 0.014366 0.051049 255 220 0
0.490737 0.105265 0.073970 255 220 0
0.469528 -0.061911 0.059175 255 220 0
0.475978 0.062218 0.098702 255 220 0
0.476604 0.091547 0.075902 255 220 0
0.474527 0.087560 0.082067 255 220 0
0.482942 0.022187 0.094185 255 220 0
0.512252 -0.023698 0.064031 255 220 0
0.487020 0.099360 0.062654 255 220 0
0.498109 -0.000643 0.084588 255 220 0
0.529070 0.035816 0.024727 255 220 0
0.492132 -0.036636 0.024555 255 220 0
0.546353 0.065869 0.061607 255 220 0
0.538960 0.087696 0.057270 255 220 0
0.509789 0.055216 0.021610 255 220 0
0.529382 0.050277 0.027249 255 220 0
0.504566 0.006604 0.086194 255 220 0
0.531482 0.055228 0.094194 255 220 0
0.545868 0.033540 0.051377 255 220 0
0.522052 -0.002722 0.071347 255 220 0
0.498966 0.075818 0.030559 255 220 0
0.547044 0.061139 0.064309 255 220 0
0.511703 0.066288 0.025866 255 220 0
0.505947 0.074167 0.029012 255 220 0
0.499971 -0.009713 0.017387 255 220 0
0.465712 0.028594 0.038201 255 220 0
0.521987 0.098574 0.094589 255 220 0
0.504809 0.050687 0.020086 255 220 0
0.503285 0.009431 0.087906 255 220 0
0.528777 0.069543 0.034137 255 220 0
0.496845 -0.036861 0.066776 255 220 0
0.524274 0.068286 0.101253 255 220 0
0.464296 0.069367 0.078823 255 220 0
0.458154 -0.010818 0.065776 255 220 0
0.502752 0.041170 0.100630 255 220 0
0.465584 -0.044760 0.038143 255 220 0
0.502012 -0.000597 0.016224 255 220 0
0.490300 0.076381 0.034205 255 220 0
0.537883 0.055798 0.087956 255 220 0
0.462824 -0.050358 0.068869 255 220 0
0.503895 -0.028490 0.067042 255 220 0
0.470550 -0.020947 0.077678 255 220 0
0.481239 0.078376 0.042478 255 220 0
0.460709 0.011532 0.044002 255 220 0
0.476317 -0.013578 0.080751 255 220 0
0.544658 0.063402 0.078624 255 220 0
0.504668 0.108805 0.086791 255 220 0
0.527620 0.095147 0.050416 255 220 0
0.541894 0.014281 0.049402 255 220 0
0.459446 -0.017518 0.068112 255 220 0
0.538421 0.024579 0.032345 255 220 0
0.535746 0.066287 0.092906 255 220 0
0.456476 -0.024907 0.058779 255 220 0
0.486887 0.100900 0.066921 255 220 0
0.500435 -0.031621 0.023416 255 220 0
0.482534 0.028566 0.096186 255 220 0
0.476677 -0.047926 0.072494 255 220 0
0.483575 0.021576 0.094052 255 220 0
0.458548 0.045057 0.059561 255 220 0
0.486424 -0.042123 0.027451 255 220 0
0.536519 0.001273 0.049755 255 220 0
0.456708 -0.003457 0.058673 255 220 0
0.486249 0.011823 0.090702 255 220 0
0.514695 0.039732 0.019257 255 220 0
0.517405 0.040556 0.096314 255 220 0
0.464863 0.048127 0.045457 255 220 0
0.458021 0.037061 0.077373 255 220 0
0.463114 0.020300 0.040945 255 220 0
0.534388 0.078304 0.043916 255 220 0
0.540338 0.009165 0.047156 255 220 0
0.506130 0.102884 0.052376 255 220 0
0.513574 -0.035053 0.043702 255 220 0
0.457210 0.037165 0.060366 255 220 0
0.509316 -0.029174 0.062272 255 220 0
0.461667 -0.055751 0.063274 255 220 0
0.478954 0.046270 0.099387 255 220 0
0.521540 0.074184 0.032474 255 220 0
0.512823 -0.036084 0.042590 255 220 0
0.462275 0.030715 0.044721 255 220 0
0.478568 0.085853 0.053355 255 220 0
0.490581 0.077516 0.034903 255 220 0
0.496887 -0.052914 0.043449 255 220 0
0.522992 0.053845 0.024736 255 220 0
0.533461 0.006374 0.028806 255 220 0
0.460825 -0.018441 0.040378 255 220 0
0.504584 0.041243 0.100400 255 220 0
0.484363 0.079112 0.040468 255 220 0
0.481360 0.042626 0.025034 255 220 0
0.515958 0.015358 0.085737 255 220 0
0.494452 0.104677 0.062353 255 220 0
0.519750 0.095402 0.046268 255 220 0
0.498563 0.101241 0.093816 255 220 0
0.501504 0.072341 0.028436 255 220 0
0.535775 0.054848 0.090061 255 220 0
0.495008 0.076371 0.032008 255 220 0
0.543752 0.026140 0.043737 255 220 0
0.493550 0.095692 0.049870 255 220 0
0.546006 0.052938 0.070960 255 220 0
0.494569 0.056054 0.022994 255 220 0
0.502859 -0.027998 0.068068 255 220 0
0.463341 0.011417 0.038957 255 220 0
0.488535 -0.059066 0.047575 255 220 0
0.474138 0.012238 0.088749 255 220 0
0.535006 0.070424 0.094076 255 220 0
0.541068 0.090934 0.068832 255 220 0
0.513624 0.035307 0.095808 255 220 0
0.539777 0.064996 0.042682 255 220 0
0.541154 0.022953 0.063258 255 220 0
0.460759 0.034918 0.083690 255 220 0
0.499112 0.050980 0.103535 255 220 0
0.465449 0.057383 0.048990 255 220 0
0.527834 0.105227 0.083777 255 220 0
0.484324 -0.055530 0.065145 255 220 0
0.496168 0.049940 0.020714 255 220 0
0.485833 0.101596 0.074640 255 220 0
0.482788 0.097786 0.069304 255 220 0
0.464481 -0.058972 0.061621 255 220 0
0.547459 0.045850 0.055811 255 220 0
0.503615 0.110829 0.081316 255 220 0
0.532192 -0.003500 0.031581 255 220 0
0.486547 0.092907 0.052463 255 220 0
0.475397 -0.010936 0.024407 255 220 0
0.499298 0.073321 0.105324 255 220 0
0.520269 0.024822 0.019865 255 220 0
0.515516 0.025905 0.018292 255 220 0
0.534339 0.052551 0.090747 255 220 0
0.521992 0.001196 0.074041 255 220 0
0.496418 -0.030847 0.070527 255 220 0
0.525774 0.025028 0.085290 255 220 0
0.529516 0.077280 0.098336 255 220 0
0.492589 0.106351 0.071951 255 220 0
0.547129 0.056933 0.066011 255 220 0
0.471972 0.019443 0.090199 255 220 0
0.494683 -0.009257 0.081474 255 220 0
0.457033 0.006130 0.063940 255 220 0
0.501832 -0.042906 0.057671 255 220 0
0.515614 0.002621 0.079011 255 220 0
0.487180 -0.031766 0.074329 255 220 0
0.509082 0.042019 0.018634 255 220 0
0.465197 0.038707 0.041560 255 220 0
0.513488 -0.003929 0.019369 255 220 0
0.545428 0.053848 0.048228 255 220 0
0.512886 -0.021532 0.024219 255 220 0
0.501091 -0.002794 0.016403 255 220 0
0.517996 0.101015 0.051082 255 220 0
0.485695 -0.041179 0.071262 255 220 0
0.465276 0.068859 0.060524 255 220 0
0.493873 -0.026258 0.020924 255 220 0
0.526092 0.067210 0.031314 255 220 0
0.463340 0.063188 0.082726 255 220 0
0.507593 -0.006620 0.077841 255 220 0
0.468572 -0.061048 0.061486 255 220 0
0.483029 -0.010610 0.082181 255 220 0
0.521994 0.088384 0.099560 255 220 0
0.504240 0.089999 0.102027 255 220 0
0.511178 -0.004319 0.018713 255 220 0
0.515476 0.009457 0.018323 255 220 0
0.501752 0.090084 0.040168 255 220 0
