ply
format ascii 1.0
element vertex 1024
property float x
property float y
property float z
property uchar red
property uchar green
property uchar blue
end_header
0.385268 -0.030309 0.037637 255 220 0
0.469353 0.059049 0.029773 255 220 0
0.462701 0.027499 0.094817 255 220 0
0.458853 0.004891 0.051399 255 220 0
0.406779 0.072180 0.063343 255 220 0
0.447123 0.090173 0.102024 255 220 0
0.407591 0.060136 0.073861 255 220 0
0.418088 0.040490 0.090966 255 220 0
0.451267 0.041098 0.103015 255 220 0
0.431705 0.102530 0.086006 255 220 0
0.383024 -0.012133 0.060271 255 220 0
0.479835 0.112683 0.084802 255 220 0
0.454932 0.082699 0.024659 255 220 0
0.393158 0.033291 0.036296 255 220 0
0.429286 0.106471 0.077369 255 220 0
0.401034 -0.034353 0.049356 255 220 0
0.464277 0.040611 0.030344 255 220 0
0.417968 0.034733 0.090981 255 220 0
0.434132 0.005449 0.027222 255 220 0
0.427430 -0.020266 0.072591 255 220 0
0.462316 0.065807 0.103944 255 220 0
0.415677 0.031238 0.089179 255 220 0
0.386674 -0.029177 0.034649 255 220 0
0.429890 -0.000788 0.088413 255 220 0
0.459492 0.126347 0.067032 255 220 0
0.451823 0.120365 0.081939 255 220 0
0.462429 0.020123 0.090988 255 220 0
0.431088 0.078786 0.022425 255 220 0
0.377557 -0.021347 0.054235 255 220 0
0.468401 0.016063 0.058882 255 220 0
0.423058 0.007672 0.089960 255 220 0
0.396077 0.033403 0.063874 255 220 0
0.472192 0.123572 0.075952 255 220 0
0.417188 -0.027893 0.045903 255 220 0
0.489541 0.073913 0.074778 255 220 0
0.421272 -0.023390 0.070727 255 220 0
0.424551 0.006643 0.090128 255 220 0
0.433155 0.047662 0.099648 255 220 0
0.385929 0.020494 0.045003 255 220 0
0.420571 0.099189 0.068953 255 220 0
0.412410 0.066637 0.026462 255 220 0
0.481972 0.054160 0.045142 255 220 0
0.481807 0.116674 0.076122 255 220 0
0.431652 0.106669 0.039992 255 220 0
0.456881 0.124331 0.057662 255 220 0
0.484856 0.056631 0.050091 255 220 0
0.411318 0.065113 0.077994 255 220 0
0.405938 0.075731 0.049814 255 220 0
0.472278 0.057500 0.098381 255 220 0
0.403302 0.026953 0.076372 255 220 0
0.432756 0.069309 0.098964 255 220 0
0.423264 0.092268 0.032305 255 220 0
0.457041 0.010784 0.088955 255 220 0
0.403796 0.038515 0.025868 255 220 0
0.402667 -0.034331 0.052707 255 220 0
0.405708 0.017899 0.079777 255 220 0
0.474741 0.025748 0.069930 255 220 0
0.401734 -0.004829 0.023016 255 220 0
0.409336 0.081375 0.043320 255 220 0
0.391259 -0.023931 0.063002 255 220 0
0.425946 0.087613 0.027774 255 220 0
0.424235 0.089224 0.085539 255 220 0
0.478412 0.039361 0.082799 255 220 0
0.425913 0.106356 0.069615 255 220 0
0.458881 0.124012 0.078746 255 220 0
0.422764 -0.024319 0.044613 255 220 0
0.439237 -0.007340 0.083238 255 220 0
0.490053 0.080977 0.074876 255 220 0
0.426650 0.100634 0.037014 255 220 0
0.459050 0.124207 0.078383 255 220 0
0.401077 0.052552 0.063990 255 220 0
0.444565 0.114982 0.042458 255 220 0
0.486459 0.051451 0.066352 255 220 0
0.427344 -0.022802 0.047808 255 220 0
0.426762 0.066339 0.095492 255 220 0
0.437064 -0.012299 0.078224 255 220 0
0.486493 0.059682 0.052594 255 220 0
0.414451 0.091564 0.061952 255 220 0
0.440810 0.016562 0.096939 255 220 0
0.489678 0.096455 0.074549 255 220 0
0.418203 0.095596 0.068143 255 220 0
0.476217 0.122326 0.064886 255 220 0
0.457361 0.120136 0.048052 255 220 0
0.409910 0.013514 0.083755 255 220 0
0.410083 0.071819 0.072377 255 220 0
0.487692 0.102685 0.078749 255 220 0
0.455725 0.016198 0.035193 255 220 0
0.399780 0.057033 0.055033 255 220 0
0.469725 0.034029 0.037981 255 220 0
0.411826 0.018366 0.085657 255 220 0
0.481653 0.038971 0.060273 255 220 0
0.410560 0.085693 0.051591 255 220 0
0.429904 -0.000760 0.028080 255 220 0
0.424749 0.037186 0.095281 255 220 0
0.441190 0.118194 0.075287 255 220 0
0.468297 0.108440 0.041149 255 220 0
0.433911 0.010160 0.025423 255 220 0
0.406080 0.067931 0.034332 255 220 0
0.468851 0.044705 0.032617 255 220 0
0.397870 -0.026322 0.031782 255 220 0
0.476160 0.094557 0.039630 255 220 0
0.454240 0.099539 0.100721 255 220 0
0.407386 0.000980 0.080234 255 220 0
0.465334 0.037621 0.032163 255 220 0
0.429633 0.105576 0.040454 255 220 0
0.476921 0.114762 0.052469 255 220 0
0.409389 0.014028 0.083347 255 220 0
0.418885 -0.011451 0.028627 255 220 0
0.399253 -0.033961 0.045983 255 220 0
0.435581 0.116406 0.067529 255 220 0
0.453084 0.108617 0.095526 255 220 0
0.416882 0.096416 0.050952 255 220 0
0.434858 0.116034 0.066389 255 220 0
0.414865 0.087658 0.038313 255 220 0
0.394144 -0.030359 0.035642 255 220 0
0.386230 0.017107 0.035576 255 220 0
0.484070 0.051149 0.051805 255 220 0
0.442141 0.117555 0.047767 255 220 0
0.441071 0.108540 0.089913 255 220 0
0.464758 0.046208 0.029132 255 220 0
0.436209 0.003797 0.091473 255 220 0
0.414867 0.067079 0.024962 255 220 0
0.468294 0.103872 0.038480 255 220 0
0.449420 -0.004056 0.077904 255 220 0
0.444673 0.115071 0.042529 255 220 0
0.460773 0.009024 0.048447 255 220 0
0.388140 0.009142 0.028196 255 220 0
0.478025 0.098207 0.042872 255 220 0
0.459136 0.031108 0.098365 255 220 0
0.428853 0.053242 0.018644 255 220 0
0.439775 0.052950 0.102390 255 220 0
0.452699 0.120057 0.082945 255 220 0
0.435414 0.113044 0.045924 255 220 0
0.392745 -0.034428 0.050534 255 220 0
0.460175 0.055354 0.103946 255 220 0
0.471871 0.117229 0.087008 255 220 0
0.391264 0.013069 0.027471 255 220 0
0.430704 0.104731 0.082201 255 220 0
0.488231 0.105497 0.068241 255 220 0
0.438644 0.089593 0.098622 255 220 0
0.469500 0.036109 0.092851 255 220 0
0.398614 0.054264 0.053466 255 220 0
0.451086 0.046850 0.022583 255 220 0
0.409602 0.044076 0.081553 255 220 0
0.394344 -0.005871 0.069329 255 220 0
0.424868 0.105957 0.049688 255 220 0
0.418183 0.097964 0.062524 255 220 0
0.442776 0.058684 0.019727 255 220 0
0.390097 0.028181 0.051285 255 220 0
0.409686 0.069965 0.072716 255 220 0
0.424888 0.007969 0.023444 255 220 0
0.467811 0.019345 0.048887 255 220 0
0.400315 -0.007674 0.023465 255 220 0
0.436719 -0.015382 0.046682 255 220 0
0.434960 -0.018605 0.065780 255 220 0
0.458266 0.009126 0.085562 255 220 0
0.448574 0.096868 0.100483 255 220 0
0.440767 0.082098 0.022545 255 220 0
0.452304 0.012270 0.034737 255 220 0
0.416397 0.046306 0.089025 255 220 0
0.399486 -0.002318 0.073808 255 220 0
0.405461 -0.030200 0.062680 255 220 0
0.386856 0.019137 0.052235 255 220 0
0.456512 0.016167 0.035921 255 220 0
0.458980 0.121685 0.082952 255 220 0
0.382451 -0.030742 0.047989 255 220 0
0.379124 -0.001622 0.053227 255 220 0
0.467179 0.015017 0.073172 255 220 0
0.424788 -0.020403 0.040180 255 220 0
0.474103 0.034015 0.044142 255 220 0
0.475015 0.026868 0.058075 255 220 0
0.405683 -0.032920 0.058372 255 220 0
0.444674 -0.003841 0.084178 255 220 0
0.431191 0.090080 0.093132 255 220 0
0.448713 0.107051 0.034699 255 220 0
0.410199 0.077206 0.068461 255 220 0
0.423010 0.061209 0.093200 255 220 0
0.458545 0.041168 0.026671 255 220 0
0.450055 0.005903 0.037240 255 220 0
0.415465 -0.004228 0.082661 255 220 0
0.415065 0.083247 0.074596 255 220 0
0.475900 0.028528 0.057578 255 220 0
0.484866 0.075591 0.045417 255 220 0
0.413548 0.022106 0.020686 255 220 0
0.421266 0.095006 0.076546 255 220 0
0.417405 0.059941 0.087494 255 220 0
0.409657 -0.025228 0.068512 255 220 0
0.490830 0.077555 0.066030 255 220 0
0.455164 0.095015 0.102451 255 220 0
0.387964 0.009572 0.028517 255 220 0
0.404718 -0.014623 0.025885 255 220 0
0.448702 -0.007746 0.063039 255 220 0
0.465150 0.122195 0.082698 255 220 0
0.481642 0.041625 0.054237 255 220 0
0.482828 0.040976 0.064632 255 220 0
0.404702 0.002740 0.078541 255 220 0
0.408436 -0.025320 0.034541 255 220 0
0.485087 0.083232 0.046913 255 220 0
0.471911 0.021638 0.071674 255 220 0
0.475243 0.036119 0.044339 255 220 0
0.393339 0.021134 0.064461 255 220 0
0.481393 0.037926 0.068774 255 220 0
0.466934 0.126118 0.069019 255 220 0
0.466568 0.068278 0.102500 255 220 0
0.477607 0.034220 0.051960 255 220 0
0.473421 0.037731 0.089546 255 220 0
0.425292 0.038667 0.095629 255 220 0
0.392717 -0.007564 0.067940 255 220 0
0.444022 0.065679 0.020060 255 220 0
0.421319 0.053071 0.092792 255 220 0
0.397444 0.051629 0.041981 255 220 0
0.429840 0.107520 0.076710 255 220 0
0.482540 0.041185 0.059781 255 220 0
0.410652 0.064765 0.027082 255 220 0
0.463593 0.071029 0.103611 255 220 0
0.413210 0.007217 0.021780 255 220 0
0.411785 0.032355 0.085482 255 220 0
0.401688 0.032451 0.073581 255 220 0
0.427118 0.074957 0.094130 255 220 0
0.450171 0.060854 0.104905 255 220 0
0.486113 0.067609 0.083093 255 220 0
0.433228 0.096730 0.029843 255 220 0
0.462229 0.007446 0.069141 255 220 0
0.485255 0.069832 0.045874 255 220 0
0.486967 0.054590 0.070839 255 220 0
0.422489 -0.024827 0.045350 255 220 0
0.488282 0.105000 0.073071 255 220 0
0.445036 0.011774 0.095181 255 220 0
0.485651 0.103069 0.083508 255 220 0
0.462228 0.059562 0.025546 255 220 0
0.419181 0.021870 0.091109 255 220 0
0.481627 0.039600 0.058181 255 220 0
0.438823 0.028534 0.022352 255 220 0
0.485960 0.049768 0.066370 255 220 0
0.469504 0.027924 0.087929 255 220 0
0.487485 0.084080 0.083548 255 220 0
0.462210 0.060710 0.103808 255 220 0
0.482905 0.063107 0.043186 255 220 0
0.455267 0.099895 0.100709 255 220 0
0.425827 0.075552 0.092692 255 220 0
0.489778 0.068511 0.059932 255 220 0
0.397537 0.048793 0.056026 255 220 0
0.443720 0.105921 0.034156 255 220 0
0.406709 0.074602 0.040477 255 220 0
0.466350 0.082533 0.028888 255 220 0
0.463382 0.028480 0.034704 255 220 0
0.458585 0.006791 0.047325 255 220 0
0.400772 0.007675 0.022532 255 220 0
0.441673 0.062606 0.019606 255 220 0
0.455246 0.002994 0.046718 255 220 0
0.412699 0.054215 0.083157 255 220 0
0.430538 -0.006331 0.031488 255 220 0
0.437005 0.085861 0.098741 255 220 0
0.461727 0.034001 0.030814 255 220 0
0.475427 0.106443 0.093152 255 220 0
0.410163 -0.001083 0.081391 255 220 0
0.441850 0.077030 0.102421 255 220 0
0.435578 0.053683 0.018882 255 220 0
0.410790 -0.028343 0.065603 255 220 0
0.422824 0.036875 0.094211 255 220 0
0.482092 0.057286 0.043926 255 220 0
0.424818 0.105812 0.067387 255 220 0
0.417016 -0.009078 0.080925 255 220 0
0.489177 0.100948 0.066867 255 220 0
0.390136 -0.017902 0.065001 255 220 0
0.452906 0.071493 0.022191 255 220 0
0.424148 0.094772 0.081864 255 220 0
0.436049 0.026362 0.022089 255 220 0
0.413968 0.026552 0.020607 255 220 0
0.416307 -0.015998 0.030268 255 220 0
0.374922 -0.024010 0.048025 255 220 0
0.390642 -0.005556 0.024065 255 220 0
0.428914 0.048695 0.018691 255 220 0
0.397156 0.016698 0.024966 255 220 0
0.479938 0.074491 0.039061 255 220 0
0.414308 0.087495 0.068551 255 220 0
0.452224 0.065625 0.021697 255 220 0
0.430117 -0.016384 0.076471 255 220 0
0.453494 0.062395 0.105073 255 220 0
0.417430 -0.029782 0.060669 255 220 0
0.449894 0.123870 0.060524 255 220 0
0.472238 0.069194 0.031405 255 220 0
0.484987 0.048922 0.057618 255 220 0
0.434681 0.006326 0.027101 255 220 0
0.463412 0.017967 0.087993 255 220 0
0.460567 0.118201 0.087898 255 220 0
0.490252 0.072189 0.060548 255 220 0
0.453568 -0.002357 0.054550 255 220 0
0.374889 -0.024278 0.047491 255 220 0
0.404563 0.070659 0.056304 255 220 0
0.404219 0.070125 0.055452 255 220 0
0.433115 0.072875 0.098788 255 220 0
0.412626 0.028294 0.020895 255 220 0
0.412528 0.076857 0.074106 255 220 0
0.441504 0.061752 0.019563 255 220 0
0.434972 0.058237 0.100607 255 220 0
0.406945 0.062010 0.071675 255 220 0
0.440454 0.041826 0.020564 255 220 0
0.420348 0.099025 0.068584 255 220 0
0.488127 0.075940 0.080533 255 220 0
0.488097 0.058199 0.067866 255 220 0
0.477405 0.032497 0.076310 255 220 0
0.423305 0.097383 0.036878 255 220 0
0.451605 0.114530 0.040724 255 220 0
0.488984 0.082849 0.079479 255 220 0
0.447671 0.007983 0.092669 255 220 0
0.405550 0.073297 0.056424 255 220 0
0.482915 0.072811 0.089815 255 220 0
0.422248 0.021176 0.092627 255 220 0
0.462885 0.086958 0.028519 255 220 0
0.443397 0.109977 0.037556 255 220 0
0.426427 -0.015332 0.078267 255 220 0
0.397370 -0.022234 0.066698 255 220 0
0.411145 0.045315 0.083208 255 220 0
0.398175 0.054897 0.047303 255 220 0
0.411866 -0.016157 0.028579 255 220 0
0.478942 0.107017 0.048516 255 220 0
0.411277 0.085986 0.059350 255 220 0
0.422338 0.086907 0.084219 255 220 0
0.423003 0.095542 0.035284 255 220 0
0.460998 0.094983 0.030957 255 220 0
0.430581 0.087412 0.093601 255 220 0
0.415672 0.090949 0.067776 255 220 0
0.480133 0.055816 0.041300 255 220 0
0.467479 0.081234 0.102194 255 220 0
0.371087 -0.012644 0.044305 255 220 0
0.406170 0.042360 0.077574 255 220 0
0.449633 0.011997 0.032796 255 220 0
0.411548 0.022678 0.085537 255 220 0
0.470961 0.092163 0.034704 255 220 0
0.468214 0.017494 0.053406 255 220 0
0.421063 0.011041 0.090148 255 220 0
0.371120 -0.016417 0.039102 255 220 0
0.466920 0.015396 0.053589 255 220 0
0.452180 0.098498 0.100787 255 220 0
0.468399 0.125160 0.063573 255 220 0
0.411965 -0.030563 0.047099 255 220 0
0.433461 -0.017555 0.045892 255 220 0
0.402404 0.013825 0.076575 255 220 0
0.387394 -0.032964 0.043773 255 220 0
0.435263 -0.019061 0.060237 255 220 0
0.445061 0.088234 0.101781 255 220 0
0.401508 0.062935 0.054133 255 220 0
0.382239 0.004298 0.030788 255 220 0
0.463300 0.052096 0.027033 255 220 0
0.402653 -0.032788 0.058403 255 220 0
0.422379 0.018614 0.092278 255 220 0
0.416056 0.090552 0.069483 255 220 0
0.445702 0.050305 0.103840 255 220 0
0.381796 0.012255 0.043546 255 220 0
0.449527 0.094738 0.101484 255 220 0
0.390860 0.031944 0.047559 255 220 0
0.458209 0.088043 0.027252 255 220 0
0.419445 0.095366 0.040044 255 220 0
0.471810 0.083217 0.100099 255 220 0
0.399743 0.039079 0.068606 255 220 0
0.445533 0.081036 0.022559 255 220 0
0.443752 0.111650 0.088719 255 220 0
0.431300 0.025638 0.021261 255 220 0
0.400609 0.046282 0.066901 255 220 0
0.406288 -0.010206 0.076245 255 220 0
0.449939 0.123824 0.071457 255 220 0
0.426404 0.106784 0.070027 255 220 0
0.385225 -0.006388 0.061415 255 220 0
0.436304 0.116464 0.069792 255 220 0
0.413826 0.008417 0.021663 255 220 0
0.420495 0.098995 0.069093 255 220 0
0.408760 0.081855 0.053625 255 220 0
0.451122 0.064473 0.104986 255 220 0
0.428481 0.028474 0.020448 255 220 0
0.404837 0.019189 0.078788 255 220 0
0.431456 0.109452 0.044350 255 220 0
0.413888 0.091536 0.050023 255 220 0
0.450320 -0.005291 0.070845 255 220 0
0.407692 0.078449 0.044101 255 220 0
0.473955 0.079128 0.098745 255 220 0
0.436939 0.036745 0.020583 255 220 0
0.453732 -0.002892 0.060391 255 220 0
0.385308 -0.012771 0.062157 255 220 0
0.419604 0.017152 0.090706 255 220 0
0.440971 0.086436 0.100572 255 220 0
0.477817 0.063012 0.094401 255 220 0
0.448019 0.019430 0.028183 255 220 0
0.391043 0.032693 0.044503 255 220 0
0.424207 0.094540 0.033281 255 220 0
0.420135 0.009776 0.089432 255 220 0
0.474272 0.025379 0.071739 255 220 0
0.487577 0.059709 0.074268 255 220 0
0.477386 0.118366 0.081027 255 220 0
0.442847 0.057646 0.019759 255 220 0
0.468246 0.051907 0.099936 255 220 0
0.460737 0.079304 0.104214 255 220 0
0.396227 -0.002260 0.071044 255 220 0
0.450896 0.031303 0.100997 255 220 0
0.381294 0.010954 0.045035 255 220 0
0.478509 0.082968 0.038838 255 220 0
0.408828 0.082040 0.049161 255 220 0
0.417373 0.009070 0.087970 255 220 0
0.443194 0.057432 0.103566 255 220 0
0.381785 0.002029 0.029909 255 220 0
0.404443 -0.033794 0.050559 255 220 0
0.438278 0.075872 0.020954 255 220 0
0.435043 0.116605 0.059611 255 220 0
0.424700 -0.009555 0.030301 255 220 0
0.400589 0.031163 0.072349 255 220 0
0.451330 0.103901 0.032912 255 220 0
0.475093 0.078976 0.034751 255 220 0
0.428630 0.110349 0.052295 255 220 0
0.395912 -0.024058 0.029595 255 220 0
0.485265 0.055939 0.051648 255 220 0
0.469188 0.028248 0.041323 255 220 0
0.463436 0.057352 0.103154 255 220 0
0.483980 0.048582 0.053853 255 220 0
0.395451 -0.009888 0.069837 255 220 0
0.489239 0.094753 0.077709 255 220 0
0.472964 0.024321 0.075156 255 220 0
0.439503 0.088161 0.024629 255 220 0
0.430590 0.103912 0.037428 255 220 0
0.475846 0.077470 0.035245 255 220 0
0.418216 0.094096 0.070559 255 220 0
0.478858 0.120701 0.071447 255 220 0
0.377485 -0.004665 0.052679 255 220 0
0.430097 0.029625 0.020507 255 220 0
0.482856 0.097729 0.048284 255 220 0
0.489812 0.092283 0.075853 255 220 0
0.481967 0.114503 0.058972 255 220 0
0.478855 0.036030 0.077511 255 220 0
0.450539 0.008651 0.091982 255 220 0
0.475807 0.028437 0.057341 255 220 0
0.484434 0.051063 0.078143 255 220 0
0.476380 0.032199 0.079104 255 220 0
0.452750 0.118854 0.045765 255 220 0
0.445804 0.010326 0.031105 255 220 0
0.475288 0.060257 0.096391 255 220 0
0.395340 0.019568 0.067916 255 220 0
0.430142 -0.002320 0.028965 255 220 0
0.446833 0.122349 0.072060 255 220 0
0.448356 0.027027 0.025774 255 220 0
0.411885 -0.009242 0.025358 255 220 0
0.488814 0.078381 0.079136 255 220 0
0.434460 0.083177 0.023280 255 220 0
0.441992 0.025251 0.099370 255 220 0
0.426359 0.098219 0.082413 255 220 0
0.465872 0.126211 0.071057 255 220 0
0.435489 0.007351 0.027046 255 220 0
0.430588 -0.021345 0.050067 255 220 0
0.462183 0.106997 0.097324 255 220 0
0.415529 -0.028666 0.064831 255 220 0
0.399005 0.045932 0.063205 255 220 0
0.457746 0.005745 0.081212 255 220 0
0.432270 0.029379 0.097659 255 220 0
0.440522 0.092344 0.026336 255 220 0
0.474687 0.028146 0.077345 255 220 0
0.389069 0.026358 0.049674 255 220 0
0.388768 -0.031442 0.037970 255 220 0
0.409226 -0.005415 0.023700 255 220 0
0.482502 0.077405 0.042475 255 220 0
0.489666 0.095498 0.075280 255 220 0
0.473756 0.023920 0.068246 255 220 0
0.474008 0.029825 0.048513 255 220 0
0.465440 0.103275 0.036717 255 220 0
0.433969 0.093766 0.027898 255 220 0
0.443982 0.026048 0.099787 255 220 0
0.431007 0.007220 0.092133 255 220 0
0.451397 0.007991 0.036888 255 220 0
0.440900 0.078850 0.101843 255 220 0
0.425109 0.062988 0.094689 255 220 0
0.471651 0.123203 0.060373 255 220 0
0.387138 -0.032404 0.041894 255 220 0
0.386849 0.014236 0.032194 255 220 0
0.441288 0.100344 0.030583 255 220 0
0.476049 0.108979 0.046978 255 220 0
0.463187 0.066926 0.025679 255 220 0
0.442528 0.089859 0.100417 255 220 0
0.481091 0.110864 0.084914 255 220 0
0.457471 0.126110 0.069902 255 220 0
0.467838 0.062039 0.101668 255 220 0
0.375649 -0.010898 0.030336 255 220 0
0.427299 0.009955 0.023516 255 220 0
0.413970 0.017283 0.087254 255 220 0
0.468054 0.028928 0.090475 255 220 0
0.471483 0.123669 0.061502 255 220 0
0.397946 0.050019 0.037713 255 220 0
0.394353 0.037636 0.056164 255 220 0
0.400421 -0.025258 0.031424 255 220 0
0.453612 0.045463 0.023646 255 220 0
0.431986 0.051816 0.018683 255 220 0
0.371933 -0.013735 0.035607 255 220 0
0.478975 0.093312 0.041995 255 220 0
0.435910 0.004675 0.028370 255 220 0
0.401572 -0.013615 0.072575 255 220 0
0.477997 0.094761 0.095295 255 220 0
0.394297 -0.003064 0.023433 255 220 0
0.461360 0.044378 0.027456 255 220 0
0.430577 0.012979 0.093883 255 220 0
0.477918 0.096786 0.094987 255 220 0
0.391043 0.030563 0.051783 255 220 0
0.414607 -0.001662 0.023656 255 220 0
0.390482 0.030171 0.049544 255 220 0
0.429812 -0.021567 0.067609 255 220 0
0.399589 0.014372 0.073599 255 220 0
0.446710 0.106934 0.034649 255 220 0
0.457827 0.074810 0.023921 255 220 0
0.448333 0.016479 0.096790 255 220 0
0.473562 0.080612 0.033635 255 220 0
0.485955 0.070095 0.084134 255 220 0
0.436015 0.052929 0.018960 255 220 0
0.461736 0.114958 0.042972 255 220 0
0.433370 0.109712 0.079455 255 220 0
0.435169 0.005985 0.092383 255 220 0
0.419050 0.051503 0.020016 255 220 0
0.448839 0.058670 0.104736 255 220 0
0.481278 0.052001 0.086275 255 220 0
0.401393 -0.001860 0.022694 255 220 0
0.460564 0.061091 0.024656 255 220 0
0.435791 -0.018042 0.065598 255 220 0
0.421502 0.098632 0.072469 255 220 0
0.445772 0.114327 0.086959 255 220 0
0.486478 0.053825 0.058113 255 220 0
0.467976 0.021477 0.046315 255 220 0
0.429699 0.096332 0.088388 255 220 0
0.487172 0.109109 0.069047 255 220 0
0.423762 -0.006805 0.083934 255 220 0
0.467253 0.121894 0.054575 255 220 0
0.444444 0.111386 0.089480 255 220 0
0.469990 0.046286 0.097002 255 220 0
0.485515 0.061623 0.048843 255 220 0
0.415347 0.043048 0.020721 255 220 0
0.469401 0.102492 0.038371 255 220 0
0.445364 0.017786 0.027496 255 220 0
0.469055 0.039364 0.094786 255 220 0
0.409847 -0.032747 0.054465 255 220 0
0.476702 0.064181 0.095658 255 220 0
0.381633 -0.006611 0.058057 255 220 0
0.398563 0.013713 0.023752 255 220 0
0.408703 0.008256 0.021598 255 220 0
0.400145 -0.006273 0.073781 255 220 0
0.477232 0.117469 0.082497 255 220 0
0.470262 0.018280 0.064654 255 220 0
0.478663 0.114404 0.084445 255 220 0
0.467903 0.116733 0.088979 255 220 0
0.454696 0.067913 0.022435 255 220 0
0.485020 0.064401 0.046573 255 220 0
0.419070 0.086336 0.031727 255 220 0
0.414907 0.092129 0.062754 255 220 0
0.481222 0.104808 0.049820 255 220 0
0.447648 0.038004 0.102430 255 220 0
0.401523 0.051420 0.031468 255 220 0
0.476382 0.077520 0.096950 255 220 0
0.482416 0.116206 0.062886 255 220 0
0.420804 0.076539 0.025271 255 220 0
0.472992 0.078553 0.099341 255 220 0
0.482216 0.071188 0.090503 255 220 0
0.471316 0.021221 0.056506 255 220 0
0.411821 -0.004145 0.081163 255 220 0
0.483681 0.055833 0.083473 255 220 0
0.386053 -0.006177 0.062136 255 220 0
0.434726 0.096474 0.093339 255 220 0
0.448930 -0.007593 0.061646 255 220 0
0.446428 -0.000117 0.087028 255 220 0
0.412912 -0.024199 0.035782 255 220 0
0.459961 0.005061 0.071482 255 220 0
0.399978 0.044233 0.030770 255 220 0
0.399870 0.001729 0.074376 255 220 0
0.377437 0.003820 0.041568 255 220 0
0.431563 0.099467 0.032475 255 220 0
0.484662 0.078362 0.088071 255 220 0
0.441901 0.028504 0.100018 255 220 0
0.482000 0.068732 0.090395 255 220 0
0.486424 0.071269 0.083433 255 220 0
0.429811 0.055860 0.098134 255 220 0
0.435608 -0.013051 0.041532 255 220 0
0.438469 0.076485 0.101107 255 220 0
0.434870 0.001613 0.029328 255 220 0
0.437760 0.109656 0.085584 255 220 0
0.398249 0.045191 0.061662 255 220 0
0.408088 0.069953 0.032642 255 220 0
0.412048 0.041270 0.084937 255 220 0
0.429204 0.109910 0.049236 255 220 0
0.448368 -0.003733 0.080471 255 220 0
0.487161 0.057438 0.056962 255 220 0
0.455906 0.122129 0.081130 255 220 0
0.385973 0.020568 0.042790 255 220 0
0.397190 0.009483 0.071555 255 220 0
0.374445 -0.005266 0.034434 255 220 0
0.489149 0.086048 0.055339 255 220 0
0.465908 0.105109 0.037927 255 220 0
0.486991 0.109566 0.068767 255 220 0
0.473028 0.107735 0.093862 255 220 0
0.395689 0.011779 0.069773 255 220 0
0.466248 0.052472 0.028760 255 220 0
0.469728 0.024387 0.046171 255 220 0
0.444716 0.008140 0.031606 255 220 0
0.443228 0.044938 0.102775 255 220 0
0.445108 -0.007140 0.045304 255 220 0
0.450937 0.001190 0.042510 255 220 0
0.433002 0.047906 0.099595 255 220 0
0.427048 0.046608 0.018792 255 220 0
0.426553 -0.015111 0.078456 255 220 0
0.442193 0.073534 0.102859 255 220 0
0.440755 0.119731 0.069049 255 220 0
0.405740 0.052119 0.074048 255 220 0
0.389214 -0.000110 0.064391 255 220 0
0.455093 0.101566 0.099963 255 220 0
0.466505 0.029701 0.037025 255 220 0
0.419146 0.021388 0.091034 255 220 0
0.426930 0.096794 0.033027 255 220 0
0.412884 0.076281 0.075170 255 220 0
0.474711 0.081230 0.034755 255 220 0
0.438934 0.078853 0.021655 255 220 0
0.459589 0.073355 0.024369 255 220 0
0.434366 0.005231 0.091950 255 220 0
0.473365 0.057697 0.097580 255 220 0
0.432020 -0.000901 0.088660 255 220 0
0.448451 0.109119 0.093666 255 220 0
0.421856 0.101386 0.068495 255 220 0
0.453411 0.068466 0.105041 255 220 0
0.483592 0.106464 0.084893 255 220 0
0.464733 0.012585 0.076312 255 220 0
0.439874 -0.009174 0.080692 255 220 0
0.413210 0.003492 0.084344 255 220 0
0.417909 0.061357 0.021765 255 220 0
0.490750 0.077194 0.062590 255 220 0
0.400149 0.039740 0.069095 255 220 0
0.464983 0.080092 0.027642 255 220 0
0.440474 -0.002855 0.035829 255 220 0
0.484068 0.047452 0.075490 255 220 0
0.476914 0.029209 0.062483 255 220 0
0.487343 0.104771 0.061712 255 220 0
0.456895 0.092965 0.103122 255 220 0
0.399375 0.047481 0.063103 255 220 0
0.472240 0.096335 0.098710 255 220 0
0.477272 0.076269 0.036481 255 220 0
0.483209 0.050878 0.049712 255 220 0
0.446574 0.067209 0.104317 255 220 0
0.434285 0.069161 0.099798 255 220 0
0.459384 0.055052 0.024671 255 220 0
0.484684 0.082521 0.046209 255 220 0
0.447570 0.069552 0.020881 255 220 0
0.479757 0.103176 0.091322 255 220 0
0.476899 0.029299 0.061677 255 220 0
0.460330 0.014299 0.041619 255 220 0
0.399760 0.051736 0.034639 255 220 0
0.479452 0.048686 0.087638 255 220 0
0.412497 0.004539 0.084228 255 220 0
0.454090 0.095467 0.029145 255 220 0
0.406006 -0.027973 0.036665 255 220 0
0.398096 0.006609 0.023059 255 220 0
0.415278 -0.005973 0.081827 255 220 0
0.454733 0.103467 0.033233 255 220 0
0.428539 0.029089 0.096296 255 220 0
0.428533 0.097463 0.086157 255 220 0
0.462618 0.014144 0.045251 255 220 0
0.448428 0.041895 0.103150 255 220 0
0.398014 -0.026796 0.063773 255 220 0
0.484034 0.047917 0.054776 255 220 0
0.471813 0.020989 0.060785 255 220 0
0.440582 0.086598 0.100364 255 220 0
0.461164 0.012477 0.044700 255 220 0
0.373599 -0.023162 0.045734 255 220 0
0.390479 0.016812 0.061526 255 220 0
0.452898 0.001419 0.082622 255 220 0
0.482710 0.099013 0.048658 255 220 0
0.409581 0.068315 0.029763 255 220 0
0.451919 0.120965 0.080970 255 220 0
0.459193 0.125861 0.063465 255 220 0
0.390698 0.015675 0.062381 255 220 0
0.475142 0.029575 0.052018 255 220 0
0.423467 0.055846 0.094213 255 220 0
0.464225 0.012860 0.050418 255 220 0
0.426670 0.008504 0.091413 255 220 0
0.479267 0.109563 0.088010 255 220 0
0.485371 0.110713 0.077060 255 220 0
0.477571 0.115947 0.083980 255 220 0
0.465712 0.125904 0.064770 255 220 0
0.401894 -0.002019 0.075735 255 220 0
0.456031 0.118505 0.086540 255 220 0
0.454398 0.000049 0.050170 255 220 0
0.394268 0.042289 0.043254 255 220 0
0.378038 0.002158 0.048248 255 220 0
0.433218 0.045873 0.019083 255 220 0
0.458593 0.014886 0.090947 255 220 0
0.487656 0.105590 0.075919 255 220 0
0.454203 0.079075 0.023611 255 220 0
0.430359 0.024319 0.096290 255 220 0
0.430263 0.064250 0.019295 255 220 0
0.445320 0.108667 0.036085 255 220 0
0.486266 0.062864 0.080789 255 220 0
0.452525 0.124909 0.070300 255 220 0
0.439107 -0.015886 0.062936 255 220 0
0.417151 0.036432 0.020140 255 220 0
0.468933 0.113784 0.091351 255 220 0
0.481874 0.088325 0.043869 255 220 0
0.446690 -0.005754 0.079073 255 220 0
0.477920 0.035247 0.051351 255 220 0
0.450636 -0.002191 0.046481 255 220 0
0.432804 0.013178 0.024181 255 220 0
0.454690 0.031164 0.100190 255 220 0
0.475386 0.117868 0.083863 255 220 0
0.433604 0.106525 0.038295 255 220 0
0.406444 0.000698 0.079534 255 220 0
0.484234 0.096331 0.049645 255 220 0
0.470397 0.050333 0.098080 255 220 0
0.421584 -0.020504 0.073780 255 220 0
0.421925 0.067646 0.090715 255 220 0
0.472199 0.058274 0.032025 255 220 0
0.480280 0.035731 0.069680 255 220 0
0.456192 0.018680 0.034069 255 220 0
0.433779 0.004151 0.027619 255 220 0
0.454344 0.114356 0.040677 255 220 0
0.473634 0.080404 0.033664 255 220 0
0.402912 0.067373 0.043322 255 220 0
0.384142 -0.017220 0.061137 255 220 0
0.464100 0.091179 0.102641 255 220 0
0.414675 0.079756 0.031471 255 220 0
0.442417 0.063378 0.103352 255 220 0
0.426017 0.088401 0.088162 255 220 0
0.461950 0.007305 0.070286 255 220 0
0.458716 0.117188 0.044299 255 220 0
0.490116 0.071378 0.060029 255 220 0
0.463322 0.081350 0.103593 255 220 0
0.474815 0.032480 0.047070 255 220 0
0.403209 -0.005997 0.075905 255 220 0
0.371806 -0.015805 0.036207 255 220 0
0.465911 0.054185 0.028242 255 220 0
0.474638 0.065276 0.097551 255 220 0
0.473321 0.124053 0.066535 255 220 0
0.441239 0.103948 0.033062 255 220 0
0.380715 0.002472 0.031236 255 220 0
0.462629 0.083064 0.103713 255 220 0
0.443680 0.094820 0.027475 255 220 0
0.435022 0.042177 0.019643 255 220 0
0.434299 0.059218 0.018810 255 220 0
0.474723 0.062021 0.097139 255 220 0
0.480599 0.118985 0.065148 255 220 0
0.490199 0.071113 0.061186 255 220 0
0.481896 0.117647 0.065327 255 220 0
0.473683 0.117831 0.085251 255 220 0
0.382946 -0.005040 0.026595 255 220 0
0.484415 0.094485 0.049157 255 220 0
0.471466 0.079223 0.100253 255 220 0
0.466331 0.102786 0.036885 255 220 0
0.478649 0.105242 0.047120 255 220 0
0.403990 0.037527 0.075676 255 220 0
0.387492 -0.008210 0.063647 255 220 0
0.374965 -0.005673 0.049320 255 220 0
0.449572 0.022255 0.027892 255 220 0
0.460013 0.037678 0.028437 255 220 0
0.426442 0.108431 0.053051 255 220 0
0.440216 0.065379 0.102582 255 220 0
0.410292 -0.017820 0.029019 255 220 0
0.390126 -0.027421 0.031898 255 220 0
0.446717 0.062046 0.020413 255 220 0
0.426011 0.036082 0.019487 255 220 0
0.418937 0.071915 0.024404 255 220 0
0.480830 0.065356 0.039772 255 220 0
0.449040 0.123162 0.072812 255 220 0
0.478461 0.033073 0.057967 255 220 0
0.383115 0.014187 0.046582 255 220 0
0.471947 0.086981 0.033694 255 220 0
0.414414 0.002568 0.084696 255 220 0
0.487475 0.101451 0.080228 255 220 0
0.483967 0.107528 0.055770 255 220 0
0.407349 0.032318 0.022923 255 220 0
0.465389 0.014205 0.078157 255 220 0
0.465281 0.064388 0.102918 255 220 0
0.478253 0.118182 0.080158 255 220 0
0.420488 0.048145 0.092502 255 220 0
0.385048 0.018560 0.045520 255 220 0
0.406042 0.037931 0.024354 255 220 0
0.487871 0.057456 0.061910 255 220 0
0.486316 0.102515 0.056877 255 220 0
0.397303 0.022944 0.069716 255 220 0
0.405235 -0.033132 0.057866 255 220 0
0.457683 0.017344 0.093392 255 220 0
0.373641 -0.005638 0.036041 255 220 0
0.488122 0.104953 0.065913 255 220 0
0.402968 0.018084 0.076859 255 220 0
0.461898 0.087427 0.103570 255 220 0
0.439912 0.008105 0.028815 255 220 0
0.414802 0.083687 0.073683 255 220 0
0.425277 0.037602 0.019369 255 220 0
0.408450 0.062277 0.074414 255 220 0
0.481933 0.040416 0.057876 255 220 0
0.412856 0.021153 0.086651 255 220 0
0.488237 0.081579 0.081458 255 220 0
0.463119 0.101346 0.034740 255 220 0
0.476658 0.105947 0.092563 255 220 0
0.427174 0.050560 0.018697 255 220 0
0.414035 0.089191 0.042636 255 220 0
0.451963 0.011274 0.093023 255 220 0
0.438988 0.100874 0.094169 255 220 0
0.470207 0.114769 0.090052 255 220 0
0.398977 -0.022430 0.067215 255 220 0
0.453594 0.000949 0.080508 255 220 0
0.438949 0.001125 0.090059 255 220 0
0.467128 0.055843 0.101347 255 220 0
0.397091 0.042157 0.060691 255 220 0
0.417924 -0.018820 0.075052 255 220 0
0.398581 0.055878 0.049218 255 220 0
0.439755 0.005131 0.092254 255 220 0
0.406551 0.070018 0.064919 255 220 0
0.484029 0.056294 0.082928 255 220 0
0.408347 0.043140 0.080190 255 220 0
0.486291 0.106040 0.059665 255 220 0
0.469040 0.087712 0.031917 255 220 0
0.436137 -0.017331 0.067816 255 220 0
0.432903 0.044927 0.099397 255 220 0
0.420522 0.090198 0.033180 255 220 0
0.394240 -0.008733 0.023795 255 220 0
0.398553 -0.014119 0.070827 255 220 0
0.449666 0.111679 0.091930 255 220 0
0.459000 0.072724 0.104619 255 220 0
0.403373 0.068066 0.042265 255 220 0
0.460348 0.064106 0.024417 255 220 0
0.463301 0.021382 0.039272 255 220 0
0.412697 0.025780 0.020811 255 220 0
0.451084 0.069004 0.104926 255 220 0
0.486350 0.093657 0.085579 255 220 0
0.383395 -0.011821 0.060546 255 220 0
0.390285 0.027633 0.038079 255 220 0
0.456591 0.121106 0.049668 255 220 0
0.466472 0.013305 0.058183 255 220 0
0.476872 0.089917 0.096686 255 220 0
0.442441 -0.004427 0.038948 255 220 0
0.452940 0.106806 0.034875 255 220 0
0.433929 -0.019414 0.052046 255 220 0
0.442391 -0.012975 0.065506 255 220 0
0.437170 -0.014693 0.073712 255 220 0
0.424490 -0.025954 0.052961 255 220 0
0.434636 0.008396 0.026288 255 220 0
0.429787 0.055619 0.098127 255 220 0
0.384906 0.016394 0.037702 255 220 0
0.414829 0.065099 0.082893 255 220 0
0.465734 0.059300 0.102434 255 220 0
0.466587 0.093502 0.032690 255 220 0
0.439256 0.063342 0.102286 255 220 0
0.459331 0.003711 0.068073 255 220 0
0.396350 0.018293 0.025825 255 220 0
0.441867 0.067903 0.103063 255 220 0
0.474219 0.044782 0.092538 255 220 0
0.454667 0.043617 0.024366 255 220 0
0.378790 -0.022094 0.030798 255 220 0
0.482048 0.084208 0.091981 255 220 0
0.393008 -0.009498 0.068077 255 220 0
0.450286 0.118393 0.084148 255 220 0
0.489373 0.076040 0.076413 255 220 0
0.374618 -0.021349 0.050447 255 220 0
0.436596 -0.015021 0.073750 255 220 0
0.393829 0.008174 0.068223 255 220 0
0.453563 0.071611 0.022366 255 220 0
0.456245 0.119190 0.085712 255 220 0
0.402647 0.010238 0.076992 255 220 0
0.425316 0.107460 0.053993 255 220 0
0.392028 0.017554 0.063746 255 220 0
0.412982 0.036160 0.086484 255 220 0
0.467616 0.052890 0.029596 255 220 0
0.440009 0.095429 0.027838 255 220 0
0.465593 0.012021 0.069767 255 220 0
0.437524 -0.017344 0.058031 255 220 0
0.399397 0.058406 0.048833 255 220 0
0.427336 0.109596 0.063473 255 220 0
0.490628 0.076868 0.069209 255 220 0
0.464254 0.076256 0.026665 255 220 0
0.443043 0.042523 0.102435 255 220 0
0.462451 0.075195 0.025700 255 220 0
0.445254 0.026377 0.099976 255 220 0
0.467576 0.116279 0.047038 255 220 0
0.374838 -0.025067 0.040943 255 220 0
0.419428 0.097471 0.043798 255 220 0
0.454244 0.107384 0.035430 255 220 0
0.446638 0.107993 0.035433 255 220 0
0.401195 0.062235 0.053663 255 220 0
0.405069 0.005568 0.079111 255 220 0
0.471740 0.105072 0.041223 255 220 0
0.399154 0.037214 0.068262 255 220 0
0.474572 0.028775 0.078843 255 220 0
0.422180 -0.026906 0.051125 255 220 0
0.468749 0.073614 0.101595 255 220 0
0.482914 0.089027 0.091028 255 220 0
0.483192 0.043769 0.057425 255 220 0
0.481239 0.041842 0.078224 255 220 0
0.403924 0.043541 0.074094 255 220 0
0.433639 0.085452 0.096746 255 220 0
0.457406 0.041657 0.102015 255 220 0
0.414453 0.026067 0.088126 255 220 0
0.485581 0.066327 0.047077 255 220 0
0.464090 0.071382 0.103457 255 220 0
0.486971 0.055043 0.059153 255 220 0
0.487662 0.063614 0.053571 255 220 0
0.445587 -0.010116 0.053927 255 220 0
0.443054 0.035260 0.022164 255 220 0
0.456290 0.121066 0.083041 255 220 0
0.480355 0.039568 0.052741 255 220 0
0.403937 0.046911 0.072993 255 220 0
0.487155 0.061417 0.077315 255 220 0
0.391100 -0.002313 0.066425 255 220 0
0.434002 0.100598 0.090205 255 220 0
0.435668 0.092173 0.026740 255 220 0
0.396807 0.020570 0.026175 255 220 0
0.412756 0.079945 0.072292 255 220 0
0.399915 -0.023555 0.029948 255 220 0
0.452385 -0.003639 0.054608 255 220 0
0.480806 0.069529 0.039617 255 220 0
0.440450 0.081771 0.101248 255 220 0
0.372440 -0.009596 0.035720 255 220 0
0.397712 0.004079 0.072364 255 220 0
0.385092 0.018690 0.042211 255 220 0
0.473239 0.076655 0.032799 255 220 0
0.427251 0.025370 0.020676 255 220 0
0.388629 0.026034 0.047740 255 220 0
0.453860 0.081863 0.104562 255 220 0
0.463614 0.125798 0.063307 255 220 0
0.489485 0.091690 0.077581 255 220 0
0.446519 0.025316 0.099773 255 220 0
0.391429 0.016502 0.028735 255 220 0
0.464658 0.023666 0.090983 255 220 0
0.442271 0.093263 0.099321 255 220 0
0.393407 0.005233 0.024303 255 220 0
0.469355 0.108852 0.042016 255 220 0
0.428225 -0.024124 0.058273 255 220 0
0.403310 0.068564 0.053092 255 220 0
0.374820 -0.006425 0.049693 255 220 0
0.401106 0.061623 0.054304 255 220 0
0.434521 0.061630 0.018938 255 220 0
0.415212 -0.029199 0.046969 255 220 0
0.437156 0.015463 0.096103 255 220 0
0.406168 0.022345 0.022183 255 220 0
0.398642 0.051637 0.057074 255 220 0
0.477195 0.029630 0.063214 255 220 0
0.419617 0.075901 0.085342 255 220 0
0.448781 0.055284 0.021086 255 220 0
0.416087 0.065843 0.023829 255 220 0
0.435386 0.030419 0.021261 255 220 0
0.486352 0.073872 0.084250 255 220 0
0.444805 0.019986 0.098258 255 220 0
0.486779 0.100502 0.056592 255 220 0
0.414253 -0.015703 0.076434 255 220 0
0.428906 0.055874 0.018710 255 220 0
0.402402 0.000331 0.076434 255 220 0
0.373226 -0.017165 0.033767 255 220 0
0.410323 0.084896 0.048555 255 220 0
0.489212 0.064636 0.069435 255 220 0
0.414294 -0.017139 0.075540 255 220 0
0.438406 0.041067 0.020292 255 220 0
0.468622 0.089291 0.032193 255 220 0
0.481017 0.070834 0.039942 255 220 0
0.399465 -0.029044 0.062262 255 220 0
0.483541 0.043638 0.071057 255 220 0
0.455319 0.007307 0.087281 255 220 0
0.412415 -0.000812 0.023101 255 220 0
0.413466 0.079743 0.073986 255 220 0
0.476043 0.075839 0.035210 255 220 0
0.465550 0.037628 0.032336 255 220 0
0.412476 0.049518 0.083980 255 220 0
0.477090 0.108654 0.047715 255 220 0
0.490690 0.089959 0.068934 255 220 0
0.452167 0.124322 0.060046 255 220 0
0.485836 0.062108 0.049351 255 220 0
0.437721 0.082403 0.099861 255 220 0
0.483739 0.067897 0.043583 255 220 0
0.458315 0.031328 0.098837 255 220 0
0.481086 0.094096 0.044641 255 220 0
0.453913 0.068832 0.105037 255 220 0
0.478547 0.046288 0.043060 255 220 0
0.396940 0.005152 0.071576 255 220 0
0.431738 0.022103 0.021933 255 220 0
0.390458 -0.030960 0.055950 255 220 0
0.397128 0.051624 0.044893 255 220 0
0.443614 0.097324 0.098461 255 220 0
0.476563 0.098351 0.095647 255 220 0
0.415902 0.071649 0.082146 255 220 0
0.480910 0.062111 0.090552 255 220 0
0.440850 0.040550 0.101652 255 220 0
0.410742 0.067695 0.028299 255 220 0
0.415334 0.089779 0.068474 255 220 0
0.451688 0.064763 0.021549 255 220 0
0.470020 0.119580 0.085190 255 220 0
0.378004 -0.017402 0.055993 255 220 0
0.477119 0.039925 0.044677 255 220 0
0.463592 0.114067 0.042892 255 220 0
0.464605 0.108048 0.039019 255 220 0
0.373347 -0.020918 0.036398 255 220 0
0.461691 0.054050 0.103344 255 220 0
0.468698 0.124237 0.060683 255 220 0
0.447053 0.001128 0.087833 255 220 0
0.475592 0.093877 0.038872 255 220 0
0.432923 -0.005270 0.032230 255 220 0
0.427161 0.108734 0.066695 255 220 0
0.469455 0.017667 0.070336 255 220 0
0.470017 0.017920 0.065251 255 220 0
0.435461 0.081066 0.098903 255 220 0
0.414687 0.030811 0.088331 255 220 0
0.391661 0.004764 0.066320 255 220 0
0.421138 0.056342 0.092255 255 220 0
0.442924 0.105720 0.093529 255 220 0
0.470252 0.115825 0.048187 255 220 0
0.460340 0.069017 0.104425 255 220 0
0.399680 0.058406 0.042403 255 220 0
0.395544 0.028691 0.065107 255 220 0
0.407877 0.033137 0.022800 255 220 0
0.395828 -0.012904 0.069553 255 220 0
0.410023 0.035336 0.083313 255 220 0
0.385742 0.006909 0.058509 255 220 0
0.477510 0.031471 0.057414 255 220 0
0.446303 0.045397 0.021433 255 220 0
0.451102 -0.005214 0.066797 255 220 0
0.471636 0.056091 0.098598 255 220 0
0.436886 -0.016398 0.069353 255 220 0
0.450709 -0.005231 0.054006 255 220 0
0.489848 0.097436 0.067869 255 220 0
0.382147 -0.002358 0.057317 255 220 0
0.449592 0.080826 0.023078 255 220 0
0.431522 -0.020864 0.050754 255 220 0
0.487216 0.058051 0.074268 255 220 0
0.428799 0.089606 0.027482 255 220 0
0.403329 0.027775 0.076305 255 220 0
0.373327 -0.022938 0.040519 255 220 0
0.391084 0.028811 0.054234 255 220 0
0.446505 0.115853 0.085413 255 220 0
0.440812 0.119808 0.068804 255 220 0
0.450755 -0.005760 0.064452 255 220 0
0.460307 0.004759 0.066996 255 220 0
0.487389 0.083283 0.050660 255 220 0
