ply
format ascii 1.0
element vertex 1024
property float x
property float y
property float z
property uchar red
property uchar green
property uchar blue
end_header
0.516913 -0.064317 0.043372 255 220 0
0.538208 0.056061 0.030232 255 220 0
0.596779 0.014573 0.041120 255 220 0
0.557203 0.002076 0.014878 255 220 0
0.542271 0.026359 0.095929 255 220 0
0.592780 0.055908 0.091100 255 220 0
0.552977 0.015013 0.092332 255 220 0
0.574150 0.001523 0.079740 255 220 0
0.598652 0.017909 0.060309 255 220 0
0.571069 0.060553 0.103513 255 220 0
0.535379 -0.054905 0.063822 255 220 0
0.588995 0.095364 0.073714 255 220 0
0.526074 0.068448 0.052430 255 220 0
0.514679 -0.007816 0.073565 255 220 0
0.561957 0.064055 0.104337 255 220 0
0.534300 -0.061184 0.033877 255 220 0
0.537881 0.038124 0.023584 255 220 0
0.574498 -0.003247 0.076533 255 220 0
0.525048 -0.006482 0.024300 255 220 0
0.565306 -0.039576 0.031276 255 220 0
0.602371 0.043952 0.066743 255 220 0
0.572154 -0.007017 0.075536 255 220 0
0.514694 -0.062070 0.041886 255 220 0
0.579411 -0.025264 0.046509 255 220 0
0.563587 0.098711 0.089825 255 220 0
0.574412 0.086865 0.097526 255 220 0
0.593675 0.009112 0.035671 255 220 0
0.514544 0.052640 0.066784 255 220 0
0.528263 -0.064295 0.060297 255 220 0
0.567175 0.015025 0.017078 255 220 0
0.577458 -0.022376 0.056923 255 220 0
0.540961 -0.011255 0.081719 255 220 0
0.577087 0.101726 0.082260 255 220 0
0.537337 -0.046440 0.024496 255 220 0
0.586432 0.070866 0.040682 255 220 0
0.561298 -0.045145 0.033294 255 220 0
0.578290 -0.022432 0.055306 255 220 0
0.587738 0.014000 0.076060 255 220 0
0.520497 -0.023834 0.074741 255 220 0
0.551218 0.054910 0.103412 255 220 0
0.511384 0.031763 0.074965 255 220 0
0.557685 0.056107 0.023905 255 220 0
0.581637 0.101314 0.071343 255 220 0
0.528901 0.072455 0.088867 255 220 0
0.554127 0.097379 0.087104 255 220 0
0.563203 0.058781 0.025048 255 220 0
0.557932 0.020345 0.093993 255 220 0
0.529379 0.031314 0.093564 255 220 0
0.601941 0.043644 0.052639 255 220 0
0.555721 -0.014898 0.077376 255 220 0
0.585508 0.031588 0.088506 255 220 0
0.519433 0.057540 0.083892 255 220 0
0.590244 -0.001081 0.033502 255 220 0
0.509195 0.004200 0.064920 255 220 0
0.538016 -0.060897 0.033939 255 220 0
0.560408 -0.021610 0.071690 255 220 0
0.579178 0.024346 0.022092 255 220 0
0.508648 -0.031794 0.040525 255 220 0
0.524483 0.038988 0.091909 255 220 0
0.542021 -0.060548 0.052053 255 220 0
0.516719 0.056045 0.077584 255 220 0
0.568475 0.045691 0.101171 255 220 0
0.591481 0.035078 0.031983 255 220 0
0.553529 0.063559 0.103862 255 220 0
0.574152 0.094293 0.093276 255 220 0
0.538208 -0.040236 0.021992 255 220 0
0.578964 -0.024548 0.034004 255 220 0
0.586260 0.076898 0.044393 255 220 0
0.524546 0.065347 0.087959 255 220 0
0.573878 0.094613 0.093129 255 220 0
0.541835 0.007095 0.089085 255 220 0
0.535875 0.085841 0.085109 255 220 0
0.579002 0.052404 0.026936 255 220 0
0.542888 -0.037088 0.020698 255 220 0
0.580093 0.026533 0.089896 255 220 0
0.573843 -0.028853 0.030891 255 220 0
0.565947 0.061702 0.026528 255 220 0
0.542851 0.046640 0.100918 255 220 0
0.590481 -0.006713 0.051634 255 220 0
0.584775 0.089393 0.053418 255 220 0
0.549752 0.050833 0.102783 255 220 0
0.568747 0.104964 0.074502 255 220 0
0.545858 0.096002 0.080786 255 220 0
0.566041 -0.023635 0.067581 255 220 0
0.551867 0.026191 0.096657 255 220 0
0.587369 0.092615 0.059998 255 220 0
0.540422 0.012613 0.017638 255 220 0
0.532855 0.011710 0.089281 255 220 0
0.547499 0.034306 0.018661 255 220 0
0.568232 -0.018979 0.069666 255 220 0
0.572336 0.040716 0.021041 255 220 0
0.532223 0.041645 0.096556 255 220 0
0.524513 -0.014022 0.024149 255 220 0
0.581023 0.001663 0.074578 255 220 0
0.564153 0.080519 0.101586 255 220 0
0.544833 0.093707 0.063531 255 220 0
0.523007 -0.002422 0.026495 255 220 0
0.515869 0.027899 0.083251 255 220 0
0.541548 0.043544 0.023431 255 220 0
0.516477 -0.053088 0.034278 255 220 0
0.547595 0.086948 0.049265 255 220 0
0.593882 0.067687 0.090785 255 220 0
0.562640 -0.034596 0.060935 255 220 0
0.540167 0.035921 0.021772 255 220 0
0.528567 0.070373 0.089887 255 220 0
0.558241 0.101478 0.065049 255 220 0
0.565422 -0.023424 0.068104 255 220 0
0.521214 -0.028875 0.026276 255 220 0
0.530475 -0.061210 0.034153 255 220 0
0.554917 0.077436 0.101785 255 220 0
0.588076 0.075435 0.094907 255 220 0
0.533513 0.053975 0.097845 255 220 0
0.553608 0.076949 0.101677 255 220 0
0.521771 0.048070 0.089614 255 220 0
0.518734 -0.059138 0.036118 255 220 0
0.512268 -0.024684 0.069084 255 220 0
0.564807 0.053555 0.023116 255 220 0
0.539542 0.085631 0.090323 255 220 0
0.578057 0.069852 0.101561 255 220 0
0.536601 0.043183 0.025991 255 220 0
0.584475 -0.018636 0.045654 255 220 0
0.510996 0.033745 0.072868 255 220 0
0.542708 0.090471 0.059926 255 220 0
0.578059 -0.015310 0.026468 255 220 0
0.535978 0.085959 0.085107 255 220 0
0.555028 0.007048 0.014749 255 220 0
0.506866 -0.028774 0.060388 255 220 0
0.551064 0.090345 0.051195 255 220 0
0.598308 0.014913 0.047108 255 220 0
0.511894 0.031259 0.052373 255 220 0
0.592590 0.021426 0.075269 255 220 0
0.575707 0.086905 0.097082 255 220 0
0.535413 0.078614 0.091970 255 220 0
0.531984 -0.065993 0.040328 255 220 0
0.602194 0.034245 0.062316 255 220 0
0.587440 0.094315 0.082957 255 220 0
0.507222 -0.023725 0.060087 255 220 0
0.567051 0.062510 0.104095 255 220 0
0.577841 0.097159 0.057321 255 220 0
0.586253 0.051434 0.095703 255 220 0
0.597198 0.025685 0.040358 255 220 0
0.531137 0.009103 0.087965 255 220 0
0.525003 0.037455 0.033922 255 220 0
0.561872 0.001565 0.084508 255 220 0
0.547836 -0.045290 0.062496 255 220 0
0.534995 0.066365 0.097009 255 220 0
0.544472 0.053800 0.102071 255 220 0
0.518214 0.043109 0.045720 255 220 0
0.527406 -0.016447 0.078430 255 220 0
0.552137 0.024397 0.096010 255 220 0
0.517659 -0.008772 0.031099 255 220 0
0.557620 0.019241 0.015686 255 220 0
0.508665 -0.034977 0.040098 255 220 0
0.545205 -0.025698 0.017684 255 220 0
0.562079 -0.032840 0.024201 255 220 0
0.587768 -0.001135 0.030398 255 220 0
0.591525 0.062454 0.093307 255 220 0
0.518394 0.060610 0.061653 255 220 0
0.538869 0.007620 0.017717 255 220 0
0.571303 0.005710 0.083590 255 220 0
0.553779 -0.040411 0.062436 255 220 0
0.547959 -0.057850 0.037963 255 220 0
0.527548 -0.025781 0.075967 255 220 0
0.541409 0.012882 0.017315 255 220 0
0.578175 0.091665 0.093429 255 220 0
0.525209 -0.068134 0.049021 255 220 0
0.526671 -0.047143 0.070085 255 220 0
0.579748 0.010848 0.022669 255 220 0
0.534740 -0.035108 0.021114 255 220 0
0.554898 0.035541 0.017738 255 220 0
0.568426 0.027613 0.018139 255 220 0
0.544311 -0.059149 0.034644 255 220 0
0.581811 -0.018894 0.032385 255 220 0
0.578175 0.048780 0.099393 255 220 0
0.531041 0.083072 0.074655 255 220 0
0.547993 0.031381 0.098208 255 220 0
0.576815 0.020719 0.088848 255 220 0
0.532155 0.036129 0.026730 255 220 0
0.540651 0.000726 0.016638 255 220 0
0.568503 -0.034886 0.052946 255 220 0
0.555163 0.037833 0.100389 255 220 0
0.568226 0.029545 0.018260 255 220 0
0.557690 0.075139 0.034176 255 220 0
0.509565 -0.002910 0.046468 255 220 0
0.558691 0.050463 0.103322 255 220 0
0.569412 0.017682 0.090101 255 220 0
0.554651 -0.052581 0.039908 255 220 0
0.578756 0.076171 0.038585 255 220 0
0.596137 0.064176 0.088158 255 220 0
0.507056 -0.028579 0.060882 255 220 0
0.513133 -0.038696 0.033794 255 220 0
0.564484 -0.015954 0.019367 255 220 0
0.580436 0.095500 0.089118 255 220 0
0.566662 0.043999 0.020333 255 220 0
0.576650 0.042185 0.022947 255 220 0
0.559884 -0.034311 0.063278 255 220 0
0.523245 -0.047010 0.028154 255 220 0
0.558632 0.081222 0.038949 255 220 0
0.579880 0.019119 0.022450 255 220 0
0.555403 0.037846 0.018183 255 220 0
0.541194 -0.022879 0.076906 255 220 0
0.580035 0.038140 0.023784 255 220 0
0.568456 0.102221 0.084992 255 220 0
0.602632 0.048561 0.064517 255 220 0
0.563433 0.036170 0.018192 255 220 0
0.595687 0.029766 0.037197 255 220 0
0.581463 0.003105 0.075159 255 220 0
0.546019 -0.047303 0.062200 255 220 0
0.518560 0.049441 0.048943 255 220 0
0.576294 0.013224 0.085268 255 220 0
0.520383 0.008445 0.083052 255 220 0
0.561514 0.065336 0.104289 255 220 0
0.572104 0.043100 0.021479 255 220 0
0.511354 0.029159 0.075407 255 220 0
0.602242 0.048976 0.068679 255 220 0
0.511416 -0.015457 0.038586 255 220 0
0.567122 -0.007544 0.077651 255 220 0
0.552154 -0.010770 0.080672 255 220 0
0.578425 0.034018 0.094071 255 220 0
0.598605 0.033093 0.073135 255 220 0
0.593017 0.062300 0.042656 255 220 0
0.520973 0.067085 0.078255 255 220 0
0.574559 0.002709 0.020452 255 220 0
0.558648 0.070564 0.030760 255 220 0
0.583083 0.054412 0.030027 255 220 0
0.538799 -0.040937 0.022175 255 220 0
0.582290 0.095884 0.058789 255 220 0
0.590930 -0.007989 0.045150 255 220 0
0.590839 0.090930 0.063473 255 220 0
0.531412 0.053373 0.034165 255 220 0
0.575969 -0.013112 0.068321 255 220 0
0.570380 0.041604 0.020645 255 220 0
0.520996 0.015839 0.032299 255 220 0
0.578926 0.050753 0.026342 255 220 0
0.593267 0.019917 0.033839 255 220 0
0.592893 0.076416 0.051263 255 220 0
0.602544 0.039757 0.063848 255 220 0
0.555689 0.064287 0.027627 255 220 0
0.594268 0.068541 0.090234 255 220 0
0.576548 0.034067 0.094822 255 220 0
0.573380 0.069343 0.031909 255 220 0
0.533390 0.003570 0.086565 255 220 0
0.528579 0.079522 0.077455 255 220 0
0.521273 0.032549 0.088892 255 220 0
0.534607 0.073764 0.045559 255 220 0
0.542291 0.026917 0.018900 255 220 0
0.553260 0.004238 0.014652 255 220 0
0.506979 -0.022019 0.048216 255 220 0
0.517391 0.045733 0.048728 255 220 0
0.551594 -0.000575 0.014691 255 220 0
0.563922 0.011240 0.088650 255 220 0
0.528246 -0.018859 0.021756 255 220 0
0.585939 0.047469 0.094805 255 220 0
0.537706 0.031245 0.021833 255 220 0
0.595205 0.086308 0.076453 255 220 0
0.564967 -0.034978 0.058152 255 220 0
0.591861 0.042220 0.087567 255 220 0
0.514833 0.035250 0.047800 255 220 0
0.552675 -0.053965 0.036216 255 220 0
0.579281 0.000556 0.075410 255 220 0
0.556419 0.058951 0.025158 255 220 0
0.551090 0.062930 0.103524 255 220 0
0.567881 -0.037677 0.048389 255 220 0
0.577281 0.094217 0.053512 255 220 0
0.542978 -0.056610 0.057070 255 220 0
0.523747 0.058647 0.046573 255 220 0
0.564726 0.050858 0.103052 255 220 0
0.519767 0.012599 0.032984 255 220 0
0.509369 0.000965 0.048680 255 220 0
0.521956 -0.034302 0.026162 255 220 0
0.521711 -0.066756 0.058394 255 220 0
0.505111 -0.038643 0.048603 255 220 0
0.512265 0.027571 0.049739 255 220 0
0.507112 -0.017077 0.056932 255 220 0
0.549962 0.072730 0.034791 255 220 0
0.549070 0.042013 0.101137 255 220 0
0.523410 0.053574 0.043525 255 220 0
0.569677 -0.035659 0.032976 255 220 0
0.600015 0.036136 0.071652 255 220 0
0.551000 -0.050596 0.028710 255 220 0
0.553902 0.092653 0.093006 255 220 0
0.540197 0.065619 0.034544 255 220 0
0.570621 0.051157 0.023324 255 220 0
0.525104 -0.005443 0.024357 255 220 0
0.591497 0.008444 0.032607 255 220 0
0.583558 0.088768 0.092105 255 220 0
0.573889 0.072491 0.033900 255 220 0
0.558391 -0.007316 0.015753 255 220 0
0.521230 -0.066893 0.058067 255 220 0
0.535060 0.025215 0.094068 255 220 0
0.534179 0.024749 0.093697 255 220 0
0.585257 0.034729 0.090222 255 220 0
0.508965 0.001602 0.050766 255 220 0
0.554105 0.031320 0.098398 255 220 0
0.517340 0.044951 0.048348 255 220 0
0.588648 0.023451 0.081149 255 220 0
0.550599 0.016596 0.093067 255 220 0
0.519150 0.027918 0.038064 255 220 0
0.550802 0.054723 0.103344 255 220 0
0.590955 0.070679 0.045011 255 220 0
0.580600 0.058529 0.030168 255 220 0
0.585622 0.030128 0.026379 255 220 0
0.523270 0.060889 0.088489 255 220 0
0.537209 0.089640 0.079063 255 220 0
0.589886 0.076987 0.047954 255 220 0
0.589975 -0.009178 0.040120 255 220 0
0.535397 0.027886 0.094903 255 220 0
0.597477 0.063552 0.050467 255 220 0
0.578652 -0.012285 0.066246 255 220 0
0.532558 0.075553 0.050490 255 220 0
0.531270 0.082026 0.081276 255 220 0
0.569732 -0.037149 0.036942 255 220 0
0.547772 -0.056511 0.049931 255 220 0
0.563927 0.003113 0.084704 255 220 0
0.525306 0.010525 0.086364 255 220 0
0.518612 -0.036544 0.028690 255 220 0
0.555988 0.096992 0.057668 255 220 0
0.539557 0.040835 0.099076 255 220 0
0.566652 0.043008 0.100740 255 220 0
0.521819 0.059518 0.087063 255 220 0
0.533468 0.080623 0.057373 255 220 0
0.578529 0.046181 0.098484 255 220 0
0.548692 0.045723 0.101832 255 220 0
0.553325 0.057168 0.024774 255 220 0
0.601863 0.059697 0.071164 255 220 0
0.515999 -0.058877 0.066334 255 220 0
0.556961 -0.000971 0.084557 255 220 0
0.536028 0.006299 0.018793 255 220 0
0.567721 -0.015587 0.072297 255 220 0
0.541144 0.083067 0.049866 255 220 0
0.562020 0.017110 0.016005 255 220 0
0.576588 -0.020749 0.060383 255 220 0
0.511530 -0.060974 0.062217 255 220 0
0.561797 0.014655 0.015816 255 220 0
0.593169 0.065700 0.091718 255 220 0
0.564164 0.103250 0.081354 255 220 0
0.536466 -0.051698 0.027225 255 220 0
0.543298 -0.029105 0.018526 255 220 0
0.556414 -0.026148 0.070582 255 220 0
0.523544 -0.066464 0.042572 255 220 0
0.557190 -0.032016 0.021663 255 220 0
0.591844 0.053242 0.091405 255 220 0
0.532349 0.017641 0.091068 255 220 0
0.507132 -0.036437 0.062884 255 220 0
0.533702 0.047585 0.029653 255 220 0
0.543090 -0.060702 0.036945 255 220 0
0.578559 -0.014242 0.064551 255 220 0
0.550429 0.045291 0.101957 255 220 0
0.596511 0.022234 0.069959 255 220 0
0.518030 -0.032551 0.072498 255 220 0
0.592968 0.061050 0.091760 255 220 0
0.524077 -0.012265 0.078648 255 220 0
0.529419 0.074120 0.054060 255 220 0
0.524706 0.056545 0.091327 255 220 0
0.601596 0.064073 0.068359 255 220 0
0.546389 -0.005496 0.084048 255 220 0
0.520428 0.062345 0.057567 255 220 0
0.577860 0.074078 0.100942 255 220 0
0.517118 0.009567 0.035733 255 220 0
0.544711 0.001177 0.086913 255 220 0
0.559307 -0.043589 0.053847 255 220 0
0.563872 0.090608 0.097000 255 220 0
0.554076 0.064100 0.103901 255 220 0
0.536937 -0.049224 0.065930 255 220 0
0.557268 0.077458 0.102128 255 220 0
0.511481 -0.014119 0.038780 255 220 0
0.551328 0.054685 0.103408 255 220 0
0.533592 0.037149 0.096425 255 220 0
0.598827 0.036553 0.074545 255 220 0
0.515035 0.010494 0.039117 255 220 0
0.559066 -0.020849 0.072699 255 220 0
0.532601 0.073811 0.092220 255 220 0
0.531768 0.048527 0.096892 255 220 0
0.572086 -0.014516 0.022485 255 220 0
0.524716 0.035554 0.091723 255 220 0
0.601514 0.062156 0.063946 255 220 0
0.518068 0.021845 0.037726 255 220 0
0.563810 -0.008750 0.017492 255 220 0
0.538072 -0.054529 0.062486 255 220 0
0.576091 -0.016659 0.065158 255 220 0
0.589190 0.049764 0.092915 255 220 0
0.600218 0.051912 0.050275 255 220 0
0.530674 0.012344 0.022522 255 220 0
0.521322 -0.010985 0.077810 255 220 0
0.520556 0.059730 0.084866 255 220 0
0.575641 -0.022157 0.060070 255 220 0
0.580656 0.023451 0.022894 255 220 0
0.586112 0.058288 0.033786 255 220 0
0.584178 0.099369 0.077362 255 220 0
0.518342 0.042295 0.045085 255 220 0
0.602078 0.036585 0.052956 255 220 0
0.601069 0.054062 0.075733 255 220 0
0.549927 -0.041631 0.063825 255 220 0
0.597318 0.010082 0.054218 255 220 0
0.519266 -0.034165 0.072671 255 220 0
0.548609 0.078913 0.040612 255 220 0
0.529546 0.038167 0.094827 255 220 0
0.573228 -0.023970 0.061142 255 220 0
0.594760 0.026735 0.075776 255 220 0
0.506298 -0.038373 0.061590 255 220 0
0.536752 -0.059088 0.032153 255 220 0
0.516344 0.054462 0.059314 255 220 0
0.547478 0.078776 0.099356 255 220 0
0.524991 -0.024460 0.023734 255 220 0
0.550669 -0.012194 0.080280 255 220 0
0.530696 0.082261 0.070275 255 220 0
0.543757 0.074546 0.039305 255 220 0
0.538614 0.071523 0.097745 255 220 0
0.513535 -0.051902 0.036196 255 220 0
0.564833 0.058150 0.024930 255 220 0
0.550706 0.028670 0.016979 255 220 0
0.602674 0.037806 0.060785 255 220 0
0.566805 0.051029 0.022470 255 220 0
0.549019 -0.048060 0.059573 255 220 0
0.587585 0.087177 0.053935 255 220 0
0.583301 0.021238 0.024510 255 220 0
0.519368 0.064485 0.066825 255 220 0
0.526317 0.070099 0.087112 255 220 0
0.544615 0.073636 0.038075 255 220 0
0.552056 0.049166 0.102809 255 220 0
0.575907 0.103860 0.074073 255 220 0
0.525704 -0.050421 0.069336 255 220 0
0.515674 0.012306 0.038618 255 220 0
0.557998 0.091588 0.049398 255 220 0
0.586296 0.085817 0.051412 255 220 0
0.566241 0.102815 0.063624 255 220 0
0.587073 0.033582 0.027789 255 220 0
0.590479 -0.006938 0.038152 255 220 0
0.567978 0.029464 0.018188 255 220 0
0.588929 0.048790 0.032564 255 220 0
0.587765 0.028804 0.027993 255 220 0
0.541975 0.092861 0.082573 255 220 0
0.533034 0.003156 0.020006 255 220 0
0.601177 0.047910 0.051282 255 220 0
0.545261 -0.023707 0.075827 255 220 0
0.525520 -0.015330 0.023409 255 220 0
0.563248 0.087595 0.098648 255 220 0
0.528112 0.019180 0.025738 255 220 0
0.515228 -0.030288 0.031445 255 220 0
0.589802 0.073308 0.045390 255 220 0
0.516409 0.057909 0.067153 255 220 0
0.592597 0.000576 0.056653 255 220 0
0.565899 0.054778 0.103616 255 220 0
0.569870 0.101338 0.086577 255 220 0
0.525317 -0.004155 0.024333 255 220 0
0.546174 -0.034546 0.020000 255 220 0
0.593544 0.078749 0.087996 255 220 0
0.553934 -0.051496 0.032281 255 220 0
0.540715 0.000702 0.086514 255 220 0
0.583822 -0.003372 0.027228 255 220 0
0.586785 -0.001045 0.065489 255 220 0
0.521060 0.068140 0.069111 255 220 0
0.585742 0.024897 0.026255 255 220 0
0.525642 -0.018198 0.077539 255 220 0
0.518725 -0.063392 0.040289 255 220 0
0.512375 -0.028307 0.034967 255 220 0
0.553923 0.075875 0.035853 255 220 0
0.585500 0.088470 0.053150 255 220 0
0.577363 0.022628 0.021139 255 220 0
0.559116 0.031255 0.017025 255 220 0
0.539975 0.088751 0.061015 255 220 0
0.519704 0.065431 0.075294 255 220 0
0.593737 0.002237 0.055810 255 220 0
0.582718 -0.018806 0.051662 255 220 0
0.540740 0.003230 0.016724 255 220 0
0.590824 0.043294 0.089091 255 220 0
0.578910 0.023042 0.088886 255 220 0
0.562714 0.104024 0.076669 255 220 0
0.521692 -0.065798 0.042383 255 220 0
0.509636 -0.026062 0.065733 255 220 0
0.524704 0.074303 0.074710 255 220 0
0.553274 0.097300 0.060336 255 220 0
0.531434 0.059886 0.037735 255 220 0
0.589458 0.053439 0.093683 255 220 0
0.589732 0.094543 0.071795 255 220 0
0.565387 0.096880 0.092230 255 220 0
0.602811 0.044315 0.059704 255 220 0
0.505038 -0.052363 0.058822 255 220 0
0.518579 -0.005847 0.030503 255 220 0
0.570634 -0.018989 0.068071 255 220 0
0.594923 0.019472 0.036417 255 220 0
0.563641 0.104103 0.077478 255 220 0
0.516811 0.008198 0.080180 255 220 0
0.532957 -0.007307 0.082548 255 220 0
0.517124 -0.050759 0.032891 255 220 0
0.527097 0.037504 0.031675 255 220 0
0.513306 0.031800 0.049280 255 220 0
0.508503 -0.057690 0.061866 255 220 0
0.550982 0.087029 0.047371 255 220 0
0.526873 -0.006356 0.022983 255 220 0
0.554265 -0.048268 0.053979 255 220 0
0.598987 0.077773 0.068674 255 220 0
0.505865 -0.034493 0.047126 255 220 0
0.533807 0.040143 0.026803 255 220 0
0.583750 -0.014663 0.055926 255 220 0
0.598539 0.079440 0.069778 255 220 0
0.528087 -0.014077 0.079289 255 220 0
0.514288 -0.022294 0.033170 255 220 0
0.525847 -0.014288 0.078644 255 220 0
0.561834 -0.038411 0.026944 255 220 0
0.552517 -0.026686 0.071850 255 220 0
0.530184 0.081891 0.076034 255 220 0
0.527114 0.063724 0.045519 255 220 0
0.593430 -0.002644 0.046035 255 220 0
0.542007 0.075253 0.040948 255 220 0
0.593733 0.064050 0.044583 255 220 0
0.515133 0.034859 0.047078 255 220 0
0.543371 0.095107 0.072738 255 220 0
0.565311 0.068545 0.103984 255 220 0
0.584732 -0.017587 0.048005 255 220 0
0.509246 0.024229 0.059049 255 220 0
0.598053 0.030613 0.072794 255 220 0
0.594974 0.046320 0.038422 255 220 0
0.508016 -0.029497 0.042357 255 220 0
0.529818 0.053878 0.035928 255 220 0
0.562216 -0.031892 0.023849 255 220 0
0.554835 0.054310 0.103715 255 220 0
0.576907 0.077696 0.100348 255 220 0
0.571355 0.055884 0.025228 255 220 0
0.555204 0.021550 0.015834 255 220 0
0.572830 0.053952 0.102308 255 220 0
0.577899 0.099382 0.060464 255 220 0
0.573228 -0.032695 0.045878 255 220 0
0.555726 0.101629 0.076983 255 220 0
0.578854 0.074099 0.100567 255 220 0
0.600497 0.033493 0.047372 255 220 0
0.562004 0.063449 0.026965 255 220 0
0.508936 0.015170 0.057170 255 220 0
0.543154 0.089969 0.058285 255 220 0
0.529072 0.009679 0.023265 255 220 0
0.598560 0.027740 0.043267 255 220 0
0.542449 -0.056006 0.030252 255 220 0
0.600827 0.052024 0.052226 255 220 0
0.532427 -0.050744 0.067182 255 220 0
0.506783 -0.018521 0.053743 255 220 0
0.509336 -0.017037 0.042407 255 220 0
0.554288 -0.043276 0.059677 255 220 0
0.585512 0.098279 0.077505 255 220 0
0.573041 0.016780 0.019129 255 220 0
0.588075 0.096195 0.075425 255 220 0
0.587642 0.091376 0.086303 255 220 0
0.524941 0.056656 0.043303 255 220 0
0.559550 0.065869 0.028078 255 220 0
0.517587 0.050511 0.083342 255 220 0
0.543730 0.047202 0.101207 255 220 0
0.558255 0.096191 0.055219 255 220 0
0.596845 0.013514 0.060964 255 220 0
0.512500 0.012458 0.076054 255 220 0
0.600982 0.062503 0.060585 255 220 0
0.569873 0.103724 0.065722 255 220 0
0.513075 0.044657 0.074066 255 220 0
0.601702 0.061050 0.064541 255 220 0
0.597925 0.061716 0.050302 255 220 0
0.565862 0.021272 0.017023 255 220 0
0.565642 -0.036531 0.055101 255 220 0
0.593152 0.051283 0.037824 255 220 0
0.537918 -0.048732 0.065713 255 220 0
0.579383 0.055895 0.100551 255 220 0
0.563299 -0.015446 0.018772 255 220 0
0.584874 -0.015423 0.034294 255 220 0
0.526131 -0.043878 0.025986 255 220 0
0.575920 -0.000912 0.021610 255 220 0
0.511711 0.005873 0.072805 255 220 0
0.554183 -0.037002 0.064686 255 220 0
0.515009 -0.041453 0.070115 255 220 0
0.522505 0.067921 0.082016 255 220 0
0.596235 0.069364 0.051725 255 220 0
0.592932 0.003063 0.058824 255 220 0
0.597902 0.059613 0.049012 255 220 0
0.593208 0.065395 0.044653 255 220 0
0.584445 0.019149 0.082641 255 220 0
0.539909 -0.023444 0.017923 255 220 0
0.589318 0.040171 0.089238 255 220 0
0.527522 -0.009603 0.022343 255 220 0
0.572688 0.069759 0.103016 255 220 0
0.539050 -0.000030 0.086069 255 220 0
0.515018 0.030961 0.082316 255 220 0
0.566139 -0.000019 0.082366 255 220 0
0.536094 0.072046 0.095939 255 220 0
0.579942 -0.016099 0.028373 255 220 0
0.570345 0.059422 0.026373 255 220 0
0.575230 0.090687 0.095254 255 220 0
0.518496 -0.023339 0.073930 255 220 0
0.550002 -0.031609 0.070043 255 220 0
0.507899 -0.049182 0.064449 255 220 0
0.567773 0.084175 0.040719 255 220 0
0.541145 0.090280 0.062173 255 220 0
0.577540 0.099707 0.060754 255 220 0
0.594783 0.085920 0.079211 255 220 0
0.547613 -0.030223 0.071795 255 220 0
0.536454 0.049182 0.028356 255 220 0
0.555597 0.024910 0.016168 255 220 0
0.533190 0.000684 0.019733 255 220 0
0.594887 0.016697 0.068296 255 220 0
0.546834 -0.014126 0.015766 255 220 0
0.546122 -0.003620 0.015246 255 220 0
0.587610 0.014125 0.076291 255 220 0
0.511732 0.024828 0.049945 255 220 0
0.569940 -0.036935 0.037046 255 220 0
0.592632 0.039470 0.085475 255 220 0
0.558195 0.082696 0.100473 255 220 0
0.552925 0.007419 0.089158 255 220 0
0.540859 -0.042470 0.067716 255 220 0
0.593406 0.069949 0.091043 255 220 0
0.545600 0.029190 0.018179 255 220 0
0.575919 -0.013511 0.068042 255 220 0
0.521289 0.063105 0.084075 255 220 0
0.555257 0.030846 0.098203 255 220 0
0.543455 0.076178 0.040878 255 220 0
0.517051 0.057124 0.060803 255 220 0
0.528340 0.063414 0.043564 255 220 0
0.584059 -0.018561 0.047999 255 220 0
0.601643 0.044548 0.051660 255 220 0
0.580515 -0.024239 0.044979 255 220 0
0.584454 0.073660 0.097892 255 220 0
0.551180 0.057491 0.103563 255 220 0
0.599547 0.041054 0.075180 255 220 0
0.591030 0.092321 0.067438 255 220 0
0.581766 0.006942 0.024226 255 220 0
0.577031 -0.025224 0.031543 255 220 0
0.568596 -0.030126 0.059643 255 220 0
0.509713 0.031328 0.066179 255 220 0
0.575618 0.076472 0.037161 255 220 0
0.546955 -0.004825 0.084312 255 220 0
0.533077 0.071255 0.044697 255 220 0
0.536030 -0.011398 0.018096 255 220 0
0.586605 0.046134 0.029778 255 220 0
0.573059 0.029743 0.019727 255 220 0
0.571584 0.097295 0.055133 255 220 0
0.597592 0.063322 0.085966 255 220 0
0.540670 0.002188 0.087094 255 220 0
0.599633 0.075278 0.075049 255 220 0
0.546404 0.073204 0.036802 255 220 0
0.562568 0.053253 0.022814 255 220 0
0.596174 0.036427 0.079188 255 220 0
0.586902 0.032147 0.087612 255 220 0
0.529752 0.048298 0.033335 255 220 0
0.557873 0.080552 0.038576 255 220 0
0.520501 0.054390 0.048874 255 220 0
0.595530 0.086346 0.070739 255 220 0
0.572313 0.029959 0.019491 255 220 0
0.548280 0.012383 0.015565 255 220 0
0.514642 0.011163 0.078700 255 220 0
0.595689 0.042362 0.038362 255 220 0
0.568129 -0.029639 0.060721 255 220 0
0.528961 0.077581 0.062027 255 220 0
0.524360 -0.050899 0.029197 255 220 0
0.506435 -0.024449 0.049756 255 220 0
0.567783 -0.036258 0.051774 255 220 0
0.532410 0.083706 0.067658 255 220 0
0.584037 -0.003068 0.067544 255 220 0
0.570247 0.054653 0.102981 255 220 0
0.552532 0.012832 0.015151 255 220 0
0.597560 0.016983 0.062891 255 220 0
0.545679 -0.059342 0.045761 255 220 0
0.567711 0.050345 0.022391 255 220 0
0.569974 0.020559 0.018114 255 220 0
0.588831 0.049723 0.093215 255 220 0
0.551548 0.010778 0.015054 255 220 0
0.519029 -0.066360 0.058997 255 220 0
0.537640 -0.027427 0.075430 255 220 0
0.583410 -0.009816 0.028813 255 220 0
0.558194 0.092487 0.050379 255 220 0
0.513118 0.030975 0.079219 255 220 0
0.573530 0.087588 0.097440 255 220 0
0.560251 0.098813 0.088442 255 220 0
0.538584 -0.028394 0.074935 255 220 0
0.562786 0.031019 0.017353 255 220 0
0.578281 0.016400 0.085816 255 220 0
0.557978 0.011701 0.015156 255 220 0
0.580203 -0.019993 0.055300 255 220 0
0.591890 0.091909 0.073530 255 220 0
0.584347 0.098219 0.065669 255 220 0
0.587102 0.096945 0.076935 255 220 0
0.564104 0.102168 0.084187 255 220 0
0.556498 -0.039209 0.061562 255 220 0
0.580446 0.086790 0.095091 255 220 0
0.554585 -0.004084 0.014902 255 220 0
0.520864 -0.001154 0.080492 255 220 0
0.521444 -0.043723 0.071200 255 220 0
0.514571 0.027545 0.045123 255 220 0
0.592417 0.002747 0.035457 255 220 0
0.584585 0.095494 0.060640 255 220 0
0.525064 0.065284 0.050498 255 220 0
0.585095 -0.005967 0.063478 255 220 0
0.512328 0.040899 0.057894 255 220 0
0.530806 0.082280 0.078575 255 220 0
0.591298 0.058937 0.038971 255 220 0
0.563806 0.093123 0.095303 255 220 0
0.561007 -0.027825 0.021675 255 220 0
0.509587 0.010860 0.051844 255 220 0
0.590419 0.089090 0.084740 255 220 0
0.554206 0.084192 0.043088 255 220 0
0.578119 -0.018406 0.027923 255 220 0
0.562937 0.037293 0.018327 255 220 0
0.549837 -0.007284 0.015000 255 220 0
0.521222 -0.000330 0.028574 255 220 0
0.598145 0.012191 0.051067 255 220 0
0.585973 0.097342 0.079589 255 220 0
0.528165 0.073719 0.086728 255 220 0
0.561637 -0.035211 0.061202 255 220 0
0.559894 0.090946 0.048094 255 220 0
0.601375 0.036819 0.049794 255 220 0
0.564011 -0.043186 0.035852 255 220 0
0.573680 0.025844 0.092409 255 220 0
0.541474 0.056565 0.028542 255 220 0
0.580550 0.035572 0.023674 255 220 0
0.539424 0.015104 0.018302 255 220 0
0.525352 -0.007809 0.023961 255 220 0
0.538298 0.091004 0.076944 255 220 0
0.542076 0.075117 0.040787 255 220 0
0.522790 0.024042 0.088578 255 220 0
0.536964 -0.058609 0.060410 255 220 0
0.600222 0.065889 0.079499 255 220 0
0.515994 0.042783 0.082687 255 220 0
0.593850 0.031206 0.079673 255 220 0
0.571646 0.045506 0.100369 255 220 0
0.575497 0.002229 0.021000 255 220 0
0.543195 0.095031 0.076715 255 220 0
0.573415 0.071851 0.033341 255 220 0
0.601427 0.057261 0.074787 255 220 0
0.557956 0.034132 0.017422 255 220 0
0.557456 -0.041771 0.058384 255 220 0
0.509135 -0.059561 0.060994 255 220 0
0.535731 0.050493 0.029391 255 220 0
0.601632 0.051438 0.055064 255 220 0
0.568947 0.104486 0.078220 255 220 0
0.526700 0.076758 0.077731 255 220 0
0.507038 -0.038843 0.063117 255 220 0
0.601137 0.058260 0.076320 255 220 0
0.523224 0.071675 0.068644 255 220 0
0.516065 0.025407 0.041893 255 220 0
0.513875 0.039085 0.051881 255 220 0
0.601509 0.048903 0.052983 255 220 0
0.571002 0.104580 0.069482 255 220 0
0.574520 0.071465 0.033557 255 220 0
0.571785 0.104163 0.067834 255 220 0
0.586542 0.096123 0.081327 255 220 0
0.504229 -0.042897 0.055461 255 220 0
0.559647 0.089628 0.046722 255 220 0
0.601862 0.060594 0.066378 255 220 0
0.540525 0.088807 0.060147 255 220 0
0.554716 0.095641 0.056346 255 220 0
0.554664 -0.005757 0.082676 255 220 0
0.540017 -0.049887 0.064056 255 220 0
0.521685 -0.051997 0.069354 255 220 0
0.530856 0.015554 0.022899 255 220 0
0.534596 0.033753 0.024311 255 220 0
0.538534 0.068621 0.098524 255 220 0
0.592116 0.031781 0.082142 255 220 0
0.518479 -0.038844 0.029050 255 220 0
0.513486 -0.058238 0.039350 255 220 0
0.520227 0.047881 0.045021 255 220 0
0.512643 0.015536 0.044926 255 220 0
0.511831 0.040022 0.072458 255 220 0
0.551583 0.065624 0.029167 255 220 0
0.564782 0.089325 0.097780 255 220 0
0.569325 0.034583 0.019137 255 220 0
0.521203 -0.030816 0.073767 255 220 0
0.540975 0.079562 0.045801 255 220 0
0.569471 -0.030288 0.058364 255 220 0
0.588709 0.091215 0.059998 255 220 0
0.564611 0.098806 0.056978 255 220 0
0.508382 0.001628 0.057680 255 220 0
0.583606 0.008280 0.025359 255 220 0
0.602746 0.044603 0.063382 255 220 0
0.583754 0.099854 0.076301 255 220 0
0.576019 0.008802 0.082943 255 220 0
0.520736 -0.025991 0.074467 255 220 0
0.508775 0.005232 0.062383 255 220 0
0.575137 0.058905 0.027699 255 220 0
0.566915 0.095790 0.052798 255 220 0
0.547476 -0.020212 0.076995 255 220 0
0.543681 -0.059473 0.034662 255 220 0
0.594106 0.003802 0.038437 255 220 0
0.509056 -0.050225 0.065419 255 220 0
0.575713 0.097089 0.056225 255 220 0
0.556619 -0.022414 0.072717 255 220 0
0.600417 0.061450 0.079302 255 220 0
0.528687 -0.001451 0.022189 255 220 0
0.554195 0.038219 0.100496 255 220 0
0.512133 0.016398 0.046291 255 220 0
0.553689 0.017127 0.093135 255 220 0
0.570173 0.042494 0.020776 255 220 0
0.569372 -0.016324 0.070880 255 220 0
0.591465 0.075174 0.048505 255 220 0
0.537355 0.086275 0.060873 255 220 0
0.595206 0.086684 0.075052 255 220 0
0.511433 0.028143 0.052083 255 220 0
0.525263 0.048065 0.092702 255 220 0
0.591834 -0.004212 0.039001 255 220 0
0.581589 0.061662 0.100267 255 220 0
0.589692 0.090831 0.083891 255 220 0
0.548913 -0.055889 0.048835 255 220 0
0.581802 -0.009427 0.027252 255 220 0
0.584488 -0.019059 0.041596 255 220 0
0.602642 0.038926 0.056552 255 220 0
0.537896 -0.002961 0.084817 255 220 0
0.563558 -0.044046 0.039964 255 220 0
0.527150 0.011192 0.087340 255 220 0
0.586548 -0.015755 0.044116 255 220 0
0.543756 0.024177 0.095441 255 220 0
0.592768 0.051951 0.037632 255 220 0
0.560180 0.000369 0.084383 255 220 0
0.569206 0.098137 0.055870 255 220 0
0.538118 0.078901 0.047685 255 220 0
0.564328 -0.031535 0.024826 255 220 0
0.587589 0.011675 0.074583 255 220 0
0.519245 0.054188 0.085033 255 220 0
0.506550 -0.039223 0.044052 255 220 0
0.551472 -0.050005 0.055248 255 220 0
0.583200 0.076737 0.097827 255 220 0
0.601166 0.047664 0.073381 255 220 0
0.521971 0.025056 0.088246 255 220 0
0.529312 0.056267 0.037726 255 220 0
0.546888 0.020227 0.016584 255 220 0
0.509085 -0.000397 0.049242 255 220 0
0.598455 0.040244 0.077147 255 220 0
0.593637 0.083241 0.058336 255 220 0
0.535760 -0.054499 0.063831 255 220 0
0.515503 -0.014338 0.073083 255 220 0
0.546949 0.096073 0.082504 255 220 0
0.565934 0.011849 0.016647 255 220 0
0.600115 0.072944 0.067235 255 220 0
0.539778 -0.012187 0.016914 255 220 0
0.532948 0.085149 0.071492 255 220 0
0.549213 -0.031511 0.019400 255 220 0
0.564495 -0.024131 0.021897 255 220 0
0.569940 -0.029911 0.027768 255 220 0
0.546619 -0.042179 0.022887 255 220 0
0.524209 -0.003626 0.025275 255 220 0
0.584445 0.018941 0.082517 255 220 0
0.513708 -0.026385 0.070432 255 220 0
0.563827 0.021342 0.093235 255 220 0
0.602830 0.040786 0.059955 255 220 0
0.537432 0.082145 0.053082 255 220 0
0.591589 0.029648 0.081566 255 220 0
0.572651 -0.001726 0.020033 255 220 0
0.507458 -0.016375 0.058755 255 220 0
0.593060 0.034655 0.082561 255 220 0
0.598266 0.035404 0.041765 255 220 0
0.528307 0.036440 0.030113 255 220 0
0.507491 -0.059876 0.050280 255 220 0
0.598333 0.071983 0.058436 255 220 0
0.546393 -0.048749 0.060929 255 220 0
0.575925 0.084004 0.098338 255 220 0
0.587709 0.072208 0.042631 255 220 0
0.523614 -0.065199 0.061040 255 220 0
0.569762 -0.030500 0.028014 255 220 0
0.545681 -0.033895 0.070513 255 220 0
0.524167 0.059070 0.046225 255 220 0
0.579734 0.087620 0.095020 255 220 0
0.557133 -0.029022 0.068503 255 220 0
0.538995 0.067038 0.099140 255 220 0
0.540245 -0.026386 0.075546 255 220 0
0.568271 -0.003969 0.079328 255 220 0
0.537748 0.050115 0.027904 255 220 0
0.522011 0.070100 0.071811 255 220 0
0.576201 0.008168 0.020849 255 220 0
0.555992 -0.028969 0.020177 255 220 0
0.526965 0.013774 0.088050 255 220 0
0.548306 0.068124 0.102403 255 220 0
0.581612 0.074908 0.039517 255 220 0
0.532145 0.067906 0.042669 255 220 0
0.594663 0.014687 0.066921 255 220 0
0.530600 0.066233 0.043020 255 220 0
0.594408 0.003166 0.055138 255 220 0
0.549374 0.098621 0.070735 255 220 0
0.515303 -0.066349 0.055225 255 220 0
0.527974 0.057557 0.093937 255 220 0
0.533947 0.086230 0.071076 255 220 0
0.530796 0.082571 0.076984 255 220 0
0.531841 0.016985 0.090722 255 220 0
0.560363 -0.031906 0.064842 255 220 0
0.546534 0.092824 0.059112 255 220 0
0.545959 -0.007277 0.083282 255 220 0
0.587017 0.025070 0.027255 255 220 0
0.544066 -0.043878 0.023349 255 220 0
0.602345 0.054279 0.065646 255 220 0
0.597499 0.076570 0.060213 255 220 0
0.570054 0.046004 0.021611 255 220 0
0.588309 0.039499 0.029644 255 220 0
0.552796 -0.000587 0.085586 255 220 0
0.582774 0.045667 0.096291 255 220 0
0.600218 0.021905 0.055772 255 220 0
0.571040 -0.011714 0.073076 255 220 0
0.560111 0.067655 0.028959 255 220 0
0.602282 0.049565 0.068461 255 220 0
0.572421 0.056955 0.025952 255 220 0
0.567052 0.065371 0.028290 255 220 0
0.555076 -0.017898 0.016906 255 220 0
0.522109 0.023679 0.032993 255 220 0
0.577196 0.089674 0.095072 255 220 0
0.564911 0.041894 0.019539 255 220 0
0.551574 0.002376 0.087100 255 220 0
0.588598 0.058886 0.036204 255 220 0
0.543628 -0.043617 0.065830 255 220 0
0.575960 0.059450 0.102283 255 220 0
0.519452 0.065273 0.072710 255 220 0
0.507811 -0.014331 0.059855 255 220 0
0.552342 0.034304 0.099330 255 220 0
0.515460 -0.049370 0.033691 255 220 0
0.558046 -0.009021 0.015904 255 220 0
0.551154 0.069048 0.031518 255 220 0
0.589904 0.045544 0.090872 255 220 0
0.508537 -0.054053 0.063909 255 220 0
0.551312 -0.035888 0.066864 255 220 0
0.517734 -0.025246 0.073283 255 220 0
0.541377 0.072000 0.038605 255 220 0
0.514946 0.007244 0.038321 255 220 0
0.523723 -0.018344 0.076958 255 220 0
0.598402 0.052330 0.082355 255 220 0
0.561921 0.101206 0.085117 255 220 0
0.587774 0.084833 0.051952 255 220 0
0.594812 0.003028 0.053531 255 220 0
0.508211 -0.021067 0.062402 255 220 0
0.594347 0.013224 0.036071 255 220 0
0.588129 0.056283 0.095415 255 220 0
0.505739 -0.028365 0.052855 255 220 0
0.546027 0.094460 0.063316 255 220 0
0.552860 -0.039631 0.023176 255 220 0
0.531764 0.023417 0.092591 255 220 0
0.522014 -0.052760 0.069167 255 220 0
0.532428 0.016319 0.090673 255 220 0
0.513921 0.041153 0.053148 255 220 0
0.537586 -0.048785 0.025586 255 220 0
0.588297 -0.009453 0.053364 255 220 0
0.507891 -0.007025 0.052553 255 220 0
0.534607 0.006302 0.087776 255 220 0
0.573811 0.030105 0.020035 255 220 0
0.567295 0.032324 0.096836 255 220 0
0.522135 0.043362 0.039886 255 220 0
0.510546 0.033613 0.070847 255 220 0
0.518472 0.015703 0.035487 255 220 0
0.593749 0.067331 0.046501 255 220 0
0.593088 -0.001979 0.051166 255 220 0
0.566979 0.094452 0.051201 255 220 0
0.563105 -0.043762 0.044946 255 220 0
0.511799 0.033427 0.053868 255 220 0
0.557185 -0.037143 0.062796 255 220 0
0.507586 -0.059442 0.058272 255 220 0
0.529416 0.041429 0.095147 255 220 0
0.582055 0.064103 0.033624 255 220 0
0.562404 -0.044747 0.043761 255 220 0
0.518115 0.026230 0.039024 255 220 0
0.538094 0.079910 0.048997 255 220 0
0.551449 0.070169 0.032232 255 220 0
0.545047 -0.060104 0.042852 255 220 0
0.582611 0.043555 0.026334 255 220 0
0.588248 -0.004550 0.032146 255 220 0
0.512828 -0.022694 0.035053 255 220 0
0.554187 0.034212 0.099324 255 220 0
0.544773 0.072418 0.036982 255 220 0
0.540413 0.036013 0.021682 255 220 0
0.564893 0.007129 0.086427 255 220 0
0.554392 0.097466 0.059662 255 220 0
0.580514 0.085684 0.046874 255 220 0
0.554367 0.094353 0.091427 255 220 0
0.562566 0.063927 0.027197 255 220 0
0.587482 0.044827 0.092715 255 220 0
0.556072 0.068581 0.029910 255 220 0
0.598386 0.014557 0.048010 255 220 0
0.554202 0.088331 0.047258 255 220 0
0.599725 0.041628 0.075023 255 220 0
0.554914 0.048193 0.021123 255 220 0
0.550208 -0.035286 0.067751 255 220 0
0.518145 0.006794 0.033635 255 220 0
0.535745 -0.065417 0.045995 255 220 0
0.522904 0.007728 0.084360 255 220 0
0.587625 0.060493 0.096443 255 220 0
0.598481 0.079856 0.071910 255 220 0
0.563150 0.027416 0.095929 255 220 0
0.598041 0.053581 0.046072 255 220 0
0.593185 0.012023 0.067103 255 220 0
0.512303 0.031374 0.077472 255 220 0
0.549267 0.044453 0.101668 255 220 0
0.523114 0.052605 0.043367 255 220 0
0.584870 0.095562 0.084983 255 220 0
0.529782 -0.061155 0.062884 255 220 0
0.556225 0.041917 0.019119 255 220 0
0.544118 0.095408 0.070841 255 220 0
0.541410 0.091766 0.065215 255 220 0
0.510281 -0.062930 0.057008 255 220 0
0.602354 0.034121 0.060237 255 220 0
0.561718 0.103197 0.079534 255 220 0
0.585780 -0.014215 0.034850 255 220 0
0.546718 0.086222 0.049008 255 220 0
0.529826 -0.016828 0.020896 255 220 0
0.551224 0.066725 0.103231 255 220 0
0.577922 0.014783 0.021473 255 220 0
0.573508 0.016241 0.019322 255 220 0
0.585775 0.042679 0.093245 255 220 0
0.571005 -0.007749 0.075701 255 220 0
0.543291 -0.037511 0.069438 255 220 0
0.575513 0.015897 0.087076 255 220 0
0.582294 0.067889 0.099931 255 220 0
0.551545 0.099499 0.068945 255 220 0
0.601786 0.045404 0.070205 255 220 0
0.521229 0.015123 0.085460 255 220 0
0.542180 -0.015624 0.079865 255 220 0
0.508432 0.002608 0.057719 255 220 0
0.549117 -0.050265 0.057464 255 220 0
0.564228 -0.005669 0.079843 255 220 0
0.533617 -0.037541 0.072097 255 220 0
0.568539 0.032858 0.018709 255 220 0
0.522096 0.033868 0.036159 255 220 0
0.568718 -0.013273 0.020458 255 220 0
0.601969 0.042103 0.052381 255 220 0
0.565972 -0.030649 0.025383 255 220 0
0.556918 -0.011125 0.015994 255 220 0
0.578701 0.091530 0.051380 255 220 0
0.531680 -0.046852 0.068970 255 220 0
0.522576 0.064294 0.054673 255 220 0
0.547149 -0.033771 0.019848 255 220 0
0.586075 0.056736 0.033100 255 220 0
0.517487 0.059286 0.076533 255 220 0
0.555616 -0.014199 0.077802 255 220 0
0.514157 -0.065357 0.057393 255 220 0
0.530452 -0.015942 0.079163 255 220 0
0.575699 0.079629 0.100114 255 220 0
0.557991 0.082836 0.100385 255 220 0
0.566478 -0.013473 0.019529 255 220 0
0.572000 -0.000136 0.019521 255 220 0
0.562980 0.081825 0.038685 255 220 0
