ply
format ascii 1.0
element vertex 1024
property float x
property float y
property float z
property uchar red
property uchar green
property uchar blue
end_header
0.499558 -0.063363 0.045251 255 220 0
0.515932 0.057637 0.030833 255 220 0
0.576217 0.018586 0.041368 255 220 0
0.536861 0.004306 0.015711 255 220 0
0.521930 0.028709 0.096727 255 220 0
0.571175 0.060177 0.091039 255 220 0
0.533034 0.017760 0.093097 255 220 0
0.554573 0.005002 0.080367 255 220 0
0.578182 0.022164 0.060504 255 220 0
0.549444 0.064076 0.103672 255 220 0
0.517876 -0.053049 0.065397 255 220 0
0.565632 0.099296 0.073365 255 220 0
0.503579 0.069735 0.053070 255 220 0
0.495449 -0.006725 0.074988 255 220 0
0.540211 0.067224 0.104577 255 220 0
0.516696 -0.059633 0.035522 255 220 0
0.516235 0.039642 0.024342 255 220 0
0.555072 0.000221 0.077197 255 220 0
0.505182 -0.005426 0.025592 255 220 0
0.546793 -0.036846 0.032364 255 220 0
0.580945 0.048390 0.066671 255 220 0
0.552867 -0.003648 0.076260 255 220 0
0.497235 -0.061218 0.043774 255 220 0
0.560499 -0.021855 0.047304 255 220 0
0.540303 0.101785 0.089751 255 220 0
0.551676 0.090445 0.097423 255 220 0
0.573268 0.012958 0.036003 255 220 0
0.492850 0.053615 0.067695 255 220 0
0.511096 -0.062742 0.062038 255 220 0
0.546340 0.017657 0.017681 255 220 0
0.558555 -0.018952 0.057716 255 220 0
0.521940 -0.009054 0.082854 255 220 0
0.553584 0.105261 0.081999 255 220 0
0.519039 -0.044867 0.025980 255 220 0
0.563652 0.074422 0.040576 255 220 0
0.543031 -0.042550 0.034478 255 220 0
0.559370 -0.018989 0.056089 255 220 0
0.567614 0.017970 0.076417 255 220 0
0.501908 -0.022491 0.076229 255 220 0
0.529832 0.057655 0.103858 255 220 0
0.490612 0.032704 0.076091 255 220 0
0.535316 0.058392 0.024272 255 220 0
0.558018 0.104931 0.071033 255 220 0
0.506670 0.074177 0.089434 255 220 0
0.530871 0.100058 0.087156 255 220 0
0.540737 0.061292 0.025326 255 220 0
0.537793 0.023298 0.094653 255 220 0
0.508826 0.033131 0.094475 255 220 0
0.580362 0.047939 0.052576 255 220 0
0.536781 -0.012152 0.078364 255 220 0
0.564838 0.035568 0.088740 255 220 0
0.497742 0.058857 0.084700 255 220 0
0.570216 0.002619 0.033962 255 220 0
0.489395 0.004988 0.066308 255 220 0
0.520398 -0.059200 0.035536 255 220 0
0.541662 -0.018725 0.072680 255 220 0
0.558023 0.027487 0.022471 255 220 0
0.489983 -0.031218 0.042228 255 220 0
0.503613 0.040591 0.092814 255 220 0
0.524597 -0.058532 0.053597 255 220 0
0.495014 0.057200 0.078439 255 220 0
0.547411 0.049103 0.101489 255 220 0
0.570008 0.038783 0.032121 255 220 0
0.531804 0.066392 0.104207 255 220 0
0.551073 0.097818 0.093113 255 220 0
0.519634 -0.038655 0.023412 255 220 0
0.559878 -0.021268 0.034800 255 220 0
0.563286 0.080475 0.044238 255 220 0
0.502590 0.066895 0.088639 255 220 0
0.550785 0.098125 0.092966 255 220 0
0.522176 0.009381 0.090052 255 220 0
0.513067 0.087793 0.085479 255 220 0
0.556796 0.055559 0.027077 255 220 0
0.524172 -0.035338 0.022036 255 220 0
0.559644 0.030316 0.090238 255 220 0
0.554894 -0.025799 0.031785 255 220 0
0.543381 0.064331 0.026748 255 220 0
0.521768 0.049041 0.101536 255 220 0
0.570887 -0.002837 0.052138 255 220 0
0.561415 0.092983 0.053173 255 220 0
0.528520 0.053518 0.103282 255 220 0
0.545033 0.108099 0.074315 255 220 0
0.522590 0.098300 0.080950 255 220 0
0.547322 -0.020564 0.068521 255 220 0
0.531534 0.028925 0.097341 255 220 0
0.563957 0.096363 0.059693 255 220 0
0.519711 0.014198 0.018583 255 220 0
0.513024 0.013641 0.090317 255 220 0
0.525938 0.036161 0.019337 255 220 0
0.549352 -0.015806 0.070540 255 220 0
0.550529 0.043565 0.021363 255 220 0
0.511295 0.043592 0.097344 255 220 0
0.504943 -0.012983 0.025511 255 220 0
0.561375 0.005366 0.075122 255 220 0
0.541723 0.083736 0.101660 255 220 0
0.521455 0.095812 0.063729 255 220 0
0.503007 -0.001430 0.027777 255 220 0
0.495342 0.029094 0.084354 255 220 0
0.519683 0.045201 0.024099 255 220 0
0.498573 -0.052242 0.036068 255 220 0
0.524314 0.089039 0.049488 255 220 0
0.571807 0.071988 0.090611 255 220 0
0.544278 -0.031709 0.062009 255 220 0
0.518585 0.037515 0.022522 255 220 0
0.506431 0.072093 0.090476 255 220 0
0.534562 0.104118 0.065019 255 220 0
0.546702 -0.020373 0.069050 255 220 0
0.502257 -0.027935 0.027804 255 220 0
0.512878 -0.059807 0.035844 255 220 0
0.532619 0.080294 0.101995 255 220 0
0.565749 0.079538 0.094737 255 220 0
0.512113 0.055975 0.098513 255 220 0
0.531330 0.079755 0.101907 255 220 0
0.500517 0.049538 0.090474 255 220 0
0.501088 -0.058182 0.037932 255 220 0
0.493653 -0.023715 0.070680 255 220 0
0.542524 0.056116 0.023419 255 220 0
0.516800 0.087774 0.090651 255 220 0
0.556036 0.073624 0.101557 255 220 0
0.514784 0.044668 0.026721 255 220 0
0.565287 -0.015040 0.046331 255 220 0
0.490121 0.034651 0.073981 255 220 0
0.519416 0.092462 0.060177 255 220 0
0.558521 -0.012141 0.027197 255 220 0
0.513165 0.087915 0.085475 255 220 0
0.534490 0.009187 0.015566 255 220 0
0.488316 -0.028092 0.062084 255 220 0
0.527669 0.092587 0.051348 255 220 0
0.577801 0.019039 0.047334 255 220 0
0.490877 0.032018 0.053500 255 220 0
0.572160 0.025574 0.075506 255 220 0
0.552963 0.090532 0.096963 255 220 0
0.512970 0.080616 0.092406 255 220 0
0.514647 -0.064472 0.042041 255 220 0
0.581099 0.038645 0.062329 255 220 0
0.564228 0.098270 0.082635 255 220 0
0.488469 -0.023036 0.061736 255 220 0
0.545359 0.065879 0.104286 255 220 0
0.554225 0.100504 0.057092 255 220 0
0.564883 0.055491 0.095758 255 220 0
0.576188 0.029698 0.040506 255 220 0
0.511394 0.010956 0.089044 255 220 0
0.503515 0.038559 0.034840 255 220 0
0.542360 0.004604 0.085282 255 220 0
0.529927 -0.042963 0.063839 255 220 0
0.513095 0.068405 0.097554 255 220 0
0.523119 0.056269 0.102609 255 220 0
0.496646 0.044048 0.046670 255 220 0
0.508563 -0.014805 0.079772 255 220 0
0.531867 0.027137 0.096706 255 220 0
0.497968 -0.007944 0.032499 255 220 0
0.536609 0.021480 0.016368 255 220 0
0.490121 -0.034401 0.041827 255 220 0
0.526002 -0.023892 0.018897 255 220 0
0.543219 -0.030306 0.025271 255 220 0
0.567709 0.002440 0.030889 255 220 0
0.569688 0.066689 0.093205 255 220 0
0.496322 0.061684 0.062451 255 220 0
0.518357 0.009149 0.018723 255 220 0
0.551609 0.009108 0.084215 255 220 0
0.535672 -0.037854 0.063666 255 220 0
0.530259 -0.055728 0.039414 255 220 0
0.509044 -0.024148 0.077387 255 220 0
0.520682 0.014503 0.018246 255 220 0
0.555199 0.095352 0.093239 255 220 0
0.508064 -0.066800 0.050832 255 220 0
0.508943 -0.045580 0.071698 255 220 0
0.559132 0.014028 0.023155 255 220 0
0.515957 -0.033676 0.022533 255 220 0
0.533271 0.037679 0.018314 255 220 0
0.547105 0.030293 0.018620 255 220 0
0.526627 -0.057200 0.036151 255 220 0
0.562480 -0.015522 0.033099 255 220 0
0.556960 0.052555 0.099568 255 220 0
0.508224 0.084743 0.075108 255 220 0
0.527476 0.033972 0.098894 255 220 0
0.556585 0.024369 0.089278 255 220 0
0.510629 0.037452 0.027574 255 220 0
0.520397 0.002322 0.017682 255 220 0
0.550055 -0.031840 0.053953 255 220 0
0.534411 0.040721 0.100933 255 220 0
0.546830 0.032216 0.018727 255 220 0
0.534690 0.077502 0.034380 255 220 0
0.489829 -0.002267 0.047913 255 220 0
0.537472 0.053505 0.103716 255 220 0
0.549324 0.021054 0.090647 255 220 0
0.536761 -0.050182 0.041234 255 220 0
0.555749 0.079401 0.038526 255 220 0
0.574168 0.068545 0.087987 255 220 0
0.488504 -0.027886 0.062574 255 220 0
0.494658 -0.037998 0.035502 255 220 0
0.544900 -0.013382 0.020265 255 220 0
0.557256 0.099234 0.088869 255 220 0
0.544721 0.046616 0.020695 255 220 0
0.554803 0.045220 0.023204 255 220 0
0.541541 -0.031512 0.064383 255 220 0
0.505024 -0.045957 0.029812 255 220 0
0.535447 0.083659 0.039089 255 220 0
0.558935 0.022295 0.022865 255 220 0
0.533690 0.040005 0.018734 255 220 0
0.522575 -0.020703 0.078137 255 220 0
0.558355 0.041319 0.024034 255 220 0
0.544972 0.105441 0.084831 255 220 0
0.580998 0.052986 0.064403 255 220 0
0.541779 0.038647 0.018660 255 220 0
0.574481 0.033688 0.037329 255 220 0
0.561764 0.006829 0.075685 255 220 0
0.528188 -0.045049 0.063582 255 220 0
0.496780 0.050417 0.049834 255 220 0
0.556319 0.016828 0.085769 255 220 0
0.500618 0.009832 0.084267 255 220 0
0.539718 0.068486 0.104523 255 220 0
0.550207 0.045942 0.021784 255 220 0
0.490690 0.030105 0.076555 255 220 0
0.580640 0.053423 0.068566 255 220 0
0.492082 -0.014803 0.040117 255 220 0
0.547885 -0.004353 0.078439 255 220 0
0.533092 -0.008139 0.081668 255 220 0
0.557730 0.037768 0.094369 255 220 0
0.577685 0.037450 0.073200 255 220 0
0.570593 0.066139 0.042543 255 220 0
0.498837 0.068404 0.078964 255 220 0
0.554242 0.005672 0.021070 255 220 0
0.535788 0.072937 0.030992 255 220 0
0.560831 0.057753 0.030102 255 220 0
0.520255 -0.039332 0.023594 255 220 0
0.558738 0.099419 0.058518 255 220 0
0.571311 -0.004152 0.045660 255 220 0
0.567530 0.094847 0.063141 255 220 0
0.509293 0.054719 0.034870 255 220 0
0.556835 -0.009652 0.069052 255 220 0
0.548535 0.044372 0.020983 255 220 0
0.500346 0.016789 0.033449 255 220 0
0.556779 0.053901 0.026499 255 220 0
0.572412 0.023722 0.034084 255 220 0
0.570012 0.080316 0.051031 255 220 0
0.581249 0.044179 0.063810 255 220 0
0.533043 0.066521 0.027948 255 220 0
0.572152 0.072851 0.090048 255 220 0
0.555862 0.037749 0.095142 255 220 0
0.550569 0.072307 0.031974 255 220 0
0.513848 0.005505 0.087665 255 220 0
0.505937 0.081123 0.077967 255 220 0
0.500624 0.034003 0.089890 255 220 0
0.511814 0.075321 0.046051 255 220 0
0.521028 0.028576 0.019701 255 220 0
0.532834 0.006309 0.015515 255 220 0
0.488020 -0.021447 0.049855 255 220 0
0.495756 0.046664 0.049666 255 220 0
0.531360 0.001435 0.015614 255 220 0
0.544075 0.014388 0.089316 255 220 0
0.508835 -0.017690 0.023115 255 220 0
0.564716 0.051509 0.094898 255 220 0
0.516311 0.032746 0.022652 255 220 0
0.572227 0.090517 0.076107 255 220 0
0.546586 -0.032025 0.059202 255 220 0
0.570755 0.046433 0.087634 255 220 0
0.493603 0.036081 0.048857 255 220 0
0.534798 -0.051676 0.037578 255 220 0
0.559688 0.004199 0.075984 255 220 0
0.533954 0.061196 0.025516 255 220 0
0.529388 0.065665 0.103904 255 220 0
0.549490 -0.034694 0.049428 255 220 0
0.553738 0.097508 0.053316 255 220 0
0.525457 -0.054514 0.058569 255 220 0
0.501572 0.059798 0.047324 255 220 0
0.543483 0.054135 0.103370 255 220 0
0.499253 0.013509 0.034176 255 220 0
0.489506 0.001616 0.050095 255 220 0
0.503211 -0.033329 0.027727 255 220 0
0.504624 -0.065477 0.060235 255 220 0
0.486815 -0.038128 0.050406 255 220 0
0.491362 0.028324 0.050893 255 220 0
0.488060 -0.016426 0.058527 255 220 0
0.527071 0.074796 0.035108 255 220 0
0.528167 0.044664 0.101719 255 220 0
0.501399 0.054689 0.044324 255 220 0
0.551025 -0.032745 0.033978 255 220 0
0.578957 0.040532 0.071675 255 220 0
0.532903 -0.048443 0.030064 255 220 0
0.530902 0.095380 0.093100 255 220 0
0.517592 0.067304 0.035039 255 220 0
0.548429 0.053951 0.023578 255 220 0
0.505197 -0.004385 0.025639 255 220 0
0.571082 0.012178 0.032971 255 220 0
0.560676 0.092657 0.091875 255 220 0
0.550977 0.075491 0.033931 255 220 0
0.538429 -0.005024 0.016652 255 220 0
0.504144 -0.065636 0.059915 255 220 0
0.514749 0.027265 0.094962 255 220 0
0.513883 0.026762 0.094606 255 220 0
0.564483 0.038712 0.090432 255 220 0
0.489102 0.002255 0.052180 255 220 0
0.533588 0.034153 0.099011 255 220 0
0.495731 0.045877 0.049292 255 220 0
0.568211 0.027495 0.081414 255 220 0
0.530604 0.019255 0.093847 255 220 0
0.498092 0.028837 0.039133 255 220 0
0.529422 0.057452 0.103797 255 220 0
0.568229 0.074452 0.044851 255 220 0
0.558189 0.061771 0.030238 255 220 0
0.564283 0.033556 0.026631 255 220 0
0.501497 0.062396 0.089223 255 220 0
0.514179 0.091587 0.079385 255 220 0
0.566947 0.080738 0.047753 255 220 0
0.570345 -0.005422 0.040652 255 220 0
0.514990 0.029954 0.095770 255 220 0
0.575091 0.067636 0.050289 255 220 0
0.559459 -0.008739 0.066937 255 220 0
0.509754 0.077073 0.050991 255 220 0
0.508572 0.083765 0.081735 255 220 0
0.551185 -0.034196 0.037955 255 220 0
0.530160 -0.054291 0.051372 255 220 0
0.544354 0.006233 0.085440 255 220 0
0.505493 0.012133 0.087502 255 220 0
0.499989 -0.035678 0.030314 255 220 0
0.532402 0.099480 0.057704 255 220 0
0.518685 0.043094 0.099783 255 220 0
0.545691 0.046346 0.101102 255 220 0
0.500085 0.060956 0.087826 255 220 0
0.510544 0.082236 0.057820 255 220 0
0.557406 0.049964 0.098676 255 220 0
0.527652 0.048362 0.102388 255 220 0
0.530928 0.059289 0.025184 255 220 0
0.579867 0.064142 0.070964 255 220 0
0.498698 -0.057758 0.068175 255 220 0
0.537554 0.001877 0.085411 255 220 0
0.515583 0.007727 0.019844 255 220 0
0.548738 -0.012414 0.073148 255 220 0
0.518029 0.084913 0.050200 255 220 0
0.541094 0.019527 0.016652 255 220 0
0.557662 -0.017330 0.061172 255 220 0
0.494268 -0.060066 0.064131 255 220 0
0.540966 0.017064 0.016487 255 220 0
0.571184 0.069982 0.091569 255 220 0
0.540601 0.106268 0.081236 255 220 0
0.518408 -0.050129 0.028764 255 220 0
0.524241 -0.027364 0.019791 255 220 0
0.537838 -0.023426 0.071659 255 220 0
0.506259 -0.065254 0.044390 255 220 0
0.538272 -0.029698 0.022786 255 220 0
0.570348 0.057480 0.091378 255 220 0
0.512305 0.019564 0.092059 255 220 0
0.488913 -0.035715 0.064642 255 220 0
0.511757 0.048985 0.030381 255 220 0
0.525495 -0.058779 0.038479 255 220 0
0.559423 -0.010713 0.065261 255 220 0
0.529405 0.048000 0.102495 255 220 0
0.575984 0.026488 0.070142 255 220 0
0.499761 -0.031318 0.074091 255 220 0
0.571168 0.065329 0.091653 255 220 0
0.505074 -0.010755 0.079995 255 220 0
0.506715 0.075549 0.054611 255 220 0
0.503136 0.058137 0.092080 255 220 0
0.579395 0.068479 0.068125 255 220 0
0.527163 -0.003065 0.085068 255 220 0
0.498238 0.063461 0.058326 255 220 0
0.555666 0.077834 0.100905 255 220 0
0.496759 0.010400 0.036982 255 220 0
0.525258 0.003562 0.087896 255 220 0
0.541221 -0.040890 0.055039 255 220 0
0.540991 0.093765 0.096992 255 220 0
0.532329 0.066954 0.104235 255 220 0
0.519233 -0.047292 0.067438 255 220 0
0.534971 0.080411 0.102310 255 220 0
0.492097 -0.013461 0.040298 255 220 0
0.529949 0.057434 0.103855 255 220 0
0.512840 0.039153 0.097236 255 220 0
0.577786 0.040928 0.074577 255 220 0
0.494680 0.011275 0.040384 255 220 0
0.540303 -0.018008 0.073699 255 220 0
0.510353 0.075708 0.092731 255 220 0
0.510574 0.050453 0.097627 255 220 0
0.552475 -0.011619 0.023280 255 220 0
0.503979 0.037167 0.092654 255 220 0
0.579338 0.066521 0.063730 255 220 0
0.497246 0.022723 0.038860 255 220 0
0.543920 -0.006228 0.018337 255 220 0
0.520537 -0.052579 0.064025 255 220 0
0.557060 -0.013219 0.065918 255 220 0
0.567851 0.053914 0.092949 255 220 0
0.578287 0.056111 0.050163 255 220 0
0.510038 0.013590 0.023586 255 220 0
0.502261 -0.009592 0.079180 255 220 0
0.498788 0.061098 0.085643 255 220 0
0.556768 -0.018776 0.060883 255 220 0
0.559544 0.026659 0.023262 255 220 0
0.563749 0.061779 0.033792 255 220 0
0.560704 0.103141 0.077037 255 220 0
0.496799 0.043234 0.046041 255 220 0
0.580782 0.040894 0.052952 255 220 0
0.579350 0.058521 0.075590 255 220 0
0.531888 -0.039213 0.065112 255 220 0
0.577086 0.014236 0.054496 255 220 0
0.501062 -0.032880 0.074263 255 220 0
0.525543 0.080973 0.040892 255 220 0
0.508738 0.039996 0.095677 255 220 0
0.554441 -0.020674 0.061999 255 220 0
0.574125 0.030969 0.075941 255 220 0
0.488141 -0.037695 0.063374 255 220 0
0.519043 -0.057459 0.033751 255 220 0
0.494488 0.055440 0.060189 255 220 0
0.525105 0.081318 0.099645 255 220 0
0.505827 -0.023397 0.025179 255 220 0
0.531660 -0.009623 0.081306 255 220 0
0.507860 0.083879 0.070739 255 220 0
0.520853 0.076407 0.039681 255 220 0
0.516516 0.073708 0.098202 255 220 0
0.495609 -0.051156 0.038011 255 220 0
0.542390 0.060724 0.025193 255 220 0
0.529345 0.030641 0.017664 255 220 0
0.581421 0.042208 0.060762 255 220 0
0.544612 0.053665 0.022770 255 220 0
0.531185 -0.045711 0.060926 255 220 0
0.564316 0.090883 0.053675 255 220 0
0.562293 0.024566 0.024865 255 220 0
0.497203 0.065640 0.067577 255 220 0
0.504161 0.071706 0.087730 255 220 0
0.521731 0.075520 0.038448 255 220 0
0.530888 0.051943 0.103294 255 220 0
0.552225 0.107274 0.073809 255 220 0
0.508097 -0.048900 0.070988 255 220 0
0.495241 0.013106 0.039861 255 220 0
0.534527 0.094086 0.049456 255 220 0
0.563052 0.089451 0.051179 255 220 0
0.542486 0.105756 0.063486 255 220 0
0.565614 0.037077 0.027994 255 220 0
0.570737 -0.003182 0.038659 255 220 0
0.546585 0.032125 0.018658 255 220 0
0.566923 0.052389 0.032616 255 220 0
0.566496 0.032333 0.028230 255 220 0
0.518855 0.095024 0.082810 255 220 0
0.512730 0.004480 0.021120 255 220 0
0.579415 0.052160 0.051192 255 220 0
0.526659 -0.021380 0.077016 255 220 0
0.505992 -0.014257 0.024771 255 220 0
0.540506 0.090745 0.098673 255 220 0
0.507247 0.020349 0.026774 255 220 0
0.496392 -0.029535 0.033057 255 220 0
0.566978 0.077036 0.045222 255 220 0
0.494510 0.058957 0.067997 255 220 0
0.572772 0.004575 0.057068 255 220 0
0.544508 0.058103 0.103887 255 220 0
0.546439 0.104628 0.086406 255 220 0
0.505359 -0.003090 0.025602 255 220 0
0.527347 -0.032674 0.021277 255 220 0
0.571001 0.083003 0.087732 255 220 0
0.535912 -0.049195 0.033607 255 220 0
0.521279 0.002927 0.087549 255 220 0
0.563817 0.000021 0.027785 255 220 0
0.567133 0.002805 0.065987 255 220 0
0.498776 0.069379 0.069812 255 220 0
0.564609 0.028334 0.026549 255 220 0
0.506859 -0.016632 0.078918 255 220 0
0.501296 -0.062395 0.042139 255 220 0
0.493505 -0.027637 0.036596 255 220 0
0.530917 0.078104 0.036096 255 220 0
0.562172 0.092086 0.052904 255 220 0
0.556267 0.025690 0.021554 255 220 0
0.537646 0.033555 0.017587 255 220 0
0.516767 0.090646 0.061314 255 220 0
0.497600 0.066675 0.076033 255 220 0
0.573836 0.006272 0.056197 255 220 0
0.563608 -0.015225 0.052362 255 220 0
0.520388 0.004828 0.017745 255 220 0
0.569695 0.047479 0.089161 255 220 0
0.558587 0.026773 0.089272 255 220 0
0.539066 0.106942 0.076562 255 220 0
0.504380 -0.064663 0.044218 255 220 0
0.491039 -0.025225 0.067373 255 220 0
0.502239 0.075731 0.075314 255 220 0
0.529709 0.099705 0.060402 255 220 0
0.509100 0.061259 0.038384 255 220 0
0.567983 0.057603 0.093683 255 220 0
0.566379 0.098489 0.071445 255 220 0
0.542201 0.100049 0.092150 255 220 0
0.581288 0.048707 0.059624 255 220 0
0.487402 -0.051748 0.060741 255 220 0
0.498765 -0.004991 0.031866 255 220 0
0.551734 -0.015736 0.068916 255 220 0
0.574115 0.023365 0.036646 255 220 0
0.539999 0.107065 0.077359 255 220 0
0.497025 0.009419 0.081440 255 220 0
0.513797 -0.005417 0.083746 255 220 0
0.499112 -0.049902 0.034654 255 220 0
0.505579 0.038671 0.032568 255 220 0
0.492231 0.032586 0.050385 255 220 0
0.491110 -0.056906 0.063788 255 220 0
0.527673 0.089236 0.047553 255 220 0
0.506984 -0.005240 0.024252 255 220 0
0.536369 -0.045762 0.055271 255 220 0
0.576251 0.082068 0.068355 255 220 0
0.487387 -0.033965 0.048884 255 220 0
0.512122 0.041528 0.027593 255 220 0
0.564526 -0.011006 0.056578 255 220 0
0.575751 0.083727 0.069450 255 220 0
0.509160 -0.012402 0.080602 255 220 0
0.495157 -0.021570 0.034725 255 220 0
0.506923 -0.012707 0.079987 255 220 0
0.543227 -0.035858 0.028064 255 220 0
0.533980 -0.024106 0.072978 255 220 0
0.507430 0.083541 0.076507 255 220 0
0.504723 0.064994 0.046187 255 220 0
0.573607 0.001295 0.046468 255 220 0
0.519095 0.077059 0.041339 255 220 0
0.571262 0.067934 0.044447 255 220 0
0.493909 0.035695 0.048135 255 220 0
0.520047 0.097236 0.072941 255 220 0
0.543381 0.071839 0.104145 255 220 0
0.565530 -0.013960 0.048670 255 220 0
0.488586 0.024949 0.060266 255 220 0
0.577227 0.034947 0.072886 255 220 0
0.573130 0.050212 0.038422 255 220 0
0.489283 -0.028930 0.044047 255 220 0
0.507702 0.055177 0.036648 255 220 0
0.543315 -0.029357 0.024909 255 220 0
0.533473 0.057201 0.104123 255 220 0
0.554563 0.081406 0.100292 255 220 0
0.548998 0.058720 0.025432 255 220 0
0.534106 0.023694 0.016525 255 220 0
0.551450 0.057539 0.102503 255 220 0
0.554233 0.102756 0.060216 255 220 0
0.554607 -0.029528 0.046810 255 220 0
0.532182 0.104277 0.076981 255 220 0
0.556653 0.077891 0.100518 255 220 0
0.579258 0.037692 0.047413 255 220 0
0.539378 0.065927 0.027217 255 220 0
0.488613 0.015869 0.058468 255 220 0
0.519863 0.091963 0.058535 255 220 0
0.508552 0.010871 0.024371 255 220 0
0.577502 0.031831 0.043381 255 220 0
0.524591 -0.054172 0.031755 255 220 0
0.578914 0.056265 0.052106 255 220 0
0.514801 -0.048977 0.068757 255 220 0
0.487750 -0.017910 0.055354 255 220 0
0.490111 -0.016429 0.043976 255 220 0
0.536262 -0.040722 0.060926 255 220 0
0.562082 0.102106 0.077173 255 220 0
0.552155 0.019659 0.019646 255 220 0
0.564701 0.100107 0.075080 255 220 0
0.564585 0.095372 0.086003 255 220 0
0.502805 0.057826 0.044057 255 220 0
0.536843 0.068258 0.028339 255 220 0
0.496167 0.051756 0.084233 255 220 0
0.522628 0.049639 0.101809 255 220 0
0.534670 0.098747 0.055235 255 220 0
0.576557 0.017708 0.061218 255 220 0
0.492501 0.013468 0.077331 255 220 0
0.578753 0.066816 0.060373 255 220 0
0.546103 0.106825 0.065533 255 220 0
0.491782 0.045646 0.075062 255 220 0
0.579575 0.065428 0.064332 255 220 0
0.575609 0.065818 0.050135 255 220 0
0.544780 0.023846 0.017589 255 220 0
0.547287 -0.033577 0.056157 255 220 0
0.571106 0.055094 0.037804 255 220 0
0.520191 -0.046764 0.067205 255 220 0
0.557900 0.059722 0.100651 255 220 0
0.543689 -0.012927 0.019680 255 220 0
0.565426 -0.011916 0.034941 255 220 0
0.507759 -0.042734 0.027582 255 220 0
0.555759 0.002117 0.022243 255 220 0
0.491935 0.006829 0.074147 255 220 0
0.535968 -0.034413 0.065882 255 220 0
0.497066 -0.040353 0.071820 255 220 0
0.500379 0.069334 0.082700 255 220 0
0.573635 0.073406 0.051513 255 220 0
0.573034 0.007092 0.059214 255 220 0
0.575655 0.063704 0.048863 255 220 0
0.570685 0.069257 0.044511 255 220 0
0.564198 0.023045 0.082994 255 220 0
0.520624 -0.021846 0.019181 255 220 0
0.568315 0.044301 0.089353 255 220 0
0.507754 -0.008465 0.023632 255 220 0
0.550693 0.073333 0.103077 255 220 0
0.519639 0.002125 0.087131 255 220 0
0.494360 0.032112 0.083403 255 220 0
0.546661 0.003170 0.083102 255 220 0
0.513957 0.074115 0.096423 255 220 0
0.560456 -0.012838 0.029086 255 220 0
0.547863 0.062226 0.026559 255 220 0
0.552315 0.094275 0.095108 255 220 0
0.499880 -0.022082 0.075439 255 220 0
0.531640 -0.029140 0.071243 255 220 0
0.490201 -0.048407 0.066306 255 220 0
0.544484 0.086986 0.040724 255 220 0
0.517889 0.092230 0.062445 255 220 0
0.553865 0.103069 0.060507 255 220 0
0.571853 0.090138 0.078872 255 220 0
0.529219 -0.027834 0.073012 255 220 0
0.514429 0.050677 0.029036 255 220 0
0.534370 0.027070 0.016826 255 220 0
0.512980 0.002013 0.020867 255 220 0
0.574561 0.020878 0.068546 255 220 0
0.527151 -0.012284 0.016861 255 220 0
0.526019 -0.001819 0.016261 255 220 0
0.567485 0.018093 0.076649 255 220 0
0.490940 0.025565 0.051128 255 220 0
0.551385 -0.033974 0.038055 255 220 0
0.571610 0.043697 0.085556 255 220 0
0.535672 0.085666 0.100599 255 220 0
0.533244 0.010142 0.089989 255 220 0
0.522906 -0.040373 0.069119 255 220 0
0.571246 0.074232 0.090855 255 220 0
0.524236 0.030970 0.018921 255 220 0
0.556798 -0.010055 0.068777 255 220 0
0.499378 0.064492 0.084814 255 220 0
0.534756 0.033723 0.098806 255 220 0
0.520504 0.078039 0.041243 255 220 0
0.495107 0.058140 0.061646 255 220 0
0.505938 0.064716 0.044220 255 220 0
0.564896 -0.014961 0.048681 255 220 0
0.580018 0.048822 0.051594 255 220 0
0.561544 -0.020800 0.045752 255 220 0
0.562235 0.077648 0.097779 255 220 0
0.529693 0.060234 0.103988 255 220 0
0.578336 0.045460 0.075166 255 220 0
0.567713 0.096280 0.067091 255 220 0
0.561321 0.010218 0.024721 255 220 0
0.557944 -0.022042 0.032368 255 220 0
0.550038 -0.027020 0.060608 255 220 0
0.488856 0.032125 0.067330 255 220 0
0.552585 0.079565 0.037138 255 220 0
0.527706 -0.002370 0.085320 255 220 0
0.510374 0.072747 0.045229 255 220 0
0.516276 -0.009962 0.019298 255 220 0
0.564674 0.049618 0.029882 255 220 0
0.551668 0.032618 0.020134 255 220 0
0.547943 0.100374 0.054979 255 220 0
0.575630 0.067729 0.085785 255 220 0
0.521182 0.004415 0.088117 255 220 0
0.577070 0.079658 0.074743 255 220 0
0.523521 0.075148 0.037158 255 220 0
0.540295 0.055723 0.023147 255 220 0
0.575195 0.040739 0.079253 255 220 0
0.566199 0.036173 0.087825 255 220 0
0.507826 0.049576 0.034103 255 220 0
0.534711 0.082957 0.038731 255 220 0
0.498523 0.055438 0.049701 255 220 0
0.572483 0.090516 0.070388 255 220 0
0.550912 0.032802 0.019905 255 220 0
0.527547 0.014260 0.016418 255 220 0
0.494723 0.012283 0.079961 255 220 0
0.573999 0.046284 0.038387 255 220 0
0.549565 -0.026542 0.061687 255 220 0
0.506215 0.079061 0.062553 255 220 0
0.506304 -0.049790 0.030874 255 220 0
0.487590 -0.023883 0.051421 255 220 0
0.549376 -0.033250 0.052801 255 220 0
0.509485 0.085367 0.068090 255 220 0
0.564491 0.000694 0.068092 255 220 0
0.548850 0.058144 0.103201 255 220 0
0.531773 0.014872 0.015949 255 220 0
0.577156 0.021220 0.063106 255 220 0
0.528131 -0.057238 0.047251 255 220 0
0.545543 0.053016 0.022686 255 220 0
0.548930 0.023305 0.018636 255 220 0
0.567498 0.053861 0.093254 255 220 0
0.530869 0.012780 0.015881 255 220 0
0.501935 -0.065181 0.060867 255 220 0
0.519187 -0.025400 0.076743 255 220 0
0.563678 -0.006420 0.029431 255 220 0
0.534698 0.095001 0.050428 255 220 0
0.492425 0.032023 0.080330 255 220 0
0.550765 0.091131 0.097341 255 220 0
0.536949 0.101744 0.088408 255 220 0
0.520162 -0.026334 0.076245 255 220 0
0.541326 0.033467 0.017872 255 220 0
0.558185 0.020084 0.086266 255 220 0
0.537259 0.013956 0.015898 255 220 0
0.561185 -0.016478 0.056040 255 220 0
0.568659 0.095957 0.073176 255 220 0
0.560782 0.101894 0.065353 255 220 0
0.563717 0.100831 0.076595 255 220 0
0.540617 0.105209 0.084079 255 220 0
0.538332 -0.036555 0.062749 255 220 0
0.557679 0.090585 0.094916 255 220 0
0.534488 -0.001952 0.015819 255 220 0
0.501448 0.000237 0.081783 255 220 0
0.503598 -0.042358 0.072846 255 220 0
0.493614 0.028348 0.046249 255 220 0
0.572260 0.006547 0.035859 255 220 0
0.561069 0.099136 0.060344 255 220 0
0.502672 0.066517 0.051176 255 220 0
0.565615 -0.002197 0.064038 255 220 0
0.490995 0.041717 0.058932 255 220 0
0.508066 0.083977 0.079037 255 220 0
0.568965 0.062678 0.038907 255 220 0
0.540805 0.096260 0.095274 255 220 0
0.541921 -0.025360 0.022716 255 220 0
0.489371 0.011540 0.053171 255 220 0
0.567432 0.093182 0.084426 255 220 0
0.530956 0.086490 0.043256 255 220 0
0.558720 -0.015219 0.028678 255 220 0
0.541241 0.039751 0.018791 255 220 0
0.529872 -0.005335 0.016001 255 220 0
0.501166 0.000608 0.029859 255 220 0
0.577792 0.016348 0.051317 255 220 0
0.562604 0.101207 0.079259 255 220 0
0.505860 0.075392 0.087294 255 220 0
0.543304 -0.032361 0.062294 255 220 0
0.536431 0.093507 0.048136 255 220 0
0.580033 0.041072 0.049796 255 220 0
0.545694 -0.040463 0.036986 255 220 0
0.553292 0.029399 0.092834 255 220 0
0.519155 0.058254 0.029100 255 220 0
0.558970 0.038772 0.023940 255 220 0
0.518623 0.016654 0.019238 255 220 0
0.505533 -0.006743 0.025261 255 220 0
0.515188 0.092974 0.077241 255 220 0
0.519167 0.076925 0.041178 255 220 0
0.502472 0.025560 0.089631 255 220 0
0.519566 -0.056718 0.061997 255 220 0
0.578081 0.070340 0.079265 255 220 0
0.494873 0.043966 0.083662 255 220 0
0.573085 0.035436 0.079810 255 220 0
0.550577 0.049035 0.100650 255 220 0
0.555205 0.005234 0.021611 255 220 0
0.519919 0.097189 0.076919 255 220 0
0.550522 0.074828 0.033384 255 220 0
0.579570 0.061724 0.074612 255 220 0
0.536378 0.036388 0.017974 255 220 0
0.539353 -0.039105 0.059582 255 220 0
0.491805 -0.058759 0.062924 255 220 0
0.513667 0.051969 0.030069 255 220 0
0.579774 0.055737 0.054938 255 220 0
0.545295 0.107662 0.078034 255 220 0
0.504171 0.078291 0.078290 255 220 0
0.488917 -0.038122 0.064896 255 220 0
0.579259 0.062724 0.076140 255 220 0
0.500793 0.072993 0.069289 255 220 0
0.495153 0.026242 0.043020 255 220 0
0.492542 0.039911 0.052917 255 220 0
0.579727 0.053180 0.052881 255 220 0
0.547242 0.107760 0.069272 255 220 0
0.551643 0.074487 0.033590 255 220 0
0.548022 0.107358 0.067618 255 220 0
0.563241 0.100027 0.081000 255 220 0
0.486181 -0.042351 0.057309 255 220 0
0.536221 0.092168 0.046778 255 220 0
0.579775 0.064996 0.066171 255 220 0
0.517304 0.090716 0.060438 255 220 0
0.531169 0.098069 0.056410 255 220 0
0.535426 -0.003012 0.083599 255 220 0
0.522315 -0.047850 0.065533 255 220 0
0.504143 -0.050632 0.071068 255 220 0
0.510099 0.016808 0.023933 255 220 0
0.513133 0.035152 0.025146 255 220 0
0.516560 0.070812 0.099007 255 220 0
0.571358 0.035964 0.082295 255 220 0
0.499951 -0.037978 0.030695 255 220 0
0.495847 -0.057460 0.041219 255 220 0
0.498461 0.048889 0.045906 255 220 0
0.492159 0.016271 0.046178 255 220 0
0.490703 0.040951 0.073509 255 220 0
0.528905 0.067709 0.029526 255 220 0
0.541960 0.092525 0.097771 255 220 0
0.547740 0.037302 0.019548 255 220 0
0.502878 -0.029448 0.075307 255 220 0
0.517950 0.081367 0.046167 255 220 0
0.550904 -0.027159 0.059320 255 220 0
0.565350 0.095017 0.059689 255 220 0
0.540938 0.101626 0.056895 255 220 0
0.488600 0.002321 0.059100 255 220 0
0.563120 0.011638 0.025821 255 220 0
0.581254 0.049026 0.063301 255 220 0
0.560249 0.103600 0.075976 255 220 0
0.556191 0.012377 0.083486 255 220 0
0.502229 -0.024639 0.075972 255 220 0
0.488905 0.005979 0.063767 255 220 0
0.552688 0.061910 0.027832 255 220 0
0.543310 0.098666 0.052713 255 220 0
0.528748 -0.017790 0.078128 255 220 0
0.526010 -0.057548 0.036179 255 220 0
0.573940 0.007694 0.038809 255 220 0
0.491410 -0.049394 0.067270 255 220 0
0.552090 0.100341 0.056023 255 220 0
0.537920 -0.019668 0.073759 255 220 0
0.578448 0.065910 0.079104 255 220 0
0.508593 -0.000275 0.023395 255 220 0
0.533430 0.041069 0.101049 255 220 0
0.491632 0.017124 0.047541 255 220 0
0.533671 0.019908 0.093874 255 220 0
0.548294 0.045255 0.021109 255 220 0
0.550400 -0.013098 0.071717 255 220 0
0.568603 0.078994 0.048301 255 220 0
0.514245 0.088068 0.061224 255 220 0
0.572197 0.090880 0.074702 255 220 0
0.490536 0.028883 0.053241 255 220 0
0.504043 0.049698 0.093520 255 220 0
0.571993 -0.000397 0.039468 255 220 0
0.559873 0.065569 0.100291 255 220 0
0.566627 0.094886 0.083571 255 220 0
0.531262 -0.053634 0.050257 255 220 0
0.562038 -0.006109 0.027885 255 220 0
0.565270 -0.015498 0.042277 255 220 0
0.581295 0.043288 0.056521 255 220 0
0.518587 -0.000859 0.085917 255 220 0
0.545324 -0.041303 0.041110 255 220 0
0.507321 0.012882 0.088450 255 220 0
0.567227 -0.012094 0.044744 255 220 0
0.523495 0.026582 0.096240 255 220 0
0.570694 0.055744 0.037611 255 220 0
0.540715 0.003341 0.085187 255 220 0
0.545543 0.101129 0.055738 255 220 0
0.515144 0.080611 0.048091 255 220 0
0.545422 -0.028908 0.025858 255 220 0
0.567540 0.015629 0.074962 255 220 0
0.497699 0.055511 0.085873 255 220 0
0.488222 -0.038691 0.045843 255 220 0
0.533662 -0.047596 0.056589 255 220 0
0.560860 0.080673 0.097704 255 220 0
0.579672 0.052111 0.073291 255 220 0
0.501609 0.026539 0.089300 255 220 0
0.507122 0.057560 0.038431 255 220 0
0.525859 0.022052 0.017387 255 220 0
0.489284 0.000249 0.050671 255 220 0
0.577300 0.044625 0.077153 255 220 0
0.570570 0.087228 0.058036 255 220 0
0.518241 -0.052628 0.065398 255 220 0
0.496525 -0.013214 0.074551 255 220 0
0.523697 0.098429 0.082654 255 220 0
0.545220 0.014430 0.017292 255 220 0
0.577552 0.077274 0.066944 255 220 0
0.520038 -0.010613 0.018078 255 220 0
0.510010 0.086864 0.071904 255 220 0
0.530257 -0.029528 0.020614 255 220 0
0.545263 -0.021530 0.022864 255 220 0
0.551000 -0.027039 0.028719 255 220 0
0.528126 -0.040258 0.024223 255 220 0
0.504241 -0.002597 0.026553 255 220 0
0.564205 0.022836 0.082872 255 220 0
0.495175 -0.025346 0.072024 255 220 0
0.543635 0.024520 0.093817 255 220 0
0.581448 0.045184 0.059905 255 220 0
0.514394 0.083875 0.053469 255 220 0
0.570910 0.033807 0.081744 255 220 0
0.552506 0.001161 0.020712 255 220 0
0.488399 -0.015695 0.060338 255 220 0
0.572193 0.038877 0.082678 255 220 0
0.576889 0.039464 0.041817 255 220 0
0.506812 0.037641 0.031000 255 220 0
0.490049 -0.059234 0.052234 255 220 0
0.575707 0.076165 0.058175 255 220 0
0.528604 -0.046491 0.062320 255 220 0
0.553310 0.087653 0.098240 255 220 0
0.564898 0.075830 0.042497 255 220 0
0.506494 -0.063822 0.062844 255 220 0
0.550848 -0.027631 0.028972 255 220 0
0.527419 -0.031591 0.071785 255 220 0
0.501971 0.060235 0.046968 255 220 0
0.556934 0.091385 0.094846 255 220 0
0.538645 -0.026288 0.069596 255 220 0
0.517090 0.069254 0.099631 255 220 0
0.521749 -0.024256 0.076819 255 220 0
0.548911 -0.000720 0.080072 255 220 0
0.515679 0.051657 0.028562 255 220 0
0.499680 0.071400 0.072483 255 220 0
0.555672 0.011194 0.021401 255 220 0
0.536938 -0.026714 0.021288 255 220 0
0.507042 0.015461 0.089139 255 220 0
0.526388 0.070735 0.102772 255 220 0
0.558663 0.078260 0.039435 255 220 0
0.509552 0.069345 0.043241 255 220 0
0.574400 0.018847 0.067191 255 220 0
0.508078 0.067616 0.043625 255 220 0
0.574462 0.007220 0.055510 255 220 0
0.525881 0.100965 0.070835 255 220 0
0.498169 -0.065350 0.057140 255 220 0
0.506392 0.059301 0.094642 255 220 0
0.510961 0.087980 0.071467 255 220 0
0.508026 0.084253 0.077444 255 220 0
0.511818 0.018885 0.091725 255 220 0
0.541943 -0.029077 0.065921 255 220 0
0.523137 0.094957 0.059298 255 220 0
0.526795 -0.004868 0.084323 255 220 0
0.565887 0.028565 0.027532 255 220 0
0.525648 -0.042052 0.024730 255 220 0
0.580498 0.058698 0.065487 255 220 0
0.574713 0.080731 0.059923 255 220 0
0.548047 0.048764 0.021915 255 220 0
0.566637 0.043055 0.029783 255 220 0
0.533389 0.002106 0.086487 255 220 0
0.561641 0.049597 0.096437 255 220 0
0.579535 0.026178 0.055915 255 220 0
0.551911 -0.008406 0.073854 255 220 0
0.537343 0.070072 0.029198 255 220 0
0.580654 0.054011 0.068342 255 220 0
0.550030 0.059839 0.026134 255 220 0
0.544361 0.068057 0.028465 255 220 0
0.535548 -0.015717 0.017935 255 220 0
0.501156 0.024673 0.034063 255 220 0
0.554318 0.093338 0.094912 255 220 0
0.543046 0.044437 0.019941 255 220 0
0.532070 0.005032 0.087990 255 220 0
0.566237 0.062496 0.036174 255 220 0
0.525696 -0.041427 0.067210 255 220 0
0.554360 0.063155 0.102393 255 220 0
0.497324 0.066484 0.073454 255 220 0
0.488684 -0.013628 0.061417 255 220 0
0.531720 0.037073 0.099938 255 220 0
0.497404 -0.048572 0.035461 255 220 0
0.538153 -0.006740 0.016821 255 220 0
0.528369 0.071135 0.031852 255 220 0
0.568707 0.049707 0.090934 255 220 0
0.491024 -0.053253 0.065800 255 220 0
0.533081 -0.033392 0.068085 255 220 0
0.499186 -0.024024 0.074817 255 220 0
0.518567 0.073763 0.039032 255 220 0
0.494710 0.008017 0.039616 255 220 0
0.504941 -0.016859 0.078361 255 220 0
0.576830 0.056745 0.082258 255 220 0
0.538484 0.104171 0.085043 255 220 0
0.564574 0.088531 0.051709 255 220 0
0.574852 0.007084 0.053899 255 220 0
0.489379 -0.020320 0.064016 255 220 0
0.573781 0.017097 0.036360 255 220 0
0.566563 0.060408 0.095407 255 220 0
0.487086 -0.027796 0.054562 255 220 0
0.522615 0.096609 0.063493 255 220 0
0.534264 -0.037464 0.024415 255 220 0
0.511510 0.025325 0.093541 255 220 0
0.504501 -0.051384 0.070884 255 220 0
0.512431 0.018242 0.091675 255 220 0
0.492521 0.041991 0.054166 255 220 0
0.519393 -0.047190 0.027087 255 220 0
0.568834 -0.005644 0.053917 255 220 0
0.488391 -0.006390 0.054053 255 220 0
0.514969 0.008293 0.088837 255 220 0
0.552409 0.033012 0.020429 255 220 0
0.546709 0.035662 0.097282 255 220 0
0.500486 0.044402 0.040787 255 220 0
0.489653 0.034483 0.071967 255 220 0
0.497866 0.016583 0.036668 255 220 0
0.571170 0.071229 0.046336 255 220 0
0.573300 0.001991 0.051598 255 220 0
0.543408 0.097317 0.051127 255 220 0
0.544919 -0.040993 0.046094 255 220 0
0.490714 0.034194 0.054977 255 220 0
0.538951 -0.034452 0.063958 255 220 0
0.490221 -0.058726 0.060221 255 220 0
0.508483 0.043253 0.095971 255 220 0
0.559463 0.067428 0.033629 255 220 0
0.544243 -0.042015 0.044927 255 220 0
0.497136 0.027118 0.040120 255 220 0
0.515095 0.081630 0.049395 255 220 0
0.528628 0.072272 0.032554 255 220 0
0.527496 -0.058051 0.044357 255 220 0
0.560745 0.046854 0.026507 255 220 0
0.568343 -0.000939 0.032660 255 220 0
0.493737 -0.022010 0.036629 255 220 0
0.533567 0.037054 0.099911 255 220 0
0.521924 0.074300 0.037365 255 220 0
0.518826 0.037615 0.022428 255 220 0
0.545181 0.010299 0.087117 255 220 0
0.530812 0.099909 0.059714 255 220 0
0.557227 0.089050 0.046713 255 220 0
0.531281 0.097083 0.091501 255 220 0
0.539923 0.066428 0.027438 255 220 0
0.566337 0.048912 0.092812 255 220 0
0.533283 0.070847 0.030189 255 220 0
0.577904 0.018694 0.048238 255 220 0
0.530837 0.090663 0.047391 255 220 0
0.578489 0.046039 0.075001 255 220 0
0.532827 0.050352 0.021591 255 220 0
0.531964 -0.032827 0.068980 255 220 0
0.497869 0.007651 0.034896 255 220 0
0.518448 -0.063697 0.047657 255 220 0
0.503180 0.009226 0.085550 255 220 0
0.565905 0.064604 0.096404 255 220 0
0.575701 0.084159 0.071579 255 220 0
0.542750 0.030586 0.096466 255 220 0
0.575997 0.057656 0.045972 255 220 0
0.573031 0.016129 0.067413 255 220 0
0.491575 0.032375 0.078590 255 220 0
0.528274 0.047115 0.102227 255 220 0
0.501140 0.053707 0.044178 255 220 0
0.561635 0.099433 0.084681 255 220 0
0.512520 -0.059523 0.064579 255 220 0
0.534361 0.044113 0.019625 255 220 0
0.520759 0.097549 0.071032 255 220 0
0.518130 0.093753 0.065470 255 220 0
0.493036 -0.062116 0.058954 255 220 0
0.581239 0.038508 0.060250 255 220 0
0.538138 0.106102 0.079446 255 220 0
0.566290 -0.010668 0.035475 255 220 0
0.523464 0.088277 0.049249 255 220 0
0.510323 -0.015606 0.022219 255 220 0
0.529369 0.069460 0.103577 255 220 0
0.557138 0.017877 0.021948 255 220 0
0.552645 0.019141 0.019838 255 220 0
0.564723 0.046703 0.093381 255 220 0
0.551750 -0.004422 0.076445 255 220 0
0.525160 -0.035307 0.070769 255 220 0
0.555454 0.019484 0.087564 255 220 0
0.560328 0.071816 0.099893 255 220 0
0.527995 0.101912 0.069012 255 220 0
0.580343 0.049850 0.070127 255 220 0
0.501228 0.016560 0.086607 255 220 0
0.523309 -0.013388 0.081023 255 220 0
0.488611 0.003302 0.059130 255 220 0
0.531345 -0.047929 0.058834 255 220 0
0.544946 -0.002574 0.080650 255 220 0
0.515527 -0.035694 0.073544 255 220 0
0.547018 0.035543 0.019144 255 220 0
0.500778 0.034881 0.037142 255 220 0
0.549037 -0.010527 0.021282 255 220 0
0.580448 0.046399 0.052331 255 220 0
0.547036 -0.027953 0.026388 255 220 0
0.537110 -0.008886 0.016942 255 220 0
0.555238 0.094860 0.051190 255 220 0
0.513922 -0.045102 0.070521 255 220 0
0.500274 0.065467 0.055389 255 220 0
0.528288 -0.031863 0.021106 255 220 0
0.563765 0.060221 0.033119 255 220 0
0.495642 0.060459 0.077351 255 220 0
0.536653 -0.011454 0.078786 255 220 0
0.497009 -0.064385 0.059313 255 220 0
0.511595 -0.014173 0.080464 255 220 0
0.553277 0.083288 0.100056 255 220 0
0.535461 0.085798 0.100513 255 220 0
0.546796 -0.010824 0.020382 255 220 0
0.551787 0.002719 0.020195 255 220 0
0.539765 0.084431 0.038768 255 220 0
