ply
format ascii 1.0
element vertex 256
property float x
property float y
property float z
end_header
0.648528 0.130231 0.163311
0.515642 0.181022 0.153073
0.641649 0.248147 0.154069
0.550339 0.074700 0.198753
0.680071 0.186959 0.107006
0.582038 0.145759 0.202385
0.613290 0.067060 0.163092
0.630489 0.192641 0.193430
0.536056 0.121586 0.158546
0.678215 0.179245 0.164875
0.599182 0.096584 0.202673
0.552152 0.215358 0.147192
0.599538 0.122903 0.160879
0.676022 0.219761 0.142765
0.541922 0.158080 0.182556
0.635693 0.173562 0.154082
0.624309 0.143411 0.199847
0.573324 0.081129 0.162490
0.563023 0.112528 0.187471
0.637549 0.098005 0.183922
0.669299 0.153224 0.137043
0.600199 0.171098 0.178896
0.582772 0.050996 0.184765
0.646587 0.216986 0.171621
0.632750 0.104589 0.145622
0.660519 0.188957 0.135734
0.538988 0.156814 0.147958
0.533117 0.126716 0.191746
0.654493 0.159387 0.177576
0.514629 0.145852 0.169006
0.543931 0.187816 0.166851
0.579211 0.146040 0.173221
0.624225 0.145961 0.167454
0.580187 0.073737 0.201885
0.687453 0.178381 0.133176
0.651473 0.187591 0.175032
0.674838 0.145380 0.163622
0.605545 0.068512 0.190019
0.533709 0.197073 0.136810
0.600566 0.089335 0.151955
0.620419 0.206445 0.171560
0.649714 0.212186 0.144473
0.602634 0.127888 0.204126
0.640736 0.124124 0.187979
0.522650 0.175892 0.178567
0.571357 0.123522 0.209890
0.620624 0.168395 0.194156
0.670908 0.205627 0.120704
0.651928 0.103146 0.161154
0.602334 0.114185 0.183638
0.565563 0.092733 0.206511
0.605818 0.147644 0.185024
0.577637 0.106426 0.169495
0.628837 0.228524 0.160413
0.603946 0.156978 0.206964
0.653769 0.151645 0.155033
0.632354 0.080493 0.165534
0.687742 0.162832 0.151352
0.533785 0.208011 0.159036
0.671770 0.198258 0.153887
0.552832 0.084482 0.171670
0.514737 0.157626 0.149606
0.588091 0.063967 0.163464
0.623779 0.184337 0.171268
0.663999 0.171288 0.149955
0.540416 0.110138 0.179254
0.620197 0.114415 0.196460
0.673276 0.169042 0.117172
0.545007 0.140243 0.164080
0.540219 0.179703 0.147404
0.642646 0.197261 0.157896
0.633798 0.164180 0.178132
0.617826 0.093048 0.193554
0.632893 0.212731 0.187711
0.559174 0.132163 0.181135
0.567529 0.085236 0.187243
0.524200 0.149283 0.188401
0.662920 0.135645 0.144823
0.523029 0.137247 0.152745
0.523514 0.125870 0.174056
0.621805 0.132266 0.181639
0.565192 0.063545 0.209882
0.614620 0.109678 0.151601
0.640968 0.145225 0.177864
0.624202 0.077467 0.183078
0.580826 0.106466 0.208228
0.655807 0.113965 0.176994
0.629787 0.127706 0.158366
0.534129 0.169558 0.164178
0.551152 0.099424 0.195563
0.679447 0.198377 0.136337
0.613189 0.186230 0.188911
0.650709 0.233556 0.163370
0.583472 0.073005 0.183366
0.588940 0.156678 0.185315
0.660920 0.213729 0.159308
0.523696 0.192874 0.164635
0.668949 0.162503 0.166508
0.595725 0.152146 0.168225
0.584448 0.128663 0.171870
0.607338 0.139242 0.161541
0.550034 0.194667 0.144977
0.650283 0.117485 0.150507
0.666134 0.127868 0.165722
0.662223 0.227278 0.134189
0.568536 0.135775 0.195912
0.544135 0.141137 0.187612
0.639629 0.113352 0.169663
0.615780 0.080726 0.149956
0.592702 0.101729 0.161804
0.576859 0.100100 0.186998
0.670200 0.186071 0.121427
0.561609 0.101057 0.173843
0.540794 0.127760 0.176314
0.550403 0.203671 0.160195
0.560339 0.109655 0.205849
0.649869 0.183322 0.150990
0.636519 0.229490 0.177184
0.640284 0.230903 0.148212
0.517086 0.163542 0.168495
0.638025 0.202632 0.173770
0.587521 0.130158 0.210815
0.640515 0.157642 0.163119
0.603105 0.084887 0.190741
0.616578 0.169686 0.176918
0.649401 0.172743 0.168154
0.549418 0.121033 0.191196
0.621050 0.153825 0.185091
0.638558 0.091243 0.154760
0.664341 0.206380 0.140177
0.679091 0.177875 0.147120
0.656247 0.144085 0.172400
0.682391 0.163298 0.136085
0.543398 0.156480 0.166133
0.657790 0.198712 0.164207
0.526669 0.170603 0.147681
0.555467 0.070372 0.164637
0.574028 0.062726 0.170538
0.628082 0.128553 0.196380
0.543198 0.209432 0.135853
0.669908 0.176316 0.133601
0.603928 0.169124 0.193630
0.664196 0.226562 0.149628
0.628041 0.178977 0.186176
0.609455 0.188292 0.174261
0.661550 0.181013 0.165103
0.638193 0.180731 0.174676
0.524936 0.185570 0.140556
0.536191 0.193822 0.155221
0.576717 0.055945 0.204457
0.626795 0.162764 0.164247
0.536917 0.141438 0.150541
0.548711 0.087158 0.185380
0.648376 0.164914 0.152520
0.592923 0.080564 0.203097
0.607584 0.109187 0.201273
0.620341 0.200021 0.184505
0.576317 0.151077 0.189570
0.606165 0.141498 0.207355
0.631233 0.215178 0.167780
0.604796 0.062648 0.177003
0.673327 0.144657 0.149453
0.526638 0.139631 0.175095
0.564690 0.077790 0.175612
0.666989 0.180424 0.108919
0.603407 0.075550 0.157717
0.673230 0.158950 0.149295
0.530984 0.187638 0.175348
0.592045 0.064984 0.190937
0.643752 0.222182 0.159090
0.685850 0.181101 0.118083
0.650214 0.140164 0.147557
0.623669 0.096802 0.152402
0.667835 0.185662 0.148407
0.628422 0.104456 0.191893
0.614575 0.154545 0.171946
0.623815 0.069747 0.171801
0.637167 0.238804 0.163716
0.644300 0.142599 0.159773
0.651993 0.116349 0.163992
0.530886 0.165859 0.182675
0.654997 0.198593 0.145969
0.527163 0.150287 0.147760
0.639646 0.087282 0.176067
0.634649 0.186419 0.157725
0.599625 0.148021 0.197666
0.529234 0.116709 0.182514
0.532669 0.207355 0.145286
0.528741 0.182839 0.156317
0.610173 0.157341 0.195209
0.538564 0.113620 0.193056
0.538149 0.175340 0.175426
0.615069 0.129510 0.198788
0.594315 0.139312 0.165321
0.632221 0.115368 0.153258
0.565145 0.096504 0.193868
0.590767 0.115127 0.208699
0.634390 0.124614 0.174085
0.550501 0.102362 0.181862
0.639713 0.199118 0.186166
0.533849 0.199149 0.170173
0.517849 0.155701 0.179164
0.662031 0.139783 0.161723
0.610329 0.135398 0.176775
0.644766 0.171686 0.180964
0.622283 0.181954 0.197091
0.632236 0.191321 0.178258
0.670253 0.211736 0.150997
0.518008 0.132247 0.163173
0.661079 0.200594 0.126773
0.658345 0.155491 0.142839
0.662869 0.169218 0.175228
0.588010 0.063455 0.175997
0.659295 0.125462 0.154028
0.680942 0.190801 0.149855
0.591300 0.154368 0.204311
0.521410 0.174353 0.164257
0.522693 0.133534 0.185100
0.676956 0.169187 0.155616
0.568457 0.081066 0.203970
0.548606 0.074608 0.177448
0.523540 0.193126 0.152356
0.552549 0.113578 0.177574
0.574205 0.094960 0.167250
0.630642 0.136411 0.174375
0.603690 0.156550 0.177029
0.645668 0.214613 0.183477
0.650872 0.205719 0.154863
0.547014 0.148137 0.177855
0.524176 0.153257 0.168081
0.614842 0.080478 0.190126
0.671983 0.230929 0.140463
0.643297 0.113941 0.182042
0.660142 0.154118 0.167007
0.547142 0.215177 0.158081
0.658867 0.215531 0.134718
0.609541 0.137134 0.189319
0.627525 0.140103 0.188832
0.649391 0.239697 0.150735
0.564399 0.124882 0.193526
0.529369 0.159910 0.159169
0.673945 0.208779 0.131733
0.670037 0.165193 0.137677
0.680222 0.186407 0.127684
0.639792 0.122212 0.161397
0.682100 0.156014 0.159170
0.576402 0.076397 0.172823
0.627155 0.174524 0.164505
0.659956 0.191588 0.155184
0.612560 0.129534 0.157636
0.661454 0.160894 0.154470
0.665120 0.175126 0.123126
0.635774 0.146448 0.166793
0.586497 0.120156 0.164331
0.640982 0.188866 0.167020
0.674219 0.186209 0.137470
