ply
format ascii 1.0
element vertex 256
property float x
property float y
property float z
end_header
0.653439 -0.012814 0.189467
0.529144 0.032869 0.151538
0.647978 0.105209 0.164760
0.551618 -0.068553 0.211973
0.686146 0.036293 0.126079
0.581215 0.003379 0.216120
0.619672 -0.076756 0.187597
0.628854 0.054959 0.208777
0.546109 -0.026556 0.164727
0.673624 0.041402 0.179876
0.570225 0.063591 0.147197
0.598821 -0.045234 0.222366
0.605627 -0.021522 0.179576
0.652073 0.064050 0.145724
0.629870 0.023764 0.177807
0.542761 0.011009 0.186630
0.623361 0.001958 0.220649
0.580138 -0.063773 0.179594
0.565241 -0.031052 0.199998
0.639718 -0.043986 0.210054
0.678879 0.006391 0.162443
0.586260 -0.092236 0.205007
0.629617 0.078394 0.181021
0.603803 0.028877 0.204380
0.552871 0.007048 0.151061
0.641165 -0.039884 0.171139
0.559140 0.038105 0.163544
0.523893 -0.001191 0.163929
0.535883 -0.020013 0.194695
0.656320 0.019849 0.195271
0.645060 0.052113 0.174738
0.680109 0.053461 0.152148
0.583204 0.001802 0.186927
0.580560 -0.068563 0.219975
0.625040 -0.000617 0.191720
0.607596 -0.073857 0.212754
0.608612 -0.055535 0.173124
0.553728 0.044993 0.134588
0.616449 0.046873 0.184977
0.655202 0.025625 0.166669
0.677446 0.001573 0.189205
0.691960 0.028243 0.153352
0.601515 -0.013821 0.222338
0.641801 -0.017595 0.212882
0.569786 -0.018622 0.223206
0.632503 0.020227 0.204432
0.652976 0.087736 0.182049
0.657555 -0.039884 0.189645
0.604786 -0.028756 0.203002
0.565090 -0.049697 0.220924
0.545743 0.056495 0.155583
0.536051 0.033595 0.174617
0.671121 0.024931 0.141983
0.582862 -0.037992 0.185561
0.601093 0.002858 0.202464
0.670364 0.078804 0.143004
0.662707 0.065892 0.167187
0.637873 -0.062718 0.192235
0.601904 0.015411 0.223468
0.670977 0.058507 0.131235
0.643701 0.065444 0.194599
0.662639 -0.008991 0.169025
0.558370 -0.060387 0.185083
0.594803 -0.080461 0.184063
0.683307 0.021106 0.178781
0.660040 0.043801 0.154076
0.645579 0.039284 0.194434
0.620298 -0.027287 0.218516
0.553581 -0.005308 0.176831
0.645198 0.003509 0.178489
0.618759 -0.048845 0.216649
0.549028 0.026074 0.143091
0.527047 -0.003143 0.184392
0.570302 -0.058307 0.202757
0.523260 0.017335 0.173454
0.549356 -0.034993 0.187343
0.529023 0.008180 0.146431
0.550621 0.020384 0.168940
0.620945 0.033723 0.213960
0.639569 0.087134 0.165659
0.540339 -0.010740 0.154074
0.564613 -0.078625 0.226067
0.622224 -0.034901 0.173748
0.644296 0.004910 0.199249
0.627002 -0.064871 0.208378
0.579656 -0.035501 0.224211
0.527970 -0.018556 0.172356
0.658621 -0.028021 0.205173
0.635803 -0.016113 0.181713
0.552570 -0.044058 0.207370
0.566159 -0.012353 0.204309
0.586848 -0.070342 0.202323
0.664508 0.014949 0.179023
0.618193 0.027879 0.192433
0.676063 0.026655 0.162659
0.567012 0.042784 0.147144
0.600220 0.008010 0.184301
0.588854 -0.015486 0.187571
0.628754 0.059744 0.181303
0.553141 -0.017385 0.190159
0.640167 0.035169 0.168720
0.643875 -0.029493 0.195363
0.614319 0.014588 0.204786
0.613430 0.044852 0.202340
0.624076 -0.063861 0.174186
0.599053 -0.042766 0.180741
0.579320 -0.043253 0.203075
0.631599 -0.016075 0.198658
0.566421 -0.043492 0.187580
0.670487 -0.015037 0.191580
0.586508 0.013649 0.199005
0.669450 0.042946 0.138436
0.559790 -0.032986 0.218331
0.657667 0.048358 0.186394
0.612965 -0.004979 0.180442
0.656974 -0.027062 0.178438
0.562043 0.057530 0.160740
0.629199 0.040803 0.198232
0.627857 0.068648 0.199116
0.646827 0.024971 0.181109
0.585476 -0.011532 0.226318
0.604824 -0.057536 0.212011
0.640524 0.098369 0.177789
0.645597 -0.052493 0.181943
0.657950 0.002974 0.190059
0.661519 0.047335 0.169937
0.543672 0.036729 0.157776
0.667583 0.063641 0.151050
0.643805 0.074186 0.174322
0.661692 0.032401 0.185957
0.554747 -0.011393 0.161285
0.573159 0.003188 0.199379
0.539168 0.041961 0.142905
0.562336 -0.074829 0.179498
0.639950 0.087433 0.191272
0.543464 -0.031889 0.202606
0.684407 0.039446 0.144932
0.534365 0.019857 0.159016
0.554663 0.061480 0.143425
0.678157 0.042850 0.163776
0.686227 0.024956 0.137230
0.579791 -0.081625 0.188820
0.657983 0.075417 0.155529
0.627876 -0.012984 0.218808
0.541311 -0.005270 0.190367
0.692917 0.028398 0.168976
0.663644 0.008352 0.164827
0.649787 0.060091 0.161588
0.539809 0.048211 0.166853
0.534698 0.022013 0.141777
0.542786 -0.017653 0.176221
0.576985 -0.086247 0.223091
0.603074 0.020467 0.192342
0.673354 0.029245 0.128127
0.552017 -0.056982 0.197738
0.592821 -0.061352 0.222800
0.607147 -0.032531 0.221541
0.604262 0.000046 0.225212
0.635239 0.013957 0.186920
0.613476 -0.007806 0.196176
0.653108 0.092006 0.168384
0.609080 -0.080523 0.200196
0.594977 0.011938 0.211378
0.569521 -0.066521 0.191325
0.672731 0.035520 0.152218
0.610678 -0.068866 0.180149
0.636673 0.037601 0.183768
0.536623 -0.029229 0.184196
0.594184 -0.077664 0.211690
0.564218 0.054521 0.135987
0.635835 0.052603 0.195063
0.522964 0.012226 0.160142
0.631213 -0.047469 0.176841
0.620037 0.057510 0.197155
0.659318 0.072145 0.137320
0.629311 -0.037295 0.216001
0.628586 -0.073274 0.197710
0.644154 0.027326 0.200889
0.683517 0.017703 0.151396
0.668757 0.053493 0.160191
0.553613 0.045399 0.148186
0.612215 0.005626 0.194606
0.688141 0.016231 0.165551
0.552655 0.007825 0.173410
0.643236 -0.055113 0.203353
0.622190 0.014640 0.189903
0.680836 0.053405 0.138718
0.677180 -0.001012 0.176084
0.648958 0.046793 0.161977
0.648762 0.014043 0.171207
0.592226 0.006060 0.223028
0.614631 -0.012213 0.219000
0.599499 -0.005009 0.182041
0.639227 -0.028674 0.177876
0.566694 -0.046719 0.208165
0.589252 -0.026577 0.225733
0.668307 0.021675 0.189841
0.656955 -0.026535 0.191598
0.536245 0.021074 0.178350
0.671795 0.028190 0.179009
0.653008 0.034865 0.175511
0.528911 0.010815 0.183084
0.655002 0.059824 0.177074
0.606649 0.037960 0.194026
0.533587 -0.002784 0.172024
0.530173 0.038367 0.162942
0.610615 -0.005326 0.208286
0.647701 0.074870 0.186297
0.541241 0.000606 0.148674
0.547840 0.036183 0.171179
0.592676 -0.080207 0.196423
0.550337 0.019820 0.156426
0.571465 -0.007397 0.217914
0.664057 0.054657 0.140909
0.684759 0.008862 0.175396
0.535771 -0.019900 0.162747
0.541474 0.014341 0.148855
0.559001 0.033426 0.143925
0.667267 -0.014363 0.179108
0.639868 0.065040 0.181616
0.620734 0.025401 0.204209
0.568537 -0.061421 0.219646
0.530172 -0.003965 0.153024
0.655937 -0.002486 0.179333
0.553404 -0.069993 0.190721
0.623267 0.002780 0.208485
0.677150 0.013770 0.187024
0.665404 0.032598 0.161505
0.580018 -0.049659 0.183531
0.632491 -0.006725 0.209455
0.593214 0.023271 0.202347
0.636992 0.078153 0.198450
0.616568 -0.061674 0.213600
0.662741 -0.008194 0.197842
0.553197 0.048238 0.166332
0.645454 -0.028055 0.208110
0.534419 -0.028765 0.172384
0.605968 0.019091 0.212769
0.547938 0.020348 0.181000
0.564988 -0.015957 0.188982
0.608882 0.006106 0.211140
0.637994 0.061114 0.204291
0.682034 0.032645 0.171043
0.557538 -0.044658 0.195264
0.581551 -0.067784 0.190574
0.557888 0.066276 0.153654
0.636161 0.002324 0.188136
0.623674 0.044869 0.211640
0.618903 -0.014772 0.178074
0.643908 -0.012513 0.196214
0.553946 -0.018400 0.172934
0.602549 0.014768 0.202467
0.557219 -0.023351 0.203339
0.645525 -0.007091 0.183124
0.674571 0.063151 0.141193
0.552324 -0.001763 0.190405
