ply
format ascii 1.0
element vertex 256
property float x
property float y
property float z
end_header
0.644039 -0.016182 0.148699
0.513814 0.038715 0.133484
0.646873 0.105451 0.136615
0.542465 -0.065051 0.184414
0.674084 0.037237 0.087881
0.578130 0.004166 0.186525
0.605255 -0.077231 0.149745
0.627681 0.052134 0.176465
0.538079 -0.018253 0.144130
0.669056 0.036303 0.142649
0.555374 0.072982 0.130673
0.592434 -0.045877 0.188343
0.594739 -0.020780 0.145865
0.648359 0.066308 0.112254
0.622714 0.022995 0.142437
0.521232 0.010800 0.172873
0.620222 -0.000647 0.184569
0.566167 -0.060937 0.148276
0.631018 -0.047153 0.170032
0.668858 0.002948 0.121583
0.558272 -0.028557 0.177451
0.573640 -0.090935 0.171466
0.636937 0.071746 0.146703
0.600285 0.028513 0.172573
0.627013 -0.041363 0.131513
0.546069 0.043039 0.146036
0.513533 0.006057 0.139972
0.650938 0.015056 0.157522
0.676601 0.051968 0.114664
0.644129 0.041256 0.127359
0.575635 0.003805 0.157331
0.523786 -0.020385 0.169512
0.617380 -0.001991 0.155648
0.521570 0.037576 0.162549
0.572175 -0.067622 0.187936
0.542076 0.009871 0.153789
0.597318 -0.074602 0.176526
0.612132 0.047321 0.153645
0.535178 0.056535 0.120479
0.593944 -0.054584 0.137859
0.644025 0.007801 0.132202
0.669362 -0.004507 0.147769
0.684786 0.026316 0.111782
0.597652 -0.014791 0.188998
0.642773 0.041033 0.154042
0.571843 -0.035743 0.154652
0.635648 -0.021155 0.173426
0.535367 0.021636 0.130937
0.533429 0.065459 0.145164
0.628256 0.017304 0.168229
0.645909 -0.043465 0.147313
0.661258 0.058693 0.132587
0.596790 -0.029013 0.168883
0.661017 0.025407 0.104938
0.683912 0.016951 0.134097
0.558611 -0.047705 0.191871
0.595768 0.002807 0.169974
0.668648 0.078472 0.112212
0.641009 0.093106 0.155828
0.554756 -0.008689 0.165369
0.625028 -0.064841 0.152059
0.600592 0.014244 0.191069
0.545803 -0.056175 0.157111
0.579918 -0.078877 0.149891
0.568800 -0.014895 0.193045
0.541983 -0.034855 0.163922
0.614497 -0.029445 0.181911
0.635637 0.074729 0.167884
0.516941 -0.013522 0.147600
0.658714 0.025181 0.127779
0.666783 0.060700 0.098033
0.610941 -0.050715 0.179552
0.651709 -0.011359 0.128287
0.560351 -0.055829 0.172836
0.533299 0.001476 0.135137
0.574614 -0.034820 0.193405
0.511657 0.020615 0.157031
0.618703 0.031095 0.180601
0.620208 0.065286 0.156353
0.658475 0.044904 0.107540
0.556538 -0.076722 0.196020
0.609140 -0.035090 0.137131
0.637751 0.001053 0.161208
0.616530 -0.066916 0.169576
0.650231 -0.032452 0.162902
0.625238 -0.017773 0.143595
0.636923 0.088161 0.136110
0.539895 0.026299 0.163816
0.664975 0.017653 0.144357
0.641626 0.024457 0.143085
0.520797 0.050961 0.149165
0.537999 0.002065 0.173017
0.575611 -0.069047 0.169485
0.613146 0.027609 0.159104
0.535581 0.040180 0.129496
0.551084 0.052589 0.128871
0.527562 0.032276 0.146023
0.592524 0.008823 0.152376
0.536904 -0.028015 0.180045
0.579886 -0.013872 0.156512
0.665175 0.042145 0.124865
0.514408 -0.001482 0.160549
0.637702 0.059112 0.159275
0.634123 -0.032347 0.155393
0.609871 0.013683 0.170817
0.610881 0.043814 0.170988
0.647394 0.054250 0.142530
0.608662 -0.064095 0.136278
0.644995 -0.029673 0.136458
0.552280 0.061837 0.143900
0.586696 -0.041498 0.147274
0.570517 -0.041531 0.172307
0.629947 0.039199 0.137455
0.623609 -0.018207 0.160972
0.660882 -0.020504 0.149242
0.581649 0.014792 0.169174
0.536107 -0.012005 0.161124
0.603452 -0.004898 0.146184
0.632437 0.007927 0.144721
0.652140 0.088529 0.143512
0.523066 0.052752 0.131850
0.675052 0.038278 0.104709
0.655702 0.073217 0.126092
0.625727 0.039098 0.164719
0.564149 -0.005209 0.180157
0.675789 0.023202 0.097633
0.642660 0.057788 0.126509
0.595809 -0.058102 0.176778
0.676673 0.030100 0.125676
0.631951 -0.054761 0.141076
0.539093 0.071802 0.130597
0.650232 -0.001238 0.150549
0.518623 0.018815 0.131297
0.652933 0.037082 0.141024
0.541808 -0.052816 0.173877
0.665076 0.063105 0.116186
0.673647 0.014819 0.111264
0.557010 -0.044761 0.157433
0.547703 -0.070600 0.150492
0.633811 0.027985 0.156616
0.560189 -0.024999 0.162061
0.565732 -0.079123 0.156823
0.648384 0.076201 0.156625
0.623178 -0.015786 0.181549
0.676104 0.002473 0.135437
0.546882 -0.039760 0.185833
0.535336 0.052505 0.153791
0.627919 0.051090 0.151331
0.567667 -0.085110 0.190942
0.545389 -0.018540 0.171271
0.615753 0.013702 0.154836
0.597317 0.020776 0.160427
0.552064 -0.042451 0.172436
0.584048 -0.017745 0.193107
0.663527 0.027131 0.090757
0.585266 -0.061498 0.189121
0.601556 -0.033815 0.186708
0.601919 -0.001320 0.191903
0.533249 -0.011606 0.175913
0.554973 -0.019985 0.188511
0.606055 -0.008485 0.161551
0.640960 -0.004669 0.140186
0.567693 0.005365 0.171201
0.596375 -0.080770 0.163665
0.630134 0.080790 0.155403
0.509662 0.023141 0.143216
0.591564 0.011734 0.180069
0.557216 -0.063419 0.161376
0.595932 -0.068345 0.144023
0.537143 0.053447 0.138980
0.583630 -0.077331 0.177373
0.546120 0.065646 0.120215
0.658301 0.005527 0.141455
0.520539 -0.007284 0.172188
0.654898 0.078414 0.112651
0.617430 -0.048432 0.138389
0.521357 0.025124 0.168286
0.622189 -0.039978 0.177715
0.651683 0.052784 0.117503
0.525181 0.031258 0.131829
0.615823 -0.074908 0.158507
0.658613 0.011620 0.123801
0.626567 0.064294 0.168337
0.605678 0.005062 0.160657
0.543958 0.013726 0.166570
0.646698 -0.030214 0.149796
0.632583 -0.058190 0.162494
0.653550 0.025847 0.149059
0.636227 0.013802 0.157421
0.544375 0.072858 0.143125
0.588769 -0.002308 0.193661
0.610216 -0.014025 0.183770
0.665398 0.035250 0.113432
0.539979 0.023956 0.150783
0.590414 -0.003984 0.149801
0.664458 -0.006288 0.129970
0.627018 -0.030365 0.138850
0.633766 0.027425 0.132991
0.602696 0.038265 0.162936
0.674552 0.051446 0.102060
0.647792 0.101371 0.148936
0.521036 0.006565 0.153260
0.525899 -0.007749 0.154855
0.605233 -0.006363 0.174033
0.585291 -0.033781 0.186755
0.679392 0.015401 0.122453
0.647544 0.029012 0.132098
0.579674 -0.079039 0.162431
0.528557 0.043343 0.140226
0.525570 -0.022523 0.146850
0.541946 -0.002466 0.152269
0.637936 0.049902 0.135739
0.656628 -0.018199 0.137285
0.560860 -0.059583 0.189680
0.672775 0.022093 0.134184
0.540958 -0.065631 0.163099
0.618395 0.000746 0.172596
0.626853 -0.009464 0.171828
0.655240 -0.010988 0.155814
0.653641 0.049789 0.129437
0.614973 0.053446 0.164867
0.607282 -0.063185 0.176426
0.637686 -0.031627 0.167796
0.539389 0.013333 0.142579
0.638070 0.099350 0.142048
0.567785 -0.047054 0.152673
0.527117 0.020575 0.143480
0.532170 0.015552 0.167232
0.604912 0.005190 0.177537
0.669245 0.024425 0.116739
0.636742 0.058048 0.171515
0.603049 0.018212 0.180128
0.559424 -0.015911 0.178014
0.660143 0.069448 0.106862
0.616037 0.024736 0.170916
0.552735 -0.050823 0.182031
0.629868 0.081121 0.143567
0.635182 -0.015816 0.156538
0.531961 0.042655 0.159359
0.589540 0.023714 0.171794
0.634959 -0.023863 0.147253
0.568859 -0.065551 0.158769
0.622051 0.042197 0.178992
0.608153 -0.014991 0.142606
0.677047 0.041497 0.123165
0.677507 0.012783 0.142890
0.645174 0.025731 0.157788
0.529317 -0.010648 0.143165
0.597922 0.014607 0.170268
0.532393 0.062664 0.133001
0.512601 -0.001815 0.149118
0.629664 -0.003293 0.144553
0.581526 -0.022686 0.149229
0.643480 0.079527 0.139998
0.648329 0.094643 0.132937
0.631473 0.035724 0.148314
