ply
format ascii 1.0
element vertex 256
property float x
property float y
property float z
end_header
0.656489 -0.023098 0.151240
0.526470 0.031638 0.134012
0.656911 0.098998 0.136609
0.554629 -0.071192 0.187190
0.686190 0.029142 0.089117
0.584161 0.001451 0.176821
0.617500 -0.084003 0.152897
0.639849 0.043582 0.177305
0.534980 -0.026417 0.150628
0.678694 0.026132 0.143240
0.607897 -0.044984 0.192534
0.568001 0.065922 0.130984
0.607184 -0.027569 0.148287
0.681800 0.068319 0.112997
0.631378 -0.001237 0.183180
0.540046 0.012124 0.171260
0.635389 0.016117 0.144472
0.578471 -0.067600 0.151089
0.568825 -0.035974 0.173870
0.643290 -0.053762 0.172905
0.585763 -0.097335 0.174672
0.677139 -0.006660 0.122934
0.650902 0.063037 0.148254
0.546910 0.002748 0.135550
0.639440 -0.048433 0.134304
0.558581 0.036265 0.146824
0.612690 0.025838 0.166545
0.664747 0.036155 0.115685
0.592113 -0.072291 0.192304
0.600930 -0.015247 0.196971
0.695081 0.017464 0.116420
0.661707 0.006746 0.159344
0.542090 -0.022750 0.179863
0.619479 -0.069637 0.179411
0.608581 -0.002210 0.161155
0.654623 0.035186 0.154828
0.547944 0.049243 0.120894
0.606306 -0.061466 0.140694
0.681784 -0.011380 0.149874
0.523545 0.001211 0.152128
0.534901 0.037055 0.161611
0.631648 -0.015784 0.159266
0.626839 0.047979 0.154427
0.650192 -0.025057 0.176939
0.671480 0.053145 0.134966
0.654537 0.000839 0.134105
0.581928 -0.034878 0.196596
0.605060 0.010679 0.189143
0.545913 0.058639 0.145381
0.675169 0.051074 0.095495
0.658274 -0.050402 0.150195
0.555101 -0.005428 0.157124
0.650954 0.085627 0.157576
0.611762 -0.036181 0.170335
0.641255 0.016370 0.167653
0.673462 0.016386 0.105451
0.584207 -0.042348 0.157176
0.637305 -0.071650 0.155129
0.572586 -0.062171 0.175564
0.687271 0.040576 0.112024
0.693950 0.002831 0.136599
0.649384 0.035032 0.132490
0.644414 0.064991 0.171139
0.592157 -0.085563 0.152973
0.619767 -0.024029 0.187677
0.660812 0.061003 0.116017
0.626042 0.025155 0.184204
0.605105 -0.086987 0.173147
0.562238 -0.049245 0.190043
0.572776 -0.016231 0.182623
0.568621 -0.082765 0.198988
0.546952 0.024059 0.132778
0.665253 0.018353 0.127643
0.558091 -0.062663 0.159792
0.552473 0.017266 0.151874
0.587813 -0.075480 0.172429
0.550204 -0.034212 0.165090
0.665416 -0.025105 0.133276
0.647502 0.081404 0.136971
0.646753 -0.004635 0.152828
0.621568 -0.042032 0.139781
0.530568 -0.009755 0.166909
0.662576 -0.039213 0.165664
0.525030 0.012141 0.134847
0.592317 -0.020482 0.158796
0.568952 -0.019075 0.163688
0.674079 0.004532 0.138622
0.527956 0.019763 0.155629
0.612930 -0.006264 0.180907
0.580332 -0.053881 0.197077
0.654304 0.017493 0.145227
0.622295 0.009286 0.170284
0.633438 -0.040061 0.180791
0.549026 -0.015017 0.140682
0.531829 -0.008650 0.138775
0.563765 0.045490 0.129532
0.640488 -0.030067 0.145772
0.634169 0.065190 0.156035
0.546969 -0.004252 0.175247
0.681621 0.029845 0.125606
0.588122 -0.002783 0.159383
0.604275 -0.060713 0.182988
0.628836 0.025906 0.158988
0.620997 -0.071044 0.139282
0.564783 0.055030 0.144390
0.599067 -0.048242 0.149922
0.582801 -0.047914 0.174896
0.535839 0.047083 0.136851
0.615949 -0.011713 0.148442
0.645593 0.051456 0.160180
0.673336 -0.027354 0.151725
0.666761 0.036086 0.132950
0.664788 0.086617 0.145647
0.603213 0.011067 0.172020
0.655672 0.050714 0.128373
0.658591 -0.009406 0.163664
0.622775 0.037580 0.172835
0.556298 0.007351 0.167898
0.558243 -0.021875 0.176158
0.646496 -0.039147 0.158096
0.644300 -0.061728 0.144049
0.546081 -0.017981 0.162689
0.623114 -0.052455 0.183880
0.690852 0.017709 0.099879
0.567824 -0.046570 0.161464
0.551724 0.064710 0.130756
0.680177 0.013850 0.122976
0.635514 -0.022230 0.184008
0.660179 0.046580 0.144650
0.673751 0.067365 0.127423
0.675727 0.035483 0.099861
0.554049 -0.059085 0.176502
0.591060 -0.003400 0.192680
0.692962 0.020715 0.132233
0.559967 -0.077175 0.153358
0.584176 -0.084561 0.185877
0.539913 0.036006 0.124654
0.675320 0.050893 0.111493
0.577946 -0.085678 0.159857
0.660457 0.072774 0.156072
0.540093 0.025469 0.146820
0.547750 0.045859 0.154278
0.633347 -0.070417 0.170147
0.661634 -0.006011 0.146128
0.597284 -0.032896 0.196222
0.657399 -0.036811 0.139217
0.549629 -0.035972 0.181513
0.580757 -0.016767 0.195581
0.676081 0.013280 0.150689
0.654829 0.020946 0.163200
0.550136 -0.027932 0.148227
0.575020 -0.067338 0.193156
0.628304 0.006974 0.156912
0.551093 0.038805 0.134274
0.549329 0.028784 0.160426
0.638028 0.029722 0.172760
0.642349 0.075981 0.150607
0.643198 0.000304 0.166071
0.675390 0.043828 0.124248
0.637477 0.037523 0.159489
0.598692 0.008042 0.158590
0.590614 -0.045029 0.191079
0.613138 0.019731 0.179576
0.622167 -0.010698 0.168811
0.683889 0.026702 0.108614
0.607817 -0.002869 0.196039
0.675886 -0.015593 0.134236
0.665187 0.028515 0.148174
0.565269 -0.049541 0.175721
0.662647 -0.011520 0.130483
0.674084 0.022786 0.092576
0.569466 -0.069891 0.164187
0.641295 0.029978 0.142868
0.608226 -0.075157 0.147034
0.629582 0.050258 0.167970
0.642271 0.024039 0.155631
0.558872 0.058368 0.120572
0.567271 -0.026121 0.190778
0.628044 -0.081607 0.161667
0.526356 -0.012363 0.153235
0.528074 0.003686 0.169241
0.688270 0.002675 0.123642
0.618627 0.037778 0.158737
0.599781 -0.081122 0.184399
0.629810 -0.055385 0.141232
0.531606 0.040337 0.148005
0.575240 -0.007435 0.171687
0.536874 0.024053 0.165064
0.535801 -0.025139 0.167905
0.668822 0.069306 0.108880
0.645847 -0.038000 0.175721
0.602901 -0.010712 0.152001
0.685846 0.008386 0.108192
0.644846 -0.064895 0.165509
0.659098 -0.037124 0.152519
0.556868 0.066018 0.143317
0.656510 0.074077 0.143445
0.645923 -0.016688 0.146405
0.642189 -0.016604 0.167253
0.611280 0.010842 0.161285
0.646523 0.020404 0.135056
0.685951 0.003669 0.146889
0.552668 0.052224 0.134174
0.654160 0.094709 0.148539
0.668174 -0.013429 0.155939
0.670892 0.004226 0.125628
0.680261 0.055647 0.123272
0.648395 0.052245 0.173311
0.643647 0.006149 0.146783
0.653205 0.063632 0.161199
0.534741 -0.001609 0.157489
0.591868 -0.085571 0.165514
0.685363 0.048940 0.102419
0.617681 -0.012672 0.192409
0.650081 -0.029409 0.165249
0.556382 -0.010746 0.170264
0.618128 0.007904 0.181935
0.684625 -0.005908 0.139094
0.685093 0.012009 0.136083
0.620469 -0.036287 0.188831
0.543455 0.038834 0.144948
0.639512 0.055174 0.150167
0.552855 -0.001271 0.145526
0.635763 -0.010977 0.176008
0.553195 -0.072029 0.165879
0.580120 -0.053669 0.155321
0.602039 0.001008 0.178703
0.598218 -0.054220 0.193015
0.539695 0.013720 0.144500
0.627247 0.020196 0.170423
0.556680 -0.044254 0.169320
0.669738 0.000849 0.152873
0.667183 0.044522 0.105634
0.632876 0.003046 0.171252
0.636018 -0.004761 0.157852
0.581110 -0.072093 0.161648
0.620628 -0.021865 0.145005
0.523782 0.018348 0.144669
0.674937 0.018778 0.134978
0.652186 0.009437 0.165551
0.664375 0.060529 0.128008
0.615060 -0.000986 0.170679
0.551162 0.016985 0.164026
0.530994 0.003150 0.138992
0.593953 -0.029390 0.151628
0.658762 0.083664 0.135858
0.681067 0.013319 0.095699
0.651363 -0.008314 0.140731
0.579741 -0.091252 0.194053
0.535377 -0.017385 0.158127
0.679662 0.037730 0.133600
0.639233 0.009415 0.158909
0.645608 0.087216 0.146429
0.646764 0.074922 0.160911
0.653962 0.007787 0.151271
0.665106 0.017008 0.148255
