ply
format ascii 1.0
element vertex 256
property float x
property float y
property float z
end_header
0.656147 -0.021311 0.149958
0.526274 0.034072 0.133811
0.656767 0.100834 0.135504
0.554277 -0.069074 0.186318
0.685803 0.030918 0.087767
0.590416 -0.000084 0.187611
0.616947 -0.082077 0.151731
0.639393 0.048061 0.177281
0.550262 -0.022807 0.145361
0.678460 0.027853 0.141832
0.567870 0.068259 0.130578
0.604379 -0.050200 0.189983
0.606814 -0.025603 0.147221
0.661381 0.060946 0.112883
0.635134 0.017969 0.143304
0.533480 0.006758 0.173615
0.632473 -0.005208 0.185671
0.577970 -0.065534 0.150113
0.642936 -0.051948 0.171652
0.570289 -0.032739 0.178904
0.585260 -0.095317 0.173636
0.676729 -0.004921 0.121574
0.648128 0.067299 0.147219
0.612321 0.024045 0.173521
0.638932 -0.046569 0.133074
0.558513 0.038546 0.146351
0.525850 0.001559 0.140767
0.694742 0.019151 0.115016
0.661502 0.008519 0.158029
0.604808 0.004087 0.153398
0.535887 -0.024487 0.170729
0.668163 0.031364 0.115177
0.533984 0.033340 0.162902
0.583971 -0.071809 0.189842
0.554372 0.005438 0.154608
0.653070 0.039557 0.148871
0.609055 -0.079091 0.178488
0.623942 0.042883 0.154474
0.547675 0.051687 0.120587
0.605780 -0.059490 0.139600
0.632275 -0.007013 0.155506
0.681478 -0.009684 0.148489
0.609811 -0.019145 0.190280
0.583824 -0.040308 0.156198
0.647747 -0.025946 0.174746
0.547787 0.016892 0.131563
0.654176 0.002634 0.132829
0.545895 0.060962 0.145140
0.675095 0.052403 0.132741
0.680474 0.053766 0.097327
0.637991 0.013416 0.168895
0.657829 -0.048621 0.148879
0.608831 -0.033589 0.170329
0.570548 -0.051756 0.193563
0.681816 0.072863 0.112995
0.651746 0.089136 0.155350
0.557044 -0.008905 0.173024
0.636807 -0.069798 0.153886
0.612952 0.009890 0.192020
0.693635 0.004497 0.135173
0.557648 -0.060532 0.158913
0.591600 -0.083547 0.151920
0.611683 -0.004129 0.173447
0.580963 -0.019006 0.194355
0.554004 -0.039140 0.165419
0.580770 0.003301 0.168058
0.680547 0.012558 0.099472
0.626548 -0.033994 0.183345
0.647058 0.070701 0.168555
0.651264 0.044207 0.127940
0.529138 -0.017920 0.148697
0.622845 -0.055264 0.181230
0.686373 0.042127 0.113814
0.572214 -0.060107 0.174620
0.545607 -0.003192 0.136058
0.670962 0.014628 0.127924
0.586640 -0.038964 0.194936
0.523999 0.016381 0.157600
0.664987 -0.023334 0.131951
0.630692 0.026932 0.181550
0.631773 0.060973 0.157069
0.568280 -0.080709 0.198042
0.621107 -0.040109 0.138636
0.628312 -0.071615 0.171434
0.662241 -0.037462 0.164338
0.656053 0.026428 0.134537
0.637331 -0.022832 0.144889
0.592019 -0.018473 0.157802
0.647352 0.083245 0.135961
0.552246 0.022026 0.164380
0.533243 0.046535 0.149327
0.587379 -0.073467 0.171404
0.598164 0.009702 0.170220
0.548049 0.035461 0.129837
0.627032 0.024741 0.159114
0.563564 0.047846 0.129060
0.539997 0.027801 0.146462
0.655505 0.025620 0.160617
0.548917 -0.032023 0.181418
0.648526 -0.010077 0.163128
0.615636 -0.009778 0.147351
0.674914 0.010522 0.145714
0.526629 -0.005674 0.161457
0.646127 -0.037331 0.156843
0.622713 0.039478 0.171839
0.649583 0.055233 0.160279
0.620430 -0.069119 0.138113
0.564745 0.057306 0.143957
0.598630 -0.046248 0.148873
0.582477 -0.045886 0.173919
0.618068 0.009415 0.163541
0.672032 0.068667 0.127035
0.568682 -0.016987 0.162800
0.635716 -0.023057 0.162272
0.672981 -0.025629 0.150363
0.644195 0.004996 0.152073
0.669518 0.038816 0.099708
0.540502 -0.009287 0.177278
0.662721 0.084383 0.142961
0.683681 0.028227 0.125750
0.535541 0.048077 0.131992
0.576366 -0.009435 0.181363
0.607660 -0.062578 0.178555
0.549186 -0.017801 0.161496
0.643788 -0.059890 0.142784
0.666729 0.038907 0.136779
0.662222 -0.006127 0.150743
0.551588 0.067092 0.130493
0.531028 0.014160 0.131916
0.553693 -0.056955 0.175644
0.678024 0.057547 0.116963
0.640674 0.032019 0.137782
0.637630 0.034919 0.165623
0.568934 -0.049192 0.159095
0.559442 -0.075044 0.152456
0.658508 0.075037 0.158243
0.577419 -0.083618 0.158867
0.659813 0.057240 0.130311
0.635322 -0.020400 0.182819
0.688948 0.028906 0.102901
0.665346 0.046505 0.117195
0.618230 -0.013209 0.162756
0.558868 -0.043800 0.187445
0.656954 -0.035017 0.137917
0.547777 0.048131 0.153954
0.639680 0.046848 0.152155
0.687383 0.005478 0.118337
0.660657 0.018411 0.146539
0.548403 0.005443 0.172346
0.579347 -0.089231 0.193050
0.642100 0.025870 0.154425
0.570323 -0.034565 0.164263
0.685227 0.016758 0.134867
0.560043 -0.024854 0.171998
0.564010 -0.046669 0.174081
0.596191 -0.021959 0.194435
0.597106 -0.065762 0.190945
0.613582 -0.038220 0.188203
0.674137 0.023031 0.091025
0.614173 -0.005671 0.193028
0.567097 -0.024052 0.189892
0.652624 -0.010167 0.140910
0.608056 -0.085397 0.165699
0.641253 0.076490 0.155705
0.522055 0.018709 0.143743
0.675494 -0.013860 0.132873
0.676073 0.040190 0.123919
0.662254 -0.009736 0.129183
0.569016 -0.067805 0.163250
0.607679 -0.073193 0.145918
0.549608 0.048860 0.139134
0.590125 -0.004752 0.155917
0.595350 -0.081715 0.179379
0.558625 0.060784 0.120211
0.697735 0.017042 0.128750
0.680816 0.017573 0.116239
0.618483 0.006388 0.179739
0.661579 0.050099 0.143101
0.668064 0.072972 0.113316
0.629308 -0.053493 0.140038
0.605004 0.016876 0.183272
0.537647 0.026577 0.132280
0.634164 -0.044626 0.179261
0.533690 0.021011 0.168813
0.627539 -0.079728 0.160457
0.638127 0.060148 0.169068
0.604385 0.002944 0.184202
0.649334 0.004049 0.164528
0.664484 0.033081 0.151908
0.644418 -0.063080 0.164238
0.658711 -0.035348 0.151211
0.647346 0.016597 0.137967
0.556851 0.068322 0.143013
0.680761 0.000249 0.139581
0.601018 -0.006549 0.194810
0.622374 -0.018525 0.185033
0.552355 0.019487 0.151384
0.602608 -0.008734 0.150970
0.639020 -0.035488 0.140286
0.682488 0.041214 0.100808
0.608240 0.018054 0.162202
0.616707 0.032487 0.161287
0.627041 0.001472 0.168514
0.538104 -0.012083 0.155891
0.626397 0.014844 0.174124
0.658102 0.097305 0.147957
0.533318 0.002229 0.154068
0.628282 0.008925 0.155997
0.667421 -0.015971 0.156797
0.597318 -0.038074 0.188265
0.591367 -0.083566 0.164461
0.541011 0.038783 0.140510
0.666348 0.003480 0.139890
0.549034 -0.018241 0.175250
0.537723 -0.026973 0.148107
0.666075 0.001851 0.126698
0.554185 -0.006919 0.153272
0.669651 0.049451 0.105901
0.572714 -0.063674 0.191504
0.552745 -0.069885 0.165012
0.639030 -0.014214 0.173024
0.626685 0.049122 0.165658
0.619096 -0.067744 0.178249
0.679502 0.031942 0.111010
0.649707 -0.036495 0.169234
0.551734 0.008745 0.143339
0.648289 0.094704 0.141402
0.579688 -0.051612 0.154351
0.539496 0.016061 0.144095
0.641857 -0.008372 0.145678
0.648380 0.054061 0.172302
0.571565 -0.020128 0.179345
0.673248 0.063933 0.107586
0.564641 -0.054945 0.183764
0.667600 0.024417 0.138546
0.640697 0.076316 0.143876
0.673433 0.021284 0.107770
0.544384 0.038364 0.159656
0.580640 -0.070046 0.160656
0.647611 -0.020584 0.157979
0.647033 -0.028970 0.148688
0.633893 0.038066 0.179869
0.620264 -0.019944 0.143884
0.660976 -0.003440 0.162053
0.541541 -0.015174 0.144255
0.686890 0.020226 0.092111
0.544876 0.057996 0.133017
0.524853 -0.006169 0.150027
0.593592 -0.027380 0.150619
0.654265 0.074985 0.140038
0.658473 0.089930 0.132241
0.632813 0.035575 0.154854
0.609555 0.010557 0.171425
0.652657 0.015191 0.164436
0.583770 -0.082548 0.184859
0.548040 0.027464 0.138332
