ply
format ascii 1.0
element vertex 256
property float x
property float y
property float z
end_header
0.656503 -0.023079 0.151273
0.526548 0.031788 0.134352
0.656998 0.099135 0.136980
0.554641 -0.071177 0.187214
0.686254 0.029197 0.089167
0.590524 -0.002054 0.188604
0.617516 -0.083986 0.152928
0.639390 0.046247 0.178442
0.550671 -0.024992 0.146157
0.678707 0.026152 0.143273
0.568081 0.066067 0.131296
0.604658 -0.052116 0.191090
0.607199 -0.027552 0.148315
0.661550 0.059121 0.114105
0.635378 0.016118 0.144485
0.533619 0.004565 0.174258
0.632608 -0.007027 0.186862
0.578487 -0.067585 0.151115
0.643303 -0.053743 0.172938
0.570546 -0.034783 0.179832
0.585777 -0.097318 0.174700
0.677155 -0.006642 0.122968
0.648253 0.065536 0.148431
0.612413 0.022138 0.174588
0.639457 -0.048415 0.134336
0.558701 0.036367 0.147078
0.526194 -0.000727 0.141377
0.695110 0.017489 0.116469
0.661719 0.006765 0.159376
0.605057 0.002136 0.154453
0.536160 -0.026676 0.171447
0.668595 0.029684 0.116553
0.534083 0.031139 0.163491
0.584329 -0.073799 0.190877
0.554624 0.003287 0.155371
0.653210 0.037776 0.150113
0.609491 -0.081001 0.179646
0.624059 0.040994 0.155572
0.547988 0.049425 0.121219
0.606322 -0.061450 0.140723
0.632554 -0.008863 0.156699
0.681798 -0.011361 0.149909
0.609975 -0.021042 0.191381
0.584222 -0.042332 0.157202
0.648006 -0.027720 0.176028
0.548126 0.014670 0.132266
0.654552 0.000857 0.134136
0.546036 0.058750 0.145740
0.675251 0.050701 0.134024
0.681021 0.052155 0.098871
0.638134 0.011600 0.170093
0.658289 -0.050383 0.150229
0.609139 -0.035508 0.171440
0.570816 -0.053792 0.194517
0.681929 0.071134 0.114236
0.651794 0.087328 0.156714
0.557245 -0.011010 0.173830
0.637321 -0.071632 0.155162
0.613003 0.008006 0.193106
0.693964 0.002851 0.136635
0.558106 -0.062649 0.159817
0.592174 -0.085547 0.153002
0.611867 -0.006037 0.174542
0.581109 -0.021004 0.195324
0.554362 -0.041271 0.166268
0.580955 0.001277 0.169004
0.681011 0.010829 0.100866
0.626798 -0.035837 0.184538
0.647020 0.068902 0.169726
0.651483 0.042400 0.129168
0.529511 -0.020178 0.149365
0.623181 -0.057122 0.182427
0.686799 0.040478 0.115374
0.572599 -0.062155 0.175590
0.545995 -0.005413 0.136789
0.671327 0.012904 0.129324
0.586856 -0.040940 0.195951
0.524193 0.014121 0.158170
0.665432 -0.025087 0.133310
0.630738 0.025094 0.182696
0.631818 0.059112 0.158183
0.568633 -0.082749 0.199015
0.621584 -0.042015 0.139811
0.628752 -0.073463 0.172672
0.662590 -0.039193 0.165698
0.656306 0.024645 0.135805
0.637715 -0.024673 0.146120
0.592330 -0.020466 0.158822
0.647580 0.081544 0.137253
0.552380 0.019886 0.165098
0.533394 0.044301 0.149882
0.587827 -0.075463 0.172457
0.598315 0.007743 0.171239
0.548344 0.033220 0.130508
0.627186 0.022867 0.160246
0.563834 0.045641 0.129797
0.540209 0.025578 0.147100
0.655642 0.023860 0.161883
0.549158 -0.034142 0.182224
0.648781 -0.011859 0.164398
0.615962 -0.011696 0.148470
0.675193 0.008810 0.147136
0.526884 -0.007916 0.162086
0.646510 -0.039128 0.158129
0.649588 0.053399 0.161437
0.622762 0.037604 0.172935
0.621014 -0.071027 0.139313
0.564901 0.055137 0.144680
0.599082 -0.048226 0.149950
0.582813 -0.047898 0.174922
0.618252 0.007516 0.164651
0.672127 0.066934 0.128263
0.636022 -0.024887 0.163496
0.568965 -0.019060 0.163711
0.673350 -0.027335 0.151760
0.644446 0.003186 0.153308
0.670068 0.037182 0.101118
0.540681 -0.011447 0.177992
0.662883 0.082644 0.144402
0.535793 0.045810 0.132559
0.684029 0.026540 0.127247
0.576536 -0.011462 0.182301
0.608035 -0.064494 0.179689
0.549485 -0.019958 0.162275
0.644317 -0.061710 0.144082
0.666937 0.037177 0.138080
0.662525 -0.007878 0.152095
0.551803 0.064861 0.131115
0.531375 0.011876 0.132530
0.554062 -0.059070 0.176526
0.678198 0.055812 0.118239
0.640892 0.030183 0.138974
0.637722 0.033087 0.166791
0.569350 -0.051267 0.160040
0.559983 -0.077160 0.153383
0.658530 0.073214 0.159593
0.577962 -0.085662 0.159884
0.659953 0.055459 0.131540
0.635524 -0.022211 0.184039
0.689337 0.027212 0.104318
0.618498 -0.015102 0.163890
0.665571 0.044712 0.118470
0.559135 -0.045884 0.188338
0.657414 -0.036793 0.139250
0.547895 0.045943 0.154594
0.639794 0.045007 0.153320
0.687786 0.003793 0.119769
0.660907 0.016654 0.147882
0.548554 0.003304 0.173075
0.579753 -0.091235 0.194081
0.642265 0.024055 0.155630
0.570670 -0.036637 0.165196
0.685513 0.015081 0.136278
0.560309 -0.026950 0.172852
0.564346 -0.048746 0.175002
0.596347 -0.023902 0.195476
0.597436 -0.067704 0.192034
0.613825 -0.040105 0.189341
0.674602 0.021271 0.092380
0.614275 -0.007550 0.194136
0.567281 -0.026104 0.190802
0.652995 -0.011949 0.142209
0.608574 -0.087324 0.166858
0.676418 0.038497 0.125386
0.641299 0.074681 0.156903
0.522319 0.016414 0.144297
0.675901 -0.015575 0.134271
0.662663 -0.011502 0.130516
0.569481 -0.069876 0.164213
0.608243 -0.075141 0.147064
0.549814 0.046644 0.139784
0.590395 -0.006754 0.156914
0.595791 -0.083675 0.180476
0.558918 0.058547 0.120890
0.698048 0.015405 0.130218
0.681185 0.015861 0.117630
0.618604 0.004509 0.180854
0.661707 0.048344 0.144371
0.668175 0.071180 0.114521
0.629826 -0.055368 0.141263
0.605070 0.014954 0.184316
0.537945 0.024319 0.132907
0.634470 -0.046445 0.180499
0.533803 0.018809 0.169429
0.628060 -0.081589 0.161700
0.638121 0.058321 0.170211
0.604498 0.001024 0.185256
0.649531 0.002270 0.165787
0.664413 0.029866 0.149112
0.644860 -0.064876 0.165542
0.659112 -0.037105 0.152552
0.647619 0.014786 0.139205
0.556987 0.066131 0.143664
0.681085 -0.001439 0.140989
0.601116 -0.008474 0.195858
0.622560 -0.020381 0.186191
0.552572 0.017322 0.152108
0.602914 -0.010696 0.152028
0.639471 -0.037328 0.141537
0.683025 0.039597 0.102333
0.608403 0.016122 0.163258
0.616827 0.030582 0.162364
0.627229 -0.000384 0.169674
0.538414 -0.014293 0.156597
0.626516 0.012984 0.175265
0.533584 -0.000003 0.154718
0.658218 0.095538 0.149425
0.628501 0.007061 0.157155
0.667726 -0.017691 0.158159
0.597560 -0.040018 0.189328
0.591883 -0.085554 0.165542
0.541233 0.036549 0.141130
0.666682 0.001741 0.141264
0.549257 -0.020372 0.176029
0.538133 -0.029200 0.148841
0.666453 0.000096 0.128036
0.554490 -0.009074 0.154059
0.670133 0.047799 0.107342
0.573035 -0.065704 0.192480
0.553209 -0.072014 0.165903
0.639255 -0.016021 0.174254
0.626730 0.047254 0.166761
0.619492 -0.069619 0.179441
0.679968 0.030291 0.112483
0.650030 -0.038267 0.170535
0.552037 0.006562 0.144081
0.648466 0.092973 0.142766
0.580135 -0.053653 0.155347
0.539767 0.013833 0.144754
0.642186 -0.010196 0.146916
0.648380 0.052271 0.173498
0.571783 -0.022174 0.180272
0.673417 0.062149 0.108831
0.564966 -0.057012 0.184694
0.667875 0.022682 0.139927
0.640853 0.074571 0.145068
0.673827 0.019538 0.109123
0.544491 0.036180 0.160297
0.581125 -0.072077 0.161675
0.647919 -0.022381 0.159251
0.647423 -0.030772 0.149970
0.633910 0.036238 0.181017
0.620643 -0.021848 0.145034
0.661208 -0.005196 0.163398
0.541928 -0.017394 0.144987
0.687359 0.018513 0.093527
0.545098 0.055754 0.133618
0.525174 -0.008441 0.150647
0.593968 -0.029374 0.151654
0.654456 0.073261 0.141349
0.658734 0.088249 0.133673
0.632951 0.033715 0.156000
0.609701 0.008639 0.172495
0.652814 0.013424 0.165700
0.584189 -0.084544 0.185904
0.548300 0.025256 0.139016
