ply
format ascii 1.0
element vertex 256
property float x
property float y
property float z
end_header
0.648552 0.130185 0.163363
0.517098 0.176945 0.146635
0.643328 0.250535 0.150614
0.550357 0.074656 0.198792
0.675486 0.184742 0.102165
0.575307 0.149301 0.190897
0.613317 0.067012 0.163149
0.629628 0.193995 0.191095
0.528111 0.119030 0.162849
0.602038 0.103816 0.204429
0.557472 0.212670 0.144889
0.673331 0.177022 0.156082
0.599563 0.122854 0.160920
0.624323 0.143372 0.199891
0.669037 0.217058 0.133427
0.530824 0.157531 0.183994
0.631353 0.168923 0.153191
0.573351 0.081078 0.162534
0.562122 0.111205 0.186506
0.637570 0.097963 0.183978
0.582795 0.050950 0.184818
0.602683 0.170653 0.177154
0.639092 0.214257 0.162055
0.667501 0.148840 0.135190
0.538805 0.148943 0.148318
0.632780 0.104538 0.145676
0.548717 0.182562 0.160251
0.655756 0.186624 0.130914
0.587917 0.075633 0.203338
0.593373 0.132882 0.210135
0.652317 0.159545 0.173578
0.534521 0.122628 0.192272
0.614862 0.080435 0.190181
0.621215 0.142638 0.170974
0.684336 0.173040 0.129486
0.649375 0.188650 0.169621
0.538251 0.195401 0.134183
0.600595 0.089284 0.152004
0.673016 0.143553 0.161859
0.515252 0.146020 0.164438
0.524680 0.182398 0.174472
0.612438 0.196560 0.170603
0.640754 0.124083 0.188031
0.575579 0.112166 0.209248
0.595813 0.159294 0.203284
0.535317 0.204497 0.158692
0.628564 0.165471 0.181269
0.643912 0.210141 0.137223
0.665310 0.205844 0.111247
0.598501 0.146272 0.180140
0.651954 0.103099 0.161214
0.547010 0.140938 0.169951
0.638601 0.236740 0.171620
0.605006 0.113689 0.182544
0.577661 0.106378 0.169535
0.646851 0.148966 0.149347
0.632380 0.080446 0.165593
0.613084 0.174651 0.197661
0.567549 0.085191 0.187284
0.633265 0.215651 0.185177
0.657841 0.198191 0.150655
0.588118 0.063918 0.163516
0.676512 0.195331 0.129968
0.683970 0.158937 0.148838
0.637970 0.189600 0.146428
0.556682 0.096897 0.202406
0.601454 0.062501 0.183435
0.565100 0.130751 0.196152
0.655406 0.167891 0.142032
0.669765 0.167233 0.113621
0.565208 0.063504 0.209928
0.537808 0.170260 0.145781
0.552856 0.084432 0.171708
0.612549 0.125623 0.200241
0.583494 0.072960 0.183414
0.543551 0.111908 0.177473
0.543321 0.163529 0.164902
0.657193 0.129358 0.145129
0.634613 0.232590 0.151097
0.524278 0.134323 0.180066
0.581686 0.142249 0.170570
0.614648 0.109628 0.151649
0.516490 0.157217 0.147308
0.655829 0.113922 0.177052
0.629812 0.127658 0.158414
0.561146 0.128415 0.177174
0.518645 0.164730 0.168224
0.575133 0.093097 0.208998
0.640387 0.140400 0.177029
0.634996 0.155579 0.166631
0.610780 0.157345 0.190825
0.631059 0.196930 0.169815
0.627044 0.110727 0.192536
0.541734 0.131248 0.153294
0.654757 0.224790 0.124661
0.524271 0.136754 0.151134
0.553984 0.192118 0.143166
0.622563 0.215689 0.170417
0.663885 0.161803 0.158524
0.541827 0.141718 0.187252
0.599210 0.088277 0.194319
0.639652 0.113307 0.169717
0.615810 0.080675 0.150011
0.554319 0.201550 0.158124
0.654329 0.177619 0.156887
0.592728 0.101679 0.161848
0.576879 0.100055 0.187039
0.525855 0.192679 0.149826
0.666337 0.184376 0.117077
0.657330 0.219286 0.146202
0.628419 0.126669 0.175790
0.643599 0.174223 0.177422
0.665636 0.127020 0.163333
0.651974 0.238378 0.159245
0.607362 0.139194 0.161581
0.618700 0.176249 0.172796
0.671555 0.181467 0.139896
0.612649 0.187471 0.187015
0.633155 0.181302 0.164673
0.661591 0.202395 0.132274
0.638587 0.091194 0.154818
0.617533 0.097620 0.195276
0.550830 0.122563 0.189939
0.589119 0.157460 0.172741
0.541257 0.210898 0.144261
0.653852 0.145474 0.165348
0.538442 0.127878 0.175223
0.561632 0.101008 0.173880
0.548879 0.087110 0.188601
0.609557 0.137091 0.189360
0.582742 0.144267 0.206454
0.555494 0.070321 0.164679
0.580627 0.063162 0.196541
0.530598 0.181861 0.137639
0.618909 0.158340 0.170829
0.592155 0.166271 0.188106
0.574054 0.062677 0.170586
0.648530 0.224277 0.169655
0.670925 0.165361 0.132351
0.628098 0.128513 0.196427
0.604943 0.146550 0.204117
0.530621 0.171134 0.159715
0.537385 0.191707 0.167524
0.628600 0.080855 0.180702
0.590780 0.115087 0.208740
0.644411 0.198496 0.158806
0.681945 0.180864 0.115578
0.650061 0.116977 0.150825
0.542859 0.109887 0.193862
0.573308 0.130199 0.208967
0.625884 0.179049 0.191044
0.639132 0.201508 0.181663
0.633419 0.142337 0.159720
0.543365 0.118317 0.160716
0.570574 0.079504 0.204622
0.541444 0.184956 0.147547
0.519338 0.148518 0.181659
0.539410 0.174641 0.173565
0.547357 0.153632 0.180885
0.630138 0.226840 0.164837
0.670213 0.196771 0.142953
0.584767 0.102781 0.203214
0.667059 0.139483 0.146206
0.559407 0.097416 0.188127
0.520650 0.131886 0.166642
0.564714 0.077742 0.175655
0.662728 0.177936 0.105070
0.603436 0.075500 0.157770
0.592657 0.150471 0.192777
0.660936 0.171612 0.168063
0.584470 0.128615 0.171906
0.548861 0.204901 0.134199
0.683308 0.175443 0.144396
0.560330 0.120238 0.203986
0.623840 0.069701 0.171860
0.646076 0.166676 0.159045
0.618866 0.200460 0.182179
0.595972 0.067594 0.194984
0.623698 0.096753 0.152456
0.521596 0.185688 0.160819
0.650011 0.196995 0.139486
0.527159 0.169356 0.177870
0.566853 0.140096 0.185539
0.668372 0.189614 0.157258
0.652488 0.211170 0.126745
0.594337 0.139264 0.165358
0.640308 0.154459 0.178998
0.668803 0.168010 0.147124
0.528551 0.120143 0.180152
0.670594 0.207983 0.123574
0.639669 0.087238 0.176126
0.659955 0.228618 0.136951
0.652018 0.116303 0.164049
0.546054 0.212268 0.156953
0.656507 0.154713 0.140693
0.644108 0.225552 0.157183
0.624010 0.153788 0.185610
0.632248 0.115319 0.153310
0.622361 0.168258 0.162994
0.606160 0.149859 0.170152
0.661161 0.196523 0.119286
0.542554 0.198422 0.147597
0.641149 0.246027 0.162582
0.607062 0.182493 0.174306
0.666935 0.178085 0.128331
0.664580 0.208644 0.145554
0.641909 0.214223 0.175876
0.526479 0.143710 0.169976
0.610349 0.135353 0.176816
0.676158 0.158927 0.159305
0.647405 0.207493 0.150503
0.649627 0.188488 0.150975
0.588034 0.063408 0.176049
0.630873 0.189147 0.179510
0.675271 0.149543 0.151217
0.605814 0.176652 0.187866
0.599859 0.158294 0.182673
0.654067 0.141047 0.142718
0.614003 0.113394 0.200898
0.533559 0.184623 0.158034
0.544766 0.145113 0.158359
0.617675 0.170243 0.184293
0.637685 0.158470 0.154199
0.584753 0.156986 0.185326
0.548630 0.074559 0.177487
0.574230 0.094910 0.167291
0.631290 0.135291 0.186844
0.592939 0.093999 0.204678
0.659048 0.133380 0.171219
0.643317 0.113898 0.182097
0.530878 0.159426 0.157251
0.684757 0.164833 0.138172
0.676252 0.155369 0.140044
0.550591 0.102238 0.181669
0.650213 0.220137 0.135612
0.629652 0.182879 0.153474
0.530118 0.141948 0.188826
0.639854 0.129887 0.171347
0.576426 0.076349 0.172869
0.612586 0.129484 0.157680
0.652313 0.147331 0.176788
0.514748 0.163235 0.157172
0.639945 0.121995 0.161937
0.653785 0.179389 0.143067
0.672607 0.198303 0.117461
0.541806 0.163037 0.177024
0.522830 0.148492 0.151466
0.586521 0.120107 0.164369
0.645735 0.235291 0.149631
0.645377 0.176293 0.165340
0.614943 0.150802 0.179197
0.642274 0.163788 0.169976
0.576735 0.055903 0.204507
0.594102 0.147782 0.207580
0.649133 0.138946 0.156036
0.678332 0.183556 0.126053
