ply
format ascii 1.0
element vertex 256
property float x
property float y
property float z
end_header
0.656426 -0.022064 0.150387
0.526505 0.033108 0.134017
0.656834 0.100024 0.135742
0.554571 -0.069908 0.186683
0.686346 0.030292 0.088459
0.590645 -0.000884 0.187980
0.617282 -0.082866 0.152153
0.639585 0.047303 0.177671
0.550572 -0.023688 0.145669
0.679055 0.027043 0.143051
0.567926 0.067506 0.130787
0.604653 -0.050985 0.190382
0.607099 -0.026402 0.147613
0.682062 0.069367 0.112399
0.635431 0.017226 0.143735
0.533705 0.005898 0.173851
0.632709 -0.005969 0.186076
0.578290 -0.066359 0.150497
0.643226 -0.052705 0.172083
0.570547 -0.033553 0.179263
0.677125 -0.005626 0.122143
0.585589 -0.096126 0.174036
0.648298 0.066510 0.147593
0.612539 0.023260 0.173898
0.639248 -0.047344 0.133499
0.558715 0.037755 0.146572
0.526142 0.000646 0.140996
0.665351 0.037455 0.115518
0.695177 0.018451 0.115711
0.661821 0.007629 0.158856
0.605061 0.003288 0.153776
0.536151 -0.025349 0.171013
0.534203 0.032432 0.163113
0.584266 -0.072613 0.190232
0.554635 0.004574 0.154885
0.653354 0.038803 0.149384
0.609365 -0.079876 0.178902
0.624158 0.042103 0.154853
0.547823 0.050824 0.120794
0.606103 -0.060293 0.140003
0.632536 -0.007775 0.155891
0.681772 -0.010459 0.149062
0.672057 0.055976 0.134792
0.610055 -0.019925 0.190672
0.584116 -0.041125 0.156577
0.648010 -0.026697 0.175171
0.548080 0.015989 0.131812
0.654755 0.002035 0.133516
0.545981 0.060105 0.145341
0.675640 0.051982 0.095370
0.638218 0.012633 0.169327
0.658135 -0.049372 0.149320
0.609105 -0.034378 0.170725
0.673555 0.017524 0.104733
0.570820 -0.052572 0.193935
0.651873 0.088385 0.155638
0.557287 -0.009741 0.173326
0.637128 -0.070567 0.154319
0.613168 0.009114 0.192403
0.687931 0.041735 0.112035
0.693987 0.003747 0.135827
0.557956 -0.061373 0.159278
0.591936 -0.084359 0.152321
0.611927 -0.004914 0.173834
0.661032 0.062145 0.115356
0.581204 -0.019812 0.194723
0.554294 -0.039990 0.165756
0.581012 0.002485 0.168417
0.626813 -0.034762 0.183756
0.647236 0.069947 0.168943
0.665647 0.019529 0.127297
0.529436 -0.018819 0.148959
0.652284 0.048668 0.130795
0.623130 -0.056036 0.181646
0.572509 -0.060928 0.174997
0.545913 -0.004091 0.136330
0.586900 -0.039764 0.195316
0.524244 0.015489 0.157805
0.665333 -0.024057 0.132430
0.630900 0.026167 0.181941
0.631969 0.060201 0.157448
0.568576 -0.081525 0.198424
0.621413 -0.040899 0.139045
0.628621 -0.072386 0.171861
0.662524 -0.038203 0.164779
0.637615 -0.023604 0.145304
0.592290 -0.019283 0.158179
0.647464 0.082413 0.136278
0.674124 0.005525 0.137872
0.552472 0.021173 0.164631
0.654352 0.018541 0.144441
0.533402 0.045615 0.149530
0.587690 -0.074276 0.171799
0.548275 0.034606 0.130055
0.598398 0.008903 0.170591
0.627260 0.023965 0.159503
0.563727 0.047071 0.129278
0.540253 0.026914 0.146679
0.648785 0.024994 0.160967
0.549169 -0.032856 0.181736
0.648784 -0.010831 0.163548
0.667962 0.038271 0.133552
0.615906 -0.010569 0.147744
0.681665 0.029281 0.125481
0.526890 -0.006558 0.161697
0.646416 -0.038090 0.157271
0.622918 0.038703 0.172219
0.649805 0.054495 0.160694
0.620764 -0.069909 0.138533
0.564851 0.056545 0.144171
0.598934 -0.047055 0.149265
0.582760 -0.046698 0.174299
0.618307 0.008632 0.163929
0.635987 -0.023824 0.162686
0.568947 -0.017816 0.163158
0.673257 -0.026403 0.150865
0.651212 0.028743 0.130717
0.644467 0.004238 0.152509
0.540738 -0.010135 0.177550
0.662841 0.083616 0.143250
0.535702 0.047158 0.132195
0.576609 -0.010250 0.181724
0.607954 -0.063365 0.178961
0.549460 -0.018661 0.161795
0.644109 -0.060657 0.143219
0.690952 0.018789 0.099170
0.662554 -0.006946 0.151429
0.551651 0.066256 0.130694
0.531324 0.013240 0.132137
0.672971 0.036051 0.101321
0.553985 -0.057793 0.176004
0.678539 0.010338 0.120790
0.569232 -0.050022 0.159465
0.559770 -0.075886 0.152829
0.658676 0.074315 0.158572
0.676064 0.052151 0.111539
0.577750 -0.084440 0.159257
0.635574 -0.021159 0.183232
0.672005 0.068652 0.124212
0.618491 -0.013992 0.163152
0.559138 -0.044629 0.187805
0.637725 0.033125 0.170018
0.657270 -0.035750 0.138337
0.690450 0.020251 0.135294
0.639894 0.046081 0.152546
0.547925 0.047289 0.154164
0.678531 0.045659 0.125485
0.641377 0.031071 0.142136
0.676297 0.014136 0.150353
0.548632 0.004597 0.172612
0.579655 -0.090039 0.193443
0.570610 -0.035399 0.164625
0.661880 0.049353 0.143653
0.560305 -0.025688 0.172327
0.665278 0.029524 0.147375
0.564291 -0.047497 0.174448
0.596435 -0.022751 0.194817
0.597394 -0.066554 0.191344
0.613846 -0.038998 0.188605
0.614403 -0.006447 0.193418
0.681835 0.028809 0.110024
0.567346 -0.024873 0.190251
0.653050 -0.010839 0.141447
0.608383 -0.086188 0.166114
0.641414 0.075715 0.156056
0.522324 0.017796 0.143941
0.675843 -0.014593 0.133415
0.662618 -0.010450 0.129686
0.674209 0.023978 0.091888
0.569327 -0.068633 0.163627
0.608010 -0.073993 0.146329
0.549760 0.048018 0.139344
0.590384 -0.005563 0.156287
0.595662 -0.082514 0.179783
0.558726 0.059977 0.120419
0.618712 0.005612 0.180128
0.629625 -0.054274 0.140458
0.605221 0.016088 0.183646
0.537929 0.025665 0.132496
0.634441 -0.045388 0.179682
0.627865 -0.080503 0.160886
0.533909 0.020144 0.169030
0.638315 0.059386 0.169452
0.669094 0.070445 0.108273
0.604614 0.002156 0.184580
0.649572 0.003271 0.164976
0.681145 0.058790 0.123063
0.685901 0.009453 0.107442
0.644724 -0.063838 0.164675
0.659003 -0.036098 0.151648
0.556901 0.067519 0.143216
0.601247 -0.007336 0.195190
0.622623 -0.019296 0.185435
0.552609 0.018616 0.151638
0.602875 -0.009537 0.151352
0.639320 -0.036260 0.140707
0.663411 0.051334 0.124177
0.608473 0.017261 0.162578
0.616927 0.031702 0.161664
0.685999 0.004584 0.146126
0.627267 0.000691 0.168898
0.538382 -0.012963 0.156161
0.644195 0.043300 0.165474
0.677875 0.017132 0.133838
0.686145 0.050211 0.102505
0.690258 0.005484 0.122523
0.634713 0.035390 0.157799
0.626623 0.014073 0.174516
0.533584 0.001342 0.154310
0.658198 0.096544 0.148205
0.628544 0.008163 0.156396
0.597582 -0.038867 0.188654
0.591692 -0.084373 0.164863
0.541215 0.037898 0.140721
0.667679 -0.016758 0.157303
0.549282 -0.019082 0.175549
0.538032 -0.027864 0.148398
0.666456 0.001140 0.127244
0.554463 -0.007785 0.153566
0.684626 -0.004961 0.138299
0.666135 -0.003600 0.139929
0.658874 0.019689 0.156360
0.572999 -0.064488 0.191883
0.553057 -0.070729 0.165377
0.639284 -0.014974 0.173437
0.626885 0.048348 0.166037
0.619396 -0.068520 0.178667
0.649985 -0.037246 0.169664
0.552014 0.007863 0.143607
0.648381 0.093894 0.141675
0.579992 -0.052434 0.154731
0.642128 -0.009139 0.146092
0.539767 0.015167 0.144330
0.648571 0.053310 0.172697
0.571819 -0.020948 0.179706
0.564924 -0.055770 0.184133
0.648602 0.008318 0.141483
0.667912 0.045904 0.105568
0.640840 0.075496 0.144228
0.544579 0.037508 0.159870
0.580957 -0.070865 0.161044
0.647793 -0.021404 0.158352
0.647314 -0.029724 0.149087
0.620547 -0.020732 0.144284
0.661192 -0.004368 0.162752
0.541845 -0.016066 0.144537
0.634092 0.037304 0.180258
0.652896 0.014413 0.164911
0.544984 0.057126 0.133219
0.525136 -0.007071 0.150265
0.593876 -0.028190 0.151000
0.669830 0.003518 0.151621
0.654405 0.074185 0.140374
0.681147 0.014464 0.094969
0.658562 0.089112 0.132515
0.698181 0.016310 0.127767
