ply
format ascii 1.0
element vertex 256
property float x
property float y
property float z
end_header
0.650602 0.010747 0.198936
0.533502 0.065542 0.146224
0.660162 0.123019 0.159604
0.541363 -0.030692 0.217119
0.684636 0.045666 0.126199
0.579079 0.037457 0.217909
0.609557 -0.048814 0.199399
0.633552 0.082137 0.209596
0.544631 0.006935 0.166040
0.672816 0.056835 0.178469
0.576187 0.093862 0.141098
0.590132 -0.012080 0.229575
0.602967 0.006705 0.185736
0.680834 0.086882 0.147063
0.543187 0.046654 0.183995
0.622488 0.042676 0.197377
0.572607 -0.032173 0.187015
0.560289 0.003767 0.203275
0.620544 0.013285 0.224907
0.631955 -0.023551 0.219084
0.573298 -0.058719 0.215092
0.673269 0.019873 0.167673
0.647986 0.093880 0.178119
0.555335 0.038319 0.149847
0.636545 -0.016295 0.181891
0.639603 0.061621 0.176027
0.660106 0.057825 0.148542
0.563074 0.070683 0.159276
0.524909 0.033855 0.161142
0.533041 0.017484 0.194264
0.691440 0.041932 0.156211
0.655033 0.042107 0.198232
0.594006 0.043478 0.189459
0.613958 0.070051 0.190798
0.569405 -0.033286 0.227540
0.596064 -0.042275 0.223112
0.602276 -0.027872 0.182354
0.559465 0.074799 0.129524
0.675889 0.022706 0.195146
0.603673 0.051782 0.215327
0.648539 0.034713 0.173499
0.671794 0.082285 0.171468
0.656142 0.069197 0.194791
0.672110 0.070124 0.129025
0.564562 0.017645 0.225761
0.598416 0.003559 0.209873
0.651375 -0.016488 0.201669
0.556313 -0.012767 0.225624
0.551000 0.088721 0.148793
0.539267 0.068328 0.169459
0.600801 0.032349 0.229180
0.577985 -0.006439 0.191073
0.624956 0.019426 0.200316
0.651855 0.116994 0.180738
0.670770 0.037331 0.144359
0.567616 0.030194 0.198849
0.625396 0.059704 0.213814
0.639445 -0.001721 0.218007
0.688884 0.033198 0.179422
0.551061 -0.025833 0.190329
0.584759 -0.049954 0.194066
0.682680 0.060390 0.146545
0.625010 -0.037504 0.187688
0.644244 0.102170 0.198115
0.659821 0.082346 0.153132
0.553139 0.028593 0.176640
0.628343 0.087109 0.183178
0.620137 0.036945 0.221610
0.553434 0.057069 0.139604
0.597942 0.010281 0.229961
0.609856 -0.018455 0.225897
0.660840 0.005173 0.181428
0.526450 0.033708 0.181881
0.561793 -0.023533 0.208730
0.545154 0.000418 0.189575
0.525297 0.053230 0.168808
0.553068 0.053521 0.166167
0.532064 0.040964 0.143294
0.599659 0.033416 0.206096
0.639812 0.044365 0.211333
0.541067 0.022029 0.153534
0.663772 0.044335 0.162622
0.551941 -0.040861 0.233045
0.636505 0.056643 0.196140
0.618208 -0.008961 0.182457
0.641337 0.028178 0.190673
0.616691 -0.036005 0.219693
0.650470 0.106145 0.162638
0.572206 -0.000091 0.228977
0.526806 0.017143 0.171453
0.655555 0.067785 0.166524
0.586497 0.015323 0.191749
0.668900 0.034768 0.179498
0.545626 -0.006988 0.210634
0.637781 -0.030771 0.202570
0.576740 -0.037372 0.210694
0.571979 0.073317 0.142948
0.635881 0.003380 0.190966
0.640714 0.023689 0.208554
0.654314 0.053699 0.183212
0.612174 0.022309 0.185876
0.672566 0.068715 0.158998
0.639055 0.075999 0.192417
0.550687 0.017992 0.190968
0.656727 0.021983 0.184514
0.593792 -0.013453 0.188061
0.572523 -0.009644 0.208591
0.585624 0.022774 0.229906
0.560893 -0.009813 0.192121
0.667491 0.007564 0.200639
0.670102 0.096207 0.156824
0.604905 0.055502 0.195135
0.553292 0.004136 0.221235
0.679115 0.052892 0.163076
0.567051 0.089577 0.154709
0.665902 0.113198 0.172143
0.617694 0.073041 0.207316
0.671767 0.052817 0.134039
0.622220 -0.003273 0.225685
0.659632 0.080273 0.182595
0.595358 -0.025879 0.220808
0.688534 0.037647 0.139939
0.659705 0.102714 0.185210
0.605721 -0.043696 0.184034
0.547868 0.069392 0.152834
0.581370 0.041900 0.199418
0.554822 0.020904 0.161872
0.632636 0.048604 0.182401
0.544376 0.073263 0.137290
0.592013 0.045127 0.224124
0.538432 0.005668 0.203877
0.656970 0.026690 0.202021
0.553652 -0.041082 0.186298
0.677865 0.034690 0.160458
0.652658 -0.005390 0.190053
0.537705 0.053151 0.155240
0.560750 0.092048 0.136706
0.649569 0.087840 0.193003
0.569402 -0.048955 0.197601
0.633839 0.008077 0.206642
0.540015 0.031010 0.189118
0.620033 0.058369 0.198951
0.597806 0.028705 0.191517
0.627963 0.066143 0.185828
0.640241 0.014354 0.220603
0.544113 0.081897 0.160492
0.669876 0.046462 0.189017
0.623017 0.081341 0.195954
0.669581 0.068439 0.143921
0.539009 0.053515 0.137916
0.541340 0.017192 0.176354
0.563484 -0.050087 0.231768
0.641215 0.106716 0.174086
0.680344 0.044604 0.175186
0.611413 0.042402 0.207244
0.544234 -0.020586 0.202075
0.595544 0.047540 0.203325
0.582203 -0.027299 0.230806
0.613860 0.025851 0.206833
0.649453 0.058811 0.202055
0.597668 -0.050182 0.211312
0.562455 0.022926 0.209965
0.637696 0.040008 0.197593
0.634733 0.091685 0.197486
0.560882 -0.032609 0.197980
0.672845 0.038535 0.130561
0.533524 0.007248 0.184740
0.623409 -0.038497 0.201532
0.582407 -0.044603 0.221218
0.570320 0.083960 0.130537
0.665846 0.069011 0.175865
0.693315 0.043687 0.170159
0.633212 0.068056 0.203373
0.680497 0.083213 0.160664
0.671248 0.014269 0.180850
0.525462 0.046855 0.156052
0.625346 -0.022141 0.187320
0.610236 0.034326 0.192240
0.583053 0.033013 0.189219
0.662141 0.027393 0.169963
0.558686 0.076599 0.142986
0.629104 0.020986 0.216497
0.678254 0.047718 0.150574
0.637053 0.100117 0.186811
0.652702 -0.003461 0.216213
0.553644 0.041349 0.171940
0.646625 0.039917 0.186750
0.656053 0.080818 0.168943
0.593452 -0.040984 0.189623
0.659449 0.055694 0.170311
0.609120 0.063180 0.205381
0.559222 -0.011164 0.212848
0.582673 0.007777 0.230582
0.646908 0.068762 0.184682
0.680113 0.036522 0.188510
0.644049 -0.022204 0.192603
0.538197 0.056346 0.174326
0.682031 0.030447 0.148495
0.529656 0.047260 0.179417
0.638666 -0.004122 0.205331
0.657219 0.100741 0.172300
0.670112 0.092207 0.142339
0.656097 -0.004185 0.202392
0.624374 0.039626 0.209874
0.681822 0.061402 0.133863
0.533836 0.032279 0.170079
0.534221 0.072129 0.157061
0.543362 0.032662 0.147180
0.609251 0.005552 0.227057
0.685131 0.050402 0.139020
0.665089 0.028580 0.192520
0.551325 0.070041 0.166432
0.581754 -0.048335 0.206136
0.553601 0.051732 0.153777
0.643877 0.015187 0.189387
0.679162 0.099177 0.148260
0.535099 0.014197 0.162647
0.679488 0.025167 0.183518
0.563697 0.064031 0.140245
0.544823 0.046278 0.146088
0.567986 0.028076 0.219735
0.558397 -0.024875 0.225604
0.531651 0.029488 0.151066
0.655472 0.123387 0.170926
0.544555 -0.034255 0.196285
0.573906 -0.017839 0.189765
0.618041 -0.045469 0.209920
0.664205 0.089351 0.165185
0.606360 -0.031173 0.223726
0.557496 0.081295 0.160707
0.599729 0.039139 0.216709
0.663712 0.062005 0.131952
0.562713 0.017717 0.191149
0.549565 0.054919 0.177933
0.666133 0.046593 0.174298
0.608156 -0.006639 0.226618
0.681862 0.027343 0.171296
0.645507 0.051321 0.174787
0.630618 0.029468 0.205990
0.643661 0.086606 0.205192
0.532287 0.006486 0.172939
0.547651 0.012670 0.201148
0.631162 0.050063 0.205556
0.639887 -0.014940 0.217271
0.647904 0.107719 0.186916
0.671095 0.080225 0.146589
0.669144 0.053697 0.155041
0.572693 -0.035304 0.198366
0.645890 0.032255 0.200964
0.614310 0.063167 0.215947
0.551407 -0.009280 0.199058
0.563685 0.097722 0.146567
0.663107 0.061988 0.184867
0.610042 0.018469 0.224896
0.617039 0.011725 0.184830
0.661800 0.016247 0.173383
