ply
format ascii 1.0
element vertex 256
property float x
property float y
property float z
end_header
0.649845 -0.012572 0.148567
0.521591 0.045912 0.134757
0.653652 0.109720 0.135461
0.547501 -0.058431 0.186032
0.680641 0.039502 0.086851
0.584942 0.009869 0.186945
0.609533 -0.072592 0.150757
0.634834 0.056896 0.176409
0.543756 -0.011912 0.145522
0.676016 0.039216 0.141402
0.564532 0.078348 0.131102
0.597987 -0.040502 0.189152
0.600414 -0.015935 0.146371
0.672722 0.080990 0.105066
0.629502 0.027099 0.142154
0.535236 0.025363 0.171446
0.626871 0.003957 0.184542
0.570858 -0.055319 0.149570
0.636300 -0.042965 0.170398
0.674812 0.005620 0.120946
0.564202 -0.022480 0.178507
0.577845 -0.085244 0.173004
0.646752 0.058200 0.128946
0.607171 0.033580 0.172609
0.655620 0.080920 0.156074
0.631975 -0.037494 0.131867
0.554168 0.048957 0.146846
0.520106 0.013297 0.141527
0.535162 -0.007908 0.177004
0.657623 0.018616 0.156839
0.681910 0.053247 0.114941
0.599033 0.013784 0.152577
0.577176 -0.061723 0.189229
0.629068 0.068412 0.151422
0.601993 -0.069470 0.177599
0.543518 0.062697 0.121318
0.598660 -0.049793 0.138753
0.626309 0.002169 0.154381
0.654388 0.027214 0.129120
0.542389 0.027954 0.132056
0.650151 0.044699 0.153390
0.530899 0.050627 0.162202
0.675445 -0.001561 0.147205
0.689760 0.026443 0.112303
0.604003 -0.009554 0.189397
0.577252 -0.030210 0.155597
0.641632 -0.017059 0.173446
0.542483 0.071888 0.145945
0.635154 0.021494 0.167941
0.669056 0.070610 0.127786
0.548392 0.014597 0.152241
0.637722 0.091605 0.142748
0.651003 -0.039907 0.147464
0.602534 -0.023968 0.169454
0.667635 0.026916 0.103097
0.564173 -0.041424 0.193102
0.560992 -0.002612 0.166214
0.614687 0.050473 0.156225
0.629642 -0.060689 0.152697
0.607708 0.019416 0.191108
0.522039 -0.003184 0.157857
0.673553 0.060503 0.094798
0.550731 -0.049941 0.158594
0.584166 -0.073586 0.151223
0.605961 0.005426 0.172550
0.682814 0.018002 0.137850
0.649801 0.005802 0.133958
0.575209 -0.008876 0.193788
0.547506 -0.028411 0.165312
0.620382 -0.024712 0.182275
0.519166 0.031209 0.157815
0.660834 0.046269 0.117575
0.575147 0.013443 0.167500
0.616256 -0.045908 0.180196
0.565474 -0.049796 0.174140
0.656246 0.069608 0.111475
0.640287 0.075588 0.169425
0.580517 -0.028937 0.194301
0.625650 0.035951 0.180573
0.663751 -0.009354 0.128931
0.561412 -0.070331 0.197599
0.614337 -0.030704 0.137627
0.621308 -0.062354 0.170336
0.655793 -0.028840 0.162877
0.630949 -0.013736 0.143705
0.585872 -0.008534 0.157116
0.535220 0.038995 0.147170
0.663862 0.055307 0.138654
0.544884 0.008605 0.174246
0.539608 0.007921 0.136443
0.644162 0.004986 0.160915
0.525690 0.008284 0.173520
0.651389 0.099554 0.153336
0.580350 -0.063437 0.170755
0.549594 0.033221 0.162198
0.592681 0.019515 0.169472
0.619963 0.032537 0.159099
0.543345 0.046413 0.130471
0.674803 0.025964 0.123163
0.637112 0.043059 0.136951
0.559353 0.058143 0.129534
0.609532 -0.000279 0.146409
0.632510 0.048451 0.157532
0.639603 -0.028403 0.155558
0.550337 -0.033999 0.181889
0.613110 -0.059695 0.137104
0.650308 -0.026215 0.136468
0.561144 0.067454 0.144465
0.591862 -0.036424 0.148108
0.575994 -0.035770 0.173330
0.531705 0.060892 0.137535
0.629522 -0.013939 0.161105
0.680631 0.039241 0.104673
0.666578 -0.017318 0.148958
0.665577 0.013935 0.133086
0.617123 0.019469 0.172664
0.544061 -0.003157 0.160117
0.638932 0.011095 0.146073
0.570650 0.000786 0.180849
0.657447 0.093605 0.138906
0.529038 0.012028 0.157657
0.600908 -0.052934 0.177685
0.660605 0.033493 0.143049
0.551136 -0.013503 0.173956
0.636686 -0.050909 0.141521
0.548216 0.077864 0.131250
0.656423 0.002250 0.150106
0.525556 0.025786 0.132679
0.645015 0.063887 0.159327
0.647811 0.078692 0.142150
0.640872 0.031918 0.156175
0.562229 -0.038814 0.158655
0.552182 -0.064481 0.152114
0.565967 -0.019092 0.163023
0.617654 0.047990 0.171618
0.679274 0.041650 0.125438
0.682055 0.025505 0.096704
0.570064 -0.073393 0.158325
0.629403 -0.011284 0.181656
0.528461 -0.007550 0.144222
0.543953 0.058936 0.154659
0.651611 0.043255 0.129883
0.670850 0.022893 0.149681
0.692284 0.024949 0.127665
0.640893 0.087168 0.159166
0.612230 -0.003765 0.161783
0.646765 0.026152 0.143139
0.622424 0.018107 0.154707
0.673373 0.067573 0.113542
0.664061 0.055978 0.105582
0.572261 -0.079057 0.192483
0.625034 0.061299 0.166218
0.604041 0.025809 0.160526
0.538165 -0.016012 0.163981
0.546874 -0.046407 0.172186
0.666327 0.081892 0.118096
0.590379 -0.012114 0.193700
0.590433 -0.055925 0.190189
0.607393 -0.028696 0.187274
0.608647 0.003834 0.192100
0.551192 0.019979 0.167622
0.561202 -0.013658 0.189476
0.600736 -0.075750 0.164820
0.673135 0.054369 0.126318
0.668377 0.033448 0.090296
0.562007 -0.057427 0.162804
0.600371 -0.063533 0.145048
0.545599 0.059678 0.139818
0.584216 0.005222 0.155255
0.588251 -0.071837 0.178640
0.554834 0.071330 0.120831
0.531927 0.036205 0.163305
0.632273 0.040217 0.169061
0.622299 -0.044239 0.138935
0.599797 0.026554 0.182450
0.661796 0.059827 0.119461
0.540865 -0.019496 0.181617
0.527437 0.054210 0.148715
0.627751 -0.035483 0.178105
0.532596 0.037970 0.133018
0.620263 -0.070446 0.159366
0.679813 0.017294 0.110422
0.612187 0.009777 0.160743
0.519111 0.028688 0.144226
0.649746 0.051981 0.140593
0.685583 0.013868 0.123797
0.598930 0.012646 0.183384
0.652159 -0.026655 0.149789
0.637491 -0.054120 0.162966
0.553706 0.078795 0.143698
0.642919 0.017684 0.157086
0.664875 0.042310 0.130326
0.595499 0.003202 0.194026
0.682212 0.005109 0.134717
0.616518 -0.009168 0.184012
0.596566 0.001007 0.150170
0.632350 -0.026420 0.139081
0.564039 -0.038123 0.180322
0.543245 0.026405 0.149401
0.640571 0.031148 0.132558
0.557250 -0.030025 0.192249
0.668919 0.009870 0.145040
0.533157 0.052745 0.125431
0.682984 0.054249 0.102111
0.672000 0.036618 0.113668
0.656824 0.067438 0.129019
0.591136 -0.028245 0.187514
0.671048 0.048603 0.097947
0.584071 -0.073606 0.163766
0.635050 0.080755 0.150115
0.536608 0.049961 0.141264
0.674375 0.028263 0.135609
0.518143 0.018971 0.155576
0.653966 -0.011199 0.136453
0.660962 0.047748 0.148077
0.653182 0.032273 0.154804
0.637161 0.059077 0.150803
0.642036 0.070230 0.149020
0.566092 -0.053379 0.191017
0.662062 0.006467 0.124034
0.661261 -0.007590 0.155490
0.523311 0.025378 0.168810
0.545721 -0.059203 0.164744
0.624934 0.005266 0.172576
0.633119 -0.005165 0.171822
0.612242 -0.058314 0.177253
0.527158 -0.013779 0.155145
0.643333 -0.027641 0.167909
0.645364 -0.000534 0.143212
0.644973 0.103735 0.141214
0.572883 -0.041434 0.153793
0.646663 0.092579 0.133752
0.643935 0.062715 0.171423
0.565628 -0.009814 0.178882
0.622878 0.029670 0.170839
0.641122 -0.011878 0.156521
0.648271 0.017700 0.132438
0.640556 -0.020033 0.147316
0.673511 -0.002803 0.134028
0.573559 -0.059886 0.160082
0.557243 -0.037638 0.170760
0.625599 0.057116 0.150934
0.660590 0.103738 0.143850
0.629109 0.047018 0.178955
0.613930 -0.010528 0.142888
0.519585 0.002891 0.148189
0.668778 0.016097 0.121558
0.545449 -0.002945 0.172780
0.604679 0.019682 0.170391
0.541166 0.069041 0.133822
0.587198 -0.017465 0.149914
0.665848 0.069988 0.105137
0.568848 -0.030787 0.165808
0.638656 0.039642 0.147825
0.576718 -0.072454 0.184247
0.543114 0.038459 0.138896
