ply
format ascii 1.0
element vertex 256
property float x
property float y
property float z
end_header
0.651860 -0.011131 0.205851
0.532703 0.030111 0.155344
0.645978 0.105336 0.176056
0.549612 -0.067789 0.223633
0.686014 0.035291 0.141055
0.577944 0.004657 0.227670
0.619121 -0.075595 0.203625
0.625412 0.056746 0.221397
0.548119 -0.028353 0.173919
0.671390 0.043014 0.194278
0.574193 0.060556 0.153915
0.595784 -0.043515 0.236237
0.604855 -0.020796 0.193329
0.657084 0.069774 0.149532
0.628440 0.024666 0.191724
0.542299 0.010428 0.193005
0.619753 0.003977 0.234766
0.579976 -0.063407 0.192918
0.556156 -0.026477 0.213488
0.637331 -0.041973 0.226383
0.677980 0.007263 0.178678
0.584924 -0.091123 0.219390
0.637799 0.072918 0.190844
0.600940 0.030169 0.216636
0.556286 0.004428 0.159072
0.641080 -0.038837 0.187532
0.561166 0.036075 0.170365
0.526079 -0.003272 0.169144
0.653884 0.021889 0.210034
0.661136 0.040707 0.160830
0.531299 -0.023372 0.197944
0.581720 0.002371 0.198702
0.662687 0.066915 0.177621
0.687830 0.032892 0.169622
0.578013 -0.067166 0.233362
0.623216 0.000695 0.206068
0.605505 -0.072239 0.227925
0.608678 -0.054915 0.187961
0.559131 0.041229 0.140626
0.643834 0.046801 0.203291
0.614410 0.047647 0.197275
0.651550 0.010173 0.185563
0.675577 0.003819 0.205583
0.598056 -0.012076 0.235548
0.570929 -0.028460 0.235934
0.581990 -0.037446 0.198360
0.638889 -0.015490 0.228639
0.629646 0.022029 0.218556
0.643800 0.048538 0.177870
0.678610 0.056939 0.151975
0.564486 -0.050649 0.213178
0.656317 -0.038124 0.206986
0.602691 -0.027446 0.216843
0.548874 0.053949 0.159855
0.536939 0.032211 0.178977
0.598599 0.004081 0.215257
0.638570 0.095840 0.196326
0.597987 0.017177 0.235933
0.636819 -0.061175 0.208982
0.594564 -0.079757 0.198698
0.551002 -0.009545 0.198970
0.689378 0.024841 0.190527
0.617214 -0.025354 0.233220
0.679328 0.019405 0.154226
0.632977 0.078776 0.211155
0.660085 0.028800 0.179276
0.552701 -0.069740 0.202573
0.676915 0.050532 0.174775
0.555337 -0.005262 0.177855
0.616078 -0.046973 0.231829
0.661803 -0.008111 0.185432
0.553381 0.022843 0.149638
0.526956 -0.003966 0.189910
0.524362 0.015786 0.177401
0.533094 0.005077 0.151783
0.568654 -0.048605 0.236845
0.552048 0.018793 0.175754
0.617485 0.035602 0.226916
0.569388 -0.013175 0.223235
0.543532 -0.013253 0.161758
0.620513 0.066513 0.198727
0.548967 -0.035334 0.197216
0.561861 -0.077305 0.238744
0.621951 -0.034071 0.188864
0.641999 0.006911 0.214275
0.625019 -0.063080 0.224491
0.656282 -0.025857 0.222233
0.634771 -0.014887 0.197137
0.637812 0.087185 0.177499
0.529232 -0.020065 0.179004
0.669272 0.024428 0.198463
0.554459 -0.038129 0.229747
0.656094 0.056718 0.192098
0.585382 -0.069298 0.216174
0.615970 0.028956 0.205500
0.570884 0.039780 0.154724
0.598779 0.008762 0.196944
0.648008 0.060928 0.162684
0.587550 -0.014810 0.200137
0.567052 -0.003019 0.208438
0.669803 0.073072 0.161645
0.642178 -0.027796 0.211594
0.611549 0.016014 0.218052
0.610479 0.046206 0.214513
0.624158 -0.062980 0.190171
0.598505 -0.042100 0.194652
0.579814 -0.013569 0.238234
0.646676 0.028342 0.195485
0.629548 -0.014483 0.213792
0.668864 -0.012795 0.208564
0.587622 0.020243 0.221382
0.677403 0.038233 0.155640
0.637900 0.062773 0.205518
0.611907 -0.004130 0.194202
0.638350 0.010540 0.196363
0.564485 0.055302 0.166770
0.651717 0.090547 0.186546
0.656131 -0.025787 0.195564
0.626494 0.042229 0.211407
0.602566 -0.055985 0.226588
0.656059 0.004813 0.205757
0.645016 -0.051100 0.198910
0.568155 -0.027515 0.202370
0.666681 0.047304 0.146190
0.539335 -0.029891 0.210611
0.546449 0.034347 0.162961
0.543847 -0.020306 0.188126
0.666827 0.057164 0.164013
0.633376 0.038788 0.185824
0.575803 -0.039250 0.213810
0.642717 0.033973 0.212889
0.568704 -0.066015 0.204056
0.543701 0.038683 0.147390
0.677640 0.032883 0.181994
0.653431 0.041285 0.188924
0.645694 0.082870 0.202148
0.536961 0.017571 0.164124
0.559150 0.058212 0.148522
0.579307 -0.081023 0.202570
0.624569 -0.010938 0.233593
0.683172 0.009787 0.193215
0.565531 -0.043136 0.199528
0.655099 0.074472 0.166214
0.550149 -0.056306 0.212275
0.630026 0.052630 0.197012
0.552342 -0.041280 0.213209
0.541644 0.046344 0.170844
0.562360 -0.074726 0.192038
0.672362 0.029242 0.143529
0.594877 0.019911 0.206403
0.575113 0.008625 0.213476
0.539270 0.018700 0.146938
0.660824 0.046564 0.174568
0.570259 -0.066954 0.218805
0.574491 -0.084816 0.236719
0.673444 0.029679 0.168155
0.686432 0.018784 0.174792
0.557957 -0.054177 0.225944
0.589983 -0.059704 0.236731
0.666492 0.016707 0.186514
0.603975 -0.030714 0.235583
0.581461 -0.037902 0.232960
0.600440 0.001899 0.238219
0.535750 -0.008384 0.200415
0.611500 -0.006550 0.210006
0.648824 -0.001308 0.195018
0.607836 -0.079199 0.215658
0.629029 0.082466 0.196818
0.557052 -0.021537 0.226721
0.627110 0.017743 0.203941
0.610491 -0.068030 0.195445
0.555668 -0.017450 0.169386
0.649489 0.063333 0.180677
0.592234 -0.076270 0.226154
0.569450 0.050832 0.142648
0.659394 0.034072 0.200319
0.690790 0.032547 0.153707
0.525549 0.009886 0.164472
0.552774 0.001451 0.190890
0.630903 -0.046422 0.192821
0.626495 -0.035287 0.231515
0.630413 0.031420 0.203973
0.627358 -0.071726 0.214162
0.557469 0.042441 0.154074
0.624783 0.067639 0.211593
0.610158 0.006818 0.208012
0.641397 -0.053212 0.220200
0.587350 -0.000298 0.237314
0.611328 -0.010359 0.232966
0.598370 -0.004320 0.194986
0.673512 -0.001170 0.187838
0.638589 -0.027490 0.193844
0.543656 -0.019552 0.203615
0.536719 0.019923 0.183463
0.592027 0.009318 0.227034
0.655422 -0.024741 0.208548
0.563650 -0.015599 0.200120
0.528927 0.009904 0.187972
0.585781 -0.024923 0.238532
0.644380 0.034194 0.181265
0.604240 0.038929 0.206103
0.534822 -0.004294 0.178339
0.645490 0.103539 0.188934
0.532458 0.036278 0.166446
0.607878 -0.003806 0.221853
0.639776 0.018493 0.209752
0.666119 0.010741 0.200909
0.545003 -0.002244 0.155813
0.549057 0.034600 0.176760
0.591688 -0.079222 0.210896
0.553150 0.017478 0.163342
0.554985 -0.019652 0.182431
0.545188 0.011478 0.155186
0.538050 -0.021916 0.170413
0.563237 0.030240 0.151169
0.617884 0.026879 0.217572
0.666132 -0.012845 0.195958
0.664917 0.006432 0.179892
0.558316 -0.014471 0.212014
0.533530 -0.006640 0.159185
0.553140 -0.005996 0.164705
0.680517 0.050689 0.163073
0.557872 -0.060207 0.196994
0.620386 0.004490 0.222601
0.579429 -0.049201 0.196469
0.629660 -0.004849 0.224374
0.614814 0.055362 0.207851
0.643619 0.053385 0.188964
0.614246 -0.059906 0.228990
0.566400 -0.017324 0.234629
0.660739 -0.005808 0.214148
0.535658 -0.030198 0.180361
0.555004 0.046351 0.171854
0.642963 -0.026012 0.224371
0.672460 0.017606 0.175860
0.602690 0.020630 0.225398
0.548049 0.019458 0.187425
0.637078 0.099277 0.181377
0.634709 0.062862 0.217187
0.605822 0.007640 0.224294
0.630430 0.080752 0.185184
0.660906 0.079792 0.154399
0.580774 -0.067117 0.204064
0.565938 -0.060213 0.232123
0.644318 0.019008 0.188342
0.561217 0.063609 0.158752
0.689599 0.032629 0.181185
0.620204 0.046694 0.224343
0.618107 -0.013891 0.192453
0.656550 0.058855 0.170331
0.682299 0.021163 0.199016
0.655136 0.045836 0.200640
0.671136 0.050278 0.185205
0.642079 -0.010647 0.212115
0.553949 0.007468 0.177380
0.670082 0.025802 0.157775
