ply
format ascii 1.0
element vertex 256
property float x
property float y
property float z
end_header
0.644914 0.015594 0.183207
0.531698 0.082215 0.186780
0.548400 -0.025892 0.233454
0.684933 0.122905 0.169412
0.706240 0.051290 0.155505
0.594164 0.055852 0.219846
0.590482 -0.030849 0.174233
0.591532 0.114299 0.174137
0.651238 0.077390 0.198453
0.537752 0.032967 0.220594
0.595136 -0.001641 0.219689
0.540834 -0.021747 0.187477
0.585807 0.025050 0.183047
0.663717 0.049200 0.162927
0.626562 -0.022792 0.199818
0.686235 0.081065 0.176647
0.564734 0.101942 0.203003
0.622161 0.048299 0.191858
0.540383 0.044608 0.181956
0.558025 0.064973 0.209489
0.565358 -0.042068 0.205429
0.624059 0.019802 0.213400
0.563538 0.011968 0.207145
0.623965 -0.007596 0.167626
0.559134 0.103628 0.169408
0.657443 0.106541 0.182342
0.676999 0.024545 0.179642
0.706771 0.085940 0.152929
0.657131 0.044659 0.193138
0.622769 0.078782 0.185681
0.527593 0.058679 0.207012
0.585387 0.027306 0.226712
0.535096 -0.003030 0.211039
0.592992 0.056151 0.188036
0.571342 -0.001035 0.183333
0.656690 0.075664 0.170995
0.627337 0.068409 0.211240
0.558508 0.076620 0.183541
0.570344 -0.009498 0.228213
0.589013 -0.032029 0.214468
0.600232 0.002493 0.181102
0.563420 0.037948 0.213187
0.685727 0.069708 0.152731
0.680158 0.099396 0.158907
0.684604 0.036924 0.153492
0.639814 0.039654 0.174671
0.660368 0.023910 0.160231
0.642202 -0.011647 0.183816
0.683202 0.056652 0.176773
0.557501 -0.011432 0.204105
0.540638 0.081842 0.209669
0.581828 0.093905 0.182816
0.596717 0.014719 0.201984
0.568386 -0.026378 0.182504
0.607255 -0.036734 0.196795
0.608289 0.034707 0.223242
0.680384 0.103297 0.182504
0.636018 0.002867 0.203269
0.550081 0.014170 0.225531
0.606791 0.033262 0.179280
0.540486 0.017020 0.202309
0.641178 0.091194 0.180114
0.616503 -0.007663 0.212961
0.575154 0.053029 0.201072
0.572312 0.113798 0.185139
0.669379 0.069624 0.187959
0.626736 0.027085 0.188431
0.547591 0.099694 0.189677
0.523142 0.039221 0.198344
0.640284 0.061354 0.175300
0.640846 0.058829 0.196935
0.708174 0.067084 0.141627
0.608833 0.065544 0.201507
0.540187 0.064884 0.177578
0.699642 0.102178 0.165377
0.569622 -0.029646 0.221351
0.610809 -0.027597 0.174209
0.606116 0.042822 0.202866
0.623686 0.043166 0.213500
0.700671 0.070782 0.167196
0.554023 0.055487 0.191696
0.543481 0.040475 0.201172
0.586665 -0.038808 0.191674
0.573231 0.012110 0.228099
0.663972 0.088310 0.187228
0.541907 0.055167 0.219347
0.667842 0.114431 0.168112
0.525965 0.055753 0.187641
0.565245 0.081005 0.202215
0.691243 0.039822 0.171009
0.662294 0.012371 0.176794
0.648068 0.027843 0.196914
0.547689 0.089421 0.174110
0.551987 0.002630 0.193374
0.671531 0.043260 0.181655
0.627995 0.011014 0.177987
0.668685 0.089929 0.169776
0.551297 -0.003795 0.223541
0.559205 0.034622 0.194414
0.574131 0.113449 0.167119
0.643976 0.001621 0.171706
0.672035 0.067165 0.166816
0.607932 0.016045 0.219885
0.601983 -0.021228 0.208941
0.648786 0.094766 0.195954
0.691583 0.051247 0.145618
0.656828 0.034888 0.175165
0.634401 0.081755 0.201048
0.657650 0.059183 0.180190
0.626570 -0.020889 0.178202
0.689600 0.084611 0.160156
0.582369 0.042822 0.187131
0.563470 0.026972 0.226109
0.563527 0.094329 0.187933
0.581413 -0.015897 0.180569
0.691608 0.056832 0.161770
0.637497 0.039972 0.192843
0.557169 -0.032663 0.194673
0.540493 0.069964 0.198359
0.550604 0.028357 0.209585
0.642519 0.074628 0.184899
0.573167 0.015007 0.184881
0.609664 0.051825 0.221838
0.557871 -0.041087 0.219591
0.639660 0.018371 0.206754
0.626085 0.063722 0.193155
0.661179 0.022311 0.189233
0.568558 -0.023470 0.206722
0.608350 -0.006956 0.170507
0.675873 0.036496 0.167991
0.593621 0.052516 0.204425
0.589488 -0.016339 0.220034
0.554330 0.091032 0.207352
0.595145 -0.015940 0.172819
0.592620 0.041741 0.226224
0.565881 0.090089 0.171883
0.675715 0.117755 0.183107
0.549736 0.005403 0.211563
0.547043 0.082251 0.192355
0.534981 -0.014811 0.199591
0.554940 0.050271 0.210831
0.535874 0.031923 0.188567
0.529713 0.044430 0.211039
0.608717 0.030430 0.194903
0.555236 0.018928 0.196834
0.577480 0.098919 0.168114
0.710461 0.067802 0.156357
0.651633 0.002388 0.184810
0.586727 0.106719 0.188509
0.650500 0.016532 0.168447
0.690098 0.095140 0.173966
0.533031 0.030883 0.206602
0.677602 0.049139 0.158302
0.616920 0.053505 0.205735
0.618030 -0.028841 0.189777
0.538141 0.068223 0.214332
0.561925 0.001771 0.231465
0.656082 0.058572 0.196453
0.576566 0.098339 0.195937
0.629787 0.014375 0.194033
0.656187 0.094642 0.174640
0.632938 0.051582 0.182471
0.682900 0.108427 0.169554
0.598287 0.043317 0.190326
0.536507 -0.012926 0.220829
0.595314 0.017448 0.225646
0.650504 0.045456 0.167857
0.606605 0.055564 0.190206
0.632654 -0.011812 0.205467
0.685735 0.068403 0.167366
0.582281 -0.002985 0.226115
0.677709 0.089258 0.183659
0.698091 0.075559 0.150533
0.702894 0.085332 0.166098
0.640289 0.046461 0.204604
0.561167 0.108028 0.191260
0.640156 0.070163 0.205477
0.613352 0.004290 0.177973
0.614309 -0.026067 0.204649
0.560659 -0.015482 0.184846
0.672542 0.056669 0.185504
0.576270 0.037322 0.226096
0.676830 0.080858 0.162424
0.620833 0.074701 0.198982
0.648262 -0.000392 0.198635
0.668162 0.103288 0.189851
0.644955 0.027220 0.174786
0.671009 0.030709 0.156108
0.655553 0.076050 0.185794
0.628754 0.039152 0.182249
0.595759 0.014134 0.185082
0.540254 0.019658 0.218999
0.597150 -0.033498 0.185056
0.543392 0.077088 0.180604
0.550115 -0.014766 0.193260
0.648008 0.046553 0.181960
0.669502 0.075519 0.176432
0.632418 0.001842 0.190898
0.695986 0.063647 0.144170
0.572989 0.086171 0.191094
0.560313 0.066044 0.195540
0.584150 0.000142 0.182753
0.674057 0.049937 0.170700
0.626424 0.032423 0.206973
0.583232 0.049354 0.218483
0.554214 0.077142 0.209272
0.605375 0.057153 0.210444
0.570260 0.102839 0.179042
0.697546 0.043435 0.160583
0.533630 0.048282 0.199319
0.583950 0.010865 0.221551
0.564411 0.007536 0.190010
0.667750 0.100860 0.175941
0.581005 0.119945 0.178061
0.528469 0.067847 0.185692
0.619360 0.004456 0.213459
0.548091 -0.008390 0.211594
0.528112 0.069518 0.198464
0.637636 0.088998 0.191670
0.549071 0.056587 0.179157
0.527626 0.042535 0.187532
0.691465 0.102917 0.156204
0.542253 0.042752 0.215048
0.619162 0.025351 0.200406
0.660742 0.035929 0.161213
0.606657 0.001223 0.217848
0.571892 -0.035496 0.197814
0.562264 -0.019299 0.196029
0.554867 0.105990 0.180253
0.561099 -0.016827 0.229664
0.541354 -0.006760 0.193011
0.562116 0.000412 0.208486
0.661179 0.035512 0.187064
0.609748 0.022291 0.176509
0.683626 0.037244 0.179439
0.602840 0.045813 0.214596
0.661210 0.059930 0.166627
0.644400 0.031980 0.186745
0.631852 0.025299 0.198642
0.702703 0.059559 0.163176
0.600119 -0.011904 0.218324
0.687481 0.114479 0.178177
0.560741 0.022978 0.209089
0.653380 0.087237 0.182942
0.580086 -0.027132 0.182432
0.579287 -0.016211 0.225905
0.633935 0.020242 0.182812
0.679119 0.060131 0.160828
0.599304 0.027645 0.222604
0.670889 0.020788 0.170834
0.678724 0.096139 0.173858
0.626074 0.046184 0.202275
0.599367 0.060456 0.198041
0.658513 0.011346 0.189188
0.675473 0.065658 0.179356
0.587496 0.103914 0.172686
