ply
format ascii 1.0
element vertex 1024
property float x
property float y
property float z
end_header
0.686885 0.230684 0.003781
0.683062 0.204895 0.007460
0.638728 0.246023 -0.020873
0.664607 0.239226 0.013849
0.632224 0.207069 0.002070
0.643140 0.185876 -0.017440
0.652823 0.218756 0.015233
0.685579 0.183614 -0.013918
0.696911 0.234372 -0.012034
0.662480 0.207208 0.010138
0.680327 0.179480 -0.027657
0.675075 0.190070 0.004177
0.672112 0.219208 0.013602
0.669248 0.250838 -0.018907
0.627001 0.220845 -0.022726
0.655429 0.182951 0.001511
0.701623 0.211848 -0.010619
0.698767 0.196646 -0.025581
0.639112 0.242559 -0.022250
0.697618 0.205218 -0.000816
0.694448 0.194964 -0.029059
0.649625 0.248856 -0.021028
0.695270 0.211560 -0.001521
0.651351 0.230910 0.015259
0.629159 0.224045 -0.016242
0.681528 0.249966 -0.016848
0.640699 0.214029 0.008068
0.694329 0.238136 -0.011683
0.648909 0.213647 0.010661
0.697187 0.194781 -0.018788
0.642296 0.209148 0.015014
0.698761 0.225810 -0.026175
0.697848 0.233887 -0.015483
0.644017 0.183838 -0.008982
0.681596 0.179720 -0.025863
0.699206 0.222292 -0.020635
0.640200 0.190197 -0.001567
0.655878 0.179226 -0.007878
0.661832 0.176874 -0.013610
0.631989 0.205550 0.000751
0.681364 0.184808 -0.001525
0.689123 0.185684 -0.028594
0.637853 0.192114 -0.002456
0.679233 0.185218 0.001877
0.683414 0.184960 -0.020249
0.634837 0.232474 -0.009285
0.680176 0.183517 -0.017471
0.683870 0.249516 -0.024130
0.667148 0.175871 -0.026574
0.658075 0.201512 0.010182
0.643749 0.189068 0.001721
0.696102 0.199948 -0.017713
0.640404 0.240932 -0.002245
0.693133 0.195884 -0.014056
0.642756 0.222573 0.008613
0.645442 0.183607 -0.020738
0.648097 0.200625 0.015466
0.628809 0.228668 -0.023879
0.698785 0.202043 -0.008075
0.671005 0.181471 -0.011553
0.660253 0.235730 0.008716
0.657142 0.182431 -0.008230
0.642644 0.224082 0.008209
0.635306 0.187169 -0.021738
0.696231 0.219804 0.004843
0.691706 0.193114 -0.017100
0.693450 0.190998 -0.013050
0.683573 0.249738 -0.025260
0.644696 0.184081 -0.020566
0.657595 0.242422 0.003743
0.659274 0.190547 0.013144
0.664751 0.182019 0.002294
0.679528 0.185014 -0.009642
0.694100 0.190114 -0.021001
0.681435 0.250914 -0.026976
0.633163 0.235977 -0.022553
0.685537 0.190749 0.004241
0.702790 0.212322 -0.017688
0.690335 0.226324 0.002779
0.676194 0.184686 -0.005850
0.693869 0.199398 -0.008542
0.653297 0.250016 -0.020370
0.675787 0.185082 -0.004342
0.680680 0.242600 0.005368
0.664173 0.188329 0.011649
0.653875 0.213006 0.015194
0.665865 0.177870 -0.009461
0.663024 0.177641 -0.010202
0.692292 0.191383 -0.007711
0.688907 0.213234 0.012262
0.628590 0.228537 -0.010769
0.655583 0.183557 -0.006055
0.685015 0.248557 -0.021157
0.651484 0.185913 -0.003835
0.646872 0.185854 -0.000205
0.674667 0.179975 -0.026262
0.670362 0.178682 -0.008327
0.673137 0.207446 0.013625
0.674554 0.237309 0.006569
0.694038 0.198105 -0.011971
0.672287 0.220024 0.009221
0.671465 0.214121 0.009355
0.690003 0.190224 -0.021899
0.668303 0.178787 -0.023344
0.688228 0.200307 0.010388
0.661451 0.185013 -0.000000
0.655817 0.246130 -0.003520
0.657547 0.248379 0.001027
0.632909 0.227334 -0.007728
0.645421 0.249558 -0.016589
0.664905 0.182850 0.003970
0.700641 0.223771 -0.009866
0.656759 0.254015 -0.019698
0.657823 0.193888 0.008376
0.672461 0.245909 -0.002715
0.665676 0.194955 0.008812
0.693288 0.215220 0.009542
0.682541 0.248202 -0.010948
0.624467 0.207776 -0.021571
0.675574 0.194786 0.007131
0.636067 0.232108 -0.005701
0.629085 0.209467 -0.014306
0.660242 0.189536 0.005778
0.695928 0.237065 -0.015478
0.641372 0.195275 -0.000489
0.631849 0.235376 -0.011269
0.644162 0.238650 0.006411
0.670441 0.201942 0.013906
0.691870 0.233993 -0.007887
0.695018 0.203590 -0.006025
0.646062 0.250031 -0.017243
0.699020 0.197474 -0.021958
0.629885 0.228921 -0.019825
0.676795 0.177966 -0.020793
0.690977 0.221222 0.003822
0.630612 0.213251 -0.008079
0.633854 0.199478 -0.000474
0.632842 0.199760 -0.012500
0.641599 0.230724 0.011027
0.663747 0.204540 0.014441
0.640872 0.235253 0.006500
0.647934 0.195324 0.012647
0.646697 0.229881 0.008364
0.669469 0.211982 0.009541
0.630498 0.218081 -0.008534
0.663270 0.230858 0.009567
0.643984 0.245940 -0.021060
0.634327 0.195748 -0.015135
0.650754 0.194510 0.006918
0.689068 0.225451 0.011600
0.679670 0.193519 0.011906
0.627808 0.225850 -0.010339
0.658326 0.247495 0.003212
0.683000 0.183802 -0.027760
0.631723 0.200156 -0.004393
0.687856 0.241995 -0.019602
0.658545 0.229057 0.014666
0.673230 0.176551 -0.024817
0.679514 0.182015 -0.025827
0.668242 0.252764 -0.027660
0.691269 0.190200 -0.007859
0.644945 0.183933 -0.020567
0.634752 0.237000 -0.019089
0.684491 0.197097 0.004186
0.679460 0.191819 0.010707
0.698770 0.219472 -0.000580
0.646168 0.217756 0.010293
0.677238 0.251369 -0.014286
0.648613 0.242107 -0.001441
0.650494 0.226400 0.010107
0.644867 0.243606 -0.000545
0.684406 0.185624 -0.020348
0.677826 0.248061 -0.017110
0.648638 0.188349 0.005842
0.659279 0.254375 -0.019658
0.684887 0.243605 -0.001590
0.701998 0.206749 -0.017923
0.687826 0.246764 -0.028537
0.645498 0.220915 0.009929
0.632879 0.209333 0.004267
0.663662 0.190026 0.013137
0.694482 0.222256 0.006948
0.687214 0.242561 -0.019507
0.695282 0.234339 -0.005840
0.681146 0.246561 -0.003131
0.662987 0.183106 -0.004046
0.689815 0.244567 -0.029092
0.683733 0.246630 -0.007765
0.678975 0.240508 0.001880
0.629210 0.230282 -0.011057
0.658038 0.181031 -0.012396
0.698388 0.222752 -0.015250
0.698462 0.234557 -0.026200
0.638162 0.194132 0.001062
0.652290 0.243133 0.000087
0.689566 0.223552 0.011713
0.681826 0.245755 -0.002031
0.698467 0.207225 -0.016457
0.653747 0.226257 0.015093
0.630419 0.203342 -0.015268
0.680564 0.197241 0.006418
0.692897 0.238167 -0.006800
0.642568 0.196267 0.009151
0.691681 0.191503 -0.027056
0.693855 0.203681 -0.002843
0.651088 0.213990 0.010752
0.667293 0.244335 0.002042
0.698126 0.215798 -0.009701
0.676134 0.248719 -0.003036
0.674743 0.238748 0.005659
0.669242 0.241217 0.005242
0.675923 0.211421 0.013354
0.686630 0.230910 0.011277
0.668319 0.241374 0.012150
0.665159 0.250617 -0.015462
0.685787 0.211770 0.012545
0.643778 0.242591 -0.000107
0.636804 0.229482 -0.001120
0.702154 0.221264 -0.015572
0.681271 0.240377 0.007832
0.628518 0.218663 -0.015136
0.702078 0.222915 -0.029940
0.643539 0.194288 0.001230
0.641578 0.187901 -0.003560
0.669146 0.181166 -0.011445
0.633340 0.238777 -0.024593
0.676275 0.182432 -0.014099
0.654627 0.250449 -0.020743
0.634048 0.204494 -0.004039
0.702660 0.222997 -0.027340
0.654738 0.251939 -0.011349
0.660086 0.254250 -0.026807
0.676386 0.241023 0.010151
0.662338 0.179476 -0.004193
0.668124 0.253928 -0.016520
0.682488 0.184968 -0.002756
0.668983 0.216357 0.013890
0.685022 0.190319 0.004249
0.649180 0.183594 -0.013248
0.648785 0.245592 0.000220
0.695845 0.198033 -0.023642
0.681341 0.250457 -0.028434
0.698552 0.207079 -0.017272
0.626767 0.209364 -0.010341
0.662632 0.194186 0.008700
0.656828 0.184777 -0.002210
0.695038 0.193277 -0.012296
0.633368 0.189478 -0.020632
0.647829 0.183158 -0.017279
0.659177 0.247182 0.004146
0.687506 0.220260 0.006332
0.664213 0.179867 -0.002933
0.663609 0.235230 0.014192
0.683082 0.205941 0.012826
0.692452 0.223152 0.009275
0.699827 0.216982 -0.020278
0.645915 0.195360 0.011307
0.681362 0.250482 -0.028418
0.626855 0.229329 -0.018665
0.642558 0.184362 -0.010216
0.642401 0.244115 -0.017879
0.637197 0.188376 -0.011262
0.678913 0.221543 0.013019
0.680854 0.241688 -0.001584
0.684155 0.223899 0.007190
0.692951 0.230310 -0.004655
0.645145 0.183106 -0.009107
0.696315 0.193340 -0.019333
0.674066 0.227211 0.008816
0.687505 0.240462 -0.011532
0.655665 0.208916 0.015082
0.695562 0.239041 -0.024054
0.655848 0.201598 0.010193
0.653858 0.212670 0.010704
0.667403 0.251762 -0.023655
0.694157 0.230714 0.002094
0.624706 0.211469 -0.023515
0.669080 0.179240 -0.005725
0.638686 0.203132 0.009784
0.671966 0.227488 0.009046
0.635369 0.221717 0.008115
0.662634 0.251453 -0.005435
0.638592 0.193405 -0.008589
0.702779 0.221894 -0.029087
0.657557 0.216502 0.010475
0.683996 0.183586 -0.009851
0.649191 0.209908 0.010561
0.667738 0.197895 0.009248
0.638204 0.184299 -0.023532
0.630033 0.197889 -0.011852
0.696252 0.198932 -0.022890
0.658800 0.211697 0.010415
0.676901 0.183497 0.000385
0.649511 0.246559 -0.011602
0.665415 0.252395 -0.008596
0.678954 0.209708 0.008591
0.688847 0.202487 0.003610
0.685455 0.246931 -0.013168
0.665723 0.239405 0.006996
0.682245 0.243523 0.002236
0.648981 0.179577 -0.014665
0.634732 0.217157 0.001313
0.658769 0.245450 0.006974
0.692909 0.188377 -0.026727
0.693975 0.194504 -0.027476
0.682281 0.245515 -0.015875
0.687395 0.244827 -0.010450
0.635360 0.197606 -0.008940
0.680225 0.237514 0.004000
0.653150 0.219591 0.010660
0.647655 0.217763 0.010523
0.688161 0.210855 0.006133
0.625875 0.218881 -0.012352
0.655162 0.233766 0.014914
0.628019 0.205261 -0.022436
0.680436 0.235607 0.005220
0.655255 0.192481 0.013715
0.673072 0.252947 -0.015930
0.647703 0.187434 -0.004840
0.634568 0.193247 -0.020394
0.701011 0.204342 -0.015197
0.644526 0.186686 -0.001540
0.679109 0.237096 0.012089
0.699571 0.222678 -0.026580
0.646778 0.237270 0.010274
0.646899 0.193429 0.003661
0.652346 0.227342 0.010124
0.664751 0.177131 -0.012243
0.681767 0.216843 0.008173
0.675645 0.217871 0.013320
0.696340 0.228606 -0.014135
0.685708 0.183768 -0.013620
0.698687 0.209228 -0.001097
0.667383 0.181689 0.001330
0.686136 0.187261 -0.018390
0.693315 0.225456 -0.000857
0.647362 0.214589 0.015744
0.650707 0.246042 -0.008294
0.688601 0.184309 -0.025899
0.691379 0.215648 0.004100
0.676513 0.181178 -0.021677
0.657876 0.188510 0.010976
0.699948 0.213187 -0.021762
0.634784 0.233631 -0.011361
0.660644 0.182247 0.002299
0.645376 0.231217 0.013655
0.647007 0.248191 -0.008582
0.693962 0.193653 -0.029254
0.647706 0.210138 0.015754
0.686454 0.206637 0.012539
0.667374 0.183037 0.004096
0.695481 0.207501 -0.003763
0.633008 0.217226 -0.002077
0.645136 0.187361 -0.008978
0.680679 0.233349 0.012758
0.653913 0.242809 0.001671
0.627335 0.209709 -0.008401
0.692084 0.188039 -0.019861
0.693792 0.189426 -0.024251
0.668284 0.179051 -0.021354
0.645903 0.188230 -0.005677
0.656716 0.248740 -0.010688
0.638381 0.227345 0.009630
0.639001 0.229232 0.002571
0.689048 0.188416 -0.006735
0.632986 0.215369 0.005467
0.655143 0.184776 -0.003302
0.680552 0.218761 0.012908
0.643476 0.208100 0.015492
0.680686 0.240215 0.008474
0.649613 0.216204 0.010707
0.673476 0.223814 0.013448
0.643148 0.191463 0.004538
0.698268 0.207658 -0.014613
0.629348 0.235115 -0.020400
0.672690 0.253462 -0.018637
0.653625 0.217809 0.010684
0.685401 0.221648 0.012486
0.680669 0.190028 0.008076
0.668675 0.248061 0.002817
0.646088 0.180002 -0.018678
0.676395 0.182774 -0.012814
0.632838 0.206324 -0.005464
0.655211 0.180716 -0.016108
0.689421 0.238619 -0.011910
0.693686 0.223593 0.007593
0.627785 0.227465 -0.012144
0.634476 0.204415 -0.003150
0.649075 0.219515 0.015549
0.687097 0.224000 0.012318
0.648852 0.244946 -0.007689
0.659615 0.241083 0.005570
0.624032 0.212761 -0.020267
0.655090 0.248164 -0.010068
0.688904 0.221037 0.005481
0.659440 0.213795 0.014713
0.696379 0.212389 0.004956
0.639943 0.187493 -0.020542
0.669500 0.226559 0.013758
0.682441 0.250216 -0.022732
0.657032 0.250970 -0.006169
0.683376 0.181527 -0.017437
0.690442 0.231254 -0.000707
0.673659 0.253079 -0.017680
0.645273 0.245413 -0.015545
0.627169 0.215541 -0.007636
0.634078 0.203971 0.003690
0.657958 0.189298 0.011790
0.664023 0.175995 -0.017971
0.688453 0.228038 0.003800
0.669002 0.180520 -0.001970
0.649824 0.194334 0.006356
0.649136 0.199218 0.015333
0.640746 0.190475 -0.000236
0.654612 0.195429 0.008597
0.646302 0.181375 -0.012552
0.670275 0.251698 -0.007786
0.695585 0.233327 -0.027024
0.696556 0.214656 -0.004130
0.703324 0.218059 -0.026428
0.649003 0.217662 0.015572
0.638579 0.230731 0.000716
0.658727 0.233590 0.009276
0.695944 0.197717 -0.005244
0.628279 0.222285 -0.018117
0.680475 0.242687 0.005414
0.683395 0.232828 0.012254
0.691696 0.191753 -0.024803
0.626992 0.209787 -0.009424
0.677687 0.203397 0.013292
0.645575 0.243234 -0.008260
0.688966 0.185031 -0.020469
0.689853 0.245115 -0.023237
0.649872 0.180050 -0.011484
0.682258 0.250453 -0.024918
0.625055 0.212476 -0.015326
0.683847 0.229342 0.012543
0.676325 0.230823 0.013163
0.648408 0.183112 -0.016360
0.691730 0.239163 -0.029182
0.686533 0.186282 -0.006788
0.700900 0.201697 -0.029174
0.661592 0.251329 -0.019498
0.639373 0.242975 -0.008623
0.670785 0.211543 0.009431
0.700016 0.213959 -0.022109
0.681411 0.219069 0.008172
0.626761 0.230011 -0.020756
0.683890 0.248390 -0.015393
0.687407 0.241987 -0.002413
0.631165 0.236113 -0.015112
0.657388 0.189583 0.005263
0.641595 0.242194 -0.002662
0.634479 0.234570 -0.014073
0.692292 0.193467 -0.003033
0.683812 0.194635 0.002869
0.629901 0.230946 -0.009851
0.670062 0.188094 0.010841
0.682354 0.183529 -0.006610
0.632148 0.236548 -0.012748
0.698981 0.231950 -0.029810
0.648968 0.250886 -0.015030
0.699798 0.226759 -0.009811
0.660640 0.201362 0.014738
0.688614 0.212304 0.005987
0.639224 0.184729 -0.016964
0.646153 0.231045 0.014184
0.682782 0.250095 -0.028193
0.631186 0.198181 -0.008113
0.686757 0.231763 0.010734
0.663529 0.199885 0.014509
0.668614 0.225776 0.009439
0.686198 0.187642 -0.016713
0.665815 0.233096 0.014022
0.665524 0.252925 -0.010701
0.644254 0.227696 0.014527
0.642088 0.187470 -0.014785
0.645235 0.187387 -0.008748
0.650912 0.248239 -0.015683
0.688794 0.244165 -0.029272
0.677422 0.252123 -0.019277
0.691735 0.194746 -0.011614
0.687126 0.192638 0.004837
0.685312 0.240346 0.003847
0.703058 0.220372 -0.027960
0.695292 0.231996 -0.017504
0.641297 0.194700 -0.001397
0.687564 0.198306 0.009773
0.682881 0.197858 0.012638
0.669102 0.254267 -0.027469
0.694800 0.237697 -0.012259
0.684604 0.244382 -0.018029
0.634204 0.222728 0.006050
0.676087 0.245120 0.004860
0.671715 0.184390 -0.002923
0.656222 0.217168 0.014956
0.655985 0.179869 -0.019272
0.692912 0.221207 0.001657
0.690357 0.193497 -0.010245
0.678232 0.200832 0.008081
0.635034 0.189915 -0.013061
0.671765 0.207393 0.009352
0.677387 0.249250 -0.006013
0.638675 0.189238 -0.018508
0.683814 0.186323 -0.014577
0.639443 0.200726 0.002421
0.639760 0.238660 -0.008824
0.654239 0.188121 0.009188
0.664161 0.216516 0.009948
0.652885 0.239693 0.011634
0.635655 0.243022 -0.019604
0.623929 0.216673 -0.020562
0.681529 0.179894 -0.022055
0.695328 0.204621 0.003781
0.698003 0.227765 -0.024563
0.670046 0.248711 -0.009573
0.654680 0.239150 0.006089
0.693754 0.209141 0.000519
0.675055 0.179818 -0.008332
0.665314 0.255094 -0.025505
0.665351 0.246055 -0.000691
0.638654 0.199809 0.000462
0.688323 0.190304 -0.000739
0.702865 0.221847 -0.025241
0.643869 0.194733 0.009024
0.690150 0.202664 0.009827
0.685994 0.237246 -0.001093
0.699544 0.212889 -0.018214
0.663125 0.176066 -0.017546
0.699487 0.232093 -0.021254
0.658942 0.179399 -0.005460
0.671549 0.242249 0.003673
0.643142 0.193835 0.000155
0.688924 0.240598 -0.017624
0.671021 0.229004 0.009050
0.646142 0.222967 0.009850
0.680811 0.225274 0.012833
0.678421 0.184673 0.001558
0.691869 0.199803 -0.002554
0.688568 0.218641 0.005937
0.638438 0.241172 -0.006447
0.649377 0.184700 0.000237
0.684895 0.247918 -0.016180
0.687339 0.199581 0.010733
0.667949 0.234984 0.008557
0.697574 0.208238 -0.010410
0.650225 0.242100 0.000159
0.657263 0.240337 0.012533
0.642176 0.188156 -0.012626
0.699595 0.219375 -0.002925
0.629062 0.228656 -0.023058
0.658138 0.177607 -0.012118
0.645059 0.249428 -0.016890
0.699622 0.213474 -0.018593
0.677482 0.249997 -0.008727
0.665055 0.231544 0.009375
0.663734 0.180169 -0.013924
0.692947 0.194491 -0.018170
0.693100 0.198427 0.002581
0.645719 0.219278 0.010122
0.648037 0.213209 0.010577
0.678483 0.190362 0.002639
0.658134 0.181301 -0.011343
0.625227 0.226329 -0.023041
0.634230 0.200635 0.001363
0.701597 0.219829 -0.030108
0.698449 0.211984 -0.011873
0.695701 0.233176 -0.027588
0.661384 0.178104 -0.025954
0.642350 0.197085 0.002817
0.631606 0.204907 -0.009857
0.633352 0.225158 -0.004684
0.688567 0.189850 -0.016259
0.668077 0.220442 0.013928
0.651342 0.247741 -0.001953
0.630093 0.199470 -0.023046
0.684995 0.243610 -0.015575
0.656474 0.221757 0.010461
0.680277 0.181954 -0.008156
0.688163 0.225730 0.004899
0.640314 0.218198 0.014083
0.641058 0.224450 0.013436
0.638720 0.240119 -0.015057
0.669543 0.190175 0.012814
0.655908 0.249693 -0.015283
0.669877 0.249325 -0.000445
0.650722 0.184994 0.002088
0.640672 0.214741 0.014478
0.679944 0.184425 -0.012647
0.664034 0.181143 -0.010102
0.632695 0.221331 -0.003936
0.679942 0.237360 0.004295
0.659283 0.187467 0.010158
0.649760 0.224330 0.010290
0.687367 0.246721 -0.028870
0.663491 0.251802 -0.006482
0.660992 0.235122 0.008898
0.661744 0.223665 0.010050
0.691509 0.240695 -0.009283
0.643479 0.192594 -0.001157
0.697864 0.231141 -0.029962
0.632883 0.237483 -0.012522
0.673928 0.212457 0.013513
0.687738 0.246866 -0.023452
0.638591 0.239368 -0.002632
0.657429 0.186114 0.007886
0.661697 0.208526 0.010202
0.663215 0.227876 0.009798
0.637587 0.185645 -0.018649
0.673830 0.194484 0.013698
0.686508 0.222180 0.012390
0.660920 0.176208 -0.017356
0.682187 0.246959 -0.005914
0.692163 0.192352 -0.024581
0.642840 0.235335 0.001765
0.653991 0.205026 0.010465
0.656028 0.206712 0.015073
0.632068 0.236324 -0.012517
0.628649 0.200583 -0.023870
0.635478 0.243496 -0.023202
0.689494 0.233195 -0.001235
0.638838 0.235403 -0.004643
0.678025 0.249121 -0.025552
0.684818 0.245244 -0.005659
0.653120 0.186295 -0.001553
0.646746 0.248170 -0.008945
0.659659 0.184560 -0.001396
0.640984 0.244392 -0.023637
0.691072 0.237358 -0.014100
0.696354 0.234631 -0.010294
0.645694 0.250615 -0.021774
0.698300 0.225322 -0.019261
0.686426 0.245464 -0.029134
0.627787 0.227746 -0.012482
0.691315 0.242244 -0.013945
0.679042 0.243527 -0.003165
0.679729 0.230462 0.012884
0.703302 0.213869 -0.022613
0.685121 0.242017 -0.009852
0.673655 0.219384 0.013471
0.670939 0.181920 0.000762
0.651641 0.186432 -0.002546
0.654416 0.179530 -0.023244
0.684290 0.184543 -0.028143
0.687399 0.247124 -0.023562
0.655618 0.251312 -0.025029
0.673314 0.233679 0.008113
0.643943 0.233269 0.011374
0.667796 0.179051 -0.020925
0.630034 0.220786 -0.001231
0.666779 0.207845 0.009795
0.637551 0.218424 0.011523
0.631884 0.234128 -0.022815
0.650717 0.247964 -0.014849
0.657428 0.179733 -0.018593
0.671060 0.230323 0.008934
0.668804 0.217434 0.013895
0.657482 0.204834 0.014967
0.653216 0.183726 0.001615
0.681804 0.181391 -0.013489
0.646014 0.247665 -0.008614
0.686071 0.187215 -0.018363
0.692573 0.188138 -0.023277
0.627198 0.215280 -0.019743
0.661584 0.233757 0.009219
0.636831 0.192835 -0.003214
0.665768 0.212513 0.009850
0.679105 0.199449 0.013220
0.630150 0.193522 -0.023226
0.681528 0.205415 0.007929
0.649000 0.195415 0.013292
0.695453 0.199859 -0.014188
0.685026 0.248543 -0.021088
0.646813 0.182237 -0.023918
0.639202 0.244831 -0.014348
0.691826 0.207721 0.010035
0.690064 0.197277 -0.002157
0.640349 0.198060 0.001245
0.629100 0.229274 -0.023846
0.666336 0.196006 0.009029
0.690428 0.201158 0.001065
0.639449 0.221510 0.006516
0.629995 0.197398 -0.012757
0.628797 0.226439 -0.020528
0.692748 0.205721 0.000606
0.633155 0.234721 -0.006607
0.665230 0.231756 0.014081
0.639845 0.238757 -0.008843
0.697356 0.203324 -0.016649
0.665976 0.178705 -0.006557
0.684200 0.191806 0.007098
0.687679 0.184530 -0.017017
0.651814 0.193390 0.006584
0.655944 0.245243 -0.001446
0.647718 0.191988 0.009553
0.686119 0.234289 0.009620
0.678175 0.185325 -0.006473
0.655704 0.231828 0.009551
0.656339 0.212521 0.010583
0.697884 0.224018 -0.014105
0.636282 0.226667 0.000270
0.643046 0.238407 0.005477
0.680299 0.181922 -0.008305
0.634890 0.220101 0.007852
0.661467 0.182360 -0.006424
0.640590 0.186713 -0.021505
0.668327 0.218534 0.009581
0.633869 0.227337 0.002998
0.655967 0.201998 0.015129
0.688470 0.224234 0.005105
0.663591 0.177072 -0.012474
0.647865 0.183498 -0.015898
0.639253 0.191175 -0.001506
0.673857 0.184704 0.004876
0.652101 0.186024 -0.002988
0.698908 0.204967 -0.026763
0.630367 0.204434 -0.014159
0.634123 0.237459 -0.008968
0.655626 0.247943 0.000945
0.699738 0.215875 -0.002682
0.688030 0.202733 0.011634
0.655138 0.254010 -0.022357
0.664582 0.175691 -0.020103
0.631280 0.194893 -0.013161
0.645528 0.205716 0.009345
0.627402 0.218062 -0.007236
0.678563 0.224862 0.008340
0.666371 0.243089 0.003775
0.629117 0.222466 -0.015043
0.670220 0.199085 0.013960
0.657994 0.252183 -0.009745
0.690416 0.203139 0.009786
0.639338 0.221958 0.006309
0.688105 0.213139 0.006287
0.640264 0.245974 -0.015393
0.626563 0.228727 -0.019007
0.633392 0.207652 -0.003310
0.651453 0.247839 -0.002079
0.677804 0.178421 -0.020145
0.666571 0.179087 -0.019874
0.661428 0.180143 -0.014361
0.695847 0.224541 -0.006124
0.692051 0.192308 -0.023847
0.696727 0.230964 -0.025606
0.681118 0.221204 0.012840
0.665146 0.251359 -0.019512
0.640186 0.195151 -0.002589
0.696705 0.199259 -0.005069
0.646655 0.250781 -0.019719
0.626454 0.227631 -0.017641
0.668103 0.249750 -0.012559
0.658927 0.232143 0.014611
0.688283 0.218576 0.006095
0.659143 0.219343 0.010326
0.681399 0.184821 -0.001543
0.654146 0.185406 0.005298
0.650215 0.242707 0.006515
0.668815 0.211430 0.013949
0.643056 0.207694 0.015187
0.626521 0.228738 -0.019257
0.653428 0.181193 -0.016153
0.682341 0.180165 -0.024239
0.660623 0.184071 -0.002169
0.666432 0.237425 0.007926
0.675421 0.229400 0.008444
0.632962 0.237537 -0.024567
0.631086 0.230345 -0.017551
0.642383 0.230133 0.005596
0.692410 0.195402 0.000027
0.676166 0.183820 -0.008536
0.624710 0.219550 -0.017380
0.655811 0.252387 -0.012171
0.671342 0.177088 -0.016269
0.694105 0.195481 -0.003917
0.635709 0.232378 -0.006941
0.653418 0.191938 0.012711
0.703025 0.209538 -0.025259
0.686690 0.240783 -0.010154
0.657401 0.205904 0.010444
0.636163 0.221091 0.002798
0.687672 0.197746 0.009280
0.702063 0.217918 -0.012604
0.628739 0.199883 -0.013040
0.696908 0.210375 0.003481
0.669004 0.210496 0.009591
0.647530 0.229190 0.008906
0.659400 0.183656 -0.003578
0.700201 0.214482 -0.004194
0.653196 0.233103 0.008967
0.652162 0.188906 0.009055
0.669617 0.248497 -0.008525
0.686014 0.223267 0.006607
0.630742 0.222531 -0.009765
0.636475 0.229774 0.005504
0.697502 0.235987 -0.028482
0.698214 0.234969 -0.026886
0.696793 0.213924 -0.004888
0.632282 0.200278 -0.013416
0.643037 0.243053 -0.012740
0.674314 0.177595 -0.017608
0.634593 0.207300 -0.000972
0.692194 0.234232 0.001843
0.684520 0.182548 -0.015681
0.682011 0.181097 -0.015500
0.646091 0.240325 -0.001208
0.698829 0.205611 -0.004014
0.633437 0.215774 0.006202
0.680895 0.238926 0.009674
0.690803 0.234867 -0.006610
0.668004 0.178929 -0.006318
0.673149 0.242520 0.009902
0.627973 0.219850 -0.006107
0.626888 0.212010 -0.021874
0.679687 0.195154 0.005816
0.691671 0.191455 -0.005759
0.678454 0.213273 0.008678
0.672928 0.242171 0.010359
0.627939 0.230189 -0.024020
0.688013 0.190863 -0.010554
0.672533 0.250469 -0.020960
0.699280 0.216252 -0.001335
0.694403 0.235470 -0.005382
0.701930 0.204744 -0.023039
0.667890 0.180280 -0.002270
0.628729 0.227543 -0.009194
0.630702 0.211873 0.000758
0.696368 0.237007 -0.029517
0.658490 0.254236 -0.019373
0.688056 0.242552 -0.005151
0.695624 0.199773 -0.001301
0.701883 0.205036 -0.021050
0.693578 0.206921 -0.000113
0.660371 0.249513 -0.011370
0.655661 0.185882 0.006826
0.681508 0.237949 0.002758
0.638299 0.184652 -0.020487
0.665500 0.186901 0.010098
0.701401 0.219736 -0.010093
0.661705 0.185215 0.000418
0.684632 0.227525 0.012498
0.696392 0.201755 -0.014566
0.674051 0.181881 -0.001142
0.636311 0.208949 0.002680
0.697614 0.201120 -0.005238
0.692379 0.227337 -0.000517
0.683135 0.201821 0.012860
0.647500 0.185082 -0.011251
0.633869 0.228050 0.002471
0.668306 0.197086 0.009062
0.627832 0.215802 -0.017119
0.671740 0.181906 -0.010502
0.654643 0.209170 0.010631
0.649336 0.248700 -0.020839
0.640908 0.182790 -0.020013
0.688395 0.196945 0.000109
0.673471 0.209246 0.013580
0.666452 0.250010 -0.001264
0.671299 0.239450 0.013044
0.636476 0.190601 -0.021498
0.644449 0.249373 -0.025470
0.670442 0.210683 0.009466
0.689393 0.215426 0.012185
0.625151 0.216280 -0.014520
0.701316 0.214237 -0.030081
0.660967 0.176353 -0.016520
0.659763 0.229098 0.009908
0.656468 0.253986 -0.019869
0.679989 0.182609 -0.022667
0.670573 0.176330 -0.020364
0.646355 0.238892 0.001282
0.664633 0.232885 0.009229
0.696739 0.218000 0.004288
0.693618 0.195748 -0.017041
0.632322 0.195342 -0.023447
0.674808 0.250521 -0.027494
0.685907 0.187581 -0.015898
0.681096 0.247058 -0.020802
0.698314 0.227007 -0.025103
0.693375 0.194581 -0.020604
0.668539 0.200331 0.009439
0.651821 0.184735 -0.006385
0.665602 0.179398 -0.017719
0.687192 0.245596 -0.012792
0.703048 0.219108 -0.021522
0.631292 0.201099 -0.004394
0.671589 0.250529 -0.004681
0.684117 0.243881 -0.013940
0.678758 0.201566 0.008078
0.691655 0.241993 -0.014340
0.638157 0.208524 0.011387
0.666783 0.209525 0.014136
0.700136 0.206314 -0.008058
0.629257 0.197072 -0.023808
0.644589 0.244639 -0.014340
0.660769 0.218719 0.014558
0.632590 0.194857 -0.009444
0.666147 0.251297 -0.004911
0.700173 0.218650 -0.026498
0.629982 0.232224 -0.011546
0.663859 0.191473 0.014120
0.656655 0.250306 -0.017460
0.668221 0.194526 0.014177
0.653164 0.235647 0.014604
0.695688 0.235743 -0.010410
0.682653 0.180688 -0.020363
0.686158 0.182897 -0.028164
0.655165 0.254178 -0.025868
0.635172 0.235029 -0.012921
0.688366 0.186043 -0.012630
0.677315 0.224446 0.008552
0.661377 0.196919 0.014725
0.695294 0.213723 -0.001221
0.633880 0.212327 -0.000522
0.630580 0.228118 -0.015837
0.703363 0.213488 -0.024162
0.638484 0.191601 -0.012632
0.697411 0.217838 -0.007223
0.675039 0.240106 0.011538
0.642240 0.207717 0.014677
0.696122 0.204569 -0.008591
0.677497 0.178966 -0.015854
0.645760 0.181818 -0.025134
0.698245 0.206926 -0.015485
0.666065 0.189675 0.006026
0.644834 0.189455 -0.004704
0.637953 0.229267 0.007933
0.678337 0.186522 -0.003538
0.683142 0.194460 0.003252
0.628381 0.208936 -0.005821
0.652695 0.245909 -0.005596
0.679071 0.248536 -0.005951
0.671016 0.250434 -0.004021
0.635865 0.240539 -0.011102
0.695207 0.217680 -0.001219
0.628480 0.219813 -0.015756
0.682270 0.242800 0.003481
0.689287 0.186721 -0.013096
0.635066 0.188400 -0.017289
0.687531 0.243318 -0.006014
0.701233 0.203487 -0.018921
0.646662 0.190949 0.000371
0.634196 0.195397 -0.004763
0.641869 0.189103 -0.000858
0.651760 0.190468 0.010587
0.692279 0.196502 -0.009076
0.641502 0.229716 0.011540
0.636435 0.191699 -0.005951
0.661105 0.185122 0.007429
0.655043 0.190272 0.005219
0.645137 0.180610 -0.018073
0.693848 0.234491 -0.017634
0.683471 0.183295 -0.009695
0.679737 0.251710 -0.027586
0.675994 0.193527 0.013283
0.632274 0.238844 -0.018336
0.637187 0.233728 -0.005522
0.680018 0.186609 0.003707
0.647151 0.240281 0.000091
0.650751 0.181384 -0.019354
0.700071 0.221411 -0.005565
0.684565 0.185913 -0.019270
0.647666 0.192008 0.002734
0.695571 0.203662 0.002636
0.623813 0.217362 -0.021662
0.693675 0.233840 -0.000667
0.645362 0.181616 -0.013475
0.682701 0.190718 -0.000630
0.669077 0.188027 0.010964
0.686399 0.217463 0.012441
0.679691 0.221899 0.008332
0.627798 0.197477 -0.022780
0.636897 0.205277 0.008698
0.649385 0.181048 -0.008875
0.649946 0.250707 -0.012637
0.650759 0.243241 -0.001417
0.641032 0.214527 0.014734
0.626875 0.209627 -0.009871
0.674949 0.177540 -0.027274
0.623784 0.213136 -0.021924
0.665015 0.178334 -0.024340
0.689245 0.239502 -0.014312
0.661614 0.248746 -0.008162
0.692838 0.223422 0.000994
0.629919 0.217555 -0.000718
0.702916 0.208872 -0.027138
0.645768 0.187368 -0.007899
0.671252 0.240895 0.005064
0.676730 0.252804 -0.023489
0.690701 0.234824 -0.006240
0.639081 0.239534 -0.002022
0.641403 0.187572 -0.016143
0.630582 0.224681 -0.011897
0.627445 0.209572 -0.020727
0.682292 0.190513 -0.000491
0.658435 0.252467 -0.010558
0.702547 0.206962 -0.025141
0.644883 0.241629 -0.005535
0.690992 0.235755 -0.009154
0.697089 0.226913 -0.014642
0.696387 0.216240 0.005125
0.633606 0.238528 -0.012723
0.635576 0.234818 -0.011342
0.672534 0.197109 0.008502
0.642262 0.191892 -0.004241
0.657765 0.242225 0.010850
0.674222 0.225560 0.008893
0.673268 0.248478 -0.000125
0.656455 0.186418 0.000810
0.642435 0.208939 0.015065
0.698673 0.229480 -0.009209
0.659700 0.188438 0.011313
0.632908 0.225354 -0.005924
0.640013 0.239476 -0.010101
0.667658 0.215429 0.009664
0.696803 0.216848 -0.004978
0.654732 0.179502 -0.022943
0.699000 0.197781 -0.019948
0.660175 0.177391 -0.011923
0.684470 0.181348 -0.026991
0.673008 0.180878 -0.003072
0.692069 0.229594 -0.001881
0.635761 0.199496 0.003076
0.698351 0.228539 -0.006498
0.641567 0.214700 0.008636
