ply
format ascii 1.0
element vertex 1024
property float x
property float y
property float z
end_header
0.687062 0.232313 0.002729
0.683111 0.206585 0.006691
0.638872 0.247674 -0.021846
0.664883 0.241085 0.012817
0.632261 0.208995 0.001527
0.642959 0.187541 -0.017818
0.652990 0.220698 0.014469
0.685402 0.185072 -0.014479
0.697031 0.235781 -0.013172
0.662556 0.209043 0.009446
0.680059 0.180828 -0.028149
0.675025 0.191773 0.003600
0.672273 0.221023 0.012739
0.669428 0.252334 -0.020078
0.626993 0.222546 -0.023384
0.655325 0.184740 0.001103
0.701622 0.213246 -0.011549
0.698607 0.197909 -0.026339
0.639229 0.244194 -0.023190
0.697628 0.206740 -0.001659
0.694261 0.196216 -0.029779
0.649784 0.250442 -0.022084
0.695312 0.213088 -0.002417
0.651587 0.232859 0.014377
0.629202 0.225800 -0.016944
0.681713 0.251413 -0.018070
0.640804 0.215968 0.007411
0.694472 0.239563 -0.012846
0.649024 0.215565 0.009968
0.697049 0.196122 -0.019520
0.642407 0.211148 0.014400
0.698763 0.227064 -0.027232
0.697948 0.235256 -0.016619
0.643866 0.185584 -0.009343
0.681338 0.181079 -0.026364
0.699215 0.223600 -0.021659
0.640122 0.192041 -0.001976
0.655707 0.180917 -0.008250
0.661619 0.178472 -0.013986
0.632010 0.207464 0.000224
0.681255 0.186418 -0.002079
0.688886 0.186972 -0.029192
0.637782 0.193962 -0.002873
0.679143 0.186874 0.001329
0.683214 0.186365 -0.020813
0.634961 0.234267 -0.010101
0.679981 0.184969 -0.018004
0.684017 0.250875 -0.025358
0.666865 0.177306 -0.026965
0.658119 0.203373 0.009570
0.643682 0.190925 0.001306
0.695999 0.201306 -0.018493
0.640611 0.242764 -0.003175
0.693025 0.197296 -0.014780
0.642912 0.224504 0.007859
0.645233 0.185225 -0.021104
0.648162 0.202597 0.014911
0.628840 0.230346 -0.024626
0.698741 0.203484 -0.008889
0.670828 0.183037 -0.012021
0.660483 0.237561 0.007742
0.656987 0.184110 -0.008641
0.642807 0.226009 0.007440
0.635112 0.188834 -0.022090
0.696352 0.221391 0.003857
0.691567 0.194504 -0.017788
0.693319 0.192420 -0.013725
0.683715 0.251087 -0.026489
0.644490 0.185705 -0.020933
0.657840 0.244217 0.002713
0.659271 0.192432 0.012638
0.664645 0.183762 0.001850
0.679381 0.186550 -0.010188
0.693924 0.191451 -0.021670
0.681576 0.252257 -0.028207
0.633242 0.237643 -0.023397
0.685490 0.192393 0.003606
0.702756 0.213641 -0.018627
0.690482 0.227923 0.001755
0.676063 0.186281 -0.006377
0.693808 0.200863 -0.009306
0.653465 0.251588 -0.021455
0.675666 0.186694 -0.004872
0.680933 0.244279 0.004224
0.664149 0.190171 0.011142
0.654009 0.214941 0.014484
0.665678 0.179487 -0.009867
0.662832 0.179267 -0.010592
0.692190 0.192866 -0.008385
0.689027 0.214939 0.011379
0.628685 0.230351 -0.011514
0.655445 0.185268 -0.006470
0.685171 0.249940 -0.022381
0.651371 0.187669 -0.004254
0.646777 0.187674 -0.000602
0.674409 0.181370 -0.026732
0.670185 0.180285 -0.008764
0.673231 0.209256 0.012878
0.674783 0.239036 0.005509
0.693952 0.199533 -0.012723
0.672431 0.221792 0.008349
0.671576 0.215897 0.008547
0.689824 0.191575 -0.022549
0.668052 0.180248 -0.023771
0.688265 0.201998 0.009641
0.661352 0.186752 -0.000460
0.656047 0.247861 -0.004579
0.657812 0.250146 -0.000064
0.633012 0.229154 -0.008482
0.645606 0.251215 -0.017632
0.664813 0.184609 0.003516
0.700712 0.225181 -0.010913
0.656954 0.255574 -0.020842
0.657815 0.195733 0.007843
0.672693 0.247553 -0.003853
0.665676 0.196759 0.008230
0.693406 0.216873 0.008617
0.682745 0.249704 -0.012158
0.624391 0.209504 -0.022082
0.675564 0.196517 0.006502
0.636207 0.233931 -0.006520
0.629054 0.211243 -0.014858
0.660197 0.191340 0.005278
0.696046 0.238444 -0.016638
0.641328 0.197123 -0.000956
0.631980 0.237165 -0.012101
0.644399 0.240550 0.005485
0.670506 0.203770 0.013229
0.692008 0.235474 -0.008996
0.694993 0.205074 -0.006837
0.646246 0.251677 -0.018294
0.698882 0.198772 -0.022726
0.629938 0.230634 -0.020580
0.676553 0.179404 -0.021253
0.691100 0.222829 0.002848
0.630633 0.215081 -0.008678
0.633835 0.201368 -0.000947
0.632766 0.201533 -0.012970
0.641813 0.232686 0.010194
0.663829 0.206412 0.013769
0.641090 0.237173 0.005625
0.647956 0.197269 0.012147
0.646893 0.231787 0.007516
0.669569 0.213771 0.008765
0.630544 0.219907 -0.009181
0.663477 0.232681 0.008627
0.644126 0.247558 -0.022058
0.634215 0.197486 -0.015571
0.650743 0.196380 0.006413
0.689254 0.227147 0.010591
0.679676 0.195275 0.011271
0.627890 0.227673 -0.011053
0.658596 0.249281 0.002127
0.682756 0.185133 -0.028309
0.631689 0.202019 -0.004863
0.687982 0.243378 -0.020773
0.658767 0.230959 0.013768
0.672959 0.177968 -0.025245
0.679269 0.183387 -0.026342
0.668391 0.254175 -0.028845
0.691159 0.191688 -0.008516
0.644738 0.185556 -0.020934
0.634854 0.238693 -0.019951
0.684480 0.198746 0.003491
0.679451 0.193564 0.010090
0.698862 0.220989 -0.001574
0.646305 0.219686 0.009571
0.677444 0.252866 -0.015503
0.648830 0.243900 -0.002423
0.650679 0.228302 0.009275
0.645097 0.245430 -0.001525
0.684209 0.187023 -0.020923
0.677999 0.249526 -0.018295
0.648587 0.190220 0.005411
0.659476 0.255920 -0.020817
0.685111 0.245189 -0.002765
0.701932 0.208071 -0.018801
0.687935 0.248055 -0.029757
0.645651 0.222844 0.009178
0.632939 0.211277 0.003697
0.663655 0.191886 0.012615
0.694627 0.223874 0.005945
0.687343 0.243948 -0.020681
0.695432 0.235821 -0.006970
0.681379 0.248151 -0.004318
0.662856 0.184794 -0.004492
0.689909 0.245841 -0.030298
0.683944 0.248157 -0.008964
0.679199 0.242162 0.000766
0.629313 0.232088 -0.011823
0.657855 0.182663 -0.012796
0.698427 0.224121 -0.016275
0.698514 0.235812 -0.027346
0.638119 0.196014 0.000623
0.652520 0.244921 -0.000924
0.689742 0.225247 0.010721
0.682060 0.247352 -0.003213
0.698412 0.208582 -0.017323
0.653956 0.228192 0.014247
0.630349 0.205101 -0.015763
0.680564 0.198935 0.005740
0.693065 0.239652 -0.007957
0.642578 0.198207 0.008668
0.691484 0.192791 -0.027727
0.693846 0.205203 -0.003651
0.651206 0.215896 0.010045
0.667539 0.246057 0.000946
0.698152 0.217225 -0.010654
0.676380 0.250338 -0.004220
0.674975 0.240465 0.004583
0.669486 0.242960 0.004168
0.676038 0.213212 0.012553
0.686845 0.232617 0.010223
0.668598 0.243194 0.011079
0.665355 0.252172 -0.016612
0.685900 0.213496 0.011692
0.644005 0.244426 -0.001071
0.636951 0.231347 -0.001916
0.702182 0.222607 -0.016601
0.681523 0.242079 0.006708
0.628535 0.220433 -0.015779
0.702044 0.224112 -0.030984
0.643499 0.196141 0.000763
0.641478 0.189717 -0.003952
0.668967 0.182744 -0.011901
0.633425 0.240421 -0.025465
0.676091 0.183942 -0.014603
0.654797 0.252010 -0.021840
0.634040 0.206347 -0.004564
0.702640 0.224217 -0.028388
0.654962 0.253595 -0.012462
0.660247 0.255718 -0.027968
0.676654 0.242776 0.009044
0.662187 0.181167 -0.004599
0.668334 0.255454 -0.017718
0.682374 0.186558 -0.003316
0.669129 0.218192 0.013071
0.684972 0.191966 0.003620
0.649007 0.185268 -0.013632
0.649030 0.247401 -0.000799
0.695702 0.199332 -0.024400
0.681472 0.251786 -0.029660
0.698491 0.208427 -0.018137
0.626755 0.211193 -0.010881
0.662627 0.196007 0.008141
0.656716 0.186519 -0.002644
0.694924 0.194697 -0.013002
0.633193 0.191166 -0.020998
0.647634 0.184798 -0.017652
0.659451 0.248972 0.003059
0.687636 0.221912 0.005384
0.664069 0.181560 -0.003353
0.663863 0.237099 0.013206
0.683164 0.207686 0.012046
0.692613 0.224805 0.008273
0.699807 0.218291 -0.021251
0.645930 0.197302 0.010817
0.681493 0.251811 -0.029645
0.626916 0.231072 -0.019410
0.642405 0.186104 -0.010576
0.642549 0.245776 -0.018851
0.637062 0.190138 -0.011637
0.679084 0.223313 0.012099
0.681068 0.243296 -0.002719
0.684310 0.225578 0.006221
0.693085 0.231818 -0.005732
0.644990 0.184845 -0.009466
0.696166 0.194681 -0.020046
0.674249 0.228965 0.007862
0.687662 0.241930 -0.012686
0.655775 0.210840 0.014405
0.695650 0.240334 -0.025232
0.655893 0.203472 0.009590
0.653968 0.214560 0.009997
0.667565 0.253220 -0.024827
0.694326 0.232283 0.001007
0.624641 0.213176 -0.024065
0.668919 0.180877 -0.006161
0.638737 0.205100 0.009249
0.672151 0.229257 0.008099
0.635518 0.223685 0.007405
0.662884 0.253125 -0.006581
0.638498 0.195186 -0.009023
0.702744 0.223096 -0.030124
0.657688 0.218368 0.009711
0.683839 0.185095 -0.010405
0.649285 0.211823 0.009905
0.667756 0.199691 0.008626
0.637985 0.185930 -0.023869
0.629948 0.199686 -0.012289
0.696117 0.200236 -0.023660
0.658903 0.213556 0.009694
0.676794 0.185151 -0.000134
0.649703 0.248243 -0.012635
0.665655 0.254019 -0.009765
0.679036 0.211433 0.007793
0.688863 0.204105 0.002838
0.685641 0.248393 -0.014379
0.665966 0.241187 0.005957
0.682487 0.245162 0.001075
0.648778 0.181238 -0.015006
0.634822 0.219059 0.000654
0.659047 0.247271 0.005907
0.692696 0.189661 -0.027372
0.693793 0.195775 -0.028189
0.682446 0.246968 -0.017056
0.687582 0.246307 -0.011649
0.635289 0.199402 -0.009401
0.680442 0.239183 0.002911
0.653299 0.221484 0.009885
0.647794 0.219686 0.009795
0.688237 0.212502 0.005279
0.625907 0.220694 -0.012985
0.655412 0.235690 0.013984
0.627925 0.206959 -0.022939
0.680649 0.237287 0.004148
0.655265 0.194395 0.013208
0.673279 0.254452 -0.017142
0.647594 0.189202 -0.005256
0.634415 0.194930 -0.020805
0.700945 0.205698 -0.016046
0.644429 0.188506 -0.001934
0.679364 0.238854 0.011009
0.699553 0.223923 -0.027609
0.647025 0.239195 0.009349
0.646865 0.195288 0.003186
0.652537 0.229233 0.009274
0.664546 0.178726 -0.012636
0.681888 0.218547 0.007288
0.675797 0.219662 0.012454
0.696417 0.229997 -0.015211
0.685534 0.185228 -0.014183
0.698718 0.210740 -0.001986
0.667270 0.183407 0.000877
0.685957 0.188670 -0.018991
0.693439 0.227001 -0.001886
0.647508 0.216568 0.015049
0.650913 0.247753 -0.009326
0.688369 0.185628 -0.026481
0.691472 0.217255 0.003180
0.676284 0.182609 -0.022168
0.657851 0.190382 0.010497
0.699900 0.214481 -0.022697
0.634904 0.235402 -0.012189
0.660540 0.184014 0.001872
0.645606 0.233185 0.012798
0.647224 0.249920 -0.009619
0.693766 0.194906 -0.029958
0.647826 0.212115 0.015103
0.686538 0.208359 0.011736
0.667283 0.184783 0.003629
0.695489 0.209005 -0.004618
0.633081 0.219104 -0.002728
0.645006 0.189101 -0.009381
0.680915 0.235105 0.011708
0.654150 0.244604 0.000656
0.627335 0.211556 -0.008947
0.691902 0.189399 -0.020499
0.693597 0.190731 -0.024911
0.668045 0.180532 -0.021784
0.645794 0.190000 -0.006094
0.656925 0.250392 -0.011777
0.638569 0.229311 0.008848
0.639166 0.231122 0.001767
0.688933 0.189928 -0.007363
0.633087 0.217324 0.004834
0.655026 0.186517 -0.003727
0.680707 0.220520 0.012008
0.643584 0.210099 0.014883
0.680941 0.241927 0.007354
0.649743 0.218118 0.009985
0.673662 0.225619 0.012531
0.643107 0.193352 0.004102
0.698224 0.209035 -0.015483
0.629433 0.236825 -0.021216
0.672887 0.254941 -0.019852
0.653764 0.219700 0.009925
0.685570 0.223375 0.011534
0.680637 0.191739 0.007472
0.668947 0.249783 0.001676
0.645868 0.181637 -0.019009
0.676219 0.184296 -0.013322
0.632833 0.208169 -0.006002
0.655008 0.182326 -0.016492
0.689566 0.240072 -0.013055
0.693842 0.225223 0.006580
0.627867 0.229269 -0.012875
0.634471 0.206275 -0.003676
0.649247 0.221482 0.014795
0.687278 0.225716 0.011333
0.649055 0.246674 -0.008702
0.659860 0.242885 0.004544
0.623991 0.214504 -0.020828
0.655299 0.249832 -0.011144
0.689035 0.222672 0.004518
0.659576 0.215694 0.013967
0.696458 0.213977 0.004045
0.639757 0.189144 -0.020920
0.669703 0.228390 0.012833
0.682599 0.251597 -0.023961
0.657276 0.252667 -0.007283
0.683170 0.182962 -0.017966
0.690600 0.232816 -0.001782
0.673858 0.254562 -0.018896
0.645440 0.247080 -0.016544
0.627206 0.217395 -0.008241
0.634105 0.205903 0.003169
0.657940 0.191177 0.011303
0.663784 0.177535 -0.018348
0.688615 0.229659 0.002768
0.668867 0.182196 -0.002419
0.649809 0.196203 0.005857
0.649193 0.201183 0.014787
0.640676 0.192330 -0.000650
0.654613 0.197294 0.008063
0.646120 0.183073 -0.012900
0.670515 0.253302 -0.008972
0.695625 0.234591 -0.028143
0.696603 0.216149 -0.005064
0.703280 0.219285 -0.027428
0.649165 0.219629 0.014837
0.638742 0.232605 -0.000101
0.658948 0.235436 0.008330
0.695890 0.199203 -0.006001
0.628302 0.224025 -0.018796
0.680729 0.244369 0.004270
0.683627 0.234564 0.011197
0.691511 0.193064 -0.025477
0.626987 0.211624 -0.009969
0.677757 0.205177 0.012564
0.645765 0.244975 -0.009239
0.688765 0.186403 -0.021061
0.689978 0.246450 -0.024450
0.649688 0.181738 -0.011835
0.682406 0.251813 -0.026149
0.625036 0.214264 -0.015889
0.684060 0.231078 0.011519
0.676549 0.232608 0.012161
0.648217 0.184758 -0.016735
0.691792 0.240426 -0.030342
0.686407 0.187808 -0.007381
0.700750 0.202910 -0.029994
0.661772 0.252863 -0.020637
0.639560 0.244747 -0.009569
0.670882 0.213323 0.008654
0.699970 0.215248 -0.023052
0.681544 0.220775 0.007266
0.626815 0.231733 -0.021507
0.684074 0.249839 -0.016611
0.687617 0.243548 -0.003583
0.631282 0.237867 -0.015947
0.657341 0.191399 0.004777
0.641807 0.244015 -0.003612
0.634592 0.236315 -0.014909
0.692224 0.194998 -0.003728
0.683780 0.196274 0.002202
0.630014 0.232761 -0.010628
0.670033 0.189894 0.010308
0.682213 0.185080 -0.007155
0.632279 0.238321 -0.013593
0.698999 0.233166 -0.030931
0.649169 0.252538 -0.016104
0.699886 0.228175 -0.010884
0.660706 0.203255 0.014114
0.688698 0.213947 0.005116
0.639040 0.186422 -0.017311
0.646385 0.233014 0.013326
0.682911 0.251419 -0.029422
0.631122 0.200009 -0.008560
0.686974 0.233464 0.009671
0.663584 0.201759 0.013886
0.668791 0.227567 0.008526
0.686030 0.189068 -0.017319
0.666057 0.234950 0.013047
0.665757 0.254526 -0.011876
0.644468 0.229679 0.013713
0.641930 0.189168 -0.015174
0.645106 0.189128 -0.009152
0.651094 0.249873 -0.016739
0.688884 0.245444 -0.030470
0.677607 0.253568 -0.020502
0.691633 0.196192 -0.012319
0.687093 0.194279 0.004175
0.685544 0.241984 0.002703
0.703019 0.221584 -0.028982
0.695372 0.233359 -0.018609
0.641246 0.196539 -0.001857
0.687587 0.199995 0.009050
0.682916 0.199602 0.011942
0.669260 0.255676 -0.028675
0.694938 0.239116 -0.013420
0.684752 0.245799 -0.019209
0.634349 0.224682 0.005336
0.676351 0.246821 0.003712
0.671597 0.186040 -0.003426
0.656379 0.219087 0.014191
0.655761 0.181442 -0.019650
0.693024 0.222780 0.000674
0.690254 0.194965 -0.010932
0.678261 0.202556 0.007378
0.634898 0.191671 -0.013441
0.671838 0.209167 0.008613
0.677621 0.250832 -0.007209
0.638509 0.190917 -0.018898
0.683649 0.187785 -0.015157
0.639445 0.202615 0.001908
0.639922 0.240429 -0.009728
0.654202 0.189995 0.008732
0.664288 0.218338 0.009152
0.653153 0.241596 0.010654
0.635788 0.244704 -0.020531
0.623909 0.218413 -0.021162
0.681291 0.181292 -0.022558
0.695357 0.206203 0.002956
0.698024 0.229041 -0.025637
0.670260 0.250298 -0.010728
0.654917 0.240986 0.005107
0.693793 0.210699 -0.000345
0.674885 0.181394 -0.008803
0.665486 0.256545 -0.026700
0.665594 0.247761 -0.001796
0.638641 0.201682 -0.000038
0.688249 0.191881 -0.001383
0.702849 0.223088 -0.026278
0.643869 0.196664 0.008550
0.690198 0.204338 0.009047
0.686184 0.238830 -0.002208
0.699512 0.214221 -0.019144
0.662888 0.177616 -0.017920
0.699549 0.233393 -0.022380
0.658784 0.181097 -0.005849
0.671791 0.243964 0.002577
0.643093 0.195680 -0.000306
0.689052 0.241995 -0.018786
0.671214 0.230778 0.008093
0.646306 0.224892 0.009075
0.681003 0.227031 0.011866
0.678326 0.186331 0.001020
0.691840 0.201340 -0.003312
0.688687 0.220283 0.005000
0.638626 0.242972 -0.007370
0.649277 0.186510 -0.000160
0.685072 0.249353 -0.017398
0.687373 0.201280 0.009998
0.668175 0.236770 0.007553
0.697554 0.209662 -0.011282
0.650451 0.243901 -0.000832
0.657538 0.242224 0.011525
0.642032 0.189876 -0.013023
0.699675 0.220863 -0.003922
0.629097 0.230341 -0.023807
0.657937 0.179241 -0.012484
0.645242 0.251083 -0.017930
0.699591 0.214802 -0.019529
0.677707 0.251551 -0.009931
0.665266 0.233355 0.008420
0.663538 0.181753 -0.014343
0.692810 0.195863 -0.018878
0.693088 0.200010 0.001830
0.645863 0.221208 0.009387
0.648150 0.215130 0.009893
0.678427 0.192030 0.002042
0.657957 0.182943 -0.011747
0.625250 0.228036 -0.023747
0.634226 0.202542 0.000876
0.701545 0.221027 -0.031118
0.698443 0.213387 -0.012789
0.695738 0.234433 -0.028707
0.661118 0.179578 -0.026341
0.642333 0.198961 0.002327
0.631572 0.206714 -0.010375
0.633457 0.227006 -0.005418
0.688413 0.191267 -0.016899
0.668246 0.222283 0.013072
0.651588 0.249513 -0.003007
0.629962 0.201151 -0.023499
0.685150 0.245050 -0.016750
0.656634 0.223628 0.009648
0.680119 0.183502 -0.008675
0.688317 0.227363 0.003892
0.640473 0.220200 0.013385
0.641248 0.226440 0.012670
0.638860 0.241830 -0.015970
0.669536 0.191999 0.012262
0.656100 0.251303 -0.016378
0.670140 0.251007 -0.001606
0.650632 0.186815 0.001681
0.640813 0.216745 0.013814
0.679778 0.185928 -0.013189
0.663862 0.182764 -0.010533
0.632783 0.223191 -0.004628
0.680159 0.239034 0.003208
0.659247 0.189321 0.009684
0.649934 0.226238 0.009484
0.687474 0.248012 -0.030086
0.663738 0.253458 -0.007636
0.661220 0.236951 0.007926
0.661913 0.225502 0.009192
0.691678 0.242163 -0.010459
0.643417 0.194423 -0.001606
0.697878 0.232362 -0.031070
0.633020 0.239253 -0.013380
0.674050 0.214261 0.012710
0.687872 0.248210 -0.024673
0.638787 0.241207 -0.003537
0.657374 0.187956 0.007435
0.661781 0.210366 0.009500
0.663407 0.229702 0.008889
0.637399 0.187329 -0.018997
0.673851 0.196291 0.013081
0.686679 0.223899 0.011427
0.660685 0.177773 -0.017721
0.682409 0.248514 -0.007110
0.691983 0.193663 -0.025263
0.643035 0.237195 0.000879
0.654056 0.206914 0.009836
0.656126 0.208635 0.014417
0.632199 0.238099 -0.013359
0.628521 0.202264 -0.024328
0.635596 0.245141 -0.024134
0.689661 0.234757 -0.002325
0.639002 0.237220 -0.005509
0.678162 0.250499 -0.026749
0.685031 0.246787 -0.006850
0.653020 0.188065 -0.001985
0.646960 0.249897 -0.009981
0.659549 0.186294 -0.001841
0.641105 0.246001 -0.024605
0.691199 0.238780 -0.015240
0.696484 0.236061 -0.011431
0.645860 0.252216 -0.022829
0.698333 0.226650 -0.020312
0.686525 0.246757 -0.030333
0.627869 0.229547 -0.013215
0.691470 0.243665 -0.015136
0.679258 0.245129 -0.004310
0.679950 0.232225 0.011869
0.703253 0.215135 -0.023570
0.685295 0.243516 -0.011011
0.673816 0.221189 0.012599
0.670826 0.183612 0.000288
0.651537 0.188201 -0.002972
0.654170 0.181072 -0.023611
0.684049 0.185863 -0.028706
0.687535 0.248469 -0.024784
0.655772 0.252823 -0.026139
0.673530 0.235429 0.007097
0.644174 0.235221 0.010504
0.667559 0.180540 -0.021352
0.630132 0.222690 -0.001904
0.666857 0.209652 0.009075
0.637698 0.220415 0.010837
0.631951 0.235799 -0.023633
0.650902 0.249608 -0.015901
0.657207 0.181304 -0.018977
0.671261 0.232095 0.007962
0.668956 0.219271 0.013066
0.657569 0.206747 0.014323
0.653117 0.185529 0.001210
0.681616 0.182876 -0.014009
0.646228 0.249400 -0.009641
0.685892 0.188624 -0.018963
0.692376 0.189460 -0.023918
0.627173 0.217010 -0.020345
0.661806 0.235586 0.008258
0.636760 0.194681 -0.003634
0.665872 0.214326 0.009087
0.679152 0.201221 0.012526
0.629985 0.195201 -0.023619
0.681583 0.207119 0.007162
0.649025 0.197360 0.012785
0.695366 0.201257 -0.014964
0.685182 0.249926 -0.022312
0.646580 0.183815 -0.024276
0.639372 0.246546 -0.015312
0.691904 0.209387 0.009194
0.690022 0.198829 -0.002881
0.640330 0.199931 0.000754
0.629135 0.230951 -0.024601
0.666343 0.197808 0.008432
0.690424 0.202741 0.000299
0.639589 0.223438 0.005789
0.629904 0.199185 -0.013190
0.628832 0.228151 -0.021252
0.692767 0.207285 -0.000218
0.633305 0.236550 -0.007438
0.665465 0.233614 0.013122
0.640007 0.240526 -0.009748
0.697278 0.204685 -0.017470
0.665808 0.180351 -0.006973
0.684173 0.193487 0.006458
0.687492 0.185945 -0.017598
0.651794 0.195250 0.006085
0.656179 0.246994 -0.002497
0.647706 0.193903 0.009088
0.686345 0.235982 0.008535
0.678045 0.186902 -0.007016
0.655917 0.233694 0.008638
0.656448 0.214395 0.009865
0.697935 0.225402 -0.015141
0.636420 0.228550 -0.000494
0.643276 0.240304 0.004559
0.680140 0.183468 -0.008823
0.635029 0.222069 0.007162
0.661321 0.184033 -0.006856
0.640395 0.188351 -0.021879
0.668465 0.220329 0.008743
0.634025 0.229262 0.002239
0.656039 0.203921 0.014521
0.688617 0.225867 0.004112
0.663385 0.178671 -0.012861
0.647679 0.185152 -0.016274
0.639181 0.193025 -0.001921
0.673779 0.186421 0.004360
0.651993 0.187785 -0.003412
0.698789 0.206216 -0.027608
0.630309 0.206204 -0.014666
0.634277 0.239258 -0.009832
0.655887 0.249721 -0.000132
0.699799 0.217365 -0.003644
0.688087 0.204438 0.010863
0.655320 0.255551 -0.023492
0.664330 0.177207 -0.020480
0.631173 0.196669 -0.013574
0.645592 0.207641 0.008750
0.627455 0.219919 -0.007868
0.678729 0.226586 0.007388
0.666619 0.244834 0.002696
0.629157 0.224233 -0.015728
0.670269 0.200916 0.013313
0.658227 0.253837 -0.010876
0.690466 0.204811 0.008999
0.639480 0.223886 0.005578
0.688195 0.214788 0.005409
0.640435 0.247672 -0.016374
0.626619 0.230468 -0.019744
0.633405 0.209516 -0.003865
0.651699 0.249609 -0.003134
0.677567 0.179861 -0.020615
0.666339 0.180593 -0.020296
0.661230 0.181735 -0.014769
0.695940 0.226017 -0.007156
0.691874 0.193627 -0.024528
0.696761 0.232236 -0.026706
0.681286 0.222959 0.011913
0.665326 0.252872 -0.020669
0.640132 0.196984 -0.003049
0.696660 0.200743 -0.005846
0.646832 0.252398 -0.020780
0.626510 0.229386 -0.018366
0.668308 0.251318 -0.013714
0.659166 0.234042 0.013680
0.688403 0.220221 0.005160
0.659289 0.221199 0.009525
0.681290 0.186430 -0.002097
0.654075 0.187241 0.004870
0.650475 0.244572 0.005518
0.668934 0.213267 0.013182
0.643160 0.209692 0.014584
0.626575 0.230476 -0.019994
0.653227 0.182812 -0.016533
0.682094 0.181536 -0.024748
0.660507 0.185792 -0.002614
0.666669 0.239212 0.006904
0.675614 0.231142 0.007460
0.633040 0.239183 -0.025425
0.631157 0.232075 -0.018327
0.642568 0.232035 0.004766
0.692369 0.196963 -0.000690
0.676017 0.185388 -0.009054
0.624721 0.221318 -0.018014
0.656034 0.254029 -0.013293
0.671117 0.178604 -0.016693
0.694044 0.196992 -0.004642
0.635844 0.234190 -0.007760
0.653420 0.193852 0.012219
0.702938 0.210778 -0.026170
0.686856 0.242270 -0.011308
0.657471 0.207771 0.009790
0.636283 0.223000 0.002092
0.687689 0.199429 0.008562
0.702086 0.219293 -0.013598
0.628661 0.201674 -0.013492
0.696969 0.211944 0.002589
0.669096 0.212288 0.008833
0.647725 0.231096 0.008061
0.659275 0.185370 -0.004013
0.700246 0.215954 -0.005144
0.653414 0.234978 0.008054
0.652129 0.190791 0.008601
0.669835 0.250098 -0.009675
0.686163 0.224930 0.005635
0.630808 0.224343 -0.010460
0.636657 0.231709 0.004707
0.697550 0.237224 -0.029638
0.698264 0.236219 -0.028035
0.696833 0.215409 -0.005816
0.632203 0.202045 -0.013889
0.643204 0.244763 -0.013704
0.674085 0.179080 -0.018053
0.634615 0.209181 -0.001529
0.692382 0.235810 0.000729
0.684329 0.183995 -0.016226
0.681812 0.182559 -0.016018
0.646300 0.242135 -0.002160
0.698825 0.207093 -0.004866
0.633543 0.217734 0.005563
0.681148 0.240649 0.008566
0.690953 0.236366 -0.007723
0.667838 0.180566 -0.006746
0.673424 0.244289 0.008795
0.628041 0.221716 -0.006760
0.626835 0.213721 -0.022441
0.679673 0.196847 0.005164
0.691579 0.192962 -0.006431
0.678557 0.215001 0.007845
0.673203 0.243946 0.009256
0.627978 0.231870 -0.024779
0.687894 0.192342 -0.011201
0.672701 0.251926 -0.022143
0.699349 0.217758 -0.002298
0.694562 0.236962 -0.006519
0.701828 0.206014 -0.023896
0.667752 0.181958 -0.002711
0.628826 0.229372 -0.009930
0.630759 0.213794 0.000173
0.696416 0.238240 -0.030678
0.658687 0.255789 -0.020527
0.688257 0.244082 -0.006330
0.695601 0.201301 -0.002077
0.701792 0.206326 -0.021910
0.693601 0.208473 -0.000953
0.660581 0.251137 -0.012485
0.655600 0.187724 0.006385
0.681721 0.239597 0.001658
0.638097 0.186313 -0.020828
0.665461 0.188720 0.009600
0.701447 0.221140 -0.011102
0.661609 0.186957 -0.000044
0.684834 0.229256 0.011489
0.696314 0.203143 -0.015366
0.673928 0.183536 -0.001630
0.636361 0.210857 0.002097
0.697578 0.202597 -0.006038
0.692515 0.228891 -0.001561
0.683193 0.203566 0.012122
0.647346 0.186786 -0.011643
0.634026 0.229969 0.001704
0.668319 0.198878 0.008446
0.627823 0.217555 -0.017730
0.671571 0.183479 -0.010979
0.654733 0.211055 0.009956
0.649496 0.250290 -0.021891
0.640698 0.184442 -0.020348
0.688362 0.198530 -0.000603
0.673576 0.211053 0.012813
0.666714 0.251703 -0.002415
0.671571 0.241263 0.011978
0.636303 0.192262 -0.021892
0.644589 0.250944 -0.026506
0.670534 0.212465 0.008699
0.689525 0.217127 0.011277
0.625158 0.218076 -0.015123
0.701233 0.215438 -0.031032
0.660736 0.177926 -0.016887
0.659962 0.230945 0.009004
0.656662 0.255545 -0.021011
0.679763 0.184009 -0.023190
0.670324 0.177808 -0.020777
0.646567 0.240726 0.000343
0.664850 0.234697 0.008262
0.696846 0.219578 0.003318
0.693495 0.197127 -0.017766
0.632166 0.197007 -0.023869
0.674944 0.251897 -0.028689
0.685742 0.189017 -0.016502
0.681245 0.248467 -0.021993
0.698328 0.228274 -0.026171
0.693227 0.195925 -0.021315
0.668573 0.202125 0.008788
0.651689 0.186463 -0.006794
0.665383 0.180932 -0.018139
0.687372 0.247053 -0.013997
0.703034 0.220386 -0.022532
0.631263 0.202965 -0.004872
0.671838 0.252158 -0.005862
0.684282 0.245344 -0.015113
0.678791 0.203287 0.007364
0.691807 0.243408 -0.015530
0.638247 0.210511 0.010799
0.666892 0.211377 0.013398
0.700116 0.207748 -0.008923
0.629110 0.198751 -0.024233
0.644757 0.246323 -0.015328
0.660932 0.220608 0.013755
0.632501 0.196664 -0.009863
0.666399 0.252954 -0.006073
0.700133 0.219894 -0.027489
0.630094 0.234021 -0.012336
0.663866 0.193342 0.013582
0.656840 0.251889 -0.018564
0.668245 0.196370 0.013587
0.653424 0.237579 0.013664
0.695824 0.237176 -0.011556
0.682428 0.182097 -0.020880
0.685907 0.184206 -0.028720
0.655331 0.255683 -0.027005
0.635293 0.236782 -0.013765
0.688209 0.187499 -0.013230
0.677481 0.226179 0.007610
0.661417 0.198808 0.014143
0.695350 0.215253 -0.002139
0.633933 0.214216 -0.001128
0.630647 0.229868 -0.016587
0.703304 0.214737 -0.025116
0.638360 0.193341 -0.013047
0.697461 0.219295 -0.008194
0.675308 0.241881 0.010446
0.642342 0.209714 0.014077
0.696090 0.206020 -0.009419
0.677284 0.180451 -0.016328
0.645519 0.183390 -0.025483
0.698193 0.208294 -0.016347
0.666021 0.191448 0.005496
0.644737 0.191241 -0.005127
0.638144 0.231219 0.007134
0.678228 0.188128 -0.004095
0.683112 0.196107 0.002590
0.628389 0.210803 -0.006365
0.652913 0.247636 -0.006638
0.679302 0.250108 -0.007148
0.671267 0.252072 -0.005198
0.636026 0.242307 -0.012006
0.695286 0.219211 -0.002178
0.628501 0.221576 -0.016411
0.682515 0.244451 0.002327
0.689131 0.188166 -0.013707
0.634901 0.190113 -0.017653
0.687731 0.244842 -0.007198
0.701144 0.204803 -0.019762
0.646598 0.192776 -0.000077
0.634132 0.197242 -0.005196
0.641788 0.190945 -0.001264
0.651743 0.192371 0.010119
0.692199 0.197971 -0.009803
0.641714 0.231684 0.010718
0.636345 0.193520 -0.006356
0.661042 0.186938 0.006970
0.654999 0.192101 0.004737
0.644923 0.182257 -0.018406
0.693941 0.235861 -0.018758
0.683313 0.184809 -0.010243
0.679880 0.253057 -0.028817
0.676007 0.195318 0.012665
0.632390 0.240558 -0.019205
0.637337 0.235545 -0.006363
0.679945 0.188279 0.003141
0.647365 0.242099 -0.000866
0.650535 0.182986 -0.019722
0.700150 0.222869 -0.006585
0.684375 0.187322 -0.019849
0.647620 0.193853 0.002270
0.695589 0.205232 0.001820
0.623791 0.219093 -0.022269
0.693847 0.235384 -0.001784
0.645177 0.183309 -0.013820
0.682630 0.192329 -0.001251
0.669048 0.189835 0.010436
0.686544 0.219185 0.011527
0.679841 0.223616 0.007405
0.627658 0.199174 -0.023202
0.636955 0.207244 0.008150
0.649220 0.182765 -0.009234
0.650157 0.252378 -0.013714
0.650982 0.245022 -0.002421
0.641172 0.216531 0.014070
0.626867 0.211460 -0.010414
0.674672 0.178923 -0.027720
0.623737 0.214863 -0.022488
0.664757 0.179804 -0.024746
0.689383 0.240931 -0.015465
0.661835 0.250396 -0.009276
0.692960 0.224989 -0.000012
0.630001 0.219464 -0.001358
0.702817 0.210094 -0.028042
0.645643 0.189116 -0.008306
0.671494 0.242625 0.003984
0.676899 0.254210 -0.024717
0.690852 0.236328 -0.007353
0.639281 0.241376 -0.002931
0.641239 0.189260 -0.016529
0.630650 0.226472 -0.012612
0.627384 0.211291 -0.021271
0.682220 0.192127 -0.001108
0.658666 0.254110 -0.011694
0.702447 0.208207 -0.026024
0.645077 0.243402 -0.006494
0.691134 0.237228 -0.010277
0.697154 0.228295 -0.015704
0.696489 0.217829 0.004176
0.633748 0.240292 -0.013595
0.635703 0.236586 -0.012186
0.672544 0.198871 0.007865
0.642180 0.193697 -0.004677
0.658044 0.244092 0.009820
0.674396 0.227314 0.007955
0.673527 0.250144 -0.001294
0.656368 0.188193 0.000361
0.642545 0.210939 0.014452
0.698779 0.230909 -0.010305
0.659676 0.190303 0.010827
0.633009 0.227193 -0.006658
0.640173 0.241230 -0.011014
0.667778 0.217229 0.008862
0.696858 0.218331 -0.005935
0.654488 0.181044 -0.023311
0.698874 0.199100 -0.020720
0.659973 0.179015 -0.012297
0.684216 0.182678 -0.027523
0.672869 0.182519 -0.003544
0.692212 0.231135 -0.002947
0.635760 0.201412 0.002593
0.698465 0.229997 -0.007583
0.641679 0.216638 0.007968
