ply
format ascii 1.0
element vertex 1024
property float x
property float y
property float z
property uchar red
property uchar green
property uchar blue
end_header
0.619768 -0.034538 0.173990 255 220 0
0.667264 0.035346 0.172243 255 220 0
0.680056 0.083691 0.245167 255 220 0
0.681524 0.046247 0.230867 255 220 0
0.665298 0.009687 0.192062 255 220 0
0.634737 0.036345 0.255062 255 220 0
0.661640 0.017491 0.171144 255 220 0
0.657572 0.098221 0.202463 255 220 0
0.599836 0.022885 0.233586 255 220 0
0.686013 0.058733 0.207259 255 220 0
0.654917 0.099453 0.204149 255 220 0
0.622687 0.091735 0.217086 255 220 0
0.638177 0.069371 0.179900 255 220 0
0.630435 -0.001559 0.141962 255 220 0
0.679347 0.069600 0.190783 255 220 0
0.680460 0.044354 0.231812 255 220 0
0.685761 0.062565 0.228786 255 220 0
0.596609 0.039371 0.208849 255 220 0
0.627747 -0.010582 0.137310 255 220 0
0.645362 0.047365 0.164951 255 220 0
0.651930 0.002034 0.163761 255 220 0
0.685788 0.078210 0.213500 255 220 0
0.651001 0.101756 0.253773 255 220 0
0.677963 0.097821 0.218946 255 220 0
0.609842 0.024282 0.242026 255 220 0
0.591593 0.015198 0.194235 255 220 0
0.684342 0.058551 0.199310 255 220 0
0.654877 0.068411 0.261716 255 220 0
0.634087 0.006916 0.147224 255 220 0
0.618937 0.028182 0.248056 255 220 0
0.592574 -0.001063 0.175703 255 220 0
0.610099 0.006993 0.233489 255 220 0
0.683405 0.053699 0.231862 255 220 0
0.598786 -0.005933 0.154620 255 220 0
0.677954 0.050380 0.185396 255 220 0
0.654270 -0.006389 0.190058 255 220 0
0.608062 0.059308 0.199172 255 220 0
0.617752 -0.012905 0.132970 255 220 0
0.611001 0.050734 0.186920 255 220 0
0.676821 0.098159 0.240741 255 220 0
0.672563 0.085652 0.194793 255 220 0
0.648340 -0.013438 0.181441 255 220 0
0.667986 0.021357 0.179636 255 220 0
0.626278 0.096757 0.221446 255 220 0
0.604984 -0.031326 0.184984 255 220 0
0.653525 -0.004001 0.208855 255 220 0
0.624317 0.093593 0.217543 255 220 0
0.656957 0.083809 0.261711 255 220 0
0.634403 -0.014432 0.212861 255 220 0
0.596156 0.016824 0.181167 255 220 0
0.678658 0.097671 0.233580 255 220 0
0.685307 0.056522 0.203904 255 220 0
0.616465 -0.034447 0.176961 255 220 0
0.684639 0.072398 0.203589 255 220 0
0.648482 0.083275 0.187292 255 220 0
0.597163 0.026600 0.230041 255 220 0
0.608056 0.070494 0.220708 255 220 0
0.670163 0.076557 0.185859 255 220 0
0.640610 -0.009297 0.151157 255 220 0
0.593361 -0.002218 0.210866 255 220 0
0.653982 0.005010 0.165574 255 220 0
0.596274 0.017389 0.181421 255 220 0
0.591025 -0.001192 0.184335 255 220 0
0.679797 0.089849 0.208018 255 220 0
0.597216 -0.029143 0.179842 255 220 0
0.612234 0.027699 0.167093 255 220 0
0.626547 0.096148 0.218760 255 220 0
0.637502 -0.021991 0.191606 255 220 0
0.672567 0.101585 0.244309 255 220 0
0.600712 0.050968 0.228645 255 220 0
0.673636 0.034082 0.181817 255 220 0
0.651685 0.028243 0.160558 255 220 0
0.599566 -0.026700 0.189384 255 220 0
0.663803 0.013826 0.177872 255 220 0
0.607046 0.054786 0.196138 255 220 0
0.626875 0.000681 0.231824 255 220 0
0.674822 0.101714 0.236531 255 220 0
0.610101 0.042759 0.181194 255 220 0
0.634569 0.006556 0.236641 255 220 0
0.633878 -0.022733 0.148850 255 220 0
0.598005 0.044163 0.211759 255 220 0
0.593701 -0.020781 0.162145 255 220 0
0.675825 0.075018 0.189295 255 220 0
0.677039 0.028720 0.201641 255 220 0
0.607383 0.039470 0.182059 255 220 0
0.668843 0.028688 0.237554 255 220 0
0.613958 0.081959 0.227519 255 220 0
0.613520 0.049219 0.182462 255 220 0
0.620592 -0.031316 0.185369 255 220 0
0.619144 0.086857 0.215281 255 220 0
0.664491 0.052067 0.171603 255 220 0
0.681503 0.088915 0.239528 255 220 0
0.618463 0.087115 0.237631 255 220 0
0.680748 0.041935 0.195059 255 220 0
0.684901 0.086262 0.224562 255 220 0
0.631501 0.101199 0.223248 255 220 0
0.615934 0.024160 0.245176 255 220 0
0.603710 0.056343 0.206469 255 220 0
0.671184 0.018649 0.196526 255 220 0
0.611680 -0.036211 0.169720 255 220 0
0.635443 0.066292 0.260205 255 220 0
0.655487 0.034982 0.251718 255 220 0
0.638252 -0.018941 0.153857 255 220 0
0.677406 0.062614 0.246702 255 220 0
0.632021 -0.003623 0.227349 255 220 0
0.601509 0.053947 0.213004 255 220 0
0.624574 0.087643 0.248036 255 220 0
0.669505 0.029287 0.176949 255 220 0
0.657379 0.024986 0.244404 255 220 0
0.615146 0.035759 0.248402 255 220 0
0.662410 0.004774 0.193997 255 220 0
0.595190 0.034398 0.217882 255 220 0
0.601129 0.007394 0.163752 255 220 0
0.677892 0.034294 0.193172 255 220 0
0.624182 0.077633 0.252348 255 220 0
0.627025 0.050387 0.256598 255 220 0
0.672808 0.079490 0.189684 255 220 0
0.629329 -0.022993 0.140947 255 220 0
0.664737 0.052983 0.172027 255 220 0
0.647283 0.106088 0.218662 255 220 0
0.672595 0.102196 0.242936 255 220 0
0.656280 0.007771 0.227546 255 220 0
0.657366 0.055849 0.170001 255 220 0
0.661520 0.108067 0.223910 255 220 0
0.599617 0.045998 0.229320 255 220 0
0.597809 0.037571 0.197678 255 220 0
0.651922 0.083330 0.186862 255 220 0
0.600372 -0.034735 0.161595 255 220 0
0.621111 -0.033116 0.178869 255 220 0
0.640371 0.022254 0.248218 255 220 0
0.674336 0.048663 0.245159 255 220 0
0.674457 0.033035 0.233622 255 220 0
0.600380 -0.012518 0.143656 255 220 0
0.629691 -0.023667 0.198255 255 220 0
0.601267 0.054541 0.219918 255 220 0
0.631840 -0.011277 0.140606 255 220 0
0.678995 0.095625 0.238556 255 220 0
0.625546 -0.014722 0.215301 255 220 0
0.626390 -0.016985 0.135737 255 220 0
0.629655 0.033500 0.160736 255 220 0
0.613734 0.024654 0.244310 255 220 0
0.633555 -0.013960 0.214082 255 220 0
0.626483 0.025411 0.157008 255 220 0
0.670237 0.091343 0.255220 255 220 0
0.686418 0.077470 0.219224 255 220 0
0.612214 0.051771 0.186286 255 220 0
0.612211 0.003122 0.231380 255 220 0
0.595509 -0.013104 0.154984 255 220 0
0.639036 -0.007771 0.148612 255 220 0
0.622297 0.025463 0.248169 255 220 0
0.621639 0.057494 0.181229 255 220 0
0.601596 0.055494 0.221897 255 220 0
0.641856 -0.020195 0.170013 255 220 0
0.622222 -0.035175 0.164221 255 220 0
0.594648 0.030864 0.201181 255 220 0
0.614245 0.082245 0.229879 255 220 0
0.610139 0.047508 0.185191 255 220 0
0.613159 0.015725 0.156821 255 220 0
0.676127 0.094451 0.247318 255 220 0
0.660111 0.001893 0.189738 255 220 0
0.598345 0.015022 0.175533 255 220 0
0.685890 0.059333 0.206230 255 220 0
0.633745 0.071656 0.259445 255 220 0
0.620422 0.025980 0.160021 255 220 0
0.681840 0.075364 0.198083 255 220 0
0.613048 -0.020317 0.206314 255 220 0
0.624798 0.049953 0.173502 255 220 0
0.608505 0.057572 0.196632 255 220 0
0.623931 0.078626 0.251799 255 220 0
0.686905 0.068532 0.217973 255 220 0
0.633015 0.016243 0.244488 255 220 0
0.633806 0.023244 0.249043 255 220 0
0.629910 0.099991 0.237242 255 220 0
0.662171 0.101714 0.253011 255 220 0
0.615011 0.083350 0.222426 255 220 0
0.650135 0.099437 0.255609 255 220 0
0.662948 0.007281 0.186666 255 220 0
0.597265 0.031631 0.192150 255 220 0
0.634548 -0.010679 0.218364 255 220 0
0.677125 0.046775 0.184253 255 220 0
0.611138 0.067597 0.241271 255 220 0
0.622783 0.008636 0.237996 255 220 0
0.646904 -0.014752 0.176546 255 220 0
0.623926 0.076883 0.252358 255 220 0
0.591203 -0.009196 0.188995 255 220 0
0.660110 0.022738 0.167398 255 220 0
0.669806 0.104636 0.222389 255 220 0
0.664378 0.007169 0.203805 255 220 0
0.624507 0.077557 0.252647 255 220 0
0.646625 0.015671 0.156391 255 220 0
0.606278 0.031010 0.176702 255 220 0
0.670906 0.037224 0.242567 255 220 0
0.596237 0.037186 0.222040 255 220 0
0.620799 -0.032735 0.180549 255 220 0
0.648647 0.027381 0.249789 255 220 0
0.682787 0.048075 0.229172 255 220 0
0.636603 0.063146 0.260396 255 220 0
0.645597 -0.016190 0.188480 255 220 0
0.648430 0.092646 0.196387 255 220 0
0.668936 0.027089 0.177177 255 220 0
0.657914 0.028593 0.246642 255 220 0
0.639106 0.105577 0.236767 255 220 0
0.607212 0.066895 0.213829 255 220 0
0.615040 0.083494 0.230712 255 220 0
0.658297 0.059406 0.259582 255 220 0
0.632443 -0.004529 0.226344 255 220 0
0.644925 0.107555 0.238526 255 220 0
0.614230 0.074301 0.206040 255 220 0
0.683812 0.088511 0.218238 255 220 0
0.605010 0.039512 0.240260 255 220 0
0.666923 0.107319 0.238869 255 220 0
0.652390 0.097382 0.257365 255 220 0
0.618320 -0.013504 0.216475 255 220 0
0.635263 0.011688 0.240938 255 220 0
0.612755 0.074956 0.209991 255 220 0
0.612973 -0.026388 0.197051 255 220 0
0.675226 0.069009 0.251088 255 220 0
0.638008 0.012816 0.241570 255 220 0
0.671394 0.087178 0.255249 255 220 0
0.604231 -0.015849 0.208584 255 220 0
0.654034 -0.006226 0.197833 255 220 0
0.638641 0.014582 0.152025 255 220 0
0.608334 -0.029865 0.139050 255 220 0
0.679730 0.093496 0.239839 255 220 0
0.632644 0.099194 0.215283 255 220 0
0.593275 -0.014180 0.163759 255 220 0
0.643091 -0.011768 0.209511 255 220 0
0.630516 0.050219 0.257671 255 220 0
0.617246 0.020525 0.244079 255 220 0
0.591874 0.016392 0.214206 255 220 0
0.649598 0.010507 0.235942 255 220 0
0.599390 -0.033701 0.159842 255 220 0
0.598748 0.012062 0.172210 255 220 0
0.606655 -0.034194 0.177673 255 220 0
0.603388 0.047381 0.195097 255 220 0
0.602489 0.057558 0.218226 255 220 0
0.614761 0.003870 0.232685 255 220 0
0.669607 0.100377 0.210668 255 220 0
0.685708 0.071054 0.230698 255 220 0
0.669089 0.053146 0.252695 255 220 0
0.618521 0.004119 0.233753 255 220 0
0.601007 0.052234 0.228244 255 220 0
0.674977 0.100051 0.217586 255 220 0
0.686653 0.063049 0.222938 255 220 0
0.626915 -0.016789 0.212198 255 220 0
0.658761 0.082499 0.261459 255 220 0
0.646115 0.081283 0.186172 255 220 0
0.612710 0.020688 0.161208 255 220 0
0.667092 0.107293 0.238506 255 220 0
0.646969 0.105967 0.246356 255 220 0
0.609925 0.074518 0.226112 255 220 0
0.596579 -0.020446 0.194834 255 220 0
0.657811 -0.000027 0.208305 255 220 0
0.621741 0.090950 0.217736 255 220 0
0.652397 0.098839 0.256377 255 220 0
0.647927 0.094117 0.198208 255 220 0
0.638290 0.042911 0.163575 255 220 0
0.591156 0.012776 0.194554 255 220 0
0.606756 -0.027747 0.192795 255 220 0
0.622464 0.065954 0.253771 255 220 0
0.678270 0.040820 0.188357 255 220 0
0.618709 0.074690 0.247972 255 220 0
0.627694 0.094041 0.212242 255 220 0
0.606167 0.035715 0.241210 255 220 0
0.608854 0.071523 0.229893 255 220 0
0.607663 0.056773 0.241629 255 220 0
0.626859 -0.029404 0.185392 255 220 0
0.597465 0.030713 0.230187 255 220 0
0.604167 0.045867 0.192206 255 220 0
0.677202 0.098505 0.238296 255 220 0
0.604154 0.055247 0.235863 255 220 0
0.654036 0.101025 0.254803 255 220 0
0.641218 0.042079 0.162714 255 220 0
0.686758 0.060167 0.218574 255 220 0
0.595617 0.036415 0.210301 255 220 0
0.637247 -0.006581 0.222532 255 220 0
0.660630 0.085251 0.188966 255 220 0
0.607907 -0.015974 0.210306 255 220 0
0.616878 0.029861 0.247708 255 220 0
0.608688 0.066549 0.237091 255 220 0
0.618311 0.083842 0.211710 255 220 0
0.646490 -0.013518 0.169076 255 220 0
0.597695 -0.031761 0.161779 255 220 0
0.622554 0.074520 0.251849 255 220 0
0.679950 0.064742 0.190144 255 220 0
0.635261 0.054856 0.259387 255 220 0
0.650868 0.031806 0.160654 255 220 0
0.682632 0.090382 0.216451 255 220 0
0.612810 0.001931 0.144588 255 220 0
0.615056 0.055637 0.186243 255 220 0
0.602131 0.004983 0.159827 255 220 0
0.594899 0.018888 0.225161 255 220 0
0.617267 0.059527 0.187109 255 220 0
0.659722 0.091275 0.194451 255 220 0
0.632135 -0.022998 0.145636 255 220 0
0.668243 0.060459 0.176813 255 220 0
0.631771 0.019280 0.246503 255 220 0
0.609517 0.069025 0.208986 255 220 0
0.677952 0.065316 0.187508 255 220 0
0.618491 0.074559 0.247778 255 220 0
0.673798 0.040830 0.179807 255 220 0
0.595614 0.021407 0.226943 255 220 0
0.637315 0.086315 0.194368 255 220 0
0.642487 -0.008793 0.153854 255 220 0
0.631458 0.095759 0.210359 255 220 0
0.598092 0.042160 0.204484 255 220 0
0.597658 0.019638 0.180710 255 220 0
0.602957 0.052910 0.234475 255 220 0
0.621155 0.065299 0.188011 255 220 0
0.602286 -0.035369 0.155537 255 220 0
0.614023 -0.032702 0.183559 255 220 0
0.611021 -0.037299 0.158207 255 220 0
0.675115 0.067407 0.185028 255 220 0
0.635690 -0.009191 0.219863 255 220 0
0.682974 0.041145 0.211244 255 220 0
0.599268 -0.005826 0.216589 255 220 0
0.656520 0.004057 0.171092 255 220 0
0.643809 0.067381 0.261971 255 220 0
0.655371 -0.004103 0.201922 255 220 0
0.642646 0.101274 0.210660 255 220 0
0.669354 0.088118 0.194913 255 220 0
0.666583 0.012390 0.190151 255 220 0
0.653986 -0.006749 0.192280 255 220 0
0.644370 0.042440 0.257269 255 220 0
0.619346 0.021223 0.245184 255 220 0
0.645675 -0.010191 0.161035 255 220 0
0.677238 0.055535 0.244219 255 220 0
0.606278 0.038812 0.241597 255 220 0
0.629350 -0.030390 0.154707 255 220 0
0.663893 0.085173 0.189741 255 220 0
0.611719 -0.026139 0.197190 255 220 0
0.611101 0.071169 0.208130 255 220 0
0.667706 0.095110 0.255312 255 220 0
0.635362 -0.000309 0.230053 255 220 0
0.662897 0.005201 0.196910 255 220 0
0.668204 0.093497 0.199878 255 220 0
0.599182 0.018050 0.231719 255 220 0
0.632016 0.060983 0.176933 255 220 0
0.675062 0.045976 0.181074 255 220 0
0.610779 0.045894 0.246681 255 220 0
0.598551 0.017799 0.177596 255 220 0
0.633473 0.027423 0.251263 255 220 0
0.616126 0.019121 0.157452 255 220 0
0.609099 -0.031982 0.141611 255 220 0
0.677932 0.036674 0.190459 255 220 0
0.656969 0.033343 0.250131 255 220 0
0.634144 -0.011323 0.217651 255 220 0
0.623884 0.091954 0.214844 255 220 0
0.661073 0.061778 0.259180 255 220 0
0.636516 0.009642 0.239100 255 220 0
0.602224 0.055502 0.212372 255 220 0
0.664519 0.107869 0.241049 255 220 0
0.600152 -0.001610 0.156709 255 220 0
0.613554 0.039075 0.174389 255 220 0
0.590817 0.003359 0.188794 255 220 0
0.631552 0.047005 0.168076 255 220 0
0.598202 -0.031414 0.156764 255 220 0
0.606887 -0.035582 0.171786 255 220 0
0.606243 0.038885 0.183147 255 220 0
0.669628 0.091718 0.255536 255 220 0
0.685071 0.049275 0.221241 255 220 0
0.596486 -0.029320 0.160567 255 220 0
0.686643 0.066382 0.211776 255 220 0
0.593431 -0.011208 0.164836 255 220 0
0.593441 0.004291 0.176955 255 220 0
0.654357 0.044015 0.256240 255 220 0
0.662914 0.017114 0.173365 255 220 0
0.648354 0.054971 0.260251 255 220 0
0.648250 0.102209 0.209799 255 220 0
0.597118 0.037982 0.226039 255 220 0
0.617261 -0.024194 0.201305 255 220 0
0.666809 0.099768 0.207554 255 220 0
0.627828 0.054090 0.257196 255 220 0
0.636138 0.031530 0.253300 255 220 0
0.599576 0.047146 0.207377 255 220 0
0.611116 0.062169 0.197405 255 220 0
0.677679 0.030786 0.220566 255 220 0
0.657178 0.016291 0.165828 255 220 0
0.656094 0.093578 0.196575 255 220 0
0.660177 0.109409 0.229378 255 220 0
0.600491 -0.003671 0.219793 255 220 0
0.593776 0.027177 0.218985 255 220 0
0.684834 0.086378 0.225577 255 220 0
0.648077 0.024550 0.158344 255 220 0
0.646923 0.058194 0.260916 255 220 0
0.632610 0.044108 0.165871 255 220 0
0.670219 0.026245 0.232844 255 220 0
0.638291 0.046862 0.165677 255 220 0
0.606511 -0.012924 0.135867 255 220 0
0.652414 0.066869 0.261868 255 220 0
0.645877 -0.004170 0.157104 255 220 0
0.646983 0.068904 0.176974 255 220 0
0.620456 -0.000404 0.230315 255 220 0
0.631280 0.094289 0.208311 255 220 0
0.679351 0.094071 0.240220 255 220 0
0.675503 0.073754 0.251482 255 220 0
0.620640 0.091779 0.229590 255 220 0
0.594275 0.029467 0.219659 255 220 0
0.613351 0.077095 0.212097 255 220 0
0.680129 0.077357 0.245492 255 220 0
0.643268 0.040294 0.161826 255 220 0
0.643070 -0.017048 0.164521 255 220 0
0.647681 0.090410 0.194157 255 220 0
0.682135 0.085493 0.239875 255 220 0
0.607147 0.041292 0.183886 255 220 0
0.667719 0.075986 0.184218 255 220 0
0.664299 0.086678 0.191211 255 220 0
0.595976 0.023056 0.227781 255 220 0
0.629206 0.056927 0.175688 255 220 0
0.686110 0.074925 0.227903 255 220 0
0.642145 -0.012392 0.155556 255 220 0
0.599878 -0.001144 0.157705 255 220 0
0.603013 0.052762 0.202816 255 220 0
0.644717 0.039435 0.161509 255 220 0
0.656156 0.045282 0.165663 255 220 0
0.660541 0.072455 0.260725 255 220 0
0.657846 0.000380 0.181249 255 220 0
0.626865 -0.027852 0.190120 255 220 0
0.605524 0.004356 0.154293 255 220 0
0.668723 0.016769 0.188749 255 220 0
0.613566 0.081286 0.225379 255 220 0
0.629217 -0.006326 0.224917 255 220 0
0.663740 0.074585 0.259689 255 220 0
0.605835 -0.024070 0.136179 255 220 0
0.590524 0.008356 0.197770 255 220 0
0.683129 0.044268 0.223580 255 220 0
0.632651 0.077357 0.188973 255 220 0
0.598580 -0.017014 0.202441 255 220 0
0.618834 0.088375 0.220644 255 220 0
0.624069 -0.025807 0.137248 255 220 0
0.674252 0.102653 0.231996 255 220 0
0.648982 0.086332 0.261618 255 220 0
0.656694 0.103244 0.252671 255 220 0
0.636567 0.094988 0.253561 255 220 0
0.625497 -0.016839 0.212377 255 220 0
0.598904 -0.020389 0.143518 255 220 0
0.685688 0.079756 0.228542 255 220 0
0.626528 0.084208 0.200879 255 220 0
0.664880 0.047506 0.253456 255 220 0
0.593899 0.029765 0.205729 255 220 0
0.684729 0.082995 0.231849 255 220 0
0.619025 0.089693 0.228341 255 220 0
0.669348 0.101554 0.212744 255 220 0
0.683076 0.046332 0.226528 255 220 0
0.643840 -0.017853 0.188293 255 220 0
0.645666 0.103320 0.212981 255 220 0
0.624992 -0.034069 0.162164 255 220 0
0.626088 0.081311 0.252778 255 220 0
0.607432 0.067518 0.214321 255 220 0
0.639650 0.104669 0.220836 255 220 0
0.672611 0.022665 0.221354 255 220 0
0.634067 -0.022593 0.149080 255 220 0
0.666510 0.068092 0.257776 255 220 0
0.671579 0.055636 0.178060 255 220 0
0.666448 0.099065 0.206227 255 220 0
0.634663 0.011091 0.240501 255 220 0
0.653411 -0.006615 0.181551 255 220 0
0.659524 0.002656 0.211186 255 220 0
0.684355 0.067293 0.235160 255 220 0
0.610065 -0.026125 0.196736 255 220 0
0.599979 -0.012002 0.210303 255 220 0
0.675441 0.028918 0.225181 255 220 0
0.681292 0.036975 0.216150 255 220 0
0.590935 -0.001595 0.185120 255 220 0
0.599661 0.048776 0.225985 255 220 0
0.651260 0.100830 0.254663 255 220 0
0.609888 -0.007802 0.137301 255 220 0
0.641774 0.012936 0.153017 255 220 0
0.645310 0.032865 0.159292 255 220 0
0.677393 0.047637 0.184627 255 220 0
0.627183 0.094278 0.244822 255 220 0
0.672442 0.058131 0.179510 255 220 0
0.642129 -0.019033 0.166363 255 220 0
0.595147 0.034427 0.217104 255 220 0
0.649989 0.013618 0.158883 255 220 0
0.593238 0.026254 0.215709 255 220 0
0.679261 0.064812 0.244692 255 220 0
0.680094 0.056620 0.240148 255 220 0
0.658130 0.073350 0.179685 255 220 0
0.621430 0.050998 0.176527 255 220 0
0.675088 0.070193 0.251456 255 220 0
0.622867 0.093214 0.220835 255 220 0
0.608109 0.058367 0.241611 255 220 0
0.643688 0.075348 0.182249 255 220 0
0.682270 0.082720 0.205299 255 220 0
0.614209 -0.036619 0.166082 255 220 0
0.591635 -0.009659 0.177076 255 220 0
0.640895 0.029503 0.157513 255 220 0
0.628069 0.077383 0.255452 255 220 0
0.595546 0.029856 0.225470 255 220 0
0.684438 0.050310 0.225994 255 220 0
0.660271 0.107370 0.220834 255 220 0
0.612760 -0.027080 0.195841 255 220 0
0.624229 0.077595 0.252401 255 220 0
0.605018 -0.023289 0.198875 255 220 0
0.610708 0.038424 0.176933 255 220 0
0.673379 0.028746 0.185231 255 220 0
0.661651 0.038330 0.250625 255 220 0
0.603798 -0.001206 0.150953 255 220 0
0.609953 0.011835 0.236566 255 220 0
0.610586 0.021499 0.241515 255 220 0
0.593834 -0.012958 0.161573 255 220 0
0.638410 -0.011247 0.148602 255 220 0
0.630993 -0.012249 0.217536 255 220 0
0.617170 0.059408 0.187114 255 220 0
0.613901 0.055931 0.187915 255 220 0
0.670119 0.053378 0.176187 255 220 0
0.638598 0.086186 0.193534 255 220 0
0.681406 0.039073 0.202413 255 220 0
0.615748 0.078960 0.241159 255 220 0
0.605000 -0.028095 0.191375 255 220 0
0.615432 0.007486 0.148008 255 220 0
0.623040 -0.034682 0.155838 255 220 0
0.615957 -0.001623 0.228395 255 220 0
0.593380 -0.019767 0.185737 255 220 0
0.598858 -0.015375 0.144621 255 220 0
0.665289 0.077271 0.259181 255 220 0
0.590539 0.000565 0.197425 255 220 0
0.598081 0.044966 0.217543 255 220 0
0.675057 0.041311 0.239963 255 220 0
0.680652 0.059469 0.190364 255 220 0
0.675119 0.059963 0.182747 255 220 0
0.645905 -0.014201 0.168449 255 220 0
0.683070 0.079458 0.239221 255 220 0
0.593210 0.022809 0.195403 255 220 0
0.617174 -0.024535 0.200727 255 220 0
0.668149 0.104014 0.246164 255 220 0
0.649714 0.081209 0.185379 255 220 0
0.631403 -0.014302 0.214543 255 220 0
0.629737 -0.013661 0.138505 255 220 0
0.623737 0.012689 0.148965 255 220 0
0.649615 -0.011714 0.191990 255 220 0
0.619431 -0.031906 0.184246 255 220 0
0.658429 0.108410 0.243785 255 220 0
0.615039 0.034192 0.247945 255 220 0
0.686916 0.067356 0.217672 255 220 0
0.619018 0.049872 0.177597 255 220 0
0.664234 0.046096 0.169994 255 220 0
0.643131 0.036420 0.160244 255 220 0
0.594758 -0.019467 0.154503 255 220 0
0.675767 0.043578 0.182420 255 220 0
0.651861 0.030317 0.160864 255 220 0
0.641085 -0.021298 0.180413 255 220 0
0.596166 0.035684 0.223715 255 220 0
0.645950 0.050907 0.259516 255 220 0
0.651248 -0.001203 0.218985 255 220 0
0.612408 0.065410 0.198884 255 220 0
0.618469 0.083277 0.210572 255 220 0
0.620010 0.081211 0.246395 255 220 0
0.672376 0.019895 0.213538 255 220 0
0.647232 0.072817 0.179568 255 220 0
0.630575 0.006538 0.236904 255 220 0
0.608996 0.063639 0.202459 255 220 0
0.653621 0.005242 0.164854 255 220 0
0.602197 -0.022573 0.138982 255 220 0
0.655269 0.001888 0.170448 255 220 0
0.604198 0.011043 0.162280 255 220 0
0.662301 0.004423 0.204230 255 220 0
0.650716 0.049654 0.258758 255 220 0
0.655350 0.003677 0.222159 255 220 0
0.626261 0.000542 0.231677 255 220 0
0.631885 -0.006103 0.224773 255 220 0
0.607066 0.068548 0.225253 255 220 0
0.608422 0.022059 0.166485 255 220 0
0.617296 -0.001265 0.228990 255 220 0
0.606495 0.026220 0.172444 255 220 0
0.638767 0.098441 0.251847 255 220 0
0.617817 0.041734 0.251299 255 220 0
0.678553 0.063676 0.187855 255 220 0
0.599320 0.047353 0.226318 255 220 0
0.677427 0.097537 0.216411 255 220 0
0.682263 0.050046 0.232125 255 220 0
0.629961 -0.029947 0.155027 255 220 0
0.671359 0.086624 0.194790 255 220 0
0.669011 0.016373 0.218467 255 220 0
0.645951 0.019668 0.156541 255 220 0
0.595291 -0.018122 0.152479 255 220 0
0.658436 0.036075 0.164919 255 220 0
0.639292 -0.018995 0.197562 255 220 0
0.674623 0.086113 0.197041 255 220 0
0.663082 0.012066 0.224403 255 220 0
0.676912 0.069740 0.187811 255 220 0
0.590687 -0.002088 0.188998 255 220 0
0.658104 0.108378 0.223414 255 220 0
0.597225 0.012643 0.175495 255 220 0
0.599083 0.044794 0.204671 255 220 0
0.597047 0.008885 0.172570 255 220 0
0.591619 0.003720 0.209915 255 220 0
0.637014 -0.020474 0.197389 255 220 0
0.659197 0.096660 0.200577 255 220 0
0.674553 0.024705 0.197767 255 220 0
0.606701 -0.014838 0.211198 255 220 0
0.649950 -0.005868 0.211671 255 220 0
0.671949 0.019091 0.212806 255 220 0
0.651392 0.097170 0.201335 255 220 0
0.632303 0.017817 0.245564 255 220 0
0.652917 -0.008086 0.189486 255 220 0
0.591983 0.021363 0.208157 255 220 0
0.598410 0.020077 0.231294 255 220 0
0.673036 0.020981 0.201438 255 220 0
0.614228 -0.004952 0.137792 255 220 0
0.684619 0.051414 0.203353 255 220 0
0.602434 0.057694 0.220948 255 220 0
0.672133 0.104399 0.233684 255 220 0
0.671756 0.019084 0.199130 255 220 0
0.599795 0.007428 0.227627 255 220 0
0.599803 -0.005370 0.153173 255 220 0
0.663796 0.053625 0.256174 255 220 0
0.657481 0.025811 0.244953 255 220 0
0.606980 0.067145 0.230223 255 220 0
0.617844 -0.036607 0.157541 255 220 0
0.686574 0.067485 0.224871 255 220 0
0.602739 0.057637 0.227577 255 220 0
0.627354 0.097596 0.238202 255 220 0
0.642331 -0.003589 0.152077 255 220 0
0.643989 0.107049 0.239641 255 220 0
0.628334 0.071843 0.256672 255 220 0
0.628119 -0.031502 0.174050 255 220 0
0.631676 0.030639 0.252528 255 220 0
0.685830 0.082157 0.222724 255 220 0
0.596928 0.029464 0.190755 255 220 0
0.677582 0.090139 0.247589 255 220 0
0.646023 0.018876 0.156453 255 220 0
0.590713 0.010510 0.205206 255 220 0
0.590821 0.012304 0.198557 255 220 0
0.639965 0.062048 0.174287 255 220 0
0.621287 0.009962 0.238717 255 220 0
0.622149 -0.006526 0.224728 255 220 0
0.682489 0.040520 0.207200 255 220 0
0.623672 0.056637 0.255446 255 220 0
0.593427 -0.022150 0.168868 255 220 0
0.670601 0.024894 0.182120 255 220 0
0.685594 0.069109 0.231105 255 220 0
0.614943 -0.004606 0.225433 255 220 0
0.685544 0.081396 0.228257 255 220 0
0.631550 0.076631 0.189079 255 220 0
0.681004 0.036331 0.216219 255 220 0
0.594597 -0.017191 0.195277 255 220 0
0.683349 0.083713 0.237085 255 220 0
0.664234 0.104824 0.216070 255 220 0
0.605631 0.017275 0.165848 255 220 0
0.620782 0.030347 0.162820 255 220 0
0.664469 0.007429 0.205994 255 220 0
0.598572 -0.032526 0.172129 255 220 0
0.686465 0.069329 0.211179 255 220 0
0.675638 0.095030 0.208441 255 220 0
0.614907 -0.035260 0.146451 255 220 0
0.622605 -0.027515 0.194070 255 220 0
0.680098 0.096151 0.229778 255 220 0
0.610346 -0.006453 0.222316 255 220 0
0.640621 -0.009802 0.151361 255 220 0
0.641375 0.022118 0.247997 255 220 0
0.626284 0.070552 0.255578 255 220 0
0.642255 0.058998 0.171710 255 220 0
0.676710 0.097656 0.242132 255 220 0
0.649713 0.020663 0.158859 255 220 0
0.616875 -0.035553 0.171538 255 220 0
0.619477 -0.023049 0.133395 255 220 0
0.627446 -0.032704 0.161588 255 220 0
0.652540 -0.008301 0.184448 255 220 0
0.631706 0.049541 0.169596 255 220 0
0.662520 0.014092 0.228581 255 220 0
0.627542 0.086332 0.202172 255 220 0
0.618021 0.050435 0.252302 255 220 0
0.652269 0.089522 0.192431 255 220 0
0.627749 -0.010504 0.137328 255 220 0
0.593824 0.006053 0.218237 255 220 0
0.599937 -0.001275 0.157458 255 220 0
0.669241 0.052243 0.175154 255 220 0
0.592219 0.020425 0.197885 255 220 0
0.625704 0.028574 0.159247 255 220 0
0.604767 0.062895 0.217934 255 220 0
0.681823 0.053777 0.192744 255 220 0
0.659631 0.018420 0.237141 255 220 0
0.670765 0.077480 0.186835 255 220 0
0.610831 0.001697 0.145841 255 220 0
0.653231 -0.002493 0.170586 255 220 0
0.660697 0.002079 0.200738 255 220 0
0.684835 0.057646 0.201360 255 220 0
0.618526 0.088913 0.230723 255 220 0
0.670294 0.027100 0.233778 255 220 0
0.662325 0.008926 0.219857 255 220 0
0.624399 0.054408 0.255802 255 220 0
0.676265 0.045497 0.240646 255 220 0
0.599610 0.032430 0.233625 255 220 0
0.620342 -0.015932 0.132774 255 220 0
0.617216 0.018062 0.155911 255 220 0
0.645364 -0.010567 0.208810 255 220 0
0.630509 -0.024507 0.144353 255 220 0
0.632393 0.084258 0.195578 255 220 0
0.658989 0.069123 0.260892 255 220 0
0.677326 0.098778 0.236706 255 220 0
0.664743 0.015089 0.226414 255 220 0
0.675525 0.096243 0.210203 255 220 0
0.622550 0.022762 0.246933 255 220 0
0.627411 0.075775 0.255349 255 220 0
0.680220 0.036608 0.200500 255 220 0
0.668399 0.036393 0.173382 255 220 0
0.592991 -0.015302 0.165359 255 220 0
0.676030 0.035081 0.232778 255 220 0
0.616006 0.075696 0.243954 255 220 0
0.624963 -0.026369 0.138529 255 220 0
0.655367 -0.004895 0.195847 255 220 0
0.615202 0.055509 0.185955 255 220 0
0.655770 0.074274 0.180052 255 220 0
0.685052 0.049632 0.208446 255 220 0
0.611447 -0.006161 0.137899 255 220 0
0.592881 -0.014909 0.192629 255 220 0
0.662991 0.013583 0.176252 255 220 0
0.634663 0.009181 0.238911 255 220 0
0.603876 -0.011502 0.213796 255 220 0
0.604972 -0.014007 0.136540 255 220 0
0.654088 0.012905 0.163064 255 220 0
0.607799 0.035433 0.242707 255 220 0
0.630953 0.078392 0.191059 255 220 0
0.627174 -0.032896 0.164426 255 220 0
0.635869 0.020465 0.153501 255 220 0
0.651778 0.100303 0.205761 255 220 0
0.656527 -0.002400 0.204261 255 220 0
0.640004 0.055426 0.260174 255 220 0
0.636153 0.096376 0.207060 255 220 0
0.658915 0.097956 0.256815 255 220 0
0.606037 0.053615 0.240276 255 220 0
0.624296 0.063297 0.183573 255 220 0
0.594574 0.032691 0.213994 255 220 0
0.685730 0.051596 0.212278 255 220 0
0.593958 0.001421 0.173188 255 220 0
0.681509 0.093758 0.220394 255 220 0
0.635379 0.100514 0.246068 255 220 0
0.594644 0.030758 0.200972 255 220 0
0.621810 0.078261 0.249894 255 220 0
0.599404 -0.006990 0.152031 255 220 0
0.673652 0.102699 0.237668 255 220 0
0.650724 0.071056 0.262413 255 220 0
0.652302 0.102791 0.209816 255 220 0
0.683657 0.043671 0.219050 255 220 0
0.662686 0.095424 0.257354 255 220 0
0.628146 0.099154 0.234015 255 220 0
0.591176 0.014811 0.197555 255 220 0
0.658670 0.065521 0.175078 255 220 0
0.602017 0.014842 0.169133 255 220 0
0.640301 0.093449 0.256648 255 220 0
0.654685 0.009106 0.230943 255 220 0
0.663012 0.086994 0.259824 255 220 0
0.632105 -0.013451 0.140901 255 220 0
0.670589 0.075167 0.185248 255 220 0
0.594628 0.023109 0.224513 255 220 0
0.682326 0.088413 0.237247 255 220 0
0.598852 0.047225 0.221570 255 220 0
0.665575 0.013291 0.221446 255 220 0
0.646127 0.108255 0.231137 255 220 0
0.590932 -0.005914 0.192589 255 220 0
0.677777 0.056993 0.244046 255 220 0
0.615839 0.001646 0.142650 255 220 0
0.650934 -0.003713 0.166261 255 220 0
0.631412 0.048652 0.257662 255 220 0
0.603777 -0.004552 0.146955 255 220 0
0.610652 0.068295 0.205066 255 220 0
0.634553 0.038171 0.161894 255 220 0
0.639935 0.097043 0.253876 255 220 0
0.613222 0.080001 0.220150 255 220 0
0.651746 -0.002493 0.166864 255 220 0
0.674326 0.093292 0.204502 255 220 0
0.643243 -0.006497 0.218792 255 220 0
0.636603 0.007823 0.237488 255 220 0
0.630157 0.028288 0.251272 255 220 0
0.682478 0.041062 0.205339 255 220 0
0.591975 0.020248 0.211740 255 220 0
0.680723 0.045978 0.232560 255 220 0
0.601874 0.014868 0.169389 255 220 0
0.645095 -0.015812 0.169730 255 220 0
0.613128 -0.020862 0.132441 255 220 0
0.631038 0.055783 0.173961 255 220 0
0.661704 0.043893 0.167946 255 220 0
0.597610 0.042404 0.209030 255 220 0
0.593559 0.028584 0.206214 255 220 0
0.628055 -0.021835 0.138578 255 220 0
0.653965 0.027417 0.247908 255 220 0
0.630134 0.073184 0.257520 255 220 0
0.591501 -0.010504 0.179171 255 220 0
0.625441 0.058167 0.178886 255 220 0
0.629549 0.016826 0.244716 255 220 0
0.603856 -0.036414 0.159966 255 220 0
0.605682 0.017218 0.165732 255 220 0
0.632971 0.102349 0.224527 255 220 0
0.632788 0.037028 0.161758 255 220 0
0.683003 0.045455 0.225735 255 220 0
0.627703 -0.029022 0.185506 255 220 0
0.628753 -0.028327 0.186281 255 220 0
0.671416 0.018034 0.201974 255 220 0
0.650572 0.081641 0.185615 255 220 0
0.629151 0.064059 0.180726 255 220 0
0.608702 0.053503 0.192465 255 220 0
0.604550 0.053029 0.237918 255 220 0
0.654949 0.062638 0.260916 255 220 0
0.628168 0.016094 0.244092 255 220 0
0.592839 0.025665 0.206260 255 220 0
0.628921 0.043548 0.167113 255 220 0
0.646701 0.017573 0.243533 255 220 0
0.591628 0.017817 0.210969 255 220 0
0.677302 0.042423 0.185491 255 220 0
0.671945 0.063115 0.253189 255 220 0
0.617466 0.071683 0.198598 255 220 0
0.615089 -0.019223 0.208349 255 220 0
0.627260 0.059857 0.257078 255 220 0
0.680139 0.075966 0.195373 255 220 0
0.649377 0.031305 0.251798 255 220 0
0.610402 -0.013576 0.214307 255 220 0
0.679432 0.076148 0.246576 255 220 0
0.644399 0.100121 0.253241 255 220 0
0.594843 -0.013360 0.201315 255 220 0
0.607961 0.004280 0.230724 255 220 0
0.631337 0.036026 0.161636 255 220 0
0.597470 0.023355 0.184153 255 220 0
0.625972 -0.032394 0.174718 255 220 0
0.592887 -0.019580 0.170471 255 220 0
0.664472 0.035668 0.247148 255 220 0
0.600423 -0.033791 0.172233 255 220 0
0.659898 0.104521 0.250521 255 220 0
0.607432 -0.011551 0.215577 255 220 0
0.652866 0.094427 0.259059 255 220 0
0.610420 0.070541 0.237284 255 220 0
0.653811 -0.004217 0.207502 255 220 0
0.648621 0.019146 0.244151 255 220 0
0.682325 0.082160 0.240627 255 220 0
0.638248 -0.022875 0.161667 255 220 0
0.605916 -0.027132 0.137924 255 220 0
0.681975 0.093466 0.223673 255 220 0
0.611126 -0.036626 0.166763 255 220 0
0.598192 0.042182 0.203943 255 220 0
0.637890 0.043332 0.257472 255 220 0
0.660725 0.012709 0.229138 255 220 0
0.606400 0.062255 0.207236 255 220 0
0.681351 0.070713 0.194454 255 220 0
0.662303 0.018998 0.171378 255 220 0
0.636485 -0.023198 0.189560 255 220 0
0.664868 0.013795 0.180668 255 220 0
0.603800 0.051868 0.236957 255 220 0
0.612052 0.074838 0.211735 255 220 0
0.641468 0.037378 0.255646 255 220 0
0.642689 0.003599 0.231747 255 220 0
0.611837 0.015982 0.158113 255 220 0
0.678166 0.097833 0.219796 255 220 0
0.674269 0.085188 0.195836 255 220 0
0.677725 0.082782 0.249022 255 220 0
0.636618 0.029288 0.157253 255 220 0
0.609277 0.056733 0.194685 255 220 0
0.611092 0.009271 0.235401 255 220 0
0.625187 0.090060 0.209637 255 220 0
0.609046 0.069125 0.235124 255 220 0
0.684291 0.046127 0.220493 255 220 0
0.673311 0.049000 0.246654 255 220 0
0.620014 0.024372 0.246922 255 220 0
0.642860 0.046462 0.164673 255 220 0
0.660013 0.055202 0.170534 255 220 0
0.674505 0.049233 0.180319 255 220 0
0.618184 0.058502 0.185248 255 220 0
0.606594 0.066358 0.215971 255 220 0
0.622197 0.058268 0.254573 255 220 0
0.644994 0.020953 0.246532 255 220 0
0.623724 0.080716 0.250821 255 220 0
0.616204 0.003517 0.144088 255 220 0
0.645390 0.102461 0.211422 255 220 0
0.619337 0.090095 0.229853 255 220 0
0.674019 0.036199 0.181523 255 220 0
0.614058 0.081877 0.230104 255 220 0
0.600286 0.047039 0.203374 255 220 0
0.625081 0.088977 0.208316 255 220 0
0.601259 -0.031409 0.147995 255 220 0
0.639167 -0.022001 0.162761 255 220 0
0.635046 0.005418 0.147141 255 220 0
0.606932 0.038671 0.242259 255 220 0
0.604010 0.059823 0.213036 255 220 0
0.610507 0.071603 0.236332 255 220 0
0.592707 0.025110 0.209179 255 220 0
0.610958 0.001741 0.145780 255 220 0
0.679209 0.072387 0.191853 255 220 0
0.658604 0.048774 0.167661 255 220 0
0.658250 0.094335 0.197600 255 220 0
0.642036 0.105870 0.241493 255 220 0
0.661913 0.108299 0.242329 255 220 0
0.598377 -0.032267 0.172570 255 220 0
0.602278 0.053851 0.231698 255 220 0
0.622129 0.055412 0.179251 255 220 0
0.629221 -0.031559 0.161714 255 220 0
0.605498 0.061791 0.209938 255 220 0
0.680971 0.086566 0.242387 255 220 0
0.623584 0.094685 0.223917 255 220 0
0.621182 0.000608 0.140643 255 220 0
0.611561 0.061422 0.245092 255 220 0
0.601215 0.041379 0.193299 255 220 0
0.650826 0.006356 0.230534 255 220 0
0.622041 -0.023299 0.202646 255 220 0
0.677852 0.069882 0.248037 255 220 0
0.640428 -0.022073 0.171853 255 220 0
0.671970 0.032838 0.179367 255 220 0
0.610730 -0.023208 0.201462 255 220 0
0.590690 -0.003079 0.189736 255 220 0
0.646777 0.035547 0.254384 255 220 0
0.595103 0.005371 0.173615 255 220 0
0.684992 0.067211 0.233104 255 220 0
0.674103 0.033803 0.182929 255 220 0
0.661628 0.004187 0.190083 255 220 0
0.629356 0.037477 0.254586 255 220 0
0.630790 0.099782 0.240349 255 220 0
0.630412 0.007642 0.146165 255 220 0
0.628198 -0.021908 0.138784 255 220 0
0.627764 -0.030472 0.150171 255 220 0
0.636774 0.103798 0.239874 255 220 0
0.625134 -0.029493 0.142717 255 220 0
0.676797 0.029403 0.221121 255 220 0
0.626795 0.036976 0.164000 255 220 0
0.607293 0.029580 0.174151 255 220 0
0.653207 0.076117 0.181252 255 220 0
0.678196 0.071734 0.247896 255 220 0
0.647451 0.001623 0.157431 255 220 0
0.669419 0.022052 0.228455 255 220 0
0.608114 0.065938 0.208000 255 220 0
0.677071 0.078589 0.193065 255 220 0
0.634366 0.067186 0.259855 255 220 0
0.639845 0.013310 0.241682 255 220 0
0.649756 -0.005955 0.165928 255 220 0
0.645256 0.104355 0.248293 255 220 0
0.629229 0.006546 0.236913 255 220 0
0.671495 0.081315 0.190173 255 220 0
0.602910 -0.032790 0.179725 255 220 0
0.658960 0.031469 0.247920 255 220 0
0.684513 0.052484 0.202014 255 220 0
0.620727 -0.016922 0.132806 255 220 0
0.604180 0.006183 0.157847 255 220 0
0.610585 0.042506 0.246209 255 220 0
0.598311 0.040661 0.228607 255 220 0
0.625671 0.059789 0.179905 255 220 0
0.660520 0.101111 0.254088 255 220 0
0.647303 0.005308 0.231479 255 220 0
0.635581 0.001470 0.146229 255 220 0
0.624332 0.024465 0.248268 255 220 0
0.653915 0.055338 0.169110 255 220 0
0.614921 0.083262 0.222763 255 220 0
0.649235 0.095679 0.257994 255 220 0
0.602882 -0.027956 0.190295 255 220 0
0.657674 -0.002013 0.195908 255 220 0
0.645062 0.107091 0.241140 255 220 0
0.612680 0.018461 0.159447 255 220 0
0.617175 0.086984 0.225696 255 220 0
0.649832 0.004694 0.229149 255 220 0
0.657680 0.095271 0.258504 255 220 0
0.609135 -0.035020 0.175333 255 220 0
0.673694 0.021592 0.209382 255 220 0
0.625241 0.050665 0.173719 255 220 0
0.676740 0.078158 0.250394 255 220 0
0.646638 -0.013999 0.195483 255 220 0
0.655556 0.014737 0.236649 255 220 0
0.612487 0.078525 0.231755 255 220 0
0.591230 -0.009092 0.182569 255 220 0
0.649385 0.006517 0.231679 255 220 0
0.686800 0.061378 0.215563 255 220 0
0.599263 -0.021792 0.143173 255 220 0
0.685698 0.055555 0.206802 255 220 0
0.677216 0.030496 0.221993 255 220 0
0.635030 0.007954 0.237815 255 220 0
0.609145 -0.030452 0.188524 255 220 0
0.684884 0.049496 0.207261 255 220 0
0.595039 0.003289 0.171993 255 220 0
0.664746 0.016292 0.177473 255 220 0
0.665851 0.103814 0.214766 255 220 0
0.608830 -0.022047 0.133831 255 220 0
0.620563 0.016368 0.242842 255 220 0
0.645444 -0.009420 0.211188 255 220 0
0.659008 0.100808 0.206446 255 220 0
0.615408 0.076378 0.242534 255 220 0
0.678410 0.091229 0.245532 255 220 0
0.591843 0.005932 0.183919 255 220 0
0.605843 0.001387 0.150867 255 220 0
0.625719 0.017062 0.151678 255 220 0
0.630511 0.020334 0.247070 255 220 0
0.631396 -0.007110 0.223751 255 220 0
0.638043 0.102636 0.216889 255 220 0
0.654022 0.101680 0.207692 255 220 0
0.590591 0.008556 0.203825 255 220 0
0.614195 0.058758 0.248672 255 220 0
0.644457 -0.009920 0.211511 255 220 0
0.670228 0.033426 0.176408 255 220 0
0.636266 0.075739 0.260141 255 220 0
0.684036 0.067047 0.236034 255 220 0
0.678604 0.096693 0.237506 255 220 0
0.592248 0.019544 0.215179 255 220 0
0.669552 0.062963 0.255116 255 220 0
0.593566 0.025709 0.219050 255 220 0
0.618323 0.035447 0.250138 255 220 0
0.665966 0.107122 0.225512 255 220 0
0.631884 -0.022987 0.197723 255 220 0
0.639603 0.007459 0.150441 255 220 0
0.607586 0.062543 0.204133 255 220 0
0.625192 0.001751 0.232693 255 220 0
0.660123 0.001239 0.197368 255 220 0
0.594509 0.025203 0.193096 255 220 0
0.631422 -0.029526 0.158944 255 220 0
0.634921 0.101917 0.218821 255 220 0
0.632515 0.022851 0.248739 255 220 0
0.641765 0.001980 0.151246 255 220 0
0.685790 0.080914 0.226685 255 220 0
0.623185 0.002753 0.233366 255 220 0
0.682307 0.062318 0.238572 255 220 0
0.666161 0.107765 0.229676 255 220 0
0.602069 -0.033220 0.149691 255 220 0
0.629888 0.093718 0.208966 255 220 0
0.641705 0.099568 0.252475 255 220 0
0.599603 0.039002 0.232561 255 220 0
0.641995 -0.020548 0.175824 255 220 0
0.620888 0.068685 0.252003 255 220 0
0.635457 -0.026482 0.176667 255 220 0
0.608168 0.013133 0.159199 255 220 0
0.613031 -0.009104 0.135172 255 220 0
0.594925 -0.026213 0.163218 255 220 0
0.598688 0.042345 0.201796 255 220 0
0.667899 0.021799 0.179057 255 220 0
0.590823 0.001079 0.202726 255 220 0
0.622065 0.027426 0.248955 255 220 0
0.640734 0.060901 0.173305 255 220 0
0.626111 -0.029381 0.144029 255 220 0
0.663455 0.048770 0.254738 255 220 0
0.620069 0.012959 0.240547 255 220 0
0.676406 0.045616 0.240489 255 220 0
