ply
format ascii 1.0
element vertex 1024
property float x
property float y
property float z
property uchar red
property uchar green
property uchar blue
end_header
0.387178 0.042228 0.045224 255 220 0
0.422295 0.114360 0.018640 255 220 0
0.436691 0.181416 0.074453 255 220 0
0.442212 0.141984 0.069622 255 220 0
0.427060 0.094800 0.044130 255 220 0
0.401187 0.133267 0.102990 255 220 0
0.419491 0.096306 0.022863 255 220 0
0.406770 0.181343 0.033894 255 220 0
0.366359 0.110518 0.091587 255 220 0
0.441515 0.148241 0.043283 255 220 0
0.404197 0.182648 0.035651 255 220 0
0.375589 0.174800 0.055291 255 220 0
0.389423 0.145444 0.022584 255 220 0
0.388159 0.066618 0.004833 255 220 0
0.431099 0.153489 0.026022 255 220 0
0.441596 0.140294 0.071163 255 220 0
0.443486 0.157561 0.062966 255 220 0
0.357328 0.119376 0.064493 255 220 0
0.386354 0.056431 0.003027 255 220 0
0.397993 0.121302 0.012431 255 220 0
0.411481 0.078397 0.021186 255 220 0
0.439013 0.168500 0.044561 255 220 0
0.406516 0.197481 0.083167 255 220 0
0.428949 0.187765 0.046321 255 220 0
0.377036 0.115286 0.097635 255 220 0
0.354349 0.091781 0.057232 255 220 0
0.438865 0.145767 0.036012 255 220 0
0.416661 0.168134 0.098194 255 220 0
0.391074 0.076556 0.007193 255 220 0
0.386106 0.121705 0.100926 255 220 0
0.355465 0.071446 0.043303 255 220 0
0.378919 0.096519 0.093627 255 220 0
0.442996 0.149605 0.068451 255 220 0
0.359550 0.061966 0.023297 255 220 0
0.432089 0.133506 0.025770 255 220 0
0.418566 0.077560 0.047964 255 220 0
0.364089 0.137279 0.048490 255 220 0
0.376374 0.051860 0.001119 255 220 0
0.366721 0.126192 0.038369 255 220 0
0.430641 0.193705 0.067256 255 220 0
0.422432 0.169093 0.027099 255 220 0
0.412755 0.067826 0.042434 255 220 0
0.426200 0.103011 0.028976 255 220 0
0.378875 0.181189 0.057637 255 220 0
0.373645 0.046427 0.057429 255 220 0
0.419926 0.084718 0.065471 255 220 0
0.376948 0.176895 0.055004 255 220 0
0.416243 0.183118 0.094106 255 220 0
0.403402 0.073493 0.075036 255 220 0
0.356840 0.090436 0.043586 255 220 0
0.431576 0.191568 0.060225 255 220 0
0.440736 0.145154 0.040732 255 220 0
0.384322 0.042703 0.048595 255 220 0
0.437513 0.160184 0.036693 255 220 0
0.398263 0.161941 0.024546 255 220 0
0.362687 0.112816 0.087747 255 220 0
0.365130 0.153668 0.066357 255 220 0
0.420358 0.157742 0.021171 255 220 0
0.400554 0.062864 0.013789 255 220 0
0.361037 0.079717 0.077052 255 220 0
0.413254 0.081970 0.021852 255 220 0
0.356899 0.091059 0.043671 255 220 0
0.355104 0.073414 0.051842 255 220 0
0.430579 0.177471 0.037505 255 220 0
0.365021 0.046224 0.053290 255 220 0
0.368991 0.099062 0.024803 255 220 0
0.378883 0.179929 0.055173 255 220 0
0.404847 0.061020 0.056039 255 220 0
0.426402 0.197414 0.070549 255 220 0
0.362097 0.136194 0.079908 255 220 0
0.429989 0.116444 0.027026 255 220 0
0.406648 0.102603 0.011811 255 220 0
0.368186 0.051363 0.061421 255 220 0
0.423074 0.094835 0.029819 255 220 0
0.363417 0.132028 0.046858 255 220 0
0.396120 0.092056 0.090753 255 220 0
0.427566 0.195755 0.062707 255 220 0
0.366358 0.116940 0.034983 255 220 0
0.403346 0.099876 0.092641 255 220 0
0.395804 0.048586 0.015972 255 220 0
0.358313 0.124899 0.065878 255 220 0
0.357927 0.049131 0.034940 255 220 0
0.426595 0.157857 0.023878 255 220 0
0.436775 0.116956 0.046699 255 220 0
0.364336 0.113694 0.037063 255 220 0
0.433478 0.125420 0.082397 255 220 0
0.369975 0.167148 0.069095 255 220 0
0.368842 0.123869 0.034055 255 220 0
0.388966 0.048416 0.055177 255 220 0
0.372661 0.169229 0.055343 255 220 0
0.416836 0.129859 0.014439 255 220 0
0.436535 0.185101 0.067554 255 220 0
0.374889 0.175294 0.076751 255 220 0
0.437436 0.128310 0.036582 255 220 0
0.438317 0.179020 0.053327 255 220 0
0.383516 0.186544 0.057406 255 220 0
0.383430 0.116735 0.099653 255 220 0
0.361261 0.135844 0.056912 255 220 0
0.431979 0.105264 0.045235 255 220 0
0.378970 0.038528 0.042906 255 220 0
0.397784 0.163369 0.100523 255 220 0
0.421268 0.133576 0.096645 255 220 0
0.400137 0.054063 0.019103 255 220 0
0.437656 0.161333 0.081475 255 220 0
0.401253 0.087375 0.086657 255 220 0
0.360348 0.135012 0.064106 255 220 0
0.382151 0.179282 0.085541 255 220 0
0.426071 0.110073 0.024231 255 220 0
0.423749 0.122307 0.091763 255 220 0
0.381236 0.128592 0.100054 255 220 0
0.425271 0.090262 0.047655 255 220 0
0.357918 0.116831 0.074569 255 220 0
0.360920 0.077412 0.028398 255 220 0
0.435611 0.120157 0.037111 255 220 0
0.383928 0.170793 0.092155 255 220 0
0.391606 0.146183 0.102346 255 220 0
0.422982 0.161877 0.023671 255 220 0
0.390356 0.045704 0.009247 255 220 0
0.416986 0.130877 0.014580 255 220 0
0.397577 0.191910 0.049191 255 220 0
0.426152 0.197639 0.069084 255 220 0
0.423202 0.101249 0.080015 255 220 0
0.409052 0.132198 0.013186 255 220 0
0.411881 0.196902 0.051338 255 220 0
0.361905 0.131484 0.081942 255 220 0
0.357322 0.114849 0.054054 255 220 0
0.401564 0.162294 0.023546 255 220 0
0.366603 0.036435 0.036680 255 220 0
0.388907 0.045040 0.049315 255 220 0
0.408044 0.118653 0.098922 255 220 0
0.436670 0.147204 0.083899 255 220 0
0.437763 0.129217 0.076644 255 220 0
0.360719 0.052961 0.014150 255 220 0
0.398344 0.060232 0.064109 255 220 0
0.360924 0.137376 0.070609 255 220 0
0.390902 0.057129 0.005658 255 220 0
0.432885 0.190964 0.065419 255 220 0
0.395103 0.072794 0.078923 255 220 0
0.385839 0.049725 0.003304 255 220 0
0.384279 0.105031 0.014400 255 220 0
0.381085 0.116714 0.099074 255 220 0
0.402658 0.074164 0.076231 255 220 0
0.381973 0.095924 0.013332 255 220 0
0.427186 0.190212 0.083849 255 220 0
0.440500 0.169379 0.050105 255 220 0
0.367659 0.127164 0.037309 255 220 0
0.381325 0.092511 0.092196 255 220 0
0.357533 0.054806 0.025933 255 220 0
0.398437 0.063462 0.011251 255 220 0
0.389841 0.119537 0.101130 255 220 0
0.375306 0.132439 0.029508 255 220 0
0.361355 0.138851 0.072214 255 220 0
0.405984 0.057562 0.034240 255 220 0
0.388398 0.039335 0.035631 255 220 0
0.355757 0.108975 0.059557 255 220 0
0.370520 0.168080 0.071232 255 220 0
0.366164 0.122545 0.037645 255 220 0
0.370454 0.085003 0.017737 255 220 0
0.431416 0.191809 0.074557 255 220 0
0.422921 0.086103 0.044670 255 220 0
0.358529 0.087488 0.038272 255 220 0
0.441164 0.148528 0.042175 255 220 0
0.395168 0.168098 0.098782 255 220 0
0.376348 0.096535 0.017090 255 220 0
0.433579 0.161232 0.031182 255 220 0
0.382584 0.063563 0.073789 255 220 0
0.378583 0.123562 0.023423 255 220 0
0.364466 0.135000 0.046410 255 220 0
0.383453 0.171569 0.091431 255 220 0
0.442235 0.160553 0.050995 255 220 0
0.401314 0.111031 0.098051 255 220 0
0.401571 0.119028 0.100572 255 220 0
0.383989 0.188891 0.071337 255 220 0
0.417352 0.198583 0.080577 255 220 0
0.370114 0.167262 0.063714 255 220 0
0.406279 0.195643 0.085630 255 220 0
0.424435 0.090790 0.039952 255 220 0
0.357010 0.107639 0.050304 255 220 0
0.403669 0.078555 0.079359 255 220 0
0.431701 0.129654 0.025691 255 220 0
0.371308 0.156696 0.086191 255 220 0
0.391660 0.100806 0.095408 255 220 0
0.410915 0.065103 0.038316 255 220 0
0.383799 0.170048 0.092389 255 220 0
0.357164 0.067006 0.058207 255 220 0
0.416666 0.100155 0.018269 255 220 0
0.420336 0.194214 0.049327 255 220 0
0.428103 0.095380 0.056117 255 220 0
0.384297 0.170838 0.092404 255 220 0
0.403151 0.088863 0.011727 255 220 0
0.363899 0.104051 0.034181 255 220 0
0.434796 0.135161 0.084772 255 220 0
0.359045 0.120723 0.077690 255 220 0
0.388762 0.045810 0.050881 255 220 0
0.415532 0.124970 0.097792 255 220 0
0.442934 0.143438 0.067348 255 220 0
0.399446 0.160548 0.101275 255 220 0
0.411433 0.066720 0.050288 255 220 0
0.397914 0.173304 0.030973 255 220 0
0.425894 0.107961 0.025077 255 220 0
0.423993 0.126414 0.092937 255 220 0
0.392035 0.195218 0.067986 255 220 0
0.363975 0.148307 0.060798 255 220 0
0.371208 0.169591 0.071592 255 220 0
0.421161 0.159363 0.097765 255 220 0
0.401678 0.086294 0.085846 255 220 0
0.397644 0.198275 0.068211 255 220 0
0.368639 0.154182 0.050382 255 220 0
0.436063 0.179371 0.046922 255 220 0
0.369651 0.128814 0.093064 255 220 0
0.419252 0.200786 0.064907 255 220 0
0.409043 0.194411 0.087428 255 220 0
0.387993 0.073400 0.080961 255 220 0
0.403772 0.106005 0.095386 255 220 0
0.367611 0.155674 0.054246 255 220 0
0.382261 0.055299 0.066422 255 220 0
0.435080 0.168348 0.084481 255 220 0
0.406361 0.107581 0.095255 255 220 0
0.428984 0.186373 0.084693 255 220 0
0.373543 0.067378 0.076353 255 220 0
0.419330 0.079740 0.055393 255 220 0
0.394939 0.085707 0.009158 255 220 0
0.370658 0.036101 0.012622 255 220 0
0.434112 0.189354 0.067038 255 220 0
0.383907 0.182660 0.050089 255 220 0
0.356671 0.055823 0.034954 255 220 0
0.411039 0.076203 0.069731 255 220 0
0.395190 0.146725 0.102827 255 220 0
0.385148 0.113124 0.099266 255 220 0
0.357058 0.098230 0.075978 255 220 0
0.417330 0.105281 0.088494 255 220 0
0.365248 0.036844 0.034919 255 220 0
0.358958 0.083826 0.035747 255 220 0
0.374777 0.041953 0.050859 255 220 0
0.360880 0.124227 0.048272 255 220 0
0.361417 0.139964 0.068056 255 220 0
0.383872 0.093879 0.092835 255 220 0
0.419280 0.187020 0.039193 255 220 0
0.442333 0.166183 0.062743 255 220 0
0.431813 0.152853 0.090893 255 220 0
0.387652 0.094850 0.093163 255 220 0
0.362130 0.137335 0.079169 255 220 0
0.425495 0.189181 0.044982 255 220 0
0.443514 0.156588 0.057111 255 220 0
0.396363 0.070161 0.076230 255 220 0
0.418185 0.182015 0.093881 255 220 0
0.396116 0.159455 0.024356 255 220 0
0.369801 0.090856 0.020801 255 220 0
0.419374 0.200685 0.064538 255 220 0
0.400927 0.199068 0.075736 255 220 0
0.367028 0.159171 0.070231 255 220 0
0.364982 0.058428 0.065613 255 220 0
0.423414 0.088891 0.063263 255 220 0
0.374874 0.174106 0.056261 255 220 0
0.408688 0.195545 0.086129 255 220 0
0.397427 0.175131 0.032441 255 220 0
0.391602 0.115825 0.013382 255 220 0
0.354350 0.089495 0.058198 255 220 0
0.375835 0.052127 0.063728 255 220 0
0.384293 0.159785 0.096635 255 220 0
0.434308 0.125176 0.030864 255 220 0
0.378466 0.166163 0.089604 255 220 0
0.379485 0.176330 0.049263 255 220 0
0.371512 0.125570 0.094699 255 220 0
0.366954 0.157174 0.074750 255 220 0
0.369678 0.146014 0.089742 255 220 0
0.394797 0.051006 0.053685 255 220 0
0.362347 0.116827 0.086838 255 220 0
0.361504 0.122108 0.045747 255 220 0
0.430637 0.193436 0.064773 255 220 0
0.365730 0.142609 0.085190 255 220 0
0.409737 0.197419 0.083820 255 220 0
0.394486 0.115154 0.012270 255 220 0
0.443502 0.152690 0.053622 255 220 0
0.357019 0.116812 0.066763 255 220 0
0.406205 0.083901 0.081896 255 220 0
0.410054 0.165735 0.023630 255 220 0
0.377386 0.068155 0.077413 255 220 0
0.383779 0.122972 0.100531 255 220 0
0.368529 0.154294 0.082863 255 220 0
0.371858 0.165300 0.052802 255 220 0
0.409333 0.064262 0.030949 255 220 0
0.363535 0.039008 0.036584 255 220 0
0.382765 0.167487 0.092705 255 220 0
0.432378 0.148744 0.026488 255 220 0
0.399320 0.152187 0.102546 255 220 0
0.405294 0.105940 0.011175 255 220 0
0.434375 0.180549 0.044959 255 220 0
0.370702 0.068530 0.009451 255 220 0
0.369819 0.131193 0.035854 255 220 0
0.361769 0.074190 0.025064 255 220 0
0.361059 0.103875 0.085334 255 220 0
0.371477 0.135411 0.035367 255 220 0
0.408927 0.172839 0.027562 255 220 0
0.393718 0.047275 0.013257 255 220 0
0.419854 0.139717 0.016753 255 220 0
0.399877 0.114320 0.099448 255 220 0
0.365254 0.149344 0.055267 255 220 0
0.429986 0.148357 0.024165 255 220 0
0.378249 0.165961 0.089487 255 220 0
0.428809 0.122391 0.023442 255 220 0
0.361591 0.106842 0.086306 255 220 0
0.387781 0.165375 0.032444 255 220 0
0.402664 0.064283 0.015929 255 220 0
0.382647 0.177930 0.046415 255 220 0
0.357762 0.121071 0.059397 255 220 0
0.357801 0.093189 0.042215 255 220 0
0.364749 0.139862 0.084632 255 220 0
0.374481 0.141640 0.034177 255 220 0
0.367782 0.034458 0.030724 255 220 0
0.382521 0.045821 0.054886 255 220 0
0.376986 0.034368 0.032279 255 220 0
0.426551 0.149362 0.021765 255 220 0
0.404746 0.080512 0.080240 255 220 0
0.441866 0.132096 0.051866 255 220 0
0.368143 0.078486 0.082404 255 220 0
0.416613 0.082820 0.026931 255 220 0
0.406029 0.165884 0.100544 255 220 0
0.420837 0.083012 0.058562 255 220 0
0.392756 0.184633 0.043489 255 220 0
0.418915 0.171098 0.027153 255 220 0
0.427636 0.097037 0.041433 255 220 0
0.418637 0.077767 0.050222 255 220 0
0.409931 0.140841 0.102005 255 220 0
0.387237 0.114336 0.099800 255 220 0
0.406949 0.065226 0.022595 255 220 0
0.438293 0.153882 0.080847 255 220 0
0.371179 0.128649 0.094299 255 220 0
0.393361 0.042260 0.024185 255 220 0
0.413361 0.166257 0.023842 255 220 0
0.381013 0.055423 0.066705 255 220 0
0.366351 0.151361 0.053664 255 220 0
0.424122 0.193537 0.083447 255 220 0
0.404350 0.091663 0.087877 255 220 0
0.426062 0.091498 0.050254 255 220 0
0.417585 0.177419 0.030786 255 220 0
0.366244 0.105320 0.091085 255 220 0
0.384340 0.135892 0.022816 255 220 0
0.429393 0.127802 0.023193 255 220 0
0.375123 0.137311 0.096685 255 220 0
0.358559 0.090714 0.039536 255 220 0
0.400871 0.123574 0.101735 255 220 0
0.372900 0.088776 0.017018 255 220 0
0.372080 0.034843 0.015454 255 220 0
0.434914 0.121723 0.033935 255 220 0
0.422770 0.131767 0.095278 255 220 0
0.403282 0.077702 0.078902 255 220 0
0.376431 0.174561 0.052895 255 220 0
0.423446 0.161861 0.096340 255 220 0
0.405083 0.103713 0.093916 255 220 0
0.360717 0.136419 0.063006 255 220 0
0.417099 0.201598 0.067260 255 220 0
0.360473 0.066818 0.024016 255 220 0
0.369430 0.112034 0.028795 255 220 0
0.354761 0.078921 0.055035 255 220 0
0.384948 0.120122 0.017820 255 220 0
0.363318 0.038076 0.031623 255 220 0
0.374452 0.039098 0.045531 255 220 0
0.363457 0.113284 0.038436 255 220 0
0.426571 0.190581 0.084162 255 220 0
0.443935 0.142767 0.059095 255 220 0
0.361804 0.040878 0.035037 255 220 0
0.441507 0.156828 0.045638 255 220 0
0.356492 0.058971 0.035236 255 220 0
0.355625 0.077004 0.043056 255 220 0
0.419317 0.143278 0.098965 255 220 0
0.421089 0.096684 0.024863 255 220 0
0.412225 0.154100 0.101147 255 220 0
0.397977 0.185975 0.041500 255 220 0
0.360305 0.122646 0.081170 255 220 0
0.386666 0.059037 0.069236 255 220 0
0.416230 0.185279 0.036834 255 220 0
0.391881 0.149981 0.101885 255 220 0
0.403093 0.128363 0.102240 255 220 0
0.358800 0.126785 0.060703 255 220 0
0.366390 0.139918 0.045596 255 220 0
0.439558 0.124007 0.064174 255 220 0
0.414618 0.093217 0.018823 255 220 0
0.405290 0.175167 0.029641 255 220 0
0.411072 0.199468 0.056462 255 220 0
0.369417 0.081541 0.084737 255 220 0
0.357829 0.110042 0.077610 255 220 0
0.438366 0.179391 0.054280 255 220 0
0.403414 0.098051 0.011195 255 220 0
0.410399 0.157188 0.101242 255 220 0
0.386156 0.116894 0.016239 255 220 0
0.434595 0.122005 0.078259 255 220 0
0.391250 0.120162 0.014433 255 220 0
0.365759 0.051254 0.005777 255 220 0
0.414517 0.166402 0.099126 255 220 0
0.405673 0.069973 0.017344 255 220 0
0.397729 0.145283 0.018424 255 220 0
0.389814 0.089848 0.090651 255 220 0
0.382438 0.175961 0.044845 255 220 0
0.433699 0.189959 0.067326 255 220 0
0.434648 0.173026 0.083659 255 220 0
0.375221 0.177897 0.067572 255 220 0
0.358041 0.112471 0.077615 255 220 0
0.368130 0.158350 0.055640 255 220 0
0.437814 0.175449 0.076286 255 220 0
0.396660 0.113458 0.011511 255 220 0
0.405950 0.059270 0.028026 255 220 0
0.397244 0.170485 0.029510 255 220 0
0.437744 0.181994 0.068610 255 220 0
0.364055 0.115891 0.038406 255 220 0
0.417842 0.156468 0.020151 255 220 0
0.413712 0.168135 0.024813 255 220 0
0.361793 0.108685 0.086646 255 220 0
0.382073 0.131344 0.023082 255 220 0
0.441744 0.169198 0.059066 255 220 0
0.403127 0.061248 0.018486 255 220 0
0.360261 0.067495 0.024900 255 220 0
0.360670 0.131369 0.054407 255 220 0
0.398172 0.112727 0.011174 255 220 0
0.408980 0.120795 0.011806 255 220 0
0.421429 0.172423 0.095316 255 220 0
0.419831 0.082142 0.037306 255 220 0
0.395176 0.053739 0.057825 255 220 0
0.364462 0.072536 0.019359 255 220 0
0.428848 0.101114 0.038674 255 220 0
0.369417 0.165892 0.067278 255 220 0
0.398621 0.083809 0.085459 255 220 0
0.424084 0.174573 0.093273 255 220 0
0.366913 0.040588 0.008892 255 220 0
0.354857 0.086038 0.062449 255 220 0
0.443140 0.138359 0.062870 255 220 0
0.383935 0.154816 0.030244 255 220 0
0.367393 0.063961 0.071713 255 220 0
0.372821 0.172060 0.060152 255 220 0
0.385172 0.041402 0.007277 255 220 0
0.426263 0.195388 0.058242 255 220 0
0.408026 0.184549 0.094743 255 220 0
0.411704 0.199299 0.080799 255 220 0
0.393442 0.189212 0.087027 255 220 0
0.395008 0.069990 0.076651 255 220 0
0.360509 0.045215 0.016174 255 220 0
0.440646 0.173939 0.058576 255 220 0
0.378417 0.163780 0.040986 255 220 0
0.428693 0.147150 0.093693 255 220 0
0.355796 0.109034 0.064295 255 220 0
0.439625 0.177797 0.061112 255 220 0
0.373809 0.175377 0.067155 255 220 0
0.419112 0.188663 0.040934 255 220 0
0.443147 0.141106 0.065195 255 220 0
0.409954 0.064868 0.050807 255 220 0
0.395689 0.187567 0.044705 255 220 0
0.390662 0.040184 0.032934 255 220 0
0.385264 0.174655 0.091353 255 220 0
0.364155 0.149059 0.061080 255 220 0
0.390620 0.190208 0.052892 255 220 0
0.435996 0.115833 0.067747 255 220 0
0.395996 0.048803 0.016126 255 220 0
0.427577 0.168187 0.092556 255 220 0
0.424051 0.135832 0.018555 255 220 0
0.415815 0.184212 0.035797 255 220 0
0.403223 0.105246 0.095213 255 220 0
0.416644 0.074994 0.040035 255 220 0
0.425041 0.092426 0.065078 255 220 0
0.442195 0.163599 0.068146 255 220 0
0.379332 0.055118 0.066546 255 220 0
0.368996 0.071001 0.077775 255 220 0
0.438272 0.123168 0.069412 255 220 0
0.441528 0.129198 0.057847 255 220 0
0.355183 0.073224 0.052705 255 220 0
0.361068 0.133268 0.078075 255 220 0
0.407034 0.196861 0.084200 255 220 0
0.368435 0.056941 0.005339 255 220 0
0.398397 0.084772 0.009979 255 220 0
0.399508 0.105925 0.010549 255 220 0
0.431876 0.130610 0.025794 255 220 0
0.383226 0.185096 0.080423 255 220 0
0.424688 0.138706 0.019190 255 220 0
0.405588 0.057743 0.030425 255 220 0
0.357769 0.116649 0.073825 255 220 0
0.407097 0.087961 0.014041 255 220 0
0.357019 0.108229 0.074794 255 220 0
0.438857 0.163128 0.078710 255 220 0
0.440380 0.154189 0.076215 255 220 0
0.408284 0.151595 0.018067 255 220 0
0.375518 0.124956 0.026625 255 220 0
0.434805 0.169561 0.084569 255 220 0
0.376022 0.177227 0.058484 255 220 0
0.369859 0.147588 0.089263 255 220 0
0.394171 0.152447 0.022454 255 220 0
0.433776 0.170228 0.036221 255 220 0
0.381032 0.037480 0.039104 255 220 0
0.356095 0.063469 0.046857 255 220 0
0.395490 0.101707 0.010405 255 220 0
0.388179 0.171841 0.094529 255 220 0
0.359986 0.114530 0.082861 255 220 0
0.443776 0.144936 0.063492 255 220 0
0.410367 0.195273 0.048777 255 220 0
0.382003 0.054292 0.065470 255 220 0
0.383988 0.170776 0.092206 255 220 0
0.374223 0.057790 0.068747 255 220 0
0.367083 0.111740 0.031861 255 220 0
0.431036 0.112208 0.031626 255 220 0
0.426622 0.137233 0.093755 255 220 0
0.363219 0.066125 0.017806 255 220 0
0.378410 0.101946 0.095417 255 220 0
0.378140 0.112578 0.097696 255 220 0
0.356736 0.056483 0.032475 255 220 0
0.398376 0.060059 0.012189 255 220 0
0.400332 0.076406 0.079545 255 220 0
0.371402 0.135287 0.035417 255 220 0
0.368862 0.131778 0.037573 255 220 0
0.422736 0.133001 0.017557 255 220 0
0.388947 0.165186 0.031463 255 220 0
0.439501 0.127593 0.044193 255 220 0
0.373995 0.168094 0.082555 255 220 0
0.373986 0.051207 0.062750 255 220 0
0.372833 0.075065 0.010933 255 220 0
0.388019 0.037693 0.027365 255 220 0
0.385354 0.087633 0.089866 255 220 0
0.360549 0.056291 0.057292 255 220 0
0.359810 0.050299 0.016020 255 220 0
0.425105 0.177196 0.091877 255 220 0
0.356068 0.078493 0.064006 255 220 0
0.359020 0.127203 0.071196 255 220 0
0.437864 0.138883 0.080595 255 220 0
0.433934 0.143840 0.027860 255 220 0
0.427441 0.141636 0.021390 255 220 0
0.408787 0.063372 0.030614 255 220 0
0.439534 0.176158 0.069292 255 220 0
0.354874 0.099568 0.056231 255 220 0
0.386559 0.058548 0.068781 255 220 0
0.421936 0.199696 0.072473 255 220 0
0.399545 0.159607 0.023013 255 220 0
0.400667 0.073700 0.077115 255 220 0
0.388949 0.054039 0.004581 255 220 0
0.380256 0.081296 0.009192 255 220 0
0.415113 0.072413 0.051882 255 220 0
0.387776 0.047414 0.054442 255 220 0
0.411413 0.202106 0.070764 255 220 0
0.381320 0.126959 0.100015 255 220 0
0.442393 0.159351 0.050990 255 220 0
0.373478 0.123870 0.028325 255 220 0
0.417324 0.123690 0.014392 255 220 0
0.396935 0.109316 0.010962 255 220 0
0.357748 0.048499 0.027143 255 220 0
0.430641 0.125948 0.024943 255 220 0
0.406530 0.104690 0.011570 255 220 0
0.406772 0.059159 0.044575 255 220 0
0.359434 0.119719 0.079667 255 220 0
0.410424 0.149728 0.101834 255 220 0
0.418582 0.089796 0.074854 255 220 0
0.367332 0.143565 0.046006 255 220 0
0.371953 0.164478 0.051825 255 220 0
0.378495 0.172143 0.086298 255 220 0
0.435181 0.111090 0.060989 255 220 0
0.397691 0.149743 0.019912 255 220 0
0.399475 0.099448 0.093566 255 220 0
0.364746 0.142403 0.050424 255 220 0
0.412769 0.081959 0.021168 255 220 0
0.363483 0.042324 0.011817 255 220 0
0.415650 0.080423 0.027051 255 220 0
0.363148 0.080885 0.025591 255 220 0
0.426564 0.092614 0.057536 255 220 0
0.415188 0.148902 0.100614 255 220 0
0.422235 0.095797 0.076015 255 220 0
0.395522 0.091811 0.090749 255 220 0
0.401176 0.084305 0.084821 255 220 0
0.365069 0.152887 0.071338 255 220 0
0.366080 0.093046 0.026230 255 220 0
0.386685 0.088294 0.090123 255 220 0
0.364314 0.098369 0.031238 255 220 0
0.394820 0.192329 0.084183 255 220 0
0.383279 0.135396 0.100925 255 220 0
0.430880 0.146951 0.024794 255 220 0
0.361004 0.131953 0.078795 255 220 0
0.428138 0.186759 0.044057 255 220 0
0.442495 0.146041 0.069779 255 220 0
0.393930 0.042842 0.024281 255 220 0
0.421099 0.169878 0.027062 255 220 0
0.433096 0.108616 0.067118 255 220 0
0.401875 0.092647 0.011013 255 220 0
0.357790 0.049315 0.024794 255 220 0
0.412580 0.112062 0.012946 255 220 0
0.406903 0.065675 0.060704 255 220 0
0.424669 0.170375 0.028790 255 220 0
0.428760 0.105348 0.074829 255 220 0
0.428304 0.152545 0.023557 255 220 0
0.355528 0.073747 0.056572 255 220 0
0.408424 0.196658 0.051361 255 220 0
0.357806 0.085067 0.039001 255 220 0
0.358337 0.123761 0.058771 255 220 0
0.357846 0.080677 0.037147 255 220 0
0.358262 0.084939 0.074995 255 220 0
0.404887 0.063940 0.061280 255 220 0
0.408360 0.179547 0.032198 255 220 0
0.434474 0.111791 0.044387 255 220 0
0.376143 0.069333 0.078192 255 220 0
0.417094 0.083245 0.069214 255 220 0
0.434795 0.110076 0.060556 255 220 0
0.400741 0.179296 0.034107 255 220 0
0.400507 0.112735 0.098816 255 220 0
0.417437 0.075622 0.048056 255 220 0
0.355578 0.101404 0.068975 255 220 0
0.365110 0.107054 0.090317 255 220 0
0.434064 0.109015 0.049053 255 220 0
0.372293 0.060320 0.004389 255 220 0
0.440804 0.140038 0.041560 255 220 0
0.361700 0.140806 0.070633 255 220 0
0.424134 0.197249 0.059786 255 220 0
0.432811 0.106435 0.047522 255 220 0
0.367998 0.094147 0.089648 255 220 0
0.360266 0.062245 0.021607 255 220 0
0.427014 0.153593 0.094988 255 220 0
0.423791 0.123253 0.092071 255 220 0
0.365860 0.152846 0.076442 255 220 0
0.383465 0.035675 0.030331 255 220 0
0.442984 0.161333 0.057896 255 220 0
0.362877 0.142539 0.076930 255 220 0
0.381996 0.186545 0.073264 255 220 0
0.401450 0.068776 0.012995 255 220 0
0.396956 0.197973 0.069556 255 220 0
0.389480 0.166893 0.096994 255 220 0
0.394875 0.046154 0.043144 255 220 0
0.398767 0.126769 0.102466 255 220 0
0.439638 0.174718 0.052410 255 220 0
0.356842 0.105157 0.049553 255 220 0
0.433562 0.187929 0.075618 255 220 0
0.402060 0.091874 0.011109 255 220 0
0.355676 0.090085 0.069000 255 220 0
0.354623 0.090059 0.062193 255 220 0
0.391601 0.137169 0.018696 255 220 0
0.390080 0.102086 0.096027 255 220 0
0.391712 0.082718 0.086513 255 220 0
0.440959 0.130371 0.048234 255 220 0
0.387179 0.151456 0.100292 255 220 0
0.358760 0.049563 0.041743 255 220 0
0.428521 0.107366 0.030053 255 220 0
0.442585 0.164415 0.063623 255 220 0
0.384448 0.083874 0.087930 255 220 0
0.440206 0.175416 0.057930 255 220 0
0.382988 0.154018 0.030705 255 220 0
0.441358 0.128565 0.058118 255 220 0
0.362583 0.061422 0.065579 255 220 0
0.438849 0.179700 0.066172 255 220 0
0.414024 0.192055 0.044178 255 220 0
0.364027 0.087963 0.027249 255 220 0
0.376372 0.101496 0.018645 255 220 0
0.428438 0.096218 0.058130 255 220 0
0.365874 0.041113 0.046512 255 220 0
0.440785 0.159470 0.044384 255 220 0
0.425740 0.182041 0.037350 255 220 0
0.378920 0.033683 0.019899 255 220 0
0.391473 0.054592 0.062232 255 220 0
0.432728 0.189283 0.056718 255 220 0
0.379834 0.080731 0.086170 255 220 0
0.400672 0.062435 0.014104 255 220 0
0.409019 0.118585 0.098576 255 220 0
0.387536 0.165122 0.096605 255 220 0
0.393989 0.133845 0.016590 255 220 0
0.430795 0.193577 0.068727 255 220 0
0.405702 0.094664 0.012356 255 220 0
0.384188 0.040263 0.043612 255 220 0
0.379733 0.042471 0.003696 255 220 0
0.392770 0.041634 0.031640 255 220 0
0.416441 0.074041 0.043357 255 220 0
0.384895 0.122968 0.018632 255 220 0
0.428436 0.108322 0.078424 255 220 0
0.379241 0.166275 0.041536 255 220 0
0.382224 0.144011 0.099740 255 220 0
0.401648 0.169732 0.027307 255 220 0
0.386346 0.056510 0.003025 255 220 0
0.361141 0.089635 0.082010 255 220 0
0.360308 0.067311 0.024686 255 220 0
0.421922 0.131536 0.016993 255 220 0
0.354610 0.097822 0.059348 255 220 0
0.381001 0.099449 0.014835 255 220 0
0.362758 0.145268 0.066100 255 220 0
0.436298 0.139162 0.031318 255 220 0
0.426045 0.114377 0.086038 255 220 0
0.420928 0.158955 0.021779 255 220 0
0.368968 0.068399 0.011037 255 220 0
0.414372 0.076022 0.028587 255 220 0
0.424908 0.089256 0.055037 255 220 0
0.439761 0.145501 0.038108 255 220 0
0.373758 0.175199 0.069704 255 220 0
0.434655 0.123078 0.078931 255 220 0
0.427922 0.101052 0.071373 255 220 0
0.388292 0.149505 0.101051 255 220 0
0.438470 0.143215 0.080030 255 220 0
0.364624 0.119636 0.089347 255 220 0
0.379364 0.049222 0.001231 255 220 0
0.373932 0.087487 0.015620 255 220 0
0.412980 0.077440 0.068389 255 220 0
0.392199 0.045296 0.012670 255 220 0
0.383451 0.163134 0.034924 255 220 0
0.420463 0.169092 0.096544 255 220 0
0.430507 0.193293 0.063167 255 220 0
0.430169 0.108972 0.075738 255 220 0
0.425668 0.183653 0.038759 255 220 0
0.390357 0.116657 0.100561 255 220 0
0.387778 0.170195 0.094931 255 220 0
0.438482 0.124586 0.043162 255 220 0
0.423388 0.115798 0.019284 255 220 0
0.356782 0.055137 0.036802 255 220 0
0.438865 0.131142 0.075078 255 220 0
0.375134 0.165739 0.085974 255 220 0
0.386304 0.041309 0.008487 255 220 0
0.420161 0.080649 0.052949 255 220 0
0.369945 0.131013 0.035584 255 220 0
0.405876 0.152292 0.018589 255 220 0
0.442180 0.139729 0.046786 255 220 0
0.369779 0.058856 0.005251 255 220 0
0.360193 0.062700 0.062783 255 220 0
0.422106 0.094077 0.028466 255 220 0
0.403318 0.102999 0.094157 255 220 0
0.373189 0.072871 0.080339 255 220 0
0.364513 0.050210 0.006941 255 220 0
0.411771 0.088876 0.017522 255 220 0
0.373351 0.125892 0.095924 255 220 0
0.382384 0.156154 0.032271 255 220 0
0.392908 0.042166 0.034445 255 220 0
0.391484 0.091394 0.009607 255 220 0
0.401202 0.183509 0.037512 255 220 0
0.422005 0.085398 0.060190 255 220 0
0.403973 0.153511 0.102364 255 220 0
0.386709 0.178214 0.042327 255 220 0
0.415264 0.195600 0.085668 255 220 0
0.368413 0.142439 0.089487 255 220 0
0.377290 0.138931 0.029894 255 220 0
0.357077 0.114097 0.071371 255 220 0
0.443034 0.142701 0.049857 255 220 0
0.356093 0.073324 0.040066 255 220 0
0.433257 0.184685 0.048095 255 220 0
0.390416 0.192380 0.078727 255 220 0
0.355743 0.108817 0.059385 255 220 0
0.381185 0.170461 0.090055 255 220 0
0.359982 0.060345 0.020975 255 220 0
0.426414 0.196856 0.063751 255 220 0
0.412268 0.170349 0.098915 255 220 0
0.401851 0.187024 0.040696 255 220 0
0.443157 0.136656 0.058598 255 220 0
0.419428 0.193773 0.086165 255 220 0
0.381972 0.187026 0.068752 255 220 0
0.354440 0.092237 0.060569 255 220 0
0.409454 0.142951 0.015473 255 220 0
0.361309 0.086068 0.031584 255 220 0
0.397746 0.189003 0.089724 255 220 0
0.421874 0.103232 0.083204 255 220 0
0.421413 0.186397 0.090515 255 220 0
0.391546 0.055157 0.006422 255 220 0
0.420916 0.156301 0.020852 255 220 0
0.360037 0.107711 0.083737 255 220 0
0.437120 0.184117 0.065359 255 220 0
0.359943 0.130520 0.074367 255 220 0
0.430616 0.106039 0.071288 255 220 0
0.397739 0.197139 0.060779 255 220 0
0.356848 0.071063 0.060890 255 220 0
0.438565 0.155297 0.080238 255 220 0
0.373457 0.068111 0.007161 255 220 0
0.411750 0.073437 0.025136 255 220 0
0.396315 0.145331 0.103048 255 220 0
0.363207 0.061864 0.014800 255 220 0
0.365967 0.147747 0.051509 255 220 0
0.388479 0.110396 0.013552 255 220 0
0.396452 0.191667 0.086265 255 220 0
0.368598 0.163241 0.062652 255 220 0
0.412430 0.074861 0.025280 255 220 0
0.424215 0.179180 0.034228 255 220 0
0.411567 0.083715 0.077296 255 220 0
0.405245 0.101557 0.092802 255 220 0
0.397490 0.124005 0.102091 255 220 0
0.440618 0.130397 0.046327 255 220 0
0.356218 0.101281 0.072670 255 220 0
0.441693 0.142077 0.071440 255 220 0
0.361199 0.086143 0.031847 255 220 0
0.408419 0.062071 0.032364 255 220 0
0.373047 0.043549 0.003319 255 220 0
0.383821 0.130013 0.021402 255 220 0
0.414930 0.120736 0.013394 255 220 0
0.357849 0.122447 0.063762 255 220 0
0.355715 0.107991 0.065103 255 220 0
0.388614 0.046034 0.006916 255 220 0
0.420482 0.125147 0.095094 255 220 0
0.391139 0.168616 0.097177 255 220 0
0.356374 0.063196 0.049086 255 220 0
0.378611 0.132922 0.026468 255 220 0
0.397859 0.111232 0.098708 255 220 0
0.370066 0.034817 0.034947 255 220 0
0.364071 0.087885 0.027143 255 220 0
0.384939 0.188159 0.058102 255 220 0
0.386916 0.109054 0.013996 255 220 0
0.443111 0.140049 0.064662 255 220 0
0.395577 0.051502 0.053559 255 220 0
0.396595 0.052498 0.053955 255 220 0
0.433018 0.106141 0.050551 255 220 0
0.400347 0.160186 0.022990 255 220 0
0.381545 0.139493 0.026175 255 220 0
0.364759 0.130029 0.043382 255 220 0
0.366741 0.141077 0.087625 255 220 0
0.417546 0.162406 0.098818 255 220 0
0.396543 0.110200 0.098521 255 220 0
0.355482 0.105123 0.065975 255 220 0
0.382798 0.116242 0.018180 255 220 0
0.414367 0.113698 0.094520 255 220 0
0.356164 0.098709 0.072581 255 220 0
0.432730 0.125837 0.027900 255 220 0
0.433085 0.162868 0.088468 255 220 0
0.371245 0.150102 0.043363 255 220 0
0.384674 0.065393 0.075126 255 220 0
0.390391 0.155401 0.100468 255 220 0
0.431463 0.160888 0.028731 255 220 0
0.415884 0.129344 0.098639 255 220 0
0.379971 0.071806 0.080235 255 220 0
0.437467 0.174494 0.077732 255 220 0
0.400247 0.194982 0.084163 255 220 0
0.363007 0.066712 0.070378 255 220 0
0.376896 0.092935 0.092002 255 220 0
0.385641 0.107889 0.014366 255 220 0
0.357478 0.097632 0.044634 255 220 0
0.393003 0.045220 0.044359 255 220 0
0.358032 0.052380 0.042742 255 220 0
0.429350 0.134107 0.090605 255 220 0
0.367900 0.040152 0.046608 255 220 0
0.414354 0.200339 0.077898 255 220 0
0.376909 0.073722 0.081456 255 220 0
0.410202 0.192088 0.089683 255 220 0
0.369613 0.158374 0.081788 255 220 0
0.420062 0.084189 0.064182 255 220 0
0.416077 0.115597 0.094406 255 220 0
0.438559 0.179026 0.070105 255 220 0
0.401785 0.052360 0.027520 255 220 0
0.367709 0.038128 0.011288 255 220 0
0.434190 0.185327 0.051221 255 220 0
0.378106 0.037283 0.040274 255 220 0
0.357785 0.120962 0.058858 255 220 0
0.403476 0.140969 0.103070 255 220 0
0.426974 0.106930 0.079593 255 220 0
0.363053 0.142028 0.055760 255 220 0
0.433365 0.155764 0.028924 255 220 0
0.419930 0.097890 0.022611 255 220 0
0.403774 0.059203 0.054548 255 220 0
0.424488 0.095672 0.032319 255 220 0
0.366066 0.139621 0.087115 255 220 0
0.367171 0.155937 0.056059 255 220 0
0.407685 0.135220 0.102169 255 220 0
0.411119 0.096731 0.087319 255 220 0
0.369289 0.085431 0.019131 255 220 0
0.429258 0.188025 0.047097 255 220 0
0.424312 0.169129 0.027922 255 220 0
0.435062 0.181284 0.078747 255 220 0
0.391305 0.100918 0.010925 255 220 0
0.365099 0.133776 0.044624 255 220 0
0.379779 0.099322 0.094735 255 220 0
0.377324 0.171531 0.048160 255 220 0
0.368211 0.156283 0.080298 255 220 0
0.443576 0.139463 0.059275 255 220 0
0.435811 0.147799 0.085417 255 220 0
0.387617 0.117889 0.100585 255 220 0
0.395652 0.120063 0.012804 255 220 0
0.411815 0.132038 0.013408 255 220 0
0.428230 0.130653 0.021775 255 220 0
0.372293 0.134049 0.033683 255 220 0
0.363736 0.148284 0.063079 255 220 0
0.385361 0.152609 0.099310 255 220 0
0.412553 0.117519 0.096852 255 220 0
0.382789 0.173286 0.090024 255 220 0
0.373705 0.070324 0.008020 255 220 0
0.395352 0.186300 0.043469 255 220 0
0.374249 0.176198 0.068450 255 220 0
0.429988 0.118438 0.026168 255 220 0
0.370425 0.167764 0.071568 255 220 0
0.358986 0.125712 0.056785 255 220 0
0.377219 0.170133 0.047178 255 220 0
0.365156 0.036134 0.022730 255 220 0
0.402689 0.053596 0.028199 255 220 0
0.392239 0.075216 0.007316 255 220 0
0.371928 0.128768 0.094855 255 220 0
0.361863 0.140944 0.062293 255 220 0
0.369405 0.159149 0.080607 255 220 0
0.355824 0.105346 0.068921 255 220 0
0.369077 0.068441 0.010947 255 220 0
0.430661 0.156421 0.026392 255 220 0
0.411082 0.124959 0.012458 255 220 0
0.407413 0.176422 0.030076 255 220 0
0.395476 0.197098 0.071939 255 220 0
0.414648 0.202035 0.068815 255 220 0
0.365700 0.041454 0.046904 255 220 0
0.363571 0.139947 0.081864 255 220 0
0.375858 0.129983 0.028041 255 220 0
0.394342 0.042976 0.031186 255 220 0
0.362599 0.142188 0.058605 255 220 0
0.436764 0.183544 0.070945 255 220 0
0.376894 0.179534 0.060952 255 220 0
0.378587 0.067230 0.004598 255 220 0
0.373207 0.151845 0.091269 255 220 0
0.359473 0.117746 0.048375 255 220 0
0.418482 0.100028 0.084127 255 220 0
0.391377 0.060824 0.069499 255 220 0
0.437110 0.168693 0.080913 255 220 0
0.405129 0.056079 0.036694 255 220 0
0.428235 0.114406 0.025266 255 220 0
0.380139 0.059237 0.070243 255 220 0
0.355785 0.072994 0.057517 255 220 0
0.413005 0.133773 0.100516 255 220 0
0.356641 0.077356 0.039323 255 220 0
0.442561 0.163055 0.066094 255 220 0
0.430636 0.116527 0.028078 255 220 0
0.424085 0.088573 0.044189 255 220 0
0.395679 0.133578 0.103163 255 220 0
0.385291 0.189617 0.074209 255 220 0
0.387223 0.076529 0.006621 255 220 0
0.388792 0.046036 0.007106 255 220 0
0.391227 0.040793 0.020137 255 220 0
0.390445 0.194054 0.071778 255 220 0
0.387519 0.039446 0.013218 255 220 0
0.438989 0.122723 0.065187 255 220 0
0.381356 0.108875 0.017156 255 220 0
0.364784 0.102131 0.031920 255 220 0
0.403232 0.154064 0.019719 255 220 0
0.437134 0.170471 0.080272 255 220 0
0.406333 0.075793 0.015989 255 220 0
0.433903 0.116737 0.075216 255 220 0
0.364244 0.145961 0.055309 255 220 0
0.427740 0.162420 0.026404 255 220 0
0.396542 0.164002 0.100153 255 220 0
0.408095 0.108305 0.094935 255 220 0
0.410911 0.071062 0.025558 255 220 0
0.399761 0.197830 0.078264 255 220 0
0.398158 0.099296 0.093798 255 220 0
0.421470 0.163594 0.023915 255 220 0
0.371158 0.043388 0.053107 255 220 0
0.424726 0.129630 0.093285 255 220 0
0.440354 0.140695 0.040038 255 220 0
0.379903 0.048330 0.001437 255 220 0
0.363323 0.075062 0.022538 255 220 0
0.375411 0.133921 0.097088 255 220 0
0.361383 0.126031 0.082774 255 220 0
0.378712 0.134771 0.027010 255 220 0
0.415974 0.198092 0.082029 255 220 0
0.415326 0.098850 0.085875 255 220 0
0.393272 0.071262 0.007313 255 220 0
0.392004 0.118853 0.101124 255 220 0
0.405639 0.131059 0.013037 255 220 0
0.370085 0.167256 0.064073 255 220 0
0.406310 0.192567 0.088971 255 220 0
0.371749 0.050801 0.062040 255 220 0
0.421968 0.083702 0.051922 255 220 0
0.398197 0.198537 0.070798 255 220 0
0.369894 0.088256 0.019663 255 220 0
0.372083 0.171863 0.065595 255 220 0
0.417593 0.097952 0.083373 255 220 0
0.414705 0.193327 0.088141 255 220 0
0.377027 0.040842 0.048407 255 220 0
0.435654 0.111775 0.056386 255 220 0
0.378932 0.124355 0.023383 255 220 0
0.435014 0.177102 0.081345 255 220 0
0.413022 0.070791 0.056274 255 220 0
0.422580 0.110232 0.087144 255 220 0
0.369639 0.164803 0.074222 255 220 0
0.356330 0.065413 0.052037 255 220 0
0.417197 0.100311 0.085423 255 220 0
0.442955 0.153059 0.050444 255 220 0
0.361038 0.043824 0.016125 255 220 0
0.441653 0.145041 0.043670 255 220 0
0.439338 0.124049 0.065685 255 220 0
0.403729 0.101579 0.093347 255 220 0
0.378043 0.048698 0.059902 255 220 0
0.441882 0.139265 0.045714 255 220 0
0.356696 0.074927 0.038289 255 220 0
0.423552 0.097203 0.028680 255 220 0
0.415596 0.190939 0.042905 255 220 0
0.369213 0.042265 0.005656 255 220 0
0.388893 0.109218 0.098535 255 220 0
0.413188 0.079176 0.070370 255 220 0
0.408286 0.185043 0.036832 255 220 0
0.374254 0.165946 0.084552 255 220 0
0.433929 0.188528 0.073249 255 220 0
0.354715 0.080220 0.049580 255 220 0
0.364796 0.068830 0.016752 255 220 0
0.381855 0.086435 0.010392 255 220 0
0.398551 0.115327 0.099945 255 220 0
0.400724 0.083013 0.084170 255 220 0
0.388853 0.187028 0.049883 255 220 0
0.403432 0.185607 0.038647 255 220 0
0.355686 0.087836 0.068175 255 220 0
0.376679 0.150558 0.094894 255 220 0
0.412344 0.078664 0.070965 255 220 0
0.426048 0.113979 0.022589 255 220 0
0.397077 0.172491 0.098033 255 220 0
0.442036 0.163556 0.069094 255 220 0
0.432194 0.191662 0.064222 255 220 0
0.357050 0.101549 0.076081 255 220 0
0.431020 0.162942 0.090747 255 220 0
0.357866 0.108629 0.078064 255 220 0
0.384622 0.129133 0.101256 255 220 0
0.416593 0.196956 0.052352 255 220 0
0.400311 0.061006 0.063068 255 220 0
0.396807 0.078589 0.009210 255 220 0
0.363760 0.141627 0.052526 255 220 0
0.394417 0.093108 0.091606 255 220 0
0.424039 0.087494 0.052117 255 220 0
0.355460 0.101406 0.053229 255 220 0
0.395808 0.044455 0.027677 255 220 0
0.386166 0.186474 0.052428 255 220 0
0.400331 0.118417 0.100594 255 220 0
0.399900 0.073818 0.010945 255 220 0
0.440316 0.174569 0.056504 255 220 0
0.392383 0.094003 0.092343 255 220 0
0.441431 0.159493 0.072956 255 220 0
0.417228 0.198694 0.056142 255 220 0
0.366460 0.034946 0.024654 255 220 0
0.381252 0.175420 0.045844 255 220 0
0.397598 0.193926 0.084017 255 220 0
0.363430 0.125644 0.086738 255 220 0
0.406941 0.058775 0.039855 255 220 0
0.382085 0.161742 0.094547 255 220 0
0.401598 0.052533 0.043196 255 220 0
0.366295 0.082550 0.021475 255 220 0
0.371438 0.055510 0.003093 255 220 0
0.360130 0.044364 0.037079 255 220 0
0.357963 0.120611 0.056684 255 220 0
0.425968 0.103271 0.028330 255 220 0
0.356959 0.080419 0.068899 255 220 0
0.389405 0.121595 0.101444 255 220 0
0.392407 0.135905 0.017907 255 220 0
0.388629 0.040018 0.014280 255 220 0
0.427265 0.148527 0.094850 255 220 0
0.388651 0.105290 0.097252 255 220 0
0.438568 0.143305 0.079828 255 220 0
