ply
format ascii 1.0
element vertex 1024
property float x
property float y
property float z
property uchar red
property uchar green
property uchar blue
end_header
0.569095 -0.022404 0.221250 255 220 0
0.604203 0.054466 0.222340 255 220 0
0.588273 0.111002 0.288436 255 220 0
0.599304 0.073268 0.280490 255 220 0
0.600469 0.030867 0.244344 255 220 0
0.549555 0.057358 0.292505 255 220 0
0.601839 0.035864 0.222321 255 220 0
0.577063 0.117102 0.239678 255 220 0
0.524658 0.035810 0.264642 255 220 0
0.608461 0.084074 0.257409 255 220 0
0.573884 0.117985 0.240404 255 220 0
0.540814 0.105795 0.245251 255 220 0
0.569436 0.083206 0.217084 255 220 0
0.583476 0.008788 0.188886 255 220 0
0.605259 0.091942 0.238388 255 220 0
0.598306 0.071311 0.281376 255 220 0
0.601493 0.089814 0.277325 255 220 0
0.526244 0.049022 0.237864 255 220 0
0.583600 -0.000972 0.185012 255 220 0
0.583777 0.061560 0.207857 255 220 0
0.597051 0.018272 0.214884 255 220 0
0.603577 0.103687 0.260544 255 220 0
0.555629 0.124217 0.286351 255 220 0
0.591705 0.121974 0.260878 255 220 0
0.531507 0.039794 0.275156 255 220 0
0.529260 0.023070 0.226015 255 220 0
0.609183 0.082841 0.249411 255 220 0
0.561964 0.093034 0.299674 255 220 0
0.584171 0.018244 0.193676 255 220 0
0.537813 0.045835 0.282775 255 220 0
0.537903 0.005581 0.210908 255 220 0
0.536755 0.022112 0.269530 255 220 0
0.599695 0.080998 0.280885 255 220 0
0.550541 -0.000050 0.193148 255 220 0
0.608330 0.072367 0.235600 255 220 0
0.592985 0.012938 0.241773 255 220 0
0.536901 0.069704 0.228865 255 220 0
0.575725 -0.005473 0.178542 255 220 0
0.544462 0.060688 0.219179 255 220 0
0.584334 0.124158 0.281307 255 220 0
0.595311 0.106799 0.238134 255 220 0
0.590883 0.004146 0.232975 255 220 0
0.604842 0.041604 0.231561 255 220 0
0.542221 0.111775 0.249654 255 220 0
0.551477 -0.020908 0.227343 255 220 0
0.586545 0.016916 0.259159 255 220 0
0.541951 0.107953 0.245858 255 220 0
0.561653 0.108483 0.298044 255 220 0
0.568842 0.003609 0.259364 255 220 0
0.537080 0.024255 0.214540 255 220 0
0.588196 0.123337 0.275038 255 220 0
0.609082 0.081465 0.254335 255 220 0
0.565104 -0.022634 0.223191 255 220 0
0.606187 0.096853 0.251610 255 220 0
0.575015 0.099387 0.224907 255 220 0
0.522593 0.038626 0.260025 255 220 0
0.529073 0.082687 0.247815 255 220 0
0.596944 0.096617 0.230264 255 220 0
0.591622 0.003932 0.201457 255 220 0
0.528752 0.007916 0.244808 255 220 0
0.598034 0.021729 0.216738 255 220 0
0.537035 0.024854 0.214734 255 220 0
0.533985 0.005988 0.218744 255 220 0
0.597751 0.113472 0.252075 255 220 0
0.545272 -0.020669 0.220063 255 220 0
0.554718 0.036492 0.203862 255 220 0
0.543335 0.110974 0.247250 255 220 0
0.578981 -0.005235 0.240992 255 220 0
0.578779 0.127075 0.283093 255 220 0
0.522742 0.062991 0.256191 255 220 0
0.607681 0.055291 0.233344 255 220 0
0.593853 0.043577 0.208057 255 220 0
0.544404 -0.016949 0.229441 255 220 0
0.602503 0.033305 0.229831 255 220 0
0.537478 0.064807 0.226342 255 220 0
0.554048 0.018826 0.273302 255 220 0
0.583121 0.126876 0.276259 255 220 0
0.546430 0.052177 0.214608 255 220 0
0.559082 0.026430 0.279112 255 220 0
0.587901 -0.010661 0.199366 255 220 0
0.526021 0.054242 0.240333 255 220 0
0.545773 -0.014796 0.201070 255 220 0
0.601548 0.096464 0.235265 255 220 0
0.606021 0.052535 0.253910 255 220 0
0.544097 0.048546 0.215175 255 220 0
0.587987 0.054408 0.285975 255 220 0
0.531012 0.095625 0.254258 255 220 0
0.548347 0.059242 0.215814 255 220 0
0.566140 -0.018025 0.231864 255 220 0
0.538699 0.100206 0.243277 255 220 0
0.599284 0.070268 0.218626 255 220 0
0.590483 0.115846 0.282705 255 220 0
0.531618 0.102446 0.264369 255 220 0
0.609460 0.065522 0.246752 255 220 0
0.598378 0.112453 0.269716 255 220 0
0.545991 0.117243 0.252134 255 220 0
0.536390 0.041080 0.279798 255 220 0
0.531132 0.066700 0.235084 255 220 0
0.603436 0.041131 0.248900 255 220 0
0.562909 -0.025915 0.215263 255 220 0
0.544314 0.087285 0.293360 255 220 0
0.570356 0.059480 0.295034 255 220 0
0.590046 -0.005681 0.204768 255 220 0
0.588448 0.090036 0.292176 255 220 0
0.560839 0.015125 0.271014 255 220 0
0.527533 0.064573 0.241068 255 220 0
0.534345 0.105058 0.275842 255 220 0
0.605875 0.049387 0.228281 255 220 0
0.575722 0.049349 0.289978 255 220 0
0.533003 0.052595 0.281023 255 220 0
0.597910 0.025716 0.246116 255 220 0
0.523051 0.044751 0.246803 255 220 0
0.548170 0.014283 0.200594 255 220 0
0.608428 0.057346 0.245273 255 220 0
0.534223 0.095596 0.281266 255 220 0
0.539734 0.069846 0.289930 255 220 0
0.597919 0.100330 0.234200 255 220 0
0.585895 -0.012489 0.190657 255 220 0
0.599260 0.071249 0.218966 255 220 0
0.561519 0.124462 0.251271 255 220 0
0.579108 0.127548 0.281704 255 220 0
0.582058 0.030706 0.276048 255 220 0
0.592438 0.072523 0.214667 255 220 0
0.573200 0.129483 0.259784 255 220 0
0.522248 0.057991 0.257246 255 220 0
0.530844 0.046423 0.227787 255 220 0
0.578386 0.100025 0.225405 255 220 0
0.554312 -0.027294 0.204296 255 220 0
0.568759 -0.020306 0.226059 255 220 0
0.558935 0.043944 0.289473 255 220 0
0.588050 0.075677 0.291862 255 220 0
0.593783 0.059312 0.283105 255 220 0
0.556164 -0.007242 0.184051 255 220 0
0.569931 -0.007667 0.245490 255 220 0
0.525236 0.065764 0.247511 255 220 0
0.586634 -0.000597 0.189342 255 220 0
0.587393 0.121866 0.280162 255 220 0
0.559802 0.001946 0.259374 255 220 0
0.583714 -0.007634 0.184057 255 220 0
0.572169 0.044736 0.201618 255 220 0
0.534482 0.041082 0.278316 255 220 0
0.567620 0.004032 0.260236 255 220 0
0.571432 0.035889 0.198364 255 220 0
0.574967 0.117657 0.294325 255 220 0
0.602644 0.103618 0.266275 255 220 0
0.545637 0.061864 0.218751 255 220 0
0.539933 0.018508 0.268629 255 220 0
0.548397 -0.007630 0.193638 255 220 0
0.590634 0.004899 0.198395 255 220 0
0.541364 0.043795 0.284162 255 220 0
0.555159 0.068701 0.215629 255 220 0
0.524840 0.066944 0.249351 255 220 0
0.589017 -0.004726 0.221309 255 220 0
0.574309 -0.023505 0.212679 255 220 0
0.527842 0.039615 0.231234 255 220 0
0.530566 0.096181 0.256544 255 220 0
0.544618 0.057210 0.217758 255 220 0
0.560308 0.023969 0.196009 255 220 0
0.582344 0.121023 0.287919 255 220 0
0.597379 0.022075 0.241851 255 220 0
0.541032 0.022357 0.210006 255 220 0
0.608551 0.084542 0.256310 255 220 0
0.542129 0.092155 0.291424 255 220 0
0.564748 0.035629 0.199543 255 220 0
0.604675 0.098726 0.245196 255 220 0
0.551373 -0.006651 0.248270 255 220 0
0.561480 0.061163 0.210169 255 220 0
0.538306 0.067846 0.226808 255 220 0
0.533996 0.096471 0.280535 255 220 0
0.604787 0.094839 0.266475 255 220 0
0.553930 0.036371 0.284810 255 220 0
0.552337 0.043797 0.288372 255 220 0
0.540658 0.117094 0.265224 255 220 0
0.566427 0.126134 0.288604 255 220 0
0.533261 0.096697 0.249485 255 220 0
0.554627 0.121963 0.288199 255 220 0
0.600146 0.027575 0.238914 255 220 0
0.532792 0.039988 0.223212 255 220 0
0.566848 0.007830 0.264118 255 220 0
0.608406 0.068580 0.234799 255 220 0
0.526533 0.082355 0.268652 255 220 0
0.547229 0.026451 0.276972 255 220 0
0.591120 0.002136 0.228112 255 220 0
0.534089 0.094817 0.281313 255 220 0
0.534005 -0.001373 0.224367 255 220 0
0.600685 0.040367 0.217601 255 220 0
0.581988 0.127487 0.261026 255 220 0
0.596610 0.029345 0.255653 255 220 0
0.534456 0.095608 0.281648 255 220 0
0.592118 0.029958 0.204516 255 220 0
0.545839 0.039558 0.210970 255 220 0
0.587240 0.063612 0.290097 255 220 0
0.522439 0.048063 0.250652 255 220 0
0.567926 -0.019832 0.227523 255 220 0
0.565560 0.050614 0.292449 255 220 0
0.600713 0.075126 0.278952 255 220 0
0.545824 0.084434 0.294296 255 220 0
0.586679 0.001619 0.239346 255 220 0
0.570974 0.109409 0.232239 255 220 0
0.605597 0.047154 0.228658 255 220 0
0.575053 0.053188 0.291744 255 220 0
0.548671 0.124188 0.266429 255 220 0
0.530777 0.078361 0.241541 255 220 0
0.530895 0.097626 0.257374 255 220 0
0.567147 0.084640 0.299824 255 220 0
0.561660 0.014221 0.270296 255 220 0
0.553383 0.127348 0.269375 255 220 0
0.538554 0.086150 0.234934 255 220 0
0.598824 0.113858 0.263078 255 220 0
0.525182 0.053656 0.270030 255 220 0
0.574143 0.131147 0.275592 255 220 0
0.556563 0.120527 0.290764 255 220 0
0.552446 0.001936 0.258397 255 220 0
0.557748 0.031986 0.282667 255 220 0
0.535929 0.086896 0.238216 255 220 0
0.554854 -0.013482 0.240276 255 220 0
0.584180 0.096314 0.294873 255 220 0
0.559999 0.033648 0.283841 255 220 0
0.576670 0.113794 0.295249 255 220 0
0.541715 -0.003666 0.247454 255 220 0
0.590511 0.013789 0.249100 255 220 0
0.585972 0.027028 0.198381 255 220 0
0.567582 -0.023211 0.184231 255 220 0
0.588037 0.120037 0.281882 255 220 0
0.549650 0.114735 0.245127 255 220 0
0.543929 -0.008260 0.201562 255 220 0
0.577631 0.007480 0.258106 255 220 0
0.542756 0.070417 0.291906 255 220 0
0.538485 0.037657 0.279616 255 220 0
0.523632 0.026177 0.244963 255 220 0
0.572923 0.032963 0.281887 255 220 0
0.553731 -0.026625 0.202217 255 220 0
0.542803 0.019219 0.207364 255 220 0
0.555577 -0.024102 0.221223 255 220 0
0.535411 0.056795 0.225423 255 220 0
0.526431 0.068779 0.245796 255 220 0
0.541861 0.019827 0.270447 255 220 0
0.585786 0.122175 0.250399 255 220 0
0.599638 0.098294 0.277932 255 220 0
0.580261 0.079823 0.297016 255 220 0
0.545079 0.020854 0.272431 255 220 0
0.522948 0.064245 0.255708 255 220 0
0.588938 0.123486 0.258471 255 220 0
0.603940 0.089897 0.271919 255 220 0
0.562293 -0.000122 0.257072 255 220 0
0.563627 0.107505 0.298470 255 220 0
0.573390 0.096901 0.223491 255 220 0
0.557892 0.029160 0.199370 255 220 0
0.574412 0.131118 0.275295 255 220 0
0.553312 0.126904 0.277610 255 220 0
0.528699 0.087476 0.252896 255 220 0
0.539088 -0.010856 0.232957 255 220 0
0.590170 0.021533 0.259213 255 220 0
0.539849 0.104916 0.245730 255 220 0
0.556637 0.121862 0.289618 255 220 0
0.569759 0.110929 0.233633 255 220 0
0.578137 0.055785 0.205292 255 220 0
0.529114 0.020650 0.226546 255 220 0
0.550388 -0.016345 0.234756 255 220 0
0.533919 0.083987 0.283818 255 220 0
0.609197 0.063347 0.239860 255 220 0
0.530731 0.091307 0.276052 255 220 0
0.546599 0.108504 0.241639 255 220 0
0.526568 0.050240 0.271781 255 220 0
0.527047 0.084707 0.256639 255 220 0
0.524745 0.071163 0.269600 255 220 0
0.571783 -0.015012 0.233283 255 220 0
0.522228 0.042721 0.259662 255 220 0
0.537200 0.055182 0.223089 255 220 0
0.585343 0.124334 0.279029 255 220 0
0.523300 0.068486 0.263383 255 220 0
0.558315 0.124150 0.288244 255 220 0
0.581278 0.055421 0.205368 255 220 0
0.605716 0.086683 0.268193 255 220 0
0.525327 0.046087 0.239403 255 220 0
0.567603 0.012724 0.268232 255 220 0
0.585742 0.103687 0.229458 255 220 0
0.544720 -0.002958 0.250093 255 220 0
0.535715 0.047071 0.281656 255 220 0
0.525566 0.080489 0.264162 255 220 0
0.539380 0.096765 0.240077 255 220 0
0.592683 0.002563 0.220705 255 220 0
0.551285 -0.024851 0.203338 255 220 0
0.533286 0.092206 0.280797 255 220 0
0.606732 0.087236 0.238626 255 220 0
0.546070 0.075981 0.294150 255 220 0
0.592524 0.046926 0.207426 255 220 0
0.597941 0.115306 0.260796 255 220 0
0.565523 0.009248 0.186204 255 220 0
0.547767 0.066160 0.218919 255 220 0
0.550599 0.011735 0.197459 255 220 0
0.522989 0.030205 0.255861 255 220 0
0.549036 0.070451 0.219784 255 220 0
0.582420 0.109936 0.233593 255 220 0
0.587210 -0.011541 0.195875 255 220 0
0.600101 0.079656 0.223405 255 220 0
0.551725 0.039307 0.285969 255 220 0
0.534030 0.080407 0.237235 255 220 0
0.605510 0.087186 0.235499 255 220 0
0.530600 0.091121 0.275828 255 220 0
0.607410 0.061736 0.230516 255 220 0
0.522782 0.032969 0.257393 255 220 0
0.561967 0.101002 0.228251 255 220 0
0.592552 0.005021 0.204456 255 220 0
0.550447 0.110692 0.240602 255 220 0
0.528483 0.051610 0.233702 255 220 0
0.538215 0.027239 0.214106 255 220 0
0.522910 0.065850 0.262073 255 220 0
0.551604 0.076893 0.220862 255 220 0
0.557952 -0.028139 0.199119 255 220 0
0.560645 -0.020747 0.228585 255 220 0
0.565742 -0.028188 0.204264 255 220 0
0.603225 0.088482 0.232084 255 220 0
0.567279 0.009635 0.265641 255 220 0
0.607050 0.066683 0.262888 255 220 0
0.533241 0.005999 0.252347 255 220 0
0.598997 0.021778 0.222810 255 220 0
0.551566 0.090038 0.297117 255 220 0
0.590292 0.016497 0.253055 255 220 0
0.560134 0.118152 0.243088 255 220 0
0.591874 0.108641 0.237044 255 220 0
0.601832 0.033565 0.242482 255 220 0
0.592134 0.012743 0.243867 255 220 0
0.557138 0.065284 0.296312 255 220 0
0.540053 0.038826 0.281130 255 220 0
0.593721 0.004912 0.212350 255 220 0
0.590048 0.082842 0.290766 255 220 0
0.526103 0.053328 0.271742 255 220 0
0.583071 -0.018425 0.204829 255 220 0
0.588620 0.104277 0.231076 255 220 0
0.553590 -0.013454 0.240040 255 220 0
0.535457 0.082713 0.236538 255 220 0
0.571986 0.120894 0.293205 255 220 0
0.562736 0.019232 0.274013 255 220 0
0.597474 0.026497 0.248963 255 220 0
0.588567 0.114166 0.240711 255 220 0
0.525290 0.030783 0.263372 255 220 0
0.565695 0.073596 0.213801 255 220 0
0.607482 0.067122 0.231333 255 220 0
0.527860 0.061558 0.276786 255 220 0
0.540225 0.025307 0.211635 255 220 0
0.550767 0.048037 0.289809 255 220 0
0.562433 0.027892 0.196920 255 220 0
0.567887 -0.024902 0.187176 255 220 0
0.608890 0.059427 0.242360 255 220 0
0.572456 0.057995 0.294147 255 220 0
0.566764 0.007058 0.263422 255 220 0
0.542556 0.106014 0.243402 255 220 0
0.569538 0.087428 0.299844 255 220 0
0.559764 0.030037 0.281539 255 220 0
0.528161 0.066165 0.240436 255 220 0
0.571163 0.131454 0.276953 255 220 0
0.550596 0.004627 0.194893 255 220 0
0.552193 0.048556 0.209560 255 220 0
0.531837 0.010826 0.222296 255 220 0
0.569863 0.058993 0.207210 255 220 0
0.553149 -0.024894 0.198643 255 220 0
0.557687 -0.025976 0.215867 255 220 0
0.542794 0.047869 0.215992 255 220 0
0.574244 0.117944 0.294410 255 220 0
0.604968 0.075967 0.271827 255 220 0
0.550125 -0.022797 0.201516 255 220 0
0.606632 0.092102 0.260801 255 220 0
0.543328 -0.005221 0.202210 255 220 0
0.537572 0.011097 0.211575 255 220 0
0.566653 0.068543 0.297766 255 220 0
0.602465 0.035935 0.224832 255 220 0
0.558199 0.078555 0.298442 255 220 0
0.565547 0.120005 0.243626 255 220 0
0.522010 0.049380 0.254586 255 220 0
0.557369 -0.010154 0.245164 255 220 0
0.584120 0.120776 0.246772 255 220 0
0.539774 0.073673 0.290191 255 220 0
0.552098 0.052734 0.291880 255 220 0
0.528322 0.057033 0.236150 255 220 0
0.539875 0.072893 0.227589 255 220 0
0.600903 0.056463 0.271833 255 220 0
0.599315 0.033375 0.216235 255 220 0
0.578037 0.111732 0.234327 255 220 0
0.570166 0.131069 0.264450 255 220 0
0.533162 0.008633 0.255423 255 220 0
0.522467 0.037531 0.248500 255 220 0
0.598007 0.112649 0.270650 255 220 0
0.591618 0.039098 0.205508 255 220 0
0.556176 0.081513 0.298240 255 220 0
0.571925 0.056141 0.205800 255 220 0
0.590999 0.051823 0.282196 255 220 0
0.576950 0.059851 0.206737 255 220 0
0.564258 -0.007261 0.178314 255 220 0
0.559818 0.091091 0.299382 255 220 0
0.594146 0.010469 0.207803 255 220 0
0.578679 0.084073 0.216704 255 220 0
0.548565 0.016455 0.270308 255 220 0
0.551082 0.109027 0.238811 255 220 0
0.587484 0.120567 0.282063 255 220 0
0.583628 0.101046 0.294651 255 220 0
0.535290 0.106647 0.256622 255 220 0
0.522407 0.039926 0.248951 255 220 0
0.535573 0.089297 0.240081 255 220 0
0.589188 0.104847 0.289661 255 220 0
0.583737 0.053963 0.205320 255 220 0
0.591273 -0.001944 0.215950 255 220 0
0.571234 0.106874 0.230230 255 220 0
0.591489 0.112644 0.283689 255 220 0
0.543081 0.050459 0.216596 255 220 0
0.595185 0.095458 0.228129 255 220 0
0.588361 0.105963 0.232373 255 220 0
0.522641 0.034728 0.258056 255 220 0
0.563993 0.068997 0.212440 255 220 0
0.600245 0.101891 0.274828 255 220 0
0.592274 0.001597 0.206498 255 220 0
0.549982 0.005128 0.195703 255 220 0
0.532049 0.062723 0.231923 255 220 0
0.585326 0.053356 0.205525 255 220 0
0.594100 0.061550 0.211703 255 220 0
0.567011 0.097928 0.299664 255 220 0
0.597890 0.019381 0.233368 255 220 0
0.570205 -0.013045 0.237574 255 220 0
0.555489 0.011215 0.193175 255 220 0
0.603611 0.038108 0.241096 255 220 0
0.531353 0.094693 0.252208 255 220 0
0.559281 0.011740 0.268331 255 220 0
0.570020 0.100497 0.299227 255 220 0
0.565180 -0.018264 0.180008 255 220 0
0.528249 0.016512 0.230070 255 220 0
0.603202 0.070934 0.274249 255 220 0
0.560424 0.090875 0.223133 255 220 0
0.538297 -0.006414 0.240257 255 220 0
0.536646 0.102141 0.248093 255 220 0
0.582392 -0.016549 0.186128 255 220 0
0.583740 0.127263 0.271650 255 220 0
0.553757 0.109494 0.295475 255 220 0
0.561113 0.126603 0.286605 255 220 0
0.543029 0.114949 0.283264 255 220 0
0.560907 -0.000411 0.256872 255 220 0
0.555972 -0.015227 0.184640 255 220 0
0.598947 0.106604 0.274641 255 220 0
0.550204 0.097593 0.231886 255 220 0
0.576895 0.073610 0.297420 255 220 0
0.525994 0.038833 0.235527 255 220 0
0.596612 0.109912 0.277080 255 220 0
0.534427 0.104194 0.255297 255 220 0
0.584773 0.123476 0.252144 255 220 0
0.602002 0.073223 0.276754 255 220 0
0.585316 -0.000346 0.238936 255 220 0
0.562025 0.120922 0.245815 255 220 0
0.577356 -0.022113 0.211299 255 220 0
0.535359 0.099583 0.281663 255 220 0
0.530752 0.079057 0.241980 255 220 0
0.553882 0.121892 0.251512 255 220 0
0.597083 0.047667 0.272384 255 220 0
0.587993 -0.010468 0.199616 255 220 0
0.574151 0.094464 0.299060 255 220 0
0.603616 0.075659 0.226165 255 220 0
0.584262 0.119897 0.245510 255 220 0
0.557394 0.031251 0.282175 255 220 0
0.594641 0.011757 0.233465 255 220 0
0.590570 0.024743 0.262037 255 220 0
0.597637 0.094788 0.282359 255 220 0
0.552151 -0.013783 0.239165 255 220 0
0.536628 -0.000511 0.247417 255 220 0
0.597740 0.054664 0.275901 255 220 0
0.604671 0.062760 0.267708 255 220 0
0.533735 0.005651 0.219525 255 220 0
0.522834 0.060403 0.253685 255 220 0
0.555757 0.123442 0.287400 255 220 0
0.566285 -0.001498 0.179855 255 220 0
0.588897 0.026081 0.200394 255 220 0
0.587496 0.046823 0.204498 255 220 0
0.608425 0.069508 0.235106 255 220 0
0.536753 0.111722 0.272534 255 220 0
0.603648 0.078395 0.227424 255 220 0
0.590149 -0.003885 0.217737 255 220 0
0.523229 0.044698 0.246046 255 220 0
0.594893 0.028796 0.208077 255 220 0
0.523032 0.036220 0.245363 255 220 0
0.590453 0.092334 0.290443 255 220 0
0.593756 0.084038 0.287491 255 220 0
0.587796 0.090707 0.221627 255 220 0
0.557270 0.061860 0.212008 255 220 0
0.583769 0.097482 0.295020 255 220 0
0.539691 0.107630 0.248664 255 220 0
0.524936 0.072802 0.269476 255 220 0
0.573095 0.090280 0.219944 255 220 0
0.601926 0.106686 0.251150 255 220 0
0.566405 -0.026199 0.212525 255 220 0
0.537894 -0.002874 0.213183 255 220 0
0.584324 0.042562 0.202103 255 220 0
0.537051 0.096351 0.285295 255 220 0
0.521888 0.041087 0.254775 255 220 0
0.602855 0.077313 0.276045 255 220 0
0.573003 0.128284 0.256618 255 220 0
0.555100 -0.014313 0.239163 255 220 0
0.534259 0.095572 0.281334 255 220 0
0.546342 -0.011722 0.239459 255 220 0
0.548867 0.047642 0.211321 255 220 0
0.607251 0.050345 0.237286 255 220 0
0.576008 0.063774 0.295159 255 220 0
0.555634 0.005142 0.190317 255 220 0
0.535020 0.027115 0.271740 255 220 0
0.532770 0.037157 0.275260 255 220 0
0.544903 -0.007169 0.199454 255 220 0
0.590559 0.001383 0.198711 255 220 0
0.563953 0.005568 0.262604 255 220 0
0.548961 0.070318 0.219780 255 220 0
0.546152 0.066397 0.220165 255 220 0
0.603105 0.073007 0.224309 255 220 0
0.563440 0.101029 0.227816 255 220 0
0.608400 0.063536 0.254344 255 220 0
0.529246 0.094304 0.268164 255 220 0
0.549184 -0.017139 0.232983 255 220 0
0.566203 0.015485 0.189377 255 220 0
0.577410 -0.023665 0.204834 255 220 0
0.545036 0.014262 0.267452 255 220 0
0.538564 -0.011633 0.223336 255 220 0
0.554870 -0.010223 0.184970 255 220 0
0.571233 0.103359 0.298775 255 220 0
0.529517 0.008857 0.230847 255 220 0
0.524319 0.055588 0.245754 255 220 0
0.591309 0.068120 0.288140 255 220 0
0.608115 0.082224 0.239769 255 220 0
0.604985 0.080981 0.230963 255 220 0
0.592410 0.001729 0.220048 255 220 0
0.593456 0.106845 0.284168 255 220 0
0.529329 0.030924 0.226482 255 220 0
0.557503 -0.010558 0.244638 255 220 0
0.573706 0.128824 0.283341 255 220 0
0.577034 0.097408 0.223703 255 220 0
0.565502 0.003350 0.260151 255 220 0
0.585598 -0.003511 0.187117 255 220 0
0.573020 0.022178 0.191764 255 220 0
0.588815 0.007062 0.243129 255 220 0
0.565450 -0.018920 0.230567 255 220 0
0.564534 0.131136 0.277863 255 220 0
0.533264 0.050999 0.280780 255 220 0
0.605058 0.093663 0.266357 255 220 0
0.554848 0.060420 0.212546 255 220 0
0.600386 0.064225 0.217868 255 220 0
0.584634 0.049996 0.204323 255 220 0
0.548766 -0.014040 0.193880 255 220 0
0.608119 0.065031 0.233143 255 220 0
0.593625 0.045669 0.208102 255 220 0
0.585474 -0.004963 0.231176 255 220 0
0.522114 0.046739 0.252443 255 220 0
0.556736 0.074071 0.297677 255 220 0
0.581075 0.020198 0.267815 255 220 0
0.540194 0.076440 0.228884 255 220 0
0.539939 0.096134 0.239114 255 220 0
0.531448 0.097777 0.273973 255 220 0
0.599509 0.044175 0.265261 255 220 0
0.577592 0.088193 0.218690 255 220 0
0.555229 0.025711 0.278302 255 220 0
0.536204 0.074423 0.231635 255 220 0
0.597863 0.021823 0.215923 255 220 0
0.560712 -0.017194 0.181501 255 220 0
0.598319 0.019367 0.222170 255 220 0
0.550956 0.018274 0.199491 255 220 0
0.594929 0.026320 0.255893 255 220 0
0.561651 0.073639 0.298400 255 220 0
0.583326 0.026020 0.271243 255 220 0
0.553530 0.018564 0.273018 255 220 0
0.561814 0.012430 0.268873 255 220 0
0.527124 0.081032 0.252160 255 220 0
0.552119 0.030222 0.203066 255 220 0
0.546080 0.014912 0.268325 255 220 0
0.547972 0.034506 0.207646 255 220 0
0.545090 0.118566 0.281727 255 220 0
0.533817 0.059203 0.283651 255 220 0
0.606223 0.085722 0.236222 255 220 0
0.522625 0.058979 0.254113 255 220 0
0.591966 0.121360 0.258359 255 220 0
0.599081 0.077240 0.281349 255 220 0
0.583492 -0.017850 0.205234 255 220 0
0.594028 0.107532 0.237672 255 220 0
0.595434 0.040582 0.269564 255 220 0
0.590845 0.033763 0.203914 255 220 0
0.549651 -0.012818 0.191902 255 220 0
0.597835 0.052883 0.212904 255 220 0
0.578526 -0.001414 0.246724 255 220 0
0.596548 0.107837 0.240760 255 220 0
0.588760 0.035849 0.274255 255 220 0
0.603784 0.091355 0.234886 255 220 0
0.532463 0.005491 0.223227 255 220 0
0.570063 0.129120 0.258358 255 220 0
0.540335 0.019822 0.210009 255 220 0
0.528978 0.054386 0.233772 255 220 0
0.541560 0.015835 0.207704 255 220 0
0.526496 0.013321 0.242597 255 220 0
0.576638 -0.003292 0.246162 255 220 0
0.579371 0.115691 0.238532 255 220 0
0.605373 0.047787 0.250123 255 220 0
0.543155 -0.001980 0.250461 255 220 0
0.582631 0.014706 0.261156 255 220 0
0.599433 0.043241 0.264563 255 220 0
0.571690 0.114844 0.237105 255 220 0
0.552714 0.037883 0.285423 255 220 0
0.592120 0.010977 0.241107 255 220 0
0.524730 0.030491 0.238521 255 220 0
0.524381 0.032587 0.262474 255 220 0
0.603437 0.044214 0.253746 255 220 0
0.569831 0.002127 0.181075 255 220 0
0.609345 0.076288 0.254349 255 220 0
0.525580 0.069159 0.248358 255 220 0
0.580993 0.128746 0.272448 255 220 0
0.603167 0.041906 0.251473 255 220 0
0.528616 0.020111 0.261137 255 220 0
0.551835 0.000549 0.191960 255 220 0
0.574184 0.079659 0.298856 255 220 0
0.575539 0.050227 0.290412 255 220 0
0.525827 0.080112 0.257075 255 220 0
0.572289 -0.026333 0.205347 255 220 0
0.602655 0.094407 0.273113 255 220 0
0.523978 0.069786 0.254768 255 220 0
0.538319 0.114376 0.265798 255 220 0
0.592142 0.009919 0.201984 255 220 0
0.552253 0.126788 0.270260 255 220 0
0.537773 0.091092 0.287313 255 220 0
0.576534 -0.017909 0.223101 255 220 0
0.548227 0.050978 0.290082 255 220 0
0.600391 0.108430 0.268791 255 220 0
0.533193 0.037674 0.222099 255 220 0
0.584282 0.117093 0.289174 255 220 0
0.591056 0.032992 0.203961 255 220 0
0.525981 0.019357 0.236905 255 220 0
0.527720 0.020505 0.230340 255 220 0
0.573821 0.075833 0.213243 255 220 0
0.545409 0.027546 0.277074 255 220 0
0.552674 0.010242 0.266298 255 220 0
0.607841 0.065601 0.258991 255 220 0
0.535964 0.075245 0.287055 255 220 0
0.543791 -0.015551 0.207602 255 220 0
0.606082 0.045776 0.234125 255 220 0
0.599702 0.096407 0.278566 255 220 0
0.545366 0.010878 0.264781 255 220 0
0.598650 0.108156 0.274098 255 220 0
0.559459 0.089975 0.223044 255 220 0
0.604474 0.062084 0.267789 255 220 0
0.536603 -0.007988 0.232392 255 220 0
0.593701 0.110859 0.281604 255 220 0
0.578495 0.126061 0.253491 255 220 0
0.550368 0.024971 0.202392 255 220 0
0.563640 0.040233 0.201689 255 220 0
0.596031 0.029823 0.257727 255 220 0
0.549265 -0.024463 0.213549 255 220 0
0.606197 0.094898 0.259768 255 220 0
0.592926 0.117827 0.250638 255 220 0
0.572484 -0.026596 0.193801 255 220 0
0.564991 -0.013116 0.240158 255 220 0
0.590873 0.121752 0.272011 255 220 0
0.542180 0.007940 0.260846 255 220 0
0.591649 0.003459 0.201725 255 220 0
0.559968 0.043972 0.289549 255 220 0
0.536337 0.089352 0.285907 255 220 0
0.577178 0.073020 0.211828 255 220 0
0.583906 0.123777 0.282676 255 220 0
0.593595 0.035639 0.206984 255 220 0
0.567209 -0.024155 0.218286 255 220 0
0.578740 -0.015048 0.180841 255 220 0
0.579642 -0.020385 0.211210 255 220 0
0.593237 0.010222 0.236234 255 220 0
0.569198 0.061647 0.208342 255 220 0
0.586732 0.038125 0.277801 255 220 0
0.550480 0.099979 0.233088 255 220 0
0.532433 0.067850 0.283431 255 220 0
0.576203 0.106676 0.229932 255 220 0
0.583585 -0.000894 0.185018 255 220 0
0.525855 0.016793 0.250788 255 220 0
0.550128 0.004987 0.195502 255 220 0
0.602738 0.071639 0.223252 255 220 0
0.528033 0.028644 0.228923 255 220 0
0.569585 0.039056 0.199843 255 220 0
0.527880 0.074389 0.245370 255 220 0
0.609385 0.077090 0.243155 255 220 0
0.580906 0.042645 0.284582 255 220 0
0.597097 0.097721 0.231224 255 220 0
0.563326 0.008778 0.186905 255 220 0
0.596999 0.014722 0.222379 255 220 0
0.594757 0.023404 0.252468 255 220 0
0.609197 0.082238 0.251625 255 220 0
0.533389 0.103565 0.257545 255 220 0
0.590677 0.052761 0.282986 255 220 0
0.589810 0.032209 0.270163 255 220 0
0.536881 0.073229 0.287903 255 220 0
0.591637 0.072502 0.288520 255 220 0
0.523019 0.045116 0.263268 255 220 0
0.578681 -0.007984 0.179472 255 220 0
0.564063 0.026908 0.195890 255 220 0
0.579805 0.009002 0.257872 255 220 0
0.586261 -0.013434 0.194433 255 220 0
0.557267 0.098208 0.228385 255 220 0
0.565987 0.094401 0.299882 255 220 0
0.585876 0.124474 0.277507 255 220 0
0.589309 0.039300 0.276186 255 220 0
0.592134 0.119161 0.252117 255 220 0
0.542357 0.041081 0.283433 255 220 0
0.536696 0.094647 0.285250 255 220 0
0.608191 0.060726 0.252553 255 220 0
0.604796 0.055804 0.223580 255 220 0
0.543369 -0.009259 0.203171 255 220 0
0.595210 0.061521 0.282430 255 220 0
0.529173 0.091420 0.271360 255 220 0
0.582955 -0.016816 0.187667 255 220 0
0.592145 0.015146 0.247372 255 220 0
0.548008 0.066035 0.218701 255 220 0
0.585320 0.091217 0.221218 255 220 0
0.608560 0.075104 0.259573 255 220 0
0.567347 0.000448 0.180608 255 220 0
0.535399 -0.006316 0.229087 255 220 0
0.602234 0.032767 0.228105 255 220 0
0.558132 0.029231 0.280930 255 220 0
0.539243 0.001017 0.251714 255 220 0
0.562768 -0.008537 0.178699 255 220 0
0.597683 0.029239 0.213257 255 220 0
0.527727 0.050402 0.273683 255 220 0
0.558066 0.091778 0.224524 255 220 0
0.578601 -0.020354 0.213871 255 220 0
0.582054 0.032422 0.198219 255 220 0
0.570325 0.118398 0.240985 255 220 0
0.590465 0.018595 0.255352 255 220 0
0.550250 0.077476 0.296082 255 220 0
0.555744 0.111837 0.238620 255 220 0
0.562813 0.122224 0.291895 255 220 0
0.524061 0.067649 0.268323 255 220 0
0.556144 0.075085 0.217749 255 220 0
0.523834 0.042601 0.243174 255 220 0
0.607814 0.077511 0.263129 255 220 0
0.539565 0.008025 0.208527 255 220 0
0.595250 0.118779 0.263778 255 220 0
0.543230 0.119434 0.275021 255 220 0
0.527915 0.039490 0.231050 255 220 0
0.532587 0.095547 0.278205 255 220 0
0.552023 -0.001217 0.190994 255 220 0
0.581542 0.127734 0.276892 255 220 0
0.557441 0.094934 0.298859 255 220 0
0.569291 0.121312 0.244639 255 220 0
0.605088 0.070017 0.270155 255 220 0
0.566603 0.120482 0.293772 255 220 0
0.540036 0.115648 0.261796 255 220 0
0.527972 0.022928 0.229125 255 220 0
0.590786 0.082706 0.218486 255 220 0
0.546366 0.022244 0.204906 255 220 0
0.545908 0.114412 0.287419 255 220 0
0.579378 0.032044 0.278673 255 220 0
0.567453 0.112523 0.297406 255 220 0
0.587122 -0.002649 0.190001 255 220 0
0.597728 0.095275 0.229990 255 220 0
0.522293 0.034226 0.254574 255 220 0
0.591990 0.115288 0.280821 255 220 0
0.523562 0.058320 0.249479 255 220 0
0.591785 0.037221 0.271925 255 220 0
0.556533 0.127553 0.262550 255 220 0
0.532233 0.002130 0.227257 255 220 0
0.590392 0.084351 0.290538 255 220 0
0.568988 0.009337 0.185203 255 220 0
0.596244 0.012702 0.217817 255 220 0
0.543839 0.069046 0.292358 255 220 0
0.557255 0.001485 0.186973 255 220 0
0.536335 0.079528 0.233903 255 220 0
0.575782 0.050308 0.203365 255 220 0
0.545822 0.117602 0.284170 255 220 0
0.532715 0.092879 0.247313 255 220 0
0.596659 0.014101 0.218435 255 220 0
0.593068 0.115515 0.246779 255 220 0
0.574337 0.013543 0.266249 255 220 0
0.560577 0.028120 0.280282 255 220 0
0.547497 0.048282 0.288812 255 220 0
0.608283 0.065953 0.257138 255 220 0
0.523862 0.029736 0.242093 255 220 0
0.598101 0.073019 0.281929 255 220 0
0.546154 0.022267 0.205109 255 220 0
0.591515 0.000126 0.221281 255 220 0
0.572678 -0.014151 0.177932 255 220 0
0.566391 0.068047 0.211443 255 220 0
0.598904 0.061415 0.215554 255 220 0
0.526690 0.052191 0.237874 255 220 0
0.525708 0.037661 0.236066 255 220 0
0.585196 -0.011811 0.187895 255 220 0
0.571127 0.051439 0.292066 255 220 0
0.539036 0.092811 0.288411 255 220 0
0.537293 -0.003528 0.215264 255 220 0
0.559330 0.069829 0.214312 255 220 0
0.550497 0.036332 0.284022 255 220 0
0.558325 -0.028458 0.203909 255 220 0
0.550458 0.024914 0.202303 255 220 0
0.546846 0.118756 0.253582 255 220 0
0.574319 0.048855 0.202928 255 220 0
0.602291 0.072277 0.276103 255 220 0
0.572492 -0.014474 0.233562 255 220 0
0.573161 -0.013530 0.234482 255 220 0
0.602186 0.041085 0.254242 255 220 0
0.577715 0.098008 0.224096 255 220 0
0.561442 0.076444 0.216220 255 220 0
0.540288 0.063504 0.223462 255 220 0
0.523415 0.066582 0.265762 255 220 0
0.563117 0.087321 0.299748 255 220 0
0.549477 0.035306 0.283163 255 220 0
0.525446 0.034678 0.236332 255 220 0
0.568160 0.055040 0.206081 255 220 0
0.566961 0.040070 0.287354 255 220 0
0.524114 0.027220 0.241609 255 220 0
0.608864 0.064469 0.236643 255 220 0
0.581347 0.090147 0.296837 255 220 0
0.544135 0.083472 0.229071 255 220 0
0.552560 -0.005017 0.250598 255 220 0
0.538416 0.079204 0.289110 255 220 0
0.603751 0.098750 0.242074 255 220 0
0.565093 0.054778 0.294004 255 220 0
0.545581 0.000221 0.254232 255 220 0
0.588397 0.103639 0.290680 255 220 0
0.549774 0.121366 0.284317 255 220 0
0.534540 -0.003623 0.237672 255 220 0
0.535925 0.018806 0.266709 255 220 0
0.573130 0.047599 0.202566 255 220 0
0.536501 0.031169 0.216813 255 220 0
0.574442 -0.019109 0.223293 255 220 0
0.542440 -0.012982 0.208622 255 220 0
0.580068 0.061353 0.292971 255 220 0
0.551175 -0.025355 0.214319 255 220 0
0.564573 0.128233 0.285227 255 220 0
0.542106 0.001784 0.254366 255 220 0
0.556967 0.117882 0.292924 255 220 0
0.526559 0.084729 0.264242 255 220 0
0.587235 0.016629 0.257975 255 220 0
0.568369 0.042017 0.288232 255 220 0
0.591947 0.109488 0.284928 255 220 0
0.588389 -0.008794 0.212770 255 220 0
0.565210 -0.021081 0.182127 255 220 0
0.594795 0.118887 0.267070 255 220 0
0.563293 -0.026701 0.212355 255 220 0
0.528730 0.051598 0.233210 255 220 0
0.550814 0.064998 0.294654 255 220 0
0.585078 0.036497 0.278051 255 220 0
0.532584 0.073048 0.235695 255 220 0
0.605940 0.093742 0.242263 255 220 0
0.602176 0.037481 0.222508 255 220 0
0.578782 -0.006794 0.238942 255 220 0
0.602716 0.033733 0.232784 255 220 0
0.523152 0.065218 0.264811 255 220 0
0.534782 0.086817 0.239709 255 220 0
0.555606 0.059648 0.294708 255 220 0
0.568608 0.024549 0.277025 255 220 0
0.558649 0.024103 0.196853 255 220 0
0.591652 0.122103 0.261742 255 220 0
0.596696 0.106754 0.239648 255 220 0
0.585098 0.110053 0.291620 255 220 0
0.580382 0.041549 0.200746 255 220 0
0.539718 0.066980 0.225276 255 220 0
0.536811 0.024703 0.271295 255 220 0
0.545561 0.103905 0.239051 255 220 0
0.526087 0.082889 0.262017 255 220 0
0.604911 0.072673 0.271353 255 220 0
0.586602 0.075962 0.292967 255 220 0
0.539721 0.042194 0.282519 255 220 0
0.581622 0.060195 0.207053 255 220 0
0.594887 0.072421 0.215971 255 220 0
0.606688 0.070138 0.230003 255 220 0
0.550590 0.069439 0.218398 255 220 0
0.529658 0.077925 0.243494 255 220 0
0.534576 0.076491 0.285599 255 220 0
0.563986 0.043351 0.289281 255 220 0
0.533770 0.098386 0.279252 255 220 0
0.568644 0.011370 0.186406 255 220 0
0.562338 0.119884 0.244377 255 220 0
0.534231 0.104787 0.256765 255 220 0
0.607815 0.057405 0.232866 255 220 0
0.530379 0.095807 0.256761 255 220 0
0.530156 0.056679 0.232538 255 220 0
0.545999 0.102701 0.237916 255 220 0
0.558552 -0.025162 0.191095 255 220 0
0.588816 -0.007668 0.213934 255 220 0
0.585324 0.016944 0.194064 255 220 0
0.526554 0.053371 0.272567 255 220 0
0.529021 0.070782 0.240933 255 220 0
0.526757 0.085694 0.263208 255 220 0
0.524567 0.034386 0.239158 255 220 0
0.563456 0.008839 0.186874 255 220 0
0.604409 0.094745 0.238977 255 220 0
0.595327 0.065602 0.213767 255 220 0
0.579672 0.112962 0.235771 255 220 0
0.550048 0.125453 0.271673 255 220 0
0.568265 0.131523 0.277418 255 220 0
0.548916 -0.024203 0.213881 255 220 0
0.522923 0.066385 0.259111 255 220 0
0.556498 0.066564 0.214168 255 220 0
0.581117 -0.018930 0.211641 255 220 0
0.531025 0.072685 0.238096 255 220 0
0.589509 0.113720 0.285623 255 220 0
0.539270 0.109491 0.251585 255 220 0
0.574774 0.009102 0.184858 255 220 0
0.526755 0.076749 0.273281 255 220 0
0.534758 0.050355 0.223980 255 220 0
0.576249 0.028612 0.277645 255 220 0
0.561378 -0.008281 0.247588 255 220 0
0.587411 0.097357 0.292539 255 220 0
0.587418 -0.006649 0.222949 255 220 0
0.606990 0.053540 0.230740 255 220 0
0.550996 -0.010360 0.243436 255 220 0
0.532401 0.004591 0.224071 255 220 0
0.561264 0.058702 0.295177 255 220 0
0.539942 0.012141 0.208679 255 220 0
0.598841 0.094630 0.280580 255 220 0
0.607847 0.055209 0.234568 255 220 0
0.598376 0.024630 0.242259 255 220 0
0.544429 0.057444 0.290459 255 220 0
0.540632 0.117342 0.268450 255 220 0
0.580888 0.018186 0.191585 255 220 0
0.585283 -0.011836 0.188139 255 220 0
0.582881 -0.019222 0.200093 255 220 0
0.545838 0.122315 0.269022 255 220 0
0.582380 -0.019446 0.192148 255 220 0
0.600115 0.055001 0.272323 255 220 0
0.568013 0.047926 0.203477 255 220 0
0.547741 0.038102 0.209010 255 220 0
0.582277 0.092668 0.221419 255 220 0
0.587502 0.099219 0.292235 255 220 0
0.594683 0.016457 0.207715 255 220 0
0.592119 0.047158 0.278392 255 220 0
0.533441 0.077037 0.236358 255 220 0
0.601119 0.100542 0.238685 255 220 0
0.543262 0.087931 0.292612 255 220 0
0.561633 0.034476 0.284367 255 220 0
0.595556 0.010262 0.217502 255 220 0
0.551374 0.125198 0.279228 255 220 0
0.553950 0.025475 0.277951 255 220 0
0.596265 0.101924 0.234058 255 220 0
0.551236 -0.023215 0.221984 255 220 0
0.575251 0.056314 0.292834 255 220 0
0.609469 0.077189 0.252893 255 220 0
0.579184 -0.008880 0.179745 255 220 0
0.552928 0.013095 0.195947 255 220 0
0.528313 0.058163 0.276763 255 220 0
0.522007 0.052462 0.256973 255 220 0
0.559015 0.071555 0.215115 255 220 0
0.564645 0.125345 0.289277 255 220 0
0.572799 0.027035 0.277756 255 220 0
0.586677 0.013091 0.193896 255 220 0
0.543409 0.043197 0.284938 255 220 0
0.589501 0.071312 0.212971 255 220 0
0.533092 0.096627 0.249796 255 220 0
0.553649 0.118346 0.290765 255 220 0
0.547467 -0.017490 0.231370 255 220 0
0.593884 0.018393 0.247637 255 220 0
0.552834 0.127165 0.271970 255 220 0
0.558697 0.026808 0.197998 255 220 0
0.533835 0.100956 0.252665 255 220 0
0.575951 0.026674 0.276295 255 220 0
0.561558 0.119530 0.293557 255 220 0
0.558716 -0.024682 0.219768 255 220 0
0.601695 0.045682 0.261410 255 220 0
0.561731 0.061962 0.210393 255 220 0
0.584457 0.105478 0.293320 255 220 0
0.585334 0.004615 0.245990 255 220 0
0.577735 0.038253 0.283549 255 220 0
0.528916 0.092397 0.258392 255 220 0
0.535855 -0.001874 0.218233 255 220 0
0.574534 0.028616 0.278330 255 220 0
0.606438 0.087591 0.265162 255 220 0
0.556618 -0.016568 0.184605 255 220 0
0.608766 0.080863 0.257339 255 220 0
0.600099 0.056229 0.273111 255 220 0
0.558975 0.027993 0.280157 255 220 0
0.554273 -0.018962 0.231702 255 220 0
0.608761 0.074828 0.258417 255 220 0
0.540654 0.009938 0.207410 255 220 0
0.603145 0.035853 0.229352 255 220 0
0.580549 0.125244 0.252820 255 220 0
0.568387 -0.015962 0.178281 255 220 0
0.542595 0.034074 0.279907 255 220 0
0.579030 0.010364 0.259999 255 220 0
0.576898 0.120272 0.243492 255 220 0
0.528913 0.091845 0.269750 255 220 0
0.585494 0.118116 0.287279 255 220 0
0.533823 0.013071 0.217557 255 220 0
0.557211 0.008043 0.190413 255 220 0
0.573472 0.027074 0.194259 255 220 0
0.550213 0.040164 0.286026 255 220 0
0.561793 0.011258 0.267910 255 220 0
0.553792 0.119237 0.247608 255 220 0
0.571693 0.120337 0.243228 255 220 0
0.526550 0.017292 0.235832 255 220 0
0.528618 0.074959 0.277773 255 220 0
0.578077 0.009726 0.260115 255 220 0
0.606101 0.053519 0.227373 255 220 0
0.543712 0.096674 0.292181 255 220 0
0.597121 0.094572 0.283142 255 220 0
0.587165 0.122741 0.278905 255 220 0
0.523241 0.029422 0.245545 255 220 0
0.578552 0.089745 0.298058 255 220 0
0.522466 0.036062 0.248714 255 220 0
0.535559 0.053031 0.283568 255 220 0
0.577091 0.129518 0.262629 255 220 0
0.572059 -0.006653 0.245470 255 220 0
0.588391 0.020082 0.198135 255 220 0
0.534552 0.073253 0.233011 255 220 0
0.552048 0.019650 0.273531 255 220 0
0.595303 0.022159 0.249222 255 220 0
0.530864 0.033284 0.224290 255 220 0
0.583692 -0.016802 0.209298 255 220 0
0.550390 0.118149 0.248722 255 220 0
0.551261 0.043149 0.287795 255 220 0
0.591019 0.015188 0.200253 255 220 0
0.599403 0.107580 0.272734 255 220 0
0.549807 0.020329 0.273497 255 220 0
0.595458 0.089869 0.285772 255 220 0
0.575988 0.130577 0.266560 255 220 0
0.559102 -0.026627 0.193184 255 220 0
0.549661 0.108277 0.239146 255 220 0
0.547525 0.120262 0.282948 255 220 0
0.522343 0.051447 0.261323 255 220 0
0.587538 -0.004497 0.226936 255 220 0
0.532530 0.086206 0.281326 255 220 0
0.581987 -0.011414 0.226839 255 220 0
0.555286 0.020750 0.197314 255 220 0
0.570063 -0.002402 0.178846 255 220 0
0.547428 -0.019789 0.203189 255 220 0
0.529790 0.051645 0.231273 255 220 0
0.604860 0.041965 0.230923 255 220 0
0.528191 0.009913 0.235904 255 220 0
0.540628 0.045748 0.284572 255 220 0
0.575000 0.074757 0.212675 255 220 0
0.582912 -0.019035 0.193642 255 220 0
0.574992 0.074709 0.298083 255 220 0
0.543289 0.030430 0.278070 255 220 0
0.591797 0.072630 0.288391 255 220 0
