ply
format ascii 1.0
element vertex 1024
property float x
property float y
property float z
property uchar red
property uchar green
property uchar blue
end_header
0.591474 -0.048847 0.050874 255 220 0
0.603076 0.034533 0.043402 255 220 0
0.657254 0.078165 0.097989 255 220 0
0.654922 0.046094 0.074017 255 220 0
0.622876 0.009094 0.047375 255 220 0
0.648491 0.015428 0.117499 255 220 0
0.602724 0.016120 0.039870 255 220 0
0.607602 0.084846 0.092478 255 220 0
0.614106 -0.009993 0.123155 255 220 0
0.636449 0.061014 0.060998 255 220 0
0.607099 0.084700 0.095815 255 220 0
0.599945 0.063043 0.123120 255 220 0
0.584745 0.052241 0.080988 255 220 0
0.565679 -0.012193 0.036099 255 220 0
0.617350 0.069191 0.059469 255 220 0
0.655439 0.043864 0.074622 255 220 0
0.652304 0.062766 0.075955 255 220 0
0.589372 0.005328 0.116254 255 220 0
0.562391 -0.021129 0.031670 255 220 0
0.581970 0.036573 0.058490 255 220 0
0.594554 -0.001407 0.036160 255 220 0
0.637042 0.078015 0.072354 255 220 0
0.643083 0.081428 0.130132 255 220 0
0.632527 0.091956 0.088502 255 220 0
0.626272 -0.005094 0.122021 255 220 0
0.580163 -0.017519 0.101550 255 220 0
0.629297 0.060728 0.057153 255 220 0
0.658669 0.052429 0.119829 255 220 0
0.570126 -0.003386 0.040036 255 220 0
0.635488 0.001853 0.120964 255 220 0
0.569725 -0.030387 0.083267 255 220 0
0.623438 -0.019938 0.110044 255 220 0
0.655215 0.053540 0.076145 255 220 0
0.557935 -0.030567 0.064089 255 220 0
0.616420 0.051669 0.049852 255 220 0
0.618268 -0.009952 0.047674 255 220 0
0.584280 0.028902 0.109879 255 220 0
0.553631 -0.027162 0.034988 255 220 0
0.578259 0.023333 0.097033 255 220 0
0.648813 0.090158 0.102922 255 220 0
0.613082 0.080474 0.072670 255 220 0
0.609559 -0.018197 0.043762 255 220 0
0.612257 0.021681 0.042218 255 220 0
0.604388 0.068778 0.125240 255 220 0
0.590706 -0.053068 0.069077 255 220 0
0.632008 -0.009511 0.060734 255 220 0
0.600863 0.065379 0.122980 255 220 0
0.656604 0.067198 0.124192 255 220 0
0.626145 -0.027363 0.072457 255 220 0
0.572284 -0.013140 0.090922 255 220 0
0.644401 0.091032 0.097036 255 220 0
0.633885 0.058969 0.058572 255 220 0
0.591838 -0.050393 0.055025 255 220 0
0.629863 0.073020 0.064815 255 220 0
0.593602 0.068621 0.083708 255 220 0
0.608977 -0.007520 0.124197 255 220 0
0.598719 0.037387 0.127441 255 220 0
0.606632 0.071913 0.065361 255 220 0
0.580481 -0.015513 0.031877 255 220 0
0.597907 -0.033701 0.104081 255 220 0
0.596540 0.002017 0.036991 255 220 0
0.572431 -0.012598 0.091210 255 220 0
0.575588 -0.031804 0.089634 255 220 0
0.626764 0.086361 0.077464 255 220 0
0.581667 -0.054031 0.072062 255 220 0
0.568401 0.004562 0.075223 255 220 0
0.602577 0.068543 0.123161 255 220 0
0.612966 -0.031282 0.054304 255 220 0
0.648377 0.091169 0.109353 255 220 0
0.604775 0.016065 0.130064 255 220 0
0.614564 0.035400 0.044470 255 220 0
0.586322 0.022354 0.044213 255 220 0
0.589980 -0.051534 0.077276 255 220 0
0.610031 0.013239 0.041170 255 220 0
0.582278 0.024617 0.106995 255 220 0
0.633323 -0.018353 0.095083 255 220 0
0.643595 0.092823 0.103028 255 220 0
0.574957 0.016184 0.091102 255 220 0
0.640348 -0.010134 0.094982 255 220 0
0.577592 -0.030326 0.030023 255 220 0
0.591444 0.010028 0.118902 255 220 0
0.563996 -0.046678 0.066663 255 220 0
0.612967 0.072684 0.063012 255 220 0
0.633192 0.030547 0.052394 255 220 0
0.574740 0.011996 0.092271 255 220 0
0.656450 0.024362 0.080281 255 220 0
0.605060 0.049735 0.131915 255 220 0
0.576577 0.023372 0.091966 255 220 0
0.600161 -0.046434 0.058572 255 220 0
0.597496 0.057269 0.122605 255 220 0
0.597386 0.048473 0.051210 255 220 0
0.652583 0.083910 0.095465 255 220 0
0.614504 0.055554 0.137021 255 220 0
0.627408 0.044530 0.050736 255 220 0
0.643449 0.084076 0.082852 255 220 0
0.607914 0.074876 0.124433 255 220 0
0.632333 -0.002840 0.119733 255 220 0
0.588061 0.023832 0.116281 255 220 0
0.627907 0.019352 0.049463 255 220 0
0.583750 -0.053487 0.053168 255 220 0
0.646540 0.042347 0.131477 255 220 0
0.658341 0.023293 0.100625 255 220 0
0.583262 -0.025414 0.031543 255 220 0
0.661390 0.057921 0.092828 255 220 0
0.633763 -0.019708 0.087145 255 220 0
0.592387 0.020251 0.120944 255 220 0
0.626106 0.057864 0.139461 255 220 0
0.609359 0.029677 0.042493 255 220 0
0.655866 0.015630 0.091026 255 220 0
0.631919 0.007043 0.126642 255 220 0
0.623741 0.003289 0.048713 255 220 0
0.596658 -0.000430 0.120957 255 220 0
0.563604 -0.018231 0.073154 255 220 0
0.625887 0.036564 0.048656 255 220 0
0.631379 0.048352 0.138633 255 220 0
0.642174 0.024686 0.129049 255 220 0
0.610548 0.075401 0.067014 255 220 0
0.568805 -0.031913 0.028161 255 220 0
0.597666 0.049373 0.051649 255 220 0
0.612546 0.086351 0.112565 255 220 0
0.647189 0.091834 0.108712 255 220 0
0.645720 0.000891 0.074853 255 220 0
0.591149 0.048964 0.056547 255 220 0
0.624576 0.093815 0.106759 255 220 0
0.605719 0.011068 0.129365 255 220 0
0.581732 0.005045 0.107828 255 220 0
0.595272 0.070169 0.081093 255 220 0
0.570453 -0.056374 0.056475 255 220 0
0.595771 -0.047354 0.053508 255 220 0
0.649451 0.005634 0.104072 255 220 0
0.661357 0.044148 0.088733 255 220 0
0.655745 0.030966 0.075615 255 220 0
0.551707 -0.035011 0.053718 255 220 0
0.613936 -0.036615 0.063172 255 220 0
0.597520 0.020170 0.125619 255 220 0
0.567514 -0.020255 0.030632 255 220 0
0.648922 0.088962 0.099117 255 220 0
0.622917 -0.031581 0.079958 255 220 0
0.561730 -0.027363 0.029218 255 220 0
0.572417 0.017689 0.061472 255 220 0
0.630260 -0.003268 0.120897 255 220 0
0.626501 -0.027390 0.073975 255 220 0
0.569368 0.009321 0.058300 255 220 0
0.657717 0.080133 0.113862 255 220 0
0.642042 0.077192 0.075189 255 220 0
0.578255 0.024833 0.096196 255 220 0
0.623854 -0.022371 0.105824 255 220 0
0.557825 -0.038456 0.063872 255 220 0
0.577243 -0.014621 0.031959 255 220 0
0.638127 0.000825 0.117697 255 220 0
0.578613 0.034385 0.088727 255 220 0
0.599056 0.021023 0.126978 255 220 0
0.598266 -0.026205 0.038601 255 220 0
0.585416 -0.047651 0.042890 255 220 0
0.584043 -0.002608 0.109650 255 220 0
0.607011 0.049941 0.133288 255 220 0
0.577091 0.020186 0.095341 255 220 0
0.563470 -0.005077 0.063712 255 220 0
0.654336 0.086031 0.106079 255 220 0
0.619680 0.000027 0.046572 255 220 0
0.569550 -0.013414 0.085244 255 220 0
0.635445 0.061579 0.060670 255 220 0
0.643807 0.046515 0.134196 255 220 0
0.568045 0.007027 0.064556 255 220 0
0.623287 0.074909 0.064447 255 220 0
0.609756 -0.041287 0.080889 255 220 0
0.576036 0.029505 0.078923 255 220 0
0.582927 0.027715 0.107346 255 220 0
0.630591 0.049182 0.138839 255 220 0
0.643255 0.069434 0.070712 255 220 0
0.643504 -0.002645 0.104563 255 220 0
0.646034 0.003666 0.109477 255 220 0
0.618171 0.072071 0.133746 255 220 0
0.649050 0.086208 0.121952 255 220 0
0.601402 0.051816 0.128558 255 220 0
0.644505 0.078832 0.130993 255 220 0
0.617795 0.006322 0.044743 255 220 0
0.578360 -0.000132 0.102540 255 220 0
0.629729 -0.024326 0.077180 255 220 0
0.615809 0.048150 0.048357 255 220 0
0.617211 0.034566 0.136971 255 220 0
0.634050 -0.013384 0.104721 255 220 0
0.605172 -0.019631 0.041223 255 220 0
0.631396 0.047567 0.138533 255 220 0
0.581040 -0.039289 0.089386 255 220 0
0.597781 0.020476 0.040578 255 220 0
0.628980 0.094367 0.098818 255 220 0
0.632049 0.005560 0.054338 255 220 0
0.631819 0.048400 0.138566 255 220 0
0.582777 0.009172 0.040381 255 220 0
0.571709 0.004295 0.086526 255 220 0
0.659758 0.032566 0.085181 255 220 0
0.599926 0.002222 0.123863 255 220 0
0.596819 -0.047268 0.054908 255 220 0
0.654441 0.013667 0.101278 255 220 0
0.653949 0.048406 0.072785 255 220 0
0.648041 0.039991 0.129612 255 220 0
0.614036 -0.022369 0.048977 255 220 0
0.598680 0.076373 0.092909 255 220 0
0.609672 0.027436 0.042198 255 220 0
0.657160 0.018944 0.093403 255 220 0
0.622004 0.081063 0.129223 255 220 0
0.593617 0.034293 0.122404 255 220 0
0.607863 0.051344 0.133727 255 220 0
0.660928 0.045927 0.112761 255 220 0
0.633418 -0.020270 0.085891 255 220 0
0.626370 0.085196 0.127051 255 220 0
0.590070 0.044540 0.115533 255 220 0
0.637390 0.086108 0.080529 255 220 0
0.618812 0.006708 0.129989 255 220 0
0.639593 0.094336 0.112027 255 220 0
0.647637 0.077810 0.129755 255 220 0
0.619336 -0.033651 0.086120 255 220 0
0.643019 -0.005530 0.099100 255 220 0
0.592152 0.044208 0.119244 255 220 0
0.603769 -0.046105 0.072913 255 220 0
0.662175 0.062431 0.099457 255 220 0
0.644882 -0.003390 0.098026 255 220 0
0.659306 0.076869 0.111515 255 220 0
0.605405 -0.041186 0.090049 255 220 0
0.624169 -0.010483 0.052716 255 220 0
0.574914 0.005110 0.042762 255 220 0
0.556471 -0.046919 0.038854 255 220 0
0.650810 0.087261 0.098604 255 220 0
0.602788 0.074146 0.117955 255 220 0
0.563600 -0.041029 0.070443 255 220 0
0.628055 -0.021009 0.065401 255 220 0
0.645096 0.025943 0.127247 255 220 0
0.633021 -0.005477 0.116781 255 220 0
0.595677 -0.017804 0.114182 255 220 0
0.647776 -0.000113 0.085689 255 220 0
0.568287 -0.055730 0.056454 255 220 0
0.567821 -0.015664 0.081793 255 220 0
0.586586 -0.054400 0.062316 255 220 0
0.580897 0.016459 0.106080 255 220 0
0.596271 0.023537 0.124865 255 220 0
0.626210 -0.020706 0.105160 255 220 0
0.620613 0.091311 0.090088 255 220 0
0.651957 0.070255 0.080372 255 220 0
0.663212 0.045394 0.098705 255 220 0
0.629197 -0.018958 0.103325 255 220 0
0.604364 0.017362 0.130090 255 220 0
0.629238 0.092795 0.090555 255 220 0
0.648155 0.064016 0.071898 255 220 0
0.621736 -0.032632 0.076315 255 220 0
0.657745 0.066805 0.122300 255 220 0
0.591762 0.065899 0.083894 255 220 0
0.565577 -0.001120 0.068609 255 220 0
0.639415 0.094411 0.111676 255 220 0
0.634026 0.084055 0.129897 255 220 0
0.603180 0.041412 0.131018 255 220 0
0.591153 -0.047573 0.085066 255 220 0
0.633245 -0.004060 0.058939 255 220 0
0.600065 0.061884 0.123878 255 220 0
0.646558 0.079200 0.129686 255 220 0
0.599494 0.077350 0.094937 255 220 0
0.577695 0.029644 0.060829 255 220 0
0.580673 -0.019913 0.101137 255 220 0
0.597086 -0.049666 0.074045 255 220 0
0.633972 0.036985 0.136300 255 220 0
0.620956 0.042965 0.047870 255 220 0
0.625376 0.043691 0.138582 255 220 0
0.598607 0.067616 0.117538 255 220 0
0.621042 0.003707 0.128351 255 220 0
0.606145 0.037975 0.132971 255 220 0
0.617760 0.023299 0.135511 255 220 0
0.603448 -0.042041 0.054991 255 220 0
0.608391 -0.003694 0.125628 255 220 0
0.579418 0.015640 0.103182 255 220 0
0.647054 0.090813 0.101275 255 220 0
0.611521 0.020855 0.133779 255 220 0
0.645824 0.081986 0.128405 255 220 0
0.578917 0.030206 0.057966 255 220 0
0.645421 0.061786 0.068036 255 220 0
0.590554 0.002133 0.116724 255 220 0
0.633696 -0.019790 0.079448 255 220 0
0.601614 0.075457 0.077124 255 220 0
0.608934 -0.039860 0.088538 255 220 0
0.633650 0.002515 0.122798 255 220 0
0.612732 0.032886 0.135673 255 220 0
0.594861 0.054460 0.119830 255 220 0
0.598830 -0.018141 0.037344 255 220 0
0.568393 -0.054847 0.059552 255 220 0
0.630697 0.044889 0.138273 255 220 0
0.618239 0.065116 0.056828 255 220 0
0.648232 0.032020 0.126789 255 220 0
0.585158 0.025211 0.046176 255 220 0
0.634903 0.087425 0.080939 255 220 0
0.556647 -0.016755 0.051177 255 220 0
0.579064 0.029532 0.095668 255 220 0
0.561639 -0.019686 0.069124 255 220 0
0.605480 -0.015076 0.119828 255 220 0
0.580209 0.033917 0.096147 255 220 0
0.604083 0.080094 0.083417 255 220 0
0.574116 -0.031069 0.029132 255 220 0
0.601869 0.057252 0.055016 255 220 0
0.643700 -0.000587 0.107812 255 220 0
0.590731 0.037555 0.118618 255 220 0
0.614885 0.064977 0.056787 255 220 0
0.625125 0.043495 0.138562 255 220 0
0.611650 0.041702 0.045654 255 220 0
0.606754 -0.012633 0.121389 255 220 0
0.591931 0.066077 0.096928 255 220 0
0.583581 -0.014459 0.032446 255 220 0
0.598977 0.070909 0.114426 255 220 0
0.586237 0.008799 0.113579 255 220 0
0.572208 -0.009929 0.090664 255 220 0
0.610233 0.018340 0.132863 255 220 0
0.581964 0.040712 0.096202 255 220 0
0.566978 -0.055681 0.051163 255 220 0
0.595188 -0.050350 0.061452 255 220 0
0.574599 -0.053895 0.046077 255 220 0
0.610838 0.065837 0.057991 255 220 0
0.631253 -0.022609 0.077884 255 220 0
0.641528 0.043567 0.058936 255 220 0
0.606612 -0.034859 0.102201 255 220 0
0.602543 0.001830 0.038304 255 220 0
0.652596 0.046763 0.127221 255 220 0
0.627696 -0.008302 0.055129 255 220 0
0.604600 0.080628 0.108985 255 220 0
0.610767 0.081320 0.075882 255 220 0
0.621561 0.012219 0.046324 255 220 0
0.619914 -0.010563 0.049110 255 220 0
0.654567 0.024866 0.114529 255 220 0
0.634967 -0.004034 0.116282 255 220 0
0.591360 -0.014893 0.034175 255 220 0
0.660860 0.051651 0.088740 255 220 0
0.620750 0.006518 0.129681 255 220 0
0.581145 -0.039593 0.033889 255 220 0
0.604151 0.076720 0.075329 255 220 0
0.603089 -0.046426 0.073956 255 220 0
0.590535 0.040227 0.117804 255 220 0
0.655501 0.082444 0.117080 255 220 0
0.637129 -0.015496 0.087768 255 220 0
0.626212 0.003666 0.050343 255 220 0
0.612826 0.085311 0.081776 255 220 0
0.613294 -0.014492 0.120628 255 220 0
0.580600 0.042272 0.080233 255 220 0
0.612285 0.046786 0.047507 255 220 0
0.625853 0.014445 0.132399 255 220 0
0.570691 -0.010975 0.087426 255 220 0
0.646682 0.007128 0.112656 255 220 0
0.564980 -0.000797 0.063338 255 220 0
0.559372 -0.048691 0.039118 255 220 0
0.623283 0.038928 0.047844 255 220 0
0.658319 0.022564 0.098005 255 220 0
0.629072 -0.025026 0.076775 255 220 0
0.598850 0.063917 0.120989 255 220 0
0.661736 0.049278 0.111493 255 220 0
0.642754 -0.006704 0.096328 255 220 0
0.591981 0.022004 0.120646 255 220 0
0.639769 0.093645 0.115240 255 220 0
0.559447 -0.026242 0.066071 255 220 0
0.572451 0.014840 0.083120 255 220 0
0.577981 -0.028121 0.094254 255 220 0
0.576386 0.030130 0.069800 255 220 0
0.564698 -0.053947 0.056225 255 220 0
0.582418 -0.055116 0.057985 255 220 0
0.575046 0.010902 0.093510 255 220 0
0.657527 0.080188 0.114619 255 220 0
0.648836 0.051049 0.066749 255 220 0
0.566217 -0.053073 0.060553 255 220 0
0.638717 0.067844 0.066243 255 220 0
0.563900 -0.038363 0.072122 255 220 0
0.570071 -0.025283 0.085462 255 220 0
0.659285 0.030619 0.107607 255 220 0
0.605287 0.016158 0.040226 255 220 0
0.656563 0.037640 0.118353 255 220 0
0.607015 0.083924 0.104946 255 220 0
0.603397 0.003019 0.126034 255 220 0
0.609140 -0.042616 0.073423 255 220 0
0.616668 0.089801 0.089855 255 220 0
0.642324 0.028322 0.130261 255 220 0
0.648962 0.011815 0.113630 255 220 0
0.588305 0.013712 0.116227 255 220 0
0.584082 0.032915 0.107758 255 220 0
0.647914 0.031280 0.064460 255 220 0
0.596209 0.013530 0.039195 255 220 0
0.603124 0.080466 0.088099 255 220 0
0.627775 0.094047 0.111577 255 220 0
0.609373 -0.032633 0.104156 255 220 0
0.598229 -0.007624 0.119895 255 220 0
0.644178 0.084077 0.083570 255 220 0
0.583262 0.017651 0.043935 255 220 0
0.655556 0.039887 0.120964 255 220 0
0.575902 0.028132 0.066614 255 220 0
0.654098 0.023096 0.075495 255 220 0
0.578496 0.033051 0.063619 255 220 0
0.549304 -0.032187 0.044516 255 220 0
0.657673 0.049978 0.121039 255 220 0
0.587124 -0.009087 0.033866 255 220 0
0.587724 0.055791 0.072934 255 220 0
0.628610 -0.021956 0.098160 255 220 0
0.597586 0.069659 0.112726 255 220 0
0.650763 0.087590 0.099318 255 220 0
0.661635 0.066798 0.101296 255 220 0
0.608505 0.061283 0.132295 255 220 0
0.598560 -0.005397 0.120831 255 220 0
0.593691 0.046235 0.120945 255 220 0
0.658900 0.072462 0.095755 255 220 0
0.579806 0.029537 0.055333 255 220 0
0.594017 -0.022444 0.035546 255 220 0
0.596974 0.074203 0.091201 255 220 0
0.653955 0.081069 0.093957 255 220 0
0.575640 0.013403 0.094251 255 220 0
0.604038 0.070478 0.065812 255 220 0
0.605217 0.078141 0.076527 255 220 0
0.607270 -0.011053 0.122280 255 220 0
0.578843 0.037510 0.079869 255 220 0
0.649185 0.074123 0.079821 255 220 0
0.585478 -0.017976 0.032381 255 220 0
0.559965 -0.026012 0.067053 255 220 0
0.585562 0.020578 0.113148 255 220 0
0.580592 0.029404 0.053815 255 220 0
0.589301 0.039243 0.050714 255 220 0
0.660356 0.058564 0.116837 255 220 0
0.612041 -0.001673 0.042301 255 220 0
0.606815 -0.040990 0.058501 255 220 0
0.559439 -0.018394 0.063121 255 220 0
0.620788 0.017183 0.045631 255 220 0
0.603301 0.049120 0.130605 255 220 0
0.630794 -0.023160 0.086551 255 220 0
0.660969 0.061924 0.114795 255 220 0
0.551527 -0.042546 0.040978 255 220 0
0.583757 -0.024406 0.101900 255 220 0
0.650591 0.045534 0.067650 255 220 0
0.586890 0.056412 0.093423 255 220 0
0.597539 -0.044190 0.089694 255 220 0
0.601181 0.058107 0.126713 255 220 0
0.563429 -0.036418 0.028431 255 220 0
0.639517 0.093763 0.100964 255 220 0
0.651315 0.066080 0.130576 255 220 0
0.645245 0.085277 0.126089 255 220 0
0.635893 0.069189 0.137392 255 220 0
0.621055 -0.033294 0.077383 255 220 0
0.552411 -0.042726 0.051685 255 220 0
0.648407 0.078252 0.082327 255 220 0
0.591140 0.059096 0.107597 255 220 0
0.662540 0.038459 0.099951 255 220 0
0.587392 -0.004256 0.112570 255 220 0
0.649738 0.080518 0.086257 255 220 0
0.607026 0.058807 0.131848 255 220 0
0.621832 0.092108 0.091995 255 220 0
0.652424 0.047153 0.070291 255 220 0
0.613214 -0.024603 0.049445 255 220 0
0.607749 0.083587 0.109115 255 220 0
0.585198 -0.045321 0.040125 255 220 0
0.632049 0.052449 0.138972 255 220 0
0.593997 0.034912 0.122792 255 220 0
0.610070 0.081657 0.118633 255 220 0
0.647287 0.021739 0.065379 255 220 0
0.577853 -0.030136 0.030089 255 220 0
0.662484 0.057393 0.109257 255 220 0
0.605828 0.054233 0.051675 255 220 0
0.615570 0.089111 0.089016 255 220 0
0.642452 -0.006291 0.099017 255 220 0
0.611166 -0.009892 0.042909 255 220 0
0.635930 -0.001124 0.060555 255 220 0
0.655452 0.065957 0.082653 255 220 0
0.601761 -0.047085 0.074820 255 220 0
0.603434 -0.039658 0.095491 255 220 0
0.650604 0.028299 0.068157 255 220 0
0.645263 0.038727 0.061565 255 220 0
0.576235 -0.032264 0.090030 255 220 0
0.602547 0.013839 0.128314 255 220 0
0.644129 0.080637 0.130156 255 220 0
0.551314 -0.026235 0.045009 255 220 0
0.577877 0.004889 0.040600 255 220 0
0.580607 0.023898 0.049558 255 220 0
0.616075 0.049014 0.048729 255 220 0
0.623712 0.065196 0.138170 255 220 0
0.606935 0.056743 0.052919 255 220 0
0.595327 -0.024771 0.036588 255 220 0
0.596018 -0.000364 0.120516 255 220 0
0.587134 0.008571 0.038836 255 220 0
0.595550 -0.008442 0.117888 255 220 0
0.660439 0.060841 0.091134 255 220 0
0.659124 0.054148 0.084659 255 220 0
0.595433 0.064350 0.068613 255 220 0
0.576200 0.028788 0.083511 255 220 0
0.662130 0.063412 0.100225 255 220 0
0.602665 0.064176 0.125877 255 220 0
0.617667 0.024928 0.135792 255 220 0
0.588538 0.059805 0.080899 255 220 0
0.627609 0.081189 0.071392 255 220 0
0.582478 -0.052507 0.049018 255 220 0
0.572079 -0.038639 0.081528 255 220 0
0.577345 0.019117 0.050230 255 220 0
0.636137 0.049555 0.137786 255 220 0
0.603762 -0.004936 0.123704 255 220 0
0.651958 0.051360 0.070520 255 220 0
0.621589 0.092883 0.105450 255 220 0
0.602845 -0.046731 0.072050 255 220 0
0.631456 0.048334 0.138618 255 220 0
0.599866 -0.046838 0.080688 255 220 0
0.572908 0.012851 0.086411 255 220 0
0.618218 0.030227 0.044754 255 220 0
0.660389 0.029019 0.096964 255 220 0
0.557002 -0.023897 0.060147 255 220 0
0.624724 -0.015863 0.113874 255 220 0
0.626902 -0.007248 0.120144 255 220 0
0.561960 -0.039527 0.069164 255 220 0
0.577609 -0.018020 0.031075 255 220 0
0.627331 -0.027195 0.078524 255 220 0
0.580182 0.033769 0.096172 255 220 0
0.579630 0.029182 0.097610 255 220 0
0.603989 0.051715 0.050669 255 220 0
0.592060 0.066569 0.095479 255 220 0
0.634150 0.041685 0.053764 255 220 0
0.617406 0.046783 0.138006 255 220 0
0.595021 -0.050623 0.074243 255 220 0
0.559674 -0.010883 0.053583 255 220 0
0.579241 -0.046236 0.037318 255 220 0
0.624731 -0.024830 0.099608 255 220 0
0.582024 -0.047651 0.081887 255 220 0
0.552176 -0.038307 0.054288 255 220 0
0.660909 0.065043 0.114426 255 220 0
0.585156 -0.031397 0.098742 255 220 0
0.595836 0.010355 0.122735 255 220 0
0.659287 0.038212 0.082248 255 220 0
0.619947 0.060645 0.054496 255 220 0
0.610644 0.059296 0.053771 255 220 0
0.598142 -0.018960 0.037101 255 220 0
0.655278 0.076075 0.090635 255 220 0
0.580402 -0.010055 0.104026 255 220 0
0.608710 -0.042917 0.072997 255 220 0
0.646716 0.091338 0.114459 255 220 0
0.593270 0.067425 0.080897 255 220 0
0.625671 -0.028650 0.075614 255 220 0
0.565147 -0.023145 0.029880 255 220 0
0.564184 -0.002723 0.050416 255 220 0
0.618181 -0.016881 0.050071 255 220 0
0.598728 -0.047379 0.058454 255 220 0
0.638219 0.091334 0.121333 255 220 0
0.631833 0.005618 0.125843 255 220 0
0.643276 0.068402 0.070075 255 220 0
0.575862 0.026665 0.085411 255 220 0
0.597251 0.043100 0.048142 255 220 0
0.579315 0.026103 0.052987 255 220 0
0.558365 -0.044477 0.061695 255 220 0
0.614261 0.044825 0.046953 255 220 0
0.586222 0.024277 0.045062 255 220 0
0.606175 -0.028300 0.045161 255 220 0
0.601514 0.000714 0.124385 255 220 0
0.655444 0.033007 0.118022 255 220 0
0.637991 -0.008710 0.069634 255 220 0
0.585304 0.036278 0.109005 255 220 0
0.594184 0.054103 0.118803 255 220 0
0.623518 0.050241 0.139163 255 220 0
0.641633 0.019722 0.059654 255 220 0
0.589063 0.059232 0.075844 255 220 0
0.638214 -0.011872 0.097888 255 220 0
0.586474 0.032961 0.112903 255 220 0
0.595716 0.002125 0.036881 255 220 0
0.551264 -0.042955 0.045784 255 220 0
0.601768 -0.000612 0.037950 255 220 0
0.563476 -0.013523 0.071502 255 220 0
0.631747 0.002168 0.054997 255 220 0
0.657916 0.033965 0.113798 255 220 0
0.641837 -0.002797 0.070614 255 220 0
0.632878 -0.018729 0.095362 255 220 0
0.632199 -0.021811 0.084709 255 220 0
0.602105 0.034874 0.130207 255 220 0
0.566892 -0.002102 0.075348 255 220 0
0.625904 -0.023981 0.099190 255 220 0
0.569530 0.000385 0.081935 255 220 0
0.635109 0.073367 0.136115 255 220 0
0.634476 0.013353 0.128848 255 220 0
0.615858 0.063729 0.055970 255 220 0
0.602910 0.012385 0.128220 255 220 0
0.630292 0.091660 0.087193 255 220 0
0.655529 0.049741 0.075718 255 220 0
0.581658 -0.038957 0.033833 255 220 0
0.612166 0.080837 0.073863 255 220 0
0.644261 0.014746 0.063700 255 220 0
0.581647 0.012477 0.042443 255 220 0
0.556810 -0.042887 0.060580 255 220 0
0.592020 0.031970 0.045215 255 220 0
0.618032 -0.028259 0.057891 255 220 0
0.615948 0.081600 0.072818 255 220 0
0.646339 0.007895 0.069839 255 220 0
0.613570 0.068499 0.059356 255 220 0
0.579224 -0.033101 0.092419 255 220 0
0.622119 0.092677 0.108920 255 220 0
0.569370 -0.016032 0.085096 255 220 0
0.586404 0.011582 0.114004 255 220 0
0.567781 -0.019280 0.081991 255 220 0
0.594876 -0.029019 0.106927 255 220 0
0.616875 -0.030550 0.058796 255 220 0
0.607414 0.084271 0.089603 255 220 0
0.629563 0.026155 0.050192 255 220 0
0.608681 -0.039415 0.090349 255 220 0
0.632509 -0.012926 0.064239 255 220 0
0.640981 0.018869 0.059192 255 220 0
0.603319 0.081348 0.095639 255 220 0
0.643590 -0.001610 0.106313 255 220 0
0.617389 -0.012017 0.047612 255 220 0
0.589955 -0.012827 0.112231 255 220 0
0.612077 -0.012962 0.121659 255 220 0
0.632334 0.021879 0.052110 255 220 0
0.553636 -0.021852 0.043397 255 220 0
0.634139 0.054111 0.056781 255 220 0
0.598337 0.023434 0.126641 255 220 0
0.639220 0.094308 0.104126 255 220 0
0.630185 0.019794 0.050846 255 220 0
0.612721 -0.023504 0.113669 255 220 0
0.557281 -0.029519 0.062704 255 220 0
0.662723 0.043312 0.104686 255 220 0
0.656180 0.016376 0.091607 255 220 0
0.606236 0.033204 0.132818 255 220 0
0.577934 -0.050313 0.041227 255 220 0
0.648674 0.067838 0.074821 255 220 0
0.603707 0.023021 0.130518 255 220 0
0.617933 0.068752 0.135199 255 220 0
0.580992 -0.009702 0.033412 255 220 0
0.626800 0.084259 0.128196 255 220 0
0.638426 0.044582 0.136273 255 220 0
0.595772 -0.042555 0.046304 255 220 0
0.645931 0.009167 0.115888 255 220 0
0.643432 0.080908 0.079527 255 220 0
0.577534 -0.002126 0.101092 255 220 0
0.656320 0.082745 0.103622 255 220 0
0.581789 0.011801 0.042041 255 220 0
0.589218 -0.022935 0.107189 255 220 0
0.583704 -0.020779 0.103670 255 220 0
0.582968 0.046817 0.073520 255 220 0
0.633453 -0.012879 0.106698 255 220 0
0.626543 -0.026339 0.091226 255 220 0
0.638217 0.043096 0.056529 255 220 0
0.637975 0.028977 0.132998 255 220 0
0.569380 -0.048528 0.070503 255 220 0
0.614978 0.025801 0.043289 255 220 0
0.652623 0.068422 0.079970 255 220 0
0.622458 -0.027733 0.097348 255 220 0
0.647750 0.079690 0.082866 255 220 0
0.586481 0.055281 0.093973 255 220 0
0.645286 0.038019 0.061564 255 220 0
0.589643 -0.045516 0.087932 255 220 0
0.652866 0.080188 0.090721 255 220 0
0.620735 0.092630 0.098810 255 220 0
0.565776 -0.007558 0.075073 255 220 0
0.569512 0.010909 0.067686 255 220 0
0.633757 0.005672 0.055730 255 220 0
0.577157 -0.055931 0.065074 255 220 0
0.637518 0.070469 0.067106 255 220 0
0.623551 0.089228 0.082541 255 220 0
0.567259 -0.049528 0.036884 255 220 0
0.607330 -0.042795 0.064010 255 220 0
0.642599 0.090558 0.093115 255 220 0
0.617719 -0.031126 0.097886 255 220 0
0.580754 -0.015980 0.031806 255 220 0
0.649897 0.005955 0.103193 255 220 0
0.636644 0.042626 0.136521 255 220 0
0.582949 0.045235 0.069198 255 220 0
0.649943 0.089554 0.103671 255 220 0
0.585453 0.014806 0.041664 255 220 0
0.588077 -0.050813 0.050965 255 220 0
0.557137 -0.035604 0.030243 255 220 0
0.585897 -0.043001 0.038592 255 220 0
0.613277 -0.011998 0.044668 255 220 0
0.577124 0.032369 0.071591 255 220 0
0.648841 0.009173 0.073579 255 220 0
0.592292 0.061347 0.108500 255 220 0
0.633526 0.021209 0.132605 255 220 0
0.598507 0.075487 0.086638 255 220 0
0.562389 -0.021060 0.031709 255 220 0
0.602174 -0.026592 0.111444 255 220 0
0.559835 -0.026087 0.066810 255 220 0
0.602910 0.050393 0.050206 255 220 0
0.582269 -0.012811 0.105349 255 220 0
0.569986 0.011675 0.061415 255 220 0
0.596242 0.029341 0.125125 255 220 0
0.623706 0.055836 0.053021 255 220 0
0.652913 0.011209 0.082502 255 220 0
0.607551 0.072929 0.065899 255 220 0
0.556515 -0.017902 0.053228 255 220 0
0.601615 -0.005440 0.037789 255 220 0
0.628577 -0.000370 0.053055 255 220 0
0.631381 0.059969 0.057743 255 220 0
0.608761 0.057714 0.133374 255 220 0
0.654690 0.023829 0.076344 255 220 0
0.643012 0.005079 0.066361 255 220 0
0.639155 0.027251 0.131878 255 220 0
0.659637 0.042451 0.083415 255 220 0
0.611970 -0.001487 0.126929 255 220 0
0.555642 -0.028773 0.031943 255 220 0
0.564640 -0.001174 0.061234 255 220 0
0.628585 -0.018906 0.063854 255 220 0
0.572481 -0.033028 0.028889 255 220 0
0.590428 0.062034 0.100292 255 220 0
0.660286 0.054886 0.116755 255 220 0
0.645826 0.091231 0.100307 255 220 0
0.648240 0.011180 0.071080 255 220 0
0.624602 0.090143 0.084168 255 220 0
0.637886 -0.001410 0.115739 255 220 0
0.636014 0.047831 0.137569 255 220 0
0.632485 0.039099 0.052466 255 220 0
0.604408 0.035876 0.043719 255 220 0
0.564922 -0.042280 0.071207 255 220 0
0.655572 0.033543 0.074780 255 220 0
0.620437 0.043743 0.138331 255 220 0
0.565074 -0.036639 0.028397 255 220 0
0.623116 -0.008568 0.051068 255 220 0
0.578952 0.029501 0.095340 255 220 0
0.594139 0.064150 0.070813 255 220 0
0.638752 0.052312 0.058968 255 220 0
0.552346 -0.024136 0.044923 255 220 0
0.586081 -0.043994 0.088331 255 220 0
0.608340 0.012794 0.040633 255 220 0
0.641618 -0.007895 0.097313 255 220 0
0.608343 -0.037805 0.095160 255 220 0
0.549158 -0.033868 0.045586 255 220 0
0.592959 0.009366 0.038336 255 220 0
0.623230 0.004038 0.128049 255 220 0
0.587303 0.056467 0.096275 255 220 0
0.587996 -0.043501 0.040466 255 220 0
0.573188 0.009123 0.047802 255 220 0
0.606336 0.084008 0.099296 255 220 0
0.629839 -0.006447 0.056423 255 220 0
0.651507 0.034497 0.124226 255 220 0
0.599022 0.073711 0.109382 255 220 0
0.650912 0.081151 0.125136 255 220 0
0.616422 0.019860 0.134602 255 220 0
0.580766 0.040576 0.090535 255 220 0
0.593622 -0.001943 0.118329 255 220 0
0.641725 0.054087 0.061615 255 220 0
0.568043 -0.027372 0.081691 255 220 0
0.636605 0.089697 0.085427 255 220 0
0.628164 0.074220 0.135647 255 220 0
0.583901 -0.002691 0.109483 255 220 0
0.627936 0.048089 0.138982 255 220 0
0.556499 -0.031065 0.061662 255 220 0
0.643587 0.093127 0.104909 255 220 0
0.656214 0.052992 0.124117 255 220 0
0.609282 0.086175 0.102385 255 220 0
0.647490 0.045557 0.064254 255 220 0
0.654086 0.080435 0.121921 255 220 0
0.614793 0.070804 0.132646 255 220 0
0.582596 -0.018293 0.103749 255 220 0
0.593819 0.057863 0.062438 255 220 0
0.566741 -0.011536 0.078682 255 220 0
0.640823 0.069164 0.136153 255 220 0
0.647153 0.001163 0.078560 255 220 0
0.658003 0.072791 0.120053 255 220 0
0.568363 -0.022124 0.029814 255 220 0
0.606701 0.070887 0.064165 255 220 0
0.603915 -0.011338 0.121203 255 220 0
0.651391 0.083977 0.093296 255 220 0
0.598953 0.012422 0.125551 255 220 0
0.645229 0.010282 0.066751 255 220 0
0.621153 0.086888 0.121907 255 220 0
0.582989 -0.036713 0.093035 255 220 0
0.660731 0.053208 0.088811 255 220 0
0.556971 -0.015577 0.047783 255 220 0
0.597148 -0.007198 0.036231 255 220 0
0.645949 0.024913 0.126035 255 220 0
0.554579 -0.026626 0.056423 255 220 0
0.588490 0.037671 0.115132 255 220 0
0.575199 0.023903 0.060576 255 220 0
0.637677 0.072454 0.136041 255 220 0
0.599288 0.048203 0.127118 255 220 0
0.597835 -0.005797 0.036505 255 220 0
0.620074 0.087393 0.080350 255 220 0
0.634273 -0.016881 0.073033 255 220 0
0.641933 -0.008187 0.094584 255 220 0
0.644560 0.006493 0.115271 255 220 0
0.636641 0.043718 0.055587 255 220 0
0.592988 -0.014102 0.114037 255 220 0
0.655832 0.045385 0.075516 255 220 0
0.566852 -0.011593 0.078949 255 220 0
0.599011 -0.020852 0.037846 255 220 0
0.552201 -0.036268 0.034848 255 220 0
0.578812 0.037388 0.077107 255 220 0
0.594636 0.040188 0.047785 255 220 0
0.589455 0.008476 0.116820 255 220 0
0.587823 -0.005502 0.112661 255 220 0
0.565960 -0.031237 0.028006 255 220 0
0.656083 0.016106 0.096464 255 220 0
0.639859 0.046495 0.136064 255 220 0
0.573817 -0.039613 0.082599 255 220 0
0.578869 0.036786 0.084910 255 220 0
0.641524 -0.003614 0.107311 255 220 0
0.571583 -0.056282 0.052434 255 220 0
0.565728 -0.007579 0.074945 255 220 0
0.609530 0.076444 0.124646 255 220 0
0.574302 0.022130 0.061277 255 220 0
0.651949 0.046391 0.069519 255 220 0
0.603950 -0.041345 0.054624 255 220 0
0.605023 -0.040329 0.054643 255 220 0
0.632430 0.018492 0.052448 255 220 0
0.593866 0.068163 0.080615 255 220 0
0.581227 0.043543 0.085715 255 220 0
0.580653 0.024439 0.103095 255 220 0
0.613831 0.018872 0.133944 255 220 0
0.659318 0.047315 0.117110 255 220 0
0.640382 -0.004816 0.107599 255 220 0
0.588059 -0.008443 0.112085 255 220 0
0.574827 0.025963 0.069713 255 220 0
0.650501 0.004459 0.095048 255 220 0
0.592700 -0.016384 0.112882 255 220 0
0.617808 0.044210 0.047364 255 220 0
0.663149 0.055563 0.100798 255 220 0
0.586711 0.044111 0.107707 255 220 0
0.612310 -0.039582 0.081156 255 220 0
0.640669 0.033289 0.132751 255 220 0
0.620043 0.074927 0.064165 255 220 0
0.655603 0.017367 0.103499 255 220 0
0.613012 -0.036931 0.090202 255 220 0
0.659596 0.070994 0.096451 255 220 0
0.639143 0.077179 0.133732 255 220 0
0.593688 -0.042405 0.092946 255 220 0
0.620602 -0.023090 0.108781 255 220 0
0.573569 0.020618 0.061823 255 220 0
0.573995 -0.006913 0.094326 255 220 0
0.595225 -0.044323 0.047861 255 220 0
0.569767 -0.046561 0.072836 255 220 0
0.659895 0.028081 0.091865 255 220 0
0.578593 -0.056290 0.063387 255 220 0
0.645173 0.087955 0.123031 255 220 0
0.611830 -0.036465 0.093797 255 220 0
0.649869 0.075224 0.129364 255 220 0
0.613047 0.037209 0.136103 255 220 0
0.631165 -0.009483 0.059618 255 220 0
0.651776 0.006650 0.094701 255 220 0
0.655363 0.078089 0.093037 255 220 0
0.590200 -0.029541 0.034904 255 220 0
0.553590 -0.045402 0.040851 255 220 0
0.639502 0.089389 0.087028 255 220 0
0.581203 -0.053878 0.051560 255 220 0
0.585868 0.008901 0.113183 255 220 0
0.650735 0.022893 0.119453 255 220 0
0.648518 0.007119 0.074639 255 220 0
0.588978 0.030252 0.117130 255 220 0
0.621156 0.070777 0.060783 255 220 0
0.602975 0.017744 0.040126 255 220 0
0.611028 -0.032652 0.053283 255 220 0
0.612846 0.013458 0.042157 255 220 0
0.612888 0.017576 0.133428 255 220 0
0.593127 0.043673 0.120764 255 220 0
0.652676 0.019186 0.113616 255 220 0
0.641918 -0.008975 0.085244 255 220 0
0.563649 -0.005505 0.065520 255 220 0
0.633308 0.091990 0.088893 255 220 0
0.614996 0.080705 0.071966 255 220 0
0.659092 0.076067 0.101641 255 220 0
0.574678 0.017119 0.052933 255 220 0
0.582037 0.027431 0.105292 255 220 0
0.625029 -0.017603 0.111402 255 220 0
0.595949 0.063151 0.116151 255 220 0
0.610856 0.035507 0.135177 255 220 0
0.648466 0.047934 0.065637 255 220 0
0.661852 0.043905 0.090492 255 220 0
0.636045 -0.001039 0.118085 255 220 0
0.580477 0.034713 0.059700 255 220 0
0.593256 0.049470 0.054812 255 220 0
0.610674 0.049541 0.048649 255 220 0
0.579511 0.033523 0.093976 255 220 0
0.595042 0.033387 0.123955 255 220 0
0.636080 0.029883 0.134087 255 220 0
0.651124 0.006556 0.099355 255 220 0
0.629260 0.051051 0.139163 255 220 0
0.557910 -0.013842 0.049128 255 220 0
0.606552 0.082811 0.108015 255 220 0
0.608305 0.059190 0.132721 255 220 0
0.614108 0.037494 0.044821 255 220 0
0.607156 0.049512 0.133417 255 220 0
0.585617 0.014215 0.113217 255 220 0
0.595085 0.062227 0.114998 255 220 0
0.559639 -0.051989 0.048688 255 220 0
0.591408 -0.028442 0.035278 255 220 0
0.570942 -0.004322 0.038761 255 220 0
0.621680 0.006621 0.129587 255 220 0
0.592627 0.026611 0.121455 255 220 0
0.612129 0.038274 0.135853 255 220 0
0.590380 -0.009217 0.113776 255 220 0
0.556533 -0.017804 0.053120 255 220 0
0.617511 0.071565 0.061276 255 220 0
0.591555 0.043287 0.051582 255 220 0
0.605028 0.081992 0.087535 255 220 0
0.627353 0.082225 0.130244 255 220 0
0.639148 0.092827 0.117990 255 220 0
0.577332 -0.055813 0.065579 255 220 0
0.607464 0.019105 0.131963 255 220 0
0.577799 0.032863 0.086380 255 220 0
0.586793 -0.041222 0.037879 255 220 0
0.590659 0.029249 0.119251 255 220 0
0.655006 0.081353 0.096719 255 220 0
0.605180 0.065579 0.127846 255 220 0
0.558758 -0.014086 0.042469 255 220 0
0.621761 0.028895 0.136722 255 220 0
0.579497 0.010255 0.104203 255 220 0
0.645156 -0.002931 0.079928 255 220 0
0.612801 -0.039869 0.071300 255 220 0
0.661146 0.064563 0.096085 255 220 0
0.599267 -0.028643 0.040018 255 220 0
0.611937 0.033750 0.043631 255 220 0
0.605222 -0.044522 0.078389 255 220 0
0.580014 -0.034048 0.092501 255 220 0
0.655194 0.019892 0.108488 255 220 0
0.568206 -0.023354 0.082654 255 220 0
0.654236 0.066307 0.080909 255 220 0
0.615766 0.035266 0.044733 255 220 0
0.620350 0.002717 0.046605 255 220 0
0.644721 0.014190 0.121336 255 220 0
0.621160 0.072027 0.134987 255 220 0
0.566988 -0.004220 0.042184 255 220 0
0.566219 -0.031257 0.028008 255 220 0
0.576688 -0.040007 0.032138 255 220 0
0.623443 0.078234 0.132084 255 220 0
0.569113 -0.039693 0.029699 255 220 0
0.648125 0.029616 0.064889 255 220 0
0.572549 0.019362 0.066773 255 220 0
0.570616 0.003628 0.083708 255 220 0
0.593180 0.064629 0.074016 255 220 0
0.660843 0.066391 0.096459 255 220 0
0.587068 -0.003218 0.035167 255 220 0
0.651093 0.019299 0.071747 255 220 0
0.589795 0.034247 0.117810 255 220 0
0.615881 0.076156 0.065835 255 220 0
0.645445 0.042719 0.132338 255 220 0
0.645942 -0.002169 0.097016 255 220 0
0.596674 -0.009696 0.035991 255 220 0
0.634877 0.081728 0.131670 255 220 0
0.637430 -0.012439 0.098824 255 220 0
0.609770 0.076451 0.068909 255 220 0
0.585693 -0.054883 0.066695 255 220 0
0.658159 0.021888 0.094558 255 220 0
0.632802 0.055130 0.056426 255 220 0
0.556104 -0.029504 0.031325 255 220 0
0.561038 -0.017584 0.066938 255 220 0
0.626093 0.011343 0.130965 255 220 0
0.605533 0.005752 0.127812 255 220 0
0.579454 0.038271 0.085994 255 220 0
0.649051 0.084881 0.123530 255 220 0
0.644051 -0.005448 0.082545 255 220 0
0.571386 -0.007585 0.036341 255 220 0
0.639610 0.000786 0.115981 255 220 0
0.588537 0.047099 0.058180 255 220 0
0.601631 0.051673 0.128796 255 220 0
0.646640 0.074883 0.131676 255 220 0
0.592905 -0.051320 0.075085 255 220 0
0.623902 -0.004990 0.050603 255 220 0
0.628592 0.084643 0.128401 255 220 0
0.564657 -0.003010 0.066699 255 220 0
0.604452 0.055772 0.130462 255 220 0
0.643845 -0.004751 0.079128 255 220 0
0.652080 0.078078 0.126022 255 220 0
0.586388 -0.053915 0.058847 255 220 0
0.638797 0.022121 0.056811 255 220 0
0.576313 0.030321 0.079021 255 220 0
0.660572 0.071376 0.101429 255 220 0
0.619651 -0.020469 0.053426 255 220 0
0.650922 0.006188 0.083616 255 220 0
0.608239 0.045698 0.134260 255 220 0
0.576013 -0.038708 0.085424 255 220 0
0.645171 -0.003485 0.081690 255 220 0
0.642835 0.063119 0.066598 255 220 0
0.552651 -0.043813 0.050696 255 220 0
0.636585 0.058049 0.059734 255 220 0
0.648818 0.030715 0.065553 255 220 0
0.641238 -0.008764 0.095919 255 220 0
0.595727 -0.050769 0.068734 255 220 0
0.637757 0.052205 0.058297 255 220 0
0.567344 -0.025138 0.080909 255 220 0
0.609746 0.015894 0.041201 255 220 0
0.620879 0.092506 0.096508 255 220 0
0.551018 -0.039272 0.038223 255 220 0
0.634885 -0.007718 0.112164 255 220 0
0.630246 -0.018014 0.065704 255 220 0
0.611005 0.087495 0.094932 255 220 0
0.618832 0.044209 0.138120 255 220 0
0.654967 0.084232 0.102187 255 220 0
0.574225 -0.025002 0.091496 255 220 0
0.557582 -0.020681 0.059661 255 220 0
0.566534 0.001863 0.052379 255 220 0
0.643179 -0.000215 0.109428 255 220 0
0.631328 -0.022852 0.084033 255 220 0
0.606476 0.079432 0.116528 255 220 0
0.608868 0.086064 0.099466 255 220 0
0.588484 -0.024646 0.105682 255 220 0
0.626671 0.027352 0.136124 255 220 0
0.630026 -0.018910 0.066396 255 220 0
0.608479 0.033757 0.043218 255 220 0
0.644960 0.051218 0.134428 255 220 0
0.655999 0.065534 0.083321 255 220 0
0.647645 0.089837 0.099138 255 220 0
0.595986 -0.014875 0.115715 255 220 0
0.663282 0.054263 0.103583 255 220 0
0.598469 -0.009042 0.119528 255 220 0
0.635206 0.007986 0.125413 255 220 0
0.628637 0.094740 0.104334 255 220 0
0.614662 -0.035028 0.061589 255 220 0
0.575759 -0.000783 0.038436 255 220 0
0.587188 0.031248 0.114499 255 220 0
0.632787 -0.018170 0.097184 255 220 0
0.625787 -0.001122 0.051046 255 220 0
0.578852 -0.007172 0.102604 255 220 0
0.585486 -0.038245 0.035413 255 220 0
0.606308 0.077310 0.119605 255 220 0
0.645123 0.002784 0.110030 255 220 0
0.578824 -0.004862 0.035384 255 220 0
0.646769 0.079476 0.081542 255 220 0
0.631922 -0.018172 0.099360 255 220 0
0.657977 0.060346 0.084304 255 220 0
0.631868 0.095094 0.107023 255 220 0
0.561825 -0.053402 0.048499 255 220 0
0.597403 0.068502 0.113877 255 220 0
0.637082 0.075588 0.134904 255 220 0
0.609734 0.004514 0.128750 255 220 0
0.602964 -0.026895 0.041973 255 220 0
0.631084 0.038907 0.137317 255 220 0
0.601051 -0.035094 0.044763 255 220 0
0.562952 -0.009718 0.067647 255 220 0
0.551771 -0.025911 0.041034 255 220 0
0.566710 -0.051134 0.064441 255 220 0
0.584448 0.009419 0.111572 255 220 0
0.611660 0.022085 0.042086 255 220 0
0.589355 -0.031206 0.102026 255 220 0
0.638187 0.002438 0.119083 255 220 0
0.582897 0.046184 0.071950 255 220 0
0.570686 -0.039273 0.029882 255 220 0
0.662435 0.038896 0.102202 255 220 0
0.633529 -0.010833 0.109799 255 220 0
0.659572 0.042630 0.083267 255 220 0
