ply
format ascii 1.0
element vertex 1024
property float x
property float y
property float z
property uchar red
property uchar green
property uchar blue
end_header
0.582208 -0.058035 0.036166 255 220 0
0.596471 0.020783 0.009203 255 220 0
0.644325 0.077521 0.057261 255 220 0
0.644315 0.040362 0.042167 255 220 0
0.615058 -0.002574 0.022009 255 220 0
0.631822 0.021768 0.090856 255 220 0
0.596162 0.002077 0.010470 255 220 0
0.595913 0.082022 0.043987 255 220 0
0.596453 -0.001738 0.098408 255 220 0
0.627947 0.051251 0.023542 255 220 0
0.594993 0.082729 0.047159 255 220 0
0.584005 0.068699 0.077951 255 220 0
0.573968 0.047312 0.038394 255 220 0
0.559272 -0.026666 0.009387 255 220 0
0.609373 0.058554 0.017572 255 220 0
0.644704 0.038366 0.043382 255 220 0
0.641839 0.056945 0.039440 255 220 0
0.573119 0.011035 0.084754 255 220 0
0.556370 -0.036474 0.007004 255 220 0
0.573691 0.026382 0.020474 255 220 0
0.588141 -0.015905 0.010350 255 220 0
0.627485 0.070596 0.030166 255 220 0
0.626316 0.088740 0.085446 255 220 0
0.621288 0.088153 0.041518 255 220 0
0.608770 0.002842 0.097613 255 220 0
0.565327 -0.014914 0.075320 255 220 0
0.621328 0.049911 0.019024 255 220 0
0.642433 0.058245 0.084941 255 220 0
0.563382 -0.017097 0.011478 255 220 0
0.618195 0.009388 0.095994 255 220 0
0.556983 -0.032145 0.059755 255 220 0
0.607134 -0.014602 0.089559 255 220 0
0.644501 0.048107 0.042344 255 220 0
0.547685 -0.037354 0.039924 255 220 0
0.609273 0.039145 0.012705 255 220 0
0.610034 -0.020959 0.026570 255 220 0
0.569381 0.032136 0.071984 255 220 0
0.547135 -0.041554 0.010614 255 220 0
0.564895 0.023401 0.060328 255 220 0
0.635598 0.090283 0.057861 255 220 0
0.603733 0.072789 0.026808 255 220 0
0.601706 -0.030026 0.023820 255 220 0
0.605446 0.008158 0.012509 255 220 0
0.588271 0.074834 0.079084 255 220 0
0.579076 -0.057468 0.054595 255 220 0
0.622037 -0.017040 0.040717 255 220 0
0.584984 0.070932 0.077338 255 220 0
0.640161 0.073615 0.085094 255 220 0
0.614364 -0.031364 0.055765 255 220 0
0.558938 -0.013486 0.063017 255 220 0
0.631977 0.089574 0.051437 255 220 0
0.625664 0.048625 0.021413 255 220 0
0.582016 -0.058464 0.040585 255 220 0
0.621199 0.063760 0.023304 255 220 0
0.582770 0.063940 0.037945 255 220 0
0.591290 0.000863 0.098128 255 220 0
0.581688 0.044990 0.088483 255 220 0
0.598064 0.062574 0.021169 255 220 0
0.574411 -0.030792 0.008061 255 220 0
0.582257 -0.029713 0.084121 255 220 0
0.590081 -0.012361 0.010525 255 220 0
0.559059 -0.012887 0.063174 255 220 0
0.561970 -0.031821 0.066961 255 220 0
0.616832 0.079857 0.031635 255 220 0
0.569715 -0.057735 0.056557 255 220 0
0.557438 -0.000432 0.042961 255 220 0
0.586731 0.074055 0.076921 255 220 0
0.603480 -0.039940 0.037695 255 220 0
0.634381 0.092900 0.063713 255 220 0
0.586901 0.025116 0.097203 255 220 0
0.607751 0.022021 0.011461 255 220 0
0.579485 0.009033 0.010966 255 220 0
0.577362 -0.053896 0.061971 255 220 0
0.603184 -0.000295 0.013376 255 220 0
0.567662 0.027234 0.070059 255 220 0
0.618847 -0.016788 0.076065 255 220 0
0.630466 0.092829 0.056623 255 220 0
0.562207 0.014936 0.056048 255 220 0
0.626007 -0.008791 0.074762 255 220 0
0.571455 -0.045617 0.009696 255 220 0
0.574944 0.016278 0.086355 255 220 0
0.553023 -0.052203 0.047268 255 220 0
0.604658 0.062788 0.019522 255 220 0
0.625130 0.019562 0.022653 255 220 0
0.561754 0.011185 0.058210 255 220 0
0.644572 0.020973 0.053908 255 220 0
0.587687 0.058140 0.090425 255 220 0
0.563862 0.022124 0.055248 255 220 0
0.589914 -0.053638 0.044030 255 220 0
0.581515 0.062958 0.078620 255 220 0
0.590154 0.036193 0.012412 255 220 0
0.640134 0.082377 0.052785 255 220 0
0.596542 0.065176 0.095031 255 220 0
0.619906 0.032591 0.016765 255 220 0
0.632657 0.079211 0.039495 255 220 0
0.592003 0.080561 0.077201 255 220 0
0.615118 0.004502 0.095611 255 220 0
0.572218 0.028915 0.079893 255 220 0
0.620011 0.007932 0.022031 255 220 0
0.574158 -0.062018 0.038570 255 220 0
0.628724 0.051344 0.097142 255 220 0
0.643877 0.025164 0.073922 255 220 0
0.576995 -0.040418 0.010618 255 220 0
0.648633 0.056677 0.058002 255 220 0
0.620248 -0.020123 0.068857 255 220 0
0.575847 0.026693 0.085824 255 220 0
0.607795 0.068161 0.098249 255 220 0
0.602711 0.015926 0.010366 255 220 0
0.642457 0.015274 0.066362 255 220 0
0.614057 0.015818 0.099661 255 220 0
0.615622 -0.007833 0.024881 255 220 0
0.579630 0.006752 0.091653 255 220 0
0.552442 -0.023048 0.046184 255 220 0
0.618483 0.024342 0.016611 255 220 0
0.612921 0.058812 0.100550 255 220 0
0.624312 0.033603 0.098767 255 220 0
0.601817 0.066412 0.022359 255 220 0
0.562937 -0.047725 0.007203 255 220 0
0.590396 0.037178 0.012638 255 220 0
0.598334 0.088669 0.063484 255 220 0
0.633298 0.093366 0.062779 255 220 0
0.634097 -0.003223 0.053334 255 220 0
0.583309 0.037964 0.016613 255 220 0
0.611156 0.094532 0.057538 255 220 0
0.587816 0.020117 0.097927 255 220 0
0.566589 0.008521 0.075780 255 220 0
0.584788 0.064786 0.035256 255 220 0
0.560492 -0.064111 0.040793 255 220 0
0.586173 -0.055870 0.038855 255 220 0
0.634242 0.008877 0.080606 255 220 0
0.648812 0.042316 0.057585 255 220 0
0.644601 0.026155 0.047662 255 220 0
0.542710 -0.044371 0.030327 255 220 0
0.603215 -0.042818 0.047679 255 220 0
0.580351 0.027867 0.090976 255 220 0
0.561602 -0.035837 0.006435 255 220 0
0.636156 0.088155 0.054533 255 220 0
0.610131 -0.033559 0.063623 255 220 0
0.555886 -0.043134 0.006160 255 220 0
0.563431 0.008785 0.026940 255 220 0
0.612906 0.004363 0.096574 255 220 0
0.614527 -0.030998 0.057272 255 220 0
0.560621 -0.000150 0.025648 255 220 0
0.642841 0.083488 0.072033 255 220 0
0.632071 0.070581 0.033726 255 220 0
0.565028 0.024636 0.059143 255 220 0
0.608022 -0.018029 0.086187 255 220 0
0.547432 -0.045036 0.041714 255 220 0
0.571209 -0.029944 0.007501 255 220 0
0.621199 0.007588 0.093458 255 220 0
0.566527 0.031964 0.049592 255 220 0
0.581723 0.029056 0.092256 255 220 0
0.590976 -0.039212 0.019486 255 220 0
0.577226 -0.058988 0.027441 255 220 0
0.568487 0.001615 0.079772 255 220 0
0.589455 0.058712 0.091935 255 220 0
0.563879 0.019912 0.059361 255 220 0
0.553779 -0.012749 0.033761 255 220 0
0.640590 0.087162 0.062640 255 220 0
0.611790 -0.011579 0.023146 255 220 0
0.556932 -0.015233 0.057298 255 220 0
0.627005 0.051702 0.022956 255 220 0
0.625764 0.056038 0.098339 255 220 0
0.558476 -0.000782 0.032062 255 220 0
0.614764 0.065419 0.021637 255 220 0
0.596749 -0.042848 0.065325 255 220 0
0.565092 0.024710 0.041112 255 220 0
0.568329 0.030325 0.069687 255 220 0
0.612132 0.059659 0.100436 255 220 0
0.633665 0.061950 0.031568 255 220 0
0.628101 0.000934 0.082435 255 220 0
0.630133 0.008320 0.085856 255 220 0
0.600949 0.080345 0.088143 255 220 0
0.633363 0.091335 0.077141 255 220 0
0.584524 0.059253 0.086212 255 220 0
0.627562 0.086467 0.087113 255 220 0
0.610287 -0.005982 0.019549 255 220 0
0.563794 0.002127 0.071605 255 220 0
0.617394 -0.027180 0.059972 255 220 0
0.608777 0.035354 0.012092 255 220 0
0.598775 0.044904 0.100680 255 220 0
0.618470 -0.009511 0.084129 255 220 0
0.597641 -0.032110 0.021197 255 220 0
0.612933 0.058028 0.100657 255 220 0
0.567245 -0.039060 0.069323 255 220 0
0.591266 0.006414 0.009412 255 220 0
0.616531 0.093084 0.050342 255 220 0
0.623208 -0.004107 0.030746 255 220 0
0.613367 0.058846 0.100529 255 220 0
0.576162 -0.004729 0.010206 255 220 0
0.559299 0.002238 0.054283 255 220 0
0.647419 0.030193 0.056932 255 220 0
0.582566 0.010095 0.094175 255 220 0
0.587039 -0.055418 0.040307 255 220 0
0.639717 0.015983 0.076510 255 220 0
0.643554 0.042270 0.040273 255 220 0
0.630395 0.048606 0.096145 255 220 0
0.605403 -0.032676 0.030451 255 220 0
0.586824 0.073843 0.045431 255 220 0
0.603009 0.013687 0.010695 255 220 0
0.643515 0.019099 0.067959 255 220 0
0.605514 0.087923 0.081998 255 220 0
0.577191 0.040654 0.083797 255 220 0
0.590275 0.060190 0.092106 255 220 0
0.645417 0.050176 0.080109 255 220 0
0.620051 -0.020991 0.067755 255 220 0
0.610206 0.091411 0.079415 255 220 0
0.574756 0.048763 0.074148 255 220 0
0.626983 0.080514 0.035983 255 220 0
0.600630 0.016206 0.101295 255 220 0
0.625403 0.096548 0.064356 255 220 0
0.630801 0.085197 0.086584 255 220 0
0.605762 -0.034023 0.069604 255 220 0
0.628241 -0.003257 0.077873 255 220 0
0.576349 0.049414 0.078053 255 220 0
0.591703 -0.049612 0.058150 255 220 0
0.648680 0.062741 0.063304 255 220 0
0.630271 -0.001443 0.076533 255 220 0
0.644639 0.079751 0.070817 255 220 0
0.591288 -0.040456 0.073529 255 220 0
0.615245 -0.020117 0.032286 255 220 0
0.567976 -0.008133 0.012530 255 220 0
0.549037 -0.059631 0.019720 255 220 0
0.638056 0.086400 0.054714 255 220 0
0.587714 0.078142 0.070528 255 220 0
0.552281 -0.045780 0.049400 255 220 0
0.617281 -0.027006 0.047623 255 220 0
0.627463 0.034389 0.097089 255 220 0
0.616112 0.001206 0.093541 255 220 0
0.579127 -0.011787 0.089466 255 220 0
0.634757 -0.001399 0.064237 255 220 0
0.558361 -0.063517 0.040335 255 220 0
0.555599 -0.018311 0.054345 255 220 0
0.575806 -0.060530 0.047932 255 220 0
0.566229 0.019099 0.071088 255 220 0
0.579281 0.030915 0.089237 255 220 0
0.610479 -0.016564 0.085424 255 220 0
0.609258 0.087804 0.041693 255 220 0
0.641105 0.065310 0.041720 255 220 0
0.649431 0.046091 0.067061 255 220 0
0.613709 -0.015310 0.083598 255 220 0
0.586519 0.026372 0.096845 255 220 0
0.617787 0.089452 0.042855 255 220 0
0.638259 0.057070 0.034707 255 220 0
0.609393 -0.035519 0.060249 255 220 0
0.641521 0.072763 0.083525 255 220 0
0.580862 0.061337 0.038585 255 220 0
0.555342 -0.007647 0.037713 255 220 0
0.625272 0.096529 0.063978 255 220 0
0.617419 0.091120 0.083404 255 220 0
0.585753 0.049844 0.091450 255 220 0
0.577636 -0.048061 0.068577 255 220 0
0.623608 -0.012217 0.037762 255 220 0
0.584004 0.067774 0.078989 255 220 0
0.629770 0.086511 0.086027 255 220 0
0.587399 0.075315 0.047229 255 220 0
0.569007 0.020235 0.023942 255 220 0
0.565832 -0.017328 0.075599 255 220 0
0.584856 -0.052838 0.059297 255 220 0
0.615537 0.047256 0.101542 255 220 0
0.613830 0.030275 0.013600 255 220 0
0.606871 0.054227 0.100930 255 220 0
0.583476 0.071677 0.071265 255 220 0
0.602981 0.012911 0.100773 255 220 0
0.588374 0.047054 0.094574 255 220 0
0.599256 0.033645 0.102223 255 220 0
0.593718 -0.050270 0.039893 255 220 0
0.590613 0.004921 0.098449 255 220 0
0.565107 0.017550 0.068332 255 220 0
0.634073 0.090476 0.055893 255 220 0
0.593232 0.030771 0.100396 255 220 0
0.629263 0.088869 0.083996 255 220 0
0.570590 0.020059 0.021209 255 220 0
0.635983 0.053896 0.031228 255 220 0
0.574163 0.008080 0.086169 255 220 0
0.621144 -0.022172 0.061491 255 220 0
0.591691 0.068952 0.030906 255 220 0
0.595006 -0.039521 0.072189 255 220 0
0.616156 0.010477 0.097351 255 220 0
0.594458 0.042898 0.099297 255 220 0
0.579186 0.059504 0.076343 255 220 0
0.591869 -0.031732 0.016295 255 220 0
0.558097 -0.061870 0.043092 255 220 0
0.612214 0.055365 0.101002 255 220 0
0.610497 0.053949 0.016193 255 220 0
0.630764 0.040181 0.095497 255 220 0
0.578147 0.012284 0.011972 255 220 0
0.624493 0.081864 0.035725 255 220 0
0.548326 -0.027319 0.023860 255 220 0
0.566000 0.029053 0.057540 255 220 0
0.550966 -0.025507 0.042443 255 220 0
0.588203 -0.007598 0.095424 255 220 0
0.567171 0.033427 0.057026 255 220 0
0.593453 0.075072 0.036068 255 220 0
0.568101 -0.046602 0.008592 255 220 0
0.594315 0.045702 0.014389 255 220 0
0.627934 0.003757 0.085049 255 220 0
0.574873 0.042807 0.078970 255 220 0
0.607172 0.053767 0.015763 255 220 0
0.606620 0.054029 0.100929 255 220 0
0.604850 0.028384 0.010620 255 220 0
0.589324 -0.004823 0.096458 255 220 0
0.579402 0.064844 0.051055 255 220 0
0.577437 -0.029594 0.008730 255 220 0
0.584305 0.074068 0.067489 255 220 0
0.570419 0.013671 0.080907 255 220 0
0.558965 -0.010449 0.061941 255 220 0
0.592014 0.028091 0.099997 255 220 0
0.569053 0.040029 0.055568 255 220 0
0.557726 -0.064837 0.035085 255 220 0
0.584535 -0.056742 0.047160 255 220 0
0.565961 -0.064328 0.030718 255 220 0
0.603026 0.054861 0.016186 255 220 0
0.618855 -0.025324 0.060401 255 220 0
0.632863 0.033914 0.026659 255 220 0
0.591102 -0.031217 0.083716 255 220 0
0.595868 -0.012140 0.012592 255 220 0
0.635360 0.054591 0.092702 255 220 0
0.618489 -0.017353 0.034489 255 220 0
0.590776 0.082133 0.060506 255 220 0
0.601053 0.074403 0.029378 255 220 0
0.613953 0.000164 0.020037 255 220 0
0.611474 -0.021165 0.028311 255 220 0
0.638426 0.030199 0.086372 255 220 0
0.618136 0.002494 0.092942 255 220 0
0.584927 -0.029485 0.011483 255 220 0
0.648483 0.049564 0.055615 255 220 0
0.602586 0.015965 0.101294 255 220 0
0.574292 -0.053548 0.016215 255 220 0
0.594459 0.069742 0.029183 255 220 0
0.590891 -0.049663 0.059146 255 220 0
0.574839 0.045180 0.077484 255 220 0
0.640290 0.086521 0.074248 255 220 0
0.623601 -0.015855 0.068806 255 220 0
0.617877 -0.007025 0.026661 255 220 0
0.602444 0.079792 0.034271 255 220 0
0.595866 -0.006742 0.097031 255 220 0
0.569734 0.037437 0.039689 255 220 0
0.605359 0.033779 0.011179 255 220 0
0.607481 0.024379 0.102524 255 220 0
0.557843 -0.012305 0.058912 255 220 0
0.630453 0.012486 0.088102 255 220 0
0.555417 -0.008691 0.032503 255 220 0
0.551843 -0.061245 0.020791 255 220 0
0.616054 0.026391 0.014899 255 220 0
0.644167 0.023789 0.071594 255 220 0
0.616778 -0.027968 0.059679 255 220 0
0.583204 0.068986 0.075547 255 220 0
0.646451 0.053101 0.078142 255 220 0
0.628300 -0.005105 0.075481 255 220 0
0.575520 0.028306 0.085040 255 220 0
0.625160 0.096704 0.067635 255 220 0
0.549032 -0.032650 0.040912 255 220 0
0.560691 0.011568 0.048422 255 220 0
0.563845 -0.027052 0.070754 255 220 0
0.566596 0.022984 0.032252 255 220 0
0.554869 -0.061892 0.039206 255 220 0
0.572199 -0.062376 0.043435 255 220 0
0.561879 0.010447 0.059715 255 220 0
0.642558 0.083733 0.072720 255 220 0
0.639296 0.043226 0.033166 255 220 0
0.555852 -0.059923 0.043324 255 220 0
0.629690 0.059219 0.027115 255 220 0
0.552426 -0.042769 0.050368 255 220 0
0.557162 -0.026646 0.060601 255 220 0
0.644099 0.034042 0.078866 255 220 0
0.598661 0.002233 0.011126 255 220 0
0.640206 0.043548 0.087031 255 220 0
0.593749 0.084313 0.056099 255 220 0
0.585755 0.011458 0.096493 255 220 0
0.597044 -0.046049 0.058429 255 220 0
0.605342 0.086241 0.041356 255 220 0
0.624388 0.037429 0.099020 255 220 0
0.632695 0.017292 0.088129 255 220 0
0.572247 0.019120 0.082453 255 220 0
0.569537 0.035470 0.068902 255 220 0
0.638237 0.023519 0.035897 255 220 0
0.589728 -0.000671 0.009659 255 220 0
0.591924 0.076619 0.040339 255 220 0
0.613731 0.096024 0.062502 255 220 0
0.593644 -0.028535 0.085372 255 220 0
0.581164 -0.000457 0.092669 255 220 0
0.633290 0.079404 0.040276 255 220 0
0.576383 0.004382 0.011512 255 220 0
0.638930 0.046376 0.088834 255 220 0
0.566471 0.020233 0.029646 255 220 0
0.642811 0.018499 0.049346 255 220 0
0.569526 0.024251 0.025849 255 220 0
0.541541 -0.044021 0.020482 255 220 0
0.641240 0.056174 0.086599 255 220 0
0.580891 -0.023999 0.009169 255 220 0
0.578009 0.048717 0.030146 255 220 0
0.613709 -0.019535 0.079336 255 220 0
0.583111 0.072410 0.066002 255 220 0
0.637927 0.086900 0.055309 255 220 0
0.648009 0.067427 0.063885 255 220 0
0.591308 0.069439 0.088279 255 220 0
0.581424 0.001939 0.093040 255 220 0
0.577707 0.051825 0.079362 255 220 0
0.646114 0.071455 0.056783 255 220 0
0.571787 0.018748 0.018968 255 220 0
0.587226 -0.036404 0.015060 255 220 0
0.585299 0.071290 0.044131 255 220 0
0.641622 0.079260 0.052237 255 220 0
0.562429 0.013061 0.059863 255 220 0
0.595403 0.061273 0.021638 255 220 0
0.595398 0.071434 0.030104 255 220 0
0.589760 -0.003062 0.096975 255 220 0
0.567933 0.032721 0.040332 255 220 0
0.638509 0.068878 0.039854 255 220 0
0.579250 -0.032989 0.009805 255 220 0
0.549428 -0.032170 0.041861 255 220 0
0.570061 0.024940 0.077404 255 220 0
0.572753 0.018240 0.017647 255 220 0
0.581995 0.027055 0.013267 255 220 0
0.644615 0.063428 0.080721 255 220 0
0.604711 -0.014399 0.018519 255 220 0
0.596641 -0.048319 0.043416 255 220 0
0.549564 -0.025818 0.036082 255 220 0
0.613382 0.004777 0.018009 255 220 0
0.586092 0.057191 0.089103 255 220 0
0.617302 -0.023645 0.068792 255 220 0
0.645552 0.066161 0.077984 255 220 0
0.543962 -0.054916 0.020014 255 220 0
0.568697 -0.021442 0.077868 255 220 0
0.640805 0.038144 0.035659 255 220 0
0.574629 0.054549 0.049523 255 220 0
0.583464 -0.043537 0.072959 255 220 0
0.584673 0.064860 0.082811 255 220 0
0.557473 -0.052070 0.007931 255 220 0
0.626700 0.093164 0.053888 255 220 0
0.634091 0.074108 0.090829 255 220 0
0.629050 0.091451 0.080863 255 220 0
0.618008 0.078687 0.094616 255 220 0
0.608569 -0.035894 0.061355 255 220 0
0.543494 -0.052342 0.030435 255 220 0
0.637514 0.073501 0.041105 255 220 0
0.577129 0.060815 0.062964 255 220 0
0.648457 0.039699 0.069939 255 220 0
0.571406 0.000806 0.083416 255 220 0
0.638391 0.076711 0.044462 255 220 0
0.589843 0.066914 0.088296 255 220 0
0.610246 0.089076 0.043473 255 220 0
0.642327 0.040405 0.038009 255 220 0
0.604480 -0.034725 0.031365 255 220 0
0.593947 0.085062 0.060274 255 220 0
0.577407 -0.057445 0.024168 255 220 0
0.613632 0.062866 0.099914 255 220 0
0.577533 0.041356 0.084060 255 220 0
0.595015 0.085656 0.070185 255 220 0
0.637292 0.014525 0.039133 255 220 0
0.571709 -0.045415 0.009744 255 220 0
0.647649 0.060381 0.074023 255 220 0
0.598595 0.041973 0.012457 255 220 0
0.604342 0.085348 0.040589 255 220 0
0.627673 -0.004021 0.077916 255 220 0
0.603588 -0.022198 0.021087 255 220 0
0.626133 -0.008936 0.038903 255 220 0
0.644192 0.061777 0.045446 255 220 0
0.589451 -0.050093 0.059974 255 220 0
0.588685 -0.037608 0.078105 255 220 0
0.640378 0.021613 0.040542 255 220 0
0.636133 0.029948 0.030887 255 220 0
0.562551 -0.032157 0.067541 255 220 0
0.584862 0.022491 0.095811 255 220 0
0.627333 0.087994 0.085804 255 220 0
0.543602 -0.038120 0.019690 255 220 0
0.571181 -0.008868 0.010889 255 220 0
0.573182 0.011829 0.014973 255 220 0
0.609013 0.036287 0.012262 255 220 0
0.605742 0.074892 0.094839 255 220 0
0.599592 0.044730 0.013150 255 220 0
0.588345 -0.038373 0.016819 255 220 0
0.579053 0.006696 0.091132 255 220 0
0.580664 -0.005658 0.009430 255 220 0
0.578741 -0.001791 0.090614 255 220 0
0.647966 0.059056 0.055512 255 220 0
0.647326 0.050916 0.050846 255 220 0
0.586384 0.055971 0.024797 255 220 0
0.564665 0.025192 0.045714 255 220 0
0.648560 0.063885 0.063785 255 220 0
0.586382 0.070529 0.080650 255 220 0
0.599165 0.035290 0.102066 255 220 0
0.577907 0.054643 0.036861 255 220 0
0.618318 0.073314 0.027240 255 220 0
0.573438 -0.062147 0.034181 255 220 0
0.559355 -0.040540 0.060490 255 220 0
0.569757 0.007343 0.016423 255 220 0
0.617773 0.059810 0.100034 255 220 0
0.586235 0.003177 0.096335 255 220 0
0.641928 0.044525 0.037097 255 220 0
0.608337 0.093263 0.056142 255 220 0
0.590882 -0.050447 0.057365 255 220 0
0.612998 0.058792 0.100550 255 220 0
0.586843 -0.048374 0.065296 255 220 0
0.560689 0.010492 0.052142 255 220 0
0.611227 0.017133 0.013515 255 220 0
0.646492 0.029786 0.069212 255 220 0
0.547399 -0.031925 0.034325 255 220 0
0.608020 -0.009670 0.092353 255 220 0
0.609583 0.000287 0.096442 255 220 0
0.550847 -0.044673 0.047584 255 220 0
0.571608 -0.033452 0.007567 255 220 0
0.614785 -0.029637 0.061688 255 220 0
0.567138 0.033289 0.057084 255 220 0
0.566311 0.029217 0.059563 255 220 0
0.596842 0.039261 0.011903 255 220 0
0.579722 0.064950 0.049557 255 220 0
0.626152 0.030690 0.021247 255 220 0
0.599105 0.056980 0.098580 255 220 0
0.582761 -0.053735 0.059469 255 220 0
0.551155 -0.020994 0.025052 255 220 0
0.571829 -0.059113 0.020956 255 220 0
0.609617 -0.021987 0.080967 255 220 0
0.568978 -0.049050 0.064393 255 220 0
0.543032 -0.047407 0.031774 255 220 0
0.645606 0.069081 0.076827 255 220 0
0.570328 -0.028993 0.076801 255 220 0
0.578828 0.017623 0.090502 255 220 0
0.647442 0.034896 0.052620 255 220 0
0.612386 0.049049 0.015314 255 220 0
0.603220 0.047457 0.013785 255 220 0
0.591200 -0.032593 0.016184 255 220 0
0.643242 0.073597 0.050495 255 220 0
0.565417 -0.007062 0.075819 255 220 0
0.596664 -0.046454 0.058042 255 220 0
0.632099 0.094351 0.068354 255 220 0
0.582767 0.062061 0.035513 255 220 0
0.613471 -0.031806 0.059059 255 220 0
0.559285 -0.038850 0.006152 255 220 0
0.556203 -0.013866 0.020506 255 220 0
0.609497 -0.027045 0.030624 255 220 0
0.588487 -0.054597 0.043976 255 220 0
0.622809 0.096012 0.073869 255 220 0
0.614041 0.014235 0.099248 255 220 0
0.633744 0.060789 0.031224 255 220 0
0.564046 0.023622 0.048034 255 220 0
0.590286 0.030213 0.010824 255 220 0
0.571519 0.014823 0.017534 255 220 0
0.548109 -0.051408 0.041231 255 220 0
0.607345 0.031764 0.011399 255 220 0
0.579322 0.011107 0.011277 255 220 0
0.597954 -0.039471 0.027310 255 220 0
0.584043 0.008787 0.095262 255 220 0
0.639037 0.038972 0.087754 255 220 0
0.626875 -0.013924 0.049801 255 220 0
0.570667 0.039054 0.069395 255 220 0
0.578636 0.058889 0.075364 255 220 0
0.605098 0.060687 0.099581 255 220 0
0.632357 0.011048 0.033443 255 220 0
0.579048 0.052803 0.032227 255 220 0
0.623489 -0.009751 0.077720 255 220 0
0.571266 0.036858 0.074125 255 220 0
0.589280 -0.012294 0.010287 255 220 0
0.543091 -0.054084 0.024692 255 220 0
0.595090 -0.014599 0.012776 255 220 0
0.552625 -0.018920 0.043384 255 220 0
0.622752 -0.007221 0.032205 255 220 0
0.642038 0.038845 0.083774 255 220 0
0.630696 -0.007916 0.049719 255 220 0
0.618363 -0.017085 0.076373 255 220 0
0.618956 -0.022797 0.066861 255 220 0
0.584645 0.043305 0.092203 255 220 0
0.555781 -0.006859 0.044590 255 220 0
0.610852 -0.021259 0.080498 255 220 0
0.557627 -0.002741 0.050603 255 220 0
0.617481 0.082390 0.092227 255 220 0
0.616455 0.022511 0.100490 255 220 0
0.608213 0.052362 0.015423 255 220 0
0.585202 0.021066 0.096138 255 220 0
0.619229 0.087507 0.040055 255 220 0
0.644783 0.044329 0.042944 255 220 0
0.574822 -0.052942 0.016065 255 220 0
0.602683 0.073436 0.027742 255 220 0
0.634348 0.007302 0.038924 255 220 0
0.574855 -0.001019 0.011197 255 220 0
0.546740 -0.050173 0.039560 255 220 0
0.585222 0.018648 0.010196 255 220 0
0.608121 -0.036045 0.041003 255 220 0
0.606582 0.073948 0.027026 255 220 0
0.635491 0.002272 0.046819 255 220 0
0.605623 0.057814 0.017162 255 220 0
0.565199 -0.032323 0.070423 255 220 0
0.608423 0.093957 0.059589 255 220 0
0.556715 -0.017804 0.057802 255 220 0
0.570592 0.016472 0.080625 255 220 0
0.555456 -0.021755 0.055452 255 220 0
0.578997 -0.024493 0.085271 255 220 0
0.606811 -0.038042 0.042309 255 220 0
0.596073 0.080729 0.041353 255 220 0
0.621710 0.014713 0.021204 255 220 0
0.594539 -0.038631 0.073779 255 220 0
0.622021 -0.019440 0.045011 255 220 0
0.631750 0.010098 0.033135 255 220 0
0.591192 0.079402 0.047367 255 220 0
0.627990 0.002383 0.083859 255 220 0
0.609125 -0.022981 0.026926 255 220 0
0.573805 -0.007539 0.085602 255 220 0
0.594564 -0.005013 0.097475 255 220 0
0.624125 0.011101 0.024484 255 220 0
0.546203 -0.034269 0.017322 255 220 0
0.626034 0.043474 0.020968 255 220 0
0.581105 0.031292 0.091227 255 220 0
0.626022 0.094497 0.056742 255 220 0
0.622106 0.008738 0.023532 255 220 0
0.595972 -0.017240 0.092587 255 220 0
0.547233 -0.036702 0.038246 255 220 0
0.648151 0.045603 0.073263 255 220 0
0.642712 0.016147 0.066768 255 220 0
0.588380 0.042404 0.095656 255 220 0
0.569954 -0.062069 0.025578 255 220 0
0.638491 0.061518 0.036600 255 220 0
0.585937 0.031944 0.095729 255 220 0
0.600459 0.077505 0.090352 255 220 0
0.574852 -0.024777 0.008115 255 220 0
0.610469 0.090802 0.080806 255 220 0
0.620124 0.054642 0.100142 255 220 0
0.587182 -0.053074 0.030724 255 220 0
0.629348 0.015276 0.090586 255 220 0
0.632988 0.075298 0.037114 255 220 0
0.563112 -0.000180 0.070621 255 220 0
0.642794 0.083378 0.061375 255 220 0
0.575032 -0.001775 0.011002 255 220 0
0.573484 -0.018607 0.083254 255 220 0
0.568503 -0.017483 0.078632 255 220 0
0.573023 0.040140 0.032395 255 220 0
0.617641 -0.008524 0.085819 255 220 0
0.612431 -0.025569 0.073546 255 220 0
0.629870 0.032806 0.024053 255 220 0
0.619746 0.038714 0.100926 255 220 0
0.557842 -0.052950 0.052103 255 220 0
0.608100 0.012444 0.012830 255 220 0
0.641776 0.063443 0.041887 255 220 0
0.607582 -0.025395 0.079253 255 220 0
0.636826 0.075022 0.041172 255 220 0
0.574131 0.053591 0.050287 255 220 0
0.636140 0.029264 0.031069 255 220 0
0.575824 -0.045357 0.070607 255 220 0
0.640928 0.077569 0.049223 255 220 0
0.608315 0.091311 0.049733 255 220 0
0.554590 -0.012216 0.045577 255 220 0
0.559623 0.003788 0.034258 255 220 0
0.624730 -0.003625 0.032268 255 220 0
0.566075 -0.061409 0.049772 255 220 0
0.628450 0.061964 0.027120 255 220 0
0.613072 0.083892 0.035363 255 220 0
0.559927 -0.062539 0.019862 255 220 0
0.596423 -0.048650 0.049222 255 220 0
0.630670 0.088093 0.047572 255 220 0
0.602740 -0.028591 0.080034 255 220 0
0.574680 -0.031258 0.008146 255 220 0
0.634801 0.008968 0.079738 255 220 0
0.618283 0.052794 0.100653 255 220 0
0.573510 0.037504 0.028653 255 220 0
0.636611 0.089904 0.058877 255 220 0
0.578778 0.001075 0.010338 255 220 0
0.578785 -0.059950 0.036324 255 220 0
0.551022 -0.050889 0.008663 255 220 0
0.578342 -0.055587 0.022195 255 220 0
0.605416 -0.023761 0.023578 255 220 0
0.567152 0.025615 0.033491 255 220 0
0.637533 0.004492 0.050395 255 220 0
0.578208 0.063235 0.063400 255 220 0
0.615213 0.031056 0.101968 255 220 0
0.587418 0.071381 0.039624 255 220 0
0.556365 -0.036396 0.007024 255 220 0
0.585722 -0.020911 0.089906 255 220 0
0.549327 -0.032307 0.041630 255 220 0
0.595800 0.037854 0.011659 255 220 0
0.567043 -0.009368 0.078027 255 220 0
0.560895 0.002929 0.028112 255 220 0
0.579346 0.036592 0.088002 255 220 0
0.616194 0.044064 0.015603 255 220 0
0.640498 0.008787 0.058945 255 220 0
0.598930 0.063703 0.021542 255 220 0
0.547913 -0.027905 0.026102 255 220 0
0.594853 -0.019310 0.013834 255 220 0
0.619795 -0.010207 0.030590 255 220 0
0.623305 0.049352 0.020047 255 220 0
0.591349 0.066267 0.090256 255 220 0
0.643308 0.019431 0.050047 255 220 0
0.632565 -0.001376 0.043782 255 220 0
0.621019 0.036772 0.100442 255 220 0
0.647736 0.039296 0.052703 255 220 0
0.594047 0.007427 0.099586 255 220 0
0.549475 -0.043867 0.008361 255 220 0
0.555335 -0.009596 0.030539 255 220 0
0.618047 -0.025363 0.045670 255 220 0
0.566468 -0.048576 0.008651 255 220 0
0.577401 0.061780 0.055121 255 220 0
0.644476 0.059851 0.081572 255 220 0
0.632986 0.090618 0.054703 255 220 0
0.637293 0.005786 0.047411 255 220 0
0.613931 0.085204 0.036822 255 220 0
0.621156 0.004925 0.092122 255 220 0
0.617640 0.058088 0.100250 255 220 0
0.624606 0.027840 0.020452 255 220 0
0.597782 0.022177 0.009334 255 220 0
0.553469 -0.046779 0.050620 255 220 0
0.644591 0.028432 0.046182 255 220 0
0.602005 0.054159 0.100051 255 220 0
0.559104 -0.052274 0.008163 255 220 0
0.614448 -0.018699 0.030084 255 220 0
0.565929 0.028938 0.057220 255 220 0
0.584820 0.056326 0.026793 255 220 0
0.630297 0.042344 0.024107 255 220 0
0.544682 -0.036101 0.019203 255 220 0
0.572275 -0.043822 0.070151 255 220 0
0.601565 -0.000881 0.012761 255 220 0
0.627023 -0.006017 0.076585 255 220 0
0.593636 -0.035847 0.077937 255 220 0
0.541224 -0.045375 0.021917 255 220 0
0.586521 -0.004953 0.009486 255 220 0
0.605196 0.013178 0.100676 255 220 0
0.574684 0.055336 0.052294 255 220 0
0.580179 -0.055567 0.024385 255 220 0
0.565720 -0.002985 0.016118 255 220 0
0.593785 0.082942 0.050575 255 220 0
0.620492 -0.015206 0.035528 255 220 0
0.634388 0.041956 0.092823 255 220 0
0.585042 0.075487 0.061944 255 220 0
0.634701 0.087281 0.081720 255 220 0
0.597968 0.030073 0.102060 255 220 0
0.568571 0.038434 0.050019 255 220 0
0.576916 0.004583 0.089135 255 220 0
0.632953 0.044770 0.026568 255 220 0
0.555577 -0.029652 0.057261 255 220 0
0.625669 0.085228 0.039662 255 220 0
0.610670 0.083019 0.090682 255 220 0
0.568365 0.001491 0.079615 255 220 0
0.609456 0.058609 0.100515 255 220 0
0.546554 -0.038472 0.037542 255 220 0
0.630229 0.093604 0.058347 255 220 0
0.639474 0.059858 0.088596 255 220 0
0.596367 0.085859 0.053357 255 220 0
0.638154 0.037263 0.032005 255 220 0
0.638236 0.085802 0.079221 255 220 0
0.597709 0.078801 0.086983 255 220 0
0.567447 -0.015072 0.077933 255 220 0
0.585414 0.048103 0.020328 255 220 0
0.555008 -0.015127 0.050173 255 220 0
0.623053 0.078400 0.094060 255 220 0
0.635060 -0.001996 0.056999 255 220 0
0.642189 0.077978 0.079876 255 220 0
0.562505 -0.037844 0.006235 255 220 0
0.598259 0.061276 0.020293 255 220 0
0.586560 -0.003650 0.095590 255 220 0
0.639224 0.081874 0.050537 255 220 0
0.581612 0.020376 0.093068 255 220 0
0.634830 0.003777 0.043110 255 220 0
0.605713 0.091672 0.073392 255 220 0
0.568778 -0.035615 0.072411 255 220 0
0.648379 0.051086 0.055269 255 220 0
0.549098 -0.027045 0.020347 255 220 0
0.590579 -0.021457 0.012224 255 220 0
0.628439 0.033093 0.096297 255 220 0
0.545403 -0.035542 0.031145 255 220 0
0.573090 0.042003 0.075315 255 220 0
0.566438 0.014593 0.024848 255 220 0
0.620018 0.081517 0.092715 255 220 0
0.582529 0.055368 0.085486 255 220 0
0.591257 -0.020024 0.012216 255 220 0
0.609857 0.081519 0.033290 255 220 0
0.622582 -0.020994 0.054673 255 220 0
0.627672 -0.006993 0.074084 255 220 0
0.628007 0.012518 0.090502 255 220 0
0.628438 0.033149 0.022792 255 220 0
0.576559 -0.008275 0.088042 255 220 0
0.645015 0.040069 0.043900 255 220 0
0.555083 -0.015113 0.050457 255 220 0
0.591927 -0.034223 0.017491 255 220 0
0.545535 -0.050407 0.012622 255 220 0
0.568246 0.031896 0.037712 255 220 0
0.587674 0.027277 0.010894 255 220 0
0.573198 0.014223 0.084503 255 220 0
0.571796 -0.000370 0.083875 255 220 0
0.560149 -0.047142 0.006522 255 220 0
0.642002 0.017127 0.071481 255 220 0
0.621613 0.056453 0.099635 255 220 0
0.560924 -0.041189 0.061986 255 220 0
0.567312 0.033311 0.045353 255 220 0
0.625772 0.000678 0.085065 255 220 0
0.562121 -0.065043 0.037039 255 220 0
0.554557 -0.012269 0.045453 255 220 0
0.593613 0.082149 0.077210 255 220 0
0.565421 0.013048 0.025859 255 220 0
0.641935 0.039466 0.037403 255 220 0
0.594278 -0.049686 0.039427 255 220 0
0.595362 -0.048687 0.039322 255 220 0
0.624105 0.007914 0.025684 255 220 0
0.583409 0.062709 0.035131 255 220 0
0.569697 0.040075 0.044699 255 220 0
0.566535 0.026046 0.066160 255 220 0
0.595459 0.028922 0.101353 255 220 0
0.643306 0.052612 0.083721 255 220 0
0.624577 -0.000423 0.085503 255 220 0
0.572038 -0.003359 0.084104 255 220 0
0.564970 0.018917 0.033034 255 220 0
0.636388 0.005445 0.072388 255 220 0
0.576368 -0.010780 0.087481 255 220 0
0.610798 0.031314 0.012399 255 220 0
0.649328 0.056456 0.066465 255 220 0
0.572395 0.046309 0.066331 255 220 0
0.599285 -0.041103 0.065469 255 220 0
0.622543 0.042849 0.099930 255 220 0
0.611582 0.065329 0.020951 255 220 0
0.640671 0.020140 0.077842 255 220 0
0.598907 -0.036219 0.073553 255 220 0
0.646685 0.070222 0.057913 255 220 0
0.621864 0.085510 0.089482 255 220 0
0.579277 -0.041022 0.075133 255 220 0
0.604411 -0.018004 0.088793 255 220 0
0.564593 0.011718 0.026675 255 220 0
0.560345 -0.006577 0.064909 255 220 0
0.586405 -0.054391 0.032599 255 220 0
0.557978 -0.050447 0.053886 255 220 0
0.646619 0.027569 0.064501 255 220 0
0.567703 -0.062171 0.048429 255 220 0
0.629420 0.093256 0.077239 255 220 0
0.597295 -0.034862 0.076731 255 220 0
0.633008 0.082622 0.087151 255 220 0
0.594811 0.047191 0.098646 255 220 0
0.621341 -0.017308 0.039533 255 220 0
0.637744 0.007488 0.071657 255 220 0
0.643069 0.076160 0.052294 255 220 0
0.583366 -0.043471 0.015771 255 220 0
0.545962 -0.057686 0.020882 255 220 0
0.628335 0.085372 0.041643 255 220 0
0.571825 -0.062836 0.036806 255 220 0
0.570106 0.013665 0.080454 255 220 0
0.633966 0.029509 0.091109 255 220 0
0.637035 0.002774 0.051894 255 220 0
0.573162 0.035348 0.079185 255 220 0
0.613018 0.060464 0.018909 255 220 0
0.596415 0.003714 0.010333 255 220 0
0.601656 -0.041547 0.036820 255 220 0
0.605858 0.000200 0.014623 255 220 0
0.594561 0.027527 0.101070 255 220 0
0.577115 0.049296 0.079771 255 220 0
0.636541 0.024454 0.086705 255 220 0
0.628809 -0.010144 0.065330 255 220 0
0.553721 -0.012698 0.035626 255 220 0
0.622015 0.088294 0.041983 255 220 0
0.605725 0.072854 0.026317 255 220 0
0.645646 0.076447 0.061529 255 220 0
0.566730 0.006074 0.019186 255 220 0
0.567698 0.029516 0.067678 255 220 0
0.608593 -0.011980 0.090467 255 220 0
0.580916 0.066977 0.070738 255 220 0
0.592716 0.045285 0.097915 255 220 0
0.639000 0.039926 0.032847 255 220 0
0.649078 0.042536 0.059396 255 220 0
0.619045 0.005863 0.094043 255 220 0
0.572018 0.024876 0.021919 255 220 0
0.585628 0.038032 0.015087 255 220 0
0.603678 0.036717 0.011367 255 220 0
0.566742 0.032483 0.054957 255 220 0
0.578390 0.040191 0.085696 255 220 0
0.617750 0.039847 0.101498 255 220 0
0.636512 0.008580 0.076060 255 220 0
0.610812 0.061533 0.100101 255 220 0
0.549899 -0.025013 0.021312 255 220 0
0.592881 0.084018 0.059266 255 220 0
0.591011 0.067522 0.089197 255 220 0
0.607300 0.024130 0.011206 255 220 0
0.589573 0.058332 0.092187 255 220 0
0.569968 0.018807 0.079100 255 220 0
0.580184 0.065779 0.069758 255 220 0
0.550837 -0.061983 0.030841 255 220 0
0.584541 -0.042300 0.016002 255 220 0
0.564331 -0.018318 0.010597 255 220 0
0.603523 0.016051 0.101296 255 220 0
0.576160 0.032974 0.084722 255 220 0
0.593955 0.048146 0.098019 255 220 0
0.574111 -0.003648 0.086216 255 220 0
0.547946 -0.027837 0.025976 255 220 0
0.609358 0.061313 0.018719 255 220 0
0.584210 0.031211 0.013353 255 220 0
0.593916 0.077971 0.039650 255 220 0
0.610716 0.089367 0.083358 255 220 0
0.624182 0.096611 0.070401 255 220 0
0.566188 -0.061164 0.050249 255 220 0
0.589397 0.028570 0.098589 255 220 0
0.565980 0.029883 0.047627 255 220 0
0.579359 -0.054039 0.021171 255 220 0
0.574541 0.034939 0.081687 255 220 0
0.642325 0.080253 0.054945 255 220 0
0.588661 0.072417 0.082498 255 220 0
0.551569 -0.026943 0.015099 255 220 0
0.603196 0.039409 0.102464 255 220 0
0.564940 0.012605 0.070694 255 220 0
0.632818 -0.005626 0.059103 255 220 0
0.601001 -0.043897 0.056157 255 220 0
0.648127 0.063929 0.059399 255 220 0
0.591739 -0.041195 0.021592 255 220 0
0.605215 0.020183 0.010745 255 220 0
0.592494 -0.046664 0.063179 255 220 0
0.565951 -0.033208 0.070843 255 220 0
0.639696 0.023852 0.081929 255 220 0
0.555706 -0.025519 0.057180 255 220 0
0.643213 0.061656 0.043531 255 220 0
0.608907 0.021972 0.011899 255 220 0
0.612509 -0.008963 0.022577 255 220 0
0.627575 0.021512 0.094373 255 220 0
0.603757 0.080653 0.089722 255 220 0
0.559983 -0.017388 0.013351 255 220 0
0.560406 -0.047158 0.006562 255 220 0
0.570081 -0.054445 0.014079 255 220 0
0.606521 0.085935 0.085645 255 220 0
0.562880 -0.054849 0.010701 255 220 0
0.638356 0.022023 0.036760 255 220 0
0.562934 0.011759 0.031611 255 220 0
0.558553 0.000860 0.051614 255 220 0
0.583478 0.057598 0.029620 255 220 0
0.647821 0.065787 0.059252 255 220 0
0.580801 -0.017993 0.008912 255 220 0
0.640217 0.013837 0.046341 255 220 0
0.573974 0.039393 0.078922 255 220 0
0.607271 0.066898 0.021712 255 220 0
0.627538 0.051912 0.097734 255 220 0
0.631475 -0.000510 0.075388 255 220 0
0.590084 -0.023938 0.012571 255 220 0
0.617991 0.089333 0.085805 255 220 0
0.622581 -0.010069 0.078663 255 220 0
0.600831 0.067902 0.023810 255 220 0
0.574362 -0.059886 0.052139 255 220 0
0.644425 0.022252 0.068442 255 220 0
0.624775 0.044353 0.020199 255 220 0
0.549995 -0.044727 0.008013 255 220 0
0.550690 -0.024040 0.039736 255 220 0
0.607830 0.021017 0.101970 255 220 0
0.587710 0.014579 0.097771 255 220 0
0.567789 0.035030 0.046088 255 220 0
0.633138 0.090455 0.078992 255 220 0
0.631340 -0.007402 0.062113 255 220 0
0.565003 -0.022087 0.009166 255 220 0
0.622884 0.007128 0.092011 255 220 0
0.580473 0.036550 0.018323 255 220 0
0.584719 0.059178 0.086506 255 220 0
0.629508 0.082848 0.089045 255 220 0
0.580542 -0.054217 0.060187 255 220 0
0.615365 -0.015351 0.028826 255 220 0
0.612229 0.091245 0.081132 255 220 0
0.554627 -0.009973 0.036248 255 220 0
0.587397 0.063598 0.087415 255 220 0
0.631579 -0.007603 0.058634 255 220 0
0.635681 0.084550 0.083501 255 220 0
0.576055 -0.060950 0.044457 255 220 0
0.629953 0.012608 0.029746 255 220 0
0.565373 0.025527 0.041033 255 220 0
0.647038 0.071875 0.062710 255 220 0
0.610457 -0.029639 0.034941 255 220 0
0.638275 0.004196 0.061041 255 220 0
0.590458 0.054873 0.094105 255 220 0
0.562767 -0.039567 0.064741 255 220 0
0.632600 -0.005710 0.060934 255 220 0
0.633626 0.054788 0.029181 255 220 0
0.543832 -0.053642 0.029795 255 220 0
0.628176 0.048063 0.023104 255 220 0
0.638985 0.023262 0.037203 255 220 0
0.626803 -0.007218 0.075423 255 220 0
0.584149 -0.055278 0.054316 255 220 0
0.629391 0.042059 0.023366 255 220 0
0.555031 -0.027700 0.055854 255 220 0
0.602956 0.002276 0.012693 255 220 0
0.608744 0.090604 0.047577 255 220 0
0.543874 -0.052461 0.016473 255 220 0
0.618490 -0.002121 0.089924 255 220 0
0.619482 -0.024009 0.047427 255 220 0
0.599038 0.085248 0.046094 255 220 0
0.600449 0.054537 0.099526 255 220 0
0.641664 0.084435 0.059448 255 220 0
0.560533 -0.024785 0.066839 255 220 0
0.548105 -0.028934 0.033113 255 220 0
0.558389 -0.008905 0.021516 255 220 0
0.627223 0.004523 0.086438 255 220 0
0.618154 -0.023985 0.066368 255 220 0
0.591666 0.082928 0.068279 255 220 0
0.596319 0.085000 0.050534 255 220 0
0.572908 -0.020655 0.082153 255 220 0
0.608107 0.037818 0.102906 255 220 0
0.619157 -0.024700 0.048290 255 220 0
0.601836 0.020046 0.009910 255 220 0
0.626980 0.060657 0.097508 255 220 0
0.644643 0.061546 0.046264 255 220 0
0.634905 0.088991 0.054168 255 220 0
0.579305 -0.008560 0.090227 255 220 0
0.649083 0.055912 0.069483 255 220 0
0.581418 -0.001919 0.092709 255 220 0
0.617492 0.016452 0.098659 255 220 0
0.615508 0.094851 0.055491 255 220 0
0.604169 -0.041680 0.045848 255 220 0
0.569227 -0.014928 0.009993 255 220 0
0.571737 0.035618 0.076182 255 220 0
0.618057 -0.016080 0.077964 255 220 0
0.617263 -0.011478 0.028502 255 220 0
0.564120 -0.004657 0.073525 255 220 0
0.578437 -0.051807 0.017882 255 220 0
0.591068 0.081661 0.071749 255 220 0
0.629141 0.007598 0.086495 255 220 0
0.572560 -0.019617 0.008495 255 220 0
0.636014 0.074466 0.039833 255 220 0
0.616926 -0.015535 0.079941 255 220 0
0.646368 0.056803 0.048780 255 220 0
0.618384 0.095917 0.058388 255 220 0
0.552998 -0.063373 0.031297 255 220 0
0.582760 0.071584 0.067376 255 220 0
0.619639 0.084250 0.090750 255 220 0
0.591733 0.013668 0.099517 255 220 0
0.595198 -0.038964 0.023489 255 220 0
0.612587 0.049342 0.101661 255 220 0
0.592773 -0.046198 0.028013 255 220 0
0.552672 -0.016234 0.038651 255 220 0
0.544560 -0.038818 0.015856 255 220 0
0.555897 -0.057048 0.046618 255 220 0
0.568910 0.013737 0.078598 255 220 0
0.604879 0.008508 0.012204 255 220 0
0.574086 -0.027922 0.080431 255 220 0
0.621120 0.009502 0.094383 255 220 0
0.573135 0.039125 0.031043 255 220 0
0.564427 -0.054378 0.010968 255 220 0
0.648081 0.040695 0.071972 255 220 0
0.617373 -0.005752 0.088279 255 220 0
0.647693 0.039430 0.052506 255 220 0
