ply
format ascii 1.0
element vertex 1024
property float x
property float y
property float z
property uchar red
property uchar green
property uchar blue
end_header
0.390523 0.041911 0.044594 255 220 0
0.424507 0.114968 0.019090 255 220 0
0.435957 0.182135 0.075449 255 220 0
0.442540 0.142866 0.070620 255 220 0
0.429139 0.095431 0.044620 255 220 0
0.400960 0.133035 0.102977 255 220 0
0.422040 0.096836 0.023185 255 220 0
0.407013 0.181499 0.034192 255 220 0
0.366971 0.109499 0.090675 255 220 0
0.442316 0.149206 0.044293 255 220 0
0.404369 0.182735 0.035891 255 220 0
0.375502 0.174125 0.054820 255 220 0
0.390810 0.145237 0.022355 255 220 0
0.391869 0.066473 0.004319 255 220 0
0.432187 0.154269 0.026807 255 220 0
0.441929 0.141156 0.072140 255 220 0
0.443595 0.158495 0.064048 255 220 0
0.358373 0.118243 0.063404 255 220 0
0.390355 0.056252 0.002437 255 220 0
0.400199 0.121348 0.012329 255 220 0
0.414508 0.078746 0.021259 255 220 0
0.439296 0.169395 0.045578 255 220 0
0.405205 0.197436 0.083498 255 220 0
0.428731 0.188404 0.047162 255 220 0
0.377384 0.114500 0.096991 255 220 0
0.356233 0.090613 0.055983 255 220 0
0.439899 0.146698 0.036953 255 220 0
0.415697 0.168283 0.098664 255 220 0
0.394487 0.076469 0.006780 255 220 0
0.386216 0.121123 0.100517 255 220 0
0.358168 0.070364 0.042018 255 220 0
0.379813 0.095799 0.092967 255 220 0
0.443168 0.150508 0.069493 255 220 0
0.362953 0.061063 0.022083 255 220 0
0.433665 0.134316 0.026513 255 220 0
0.420975 0.077976 0.048195 255 220 0
0.365075 0.136365 0.047625 255 220 0
0.380536 0.051450 0.000278 255 220 0
0.368213 0.125384 0.037533 255 220 0
0.429783 0.194302 0.068151 255 220 0
0.423123 0.169656 0.027730 255 220 0
0.415533 0.068126 0.042496 255 220 0
0.428439 0.103677 0.029477 255 220 0
0.378577 0.180582 0.057265 255 220 0
0.376608 0.045735 0.056489 255 220 0
0.421747 0.085097 0.065753 255 220 0
0.376817 0.176253 0.054573 255 220 0
0.415015 0.183269 0.094617 255 220 0
0.405278 0.073441 0.074886 255 220 0
0.359077 0.089381 0.042396 255 220 0
0.430936 0.192216 0.061137 255 220 0
0.441672 0.146112 0.041714 255 220 0
0.387577 0.042304 0.047898 255 220 0
0.438183 0.161075 0.037649 255 220 0
0.399201 0.161935 0.024581 255 220 0
0.363337 0.111724 0.086757 255 220 0
0.365298 0.152705 0.065565 255 220 0
0.421464 0.158281 0.021716 255 220 0
0.404137 0.062983 0.013554 255 220 0
0.362739 0.078636 0.075916 255 220 0
0.416177 0.082359 0.021979 255 220 0
0.359119 0.090004 0.042485 255 220 0
0.357558 0.072290 0.050552 255 220 0
0.430817 0.178187 0.038353 255 220 0
0.368092 0.045341 0.052145 255 220 0
0.371457 0.098369 0.023935 255 220 0
0.378674 0.179333 0.054798 255 220 0
0.407472 0.061080 0.055887 255 220 0
0.425380 0.197896 0.071355 255 220 0
0.362367 0.135111 0.078983 255 220 0
0.431948 0.117204 0.027663 255 220 0
0.409314 0.102865 0.011852 255 220 0
0.370938 0.050523 0.060366 255 220 0
0.425493 0.095425 0.030219 255 220 0
0.364569 0.131106 0.045961 255 220 0
0.397180 0.091763 0.090487 255 220 0
0.426769 0.196296 0.063537 255 220 0
0.368153 0.116139 0.034109 255 220 0
0.404169 0.099746 0.092571 255 220 0
0.399682 0.048587 0.015576 255 220 0
0.359190 0.123782 0.064830 255 220 0
0.361365 0.048148 0.033642 255 220 0
0.427631 0.158536 0.024571 255 220 0
0.438253 0.117803 0.047492 255 220 0
0.366162 0.112838 0.036130 255 220 0
0.433909 0.126047 0.083130 255 220 0
0.369750 0.166287 0.068463 255 220 0
0.370490 0.123129 0.033263 255 220 0
0.391925 0.048101 0.054608 255 220 0
0.372710 0.168485 0.054785 255 220 0
0.418776 0.130348 0.014811 255 220 0
0.435875 0.185841 0.068561 255 220 0
0.374284 0.174519 0.076260 255 220 0
0.438879 0.129210 0.037431 255 220 0
0.438139 0.179861 0.054360 255 220 0
0.383091 0.186048 0.057162 255 220 0
0.383692 0.116094 0.099164 255 220 0
0.362085 0.134830 0.055973 255 220 0
0.433776 0.106005 0.045877 255 220 0
0.382464 0.038023 0.042070 255 220 0
0.396892 0.163057 0.100529 255 220 0
0.421172 0.133852 0.097111 255 220 0
0.403806 0.054155 0.018827 255 220 0
0.437240 0.162054 0.082425 255 220 0
0.402521 0.087222 0.086499 255 220 0
0.361022 0.133948 0.063141 255 220 0
0.381237 0.178647 0.085232 255 220 0
0.428252 0.110752 0.024754 255 220 0
0.424040 0.122665 0.092252 255 220 0
0.381203 0.127893 0.099552 255 220 0
0.427377 0.090837 0.048087 255 220 0
0.358785 0.115674 0.073482 255 220 0
0.363828 0.076517 0.027266 255 220 0
0.437239 0.121012 0.037890 255 220 0
0.383062 0.170177 0.091858 255 220 0
0.391089 0.145720 0.102148 255 220 0
0.423928 0.162468 0.024291 255 220 0
0.394466 0.045601 0.008714 255 220 0
0.418899 0.131369 0.014959 255 220 0
0.397209 0.191783 0.049301 255 220 0
0.425159 0.198121 0.069885 255 220 0
0.424279 0.101646 0.080424 255 220 0
0.410970 0.132504 0.013381 255 220 0
0.411334 0.197109 0.051803 255 220 0
0.362241 0.130390 0.080997 255 220 0
0.358722 0.113757 0.052953 255 220 0
0.402515 0.162371 0.023659 255 220 0
0.370302 0.035657 0.035546 255 220 0
0.392086 0.044747 0.048735 255 220 0
0.408262 0.118607 0.099025 255 220 0
0.436538 0.147896 0.084779 255 220 0
0.438236 0.129969 0.077493 255 220 0
0.364554 0.052124 0.012937 255 220 0
0.400801 0.060104 0.063798 255 220 0
0.361387 0.136301 0.069663 255 220 0
0.394821 0.057049 0.005178 255 220 0
0.432135 0.191624 0.066359 255 220 0
0.396908 0.072527 0.078573 255 220 0
0.389995 0.049535 0.002679 255 220 0
0.386838 0.104744 0.013918 255 220 0
0.381362 0.116019 0.098530 255 220 0
0.404490 0.074090 0.076065 255 220 0
0.384779 0.095589 0.012765 255 220 0
0.426023 0.190663 0.084646 255 220 0
0.440630 0.170288 0.051158 255 220 0
0.369152 0.126382 0.036499 255 220 0
0.382349 0.091856 0.091580 255 220 0
0.361047 0.053846 0.024647 255 220 0
0.402066 0.063541 0.010968 255 220 0
0.389997 0.119044 0.100802 255 220 0
0.376852 0.131870 0.028899 255 220 0
0.361744 0.137779 0.071283 255 220 0
0.409208 0.057735 0.034111 255 220 0
0.392039 0.039085 0.035024 255 220 0
0.357169 0.107826 0.058398 255 220 0
0.370221 0.167224 0.070615 255 220 0
0.367761 0.121727 0.036783 255 220 0
0.373426 0.084376 0.016859 255 220 0
0.430432 0.192397 0.075462 255 220 0
0.425199 0.086634 0.045034 255 220 0
0.360962 0.086494 0.037114 255 220 0
0.441984 0.149489 0.043177 255 220 0
0.394204 0.167728 0.098741 255 220 0
0.379053 0.096049 0.016391 255 220 0
0.434357 0.162049 0.032050 255 220 0
0.384741 0.063018 0.073113 255 220 0
0.380485 0.123098 0.022864 255 220 0
0.365556 0.134104 0.045547 255 220 0
0.382585 0.170944 0.091126 255 220 0
0.442556 0.161503 0.052060 255 220 0
0.401741 0.110829 0.097968 255 220 0
0.401745 0.118820 0.100521 255 220 0
0.383178 0.188352 0.071108 255 220 0
0.416070 0.198808 0.081168 255 220 0
0.370014 0.166425 0.063087 255 220 0
0.404955 0.195583 0.085948 255 220 0
0.426711 0.091375 0.040368 255 220 0
0.358673 0.106557 0.049172 255 220 0
0.405321 0.078491 0.079231 255 220 0
0.433372 0.130457 0.026411 255 220 0
0.370930 0.155804 0.085551 255 220 0
0.392402 0.100385 0.095064 255 220 0
0.413858 0.065376 0.038327 255 220 0
0.382945 0.169428 0.092087 255 220 0
0.359621 0.065909 0.056943 255 220 0
0.419233 0.100633 0.018537 255 220 0
0.419896 0.194633 0.049984 255 220 0
0.429884 0.095988 0.056630 255 220 0
0.383424 0.170230 0.092117 255 220 0
0.406153 0.089045 0.011639 255 220 0
0.366026 0.103197 0.033206 255 220 0
0.434935 0.135808 0.085567 255 220 0
0.359743 0.119579 0.076642 255 220 0
0.391885 0.045507 0.050299 255 220 0
0.415620 0.125106 0.098093 255 220 0
0.443280 0.144345 0.068369 255 220 0
0.398602 0.160274 0.101310 255 220 0
0.414053 0.066959 0.050313 255 220 0
0.398426 0.173260 0.031035 255 220 0
0.428106 0.108633 0.025588 255 220 0
0.424156 0.126772 0.093445 255 220 0
0.391146 0.194883 0.067970 255 220 0
0.364404 0.147339 0.059964 255 220 0
0.370865 0.168749 0.070996 255 220 0
0.420417 0.159625 0.098313 255 220 0
0.402991 0.086154 0.085694 255 220 0
0.396673 0.198074 0.068338 255 220 0
0.369171 0.153366 0.049680 255 220 0
0.436029 0.180182 0.047904 255 220 0
0.369785 0.127864 0.092290 255 220 0
0.418286 0.201117 0.065556 255 220 0
0.407704 0.194411 0.087807 255 220 0
0.389740 0.072954 0.080443 255 220 0
0.404382 0.105874 0.095346 255 220 0
0.368015 0.154817 0.053524 255 220 0
0.384792 0.054777 0.065713 255 220 0
0.434425 0.168994 0.085392 255 220 0
0.406935 0.107512 0.095282 255 220 0
0.427893 0.186865 0.085519 255 220 0
0.375553 0.066604 0.075474 255 220 0
0.421510 0.080145 0.055647 255 220 0
0.398083 0.085703 0.008866 255 220 0
0.374931 0.035514 0.011589 255 220 0
0.433363 0.190037 0.068001 255 220 0
0.383749 0.182203 0.049844 255 220 0
0.359948 0.054807 0.033648 255 220 0
0.412970 0.076354 0.069773 255 220 0
0.394646 0.146346 0.102715 255 220 0
0.385505 0.112527 0.098807 255 220 0
0.358341 0.097052 0.074810 255 220 0
0.418112 0.105502 0.088775 255 220 0
0.368979 0.036040 0.033755 255 220 0
0.361538 0.082854 0.034588 255 220 0
0.378002 0.041315 0.049933 255 220 0
0.362188 0.123240 0.047288 255 220 0
0.361878 0.138909 0.067131 255 220 0
0.384846 0.093282 0.092283 255 220 0
0.419254 0.187454 0.039804 255 220 0
0.442240 0.167087 0.063826 255 220 0
0.431382 0.153399 0.091674 255 220 0
0.388593 0.094343 0.092705 255 220 0
0.362391 0.136256 0.078248 255 220 0
0.425276 0.189742 0.045746 255 220 0
0.443785 0.157545 0.058192 255 220 0
0.398296 0.069936 0.075902 255 220 0
0.416987 0.182213 0.094434 255 220 0
0.397120 0.159398 0.024331 255 220 0
0.372559 0.090201 0.019926 255 220 0
0.418419 0.201020 0.065190 255 220 0
0.399756 0.198916 0.075941 255 220 0
0.366970 0.158237 0.069502 255 220 0
0.367467 0.057493 0.064504 255 220 0
0.425185 0.089361 0.063642 255 220 0
0.374781 0.173411 0.055771 255 220 0
0.407353 0.195541 0.086504 255 220 0
0.397860 0.175070 0.032497 255 220 0
0.393921 0.115715 0.013110 255 220 0
0.356266 0.088323 0.056942 255 220 0
0.378510 0.051462 0.062856 255 220 0
0.383586 0.159165 0.096310 255 220 0
0.435964 0.126023 0.031631 255 220 0
0.377775 0.165427 0.089164 255 220 0
0.379502 0.175772 0.048892 255 220 0
0.371684 0.124659 0.093958 255 220 0
0.366837 0.156221 0.074011 255 220 0
0.369475 0.145072 0.089026 255 220 0
0.397725 0.050836 0.053262 255 220 0
0.362921 0.115729 0.085853 255 220 0
0.362923 0.121147 0.044771 255 220 0
0.429845 0.194043 0.065668 255 220 0
0.365719 0.141591 0.084371 255 220 0
0.408410 0.197448 0.084226 255 220 0
0.396846 0.115118 0.012064 255 220 0
0.443950 0.153662 0.054691 255 220 0
0.358071 0.115663 0.065658 255 220 0
0.407666 0.083887 0.081845 255 220 0
0.410915 0.166014 0.023956 255 220 0
0.379350 0.067469 0.076627 255 220 0
0.383869 0.122335 0.100071 255 220 0
0.368289 0.153349 0.082149 255 220 0
0.372062 0.164548 0.052213 255 220 0
0.412471 0.064526 0.030921 255 220 0
0.367175 0.038156 0.035385 255 220 0
0.381966 0.166842 0.092371 255 220 0
0.433569 0.149554 0.027288 255 220 0
0.398648 0.151907 0.102550 255 220 0
0.407895 0.106171 0.011195 255 220 0
0.434361 0.181326 0.045905 255 220 0
0.374267 0.067947 0.008528 255 220 0
0.371248 0.130468 0.035108 255 220 0
0.364833 0.073329 0.023943 255 220 0
0.361982 0.102756 0.084277 255 220 0
0.372814 0.134726 0.034675 255 220 0
0.409524 0.173074 0.027885 255 220 0
0.397693 0.047236 0.012809 255 220 0
0.421500 0.140266 0.017229 255 220 0
0.400192 0.114076 0.099342 255 220 0
0.365788 0.148428 0.054468 255 220 0
0.431242 0.149119 0.024908 255 220 0
0.377566 0.165220 0.089041 255 220 0
0.430710 0.123135 0.024071 255 220 0
0.362419 0.105730 0.085270 255 220 0
0.388455 0.165085 0.032238 255 220 0
0.406161 0.064445 0.015748 255 220 0
0.382691 0.177459 0.046126 255 220 0
0.358885 0.119968 0.058325 255 220 0
0.360004 0.092161 0.041057 255 220 0
0.364818 0.138823 0.083781 255 220 0
0.375694 0.141031 0.033577 255 220 0
0.371668 0.033733 0.029613 255 220 0
0.385553 0.045353 0.054154 255 220 0
0.380833 0.033857 0.031385 255 220 0
0.427842 0.150050 0.022430 255 220 0
0.406329 0.080470 0.080143 255 220 0
0.442853 0.133041 0.052828 255 220 0
0.369745 0.077556 0.081431 255 220 0
0.419394 0.083269 0.027139 255 220 0
0.405070 0.165768 0.100754 255 220 0
0.422863 0.083441 0.058862 255 220 0
0.392701 0.184414 0.043462 255 220 0
0.419558 0.171576 0.027707 255 220 0
0.429724 0.097690 0.041945 255 220 0
0.420988 0.078176 0.050455 255 220 0
0.409540 0.140822 0.102225 255 220 0
0.387551 0.113787 0.099394 255 220 0
0.410263 0.065464 0.022517 255 220 0
0.438071 0.154623 0.081788 255 220 0
0.371286 0.127731 0.093560 255 220 0
0.397199 0.042173 0.023709 255 220 0
0.414202 0.166615 0.024249 255 220 0
0.383535 0.054870 0.065966 255 220 0
0.366874 0.150477 0.052898 255 220 0
0.422889 0.193915 0.084183 255 220 0
0.405483 0.091578 0.087806 255 220 0
0.428076 0.092081 0.050708 255 220 0
0.417991 0.177848 0.031328 255 220 0
0.366993 0.104302 0.090153 255 220 0
0.385955 0.135565 0.022435 255 220 0
0.431169 0.128559 0.023854 255 220 0
0.374963 0.136476 0.096068 255 220 0
0.360884 0.089716 0.038388 255 220 0
0.400908 0.123343 0.101683 255 220 0
0.375796 0.088210 0.016212 255 220 0
0.376316 0.034280 0.014450 255 220 0
0.436580 0.122574 0.034703 255 220 0
0.422749 0.132085 0.095774 255 220 0
0.404965 0.077631 0.078762 255 220 0
0.376406 0.173916 0.052445 255 220 0
0.422674 0.162183 0.096951 255 220 0
0.405782 0.103619 0.093900 255 220 0
0.361383 0.135368 0.062054 255 220 0
0.416059 0.201867 0.067860 255 220 0
0.363741 0.065933 0.022839 255 220 0
0.371488 0.111332 0.027979 255 220 0
0.357007 0.077775 0.053754 255 220 0
0.387062 0.119833 0.017403 255 220 0
0.367098 0.037238 0.030418 255 220 0
0.377872 0.038474 0.044589 255 220 0
0.365261 0.112401 0.037480 255 220 0
0.425392 0.191016 0.084946 255 220 0
0.444493 0.143731 0.060140 255 220 0
0.365437 0.039990 0.033804 255 220 0
0.442044 0.157782 0.046676 255 220 0
0.359686 0.057949 0.033936 255 220 0
0.358200 0.075926 0.041793 255 220 0
0.418934 0.143495 0.099416 255 220 0
0.423582 0.097245 0.025224 255 220 0
0.411533 0.154135 0.101465 255 220 0
0.397934 0.185889 0.041602 255 220 0
0.360874 0.121519 0.080158 255 220 0
0.389037 0.058609 0.068643 255 220 0
0.416304 0.185650 0.037368 255 220 0
0.391283 0.149525 0.101706 255 220 0
0.403001 0.128182 0.102255 255 220 0
0.359754 0.125700 0.059674 255 220 0
0.367380 0.139070 0.044795 255 220 0
0.440451 0.124851 0.065052 255 220 0
0.417340 0.093647 0.019020 255 220 0
0.405784 0.175306 0.029885 255 220 0
0.410342 0.199635 0.056915 255 220 0
0.370889 0.080631 0.083805 255 220 0
0.358788 0.108873 0.076498 255 220 0
0.438157 0.180228 0.055315 255 220 0
0.406207 0.098238 0.011145 255 220 0
0.409632 0.157178 0.101526 255 220 0
0.388384 0.116641 0.015840 255 220 0
0.435206 0.122676 0.079008 255 220 0
0.393439 0.120038 0.014165 255 220 0
0.369831 0.050571 0.004681 255 220 0
0.413574 0.166496 0.099540 255 220 0
0.408996 0.070200 0.017253 255 220 0
0.399214 0.145293 0.018392 255 220 0
0.390934 0.089404 0.090228 255 220 0
0.382567 0.175491 0.044545 255 220 0
0.432929 0.190631 0.068282 255 220 0
0.433900 0.173663 0.084577 255 220 0
0.374770 0.177165 0.067099 255 220 0
0.358941 0.111306 0.076517 255 220 0
0.368436 0.157499 0.054939 255 220 0
0.437180 0.176190 0.077289 255 220 0
0.399077 0.113478 0.011351 255 220 0
0.409280 0.059465 0.027903 255 220 0
0.397859 0.170433 0.029547 255 220 0
0.437133 0.182761 0.069634 255 220 0
0.365796 0.115022 0.037473 255 220 0
0.419005 0.156951 0.020633 255 220 0
0.414484 0.168497 0.025235 255 220 0
0.362569 0.107577 0.085622 255 220 0
0.383793 0.130962 0.022631 255 220 0
0.441665 0.170102 0.060146 255 220 0
0.406636 0.061411 0.018305 255 220 0
0.363492 0.066601 0.023721 255 220 0
0.361661 0.130351 0.053440 255 220 0
0.400614 0.112785 0.011047 255 220 0
0.411206 0.121108 0.011963 255 220 0
0.420427 0.172697 0.095914 255 220 0
0.422380 0.082629 0.037585 255 220 0
0.397941 0.053562 0.057420 255 220 0
0.367699 0.071763 0.018298 255 220 0
0.430903 0.101807 0.039229 255 220 0
0.369265 0.165025 0.066629 255 220 0
0.400004 0.083598 0.085227 255 220 0
0.423077 0.174918 0.093942 255 220 0
0.371168 0.039924 0.007786 255 220 0
0.356756 0.084863 0.061192 255 220 0
0.443715 0.139291 0.063880 255 220 0
0.384918 0.154445 0.029913 255 220 0
0.369598 0.063058 0.070678 255 220 0
0.372687 0.171300 0.059605 255 220 0
0.389435 0.041183 0.006608 255 220 0
0.425581 0.195914 0.059041 255 220 0
0.406753 0.184499 0.095063 255 220 0
0.410403 0.199387 0.081260 255 220 0
0.392247 0.188840 0.087019 255 220 0
0.396935 0.069730 0.076289 255 220 0
0.364484 0.044367 0.014930 255 220 0
0.440465 0.174817 0.059646 255 220 0
0.378933 0.163231 0.040551 255 220 0
0.428335 0.147613 0.094381 255 220 0
0.357095 0.107868 0.063136 255 220 0
0.439292 0.178639 0.062169 255 220 0
0.373429 0.174613 0.066641 255 220 0
0.419005 0.189087 0.041547 255 220 0
0.443601 0.142028 0.066214 255 220 0
0.412607 0.065070 0.050791 255 220 0
0.395533 0.187412 0.044757 255 220 0
0.394345 0.039998 0.032384 255 220 0
0.384323 0.174074 0.091102 255 220 0
0.364559 0.148095 0.060252 255 220 0
0.390210 0.189899 0.052830 255 220 0
0.437003 0.116580 0.068512 255 220 0
0.399865 0.048808 0.015736 255 220 0
0.426739 0.168621 0.093287 255 220 0
0.425745 0.136476 0.019116 255 220 0
0.415939 0.184577 0.036318 255 220 0
0.403855 0.105102 0.095158 255 220 0
0.419304 0.075396 0.040214 255 220 0
0.426683 0.092927 0.065507 255 220 0
0.442037 0.164480 0.069215 255 220 0
0.381866 0.054525 0.065766 255 220 0
0.370887 0.070112 0.076800 255 220 0
0.439062 0.123961 0.070255 255 220 0
0.442444 0.130113 0.058790 255 220 0
0.357621 0.072099 0.051416 255 220 0
0.361453 0.132168 0.077116 255 220 0
0.405713 0.196824 0.084540 255 220 0
0.372379 0.056322 0.004325 255 220 0
0.401541 0.084847 0.009766 255 220 0
0.402128 0.106019 0.010432 255 220 0
0.433521 0.131416 0.026522 255 220 0
0.382293 0.184505 0.080161 255 220 0
0.426298 0.139363 0.019776 255 220 0
0.408897 0.057921 0.030288 255 220 0
0.358658 0.115491 0.072735 255 220 0
0.410063 0.088230 0.014043 255 220 0
0.358089 0.107052 0.073658 255 220 0
0.438462 0.163888 0.079696 255 220 0
0.440259 0.154998 0.077208 255 220 0
0.409619 0.151858 0.018307 255 220 0
0.377312 0.124405 0.025997 255 220 0
0.434119 0.170199 0.085478 255 220 0
0.375801 0.176550 0.058031 255 220 0
0.369629 0.146652 0.088557 255 220 0
0.395390 0.152353 0.022360 255 220 0
0.434217 0.171028 0.037122 255 220 0
0.384640 0.037040 0.038315 255 220 0
0.358906 0.062391 0.045560 255 220 0
0.398218 0.101706 0.010179 255 220 0
0.387229 0.171318 0.094336 255 220 0
0.360711 0.113391 0.081813 255 220 0
0.444177 0.145878 0.064539 255 220 0
0.409920 0.195454 0.049201 255 220 0
0.384581 0.053768 0.064751 255 220 0
0.383120 0.170162 0.091911 255 220 0
0.376644 0.057065 0.067855 255 220 0
0.369077 0.110970 0.030988 255 220 0
0.432988 0.112977 0.032272 255 220 0
0.426504 0.137648 0.094361 255 220 0
0.366649 0.065330 0.016694 255 220 0
0.379131 0.101206 0.094762 255 220 0
0.378551 0.111819 0.097069 255 220 0
0.360055 0.055478 0.031174 255 220 0
0.402065 0.060133 0.011894 255 220 0
0.402033 0.076261 0.079330 255 220 0
0.372741 0.134600 0.034723 255 220 0
0.370237 0.131023 0.036806 255 220 0
0.424523 0.133619 0.018078 255 220 0
0.389649 0.164927 0.031285 255 220 0
0.440780 0.128512 0.045087 255 220 0
0.373426 0.167277 0.082017 255 220 0
0.376707 0.050502 0.061832 255 220 0
0.376204 0.074525 0.010081 255 220 0
0.391895 0.037466 0.026745 255 220 0
0.386549 0.087085 0.089330 255 220 0
0.363284 0.055282 0.056074 255 220 0
0.363666 0.049434 0.014776 255 220 0
0.424067 0.177570 0.092579 255 220 0
0.358111 0.077344 0.062752 255 220 0
0.359715 0.126082 0.070171 255 220 0
0.438011 0.139619 0.081477 255 220 0
0.435210 0.144684 0.028680 255 220 0
0.428927 0.142350 0.022050 255 220 0
0.411954 0.063625 0.030571 255 220 0
0.439047 0.176967 0.070339 255 220 0
0.356593 0.098414 0.055021 255 220 0
0.388953 0.058119 0.068184 255 220 0
0.420816 0.200062 0.073180 255 220 0
0.400575 0.159638 0.023071 255 220 0
0.402491 0.073574 0.076900 255 220 0
0.392968 0.053918 0.004044 255 220 0
0.383513 0.080939 0.008537 255 220 0
0.417556 0.072733 0.052013 255 220 0
0.390778 0.047074 0.053841 255 220 0
0.410280 0.202225 0.071229 255 220 0
0.381327 0.126263 0.099510 255 220 0
0.442743 0.160304 0.052055 255 220 0
0.375260 0.123264 0.027645 255 220 0
0.419414 0.124192 0.014756 255 220 0
0.399464 0.109346 0.010795 255 220 0
0.361386 0.047541 0.025841 255 220 0
0.432419 0.126729 0.025626 255 220 0
0.409152 0.104950 0.011616 255 220 0
0.409712 0.059310 0.044466 255 220 0
0.360110 0.118578 0.078625 255 220 0
0.409822 0.149718 0.102094 255 220 0
0.420060 0.090105 0.075117 255 220 0
0.368224 0.142737 0.045240 255 220 0
0.372199 0.163733 0.051235 255 220 0
0.377738 0.171419 0.085879 255 220 0
0.436463 0.111846 0.061721 255 220 0
0.399033 0.149744 0.019894 255 220 0
0.400289 0.099222 0.093403 255 220 0
0.365562 0.141496 0.049591 255 220 0
0.415709 0.082338 0.021284 255 220 0
0.367629 0.041565 0.010635 255 220 0
0.418486 0.080849 0.027228 255 220 0
0.366038 0.080054 0.024525 255 220 0
0.428379 0.093181 0.058004 255 220 0
0.414632 0.149012 0.100985 255 220 0
0.423539 0.096187 0.076385 255 220 0
0.396589 0.091503 0.090468 255 220 0
0.402561 0.084158 0.084651 255 220 0
0.365138 0.151903 0.070541 255 220 0
0.368659 0.092279 0.025273 255 220 0
0.387857 0.087777 0.089621 255 220 0
0.366647 0.097538 0.030255 255 220 0
0.393616 0.191999 0.084219 255 220 0
0.383060 0.134741 0.100494 255 220 0
0.432155 0.147732 0.025553 255 220 0
0.361404 0.130849 0.077831 255 220 0
0.427998 0.187388 0.044877 255 220 0
0.442722 0.146928 0.070797 255 220 0
0.397751 0.042768 0.023820 255 220 0
0.421772 0.170408 0.027663 255 220 0
0.434295 0.109299 0.067790 255 220 0
0.404803 0.092800 0.010909 255 220 0
0.361463 0.048368 0.023496 255 220 0
0.414987 0.112459 0.013158 255 220 0
0.409305 0.065765 0.060615 255 220 0
0.425287 0.170985 0.029477 255 220 0
0.429858 0.105897 0.075386 255 220 0
0.429475 0.153267 0.024274 255 220 0
0.357862 0.072615 0.055292 255 220 0
0.407884 0.196782 0.051743 255 220 0
0.360281 0.084054 0.037817 255 220 0
0.359410 0.122673 0.057722 255 220 0
0.360470 0.079673 0.035950 255 220 0
0.359889 0.083798 0.073811 255 220 0
0.407318 0.063980 0.061137 255 220 0
0.408686 0.179748 0.032527 255 220 0
0.436132 0.112594 0.045110 255 220 0
0.378060 0.068614 0.077380 255 220 0
0.418865 0.083542 0.069423 255 220 0
0.436112 0.110824 0.061276 255 220 0
0.401033 0.179307 0.034255 255 220 0
0.400875 0.112510 0.098720 255 220 0
0.419892 0.076011 0.048253 255 220 0
0.356951 0.100216 0.067784 255 220 0
0.365837 0.106012 0.089365 255 220 0
0.435679 0.109790 0.049755 255 220 0
0.376175 0.059797 0.003478 255 220 0
0.441843 0.140995 0.042526 255 220 0
0.362079 0.139748 0.069717 255 220 0
0.423371 0.197718 0.060540 255 220 0
0.434526 0.107187 0.048186 255 220 0
0.369050 0.093181 0.088722 255 220 0
0.363701 0.061365 0.020411 255 220 0
0.426471 0.154008 0.095657 255 220 0
0.424051 0.123611 0.092564 255 220 0
0.365809 0.151861 0.075662 255 220 0
0.387322 0.035327 0.029595 255 220 0
0.443123 0.162273 0.058980 255 220 0
0.363065 0.141484 0.076046 255 220 0
0.381197 0.185951 0.072979 255 220 0
0.404907 0.068919 0.012801 255 220 0
0.395961 0.197750 0.069665 255 220 0
0.388590 0.166393 0.096815 255 220 0
0.398169 0.046028 0.042710 255 220 0
0.398711 0.126484 0.102374 255 220 0
0.439584 0.175595 0.053461 255 220 0
0.358582 0.104074 0.048410 255 220 0
0.432644 0.188566 0.076561 255 220 0
0.405005 0.092032 0.011006 255 220 0
0.357321 0.088903 0.067774 255 220 0
0.356430 0.088879 0.060944 255 220 0
0.393279 0.137032 0.018492 255 220 0
0.390777 0.101624 0.095649 255 220 0
0.393101 0.082337 0.086113 255 220 0
0.442074 0.131309 0.049171 255 220 0
0.386585 0.150893 0.100007 255 220 0
0.362026 0.048573 0.040464 255 220 0
0.430629 0.108082 0.030624 255 220 0
0.442514 0.165323 0.064706 255 220 0
0.385779 0.083313 0.087361 255 220 0
0.440005 0.176285 0.058994 255 220 0
0.383980 0.153622 0.030349 255 220 0
0.442283 0.129475 0.059055 255 220 0
0.364997 0.060428 0.064424 255 220 0
0.438351 0.180503 0.067216 255 220 0
0.413762 0.192343 0.044679 255 220 0
0.366706 0.087145 0.026226 255 220 0
0.378921 0.101004 0.017962 255 220 0
0.430151 0.096827 0.058654 255 220 0
0.369228 0.040278 0.045373 255 220 0
0.441289 0.160410 0.045413 255 220 0
0.425874 0.182640 0.038099 255 220 0
0.383075 0.033267 0.019053 255 220 0
0.394115 0.054308 0.061740 255 220 0
0.432225 0.189973 0.057651 255 220 0
0.381286 0.080066 0.085482 255 220 0
0.404257 0.062557 0.013870 255 220 0
0.409246 0.118564 0.098701 255 220 0
0.386700 0.164578 0.096375 255 220 0
0.395795 0.133775 0.016432 255 220 0
0.429906 0.194173 0.069624 255 220 0
0.408547 0.094903 0.012348 255 220 0
0.387620 0.039880 0.042906 255 220 0
0.384058 0.042135 0.002902 255 220 0
0.396447 0.041503 0.031145 255 220 0
0.419045 0.074425 0.043527 255 220 0
0.386921 0.122674 0.018222 255 220 0
0.429377 0.108849 0.078981 255 220 0
0.379683 0.165744 0.041128 255 220 0
0.381826 0.143333 0.099313 255 220 0
0.402330 0.169794 0.027447 255 220 0
0.390344 0.056332 0.002435 255 220 0
0.362486 0.088534 0.080909 255 220 0
0.363548 0.066419 0.023507 255 220 0
0.423759 0.132137 0.017490 255 220 0
0.356297 0.096650 0.058124 255 220 0
0.383687 0.099083 0.014256 255 220 0
0.363136 0.144252 0.065225 255 220 0
0.437604 0.140051 0.032178 255 220 0
0.426661 0.114815 0.086557 255 220 0
0.421990 0.159505 0.022342 255 220 0
0.372500 0.067768 0.010071 255 220 0
0.417279 0.076413 0.028719 255 220 0
0.426865 0.089794 0.055455 255 220 0
0.440752 0.146445 0.039068 255 220 0
0.373322 0.174424 0.069187 255 220 0
0.435224 0.123748 0.079685 255 220 0
0.429206 0.101596 0.071897 255 220 0
0.387727 0.148966 0.100785 255 220 0
0.438525 0.143966 0.080941 255 220 0
0.365070 0.118582 0.088425 255 220 0
0.383585 0.048885 0.000452 255 220 0
0.376892 0.086951 0.014834 255 220 0
0.414912 0.077643 0.068481 255 220 0
0.396236 0.045224 0.012179 255 220 0
0.384123 0.162731 0.034608 255 220 0
0.419513 0.169339 0.097108 255 220 0
0.429756 0.193903 0.064058 255 220 0
0.431156 0.109550 0.076340 255 220 0
0.425729 0.184245 0.039511 255 220 0
0.390595 0.116179 0.100236 255 220 0
0.386858 0.169662 0.094723 255 220 0
0.439858 0.125486 0.044022 255 220 0
0.425550 0.116430 0.019764 255 220 0
0.360031 0.054117 0.035496 255 220 0
0.439328 0.131926 0.075960 255 220 0
0.374541 0.164938 0.085455 255 220 0
0.390540 0.041113 0.007844 255 220 0
0.422377 0.081084 0.053226 255 220 0
0.371384 0.130292 0.034841 255 220 0
0.407183 0.152495 0.018774 255 220 0
0.443103 0.140699 0.047782 255 220 0
0.373677 0.058270 0.004275 255 220 0
0.362644 0.061660 0.061576 255 220 0
0.424575 0.094649 0.028841 255 220 0
0.404030 0.102862 0.094097 255 220 0
0.374972 0.072072 0.079468 255 220 0
0.368583 0.049493 0.005811 255 220 0
0.414630 0.089243 0.017638 255 220 0
0.373486 0.125021 0.095228 255 220 0
0.383287 0.155737 0.031907 255 220 0
0.396506 0.042028 0.033954 255 220 0
0.394482 0.091303 0.009252 255 220 0
0.401311 0.183516 0.037684 255 220 0
0.423934 0.085847 0.060525 255 220 0
0.403271 0.153343 0.102484 255 220 0
0.386840 0.177856 0.042135 255 220 0
0.413935 0.195756 0.086199 255 220 0
0.368303 0.141468 0.088730 255 220 0
0.378668 0.138406 0.029354 255 220 0
0.358086 0.112933 0.070257 255 220 0
0.443812 0.143679 0.050883 255 220 0
0.358827 0.072270 0.038803 255 220 0
0.433069 0.185422 0.049028 255 220 0
0.389342 0.191966 0.078660 255 220 0
0.357163 0.107669 0.058225 255 220 0
0.380378 0.169787 0.089693 255 220 0
0.363479 0.059461 0.019767 255 220 0
0.425566 0.197365 0.064557 255 220 0
0.411236 0.170389 0.099288 255 220 0
0.401799 0.187034 0.040893 255 220 0
0.443875 0.137605 0.059604 255 220 0
0.418129 0.194027 0.086789 255 220 0
0.381269 0.186449 0.068470 255 220 0
0.356233 0.091057 0.059323 255 220 0
0.411058 0.143255 0.015712 255 220 0
0.363933 0.085167 0.030489 255 220 0
0.396490 0.188724 0.089816 255 220 0
0.422829 0.103584 0.083588 255 220 0
0.420188 0.186684 0.091160 255 220 0
0.395494 0.055091 0.005950 255 220 0
0.422064 0.156855 0.021406 255 220 0
0.360906 0.106572 0.082668 255 220 0
0.436536 0.184881 0.066376 255 220 0
0.360483 0.129408 0.073374 255 220 0
0.431780 0.106647 0.071892 255 220 0
0.396971 0.196969 0.060906 255 220 0
0.359144 0.069947 0.059631 255 220 0
0.438323 0.156046 0.081191 255 220 0
0.377085 0.067603 0.006302 255 220 0
0.414803 0.073779 0.025198 255 220 0
0.395799 0.144979 0.102959 255 220 0
0.366811 0.061082 0.013675 255 220 0
0.366628 0.146863 0.050722 255 220 0
0.390926 0.110212 0.013188 255 220 0
0.395214 0.191369 0.086336 255 220 0
0.368621 0.162373 0.061975 255 220 0
0.415444 0.075219 0.025363 255 220 0
0.424493 0.179755 0.034932 255 220 0
0.413138 0.083848 0.077373 255 220 0
0.406022 0.101472 0.092783 255 220 0
0.397510 0.123691 0.101959 255 220 0
0.441778 0.131334 0.047256 255 220 0
0.357507 0.100095 0.071493 255 220 0
0.441977 0.142940 0.072425 255 220 0
0.363815 0.085239 0.030750 255 220 0
0.411576 0.062309 0.032308 255 220 0
0.377358 0.043053 0.002371 255 220 0
0.385612 0.129681 0.020989 255 220 0
0.417116 0.121186 0.013691 255 220 0
0.358836 0.121328 0.062696 255 220 0
0.357020 0.106820 0.063938 255 220 0
0.392772 0.045897 0.006344 255 220 0
0.420627 0.125413 0.095514 255 220 0
0.390203 0.168156 0.097043 255 220 0
0.359139 0.062117 0.047794 255 220 0
0.380215 0.132443 0.025940 255 220 0
0.398267 0.110944 0.098544 255 220 0
0.373843 0.034129 0.033890 255 220 0
0.366754 0.087067 0.026121 255 220 0
0.384458 0.187694 0.057897 255 220 0
0.389387 0.108831 0.013590 255 220 0
0.443603 0.140973 0.065677 255 220 0
0.398496 0.051352 0.053157 255 220 0
0.399480 0.052370 0.053580 255 220 0
0.434668 0.106886 0.051219 255 220 0
0.401363 0.160236 0.023069 255 220 0
0.382996 0.139084 0.025738 255 220 0
0.366041 0.129153 0.042510 255 220 0
0.366709 0.140074 0.086824 255 220 0
0.416705 0.162576 0.099290 255 220 0
0.396981 0.109882 0.098322 255 220 0
0.356836 0.103944 0.064795 255 220 0
0.384998 0.115902 0.017698 255 220 0
0.414806 0.113823 0.094757 255 220 0
0.357517 0.097523 0.071394 255 220 0
0.434440 0.126658 0.028632 255 220 0
0.432469 0.163451 0.089313 255 220 0
0.372039 0.149376 0.042712 255 220 0
0.386754 0.064893 0.074505 255 220 0
0.389696 0.154913 0.100273 255 220 0
0.432308 0.161664 0.029549 255 220 0
0.415847 0.129484 0.098962 255 220 0
0.381779 0.071171 0.079522 255 220 0
0.436822 0.175221 0.078723 255 220 0
0.398976 0.194782 0.084336 255 220 0
0.365180 0.065708 0.069249 255 220 0
0.377916 0.092174 0.091282 255 220 0
0.388131 0.107634 0.013925 255 220 0
0.359516 0.096586 0.043483 255 220 0
0.396293 0.045044 0.043878 255 220 0
0.361207 0.051368 0.041455 255 220 0
0.429379 0.134601 0.091266 255 220 0
0.371274 0.039366 0.045513 255 220 0
0.413094 0.200502 0.078425 255 220 0
0.378643 0.073008 0.080676 255 220 0
0.408865 0.192107 0.090081 255 220 0
0.369300 0.157458 0.081114 255 220 0
0.421927 0.084576 0.064466 255 220 0
0.416472 0.115763 0.094690 255 220 0
0.437984 0.179807 0.071138 255 220 0
0.405296 0.052459 0.027276 255 220 0
0.371966 0.037475 0.010193 255 220 0
0.433912 0.186075 0.052177 255 220 0
0.381692 0.036768 0.039414 255 220 0
0.358924 0.119861 0.057786 255 220 0
0.403060 0.140790 0.103136 255 220 0
0.427921 0.107417 0.080111 255 220 0
0.363754 0.141059 0.054884 255 220 0
0.434328 0.156586 0.029769 255 220 0
0.422447 0.098431 0.022949 255 220 0
0.406479 0.059243 0.054365 255 220 0
0.426827 0.096286 0.032754 255 220 0
0.366081 0.138605 0.086293 255 220 0
0.367526 0.155063 0.055327 255 220 0
0.407427 0.135147 0.102317 255 220 0
0.412139 0.096810 0.087425 255 220 0
0.372219 0.084771 0.018227 255 220 0
0.429015 0.188669 0.047946 255 220 0
0.424981 0.169734 0.028597 255 220 0
0.434230 0.181947 0.079702 255 220 0
0.394041 0.100815 0.010597 255 220 0
0.366261 0.132902 0.043773 255 220 0
0.380580 0.098618 0.094104 255 220 0
0.377484 0.170926 0.047722 255 220 0
0.367984 0.155339 0.079584 255 220 0
0.444209 0.140419 0.060300 255 220 0
0.435629 0.148464 0.086278 255 220 0
0.387827 0.117345 0.100200 255 220 0
0.397880 0.120052 0.012641 255 220 0
0.413730 0.132409 0.013668 255 220 0
0.429971 0.131387 0.022418 255 220 0
0.373703 0.133391 0.033006 255 220 0
0.364112 0.147302 0.062238 255 220 0
0.384764 0.152006 0.098985 255 220 0
0.412845 0.117590 0.097058 255 220 0
0.381913 0.172650 0.089710 255 220 0
0.377259 0.069818 0.007174 255 220 0
0.395256 0.186143 0.043509 255 220 0
0.373818 0.175439 0.067949 255 220 0
0.431919 0.119201 0.026811 255 220 0
0.370126 0.166905 0.070948 255 220 0
0.360059 0.124646 0.055758 255 220 0
0.377435 0.169530 0.046733 255 220 0
0.369192 0.035375 0.021564 255 220 0
0.406153 0.053714 0.027980 255 220 0
0.395681 0.075157 0.006926 255 220 0
0.372019 0.127866 0.094135 255 220 0
0.362436 0.139922 0.061383 255 220 0
0.369101 0.158232 0.079931 255 220 0
0.357103 0.104163 0.067749 255 220 0
0.372609 0.067812 0.009985 255 220 0
0.431669 0.157189 0.027176 255 220 0
0.413191 0.125318 0.012678 255 220 0
0.407865 0.176610 0.030373 255 220 0
0.394446 0.196830 0.072010 255 220 0
0.413562 0.202239 0.069358 255 220 0
0.369036 0.040613 0.045762 255 220 0
0.363704 0.138891 0.080986 255 220 0
0.377497 0.129433 0.027437 255 220 0
0.397996 0.042884 0.030732 255 220 0
0.363228 0.141198 0.057718 255 220 0
0.436061 0.184277 0.071951 255 220 0
0.376558 0.178868 0.060527 255 220 0
0.382294 0.066855 0.003859 255 220 0
0.372825 0.150981 0.090656 255 220 0
0.360936 0.116728 0.047336 255 220 0
0.419494 0.100296 0.084420 255 220 0
0.393696 0.060507 0.069023 255 220 0
0.436530 0.169401 0.081875 255 220 0
0.408330 0.056222 0.036538 255 220 0
0.430286 0.115132 0.025855 255 220 0
0.382486 0.058648 0.069495 255 220 0
0.358115 0.071864 0.056240 255 220 0
0.412818 0.133835 0.100786 255 220 0
0.359295 0.076316 0.038086 255 220 0
0.442464 0.163953 0.067171 255 220 0
0.432568 0.117299 0.028729 255 220 0
0.426314 0.089133 0.044588 255 220 0
0.395444 0.133213 0.103020 255 220 0
0.384394 0.189098 0.074013 255 220 0
0.390653 0.076351 0.006117 255 220 0
0.392945 0.045903 0.006538 255 220 0
0.395197 0.040670 0.019605 255 220 0
0.389495 0.193667 0.071719 255 220 0
0.391687 0.039261 0.012597 255 220 0
0.439889 0.123550 0.066047 255 220 0
0.383759 0.108506 0.016616 255 220 0
0.367010 0.101308 0.030960 255 220 0
0.404471 0.154198 0.019846 255 220 0
0.436526 0.171181 0.081240 255 220 0
0.409547 0.076039 0.015933 255 220 0
0.434713 0.117405 0.075932 255 220 0
0.364859 0.145021 0.054474 255 220 0
0.428605 0.163115 0.027139 255 220 0
0.395644 0.163661 0.100131 255 220 0
0.408657 0.108279 0.095005 255 220 0
0.414011 0.071383 0.025592 255 220 0
0.398561 0.197641 0.078437 255 220 0
0.398970 0.099037 0.093603 255 220 0
0.422370 0.164148 0.024506 255 220 0
0.374298 0.042654 0.052099 255 220 0
0.424803 0.130003 0.093821 255 220 0
0.441414 0.141647 0.040996 255 220 0
0.384140 0.048005 0.000668 255 220 0
0.366425 0.074248 0.021457 255 220 0
0.375323 0.133093 0.096467 255 220 0
0.361832 0.124923 0.081798 255 220 0
0.380258 0.134292 0.026490 255 220 0
0.414670 0.198279 0.082586 255 220 0
0.416327 0.099036 0.086088 255 220 0
0.396809 0.071229 0.006934 255 220 0
0.392175 0.118412 0.100846 255 220 0
0.407590 0.131284 0.013148 255 220 0
0.369976 0.166417 0.063445 255 220 0
0.404981 0.192496 0.089278 255 220 0
0.374499 0.050045 0.061068 255 220 0
0.424133 0.084183 0.052253 255 220 0
0.397157 0.198339 0.070938 255 220 0
0.372742 0.087608 0.018782 255 220 0
0.371825 0.171065 0.065029 255 220 0
0.418673 0.098202 0.083638 255 220 0
0.413372 0.193461 0.088650 255 220 0
0.380336 0.040269 0.047531 255 220 0
0.437028 0.112560 0.057132 255 220 0
0.380815 0.123899 0.022835 255 220 0
0.434222 0.177756 0.082285 255 220 0
0.415401 0.071044 0.056348 255 220 0
0.423272 0.110583 0.087567 255 220 0
0.369349 0.163915 0.073572 255 220 0
0.358972 0.064320 0.050750 255 220 0
0.418172 0.100543 0.085686 255 220 0
0.443469 0.154030 0.051502 255 220 0
0.365047 0.042990 0.014889 255 220 0
0.442522 0.146009 0.044672 255 220 0
0.440195 0.124883 0.066557 255 220 0
0.404494 0.101455 0.093292 255 220 0
0.380890 0.048102 0.059073 255 220 0
0.442841 0.140233 0.046703 255 220 0
0.359433 0.073893 0.037046 255 220 0
0.425941 0.097808 0.029100 255 220 0
0.415390 0.191270 0.043440 255 220 0
0.373503 0.041668 0.004611 255 220 0
0.389360 0.108716 0.098152 255 220 0
0.415031 0.079375 0.070472 255 220 0
0.408370 0.185223 0.037177 255 220 0
0.373690 0.165129 0.084013 255 220 0
0.433053 0.189183 0.074203 255 220 0
0.357058 0.079094 0.048305 255 220 0
0.368185 0.068076 0.015687 255 220 0
0.384959 0.086111 0.009792 255 220 0
0.398831 0.115049 0.099811 255 220 0
0.402156 0.082858 0.083985 255 220 0
0.388591 0.186689 0.049769 255 220 0
0.403462 0.185663 0.038877 255 220 0
0.357405 0.086658 0.066942 255 220 0
0.376240 0.149764 0.094358 255 220 0
0.414186 0.078841 0.071046 255 220 0
0.428174 0.114662 0.023125 255 220 0
0.396023 0.172169 0.098053 255 220 0
0.441857 0.164430 0.070159 255 220 0
0.431457 0.192310 0.065148 255 220 0
0.358250 0.100369 0.074924 255 220 0
0.430350 0.163467 0.091543 255 220 0
0.358848 0.107460 0.076949 255 220 0
0.384546 0.128511 0.100837 255 220 0
0.416017 0.197272 0.052928 255 220 0
0.402773 0.060929 0.062807 255 220 0
0.400120 0.078631 0.008939 255 220 0
0.364546 0.140688 0.051666 255 220 0
0.395433 0.092769 0.091303 255 220 0
0.426107 0.088023 0.052510 255 220 0
0.357205 0.100277 0.052039 255 220 0
0.399509 0.044412 0.027264 255 220 0
0.385860 0.186061 0.052248 255 220 0
0.400520 0.118178 0.100512 255 220 0
0.403285 0.073929 0.010732 255 220 0
0.440170 0.175447 0.057568 255 220 0
0.393361 0.093613 0.091994 255 220 0
0.441259 0.160338 0.073993 255 220 0
0.416520 0.199011 0.056738 255 220 0
0.370478 0.034212 0.023514 255 220 0
0.381371 0.174918 0.045513 255 220 0
0.396358 0.193664 0.084124 255 220 0
0.363794 0.124569 0.085809 255 220 0
0.410002 0.058949 0.039750 255 220 0
0.381382 0.161076 0.094177 255 220 0
0.404734 0.052567 0.042943 255 220 0
0.369240 0.081810 0.020490 255 220 0
0.375468 0.054973 0.002146 255 220 0
0.363631 0.043426 0.035817 255 220 0
0.359162 0.119523 0.055616 255 220 0
0.428217 0.103933 0.028827 255 220 0
0.358840 0.079271 0.067672 255 220 0
0.389504 0.121090 0.101112 255 220 0
0.394134 0.135791 0.017719 255 220 0
0.392757 0.039855 0.013687 255 220 0
0.426848 0.148950 0.095508 255 220 0
0.389243 0.104788 0.096851 255 220 0
0.438625 0.144060 0.080741 255 220 0
