ply
format ascii 1.0
element vertex 1024
property float x
property float y
property float z
property uchar red
property uchar green
property uchar blue
end_header
0.590881 -0.046423 0.057347 255 220 0
0.604898 0.036535 0.049325 255 220 0
0.657624 0.079597 0.105756 255 220 0
0.655577 0.047256 0.082121 255 220 0
0.623853 0.010677 0.054530 255 220 0
0.646415 0.017375 0.125661 255 220 0
0.604244 0.018088 0.046021 255 220 0
0.608457 0.087412 0.097897 255 220 0
0.611182 -0.007114 0.130072 255 220 0
0.638093 0.062438 0.068079 255 220 0
0.607799 0.087326 0.101209 255 220 0
0.598875 0.066239 0.128439 255 220 0
0.585333 0.055216 0.085801 255 220 0
0.566710 -0.009361 0.040933 255 220 0
0.619294 0.071057 0.065574 255 220 0
0.656010 0.045022 0.082779 255 220 0
0.653293 0.064013 0.083721 255 220 0
0.587179 0.008709 0.121851 255 220 0
0.563402 -0.018276 0.036475 255 220 0
0.583187 0.039304 0.063406 255 220 0
0.595813 0.000715 0.042171 255 220 0
0.638597 0.079578 0.079228 255 220 0
0.642098 0.083660 0.137172 255 220 0
0.633706 0.093853 0.094970 255 220 0
0.623507 -0.002530 0.129432 255 220 0
0.578075 -0.014113 0.107041 255 220 0
0.631117 0.062272 0.063917 255 220 0
0.657403 0.054146 0.127971 255 220 0
0.571193 -0.000611 0.044954 255 220 0
0.632932 0.004173 0.128706 255 220 0
0.568157 -0.026979 0.088469 255 220 0
0.620846 -0.017469 0.117532 255 220 0
0.655960 0.054722 0.084164 255 220 0
0.557247 -0.027142 0.068778 255 220 0
0.618362 0.053429 0.056154 255 220 0
0.618760 -0.008244 0.054866 255 220 0
0.582974 0.032308 0.114943 255 220 0
0.554353 -0.024045 0.039468 255 220 0
0.577403 0.026706 0.101909 255 220 0
0.649273 0.091862 0.110141 255 220 0
0.614717 0.082627 0.078418 255 220 0
0.610033 -0.016327 0.050669 255 220 0
0.613798 0.023447 0.048729 255 220 0
0.603359 0.071893 0.130685 255 220 0
0.589184 -0.050365 0.075549 255 220 0
0.631901 -0.007954 0.068533 255 220 0
0.599856 0.068550 0.128311 255 220 0
0.655513 0.069021 0.132042 255 220 0
0.625066 -0.025490 0.080207 255 220 0
0.570798 -0.009693 0.096007 255 220 0
0.645155 0.092760 0.104049 255 220 0
0.635591 0.060422 0.065566 255 220 0
0.591018 -0.047918 0.061529 255 220 0
0.631644 0.074655 0.071435 255 220 0
0.594465 0.071412 0.088709 255 220 0
0.606075 -0.004502 0.130847 255 220 0
0.596811 0.040685 0.133034 255 220 0
0.608392 0.074124 0.070935 255 220 0
0.581600 -0.013102 0.037435 255 220 0
0.595274 -0.030686 0.110590 255 220 0
0.597845 0.004101 0.043047 255 220 0
0.570945 -0.009151 0.096295 255 220 0
0.573688 -0.028448 0.095115 255 220 0
0.628311 0.088244 0.083755 255 220 0
0.579997 -0.051064 0.078130 255 220 0
0.568075 0.007875 0.079919 255 220 0
0.601639 0.071673 0.128528 255 220 0
0.612630 -0.029341 0.061525 255 220 0
0.648570 0.092974 0.116531 255 220 0
0.602204 0.019260 0.136208 255 220 0
0.616344 0.037135 0.050906 255 220 0
0.587824 0.024782 0.049529 255 220 0
0.588126 -0.048698 0.083686 255 220 0
0.611410 0.015047 0.047691 255 220 0
0.580998 0.028033 0.112027 255 220 0
0.631436 -0.016339 0.103018 255 220 0
0.644123 0.094655 0.109974 255 220 0
0.574195 0.019557 0.095927 255 220 0
0.638662 -0.008296 0.103131 255 220 0
0.578427 -0.027864 0.035644 255 220 0
0.589245 0.013394 0.124529 255 220 0
0.562778 -0.043359 0.071835 255 220 0
0.614844 0.074707 0.068868 255 220 0
0.634466 0.031941 0.059734 255 220 0
0.573820 0.015393 0.097140 255 220 0
0.656274 0.025584 0.088732 255 220 0
0.603250 0.052935 0.137631 255 220 0
0.575954 0.026715 0.096771 255 220 0
0.599268 -0.044114 0.065401 255 220 0
0.596307 0.060520 0.127888 255 220 0
0.599212 0.050719 0.056684 255 220 0
0.653218 0.085418 0.102946 255 220 0
0.612596 0.058594 0.143087 255 220 0
0.629116 0.046036 0.057632 255 220 0
0.644672 0.085629 0.089928 255 220 0
0.607070 0.077891 0.129960 255 220 0
0.629720 -0.000458 0.127393 255 220 0
0.586332 0.027238 0.121577 255 220 0
0.629040 0.020838 0.056711 255 220 0
0.582947 -0.050838 0.059345 255 220 0
0.644509 0.044529 0.139183 255 220 0
0.657214 0.024758 0.109153 255 220 0
0.584144 -0.023071 0.037356 255 220 0
0.661481 0.059186 0.101053 255 220 0
0.632201 -0.017816 0.095127 255 220 0
0.590351 0.023618 0.126478 255 220 0
0.624130 0.060653 0.146023 255 220 0
0.611092 0.031514 0.048767 255 220 0
0.654985 0.017022 0.099552 255 220 0
0.629241 0.009528 0.134146 255 220 0
0.624511 0.004873 0.055981 255 220 0
0.594097 0.002841 0.126956 255 220 0
0.562807 -0.014821 0.077930 255 220 0
0.627491 0.038081 0.055589 255 220 0
0.629194 0.051005 0.145561 255 220 0
0.639816 0.026948 0.136789 255 220 0
0.612315 0.077538 0.072720 255 220 0
0.569697 -0.029262 0.033403 255 220 0
0.599494 0.051618 0.057122 255 220 0
0.612522 0.089080 0.118167 255 220 0
0.647431 0.093658 0.115829 255 220 0
0.645215 0.002308 0.083127 255 220 0
0.592753 0.051438 0.061723 255 220 0
0.624986 0.096164 0.112820 255 220 0
0.603054 0.014231 0.135618 255 220 0
0.579923 0.008493 0.113089 255 220 0
0.596291 0.072881 0.086154 255 220 0
0.569445 -0.053353 0.062080 255 220 0
0.595090 -0.044997 0.060155 255 220 0
0.647737 0.007371 0.112421 255 220 0
0.661288 0.045362 0.097141 255 220 0
0.655947 0.032136 0.083953 255 220 0
0.551386 -0.031578 0.058191 255 220 0
0.613063 -0.034571 0.070497 255 220 0
0.595263 0.023478 0.131384 255 220 0
0.568588 -0.017542 0.035661 255 220 0
0.649524 0.090609 0.106361 255 220 0
0.621397 -0.029521 0.087608 255 220 0
0.562697 -0.024526 0.034077 255 220 0
0.573039 0.020704 0.066196 255 220 0
0.627586 -0.000819 0.128466 255 220 0
0.625352 -0.025504 0.081740 255 220 0
0.569927 0.012368 0.062997 255 220 0
0.657418 0.081777 0.121606 255 220 0
0.643442 0.078674 0.082299 255 220 0
0.577474 0.028194 0.101054 255 220 0
0.621392 -0.019970 0.113368 255 220 0
0.556949 -0.035027 0.068658 255 220 0
0.578385 -0.012129 0.037357 255 220 0
0.635690 0.003035 0.125576 255 220 0
0.578410 0.037627 0.093485 255 220 0
0.596758 0.024312 0.132800 255 220 0
0.598788 -0.024130 0.045102 255 220 0
0.585223 -0.045191 0.049080 255 220 0
0.581957 0.000812 0.115114 255 220 0
0.605142 0.053113 0.139089 255 220 0
0.576234 0.023564 0.100207 255 220 0
0.563431 -0.001803 0.068321 255 220 0
0.654541 0.087646 0.113601 255 220 0
0.620470 0.001681 0.053699 255 220 0
0.568318 -0.009980 0.090215 255 220 0
0.637119 0.063022 0.067699 255 220 0
0.641761 0.048801 0.141720 255 220 0
0.568266 0.010196 0.069215 255 220 0
0.625141 0.076698 0.070743 255 220 0
0.607968 -0.038888 0.088063 255 220 0
0.576158 0.032674 0.083638 255 220 0
0.581707 0.031118 0.112366 255 220 0
0.628419 0.051856 0.145720 255 220 0
0.644661 0.070825 0.077984 255 220 0
0.641567 -0.000751 0.112748 255 220 0
0.644030 0.005565 0.117689 255 220 0
0.616821 0.074968 0.139768 255 220 0
0.648547 0.088177 0.129212 255 220 0
0.599801 0.055058 0.134083 255 220 0
0.643414 0.081043 0.138131 255 220 0
0.618828 0.007994 0.051705 255 220 0
0.576665 0.003326 0.107720 255 220 0
0.628508 -0.022474 0.085050 255 220 0
0.617730 0.049905 0.054679 255 220 0
0.614775 0.037547 0.143434 255 220 0
0.631850 -0.011252 0.112614 255 220 0
0.605731 -0.017690 0.047951 255 220 0
0.629197 0.050218 0.145472 255 220 0
0.578956 -0.036068 0.095214 255 220 0
0.599386 0.022573 0.046446 255 220 0
0.629757 0.096496 0.105082 255 220 0
0.632610 0.007019 0.061949 255 220 0
0.629639 0.051041 0.145514 255 220 0
0.584127 0.011638 0.045712 255 220 0
0.570861 0.007688 0.091363 255 220 0
0.659562 0.033773 0.093671 255 220 0
0.597296 0.005453 0.129973 255 220 0
0.596075 -0.044918 0.061599 255 220 0
0.653048 0.015240 0.109753 255 220 0
0.654719 0.049573 0.080817 255 220 0
0.646033 0.042111 0.137420 255 220 0
0.614163 -0.020534 0.056137 255 220 0
0.599314 0.079167 0.098030 255 220 0
0.611361 0.029262 0.048516 255 220 0
0.656252 0.020337 0.101942 255 220 0
0.621080 0.083798 0.135307 255 220 0
0.591866 0.037646 0.127810 255 220 0
0.606007 0.054501 0.139548 255 220 0
0.659815 0.047491 0.121098 255 220 0
0.631899 -0.018387 0.093866 255 220 0
0.625642 0.087792 0.133283 255 220 0
0.588892 0.047877 0.120651 255 220 0
0.638778 0.087775 0.087305 255 220 0
0.615991 0.009562 0.136896 255 220 0
0.639757 0.096392 0.118761 255 220 0
0.646572 0.079927 0.137051 255 220 0
0.617489 -0.031415 0.093626 255 220 0
0.641258 -0.003701 0.107306 255 220 0
0.590795 0.047547 0.124457 255 220 0
0.602229 -0.043670 0.079886 255 220 0
0.662078 0.063770 0.107651 255 220 0
0.643221 -0.001622 0.106290 255 220 0
0.659028 0.078443 0.119377 255 220 0
0.603210 -0.038551 0.097013 255 220 0
0.624411 -0.008847 0.060179 255 220 0
0.576065 0.007804 0.047785 255 220 0
0.556518 -0.043808 0.043717 255 220 0
0.651390 0.088855 0.105957 255 220 0
0.602226 0.077195 0.123265 255 220 0
0.562354 -0.037648 0.075519 255 220 0
0.627453 -0.019285 0.073164 255 220 0
0.642847 0.028107 0.135106 255 220 0
0.630474 -0.003153 0.124510 255 220 0
0.592989 -0.014598 0.120370 255 220 0
0.646753 0.001407 0.094056 255 220 0
0.567300 -0.052656 0.061951 255 220 0
0.566691 -0.012236 0.086718 255 220 0
0.585342 -0.051691 0.068625 255 220 0
0.579455 0.019899 0.111156 255 220 0
0.594135 0.026863 0.130530 255 220 0
0.623817 -0.018374 0.112789 255 220 0
0.621720 0.093523 0.096019 255 220 0
0.652934 0.071570 0.088020 255 220 0
0.662720 0.046704 0.107169 255 220 0
0.626927 -0.016726 0.111071 255 220 0
0.601826 0.020567 0.136198 255 220 0
0.630350 0.094801 0.096860 255 220 0
0.649365 0.065307 0.079463 255 220 0
0.620357 -0.030594 0.083928 255 220 0
0.656729 0.068574 0.130210 255 220 0
0.592551 0.068739 0.088847 255 220 0
0.565412 0.002171 0.073257 255 220 0
0.639597 0.096466 0.118400 255 220 0
0.633130 0.086505 0.136491 255 220 0
0.601205 0.044649 0.136758 255 220 0
0.589043 -0.044657 0.091469 255 220 0
0.633354 -0.002561 0.066725 255 220 0
0.598931 0.065088 0.129217 255 220 0
0.645533 0.081342 0.136915 255 220 0
0.600060 0.080152 0.100081 255 220 0
0.578639 0.032516 0.065638 255 220 0
0.578543 -0.016524 0.106682 255 220 0
0.595415 -0.047050 0.080758 255 220 0
0.631605 0.039546 0.143498 255 220 0
0.622763 0.044590 0.054495 255 220 0
0.623085 0.046491 0.145296 255 220 0
0.597905 0.070764 0.122743 255 220 0
0.618217 0.006485 0.135401 255 220 0
0.603990 0.041168 0.138889 255 220 0
0.615106 0.026251 0.142147 255 220 0
0.602823 -0.039853 0.061917 255 220 0
0.605521 -0.000642 0.132200 255 220 0
0.578089 0.019075 0.108205 255 220 0
0.647606 0.092536 0.108407 255 220 0
0.608893 0.023935 0.140164 255 220 0
0.644928 0.084127 0.135566 255 220 0
0.580003 0.033007 0.062827 255 220 0
0.646754 0.063090 0.075509 255 220 0
0.588258 0.005493 0.122416 255 220 0
0.632481 -0.018006 0.087436 255 220 0
0.602937 0.077955 0.082410 255 220 0
0.606836 -0.037332 0.095648 255 220 0
0.631030 0.004906 0.130445 255 220 0
0.610318 0.035959 0.141955 255 220 0
0.593731 0.057737 0.125032 255 220 0
0.599610 -0.016100 0.043767 255 220 0
0.567287 -0.051732 0.065039 255 220 0
0.628443 0.047555 0.145215 255 220 0
0.620199 0.066925 0.063030 255 220 0
0.646152 0.034099 0.134713 255 220 0
0.586644 0.027695 0.051400 255 220 0
0.636308 0.089158 0.087584 255 220 0
0.556892 -0.013486 0.055641 255 220 0
0.578425 0.032864 0.100502 255 220 0
0.560991 -0.016284 0.073834 255 220 0
0.602591 -0.012031 0.126422 255 220 0
0.579656 0.037226 0.100975 255 220 0
0.605234 0.082619 0.088748 255 220 0
0.574977 -0.028535 0.034605 255 220 0
0.603736 0.059439 0.060575 255 220 0
0.641668 0.001347 0.115975 255 220 0
0.589237 0.040923 0.123853 255 220 0
0.616848 0.066867 0.062837 255 220 0
0.622831 0.046301 0.145268 255 220 0
0.613538 0.043523 0.051873 255 220 0
0.603854 -0.009598 0.128007 255 220 0
0.592134 0.069097 0.101871 255 220 0
0.584696 -0.012116 0.038130 255 220 0
0.598499 0.074003 0.119608 255 220 0
0.584256 0.012217 0.118990 255 220 0
0.570814 -0.006485 0.095705 255 220 0
0.607585 0.021440 0.139223 255 220 0
0.581577 0.043976 0.101022 255 220 0
0.566233 -0.052650 0.056606 255 220 0
0.594073 -0.047866 0.068102 255 220 0
0.574119 -0.051123 0.051850 255 220 0
0.612774 0.067843 0.063844 255 220 0
0.630041 -0.020785 0.085799 255 220 0
0.642821 0.044845 0.066480 255 220 0
0.604024 -0.032083 0.109124 255 220 0
0.603776 0.003785 0.044636 255 220 0
0.650861 0.048736 0.135151 255 220 0
0.627879 -0.006719 0.062722 255 220 0
0.604605 0.083503 0.114304 255 220 0
0.612281 0.083575 0.081510 255 220 0
0.622666 0.013819 0.053379 255 220 0
0.620323 -0.008875 0.056384 255 220 0
0.652854 0.026619 0.122849 255 220 0
0.632477 -0.001765 0.124082 255 220 0
0.592376 -0.012715 0.040219 255 220 0
0.660980 0.052874 0.097027 255 220 0
0.617936 0.009321 0.136679 255 220 0
0.581567 -0.037160 0.039788 255 220 0
0.605583 0.079131 0.080715 255 220 0
0.601495 -0.043960 0.080901 255 220 0
0.589145 0.043587 0.122997 255 220 0
0.655116 0.084187 0.124689 255 220 0
0.635640 -0.013679 0.095848 255 220 0
0.626914 0.005212 0.057717 255 220 0
0.614170 0.087597 0.087440 255 220 0
0.610373 -0.011627 0.127570 255 220 0
0.580977 0.045343 0.084988 255 220 0
0.614216 0.048616 0.053686 255 220 0
0.623108 0.017158 0.139524 255 220 0
0.569420 -0.007539 0.092415 255 220 0
0.644620 0.009054 0.120849 255 220 0
0.565063 0.002433 0.067961 255 220 0
0.559359 -0.045647 0.044136 255 220 0
0.624987 0.040496 0.054628 255 220 0
0.657292 0.023993 0.106544 255 220 0
0.627853 -0.023164 0.084624 255 220 0
0.597899 0.067109 0.126249 255 220 0
0.660764 0.050803 0.119825 255 220 0
0.641090 -0.004907 0.104540 255 220 0
0.590004 0.025376 0.126139 255 220 0
0.639770 0.095742 0.121987 255 220 0
0.558776 -0.022828 0.070770 255 220 0
0.572020 0.018161 0.087857 255 220 0
0.575960 -0.024760 0.099792 255 220 0
0.576937 0.033160 0.074533 255 220 0
0.563771 -0.050789 0.061536 255 220 0
0.581357 -0.052367 0.064118 255 220 0
0.574043 0.014309 0.098405 255 220 0
0.657194 0.081848 0.122352 255 220 0
0.649953 0.052255 0.074520 255 220 0
0.565113 -0.049891 0.065917 255 220 0
0.640292 0.069283 0.073333 255 220 0
0.562644 -0.034966 0.077175 255 220 0
0.568531 -0.021855 0.090611 255 220 0
0.658024 0.032156 0.116075 255 220 0
0.606789 0.018068 0.046494 255 220 0
0.654995 0.039393 0.126593 255 220 0
0.607283 0.086681 0.110336 255 220 0
0.600684 0.006195 0.132290 255 220 0
0.607658 -0.040306 0.080596 255 220 0
0.617754 0.092106 0.095626 255 220 0
0.640001 0.030596 0.137959 255 220 0
0.646971 0.013698 0.121865 255 220 0
0.586325 0.017115 0.121665 255 220 0
0.582973 0.036293 0.112763 255 220 0
0.648640 0.032484 0.072448 255 220 0
0.597703 0.015649 0.045084 255 220 0
0.604073 0.083082 0.093375 255 220 0
0.627968 0.096386 0.117775 255 220 0
0.606749 -0.029898 0.111174 255 220 0
0.595533 -0.004403 0.126060 255 220 0
0.645368 0.085622 0.090679 255 220 0
0.584663 0.020152 0.049173 255 220 0
0.653928 0.041701 0.129126 255 220 0
0.576548 0.031130 0.071354 255 220 0
0.654111 0.024308 0.083861 255 220 0
0.579397 0.035941 0.068417 255 220 0
0.549474 -0.028827 0.048853 255 220 0
0.656291 0.051737 0.129166 255 220 0
0.588305 -0.006813 0.039641 255 220 0
0.588761 0.058578 0.077846 255 220 0
0.626500 -0.019781 0.105923 255 220 0
0.597156 0.072763 0.117863 255 220 0
0.651318 0.089195 0.106663 255 220 0
0.661564 0.068174 0.109406 255 220 0
0.606963 0.064401 0.138017 255 220 0
0.595878 -0.002172 0.126982 255 220 0
0.592306 0.049560 0.126200 255 220 0
0.659226 0.073824 0.103673 255 220 0
0.580994 0.032279 0.060246 255 220 0
0.594777 -0.020309 0.041808 255 220 0
0.597634 0.077015 0.096275 255 220 0
0.654585 0.082523 0.101539 255 220 0
0.574665 0.016804 0.099141 255 220 0
0.605745 0.072759 0.071285 255 220 0
0.606629 0.080542 0.081943 255 220 0
0.604369 -0.008019 0.128900 255 220 0
0.579120 0.040620 0.084606 255 220 0
0.650288 0.075497 0.087292 255 220 0
0.586505 -0.015679 0.038198 255 220 0
0.559254 -0.022597 0.071772 255 220 0
0.583897 0.024002 0.118376 255 220 0
0.581843 0.032105 0.058767 255 220 0
0.590929 0.041684 0.055939 255 220 0
0.659376 0.060194 0.124979 255 220 0
0.612992 0.000108 0.049107 255 220 0
0.606053 -0.038836 0.065563 255 220 0
0.559098 -0.015024 0.067721 255 220 0
0.622050 0.018790 0.052586 255 220 0
0.601537 0.052346 0.136251 255 220 0
0.629176 -0.021202 0.094443 255 220 0
0.660166 0.063509 0.122924 255 220 0
0.551594 -0.039286 0.045556 255 220 0
0.581475 -0.021079 0.107644 255 220 0
0.651527 0.046712 0.075572 255 220 0
0.587016 0.059509 0.098266 255 220 0
0.595295 -0.041366 0.096339 255 220 0
0.599822 0.061326 0.132148 255 220 0
0.564203 -0.033630 0.033486 255 220 0
0.640168 0.095664 0.107714 255 220 0
0.649914 0.068123 0.138192 255 220 0
0.644537 0.087398 0.133183 255 220 0
0.634281 0.071705 0.144255 255 220 0
0.619611 -0.031224 0.084973 255 220 0
0.551987 -0.039337 0.056293 255 220 0
0.649501 0.079678 0.089706 255 220 0
0.590686 0.062289 0.112583 255 220 0
0.661818 0.039805 0.108474 255 220 0
0.585127 -0.000875 0.118205 255 220 0
0.650709 0.081966 0.093662 255 220 0
0.605444 0.061955 0.137536 255 220 0
0.622872 0.094316 0.097970 255 220 0
0.653278 0.048323 0.078272 255 220 0
0.613265 -0.022741 0.056595 255 220 0
0.607818 0.086386 0.114538 255 220 0
0.585189 -0.042896 0.046277 255 220 0
0.629951 0.055088 0.145876 255 220 0
0.592244 0.038260 0.128207 255 220 0
0.609656 0.084534 0.124177 255 220 0
0.647733 0.022976 0.073463 255 220 0
0.578689 -0.027680 0.035719 255 220 0
0.661815 0.058864 0.117520 255 220 0
0.607766 0.056277 0.057458 255 220 0
0.616677 0.091432 0.094747 255 220 0
0.640677 -0.004449 0.107208 255 220 0
0.611884 -0.008078 0.049781 255 220 0
0.636036 0.000330 0.068424 255 220 0
0.656213 0.067220 0.090513 255 220 0
0.600113 -0.044574 0.081712 255 220 0
0.601034 -0.036898 0.102339 255 220 0
0.651084 0.029491 0.076303 255 220 0
0.646310 0.039952 0.069339 255 220 0
0.574304 -0.028919 0.095547 255 220 0
0.600003 0.017064 0.134388 255 220 0
0.643121 0.082845 0.137255 255 220 0
0.551608 -0.022920 0.049360 255 220 0
0.579116 0.007479 0.045763 255 220 0
0.581913 0.026540 0.054588 255 220 0
0.618001 0.050767 0.055051 255 220 0
0.621982 0.068023 0.144529 255 220 0
0.608878 0.058776 0.058719 255 220 0
0.595980 -0.022653 0.042939 255 220 0
0.593480 0.002917 0.126485 255 220 0
0.588533 0.010908 0.044375 255 220 0
0.592929 -0.005184 0.123944 255 220 0
0.660682 0.062105 0.099279 255 220 0
0.659493 0.055355 0.092839 255 220 0
0.596871 0.066884 0.073771 255 220 0
0.576097 0.032018 0.088238 255 220 0
0.662022 0.064762 0.108404 255 220 0
0.601494 0.067344 0.131302 255 220 0
0.615042 0.027885 0.142403 255 220 0
0.589315 0.062683 0.085787 255 220 0
0.629301 0.082968 0.077796 255 220 0
0.581889 -0.049887 0.055129 255 220 0
0.570379 -0.035310 0.086947 255 220 0
0.578505 0.021851 0.055172 255 220 0
0.634015 0.052078 0.144916 255 220 0
0.600955 -0.001798 0.130083 255 220 0
0.652908 0.052543 0.078425 255 220 0
0.622038 0.095287 0.111388 255 220 0
0.601331 -0.044285 0.078990 255 220 0
0.629272 0.050985 0.145550 255 220 0
0.597962 -0.044197 0.087484 255 220 0
0.572278 0.016209 0.091191 255 220 0
0.619851 0.031879 0.051423 255 220 0
0.659569 0.030379 0.105516 255 220 0
0.556661 -0.020507 0.064710 255 220 0
0.622060 -0.013373 0.121363 255 220 0
0.624167 -0.004725 0.127613 255 220 0
0.560811 -0.036125 0.074147 255 220 0
0.578705 -0.015548 0.036535 255 220 0
0.625980 -0.025265 0.086319 255 220 0
0.579624 0.037078 0.101001 255 220 0
0.578893 0.032527 0.102472 255 220 0
0.605912 0.053790 0.056402 255 220 0
0.592341 0.069565 0.100423 255 220 0
0.635640 0.043071 0.061001 255 220 0
0.615229 0.049769 0.144317 255 220 0
0.593319 -0.047953 0.080874 255 220 0
0.559953 -0.007656 0.058106 255 220 0
0.579344 -0.043705 0.043213 255 220 0
0.622488 -0.022539 0.107231 255 220 0
0.580069 -0.044556 0.087878 255 220 0
0.551746 -0.034877 0.058826 255 220 0
0.660200 0.066624 0.122511 255 220 0
0.582841 -0.028147 0.104645 255 220 0
0.593466 0.013668 0.128554 255 220 0
0.659366 0.039387 0.090646 255 220 0
0.621899 0.062381 0.060837 255 220 0
0.612607 0.061250 0.059706 255 220 0
0.598914 -0.016905 0.043504 255 220 0
0.655932 0.077451 0.098347 255 220 0
0.578389 -0.006622 0.109427 255 220 0
0.607240 -0.040603 0.080154 255 220 0
0.646685 0.093255 0.121554 255 220 0
0.594231 0.070185 0.085901 255 220 0
0.624418 -0.026720 0.083356 255 220 0
0.566186 -0.020384 0.034840 255 220 0
0.564806 0.000345 0.055042 255 220 0
0.618391 -0.015134 0.057347 255 220 0
0.597819 -0.045025 0.065229 255 220 0
0.637887 0.093557 0.128032 255 220 0
0.629156 0.008095 0.133363 255 220 0
0.644685 0.069784 0.077362 255 220 0
0.575619 0.029931 0.090147 255 220 0
0.599080 0.045308 0.053682 255 220 0
0.580523 0.028825 0.057925 255 220 0
0.557436 -0.041090 0.066587 255 220 0
0.616166 0.046599 0.053249 255 220 0
0.587734 0.026719 0.050348 255 220 0
0.606337 -0.026324 0.052043 255 220 0
0.598820 0.003914 0.130586 255 220 0
0.653777 0.034784 0.126272 255 220 0
0.637492 -0.007174 0.077685 255 220 0
0.584221 0.039643 0.114021 255 220 0
0.593092 0.057382 0.123980 255 220 0
0.621368 0.053093 0.145707 255 220 0
0.642295 0.021016 0.067513 255 220 0
0.590053 0.062027 0.080769 255 220 0
0.636356 -0.009940 0.105959 255 220 0
0.585129 0.036354 0.118010 255 220 0
0.597030 0.004228 0.042898 255 220 0
0.551103 -0.039620 0.050350 255 220 0
0.602957 0.001359 0.044278 255 220 0
0.562872 -0.010135 0.076213 255 220 0
0.632193 0.003645 0.062638 255 220 0
0.656460 0.035622 0.122153 255 220 0
0.641437 -0.001344 0.078762 255 220 0
0.630969 -0.016700 0.103282 255 220 0
0.630697 -0.019915 0.092650 255 220 0
0.600003 0.038129 0.135983 255 220 0
0.566396 0.001252 0.080061 255 220 0
0.623700 -0.021724 0.106855 255 220 0
0.568795 0.003767 0.086729 255 220 0
0.633661 0.075882 0.142890 255 220 0
0.631853 0.015805 0.136384 255 220 0
0.617826 0.065584 0.062083 255 220 0
0.600334 0.015601 0.134329 255 220 0
0.631527 0.093593 0.093564 255 220 0
0.656198 0.050911 0.083801 255 220 0
0.582099 -0.036538 0.039748 255 220 0
0.613757 0.083029 0.079563 255 220 0
0.644611 0.016036 0.071739 255 220 0
0.582988 0.014999 0.047677 255 220 0
0.555973 -0.039479 0.065382 255 220 0
0.593710 0.034269 0.050666 255 220 0
0.617601 -0.026392 0.065299 255 220 0
0.617601 0.083685 0.078683 255 220 0
0.646236 0.009223 0.078055 255 220 0
0.615507 0.070457 0.065298 255 220 0
0.577160 -0.029795 0.098080 255 220 0
0.622405 0.095117 0.114881 255 220 0
0.568080 -0.012595 0.090094 255 220 0
0.584473 0.015001 0.119386 255 220 0
0.566552 -0.015846 0.086962 255 220 0
0.592236 -0.025892 0.113233 255 220 0
0.616348 -0.028642 0.066180 255 220 0
0.608384 0.086801 0.095024 255 220 0
0.630831 0.027608 0.057426 255 220 0
0.606513 -0.036856 0.097439 255 220 0
0.632157 -0.011331 0.072101 255 220 0
0.641644 0.020173 0.067032 255 220 0
0.603948 0.084065 0.100905 255 220 0
0.641600 0.000306 0.114486 255 220 0
0.617833 -0.010287 0.054791 255 220 0
0.587488 -0.009511 0.118095 255 220 0
0.609150 -0.010053 0.128525 255 220 0
0.633405 0.023293 0.059524 255 220 0
0.554110 -0.018618 0.047799 255 220 0
0.635804 0.055535 0.063852 255 220 0
0.596115 0.026735 0.132399 255 220 0
0.639742 0.096262 0.110852 255 220 0
0.631263 0.021243 0.058191 255 220 0
0.609890 -0.020719 0.120710 255 220 0
0.556683 -0.026097 0.067350 255 220 0
0.661908 0.044719 0.113148 255 220 0
0.655291 0.017769 0.100137 255 220 0
0.603969 0.036395 0.138802 255 220 0
0.577759 -0.047693 0.047111 255 220 0
0.649847 0.069156 0.082356 255 220 0
0.601292 0.026246 0.136522 255 220 0
0.616434 0.071676 0.141251 255 220 0
0.582186 -0.007284 0.038915 255 220 0
0.625996 0.086861 0.134458 255 220 0
0.636245 0.047030 0.143575 255 220 0
0.595538 -0.040302 0.052895 255 220 0
0.643775 0.011157 0.124017 255 220 0
0.644727 0.082415 0.086648 255 220 0
0.575856 0.001333 0.106262 255 220 0
0.656552 0.084277 0.111280 255 220 0
0.583131 0.014313 0.047290 255 220 0
0.586727 -0.019668 0.113157 255 220 0
0.581433 -0.017427 0.109363 255 220 0
0.583761 0.049733 0.078332 255 220 0
0.631177 -0.010706 0.114555 255 220 0
0.624639 -0.024210 0.098960 255 220 0
0.639611 0.044421 0.063930 255 220 0
0.635551 0.031395 0.140486 255 220 0
0.567935 -0.045285 0.075940 255 220 0
0.616570 0.027513 0.049870 255 220 0
0.653572 0.069716 0.087672 255 220 0
0.620247 -0.025416 0.104907 255 220 0
0.648857 0.081139 0.090196 255 220 0
0.586554 0.058396 0.098812 255 220 0
0.646316 0.039243 0.069348 255 220 0
0.587457 -0.042523 0.094235 255 220 0
0.653623 0.081623 0.098269 255 220 0
0.621480 0.094961 0.104719 255 220 0
0.565157 -0.004178 0.079807 255 220 0
0.569686 0.014086 0.072359 255 220 0
0.634255 0.007109 0.063416 255 220 0
0.575762 -0.052952 0.070969 255 220 0
0.639122 0.071949 0.074106 255 220 0
0.624944 0.091261 0.088642 255 220 0
0.567315 -0.046709 0.042275 255 220 0
0.606272 -0.040574 0.071112 255 220 0
0.643521 0.092274 0.100056 255 220 0
0.615405 -0.028685 0.105273 255 220 0
0.581864 -0.013576 0.037382 255 220 0
0.648229 0.007670 0.111559 255 220 0
0.634405 0.045121 0.143766 255 220 0
0.583897 0.048090 0.074034 255 220 0
0.650352 0.091241 0.110949 255 220 0
0.586882 0.017222 0.047042 255 220 0
0.587436 -0.048303 0.057308 255 220 0
0.557857 -0.032636 0.034999 255 220 0
0.586014 -0.040616 0.044748 255 220 0
0.613861 -0.010209 0.051662 255 220 0
0.577649 0.035406 0.076326 255 220 0
0.648598 0.010492 0.081888 255 220 0
0.591852 0.064524 0.113508 255 220 0
0.630931 0.023734 0.139992 255 220 0
0.599403 0.078196 0.091770 255 220 0
0.563400 -0.018206 0.036513 255 220 0
0.599380 -0.023580 0.118047 255 220 0
0.559133 -0.022672 0.071523 255 220 0
0.604822 0.052489 0.055908 255 220 0
0.580124 -0.009404 0.110870 255 220 0
0.570462 0.014751 0.066106 255 220 0
0.594240 0.032669 0.130712 255 220 0
0.625599 0.057461 0.059598 255 220 0
0.652311 0.012554 0.090960 255 220 0
0.609311 0.075125 0.071501 255 220 0
0.556639 -0.014601 0.057698 255 220 0
0.602690 -0.003466 0.044173 255 220 0
0.629052 0.001158 0.060587 255 220 0
0.633153 0.061471 0.064611 255 220 0
0.607080 0.060842 0.139153 255 220 0
0.654681 0.025038 0.084726 255 220 0
0.643001 0.006441 0.074466 255 220 0
0.636737 0.029626 0.139444 255 220 0
0.659769 0.043632 0.091772 255 220 0
0.609091 0.001495 0.133634 255 220 0
0.556458 -0.025748 0.036540 255 220 0
0.564810 0.002035 0.065849 255 220 0
0.628106 -0.017218 0.071615 255 220 0
0.573306 -0.030456 0.034313 255 220 0
0.590379 0.065140 0.105216 255 220 0
0.659218 0.056518 0.124942 255 220 0
0.646435 0.092970 0.107378 255 220 0
0.648161 0.012478 0.079338 255 220 0
0.625944 0.092173 0.090303 255 220 0
0.635481 0.000779 0.123639 255 220 0
0.633859 0.050355 0.144717 255 220 0
0.633971 0.040508 0.059663 255 220 0
0.606248 0.037849 0.049686 255 220 0
0.563608 -0.038921 0.076359 255 220 0
0.655877 0.034705 0.083077 255 220 0
0.618165 0.046661 0.144820 255 220 0
0.565841 -0.033892 0.033531 255 220 0
0.623482 -0.006931 0.058460 255 220 0
0.578327 0.032831 0.100170 255 220 0
0.595474 0.066747 0.075912 255 220 0
0.640267 0.053654 0.066270 255 220 0
0.552695 -0.020848 0.049294 255 220 0
0.583920 -0.040909 0.094452 255 220 0
0.609735 0.014637 0.047084 255 220 0
0.639880 -0.006056 0.105488 255 220 0
0.605998 -0.035170 0.102208 255 220 0
0.549237 -0.030489 0.049937 255 220 0
0.594392 0.011553 0.044131 255 220 0
0.620424 0.006758 0.135194 255 220 0
0.587301 0.059595 0.101133 255 220 0
0.588013 -0.041140 0.046722 255 220 0
0.574213 0.011928 0.052687 255 220 0
0.606862 0.086702 0.104660 255 220 0
0.630007 -0.004900 0.064088 255 220 0
0.649601 0.036458 0.132270 255 220 0
0.598843 0.076730 0.114535 255 220 0
0.650136 0.083121 0.132544 255 220 0
0.613725 0.022832 0.141223 255 220 0
0.580633 0.043788 0.095308 255 220 0
0.591147 0.001366 0.124212 255 220 0
0.643161 0.055393 0.069027 255 220 0
0.566623 -0.023946 0.086779 255 220 0
0.637861 0.091451 0.092114 255 220 0
0.626768 0.076898 0.142095 255 220 0
0.581821 0.000731 0.114942 255 220 0
0.625734 0.050831 0.145755 255 220 0
0.555910 -0.027639 0.066294 255 220 0
0.644038 0.094986 0.111849 255 220 0
0.654771 0.054829 0.132134 255 220 0
0.609718 0.088839 0.107853 255 220 0
0.648584 0.046763 0.072038 255 220 0
0.653433 0.082283 0.129486 255 220 0
0.613466 0.073768 0.138531 255 220 0
0.580385 -0.014914 0.109358 255 220 0
0.595376 0.060352 0.067613 255 220 0
0.565857 -0.008127 0.083508 255 220 0
0.639261 0.071542 0.143244 255 220 0
0.646486 0.002597 0.086891 255 220 0
0.657238 0.074519 0.127898 255 220 0
0.569426 -0.019443 0.034907 255 220 0
0.608489 0.073079 0.069757 255 220 0
0.601060 -0.008236 0.127675 255 220 0
0.652128 0.085483 0.100724 255 220 0
0.596504 0.015697 0.131481 255 220 0
0.645328 0.011592 0.074889 255 220 0
0.620707 0.089538 0.127885 255 220 0
0.580801 -0.033488 0.098915 255 220 0
0.660886 0.054434 0.097072 255 220 0
0.557399 -0.012365 0.052250 255 220 0
0.598256 -0.005136 0.042436 255 220 0
0.643728 0.027040 0.133947 255 220 0
0.554342 -0.023229 0.060915 255 220 0
0.587160 0.041045 0.120268 255 220 0
0.576014 0.026834 0.065347 255 220 0
0.636206 0.074906 0.142945 255 220 0
0.597665 0.051477 0.132596 255 220 0
0.598965 -0.003748 0.042723 255 220 0
0.621525 0.089481 0.086318 255 220 0
0.633420 -0.015202 0.081017 255 220 0
0.640312 -0.006394 0.102781 255 220 0
0.642366 0.008509 0.123372 255 220 0
0.638096 0.045068 0.062909 255 220 0
0.590403 -0.010833 0.120054 255 220 0
0.656401 0.046546 0.083670 255 220 0
0.565955 -0.008183 0.083780 255 220 0
0.599701 -0.018808 0.044312 255 220 0
0.552702 -0.033114 0.039382 255 220 0
0.579211 0.040459 0.081847 255 220 0
0.596413 0.042456 0.053245 255 220 0
0.587314 0.011862 0.122378 255 220 0
0.585523 -0.002130 0.118332 255 220 0
0.566879 -0.028519 0.033110 255 220 0
0.654967 0.017570 0.104987 255 220 0
0.637733 0.048904 0.143406 255 220 0
0.572042 -0.036311 0.088110 255 220 0
0.578899 0.039967 0.089653 255 220 0
0.639441 -0.001633 0.115414 255 220 0
0.570759 -0.053346 0.058093 255 220 0
0.565114 -0.004200 0.079677 255 220 0
0.608714 0.079422 0.130227 255 220 0
0.575041 0.025094 0.066029 255 220 0
0.652819 0.047562 0.077490 255 220 0
0.603359 -0.039176 0.061564 255 220 0
0.604455 -0.038186 0.061619 255 220 0
0.633401 0.019909 0.059911 255 220 0
0.594857 0.070903 0.085637 255 220 0
0.581387 0.046675 0.090476 255 220 0
0.579547 0.027839 0.108059 255 220 0
0.611143 0.021899 0.140461 255 220 0
0.658045 0.048979 0.125351 255 220 0
0.638258 -0.002803 0.115666 255 220 0
0.585711 -0.005084 0.117806 255 220 0
0.575280 0.029032 0.074429 255 220 0
0.649165 0.006044 0.103471 255 220 0
0.590110 -0.013124 0.118918 255 220 0
0.619673 0.045904 0.053830 255 220 0
0.662817 0.056899 0.109125 255 220 0
0.585882 0.047420 0.112686 255 220 0
0.610549 -0.037242 0.088425 255 220 0
0.638360 0.035637 0.140306 255 220 0
0.621915 0.076792 0.070313 255 220 0
0.654200 0.018942 0.111976 255 220 0
0.610907 -0.034481 0.097458 255 220 0
0.659853 0.072350 0.104420 255 220 0
0.637894 0.079560 0.140644 255 220 0
0.591348 -0.039441 0.099388 255 220 0
0.617992 -0.020568 0.116182 255 220 0
0.574246 0.023608 0.066560 255 220 0
0.572509 -0.003462 0.099405 255 220 0
0.594877 -0.042035 0.054449 255 220 0
0.568265 -0.043294 0.078263 255 220 0
0.659282 0.029381 0.100412 255 220 0
0.577264 -0.053370 0.069355 255 220 0
0.644670 0.090033 0.130090 255 220 0
0.609576 -0.033936 0.100989 255 220 0
0.648754 0.077282 0.136796 255 220 0
0.610723 0.040279 0.142343 255 220 0
0.631110 -0.007921 0.067379 255 220 0
0.650508 0.008198 0.103153 255 220 0
0.655959 0.079497 0.100724 255 220 0
0.590817 -0.027319 0.041084 255 220 0
0.553588 -0.042193 0.045560 255 220 0
0.640675 0.091096 0.093850 255 220 0
0.580466 -0.051190 0.057629 255 220 0
0.583909 0.012323 0.118576 255 220 0
0.648755 0.024810 0.127618 255 220 0
0.648176 0.008462 0.082959 255 220 0
0.587371 0.033645 0.122383 255 220 0
0.623075 0.072568 0.067039 255 220 0
0.604524 0.019708 0.046267 255 220 0
0.610706 -0.030678 0.060434 255 220 0
0.614182 0.015212 0.048803 255 220 0
0.610193 0.020620 0.139919 255 220 0
0.591686 0.047010 0.126027 255 220 0
0.650865 0.020974 0.121924 255 220 0
0.640700 -0.007314 0.093461 255 220 0
0.563518 -0.002209 0.070141 255 220 0
0.634470 0.093873 0.095397 255 220 0
0.616666 0.082801 0.077800 255 220 0
0.659242 0.077506 0.109514 255 220 0
0.575669 0.019957 0.057777 255 220 0
0.580905 0.030827 0.110278 255 220 0
0.622432 -0.015154 0.118931 255 220 0
0.595202 0.066346 0.121294 255 220 0
0.608533 0.038618 0.141340 255 220 0
0.649555 0.049135 0.073433 255 220 0
0.661697 0.045131 0.098924 255 220 0
0.633547 0.001228 0.125893 255 220 0
0.581595 0.037498 0.064571 255 220 0
0.594949 0.051867 0.060079 255 220 0
0.612625 0.051425 0.054718 255 220 0
0.579048 0.036818 0.098780 255 220 0
0.593196 0.036727 0.129436 255 220 0
0.633632 0.032363 0.141475 255 220 0
0.649644 0.008186 0.107773 255 220 0
0.627122 0.053761 0.145958 255 220 0
0.558319 -0.010635 0.053614 255 220 0
0.606653 0.085624 0.113395 255 220 0
0.606692 0.062319 0.138461 255 220 0
0.615925 0.039244 0.051208 255 220 0
0.605270 0.052683 0.139230 255 220 0
0.583790 0.017641 0.118530 255 220 0
0.594369 0.065427 0.120115 255 220 0
0.559109 -0.048815 0.053751 255 220 0
0.592034 -0.026245 0.041499 255 220 0
0.572043 -0.001584 0.043729 255 220 0
0.618872 0.009399 0.136627 255 220 0
0.590727 0.029977 0.126916 255 220 0
0.609844 0.041362 0.142037 255 220 0
0.587933 -0.005890 0.119611 255 220 0
0.556663 -0.014505 0.057590 255 220 0
0.619433 0.073452 0.067356 255 220 0
0.593241 0.045683 0.056856 255 220 0
0.606038 0.084552 0.092879 255 220 0
0.626404 0.084844 0.136556 255 220 0
0.639005 0.094979 0.124716 255 220 0
0.575917 -0.052831 0.071480 255 220 0
0.604881 0.022260 0.138189 255 220 0
0.577665 0.036092 0.091123 255 220 0
0.586986 -0.038870 0.044053 255 220 0
0.588928 0.032631 0.124591 255 220 0
0.655517 0.082821 0.104342 255 220 0
0.603952 0.068712 0.133366 255 220 0
0.559462 -0.010994 0.047004 255 220 0
0.619188 0.031764 0.143467 255 220 0
0.577986 0.013704 0.109298 255 220 0
0.644326 -0.001427 0.088220 255 220 0
0.611479 -0.037681 0.078606 255 220 0
0.661256 0.065878 0.104209 255 220 0
0.599662 -0.026571 0.046595 255 220 0
0.613717 0.035539 0.049969 255 220 0
0.603472 -0.042045 0.085402 255 220 0
0.577921 -0.030759 0.098211 255 220 0
0.653629 0.021546 0.116908 255 220 0
0.566844 -0.019920 0.087696 255 220 0
0.655087 0.067575 0.088712 255 220 0
0.617529 0.036976 0.051224 255 220 0
0.621205 0.004354 0.053728 255 220 0
0.642445 0.016285 0.129338 255 220 0
0.619748 0.074869 0.141144 255 220 0
0.567941 -0.001337 0.046966 255 220 0
0.567137 -0.028545 0.033124 255 220 0
0.577185 -0.037489 0.037841 255 220 0
0.622316 0.080976 0.138268 255 220 0
0.569739 -0.037025 0.035055 255 220 0
0.648789 0.030821 0.072909 255 220 0
0.572972 0.022448 0.071475 255 220 0
0.569879 0.007007 0.088507 255 220 0
0.594383 0.067295 0.079061 255 220 0
0.660983 0.067717 0.104544 255 220 0
0.588337 -0.000926 0.040861 255 220 0
0.651184 0.020534 0.080029 255 220 0
0.588257 0.037628 0.123047 255 220 0
0.617714 0.078145 0.071775 255 220 0
0.643385 0.044940 0.139989 255 220 0
0.644357 -0.000442 0.105315 255 220 0
0.597731 -0.007625 0.042208 255 220 0
0.633841 0.084183 0.138331 255 220 0
0.635516 -0.010475 0.106866 255 220 0
0.611479 0.078633 0.074563 255 220 0
0.584239 -0.052090 0.072964 255 220 0
0.657272 0.023271 0.103103 255 220 0
0.634511 0.056580 0.063424 255 220 0
0.556929 -0.026498 0.035952 255 220 0
0.560543 -0.014199 0.071595 255 220 0
0.623335 0.014031 0.138142 255 220 0
0.602805 0.008901 0.134128 255 220 0
0.579472 0.041452 0.090743 255 220 0
0.648444 0.086872 0.130805 255 220 0
0.643041 -0.003879 0.090816 255 220 0
0.572513 -0.004891 0.041375 255 220 0
0.637248 0.002935 0.123930 255 220 0
0.590024 0.049660 0.063259 255 220 0
0.600016 0.054913 0.134333 255 220 0
0.645417 0.077053 0.138962 255 220 0
0.591151 -0.048587 0.081628 255 220 0
0.624379 -0.003380 0.057985 255 220 0
0.627786 0.087204 0.134741 255 220 0
0.564533 0.000277 0.071332 255 220 0
0.602860 0.058965 0.136074 255 220 0
0.643008 -0.003225 0.087385 255 220 0
0.651185 0.080033 0.133522 255 220 0
0.585313 -0.051250 0.065144 255 220 0
0.639652 0.023443 0.064511 255 220 0
0.576451 0.033483 0.083738 255 220 0
0.660611 0.072778 0.109431 255 220 0
0.619617 -0.018709 0.060812 255 220 0
0.650147 0.007600 0.092048 255 220 0
0.606217 0.048856 0.140171 255 220 0
0.574129 -0.035419 0.091019 255 220 0
0.644247 -0.001956 0.089988 255 220 0
0.644269 0.064465 0.073937 255 220 0
0.552244 -0.040442 0.055331 255 220 0
0.638211 0.059453 0.066862 255 220 0
0.649479 0.031912 0.073589 255 220 0
0.639543 -0.006936 0.104089 255 220 0
0.594271 -0.048195 0.075406 255 220 0
0.639301 0.053562 0.065557 255 220 0
0.566018 -0.021707 0.085937 255 220 0
0.611191 0.017709 0.047674 255 220 0
0.621725 0.094801 0.102428 255 220 0
0.551293 -0.036040 0.042738 255 220 0
0.632489 -0.005504 0.120013 255 220 0
0.629703 -0.016341 0.073528 255 220 0
0.611810 0.090012 0.100469 255 220 0
0.616583 0.047163 0.144530 255 220 0
0.655302 0.085777 0.109765 255 220 0
0.572413 -0.021589 0.096824 255 220 0
0.557343 -0.017313 0.064209 255 220 0
0.567179 0.004899 0.057051 255 220 0
0.641084 0.001754 0.117561 255 220 0
0.629831 -0.020943 0.091949 255 220 0
0.606107 0.082368 0.121939 255 220 0
0.609434 0.088697 0.104919 255 220 0
0.586019 -0.021381 0.111641 255 220 0
0.624080 0.030092 0.143114 255 220 0
0.629429 -0.017220 0.074220 255 220 0
0.610282 0.035624 0.049399 255 220 0
0.643019 0.053478 0.141943 255 220 0
0.656719 0.066794 0.091212 255 220 0
0.648269 0.091515 0.106312 255 220 0
0.593301 -0.011655 0.121877 255 220 0
0.662792 0.055635 0.111929 255 220 0
0.595755 -0.005832 0.125723 255 220 0
0.632603 0.010374 0.133056 255 220 0
0.629175 0.096956 0.110571 255 220 0
0.613899 -0.033025 0.068927 255 220 0
0.576957 0.001830 0.043579 255 220 0
0.585727 0.034647 0.119660 255 220 0
0.630810 -0.016113 0.105090 255 220 0
0.626338 0.000446 0.058462 255 220 0
0.576977 -0.003723 0.107898 255 220 0
0.585868 -0.035897 0.041491 255 220 0
0.605746 0.080294 0.125033 255 220 0
0.643073 0.004713 0.118211 255 220 0
0.580053 -0.002364 0.040723 255 220 0
0.647931 0.080931 0.088831 255 220 0
0.629847 -0.016063 0.107224 255 220 0
0.658519 0.061573 0.092351 255 220 0
0.632288 0.097268 0.113399 255 220 0
0.561265 -0.050284 0.053681 255 220 0
0.596891 0.071627 0.119019 255 220 0
0.635743 0.078038 0.141742 255 220 0
0.606927 0.007574 0.135272 255 220 0
0.603309 -0.024886 0.048694 255 220 0
0.628723 0.041552 0.144356 255 220 0
0.601067 -0.032996 0.051501 255 220 0
0.562619 -0.006373 0.072288 255 220 0
0.552253 -0.022664 0.045407 255 220 0
0.565478 -0.047910 0.069797 255 220 0
0.582576 0.012852 0.116896 255 220 0
0.613218 0.023863 0.048565 255 220 0
0.586890 -0.028012 0.108114 255 220 0
0.635727 0.004665 0.126942 255 220 0
0.583745 0.049079 0.076769 255 220 0
0.571312 -0.036640 0.035304 255 220 0
0.661623 0.040276 0.110712 255 220 0
0.631164 -0.008617 0.117629 255 220 0
0.659715 0.043811 0.091619 255 220 0
