ply
format ascii 1.0
element vertex 1024
property float x
property float y
property float z
property uchar red
property uchar green
property uchar blue
end_header
0.605332 -0.049431 0.073232 255 220 0
0.623372 0.032467 0.062736 255 220 0
0.660050 0.079839 0.127770 255 220 0
0.663556 0.045627 0.107132 255 220 0
0.639459 0.007031 0.074954 255 220 0
0.642087 0.019592 0.148770 255 220 0
0.623109 0.013811 0.060862 255 220 0
0.615096 0.087250 0.106218 255 220 0
0.606290 -0.004228 0.145358 255 220 0
0.650973 0.059669 0.087693 255 220 0
0.613563 0.087448 0.109222 255 220 0
0.596994 0.068794 0.134584 255 220 0
0.595200 0.054283 0.090891 255 220 0
0.587586 -0.013749 0.047951 255 220 0
0.633811 0.068156 0.079482 255 220 0
0.663731 0.043454 0.108059 255 220 0
0.661406 0.062472 0.106705 255 220 0
0.585876 0.010982 0.129674 255 220 0
0.585355 -0.022990 0.043487 255 220 0
0.598747 0.036545 0.070104 255 220 0
0.615542 -0.003776 0.056261 255 220 0
0.648929 0.077688 0.097152 255 220 0
0.636716 0.086638 0.153341 255 220 0
0.640368 0.093271 0.109775 255 220 0
0.618453 0.000212 0.147735 255 220 0
0.580474 -0.012957 0.114815 255 220 0
0.645384 0.059192 0.081814 255 220 0
0.653088 0.056361 0.151043 255 220 0
0.591061 -0.004717 0.052329 255 220 0
0.627911 0.006774 0.149071 255 220 0
0.575594 -0.027290 0.095333 255 220 0
0.618689 -0.015664 0.136792 255 220 0
0.663585 0.053237 0.108598 255 220 0
0.570427 -0.029054 0.073492 255 220 0
0.634961 0.049799 0.071603 255 220 0
0.633924 -0.011763 0.075399 255 220 0
0.584378 0.033936 0.120021 255 220 0
0.575672 -0.028432 0.044353 255 220 0
0.582389 0.027285 0.106453 255 220 0
0.651178 0.092480 0.128721 255 220 0
0.626260 0.080797 0.089628 255 220 0
0.626433 -0.020121 0.069643 255 220 0
0.631721 0.019323 0.065634 255 220 0
0.600863 0.074591 0.137508 255 220 0
0.598655 -0.051809 0.090538 255 220 0
0.642874 -0.010395 0.092061 255 220 0
0.598039 0.071080 0.134544 255 220 0
0.650593 0.071539 0.153244 255 220 0
0.632632 -0.026840 0.102793 255 220 0
0.576588 -0.009443 0.101900 255 220 0
0.648892 0.092883 0.121686 255 220 0
0.649189 0.057462 0.084762 255 220 0
0.604288 -0.050567 0.077399 255 220 0
0.644209 0.072163 0.088179 255 220 0
0.603664 0.070612 0.094874 255 220 0
0.601241 -0.001530 0.144502 255 220 0
0.593031 0.043733 0.140468 255 220 0
0.621957 0.071729 0.081408 255 220 0
0.602753 -0.017860 0.048951 255 220 0
0.595586 -0.029271 0.124226 255 220 0
0.617357 -0.000340 0.057384 255 220 0
0.576668 -0.008880 0.102173 255 220 0
0.579073 -0.028224 0.103329 255 220 0
0.638054 0.086766 0.097999 255 220 0
0.589096 -0.052233 0.090567 255 220 0
0.578832 0.006715 0.084329 255 220 0
0.599786 0.074200 0.134989 255 220 0
0.625617 -0.032185 0.081798 255 220 0
0.648803 0.094133 0.134568 255 220 0
0.596746 0.022622 0.146691 255 220 0
0.633974 0.033132 0.067321 255 220 0
0.606551 0.020874 0.059219 255 220 0
0.595481 -0.049453 0.097919 255 220 0
0.629464 0.010880 0.064658 255 220 0
0.583144 0.029442 0.117028 255 220 0
0.632842 -0.015828 0.125670 255 220 0
0.646348 0.095279 0.126935 255 220 0
0.580718 0.019674 0.100414 255 220 0
0.639996 -0.007848 0.127105 255 220 0
0.599762 -0.032702 0.047548 255 220 0
0.587273 0.015865 0.132430 255 220 0
0.574456 -0.044986 0.079225 255 220 0
0.628742 0.072096 0.081137 255 220 0
0.648870 0.028596 0.081137 255 220 0
0.579909 0.015629 0.101807 255 220 0
0.661815 0.024588 0.115390 255 220 0
0.598332 0.056291 0.145652 255 220 0
0.582387 0.026867 0.101130 255 220 0
0.611287 -0.046498 0.083055 255 220 0
0.594509 0.063064 0.133813 255 220 0
0.616314 0.047256 0.067111 255 220 0
0.656739 0.085427 0.123411 255 220 0
0.606009 0.062335 0.152977 255 220 0
0.644696 0.042495 0.076539 255 220 0
0.652049 0.084586 0.108584 255 220 0
0.604801 0.080485 0.137345 255 220 0
0.625043 0.002068 0.147307 255 220 0
0.585667 0.029427 0.127701 255 220 0
0.644150 0.017309 0.077647 255 220 0
0.597031 -0.053615 0.073340 255 220 0
0.637369 0.047804 0.159050 255 220 0
0.657162 0.025487 0.135294 255 220 0
0.604936 -0.027815 0.050365 255 220 0
0.664450 0.059081 0.125941 255 220 0
0.635674 -0.017973 0.118430 255 220 0
0.588102 0.026211 0.133785 255 220 0
0.616370 0.064568 0.158770 255 220 0
0.629339 0.027380 0.064289 255 220 0
0.657396 0.016980 0.126098 255 220 0
0.623039 0.012592 0.152855 255 220 0
0.639532 0.001367 0.076988 255 220 0
0.590981 0.005527 0.136922 255 220 0
0.573650 -0.016036 0.082799 255 220 0
0.643458 0.034405 0.074772 255 220 0
0.621091 0.054885 0.160477 255 220 0
0.632997 0.030111 0.156879 255 220 0
0.625346 0.075259 0.083915 255 220 0
0.591929 -0.034234 0.043133 255 220 0
0.616493 0.048187 0.067537 255 220 0
0.613563 0.090603 0.126629 255 220 0
0.647916 0.094762 0.133530 255 220 0
0.652025 0.000987 0.108861 255 220 0
0.608755 0.048437 0.070127 255 220 0
0.627208 0.097136 0.124331 255 220 0
0.597578 0.017557 0.146758 255 220 0
0.581262 0.010069 0.119313 255 220 0
0.606155 0.071849 0.092804 255 220 0
0.583227 -0.055810 0.072485 255 220 0
0.608663 -0.047798 0.076957 255 220 0
0.646659 0.008496 0.137233 255 220 0
0.664927 0.044977 0.123240 255 220 0
0.662982 0.030715 0.110195 255 220 0
0.567529 -0.034337 0.062099 255 220 0
0.623453 -0.036639 0.090937 255 220 0
0.591495 0.026457 0.139838 255 220 0
0.590587 -0.022358 0.044061 255 220 0
0.652408 0.090911 0.125265 255 220 0
0.626981 -0.030208 0.109212 255 220 0
0.585147 -0.029416 0.041495 255 220 0
0.587693 0.018308 0.071498 255 220 0
0.622689 0.001812 0.147784 255 220 0
0.632491 -0.026725 0.104342 255 220 0
0.585327 0.009750 0.068250 255 220 0
0.655619 0.083354 0.142737 255 220 0
0.652733 0.077018 0.101488 255 220 0
0.582732 0.028694 0.105533 255 220 0
0.620270 -0.018512 0.133148 255 220 0
0.569947 -0.036920 0.073926 255 220 0
0.599709 -0.016879 0.047923 255 220 0
0.631380 0.005359 0.146912 255 220 0
0.585953 0.037448 0.097778 255 220 0
0.592573 0.027400 0.141536 255 220 0
0.616898 -0.028301 0.061866 255 220 0
0.602164 -0.048870 0.063666 255 220 0
0.582450 0.002575 0.122422 255 220 0
0.599762 0.056580 0.147551 255 220 0
0.581635 0.024017 0.104753 255 220 0
0.577228 -0.003882 0.072716 255 220 0
0.655189 0.088541 0.133810 255 220 0
0.636170 -0.001982 0.073954 255 220 0
0.575764 -0.010205 0.095694 255 220 0
0.650156 0.060225 0.087016 255 220 0
0.634160 0.052291 0.160393 255 220 0
0.581981 0.008121 0.073932 255 220 0
0.638199 0.074179 0.085580 255 220 0
0.613668 -0.039424 0.106738 255 220 0
0.586312 0.031692 0.088118 255 220 0
0.583823 0.032540 0.117300 255 220 0
0.620327 0.055752 0.160350 255 220 0
0.654849 0.068825 0.098310 255 220 0
0.640402 0.000467 0.136514 255 220 0
0.641613 0.007164 0.141419 255 220 0
0.611443 0.078345 0.149638 255 220 0
0.645207 0.090426 0.147104 255 220 0
0.596035 0.058125 0.141141 255 220 0
0.637647 0.084103 0.154828 255 220 0
0.635312 0.004149 0.071091 255 220 0
0.579434 0.004485 0.113690 255 220 0
0.634718 -0.023445 0.108133 255 220 0
0.634652 0.046166 0.070297 255 220 0
0.607408 0.041381 0.155584 255 220 0
0.630787 -0.009951 0.134578 255 220 0
0.622991 -0.021684 0.065974 255 220 0
0.621095 0.054094 0.160455 255 220 0
0.583896 -0.035839 0.105467 255 220 0
0.618448 0.018344 0.059588 255 220 0
0.633905 0.096784 0.118184 255 220 0
0.645769 0.003963 0.084745 255 220 0
0.621532 0.054915 0.160549 255 220 0
0.603652 0.007476 0.055601 255 220 0
0.578406 0.007481 0.096077 255 220 0
0.663874 0.033146 0.120368 255 220 0
0.593316 0.008367 0.140477 255 220 0
0.609222 -0.047602 0.078604 255 220 0
0.652718 0.016079 0.135493 255 220 0
0.663150 0.047830 0.105462 255 220 0
0.639244 0.045236 0.157967 255 220 0
0.628805 -0.023875 0.076347 255 220 0
0.606026 0.079099 0.104514 255 220 0
0.629601 0.025114 0.064302 255 220 0
0.658064 0.020478 0.128470 255 220 0
0.617002 0.086741 0.145816 255 220 0
0.589601 0.040292 0.134354 255 220 0
0.600510 0.057996 0.148116 255 220 0
0.657081 0.049134 0.145641 255 220 0
0.635709 -0.018647 0.117184 255 220 0
0.622054 0.090522 0.144799 255 220 0
0.588972 0.049898 0.125863 255 220 0
0.647150 0.086538 0.104291 255 220 0
0.609547 0.012937 0.151880 255 220 0
0.639817 0.097779 0.134032 255 220 0
0.640946 0.082882 0.154741 255 220 0
0.621536 -0.031563 0.114069 255 220 0
0.641494 -0.002931 0.131448 255 220 0
0.589762 0.049880 0.130057 255 220 0
0.610224 -0.044848 0.097716 255 220 0
0.663368 0.064203 0.132064 255 220 0
0.643718 -0.000957 0.130843 255 220 0
0.657677 0.079834 0.141305 255 220 0
0.606675 -0.038303 0.113997 255 220 0
0.637905 -0.011948 0.082081 255 220 0
0.595223 0.003878 0.055699 255 220 0
0.576037 -0.047777 0.050595 255 220 0
0.654262 0.089118 0.125525 255 220 0
0.601935 0.079253 0.129661 255 220 0
0.573213 -0.038982 0.082186 255 220 0
0.637015 -0.021267 0.096194 255 220 0
0.636403 0.031106 0.155998 255 220 0
0.626473 -0.000866 0.144963 255 220 0
0.591199 -0.012400 0.131697 255 220 0
0.650517 0.001005 0.119832 255 220 0
0.581217 -0.055114 0.071722 255 220 0
0.575081 -0.012740 0.092077 255 220 0
0.596796 -0.053693 0.082958 255 220 0
0.581663 0.021272 0.116422 255 220 0
0.590738 0.029765 0.138441 255 220 0
0.622806 -0.016985 0.133127 255 220 0
0.628542 0.093102 0.107542 255 220 0
0.660113 0.070368 0.110126 255 220 0
0.663626 0.047154 0.133139 255 220 0
0.626311 -0.015506 0.132194 255 220 0
0.596421 0.023926 0.146474 255 220 0
0.636654 0.094396 0.110597 255 220 0
0.658817 0.063424 0.101450 255 220 0
0.626946 -0.031583 0.105486 255 220 0
0.652247 0.070930 0.151854 255 220 0
0.601708 0.067972 0.094698 255 220 0
0.577910 0.000484 0.077672 255 220 0
0.639762 0.097824 0.133637 255 220 0
0.628353 0.089467 0.150017 255 220 0
0.596363 0.047972 0.144919 255 220 0
0.594370 -0.044773 0.105309 255 220 0
0.644917 -0.005183 0.090293 255 220 0
0.596805 0.067713 0.135438 255 220 0
0.640024 0.084286 0.154215 255 220 0
0.606217 0.080250 0.106605 255 220 0
0.593571 0.029997 0.071546 255 220 0
0.580953 -0.015392 0.114791 255 220 0
0.603334 -0.048101 0.096966 255 220 0
0.623641 0.043279 0.160069 255 220 0
0.639391 0.040825 0.071916 255 220 0
0.615155 0.050402 0.158919 255 220 0
0.597735 0.072826 0.128497 255 220 0
0.612005 0.009731 0.151298 255 220 0
0.598366 0.044668 0.147999 255 220 0
0.607751 0.030015 0.155342 255 220 0
0.615773 -0.042568 0.080343 255 220 0
0.600452 0.002433 0.145340 255 220 0
0.581124 0.020210 0.113286 255 220 0
0.650064 0.093015 0.126550 255 220 0
0.602244 0.027576 0.151933 255 220 0
0.639887 0.086950 0.152534 255 220 0
0.595659 0.030240 0.069183 255 220 0
0.657312 0.060896 0.097124 255 220 0
0.586669 0.007820 0.130766 255 220 0
0.638022 -0.018814 0.111147 255 220 0
0.613709 0.076549 0.090619 255 220 0
0.610568 -0.037226 0.113578 255 220 0
0.625631 0.007663 0.150162 255 220 0
0.603475 0.039699 0.153079 255 220 0
0.592724 0.060065 0.130595 255 220 0
0.618281 -0.020418 0.060168 255 220 0
0.580395 -0.053932 0.074605 255 220 0
0.620363 0.051423 0.160216 255 220 0
0.635253 0.063817 0.077619 255 220 0
0.639862 0.037023 0.156043 255 220 0
0.604993 0.023941 0.060460 255 220 0
0.644738 0.087953 0.103776 255 220 0
0.574036 -0.016558 0.059709 255 220 0
0.583929 0.033295 0.104890 255 220 0
0.572971 -0.017830 0.078493 255 220 0
0.598872 -0.009386 0.139911 255 220 0
0.585111 0.037674 0.105332 255 220 0
0.614336 0.081719 0.096950 255 220 0
0.596705 -0.033438 0.045666 255 220 0
0.619863 0.056247 0.071379 255 220 0
0.639684 0.002830 0.139469 255 220 0
0.588237 0.043238 0.129583 255 220 0
0.632080 0.063763 0.076526 255 220 0
0.614913 0.050211 0.158838 255 220 0
0.631196 0.039595 0.066975 255 220 0
0.599727 -0.006835 0.141580 255 220 0
0.597789 0.069433 0.107045 255 220 0
0.605572 -0.016838 0.050383 255 220 0
0.599248 0.075785 0.125395 255 220 0
0.583939 0.014253 0.125855 255 220 0
0.576778 -0.006273 0.101358 255 220 0
0.601169 0.025018 0.150874 255 220 0
0.587140 0.044393 0.105360 255 220 0
0.581639 -0.055553 0.066306 255 220 0
0.605449 -0.049977 0.084530 255 220 0
0.590560 -0.054481 0.063771 255 220 0
0.627914 0.064844 0.076304 255 220 0
0.636038 -0.021708 0.109134 255 220 0
0.655451 0.041975 0.088851 255 220 0
0.604362 -0.030838 0.125315 255 220 0
0.622624 -0.000555 0.060548 255 220 0
0.644693 0.051616 0.156577 255 220 0
0.640614 -0.009633 0.085294 255 220 0
0.606832 0.084766 0.121213 255 220 0
0.623105 0.082017 0.091853 255 220 0
0.638718 0.010072 0.073276 255 220 0
0.634999 -0.012273 0.077331 255 220 0
0.649310 0.028527 0.147090 255 220 0
0.628555 0.000469 0.144987 255 220 0
0.612378 -0.017303 0.054525 255 220 0
0.664877 0.052454 0.122447 255 220 0
0.611469 0.012666 0.152221 255 220 0
0.601394 -0.041633 0.053119 255 220 0
0.616748 0.077561 0.089622 255 220 0
0.609234 -0.045046 0.098512 255 220 0
0.588458 0.045821 0.128524 255 220 0
0.652639 0.086030 0.144875 255 220 0
0.638906 -0.013810 0.119728 255 220 0
0.641383 0.001838 0.079280 255 220 0
0.623431 0.086516 0.097732 255 220 0
0.606060 -0.008932 0.143098 255 220 0
0.590946 0.044401 0.089714 255 220 0
0.631503 0.044818 0.068491 255 220 0
0.615900 0.020685 0.155732 255 220 0
0.576298 -0.007594 0.097909 255 220 0
0.641425 0.010904 0.144331 255 220 0
0.579017 0.000299 0.072477 255 220 0
0.578605 -0.049590 0.051917 255 220 0
0.641378 0.036745 0.072976 255 220 0
0.657922 0.024504 0.132874 255 220 0
0.634183 -0.024165 0.107601 255 220 0
0.596674 0.069481 0.132149 255 220 0
0.658433 0.052321 0.144415 255 220 0
0.642047 -0.004366 0.128847 255 220 0
0.587910 0.027936 0.133224 255 220 0
0.638937 0.097405 0.137181 255 220 0
0.571482 -0.024596 0.075475 255 220 0
0.580772 0.017613 0.092195 255 220 0
0.580098 -0.024166 0.108138 255 220 0
0.589543 0.031402 0.079561 255 220 0
0.577988 -0.053268 0.070213 255 220 0
0.594165 -0.054724 0.077605 255 220 0
0.579749 0.014655 0.103167 255 220 0
0.655204 0.083489 0.143387 255 220 0
0.660347 0.049998 0.097912 255 220 0
0.578118 -0.052010 0.074708 255 220 0
0.651862 0.066921 0.092783 255 220 0
0.573120 -0.036172 0.083639 255 220 0
0.575521 -0.022005 0.097080 255 220 0
0.656279 0.033440 0.141561 255 220 0
0.625429 0.013816 0.062010 255 220 0
0.650722 0.041559 0.150243 255 220 0
0.610575 0.087581 0.117884 255 220 0
0.595970 0.009282 0.143563 255 220 0
0.615352 -0.041468 0.099606 255 220 0
0.624791 0.091680 0.106198 255 220 0
0.632964 0.033844 0.157761 255 220 0
0.643545 0.015603 0.145575 255 220 0
0.585345 0.019348 0.128592 255 220 0
0.585082 0.037723 0.117612 255 220 0
0.659078 0.030130 0.097146 255 220 0
0.617000 0.011340 0.058377 255 220 0
0.611979 0.082578 0.101034 255 220 0
0.628740 0.097759 0.129877 255 220 0
0.606491 -0.028503 0.127849 255 220 0
0.592398 -0.001775 0.137033 255 220 0
0.652515 0.084639 0.109494 255 220 0
0.603473 0.016249 0.058387 255 220 0
0.649075 0.044079 0.152197 255 220 0
0.589971 0.029112 0.076569 255 220 0
0.661016 0.022917 0.110232 255 220 0
0.593646 0.033641 0.074144 255 220 0
0.568298 -0.032373 0.052405 255 220 0
0.651626 0.054069 0.152078 255 220 0
0.608787 -0.011447 0.052391 255 220 0
0.600751 0.056939 0.083929 255 220 0
0.627208 -0.018983 0.127386 255 220 0
0.598393 0.074410 0.123454 255 220 0
0.654012 0.089517 0.126156 255 220 0
0.662524 0.068743 0.133255 255 220 0
0.602129 0.067725 0.146119 255 220 0
0.592543 0.000524 0.137832 255 220 0
0.590802 0.052024 0.131979 255 220 0
0.661990 0.073901 0.126670 255 220 0
0.597291 0.029291 0.067036 255 220 0
0.614041 -0.024749 0.057309 255 220 0
0.604824 0.076817 0.102545 255 220 0
0.658352 0.082416 0.122665 255 220 0
0.580220 0.017201 0.103843 255 220 0
0.619276 0.070414 0.081132 255 220 0
0.617462 0.079066 0.090970 255 220 0
0.600026 -0.005190 0.142451 255 220 0
0.589127 0.039674 0.089219 255 220 0
0.657876 0.074234 0.108394 255 220 0
0.607192 -0.020392 0.051225 255 220 0
0.571678 -0.024284 0.076547 255 220 0
0.584098 0.025945 0.124227 255 220 0
0.598504 0.028988 0.065864 255 220 0
0.608287 0.038239 0.064862 255 220 0
0.655971 0.062123 0.148229 255 220 0
0.630175 -0.003894 0.067639 255 220 0
0.617922 -0.041265 0.084637 255 220 0
0.572842 -0.017081 0.072016 255 220 0
0.638483 0.014961 0.071952 255 220 0
0.597041 0.055596 0.143909 255 220 0
0.632852 -0.021387 0.117220 255 220 0
0.657383 0.065248 0.146208 255 220 0
0.570931 -0.043087 0.050655 255 220 0
0.583382 -0.019867 0.116876 255 220 0
0.661418 0.044554 0.099792 255 220 0
0.593566 0.059605 0.102959 255 220 0
0.599161 -0.041119 0.111419 255 220 0
0.596760 0.064207 0.138791 255 220 0
0.586495 -0.038547 0.042065 255 220 0
0.643184 0.096117 0.123610 255 220 0
0.643515 0.071197 0.157688 255 220 0
0.640250 0.090010 0.149882 255 220 0
0.626933 0.075371 0.158958 255 220 0
0.625928 -0.032118 0.106334 255 220 0
0.568398 -0.042231 0.061062 255 220 0
0.656585 0.078609 0.110161 255 220 0
0.593297 0.063564 0.117466 255 220 0
0.662208 0.040396 0.134695 255 220 0
0.584615 0.001137 0.126385 255 220 0
0.656740 0.081217 0.114101 255 220 0
0.600728 0.065256 0.145438 255 220 0
0.629144 0.094051 0.109663 255 220 0
0.662417 0.046378 0.102729 255 220 0
0.627753 -0.026029 0.076718 255 220 0
0.609943 0.087639 0.122083 255 220 0
0.602957 -0.046820 0.060786 255 220 0
0.621851 0.058976 0.160659 255 220 0
0.589875 0.040936 0.134789 255 220 0
0.609047 0.086599 0.131973 255 220 0
0.657658 0.020747 0.098631 255 220 0
0.600000 -0.032514 0.047677 255 220 0
0.660301 0.060152 0.141847 255 220 0
0.624494 0.052809 0.069740 255 220 0
0.623974 0.090940 0.105116 255 220 0
0.640940 -0.003682 0.131255 255 220 0
0.628691 -0.011987 0.068638 255 220 0
0.647120 -0.002174 0.092421 255 220 0
0.662467 0.066225 0.113758 255 220 0
0.607667 -0.045581 0.098963 255 220 0
0.603185 -0.036192 0.118379 255 220 0
0.660300 0.027460 0.101747 255 220 0
0.657893 0.037322 0.092934 255 220 0
0.579535 -0.028660 0.103949 255 220 0
0.595058 0.020293 0.144521 255 220 0
0.637655 0.085826 0.153764 255 220 0
0.570383 -0.026458 0.053001 255 220 0
0.598697 0.003366 0.054618 255 220 0
0.599544 0.023089 0.062320 255 220 0
0.634836 0.047055 0.070659 255 220 0
0.614919 0.071797 0.156164 255 220 0
0.625294 0.055400 0.071052 255 220 0
0.614824 -0.026995 0.058908 255 220 0
0.590517 0.005567 0.136296 255 220 0
0.608232 0.006610 0.055578 255 220 0
0.590443 -0.002717 0.134356 255 220 0
0.664245 0.061844 0.123788 255 220 0
0.664653 0.054581 0.117828 255 220 0
0.609896 0.064823 0.081567 255 220 0
0.584988 0.031428 0.092564 255 220 0
0.663139 0.065256 0.132691 255 220 0
0.598770 0.070122 0.137955 255 220 0
0.607667 0.031665 0.155439 255 220 0
0.599249 0.061698 0.091367 255 220 0
0.640470 0.080999 0.092976 255 220 0
0.597182 -0.053017 0.068933 255 220 0
0.577906 -0.035732 0.095144 255 220 0
0.595972 0.018485 0.062326 255 220 0
0.625935 0.055872 0.161086 255 220 0
0.596599 0.001129 0.142158 255 220 0
0.662140 0.050597 0.102438 255 220 0
0.624734 0.096158 0.122225 255 220 0
0.609585 -0.045531 0.096661 255 220 0
0.621168 0.054864 0.160489 255 220 0
0.604044 -0.044704 0.103881 255 220 0
0.580060 0.015948 0.095618 255 220 0
0.637057 0.027917 0.069192 255 220 0
0.660574 0.030767 0.131998 255 220 0
0.571156 -0.022784 0.068903 255 220 0
0.618936 -0.011266 0.140469 255 220 0
0.619518 -0.002133 0.146347 255 220 0
0.572144 -0.037571 0.080329 255 220 0
0.600142 -0.020357 0.047495 255 220 0
0.631862 -0.026104 0.108885 255 220 0
0.585069 0.037530 0.105359 255 220 0
0.583837 0.033124 0.106934 255 220 0
0.622925 0.050253 0.068421 255 220 0
0.598393 0.069776 0.105676 255 220 0
0.649975 0.039787 0.081783 255 220 0
0.607956 0.053631 0.155579 255 220 0
0.601261 -0.048979 0.096578 255 220 0
0.576481 -0.010558 0.062441 255 220 0
0.598140 -0.047851 0.056320 255 220 0
0.622914 -0.021597 0.127767 255 220 0
0.586711 -0.044924 0.099413 255 220 0
0.567608 -0.037571 0.063069 255 220 0
0.657617 0.068315 0.145573 255 220 0
0.585306 -0.027171 0.114936 255 220 0
0.590252 0.016454 0.137418 255 220 0
0.664666 0.038486 0.116965 255 220 0
0.637352 0.059094 0.076342 255 220 0
0.628686 0.057926 0.072817 255 220 0
0.617659 -0.021238 0.059790 255 220 0
0.660368 0.077084 0.120376 255 220 0
0.580345 -0.005292 0.116591 255 220 0
0.615061 -0.041798 0.099092 255 220 0
0.645636 0.094849 0.138848 255 220 0
0.604164 0.069153 0.092216 255 220 0
0.631120 -0.027795 0.105733 255 220 0
0.588416 -0.025245 0.042846 255 220 0
0.582209 -0.002873 0.060186 255 220 0
0.632699 -0.018416 0.078227 255 220 0
0.609913 -0.047411 0.082569 255 220 0
0.635425 0.095750 0.142640 255 220 0
0.623128 0.011098 0.152195 255 220 0
0.655012 0.067735 0.097803 255 220 0
0.583952 0.029513 0.094432 255 220 0
0.616846 0.041611 0.064629 255 220 0
0.597368 0.025656 0.064959 255 220 0
0.570802 -0.043139 0.072556 255 220 0
0.633439 0.042761 0.068764 255 220 0
0.606299 0.022873 0.059825 255 220 0
0.622217 -0.029944 0.070752 255 220 0
0.594572 0.006876 0.141604 255 220 0
0.649504 0.036947 0.149971 255 220 0
0.645796 -0.008876 0.102297 255 220 0
0.586039 0.041160 0.118891 255 220 0
0.592384 0.059626 0.129441 255 220 0
0.613581 0.057024 0.158318 255 220 0
0.653982 0.018323 0.091600 255 220 0
0.601301 0.060615 0.086809 255 220 0
0.636963 -0.009233 0.129320 255 220 0
0.585737 0.038215 0.123226 255 220 0
0.616616 -0.000222 0.057009 255 220 0
0.569151 -0.043011 0.055145 255 220 0
0.621863 -0.002998 0.060176 255 220 0
0.574313 -0.011513 0.080797 255 220 0
0.645085 0.000662 0.085562 255 220 0
0.653226 0.037417 0.146686 255 220 0
0.649467 -0.002999 0.103939 255 220 0
0.632312 -0.016163 0.125825 255 220 0
0.634838 -0.020265 0.115813 255 220 0
0.595230 0.041417 0.144370 255 220 0
0.576987 0.000138 0.084537 255 220 0
0.624205 -0.020824 0.127672 255 220 0
0.577561 0.003194 0.091383 255 220 0
0.626826 0.079421 0.157146 255 220 0
0.625126 0.019021 0.155212 255 220 0
0.633188 0.062415 0.076171 255 220 0
0.595350 0.018828 0.144672 255 220 0
0.638644 0.092906 0.107854 255 220 0
0.663803 0.049407 0.108619 255 220 0
0.601934 -0.041019 0.053176 255 220 0
0.625037 0.081300 0.090432 255 220 0
0.654923 0.013705 0.096681 255 220 0
0.602120 0.010997 0.056907 255 220 0
0.569767 -0.041627 0.070874 255 220 0
0.612179 0.030388 0.061155 255 220 0
0.629462 -0.028957 0.086537 255 220 0
0.628993 0.081856 0.090582 255 220 0
0.654580 0.007442 0.103724 255 220 0
0.630225 0.067556 0.078234 255 220 0
0.581572 -0.029335 0.107225 255 220 0
0.624136 0.096283 0.125688 255 220 0
0.575492 -0.012820 0.095721 255 220 0
0.584121 0.017059 0.126071 255 220 0
0.574777 -0.016315 0.092561 255 220 0
0.592085 -0.024252 0.125550 255 220 0
0.627953 -0.031117 0.087220 255 220 0
0.615787 0.086399 0.103492 255 220 0
0.645873 0.024105 0.078280 255 220 0
0.609786 -0.036598 0.115170 255 220 0
0.642056 -0.013459 0.095821 255 220 0
0.653461 0.017446 0.091030 255 220 0
0.609847 0.084196 0.108141 255 220 0
0.639993 0.001667 0.138106 255 220 0
0.632994 -0.013800 0.075238 255 220 0
0.586668 -0.007491 0.127611 255 220 0
0.604669 -0.007276 0.143555 255 220 0
0.647657 0.019968 0.081337 255 220 0
0.573337 -0.022318 0.051842 255 220 0
0.649718 0.052446 0.083567 255 220 0
0.592133 0.029783 0.140783 255 220 0
0.641941 0.096980 0.126455 255 220 0
0.645899 0.017826 0.079639 255 220 0
0.607193 -0.018570 0.137115 255 220 0
0.570301 -0.028131 0.071887 255 220 0
0.661168 0.045687 0.138809 255 220 0
0.657554 0.017772 0.126682 255 220 0
0.598232 0.039905 0.148291 255 220 0
0.595444 -0.051486 0.059945 255 220 0
0.658607 0.067501 0.104048 255 220 0
0.595983 0.029615 0.146186 255 220 0
0.610574 0.075193 0.151218 255 220 0
0.603083 -0.011941 0.050066 255 220 0
0.622050 0.089692 0.146097 255 220 0
0.628299 0.050716 0.160810 255 220 0
0.611196 -0.043736 0.069744 255 220 0
0.639814 0.013272 0.146971 255 220 0
0.652898 0.081106 0.105710 255 220 0
0.578993 0.002380 0.112231 255 220 0
0.657656 0.084976 0.132401 255 220 0
0.602342 0.010281 0.056630 255 220 0
0.586982 -0.018025 0.123480 255 220 0
0.582982 -0.016082 0.118221 255 220 0
0.595554 0.048196 0.083739 255 220 0
0.629629 -0.009238 0.136212 255 220 0
0.627177 -0.023975 0.120556 255 220 0
0.653042 0.041356 0.085566 255 220 0
0.628020 0.034880 0.158907 255 220 0
0.578250 -0.046589 0.084720 255 220 0
0.634196 0.023455 0.067158 255 220 0
0.660767 0.068487 0.110115 255 220 0
0.621305 -0.024648 0.125158 255 220 0
0.655874 0.080111 0.110339 255 220 0
0.592942 0.058545 0.103446 255 220 0
0.657876 0.036617 0.093001 255 220 0
0.592156 -0.042403 0.107359 255 220 0
0.658286 0.081248 0.119340 255 220 0
0.625994 0.095273 0.115705 255 220 0
0.575708 -0.005287 0.084390 255 220 0
0.582608 0.012255 0.077023 255 220 0
0.646957 0.004167 0.086593 255 220 0
0.586908 -0.054695 0.082697 255 220 0
0.650603 0.069650 0.092993 255 220 0
0.633577 0.090205 0.101527 255 220 0
0.586734 -0.050853 0.052385 255 220 0
0.616580 -0.042529 0.090157 255 220 0
0.648388 0.092071 0.117451 255 220 0
0.616453 -0.027846 0.124451 255 220 0
0.603008 -0.018338 0.049010 255 220 0
0.647375 0.008717 0.136517 255 220 0
0.626422 0.048841 0.160644 255 220 0
0.596803 0.046195 0.079786 255 220 0
0.651980 0.091923 0.129839 255 220 0
0.606102 0.013136 0.057181 255 220 0
0.601974 -0.051288 0.072406 255 220 0
0.580008 -0.037391 0.041708 255 220 0
0.604230 -0.044683 0.059362 255 220 0
0.630022 -0.013964 0.071150 255 220 0
0.589806 0.033786 0.081295 255 220 0
0.655850 0.009017 0.107941 255 220 0
0.594233 0.065863 0.118491 255 220 0
0.623489 0.027232 0.157787 255 220 0
0.607780 0.077602 0.098613 255 220 0
0.585345 -0.022917 0.043518 255 220 0
0.597720 -0.021584 0.131927 255 220 0
0.571626 -0.024379 0.076282 255 220 0
0.621973 0.048921 0.067754 255 220 0
0.581543 -0.007953 0.118669 255 220 0
0.585068 0.012383 0.071186 255 220 0
0.590956 0.035565 0.138181 255 220 0
0.641107 0.054065 0.076554 255 220 0
0.657023 0.011817 0.117488 255 220 0
0.622717 0.072768 0.082122 255 220 0
0.573203 -0.017493 0.061702 255 220 0
0.621496 -0.007813 0.060388 255 220 0
0.642547 -0.001971 0.082938 255 220 0
0.647132 0.058441 0.083099 255 220 0
0.601832 0.064275 0.147524 255 220 0
0.661351 0.023715 0.111158 255 220 0
0.652359 0.004385 0.099623 255 220 0
0.629393 0.033021 0.158372 255 220 0
0.664871 0.042808 0.117817 255 220 0
0.603560 0.004663 0.147516 255 220 0
0.578442 -0.030389 0.042254 255 220 0
0.579334 -0.000275 0.070415 255 220 0
0.638121 -0.019342 0.094722 255 220 0
0.595121 -0.035368 0.045084 255 220 0
0.595080 0.065784 0.110090 255 220 0
0.655724 0.058458 0.148444 255 220 0
0.649228 0.093367 0.125210 255 220 0
0.656177 0.010782 0.105219 255 220 0
0.634115 0.091248 0.103320 255 220 0
0.631639 0.002949 0.145178 255 220 0
0.625789 0.054140 0.160989 255 220 0
0.648658 0.037129 0.080250 255 220 0
0.624611 0.033799 0.063345 255 220 0
0.574156 -0.040186 0.083435 255 220 0
0.663226 0.033201 0.109132 255 220 0
0.610555 0.050559 0.157109 255 220 0
0.588052 -0.038813 0.042575 255 220 0
0.637532 -0.010178 0.080026 255 220 0
0.583924 0.033235 0.104548 255 220 0
0.607967 0.064875 0.083251 255 220 0
0.653303 0.050750 0.087252 255 220 0
0.571507 -0.024405 0.053068 255 220 0
0.588741 -0.040756 0.106475 255 220 0
0.628006 0.010429 0.063652 255 220 0
0.640594 -0.005424 0.129517 255 220 0
0.608046 -0.034511 0.119468 255 220 0
0.567728 -0.033937 0.053512 255 220 0
0.613954 0.007197 0.056888 255 220 0
0.614192 0.009972 0.151680 255 220 0
0.593066 0.059931 0.105779 255 220 0
0.605604 -0.045050 0.061841 255 220 0
0.592231 0.008414 0.059566 255 220 0
0.611709 0.087124 0.112326 255 220 0
0.642343 -0.007717 0.087039 255 220 0
0.643910 0.039147 0.154451 255 220 0
0.601031 0.078071 0.120406 255 220 0
0.645689 0.085661 0.151135 255 220 0
0.606575 0.026538 0.154352 255 220 0
0.587775 0.043728 0.099640 255 220 0
0.588843 0.003842 0.133605 255 220 0
0.655390 0.052699 0.090544 255 220 0
0.574664 -0.024402 0.093052 255 220 0
0.645070 0.090613 0.108360 255 220 0
0.620439 0.080407 0.154425 255 220 0
0.582364 0.002480 0.122226 255 220 0
0.617704 0.054749 0.159734 255 220 0
0.569800 -0.029752 0.070786 255 220 0
0.645768 0.095768 0.128683 255 220 0
0.649447 0.057410 0.154263 255 220 0
0.613653 0.089507 0.115994 255 220 0
0.659545 0.044323 0.095598 255 220 0
0.649665 0.084548 0.149168 255 220 0
0.608515 0.077064 0.147634 255 220 0
0.582046 -0.013573 0.117730 255 220 0
0.609938 0.057801 0.075777 255 220 0
0.575266 -0.008912 0.088444 255 220 0
0.631993 0.075093 0.159357 255 220 0
0.652235 0.001586 0.112793 255 220 0
0.653534 0.076656 0.149302 255 220 0
0.591542 -0.024321 0.043717 255 220 0
0.622340 0.070587 0.080388 255 220 0
0.597168 -0.005490 0.140392 255 220 0
0.656293 0.085311 0.120978 255 220 0
0.592439 0.018706 0.140890 255 220 0
0.654632 0.009540 0.100252 255 220 0
0.618819 0.091834 0.138140 255 220 0
0.584744 -0.032966 0.109312 255 220 0
0.664820 0.054013 0.122340 255 220 0
0.575475 -0.015730 0.056506 255 220 0
0.617652 -0.009598 0.057648 255 220 0
0.637534 0.029939 0.155212 255 220 0
0.569875 -0.025804 0.064849 255 220 0
0.587214 0.043068 0.125569 255 220 0
0.590961 0.024327 0.071005 255 220 0
0.629232 0.078438 0.157971 255 220 0
0.594280 0.054444 0.139419 255 220 0
0.618297 -0.008195 0.058005 255 220 0
0.630866 0.088255 0.098510 255 220 0
0.640745 -0.016570 0.105024 255 220 0
0.641732 -0.005992 0.127066 255 220 0
0.638557 0.010587 0.146181 255 220 0
0.651879 0.041923 0.084123 255 220 0
0.588904 -0.008660 0.130389 255 220 0
0.663908 0.045046 0.108898 255 220 0
0.575285 -0.008945 0.088736 255 220 0
0.618142 -0.023070 0.060932 255 220 0
0.573847 -0.037466 0.044545 255 220 0
0.589958 0.039280 0.086611 255 220 0
0.614315 0.038748 0.063710 255 220 0
0.585954 0.014168 0.129965 255 220 0
0.584925 -0.000105 0.126714 255 220 0
0.589319 -0.033501 0.042025 255 220 0
0.655923 0.017986 0.131261 255 220 0
0.629831 0.052560 0.160904 255 220 0
0.579162 -0.036642 0.096791 255 220 0
0.587529 0.039451 0.094050 255 220 0
0.637608 -0.000174 0.138563 255 220 0
0.585571 -0.056147 0.069020 255 220 0
0.575702 -0.005319 0.084255 255 220 0
0.606355 0.082023 0.137926 255 220 0
0.589791 0.022656 0.071534 255 220 0
0.662166 0.045556 0.101915 255 220 0
0.616404 -0.041926 0.080096 255 220 0
0.617472 -0.040942 0.080368 255 220 0
0.647452 0.016630 0.081977 255 220 0
0.604859 0.069843 0.092076 255 220 0
0.589893 0.046191 0.094981 255 220 0
0.582818 0.028921 0.112844 255 220 0
0.604270 0.025559 0.152993 255 220 0
0.654268 0.050988 0.149118 255 220 0
0.636368 -0.001311 0.138575 255 220 0
0.585164 -0.003094 0.126497 255 220 0
0.587858 0.027289 0.079339 255 220 0
0.650421 0.006408 0.129146 255 220 0
0.588865 -0.011038 0.129403 255 220 0
0.636636 0.042096 0.070332 255 220 0
0.663483 0.057478 0.134227 255 220 0
0.588221 0.048786 0.117443 255 220 0
0.616100 -0.037768 0.107657 255 220 0
0.630893 0.039074 0.159161 255 220 0
0.635214 0.074255 0.084282 255 220 0
0.653331 0.019949 0.137643 255 220 0
0.614077 -0.034255 0.116195 255 220 0
0.662348 0.072492 0.127674 255 220 0
0.631612 0.082871 0.155852 255 220 0
0.594592 -0.038919 0.113114 255 220 0
0.616220 -0.018850 0.134968 255 220 0
0.588840 0.021225 0.071945 255 220 0
0.577493 -0.002958 0.105127 255 220 0
0.610089 -0.045327 0.071192 255 220 0
0.577996 -0.044411 0.086878 255 220 0
0.661653 0.029342 0.127106 255 220 0
0.588778 -0.055257 0.081592 255 220 0
0.641292 0.092373 0.146742 255 220 0
0.611855 -0.033405 0.119175 255 220 0
0.643039 0.080211 0.155302 255 220 0
0.603883 0.044034 0.153215 255 220 0
0.642426 -0.010455 0.090736 255 220 0
0.651861 0.008519 0.129035 255 220 0
0.659808 0.079324 0.122499 255 220 0
0.610225 -0.031772 0.056096 255 220 0
0.572765 -0.045995 0.051435 255 220 0
0.647297 0.090389 0.110819 255 220 0
0.595099 -0.054096 0.071046 255 220 0
0.583720 0.014325 0.125355 255 220 0
0.644022 0.027152 0.150690 255 220 0
0.655096 0.007087 0.109015 255 220 0
0.586632 0.035873 0.128245 255 220 0
0.637096 0.069762 0.081797 255 220 0
0.623358 0.015444 0.061045 255 220 0
0.624023 -0.033598 0.080335 255 220 0
0.631835 0.011122 0.066466 255 220 0
0.603465 0.024244 0.152317 255 220 0
0.590180 0.049472 0.131849 255 220 0
0.647484 0.022836 0.146112 255 220 0
0.644605 -0.007699 0.118309 255 220 0
0.576806 -0.004133 0.074517 255 220 0
0.640987 0.093323 0.110390 255 220 0
0.628307 0.080907 0.089552 255 220 0
0.660528 0.078064 0.131981 255 220 0
0.592483 0.016836 0.064202 255 220 0
0.583609 0.032078 0.115102 255 220 0
0.619902 -0.013249 0.138381 255 220 0
0.595399 0.068318 0.126724 255 220 0
0.602000 0.042307 0.151790 255 220 0
0.660170 0.046799 0.097010 255 220 0
0.664831 0.044896 0.125079 255 220 0
0.629180 0.003598 0.146777 255 220 0
0.596847 0.034854 0.070931 255 220 0
0.611325 0.048713 0.069114 255 220 0
0.629772 0.047714 0.068823 255 220 0
0.585109 0.037086 0.103093 255 220 0
0.590414 0.039506 0.136349 255 220 0
0.625933 0.035939 0.159256 255 220 0
0.649777 0.008903 0.133231 255 220 0
0.619069 0.057678 0.160073 255 220 0
0.576040 -0.013896 0.057926 255 220 0
0.609110 0.086790 0.120730 255 220 0
0.601688 0.065690 0.146636 255 220 0
0.633549 0.035261 0.067329 255 220 0
0.599835 0.056162 0.147756 255 220 0
0.583771 0.019621 0.124853 255 220 0
0.594890 0.067307 0.125440 255 220 0
0.575668 -0.051932 0.061321 255 220 0
0.611314 -0.030673 0.056739 255 220 0
0.592182 -0.005795 0.051464 255 220 0
0.612387 0.012735 0.152420 255 220 0
0.588527 0.032582 0.133800 255 220 0
0.603150 0.045093 0.152597 255 220 0
0.586789 -0.003758 0.128897 255 220 0
0.573259 -0.017406 0.061598 255 220 0
0.633530 0.070692 0.081037 255 220 0
0.610378 0.042288 0.066052 255 220 0
0.614046 0.083990 0.100976 255 220 0
0.621816 0.087857 0.148381 255 220 0
0.637439 0.096880 0.139651 255 220 0
0.586922 -0.054532 0.083220 255 220 0
0.598870 0.025763 0.149079 255 220 0
0.585833 0.035723 0.095432 255 220 0
0.605403 -0.043007 0.058821 255 220 0
0.587503 0.035040 0.130868 255 220 0
0.658498 0.082944 0.125583 255 220 0
0.600615 0.071646 0.140494 255 220 0
0.578920 -0.014820 0.051929 255 220 0
0.611479 0.035595 0.157279 255 220 0
0.580575 0.014951 0.114734 255 220 0
0.649683 -0.002299 0.113801 255 220 0
0.619643 -0.039042 0.098530 255 220 0
0.663570 0.066018 0.128371 255 220 0
0.617265 -0.030612 0.063729 255 220 0
0.631655 0.031477 0.065835 255 220 0
0.609972 -0.042769 0.103213 255 220 0
0.582241 -0.030290 0.107635 255 220 0
0.651520 0.022964 0.142009 255 220 0
0.574742 -0.020314 0.093670 255 220 0
0.661882 0.066433 0.111695 255 220 0
0.635023 0.032993 0.067962 255 220 0
0.636946 0.000679 0.073969 255 220 0
0.637241 0.018840 0.151301 255 220 0
0.613883 0.078345 0.151764 255 220 0
0.587366 -0.005251 0.053431 255 220 0
0.589563 -0.033528 0.042111 255 220 0
0.597696 -0.042100 0.050085 255 220 0
0.617308 0.084172 0.149217 255 220 0
0.591299 -0.041829 0.045348 255 220 0
0.659049 0.028512 0.097761 255 220 0
0.586249 0.020492 0.076403 255 220 0
0.578216 0.006567 0.093125 255 220 0
0.606081 0.065694 0.085929 255 220 0
0.663269 0.067880 0.128471 255 220 0
0.608657 -0.005478 0.053100 255 220 0
0.659130 0.018849 0.106062 255 220 0
0.587418 0.039892 0.128806 255 220 0
0.630814 0.075752 0.084432 255 220 0
0.636081 0.048288 0.159483 255 220 0
0.645108 0.000129 0.130122 255 220 0
0.617138 -0.012094 0.057484 255 220 0
0.628473 0.087305 0.152161 255 220 0
0.635894 -0.009684 0.130003 255 220 0
0.624073 0.076510 0.085368 255 220 0
0.594549 -0.053717 0.086851 255 220 0
0.658814 0.023494 0.129626 255 220 0
0.648620 0.053459 0.082721 255 220 0
0.579033 -0.031189 0.041879 255 220 0
0.573206 -0.015939 0.076059 255 220 0
0.616403 0.017452 0.154719 255 220 0
0.597590 0.012121 0.145687 255 220 0
0.587827 0.041021 0.095132 255 220 0
0.644639 0.089262 0.148708 255 220 0
0.647672 -0.004514 0.116136 255 220 0
0.593178 -0.009292 0.049599 255 220 0
0.633322 0.005111 0.145766 255 220 0
0.605662 0.046811 0.070998 255 220 0
0.596170 0.058001 0.141451 255 220 0
0.639235 0.080186 0.156488 255 220 0
0.598952 -0.049534 0.096761 255 220 0
0.638625 -0.006686 0.079532 255 220 0
0.623705 0.090047 0.146828 255 220 0
0.577532 -0.001561 0.075738 255 220 0
0.598552 0.062169 0.143571 255 220 0
0.648588 -0.004153 0.112784 255 220 0
0.646344 0.082661 0.152605 255 220 0
0.597725 -0.053548 0.079578 255 220 0
0.652322 0.020503 0.087809 255 220 0
0.586590 0.032505 0.088228 255 220 0
0.661733 0.073338 0.132652 255 220 0
0.632838 -0.021693 0.082169 255 220 0
0.654504 0.006985 0.118336 255 220 0
0.600382 0.052423 0.149221 255 220 0
0.580407 -0.035519 0.100079 255 220 0
0.649112 -0.002675 0.115517 255 220 0
0.655387 0.062148 0.094830 255 220 0
0.568875 -0.043416 0.060298 255 220 0
0.651331 0.056591 0.086796 255 220 0
0.659560 0.029652 0.098514 255 220 0
0.640623 -0.006416 0.128155 255 220 0
0.603651 -0.049688 0.091613 255 220 0
0.652564 0.050604 0.086311 255 220 0
0.574373 -0.022239 0.091901 255 220 0
0.629335 0.013532 0.064370 255 220 0
0.626846 0.094918 0.113587 255 220 0
0.571498 -0.040089 0.047612 255 220 0
0.629562 -0.003601 0.141388 255 220 0
0.639165 -0.018316 0.096921 255 220 0
0.617700 0.090038 0.109391 255 220 0
0.609126 0.051044 0.156360 255 220 0
0.656907 0.086350 0.130488 255 220 0
0.577580 -0.021238 0.104073 255 220 0
0.572039 -0.019649 0.068353 255 220 0
0.584079 0.001820 0.062395 255 220 0
0.638705 0.003373 0.140798 255 220 0
0.634166 -0.021344 0.114986 255 220 0
0.606176 0.084273 0.129034 255 220 0
0.614171 0.089119 0.113115 255 220 0
0.586663 -0.019857 0.121970 255 220 0
0.616233 0.033871 0.158406 255 220 0
0.638688 -0.019132 0.097580 255 220 0
0.628506 0.031534 0.064346 255 220 0
0.635444 0.056962 0.160576 255 220 0
0.662753 0.065857 0.114599 255 220 0
0.651240 0.091816 0.124803 255 220 0
0.591175 -0.009342 0.132992 255 220 0
0.662662 0.056456 0.137010 255 220 0
0.592661 -0.003228 0.136884 255 220 0
0.626594 0.013323 0.152658 255 220 0
0.631870 0.097710 0.123252 255 220 0
0.624727 -0.035236 0.089537 255 220 0
0.597049 -0.002435 0.052386 255 220 0
0.585817 0.036650 0.125107 255 220 0
0.631686 -0.015425 0.127468 255 220 0
0.640490 -0.002845 0.080218 255 220 0
0.579484 -0.002525 0.114509 255 220 0
0.605107 -0.040255 0.055823 255 220 0
0.604932 0.082470 0.132068 255 220 0
0.640527 0.006365 0.141727 255 220 0
0.600682 -0.006874 0.050825 255 220 0
0.655347 0.079793 0.108795 255 220 0
0.630183 -0.015188 0.129248 255 220 0
0.664026 0.060741 0.116599 255 220 0
0.634108 0.098243 0.126787 255 220 0
0.577720 -0.053414 0.061958 255 220 0
0.597793 0.073377 0.124581 255 220 0
0.629202 0.081459 0.156440 255 220 0
0.601208 0.010871 0.148013 255 220 0
0.620253 -0.028777 0.066601 255 220 0
0.620693 0.045367 0.159948 255 220 0
0.617103 -0.036607 0.069329 255 220 0
0.575241 -0.008095 0.076664 255 220 0
0.572082 -0.026541 0.049365 255 220 0
0.577475 -0.049710 0.078370 255 220 0
0.582908 0.014719 0.123338 255 220 0
0.631220 0.019728 0.065284 255 220 0
0.588266 -0.026767 0.119355 255 220 0
0.631092 0.007099 0.148102 255 220 0
0.595944 0.047413 0.082288 255 220 0
0.592757 -0.041434 0.045985 255 220 0
0.661427 0.041056 0.136750 255 220 0
0.628844 -0.006897 0.138989 255 220 0
0.664865 0.042973 0.117640 255 220 0
