ply
format ascii 1.0
element vertex 1024
property float x
property float y
property float z
property uchar red
property uchar green
property uchar blue
end_header
0.396263 0.046955 0.048158 255 220 0
0.420472 0.122951 0.020206 255 220 0
0.424688 0.192438 0.074727 255 220 0
0.435961 0.154162 0.070652 255 220 0
0.427985 0.104790 0.046065 255 220 0
0.396564 0.140139 0.104175 255 220 0
0.420340 0.104764 0.024773 255 220 0
0.395223 0.187199 0.034173 255 220 0
0.365494 0.112304 0.093204 255 220 0
0.434429 0.159749 0.044199 255 220 0
0.392481 0.188145 0.035904 255 220 0
0.365280 0.176548 0.055686 255 220 0
0.383376 0.148932 0.023549 255 220 0
0.393767 0.070456 0.007309 255 220 0
0.423406 0.163082 0.026839 255 220 0
0.435595 0.152429 0.072225 255 220 0
0.434950 0.169628 0.063700 255 220 0
0.355339 0.119225 0.065944 255 220 0
0.393485 0.060082 0.005698 255 220 0
0.395432 0.126126 0.013861 255 220 0
0.415056 0.085843 0.023437 255 220 0
0.428973 0.179441 0.045088 255 220 0
0.392454 0.204053 0.083129 255 220 0
0.416181 0.197046 0.046478 255 220 0
0.375335 0.118705 0.099161 255 220 0
0.356470 0.091360 0.059212 255 220 0
0.432194 0.156776 0.036975 255 220 0
0.406758 0.176805 0.098715 255 220 0
0.395182 0.080757 0.009479 255 220 0
0.383354 0.126449 0.102330 255 220 0
0.360605 0.071150 0.045675 255 220 0
0.379969 0.100345 0.095513 255 220 0
0.435619 0.161792 0.069336 255 220 0
0.366098 0.061997 0.025854 255 220 0
0.427324 0.143460 0.026969 255 220 0
0.422107 0.086563 0.050227 255 220 0
0.359441 0.137622 0.049603 255 220 0
0.384291 0.054058 0.003877 255 220 0
0.363704 0.126853 0.039696 255 220 0
0.416918 0.203565 0.067296 255 220 0
0.412536 0.177259 0.027616 255 220 0
0.417806 0.075977 0.044883 255 220 0
0.425972 0.112497 0.030757 255 220 0
0.367584 0.183393 0.057910 255 220 0
0.382224 0.049348 0.060279 255 220 0
0.422348 0.094173 0.067594 255 220 0
0.366317 0.178814 0.055359 255 220 0
0.404155 0.191485 0.094341 255 220 0
0.407626 0.080823 0.077370 255 220 0
0.359172 0.090138 0.045595 255 220 0
0.418178 0.201457 0.060307 255 220 0
0.434120 0.156534 0.041707 255 220 0
0.393358 0.047068 0.051519 255 220 0
0.428734 0.170847 0.037380 255 220 0
0.389689 0.166584 0.025197 255 220 0
0.361535 0.113965 0.089321 255 220 0
0.358009 0.154320 0.067153 255 220 0
0.412171 0.165616 0.021905 255 220 0
0.406553 0.068735 0.016337 255 220 0
0.364800 0.080787 0.079260 255 220 0
0.416281 0.089650 0.024035 255 220 0
0.359138 0.090764 0.045668 255 220 0
0.359933 0.073205 0.054175 255 220 0
0.419332 0.186939 0.037860 255 220 0
0.373736 0.047801 0.056144 255 220 0
0.369979 0.100101 0.026652 255 220 0
0.367785 0.182103 0.055471 255 220 0
0.410945 0.068341 0.058615 255 220 0
0.412171 0.206672 0.070516 255 220 0
0.357537 0.136850 0.081036 255 220 0
0.427751 0.126302 0.028551 255 220 0
0.406744 0.108894 0.013600 255 220 0
0.376086 0.053502 0.064175 255 220 0
0.424080 0.103967 0.031755 255 220 0
0.359553 0.132299 0.048072 255 220 0
0.397648 0.098408 0.092728 255 220 0
0.413589 0.205055 0.062708 255 220 0
0.364716 0.117586 0.036488 255 220 0
0.403639 0.107239 0.094467 255 220 0
0.403946 0.053958 0.018791 255 220 0
0.355497 0.124858 0.067223 255 220 0
0.366345 0.049286 0.037741 255 220 0
0.418315 0.166699 0.024610 255 220 0
0.434331 0.128178 0.048211 255 220 0
0.363187 0.114118 0.038630 255 220 0
0.429719 0.136738 0.083741 255 220 0
0.360811 0.168416 0.069634 255 220 0
0.366156 0.124786 0.035427 255 220 0
0.397093 0.053525 0.057992 255 220 0
0.363203 0.170609 0.055845 255 220 0
0.412806 0.137397 0.015708 255 220 0
0.424012 0.195928 0.067759 255 220 0
0.364452 0.177339 0.077133 255 220 0
0.433345 0.139313 0.037879 255 220 0
0.426711 0.189908 0.053652 255 220 0
0.371388 0.189368 0.057577 255 220 0
0.381441 0.121115 0.101152 255 220 0
0.356830 0.135946 0.058050 255 220 0
0.431309 0.115882 0.046971 255 220 0
0.388695 0.042044 0.045911 255 220 0
0.388781 0.169362 0.101132 255 220 0
0.416400 0.143278 0.097828 255 220 0
0.407418 0.060071 0.021818 255 220 0
0.428575 0.172851 0.082132 255 220 0
0.403425 0.094455 0.088723 255 220 0
0.356028 0.135125 0.065259 255 220 0
0.371022 0.182517 0.085846 255 220 0
0.424821 0.119372 0.025877 255 220 0
0.420526 0.132406 0.093163 255 220 0
0.377526 0.132526 0.101326 255 220 0
0.426873 0.100105 0.049676 255 220 0
0.356266 0.116985 0.076067 255 220 0
0.365167 0.077571 0.030659 255 220 0
0.432736 0.130991 0.038564 255 220 0
0.374008 0.174508 0.092621 255 220 0
0.385191 0.151492 0.103283 255 220 0
0.414151 0.170139 0.024326 255 220 0
0.399002 0.050180 0.012122 255 220 0
0.412805 0.138428 0.015830 255 220 0
0.384531 0.196587 0.049263 255 220 0
0.411894 0.206830 0.069047 255 220 0
0.423115 0.111278 0.081819 255 220 0
0.404766 0.138541 0.014409 255 220 0
0.397940 0.203668 0.051317 255 220 0
0.358034 0.132202 0.083160 255 220 0
0.356029 0.114549 0.055594 255 220 0
0.392905 0.167400 0.024190 255 220 0
0.376789 0.038038 0.039725 255 220 0
0.397548 0.050067 0.052196 255 220 0
0.405507 0.126618 0.100389 255 220 0
0.429670 0.158780 0.084826 255 220 0
0.433416 0.141015 0.077917 255 220 0
0.368605 0.053091 0.016881 255 220 0
0.404604 0.066758 0.066698 255 220 0
0.356231 0.137670 0.071716 255 220 0
0.397873 0.061490 0.008316 255 220 0
0.419546 0.201150 0.065512 255 220 0
0.399508 0.078985 0.081268 255 220 0
0.393960 0.053380 0.006103 255 220 0
0.384253 0.108055 0.016139 255 220 0
0.379126 0.120739 0.100573 255 220 0
0.406788 0.081400 0.078551 255 220 0
0.383315 0.098689 0.015245 255 220 0
0.413966 0.199916 0.083952 255 220 0
0.430298 0.180634 0.050614 255 220 0
0.364493 0.127932 0.038618 255 220 0
0.382942 0.096709 0.094159 255 220 0
0.365148 0.054669 0.028627 255 220 0
0.404378 0.068968 0.013788 255 220 0
0.387366 0.124857 0.102576 255 220 0
0.371304 0.134126 0.030718 255 220 0
0.356435 0.139222 0.073292 255 220 0
0.412643 0.064677 0.036887 255 220 0
0.397923 0.044092 0.038624 255 220 0
0.355328 0.108614 0.061208 255 220 0
0.361207 0.169458 0.071753 255 220 0
0.363692 0.123151 0.039042 255 220 0
0.373514 0.086278 0.019856 255 220 0
0.417943 0.201942 0.074632 255 220 0
0.425168 0.095590 0.046771 255 220 0
0.361292 0.087370 0.040339 255 220 0
0.434043 0.159961 0.043085 255 220 0
0.385503 0.173620 0.099300 255 220 0
0.377650 0.098537 0.018990 255 220 0
0.424706 0.171201 0.031850 255 220 0
0.388498 0.067918 0.076310 255 220 0
0.375869 0.125714 0.024805 255 220 0
0.360155 0.135384 0.047567 255 220 0
0.373426 0.175191 0.091883 255 220 0
0.433308 0.172177 0.051673 255 220 0
0.399974 0.118074 0.099662 255 220 0
0.399045 0.126069 0.102030 255 220 0
0.371469 0.192022 0.071461 255 220 0
0.403018 0.206687 0.080519 255 220 0
0.360948 0.168447 0.064251 255 220 0
0.392483 0.202246 0.085626 255 220 0
0.425991 0.100359 0.041964 255 220 0
0.356791 0.107303 0.051982 255 220 0
0.407133 0.085950 0.081596 255 220 0
0.427507 0.139592 0.026963 255 220 0
0.363616 0.158598 0.086927 255 220 0
0.391936 0.106493 0.097214 255 220 0
0.416400 0.072936 0.040818 255 220 0
0.373989 0.173756 0.092869 255 220 0
0.362894 0.067291 0.060661 255 220 0
0.416994 0.108068 0.020105 255 220 0
0.406704 0.202214 0.049358 255 220 0
0.428897 0.105743 0.058039 255 220 0
0.374366 0.174612 0.092870 255 220 0
0.405306 0.094790 0.013778 255 220 0
0.364181 0.104462 0.035932 255 220 0
0.429584 0.146610 0.085929 255 220 0
0.356799 0.121059 0.079113 255 220 0
0.397286 0.050837 0.053746 255 220 0
0.411988 0.133945 0.099139 255 220 0
0.436467 0.155663 0.068351 255 220 0
0.390837 0.166830 0.101938 255 220 0
0.416638 0.074838 0.052757 255 220 0
0.387654 0.177891 0.031405 255 220 0
0.424954 0.117274 0.026764 255 220 0
0.420160 0.136525 0.094258 255 220 0
0.378508 0.199398 0.067991 255 220 0
0.357670 0.148743 0.061698 255 220 0
0.361665 0.171060 0.072084 255 220 0
0.412500 0.168786 0.098454 255 220 0
0.404007 0.093433 0.087933 255 220 0
0.383606 0.203251 0.068159 255 220 0
0.361452 0.155043 0.051172 255 220 0
0.424449 0.189803 0.047240 255 220 0
0.366055 0.130911 0.094331 255 220 0
0.404619 0.208849 0.064810 255 220 0
0.395392 0.201468 0.087447 255 220 0
0.392380 0.078577 0.083293 255 220 0
0.403152 0.113415 0.097094 255 220 0
0.360203 0.156440 0.055006 255 220 0
0.389415 0.059559 0.069102 255 220 0
0.424987 0.179467 0.085003 255 220 0
0.405482 0.115352 0.096934 255 220 0
0.416306 0.196400 0.084869 255 220 0
0.378987 0.070410 0.078799 255 220 0
0.422520 0.088972 0.057613 255 220 0
0.397654 0.090413 0.011268 255 220 0
0.380919 0.037850 0.015677 255 220 0
0.420992 0.199768 0.067162 255 220 0
0.372368 0.185445 0.050337 255 220 0
0.364119 0.055719 0.037626 255 220 0
0.414797 0.084526 0.072015 255 220 0
0.388654 0.152563 0.103753 255 220 0
0.383673 0.117790 0.100835 255 220 0
0.358146 0.098490 0.077832 255 220 0
0.416689 0.114562 0.090219 255 220 0
0.375393 0.038210 0.037956 255 220 0
0.362262 0.083764 0.037884 255 220 0
0.384020 0.044966 0.053797 255 220 0
0.358187 0.124238 0.049634 255 220 0
0.356346 0.140254 0.069113 255 220 0
0.385259 0.098448 0.094772 255 220 0
0.406747 0.194753 0.039364 255 220 0
0.432543 0.177981 0.063311 255 220 0
0.424014 0.163784 0.091710 255 220 0
0.388854 0.099971 0.095083 255 220 0
0.357405 0.137969 0.080274 255 220 0
0.412559 0.197913 0.045111 255 220 0
0.435138 0.168559 0.057865 255 220 0
0.401150 0.076515 0.078626 255 220 0
0.406238 0.190676 0.094137 255 220 0
0.387931 0.163806 0.025054 255 220 0
0.371997 0.092029 0.022808 255 220 0
0.404756 0.208760 0.064443 255 220 0
0.386714 0.204659 0.075667 255 220 0
0.359066 0.160115 0.070922 255 220 0
0.371866 0.060097 0.068231 255 220 0
0.425191 0.098771 0.065307 255 220 0
0.364671 0.175775 0.056669 255 220 0
0.394878 0.202514 0.086127 255 220 0
0.386900 0.179655 0.032838 255 220 0
0.389913 0.119787 0.014916 255 220 0
0.356804 0.089117 0.060222 255 220 0
0.383533 0.055426 0.066468 255 220 0
0.375975 0.163760 0.097311 255 220 0
0.430729 0.135645 0.032222 255 220 0
0.369294 0.169078 0.090159 255 220 0
0.368927 0.178520 0.049631 255 220 0
0.368368 0.128007 0.096028 255 220 0
0.359272 0.158214 0.075478 255 220 0
0.363564 0.147861 0.090681 255 220 0
0.402483 0.056915 0.056451 255 220 0
0.360612 0.117864 0.088335 255 220 0
0.359122 0.122186 0.047150 255 220 0
0.416962 0.203252 0.064818 255 220 0
0.360173 0.143827 0.086195 255 220 0
0.395647 0.204477 0.083783 255 220 0
0.392868 0.119526 0.013818 255 220 0
0.435710 0.164637 0.054451 255 220 0
0.355403 0.116686 0.068263 255 220 0
0.408848 0.091658 0.084030 255 220 0
0.400797 0.172053 0.024209 255 220 0
0.382671 0.071763 0.079844 255 220 0
0.380866 0.127352 0.101910 255 220 0
0.361229 0.155751 0.083644 255 220 0
0.362993 0.166557 0.053380 255 220 0
0.414980 0.071733 0.033468 255 220 0
0.373376 0.040130 0.039578 255 220 0
0.373343 0.171077 0.093235 255 220 0
0.425367 0.158586 0.027396 255 220 0
0.391938 0.158567 0.103369 255 220 0
0.404915 0.111983 0.012900 255 220 0
0.422613 0.190682 0.045255 255 220 0
0.376205 0.069867 0.011887 255 220 0
0.366041 0.132207 0.037086 255 220 0
0.366490 0.074446 0.027388 255 220 0
0.361246 0.104838 0.087079 255 220 0
0.367062 0.136612 0.036519 255 220 0
0.398625 0.178986 0.028005 255 220 0
0.402085 0.052303 0.016103 255 220 0
0.414336 0.147633 0.017833 255 220 0
0.398065 0.121141 0.100995 255 220 0
0.358800 0.149853 0.056148 255 220 0
0.423065 0.157807 0.025080 255 220 0
0.369110 0.168844 0.090046 255 220 0
0.425720 0.131942 0.024854 255 220 0
0.361333 0.107868 0.087994 255 220 0
0.378792 0.168588 0.033026 255 220 0
0.408425 0.070490 0.018449 255 220 0
0.371827 0.180513 0.046754 255 220 0
0.355533 0.120869 0.060817 255 220 0
0.359722 0.092976 0.044171 255 220 0
0.359608 0.140956 0.085689 255 220 0
0.369121 0.143193 0.035210 255 220 0
0.378263 0.036145 0.033808 255 220 0
0.391100 0.050006 0.057749 255 220 0
0.387376 0.037438 0.035365 255 220 0
0.419527 0.158251 0.022661 255 220 0
0.407908 0.088061 0.082438 255 220 0
0.437125 0.143996 0.053088 255 220 0
0.371994 0.080716 0.084635 255 220 0
0.419465 0.091080 0.029097 255 220 0
0.396566 0.173061 0.101106 255 220 0
0.423521 0.092490 0.060719 255 220 0
0.380849 0.188573 0.043702 255 220 0
0.408762 0.178726 0.027631 255 220 0
0.428234 0.107035 0.043326 255 220 0
0.422140 0.086821 0.052481 255 220 0
0.404103 0.148897 0.103047 255 220 0
0.385559 0.119306 0.101346 255 220 0
0.412505 0.072178 0.025097 255 220 0
0.430302 0.165564 0.081647 255 220 0
0.367587 0.130996 0.095569 255 220 0
0.402436 0.047498 0.027124 255 220 0
0.403990 0.173059 0.024412 255 220 0
0.388161 0.059503 0.069383 255 220 0
0.359593 0.151978 0.054507 255 220 0
0.410447 0.202747 0.083487 255 220 0
0.405854 0.099174 0.089861 255 220 0
0.427466 0.101493 0.052251 255 220 0
0.406507 0.184850 0.031142 255 220 0
0.366145 0.107137 0.092802 255 220 0
0.379752 0.138743 0.023963 255 220 0
0.425503 0.137374 0.024501 255 220 0
0.370208 0.140187 0.097790 255 220 0
0.360844 0.090589 0.041540 255 220 0
0.397681 0.130483 0.103106 255 220 0
0.375380 0.090356 0.019066 255 220 0
0.382503 0.036869 0.018533 255 220 0
0.431827 0.132377 0.035358 255 220 0
0.418156 0.141684 0.096496 255 220 0
0.406877 0.085041 0.081155 255 220 0
0.366155 0.176390 0.053296 255 220 0
0.414398 0.171565 0.096982 255 220 0
0.404790 0.111313 0.095668 255 220 0
0.356189 0.136550 0.064132 255 220 0
0.402363 0.209380 0.067147 255 220 0
0.366296 0.066946 0.026480 255 220 0
0.368493 0.113069 0.030395 255 220 0
0.358775 0.078661 0.057261 255 220 0
0.382687 0.123142 0.019270 255 220 0
0.373312 0.039083 0.034636 255 220 0
0.384134 0.041993 0.048524 255 220 0
0.362374 0.113609 0.040010 255 220 0
0.413302 0.200197 0.084258 255 220 0
0.437581 0.154991 0.060112 255 220 0
0.371393 0.041696 0.037996 255 220 0
0.433152 0.168285 0.046389 255 220 0
0.363478 0.058811 0.037848 255 220 0
0.359947 0.076666 0.045322 255 220 0
0.413038 0.152629 0.099962 255 220 0
0.421860 0.105411 0.026765 255 220 0
0.404426 0.162330 0.101936 255 220 0
0.385822 0.190631 0.041688 255 220 0
0.357753 0.123212 0.082556 255 220 0
0.393214 0.063956 0.071845 255 220 0
0.403993 0.192538 0.037038 255 220 0
0.384906 0.155279 0.102749 255 220 0
0.399173 0.135555 0.103519 255 220 0
0.355717 0.126697 0.062013 255 220 0
0.361338 0.140515 0.046659 255 220 0
0.435995 0.135890 0.065549 255 220 0
0.415986 0.100916 0.020791 255 220 0
0.394680 0.180793 0.030039 255 220 0
0.396747 0.206183 0.056391 255 220 0
0.372799 0.083968 0.086911 255 220 0
0.357168 0.110315 0.079238 255 220 0
0.426703 0.190300 0.054597 255 220 0
0.404217 0.103905 0.013071 255 220 0
0.402165 0.165118 0.101971 255 220 0
0.384360 0.120097 0.017751 255 220 0
0.431338 0.133446 0.079668 255 220 0
0.388924 0.124044 0.015883 255 220 0
0.373867 0.051985 0.008544 255 220 0
0.404890 0.174795 0.099680 255 220 0
0.410560 0.076586 0.019756 255 220 0
0.391628 0.149916 0.019394 255 220 0
0.391735 0.095294 0.092667 255 220 0
0.371915 0.178506 0.045222 255 220 0
0.420494 0.200312 0.067438 255 220 0
0.423874 0.184014 0.084092 255 220 0
0.364425 0.179788 0.067906 255 220 0
0.357020 0.112749 0.079196 255 220 0
0.360319 0.159189 0.056349 255 220 0
0.426671 0.186736 0.076675 255 220 0
0.395269 0.118155 0.013091 255 220 0
0.412376 0.066243 0.030640 255 220 0
0.387410 0.174978 0.029996 255 220 0
0.425662 0.193054 0.068874 255 220 0
0.362582 0.116275 0.039930 255 220 0
0.409873 0.163967 0.020909 255 220 0
0.404058 0.174986 0.025348 255 220 0
0.361261 0.109727 0.088299 255 220 0
0.378177 0.133916 0.024315 255 220 0
0.431528 0.180807 0.059578 255 220 0
0.409321 0.067604 0.021064 255 220 0
0.365984 0.067600 0.027352 255 220 0
0.356911 0.131386 0.055631 255 220 0
0.396874 0.117648 0.012768 255 220 0
0.406376 0.127228 0.013247 255 220 0
0.410853 0.181694 0.095756 255 220 0
0.422716 0.091079 0.039483 255 220 0
0.402445 0.059753 0.060539 255 220 0
0.369414 0.073099 0.021715 255 220 0
0.428842 0.111194 0.040489 255 220 0
0.360449 0.167057 0.067841 255 220 0
0.401349 0.090519 0.087593 255 220 0
0.413169 0.184172 0.093673 255 220 0
0.376567 0.041667 0.011861 255 220 0
0.357802 0.085853 0.064538 255 220 0
0.437431 0.150586 0.063971 255 220 0
0.376547 0.157539 0.031027 255 220 0
0.373419 0.066039 0.074225 255 220 0
0.362931 0.173522 0.060598 255 220 0
0.394512 0.045125 0.010234 255 220 0
0.412368 0.204415 0.058250 255 220 0
0.395815 0.191704 0.094949 255 220 0
0.397326 0.206569 0.080727 255 220 0
0.380726 0.194026 0.087144 255 220 0
0.399833 0.076155 0.079050 255 220 0
0.369530 0.045438 0.019054 255 220 0
0.429746 0.185325 0.058997 255 220 0
0.369740 0.165795 0.041596 255 220 0
0.421758 0.157738 0.094618 255 220 0
0.355344 0.108768 0.065944 255 220 0
0.428162 0.189038 0.061458 255 220 0
0.363399 0.177080 0.067537 255 220 0
0.406334 0.196386 0.041074 255 220 0
0.437027 0.153347 0.066243 255 220 0
0.415447 0.072799 0.053311 255 220 0
0.383316 0.191929 0.044861 255 220 0
0.400046 0.045213 0.035911 255 220 0
0.374764 0.178509 0.091747 255 220 0
0.357737 0.149519 0.061965 255 220 0
0.377889 0.193950 0.052996 255 220 0
0.433662 0.127350 0.069276 255 220 0
0.404104 0.054204 0.018942 255 220 0
0.417564 0.178357 0.093078 255 220 0
0.419052 0.144442 0.019709 255 220 0
0.403742 0.191402 0.036022 255 220 0
0.402720 0.112581 0.096936 255 220 0
0.420606 0.083594 0.042348 255 220 0
0.426276 0.102541 0.067055 255 220 0
0.432770 0.175508 0.068763 255 220 0
0.386544 0.058951 0.069229 255 220 0
0.373952 0.073352 0.080151 255 220 0
0.434830 0.134970 0.070802 255 220 0
0.437198 0.141194 0.059124 255 220 0
0.360036 0.073045 0.055041 255 220 0
0.356955 0.133770 0.079258 255 220 0
0.393054 0.203535 0.084172 255 220 0
0.375679 0.057995 0.007997 255 220 0
0.401209 0.090012 0.012108 255 220 0
0.399197 0.111106 0.012273 255 220 0
0.427538 0.140565 0.027048 255 220 0
0.371246 0.188328 0.080618 255 220 0
0.419258 0.147390 0.020290 255 220 0
0.412235 0.064726 0.033069 255 220 0
0.356148 0.116769 0.075327 255 220 0
0.409334 0.094522 0.016109 255 220 0
0.356642 0.108350 0.076457 255 220 0
0.429507 0.174751 0.079334 255 220 0
0.432335 0.166087 0.077010 255 220 0
0.401141 0.157704 0.018918 255 220 0
0.372622 0.126703 0.027979 255 220 0
0.424536 0.180628 0.085068 255 220 0
0.365342 0.179072 0.058833 255 220 0
0.363512 0.149435 0.090172 255 220 0
0.387044 0.156553 0.023286 255 220 0
0.423563 0.180222 0.036716 255 220 0
0.390900 0.041240 0.042130 255 220 0
0.362390 0.063421 0.049381 255 220 0
0.395843 0.106341 0.012210 255 220 0
0.378052 0.176215 0.094976 255 220 0
0.358625 0.115170 0.084402 255 220 0
0.437091 0.157195 0.064467 255 220 0
0.396689 0.201785 0.048787 255 220 0
0.389311 0.058507 0.068169 255 220 0
0.374070 0.174501 0.092673 255 220 0
0.381092 0.060884 0.071379 255 220 0
0.366207 0.112491 0.033466 255 220 0
0.429396 0.122353 0.033231 255 220 0
0.421167 0.147627 0.094870 255 220 0
0.369132 0.066546 0.020285 255 220 0
0.378662 0.105672 0.097199 255 220 0
0.376825 0.116189 0.099275 255 220 0
0.364094 0.056335 0.035136 255 220 0
0.404816 0.065611 0.014791 255 220 0
0.404148 0.083337 0.081822 255 220 0
0.367006 0.136480 0.036571 255 220 0
0.365003 0.132677 0.038794 255 220 0
0.418171 0.141430 0.018766 255 220 0
0.379977 0.168554 0.032049 255 220 0
0.435470 0.139051 0.045503 255 220 0
0.364608 0.170197 0.083074 255 220 0
0.381842 0.054226 0.065508 255 220 0
0.377347 0.076671 0.013244 255 220 0
0.397814 0.042256 0.030390 255 220 0
0.387652 0.092433 0.091924 255 220 0
0.367820 0.057175 0.059952 255 220 0
0.368092 0.050360 0.018802 255 220 0
0.413797 0.186890 0.092227 255 220 0
0.360104 0.078599 0.066239 255 220 0
0.355841 0.127340 0.072497 255 220 0
0.432084 0.150663 0.081682 255 220 0
0.427623 0.153991 0.028861 255 220 0
0.421544 0.150734 0.022433 255 220 0
0.414571 0.070767 0.033150 255 220 0
0.428288 0.187558 0.069668 255 220 0
0.355847 0.099119 0.058062 255 220 0
0.393182 0.063448 0.071400 255 220 0
0.407412 0.208309 0.072396 255 220 0
0.391305 0.164435 0.023709 255 220 0
0.404884 0.080665 0.079444 255 220 0
0.396398 0.058128 0.007298 255 220 0
0.383779 0.083892 0.011385 255 220 0
0.419437 0.081040 0.054242 255 220 0
0.396065 0.052346 0.057276 255 220 0
0.396654 0.209112 0.070640 255 220 0
0.377850 0.130923 0.101319 255 220 0
0.433642 0.171011 0.051692 255 220 0
0.370759 0.125361 0.029700 255 220 0
0.414196 0.131366 0.015779 255 220 0
0.396152 0.114088 0.012621 255 220 0
0.366285 0.048487 0.029957 255 220 0
0.427005 0.135757 0.026286 255 220 0
0.406321 0.110936 0.013319 255 220 0
0.413157 0.066568 0.047189 255 220 0
0.357326 0.120161 0.081109 255 220 0
0.403285 0.157755 0.102705 255 220 0
0.420245 0.099174 0.076878 255 220 0
0.361732 0.144268 0.047000 255 220 0
0.363211 0.165740 0.052418 255 220 0
0.368453 0.174934 0.086739 255 220 0
0.433573 0.122413 0.062611 255 220 0
0.390930 0.154349 0.020797 255 220 0
0.399871 0.106264 0.095399 255 220 0
0.359332 0.142823 0.051438 255 220 0
0.415806 0.089555 0.023351 255 220 0
0.372910 0.042934 0.014753 255 220 0
0.418864 0.088571 0.029263 255 220 0
0.366869 0.081280 0.027787 255 220 0
0.427776 0.102808 0.059511 255 220 0
0.408122 0.157615 0.101503 255 220 0
0.422973 0.105668 0.077925 255 220 0
0.397092 0.098077 0.092729 255 220 0
0.403806 0.091373 0.086946 255 220 0
0.358048 0.153633 0.072148 255 220 0
0.367979 0.093750 0.028193 255 220 0
0.388870 0.093287 0.092169 255 220 0
0.365435 0.098848 0.033098 255 220 0
0.381640 0.197256 0.084241 255 220 0
0.378544 0.139572 0.102067 255 220 0
0.424155 0.156560 0.025736 255 220 0
0.357083 0.132474 0.080004 255 220 0
0.415532 0.195890 0.044234 255 220 0
0.435644 0.158219 0.070732 255 220 0
0.402913 0.048159 0.027209 255 220 0
0.411102 0.177838 0.027563 255 220 0
0.431857 0.119775 0.068785 255 220 0
0.403489 0.098331 0.012992 255 220 0
0.366212 0.049256 0.027592 255 220 0
0.411217 0.119142 0.014554 255 220 0
0.412281 0.073336 0.063190 255 220 0
0.414555 0.178888 0.029282 255 220 0
0.428026 0.116051 0.076557 255 220 0
0.420788 0.161690 0.024392 255 220 0
0.360290 0.073686 0.058897 255 220 0
0.394556 0.202918 0.051344 255 220 0
0.360931 0.084883 0.041113 255 220 0
0.355709 0.123601 0.060139 255 220 0
0.361621 0.080513 0.039344 255 220 0
0.361294 0.085505 0.077103 255 220 0
0.410540 0.071334 0.063799 255 220 0
0.397065 0.185624 0.032511 255 220 0
0.432820 0.122688 0.045999 255 220 0
0.381265 0.072760 0.080600 255 220 0
0.419753 0.092371 0.071364 255 220 0
0.433342 0.121345 0.062197 255 220 0
0.389560 0.184292 0.034424 255 220 0
0.398923 0.119655 0.100394 255 220 0
0.421275 0.084483 0.050356 255 220 0
0.356236 0.101278 0.070769 255 220 0
0.364771 0.108672 0.092000 255 220 0
0.432809 0.119970 0.050716 255 220 0
0.379001 0.061886 0.006983 255 220 0
0.434937 0.151500 0.042632 255 220 0
0.356494 0.141177 0.071674 255 220 0
0.409983 0.205972 0.059758 255 220 0
0.431954 0.117206 0.049235 255 220 0
0.369527 0.096319 0.091579 255 220 0
0.366770 0.062346 0.024159 255 220 0
0.419146 0.163887 0.095790 255 220 0
0.420427 0.133354 0.093453 255 220 0
0.358822 0.153805 0.077252 255 220 0
0.393597 0.039646 0.033393 255 220 0
0.433915 0.173189 0.058558 255 220 0
0.357385 0.143182 0.077937 255 220 0
0.369837 0.189445 0.073432 255 220 0
0.406572 0.074699 0.015430 255 220 0
0.382966 0.202876 0.069509 255 220 0
0.380059 0.171559 0.097535 255 220 0
0.403305 0.051930 0.046005 255 220 0
0.395128 0.133348 0.103775 255 220 0
0.428653 0.185830 0.052817 255 220 0
0.356992 0.104809 0.051279 255 220 0
0.420632 0.198441 0.075767 255 220 0
0.403785 0.097596 0.013103 255 220 0
0.357997 0.090100 0.071011 255 220 0
0.356979 0.089791 0.064206 255 220 0
0.386758 0.140995 0.019820 255 220 0
0.390183 0.107538 0.097808 255 220 0
0.394673 0.088444 0.088666 255 220 0
0.436492 0.142089 0.049490 255 220 0
0.380043 0.156017 0.101127 255 220 0
0.367086 0.049964 0.044534 255 220 0
0.427625 0.117166 0.031751 255 220 0
0.433050 0.176287 0.064225 255 220 0
0.387313 0.088546 0.090060 255 220 0
0.429096 0.186709 0.058322 255 220 0
0.375726 0.156618 0.031504 255 220 0
0.437123 0.140548 0.059407 255 220 0
0.369053 0.062704 0.068140 255 220 0
0.427100 0.190901 0.066481 255 220 0
0.400793 0.199054 0.044251 255 220 0
0.366693 0.088441 0.029309 255 220 0
0.376940 0.103476 0.020449 255 220 0
0.429099 0.106659 0.060036 255 220 0
0.375351 0.042744 0.049465 255 220 0
0.432053 0.170768 0.045084 255 220 0
0.413874 0.190744 0.037618 255 220 0
0.389426 0.036811 0.023001 255 220 0
0.398643 0.060135 0.064928 255 220 0
0.419664 0.199300 0.056845 255 220 0
0.383217 0.084726 0.088360 255 220 0
0.406731 0.068335 0.016660 255 220 0
0.406483 0.126688 0.100044 255 220 0
0.378398 0.169515 0.097180 255 220 0
0.389615 0.138020 0.017778 255 220 0
0.417086 0.203489 0.068769 255 220 0
0.406974 0.100913 0.014296 255 220 0
0.393599 0.044541 0.046585 255 220 0
0.388986 0.045316 0.006633 255 220 0
0.401922 0.046932 0.034590 255 220 0
0.420536 0.082684 0.045688 255 220 0
0.382213 0.125964 0.020027 255 220 0
0.427257 0.119013 0.080094 255 220 0
0.370186 0.168394 0.042098 255 220 0
0.376238 0.147915 0.100717 255 220 0
0.391883 0.174839 0.027809 255 220 0
0.393465 0.060159 0.005694 255 220 0
0.363431 0.090704 0.084028 255 220 0
0.366058 0.067421 0.027141 255 220 0
0.417583 0.139851 0.018230 255 220 0
0.355834 0.097412 0.061212 255 220 0
0.381831 0.102060 0.016680 255 220 0
0.356898 0.145660 0.067057 255 220 0
0.430639 0.149777 0.032408 255 220 0
0.423980 0.124793 0.087591 255 220 0
0.412555 0.166911 0.022490 255 220 0
0.374504 0.069513 0.013475 255 220 0
0.418242 0.084060 0.030883 255 220 0
0.426640 0.099197 0.057076 255 220 0
0.433113 0.156684 0.039076 255 220 0
0.363367 0.176945 0.070089 255 220 0
0.431238 0.134529 0.080320 255 220 0
0.427839 0.111614 0.073184 255 220 0
0.381429 0.154265 0.101924 255 220 0
0.432047 0.155026 0.081034 255 220 0
0.362443 0.121024 0.090790 255 220 0
0.387636 0.051891 0.004040 255 220 0
0.376594 0.089206 0.017693 255 220 0
0.416539 0.086010 0.070650 255 220 0
0.400874 0.050112 0.015553 255 220 0
0.374832 0.165782 0.035548 255 220 0
0.410383 0.178281 0.097048 255 220 0
0.416859 0.203060 0.063215 255 220 0
0.428883 0.119859 0.077397 255 220 0
0.413561 0.192355 0.038995 255 220 0
0.388302 0.122074 0.102063 255 220 0
0.377896 0.174536 0.095409 255 220 0
0.434907 0.135907 0.044529 255 220 0
0.421340 0.124546 0.020822 255 220 0
0.364324 0.055092 0.039487 255 220 0
0.434228 0.143051 0.076314 255 220 0
0.366071 0.168100 0.086538 255 220 0
0.395642 0.045223 0.011446 255 220 0
0.423216 0.089947 0.055152 255 220 0
0.366193 0.132042 0.036820 255 220 0
0.398655 0.158049 0.019426 255 220 0
0.436328 0.151495 0.047863 255 220 0
0.376726 0.060085 0.007872 255 220 0
0.366510 0.063564 0.065319 255 220 0
0.423238 0.103050 0.030417 255 220 0
0.403148 0.110352 0.095923 255 220 0
0.377817 0.075865 0.082679 255 220 0
0.372784 0.050793 0.009727 255 220 0
0.413812 0.096180 0.019573 255 220 0
0.370137 0.128619 0.097247 255 220 0
0.374810 0.158672 0.033028 255 220 0
0.401971 0.047532 0.037384 255 220 0
0.393399 0.095537 0.011608 255 220 0
0.389387 0.188591 0.037748 255 220 0
0.424320 0.095052 0.062301 255 220 0
0.396346 0.160557 0.103162 255 220 0
0.375816 0.181314 0.042661 255 220 0
0.401376 0.203526 0.085666 255 220 0
0.362839 0.144135 0.090494 255 220 0
0.372310 0.140845 0.030981 255 220 0
0.355845 0.114097 0.072922 255 220 0
0.436727 0.154618 0.050878 255 220 0
0.360959 0.073039 0.042402 255 220 0
0.420889 0.194667 0.048311 255 220 0
0.377292 0.196556 0.078784 255 220 0
0.355338 0.108453 0.061039 255 220 0
0.371350 0.173736 0.090528 255 220 0
0.366771 0.060414 0.023564 255 220 0
0.412285 0.205994 0.063731 255 220 0
0.402085 0.178364 0.099393 255 220 0
0.389502 0.192223 0.040864 255 220 0
0.437712 0.148823 0.059732 255 220 0
0.405762 0.202341 0.086199 255 220 0
0.369757 0.189831 0.068912 255 220 0
0.356483 0.091887 0.062540 255 220 0
0.403577 0.149278 0.016490 255 220 0
0.364270 0.086248 0.033679 255 220 0
0.385007 0.194503 0.089845 255 220 0
0.421501 0.113104 0.084970 255 220 0
0.408797 0.195420 0.090689 255 220 0
0.398797 0.059650 0.009118 255 220 0
0.412936 0.164268 0.021614 255 220 0
0.359676 0.108451 0.085408 255 220 0
0.424743 0.195000 0.065583 255 220 0
0.356258 0.130817 0.075604 255 220 0
0.429770 0.116941 0.073004 255 220 0
0.383889 0.202000 0.060749 255 220 0
0.361977 0.071307 0.063266 255 220 0
0.430365 0.166992 0.081011 255 220 0
0.378999 0.069814 0.009605 255 220 0
0.416039 0.081052 0.027481 255 220 0
0.389972 0.151355 0.104001 255 220 0
0.369756 0.062274 0.017362 255 220 0
0.359751 0.148307 0.052421 255 220 0
0.387621 0.113962 0.015189 255 220 0
0.383345 0.196882 0.086335 255 220 0
0.360043 0.164228 0.063266 255 220 0
0.416502 0.082564 0.027598 255 220 0
0.412796 0.187631 0.034551 255 220 0
0.414193 0.092176 0.079435 255 220 0
0.405270 0.109184 0.094596 255 220 0
0.394272 0.130419 0.103453 255 220 0
0.436156 0.142028 0.047583 255 220 0
0.356877 0.101321 0.074466 255 220 0
0.435429 0.154212 0.072468 255 220 0
0.364149 0.086311 0.033941 255 220 0
0.414393 0.069459 0.034925 255 220 0
0.382215 0.045391 0.006234 255 220 0
0.380107 0.132826 0.022661 255 220 0
0.412265 0.128075 0.014837 255 220 0
0.355404 0.122325 0.065155 255 220 0
0.355415 0.107740 0.066772 255 220 0
0.397237 0.050205 0.009785 255 220 0
0.416867 0.134797 0.096439 255 220 0
0.381446 0.173511 0.097685 255 220 0
0.362699 0.063235 0.051615 255 220 0
0.374511 0.135032 0.027671 255 220 0
0.396525 0.117777 0.100315 255 220 0
0.380457 0.036915 0.038023 255 220 0
0.366748 0.088367 0.029205 255 220 0
0.372556 0.191187 0.058243 255 220 0
0.386272 0.112414 0.015659 255 220 0
0.437149 0.152287 0.065730 255 220 0
0.403182 0.057519 0.056316 255 220 0
0.404042 0.058661 0.056693 255 220 0
0.432193 0.117002 0.052269 255 220 0
0.392013 0.165125 0.023675 255 220 0
0.376448 0.141956 0.027252 255 220 0
0.361185 0.130454 0.044634 255 220 0
0.361390 0.142507 0.088658 255 220 0
0.408474 0.171283 0.099449 255 220 0
0.395375 0.116560 0.100147 255 220 0
0.355603 0.104886 0.067699 255 220 0
0.381129 0.118996 0.019704 255 220 0
0.412503 0.122565 0.096082 255 220 0
0.357202 0.098768 0.074426 255 220 0
0.429079 0.136011 0.029245 255 220 0
0.423807 0.173829 0.089094 255 220 0
0.364649 0.151258 0.044233 255 220 0
0.390292 0.070061 0.077612 255 220 0
0.382640 0.160394 0.101229 255 220 0
0.422670 0.170503 0.029406 255 220 0
0.411692 0.138338 0.099902 255 220 0
0.384683 0.075808 0.082597 255 220 0
0.426464 0.185768 0.078138 255 220 0
0.386617 0.200678 0.084170 255 220 0
0.368681 0.068089 0.072837 255 220 0
0.378499 0.096473 0.093957 255 220 0
0.385180 0.111081 0.016050 255 220 0
0.358742 0.097368 0.046505 255 220 0
0.401587 0.050753 0.047238 255 220 0
0.365949 0.052662 0.045479 255 220 0
0.424334 0.144878 0.091780 255 220 0
0.377496 0.042093 0.049579 255 220 0
0.399802 0.207932 0.077806 255 220 0
0.381369 0.077275 0.083780 255 220 0
0.396873 0.199384 0.089746 255 220 0
0.361706 0.159925 0.082492 255 220 0
0.422564 0.093645 0.066316 255 220 0
0.413916 0.124692 0.095933 255 220 0
0.426900 0.190266 0.070426 255 220 0
0.409274 0.058788 0.030267 255 220 0
0.377708 0.039396 0.014305 255 220 0
0.421708 0.195499 0.051425 255 220 0
0.388031 0.040637 0.043303 255 220 0
0.355574 0.120754 0.060280 255 220 0
0.397696 0.148094 0.104108 255 220 0
0.426012 0.117443 0.081289 255 220 0
0.357697 0.142303 0.056780 255 220 0
0.425304 0.165719 0.029697 255 220 0
0.420543 0.106390 0.024490 255 220 0
0.410156 0.066358 0.057158 255 220 0
0.425349 0.105050 0.034239 255 220 0
0.360938 0.140959 0.088176 255 220 0
0.359724 0.156670 0.056814 255 220 0
0.402707 0.143010 0.103318 255 220 0
0.411806 0.105171 0.089207 255 220 0
0.372294 0.086556 0.021242 255 220 0
0.416445 0.197363 0.047249 255 220 0
0.414388 0.177587 0.028438 255 220 0
0.423084 0.192148 0.079023 255 220 0
0.391818 0.104955 0.012745 255 220 0
0.360967 0.134233 0.045805 255 220 0
0.380405 0.103266 0.096568 255 220 0
0.367498 0.173435 0.048620 255 220 0
0.360630 0.157623 0.081042 255 220 0
0.437711 0.151674 0.060355 255 220 0
0.428727 0.159270 0.086332 255 220 0
0.385410 0.122891 0.102063 255 220 0
0.393298 0.124563 0.014257 255 220 0
0.407522 0.138794 0.014635 255 220 0
0.423938 0.139996 0.023029 255 220 0
0.368075 0.135354 0.034861 255 220 0
0.357431 0.148729 0.063978 255 220 0
0.378078 0.156871 0.100123 255 220 0
0.410141 0.126121 0.098341 255 220 0
0.372521 0.176765 0.090443 255 220 0
0.378915 0.072056 0.010423 255 220 0
0.383172 0.190604 0.043650 255 220 0
0.363710 0.177981 0.068817 255 220 0
0.427460 0.128257 0.027654 255 220 0
0.361158 0.169138 0.072095 255 220 0
0.356070 0.125589 0.058117 255 220 0
0.367602 0.172018 0.047664 255 220 0
0.375442 0.037264 0.025782 255 220 0
0.409984 0.060156 0.030922 255 220 0
0.396531 0.079606 0.009627 255 220 0
0.368309 0.131234 0.096124 255 220 0
0.356660 0.141180 0.063333 255 220 0
0.361389 0.160639 0.081296 255 220 0
0.355900 0.105212 0.070640 255 220 0
0.374606 0.069568 0.013385 255 220 0
0.422540 0.165924 0.027153 255 220 0
0.407841 0.131667 0.013820 255 220 0
0.396594 0.182355 0.030449 255 220 0
0.381623 0.201838 0.071908 255 220 0
0.399870 0.209480 0.068693 255 220 0
0.375127 0.043063 0.049850 255 220 0
0.358438 0.140815 0.082920 255 220 0
0.372215 0.131750 0.029299 255 220 0
0.403280 0.048482 0.034110 255 220 0
0.357216 0.142449 0.059622 255 220 0
0.424458 0.194486 0.071180 255 220 0
0.365858 0.181528 0.061256 255 220 0
0.384210 0.069649 0.007061 255 220 0
0.366192 0.154176 0.092097 255 220 0
0.357747 0.117624 0.049861 255 220 0
0.418614 0.109454 0.085954 255 220 0
0.397610 0.066421 0.072074 255 220 0
0.426954 0.180039 0.081429 255 220 0
0.412007 0.063131 0.039368 255 220 0
0.426321 0.123995 0.026830 255 220 0
0.386726 0.063214 0.072847 255 220 0
0.360652 0.072997 0.059856 255 220 0
0.408187 0.142331 0.101694 255 220 0
0.360911 0.077092 0.041583 255 220 0
0.433219 0.174984 0.066722 255 220 0
0.428376 0.126499 0.029601 255 220 0
0.425958 0.098195 0.046243 255 220 0
0.391070 0.139640 0.104341 255 220 0
0.372642 0.192985 0.074320 255 220 0
0.391379 0.080154 0.008907 255 220 0
0.397412 0.050237 0.009975 255 220 0
0.400553 0.045657 0.023104 255 220 0
0.377095 0.198085 0.071804 255 220 0
0.397103 0.043649 0.016212 255 220 0
0.435617 0.134556 0.066587 255 220 0
0.380789 0.111479 0.018820 255 220 0
0.365345 0.102651 0.033708 255 220 0
0.395776 0.159434 0.020522 255 220 0
0.426718 0.181788 0.080754 255 220 0
0.410361 0.082413 0.018290 255 220 0
0.431437 0.128077 0.076727 255 220 0
0.358298 0.146359 0.056255 255 220 0
0.418769 0.171427 0.027050 255 220 0
0.387460 0.169798 0.100749 255 220 0
0.407091 0.116317 0.096600 255 220 0
0.415557 0.078588 0.027949 255 220 0
0.385735 0.203312 0.078219 255 220 0
0.398590 0.105924 0.095634 255 220 0
0.412402 0.171620 0.024538 255 220 0
0.380224 0.045895 0.056016 255 220 0
0.420411 0.139820 0.094545 255 220 0
0.434399 0.152055 0.041098 255 220 0
0.388300 0.051092 0.004263 255 220 0
0.367907 0.075489 0.024845 255 220 0
0.370990 0.136884 0.098258 255 220 0
0.358317 0.126748 0.084095 255 220 0
0.374337 0.136886 0.028177 255 220 0
0.401722 0.206026 0.081980 255 220 0
0.415661 0.107859 0.087723 255 220 0
0.398134 0.075847 0.009700 255 220 0
0.389606 0.124499 0.102584 255 220 0
0.401558 0.136910 0.014282 255 220 0
0.360919 0.168444 0.064610 255 220 0
0.392955 0.199273 0.089025 255 220 0
0.379692 0.053482 0.064805 255 220 0
0.424557 0.093212 0.054067 255 220 0
0.384106 0.203640 0.070740 255 220 0
0.372476 0.089449 0.021720 255 220 0
0.362213 0.173323 0.066044 255 220 0
0.418042 0.107256 0.085240 255 220 0
0.401150 0.201243 0.088181 255 220 0
0.386417 0.044152 0.051367 255 220 0
0.433954 0.123073 0.057995 255 220 0
0.376097 0.126548 0.024750 255 220 0
0.423643 0.188055 0.081700 255 220 0
0.417594 0.079211 0.058664 255 220 0
0.421158 0.120205 0.088776 255 220 0
0.360808 0.166144 0.074805 255 220 0
0.362322 0.065476 0.054522 255 220 0
0.417298 0.109570 0.087244 255 220 0
0.435124 0.164862 0.051266 255 220 0
0.370258 0.044140 0.019031 255 220 0
0.435035 0.156613 0.044646 255 220 0
0.435767 0.135928 0.067059 255 220 0
0.403766 0.108993 0.095140 255 220 0
0.386233 0.052287 0.062709 255 220 0
0.436105 0.150973 0.046801 255 220 0
0.361326 0.074679 0.040595 255 220 0
0.424209 0.106358 0.030572 255 220 0
0.402516 0.198158 0.043000 255 220 0
0.378605 0.043601 0.008594 255 220 0
0.387953 0.114464 0.100179 255 220 0
0.416484 0.087794 0.072598 255 220 0
0.396170 0.191137 0.037040 255 220 0
0.365175 0.168148 0.085112 255 220 0
0.420914 0.199042 0.073387 255 220 0
0.358555 0.079836 0.051783 255 220 0
0.370298 0.069433 0.019180 255 220 0
0.384602 0.089232 0.012487 255 220 0
0.396603 0.121952 0.101474 255 220 0
0.403550 0.090016 0.086320 255 220 0
0.376618 0.190488 0.050048 255 220 0
0.391281 0.191015 0.038843 255 220 0
0.358340 0.087861 0.070229 255 220 0
0.369805 0.153483 0.095746 255 220 0
0.415722 0.087175 0.073202 255 220 0
0.424229 0.123200 0.024161 255 220 0
0.386747 0.178232 0.098468 255 220 0
0.432617 0.175460 0.069711 255 220 0
0.418764 0.201716 0.064301 255 220 0
0.357650 0.101772 0.077872 255 220 0
0.421747 0.173642 0.091371 255 220 0
0.357410 0.108932 0.079719 255 220 0
0.380793 0.133582 0.102518 255 220 0
0.402589 0.204433 0.052330 255 220 0
0.406440 0.067793 0.065643 255 220 0
0.400548 0.083649 0.011457 255 220 0
0.358464 0.141950 0.053555 255 220 0
0.395806 0.099213 0.093561 255 220 0
0.426048 0.097271 0.054191 255 220 0
0.356166 0.100966 0.055026 255 220 0
0.404523 0.050094 0.030574 255 220 0
0.374034 0.189594 0.052602 255 220 0
0.397908 0.125282 0.102063 255 220 0
0.404304 0.079418 0.013284 255 220 0
0.429334 0.185861 0.056913 255 220 0
0.393660 0.099813 0.094279 255 220 0
0.432604 0.171425 0.073651 255 220 0
0.402950 0.206317 0.056086 255 220 0
0.376901 0.036318 0.027729 255 220 0
0.370818 0.177815 0.046230 255 220 0
0.384153 0.199242 0.084044 255 220 0
0.360387 0.126741 0.088067 255 220 0
0.413394 0.066124 0.042477 255 220 0
0.373509 0.165331 0.095186 255 220 0
0.409018 0.059228 0.045936 255 220 0
0.369749 0.083311 0.023640 255 220 0
0.378866 0.056980 0.005779 255 220 0
0.369219 0.044935 0.039970 255 220 0
0.355808 0.120392 0.058113 255 220 0
0.425707 0.112707 0.030106 255 220 0
0.360688 0.080727 0.071095 255 220 0
0.386631 0.126834 0.102850 255 220 0
0.387744 0.139849 0.019056 255 220 0
0.398114 0.044397 0.017263 255 220 0
0.420140 0.158911 0.095749 255 220 0
0.388295 0.110520 0.098972 255 220 0
0.432132 0.155125 0.080831 255 220 0
