ply
format ascii 1.0
element vertex 1024
property float x
property float y
property float z
property uchar red
property uchar green
property uchar blue
end_header
0.487366 -0.000750 0.247530 255 220 0
0.516052 0.078622 0.243053 255 220 0
0.499751 0.136772 0.307641 255 220 0
0.513315 0.099696 0.300562 255 220 0
0.515665 0.055865 0.266226 255 220 0
0.465897 0.080485 0.316530 255 220 0
0.515225 0.059911 0.243971 255 220 0
0.485018 0.139662 0.259528 255 220 0
0.441139 0.055748 0.291319 255 220 0
0.520077 0.110093 0.276489 255 220 0
0.481830 0.140324 0.260428 255 220 0
0.450244 0.125799 0.267980 255 220 0
0.478783 0.104243 0.238933 255 220 0
0.497067 0.029923 0.213000 255 220 0
0.515044 0.116778 0.257411 255 220 0
0.512538 0.097710 0.301594 255 220 0
0.513935 0.116196 0.296568 255 220 0
0.439940 0.067767 0.263966 255 220 0
0.497745 0.020031 0.209538 255 220 0
0.494238 0.083388 0.229683 255 220 0
0.511435 0.041665 0.237613 255 220 0
0.513809 0.129384 0.279119 255 220 0
0.466068 0.147250 0.307190 255 220 0
0.500523 0.146671 0.279480 255 220 0
0.448289 0.060751 0.301176 255 220 0
0.444318 0.041605 0.253038 255 220 0
0.520390 0.108546 0.268519 255 220 0
0.475767 0.117329 0.321354 255 220 0
0.497286 0.039619 0.217333 255 220 0
0.454547 0.067624 0.308097 255 220 0
0.453394 0.024162 0.238133 255 220 0
0.454603 0.043294 0.295957 255 220 0
0.513095 0.107443 0.300607 255 220 0
0.465303 0.018718 0.219820 255 220 0
0.519527 0.097398 0.255247 255 220 0
0.509528 0.037299 0.264913 255 220 0
0.448276 0.088780 0.253417 255 220 0
0.489873 0.014622 0.203803 255 220 0
0.455922 0.079944 0.243633 255 220 0
0.494304 0.149224 0.300247 255 220 0
0.503916 0.130774 0.257201 255 220 0
0.507602 0.027963 0.256651 255 220 0
0.518326 0.066299 0.252740 255 220 0
0.451431 0.132072 0.272024 255 220 0
0.470106 -0.000366 0.254718 255 220 0
0.503896 0.041570 0.282508 255 220 0
0.451236 0.128066 0.268419 255 220 0
0.474089 0.132611 0.319103 255 220 0
0.487392 0.026929 0.284453 255 220 0
0.451273 0.042863 0.241027 255 220 0
0.497816 0.148417 0.293774 255 220 0
0.520714 0.107399 0.273492 255 220 0
0.483538 -0.001203 0.249741 255 220 0
0.516401 0.122365 0.270325 255 220 0
0.483501 0.121165 0.245682 255 220 0
0.438562 0.058170 0.286737 255 220 0
0.440623 0.101981 0.272287 255 220 0
0.505877 0.120393 0.249672 255 220 0
0.506362 0.026324 0.225191 255 220 0
0.446244 0.027360 0.272441 255 220 0
0.512246 0.045272 0.239251 255 220 0
0.451192 0.043465 0.241198 255 220 0
0.449959 0.024627 0.246189 255 220 0
0.506677 0.138268 0.270657 255 220 0
0.463454 -0.000962 0.247866 255 220 0
0.467138 0.055940 0.228691 255 220 0
0.452453 0.131250 0.269588 255 220 0
0.497040 0.018058 0.265831 255 220 0
0.488652 0.151774 0.302276 255 220 0
0.436471 0.082263 0.281885 255 220 0
0.520140 0.080237 0.253755 255 220 0
0.505747 0.066288 0.229962 255 220 0
0.462878 0.003115 0.257117 255 220 0
0.516570 0.057769 0.251520 255 220 0
0.449091 0.083830 0.251068 255 220 0
0.472311 0.041567 0.298699 255 220 0
0.492555 0.151598 0.295181 255 220 0
0.458289 0.071410 0.239301 255 220 0
0.477062 0.049811 0.303837 255 220 0
0.503725 0.011400 0.223965 255 220 0
0.439447 0.073064 0.266223 255 220 0
0.462270 0.004031 0.228653 255 220 0
0.510785 0.120841 0.254357 255 220 0
0.520015 0.078331 0.274484 255 220 0
0.456301 0.067636 0.240175 255 220 0
0.503951 0.080280 0.307576 255 220 0
0.441898 0.115321 0.278040 255 220 0
0.459692 0.078653 0.240079 255 220 0
0.484739 0.003877 0.258124 255 220 0
0.448474 0.119973 0.266387 255 220 0
0.509629 0.093793 0.239018 255 220 0
0.501190 0.141500 0.301578 255 220 0
0.442580 0.122638 0.287793 255 220 0
0.521918 0.091197 0.266574 255 220 0
0.508499 0.138134 0.288244 255 220 0
0.454890 0.137932 0.274016 255 220 0
0.453334 0.062637 0.305424 255 220 0
0.443177 0.085625 0.260128 255 220 0
0.518062 0.066534 0.270139 255 220 0
0.481123 -0.005017 0.242122 255 220 0
0.458285 0.109911 0.316479 255 220 0
0.486573 0.084363 0.317572 255 220 0
0.505791 0.016783 0.228999 255 220 0
0.501881 0.116085 0.312236 255 220 0
0.479224 0.038312 0.296120 255 220 0
0.440150 0.083505 0.266423 255 220 0
0.445805 0.125994 0.298939 255 220 0
0.518507 0.073977 0.249076 255 220 0
0.492420 0.074461 0.312597 255 220 0
0.449098 0.073893 0.306389 255 220 0
0.513653 0.050616 0.268378 255 220 0
0.437679 0.063682 0.273269 255 220 0
0.462240 0.033154 0.226800 255 220 0
0.521469 0.082904 0.265512 255 220 0
0.446802 0.116818 0.304750 255 220 0
0.454942 0.092023 0.314096 255 220 0
0.506791 0.124353 0.253376 255 220 0
0.501329 0.009011 0.215494 255 220 0
0.509546 0.094784 0.239317 255 220 0
0.469688 0.146308 0.271816 255 220 0
0.488853 0.152206 0.300850 255 220 0
0.499370 0.055741 0.299068 255 220 0
0.502385 0.095310 0.235434 255 220 0
0.481433 0.152633 0.279312 255 220 0
0.436456 0.077294 0.283179 255 220 0
0.444091 0.065068 0.253722 255 220 0
0.486833 0.122091 0.245927 255 220 0
0.471992 -0.007587 0.231821 255 220 0
0.487164 0.001539 0.252258 255 220 0
0.476134 0.067727 0.313442 255 220 0
0.502642 0.101740 0.312550 255 220 0
0.509133 0.085486 0.304122 255 220 0
0.470910 0.011573 0.210676 255 220 0
0.488522 0.015133 0.271021 255 220 0
0.438175 0.084812 0.272950 255 220 0
0.501005 0.020849 0.213637 255 220 0
0.497462 0.147130 0.298997 255 220 0
0.478538 0.024558 0.285136 255 220 0
0.498345 0.013361 0.208857 255 220 0
0.483678 0.065423 0.224943 255 220 0
0.451343 0.062418 0.304074 255 220 0
0.486197 0.027295 0.285386 255 220 0
0.483465 0.056403 0.222119 255 220 0
0.486343 0.142624 0.314122 255 220 0
0.513250 0.129512 0.284897 255 220 0
0.456968 0.081188 0.243079 255 220 0
0.458002 0.039914 0.294998 255 220 0
0.463822 0.011024 0.220768 255 220 0
0.505106 0.027064 0.222164 255 220 0
0.458334 0.065939 0.309328 255 220 0
0.465681 0.088602 0.239044 255 220 0
0.437801 0.086043 0.274761 255 220 0
0.505736 0.018432 0.245517 255 220 0
0.492101 -0.001837 0.238683 255 220 0
0.441882 0.058214 0.257644 255 220 0
0.441553 0.115947 0.280325 255 220 0
0.456273 0.076426 0.242352 255 220 0
0.473229 0.043543 0.221013 255 220 0
0.493000 0.146257 0.307102 255 220 0
0.513154 0.046748 0.264315 255 220 0
0.455073 0.041072 0.236323 255 220 0
0.520059 0.110514 0.275367 255 220 0
0.455589 0.114496 0.314492 255 220 0
0.476912 0.055671 0.223751 255 220 0
0.514338 0.123809 0.263953 255 220 0
0.470156 0.014808 0.274990 255 220 0
0.472240 0.081338 0.233494 255 220 0
0.449694 0.086944 0.251350 255 220 0
0.446458 0.117638 0.304000 255 220 0
0.516114 0.120949 0.285322 255 220 0
0.471482 0.059570 0.309445 255 220 0
0.469515 0.067007 0.312792 255 220 0
0.450425 0.137978 0.287428 255 220 0
0.476793 0.150120 0.308635 255 220 0
0.443745 0.116342 0.273086 255 220 0
0.465373 0.145014 0.309195 255 220 0
0.515270 0.052305 0.260972 255 220 0
0.446267 0.058599 0.249300 255 220 0
0.485363 0.031197 0.289149 255 220 0
0.519863 0.093595 0.254602 255 220 0
0.439441 0.102432 0.293243 255 220 0
0.465135 0.048794 0.302495 255 220 0
0.507694 0.025751 0.251871 255 220 0
0.446735 0.116035 0.304839 255 220 0
0.450938 0.017564 0.252102 255 220 0
0.513410 0.064082 0.239153 255 220 0
0.490416 0.151399 0.280046 255 220 0
0.512666 0.054576 0.277821 255 220 0
0.447057 0.116868 0.305115 255 220 0
0.504915 0.052423 0.227117 255 220 0
0.458505 0.058626 0.236242 255 220 0
0.502714 0.089580 0.311349 255 220 0
0.437042 0.067114 0.277008 255 220 0
0.486390 0.002015 0.253754 255 220 0
0.482365 0.075033 0.315687 255 220 0
0.514467 0.101586 0.298857 255 220 0
0.460079 0.107236 0.317431 255 220 0
0.504030 0.025414 0.263389 255 220 0
0.479122 0.131170 0.252842 255 220 0
0.518437 0.071749 0.249564 255 220 0
0.491552 0.078314 0.314242 255 220 0
0.457890 0.145733 0.287797 255 220 0
0.442276 0.097513 0.266100 255 220 0
0.441814 0.117452 0.281069 255 220 0
0.481620 0.109387 0.321508 255 220 0
0.480069 0.037442 0.295387 255 220 0
0.462503 0.149391 0.290286 255 220 0
0.448954 0.105572 0.258668 255 220 0
0.508409 0.139255 0.281538 255 220 0
0.440538 0.073813 0.295909 255 220 0
0.483234 0.155109 0.294938 255 220 0
0.467578 0.143859 0.311682 255 220 0
0.471160 0.023920 0.284654 255 220 0
0.475504 0.055405 0.307238 255 220 0
0.446490 0.106262 0.262084 255 220 0
0.473673 0.007904 0.267075 255 220 0
0.497292 0.122126 0.314946 255 220 0
0.477681 0.057294 0.308187 255 220 0
0.488413 0.138956 0.315091 255 220 0
0.460254 0.016978 0.274697 255 220 0
0.507461 0.038296 0.272347 255 220 0
0.498654 0.048730 0.221535 255 220 0
0.483587 -0.003417 0.210761 255 220 0
0.498362 0.145441 0.300745 255 220 0
0.458292 0.135394 0.266892 255 220 0
0.459932 0.010416 0.228993 255 220 0
0.495736 0.031419 0.282449 255 220 0
0.458026 0.092923 0.315841 255 220 0
0.455687 0.059385 0.305246 255 220 0
0.439664 0.045146 0.272173 255 220 0
0.490468 0.057542 0.305405 255 220 0
0.471228 -0.007065 0.229760 255 220 0
0.456925 0.037963 0.233701 255 220 0
0.474058 -0.003511 0.248477 255 220 0
0.447634 0.075646 0.250626 255 220 0
0.439007 0.087829 0.271034 255 220 0
0.459927 0.041466 0.296626 255 220 0
0.493957 0.145909 0.269421 255 220 0
0.511433 0.124521 0.296943 255 220 0
0.494882 0.105496 0.318035 255 220 0
0.463169 0.042837 0.298345 255 220 0
0.436542 0.083506 0.281337 255 220 0
0.497494 0.147844 0.277203 255 220 0
0.516020 0.116217 0.291012 255 220 0
0.481038 0.022588 0.282762 255 220 0
0.476159 0.131813 0.319437 255 220 0
0.481998 0.118494 0.244483 255 220 0
0.470612 0.048679 0.224308 255 220 0
0.483484 0.155087 0.294625 255 220 0
0.462990 0.149332 0.298519 255 220 0
0.440180 0.106960 0.277177 255 220 0
0.457314 0.008928 0.260722 255 220 0
0.507126 0.046456 0.282127 255 220 0
0.449386 0.124870 0.268558 255 220 0
0.467470 0.145139 0.310479 255 220 0
0.477878 0.132654 0.254249 255 220 0
0.488940 0.077070 0.227744 255 220 0
0.444405 0.039209 0.253679 255 220 0
0.469117 0.004441 0.261990 255 220 0
0.447613 0.105355 0.307800 255 220 0
0.521399 0.088686 0.259812 255 220 0
0.443350 0.112026 0.299965 255 220 0
0.455548 0.128784 0.263879 255 220 0
0.442307 0.070603 0.297704 255 220 0
0.439000 0.104249 0.281135 255 220 0
0.438640 0.091190 0.294776 255 220 0
0.490194 0.007391 0.259037 255 220 0
0.437840 0.062202 0.286228 255 220 0
0.449398 0.074071 0.248246 255 220 0
0.495150 0.149373 0.297901 255 220 0
0.437029 0.088118 0.288788 255 220 0
0.468864 0.147486 0.308901 255 220 0
0.492099 0.076960 0.227626 255 220 0
0.517814 0.112982 0.287314 255 220 0
0.439366 0.064844 0.265684 255 220 0
0.485973 0.036325 0.292994 255 220 0
0.494105 0.126509 0.249321 255 220 0
0.463351 0.018045 0.277097 255 220 0
0.452289 0.068636 0.307071 255 220 0
0.438348 0.100285 0.288910 255 220 0
0.449231 0.116451 0.263296 255 220 0
0.508747 0.025951 0.244365 255 220 0
0.468720 -0.005439 0.230966 255 220 0
0.446118 0.113347 0.304487 255 220 0
0.516910 0.112220 0.257747 255 220 0
0.461008 0.098831 0.317623 255 220 0
0.504111 0.069487 0.229281 255 220 0
0.507267 0.140520 0.279260 255 220 0
0.479003 0.028835 0.211506 255 220 0
0.458745 0.085642 0.242924 255 220 0
0.464667 0.030661 0.223620 255 220 0
0.439384 0.049620 0.282912 255 220 0
0.459710 0.090056 0.243522 255 220 0
0.490550 0.132664 0.253405 255 220 0
0.502889 0.010305 0.220569 255 220 0
0.509974 0.103431 0.243334 255 220 0
0.469122 0.062375 0.310625 255 220 0
0.445071 0.099605 0.261505 255 220 0
0.515502 0.111926 0.254714 255 220 0
0.443221 0.111820 0.299759 255 220 0
0.519163 0.086500 0.250684 255 220 0
0.439048 0.052428 0.284337 255 220 0
0.470602 0.121898 0.249820 255 220 0
0.507387 0.027623 0.228073 255 220 0
0.459130 0.131218 0.262497 255 220 0
0.441692 0.070325 0.259559 255 220 0
0.452131 0.045904 0.240394 255 220 0
0.436775 0.085400 0.287617 255 220 0
0.461803 0.096724 0.244155 255 220 0
0.475354 -0.008384 0.226453 255 220 0
0.479290 0.000578 0.255337 255 220 0
0.483432 -0.007574 0.231062 255 220 0
0.512906 0.112876 0.251408 255 220 0
0.485740 0.033101 0.290563 255 220 0
0.520446 0.092923 0.282773 255 220 0
0.451342 0.026163 0.279737 255 220 0
0.513584 0.045684 0.245238 255 220 0
0.465510 0.113403 0.319625 255 220 0
0.507271 0.041161 0.276191 255 220 0
0.468311 0.139529 0.264015 255 220 0
0.500277 0.132285 0.256268 255 220 0
0.516681 0.058571 0.264165 255 220 0
0.508829 0.037136 0.267065 255 220 0
0.473030 0.089156 0.319486 255 220 0
0.457246 0.060745 0.306601 255 220 0
0.509057 0.027978 0.235869 255 220 0
0.503973 0.108982 0.311023 255 220 0
0.441589 0.073639 0.297567 255 220 0
0.499903 0.003545 0.230059 255 220 0
0.497022 0.127400 0.250718 255 220 0
0.472399 0.007822 0.266922 255 220 0
0.446257 0.101981 0.260618 255 220 0
0.483043 0.145558 0.313069 255 220 0
0.480964 0.042693 0.298810 255 220 0
0.513335 0.051494 0.271213 255 220 0
0.496767 0.137698 0.259913 255 220 0
0.442099 0.050732 0.290221 255 220 0
0.475643 0.094223 0.236313 255 220 0
0.518845 0.091907 0.251269 255 220 0
0.442980 0.082211 0.302133 255 220 0
0.454132 0.044023 0.237877 255 220 0
0.467696 0.071173 0.314151 255 220 0
0.475078 0.047660 0.221615 255 220 0
0.484215 -0.004937 0.213747 255 220 0
0.521573 0.084875 0.262490 255 220 0
0.488726 0.083008 0.316610 255 220 0
0.485299 0.030390 0.288493 255 220 0
0.451842 0.126068 0.266010 255 220 0
0.483771 0.112354 0.321252 255 220 0
0.477598 0.053571 0.306059 255 220 0
0.440603 0.085110 0.265684 255 220 0
0.480330 0.155243 0.296481 255 220 0
0.465084 0.023462 0.221359 255 220 0
0.463998 0.068022 0.234036 255 220 0
0.447650 0.029442 0.249672 255 220 0
0.480569 0.079701 0.230075 255 220 0
0.470281 -0.005555 0.226163 255 220 0
0.475972 -0.005462 0.243076 255 220 0
0.455112 0.066897 0.241104 255 220 0
0.485606 0.142856 0.314244 255 220 0
0.518179 0.102423 0.291435 255 220 0
0.467283 -0.003571 0.229141 255 220 0
0.517814 0.118102 0.279656 255 220 0
0.459126 0.013426 0.229552 255 220 0
0.452654 0.029660 0.238589 255 220 0
0.482319 0.093223 0.320164 255 220 0
0.516001 0.060150 0.246429 255 220 0
0.473132 0.102556 0.320984 255 220 0
0.473576 0.141828 0.264113 255 220 0
0.436756 0.068576 0.280904 255 220 0
0.476211 0.011648 0.271640 255 220 0
0.492185 0.144213 0.265975 255 220 0
0.454685 0.095848 0.314193 255 220 0
0.468766 0.076053 0.315930 255 220 0
0.441242 0.075828 0.261783 255 220 0
0.450891 0.092130 0.251813 255 220 0
0.515735 0.082681 0.292529 255 220 0
0.512534 0.056947 0.238176 255 220 0
0.486089 0.134140 0.254354 255 220 0
0.478580 0.154192 0.284100 255 220 0
0.451242 0.028924 0.282698 255 220 0
0.437798 0.056527 0.275302 255 220 0
0.508173 0.138344 0.289191 255 220 0
0.503731 0.061531 0.227757 255 220 0
0.470865 0.105331 0.320793 255 220 0
0.482765 0.076958 0.228651 255 220 0
0.506921 0.077766 0.303716 255 220 0
0.487518 0.081094 0.229094 255 220 0
0.478599 0.011924 0.204417 255 220 0
0.473774 0.115211 0.321288 255 220 0
0.508737 0.033332 0.231075 255 220 0
0.487882 0.105819 0.237900 255 220 0
0.466862 0.038632 0.296181 255 220 0
0.459785 0.129526 0.260738 255 220 0
0.497780 0.145933 0.300940 255 220 0
0.496340 0.126783 0.314564 255 220 0
0.445399 0.126747 0.279649 255 220 0
0.437570 0.058928 0.275655 255 220 0
0.446057 0.108713 0.263866 255 220 0
0.501243 0.130773 0.309059 255 220 0
0.494661 0.075701 0.227475 255 220 0
0.507413 0.021127 0.239908 255 220 0
0.479462 0.128572 0.250927 255 220 0
0.502516 0.138438 0.302625 255 220 0
0.455224 0.069527 0.241579 255 220 0
0.504088 0.119000 0.247710 255 220 0
0.496707 0.129120 0.251958 255 220 0
0.438805 0.054200 0.284934 255 220 0
0.474241 0.089445 0.235262 255 220 0
0.511546 0.128006 0.293656 255 220 0
0.507521 0.024288 0.230270 255 220 0
0.464483 0.023950 0.222187 255 220 0
0.444215 0.081589 0.257081 255 220 0
0.496305 0.075231 0.227598 255 220 0
0.504750 0.084376 0.232828 255 220 0
0.480385 0.122601 0.320802 255 220 0
0.513347 0.043706 0.255937 255 220 0
0.488735 0.009426 0.263337 255 220 0
0.469302 0.030327 0.219044 255 220 0
0.517990 0.063170 0.262475 255 220 0
0.442184 0.114324 0.276012 255 220 0
0.477782 0.034691 0.293691 255 220 0
0.483140 0.125376 0.320058 255 220 0
0.480526 0.001121 0.206505 255 220 0
0.444107 0.035186 0.257422 255 220 0
0.516989 0.097386 0.294178 255 220 0
0.469573 0.111452 0.245245 255 220 0
0.456625 0.013632 0.267866 255 220 0
0.446577 0.121965 0.271244 255 220 0
0.497891 0.004478 0.211384 255 220 0
0.492848 0.151815 0.290529 255 220 0
0.465989 0.132872 0.317028 255 220 0
0.471342 0.150073 0.306978 255 220 0
0.454100 0.136880 0.305343 255 220 0
0.479671 0.022180 0.282668 255 220 0
0.471411 0.003634 0.211610 255 220 0
0.509857 0.132587 0.293360 255 220 0
0.459411 0.117745 0.254372 255 220 0
0.492068 0.099062 0.318922 255 220 0
0.440379 0.057491 0.262079 255 220 0
0.507417 0.135812 0.295809 255 220 0
0.444658 0.124173 0.278488 255 220 0
0.492953 0.147206 0.271173 255 220 0
0.515766 0.099689 0.296659 255 220 0
0.502810 0.023331 0.263153 255 220 0
0.470136 0.142566 0.266491 255 220 0
0.494930 -0.000276 0.237046 255 220 0
0.447630 0.120897 0.304902 255 220 0
0.442222 0.098225 0.266510 255 220 0
0.462318 0.143156 0.272674 255 220 0
0.512692 0.073647 0.293702 255 220 0
0.503816 0.011611 0.224200 255 220 0
0.487733 0.119688 0.319867 255 220 0
0.513973 0.099859 0.246018 255 220 0
0.492319 0.143289 0.264744 255 220 0
0.475181 0.054622 0.306801 255 220 0
0.510746 0.035862 0.256570 255 220 0
0.507439 0.049817 0.284781 255 220 0
0.510010 0.121081 0.301636 255 220 0
0.470940 0.007338 0.266160 255 220 0
0.454933 0.019715 0.274868 255 220 0
0.512994 0.080831 0.296871 255 220 0
0.518706 0.089055 0.287901 255 220 0
0.449787 0.024309 0.246999 255 220 0
0.436615 0.079575 0.279489 255 220 0
0.466325 0.146538 0.308260 255 220 0
0.480240 0.017896 0.205577 255 220 0
0.501768 0.048113 0.223386 255 220 0
0.498933 0.068850 0.226703 255 220 0
0.519826 0.094535 0.254867 255 220 0
0.447444 0.132665 0.295201 255 220 0
0.513860 0.102645 0.247156 255 220 0
0.506567 0.019191 0.241846 255 220 0
0.437813 0.063609 0.272504 255 220 0
0.507995 0.051653 0.230531 255 220 0
0.438269 0.055118 0.272192 255 220 0
0.503577 0.118451 0.310277 255 220 0
0.507356 0.110312 0.307461 255 220 0
0.496717 0.113378 0.241921 255 220 0
0.468112 0.081786 0.235580 255 220 0
0.496796 0.123263 0.315071 255 220 0
0.449193 0.127698 0.271381 255 220 0
0.438688 0.092832 0.294571 255 220 0
0.482023 0.111711 0.241244 255 220 0
0.511328 0.131798 0.269739 255 220 0
0.484450 -0.005152 0.239170 255 220 0
0.454222 0.015850 0.240755 255 220 0
0.495977 0.064243 0.224705 255 220 0
0.449807 0.117985 0.308546 255 220 0
0.437327 0.060317 0.281447 255 220 0
0.516234 0.103796 0.295724 255 220 0
0.481134 0.151273 0.276219 255 220 0
0.473916 0.007045 0.265984 255 220 0
0.446843 0.116801 0.304816 255 220 0
0.465011 0.008945 0.266755 255 220 0
0.460877 0.066932 0.236051 255 220 0
0.520367 0.075463 0.257921 255 220 0
0.491850 0.089091 0.317139 255 220 0
0.469764 0.024157 0.216440 255 220 0
0.452607 0.048243 0.298067 255 220 0
0.449768 0.058230 0.301305 255 220 0
0.460677 0.011481 0.226780 255 220 0
0.505340 0.023572 0.222631 255 220 0
0.482573 0.028645 0.287928 255 220 0
0.459646 0.089917 0.243528 255 220 0
0.457198 0.085808 0.244264 255 220 0
0.513565 0.097090 0.244313 255 220 0
0.472037 0.122022 0.249286 255 220 0
0.521507 0.089493 0.274297 255 220 0
0.441129 0.114521 0.292075 255 220 0
0.467873 0.003471 0.260337 255 220 0
0.479368 0.035249 0.214363 255 220 0
0.494703 -0.002121 0.230662 255 220 0
0.463352 0.036035 0.293661 255 220 0
0.456248 0.007660 0.251199 255 220 0
0.469925 0.008545 0.211803 255 220 0
0.484083 0.128301 0.319407 255 220 0
0.446045 0.027701 0.258433 255 220 0
0.437986 0.074525 0.271685 255 220 0
0.506268 0.094299 0.308938 255 220 0
0.518769 0.107392 0.259004 255 220 0
0.515201 0.105493 0.250487 255 220 0
0.508502 0.025068 0.243763 255 220 0
0.504977 0.132841 0.303214 255 220 0
0.443773 0.049453 0.253171 255 220 0
0.476344 0.011231 0.271123 255 220 0
0.483479 0.153127 0.302790 255 220 0
0.485595 0.119297 0.244430 255 220 0
0.484140 0.026443 0.285471 255 220 0
0.500074 0.017760 0.211609 255 220 0
0.485751 0.042564 0.216007 255 220 0
0.505948 0.031182 0.266789 255 220 0
0.484044 0.002870 0.256916 255 220 0
0.473821 0.154445 0.297845 255 220 0
0.449473 0.072312 0.306196 255 220 0
0.516472 0.119794 0.285235 255 220 0
0.465855 0.080186 0.236338 255 220 0
0.511173 0.087827 0.238441 255 220 0
0.495816 0.071775 0.226586 255 220 0
0.464731 0.004682 0.221253 255 220 0
0.519764 0.089961 0.253118 255 220 0
0.505352 0.068355 0.229934 255 220 0
0.502855 0.018380 0.255600 255 220 0
0.436941 0.065853 0.278871 255 220 0
0.471996 0.097939 0.320506 255 220 0
0.498733 0.044813 0.291366 255 220 0
0.451000 0.095748 0.252934 255 220 0
0.449777 0.115821 0.262324 255 220 0
0.443402 0.118427 0.297574 255 220 0
0.514941 0.070025 0.286585 255 220 0
0.486589 0.109930 0.239781 255 220 0
0.473237 0.048753 0.303316 255 220 0
0.447370 0.093555 0.256027 255 220 0
0.512017 0.045313 0.238445 255 220 0
0.476088 0.001902 0.208246 255 220 0
0.513066 0.043199 0.244746 255 220 0
0.464614 0.037296 0.225347 255 220 0
0.511257 0.051443 0.278299 255 220 0
0.476966 0.097932 0.320917 255 220 0
0.500712 0.050950 0.294389 255 220 0
0.471799 0.041253 0.298462 255 220 0
0.480279 0.035604 0.294033 255 220 0
0.439094 0.100384 0.276819 255 220 0
0.465017 0.049453 0.228334 255 220 0
0.464392 0.036806 0.294434 255 220 0
0.460831 0.053608 0.232997 255 220 0
0.455757 0.140573 0.303522 255 220 0
0.449532 0.080660 0.308678 255 220 0
0.516376 0.110559 0.255449 255 220 0
0.436552 0.078161 0.279989 255 220 0
0.500673 0.145961 0.276977 255 220 0
0.512821 0.103674 0.301267 255 220 0
0.500300 0.004169 0.230411 255 220 0
0.502551 0.131380 0.256796 255 220 0
0.511455 0.066328 0.291297 255 220 0
0.503299 0.056082 0.226443 255 220 0
0.465385 0.005875 0.219171 255 220 0
0.509252 0.076097 0.234138 255 220 0
0.496637 0.022098 0.271416 255 220 0
0.505228 0.132029 0.259693 255 220 0
0.505501 0.061308 0.296617 255 220 0
0.513404 0.115912 0.254044 255 220 0
0.448769 0.024223 0.250780 255 220 0
0.478252 0.151956 0.278115 255 220 0
0.454588 0.038493 0.236478 255 220 0
0.441961 0.073131 0.259479 255 220 0
0.455988 0.034511 0.234265 255 220 0
0.443417 0.032461 0.270162 255 220 0
0.494877 0.020052 0.271060 255 220 0
0.487358 0.138386 0.258291 255 220 0
0.519520 0.073373 0.270951 255 220 0
0.461738 0.018912 0.277529 255 220 0
0.500310 0.039153 0.284854 255 220 0
0.514898 0.069057 0.285933 255 220 0
0.479698 0.136868 0.257417 255 220 0
0.470188 0.061009 0.310074 255 220 0
0.508786 0.035246 0.264389 255 220 0
0.439995 0.049225 0.265497 255 220 0
0.440990 0.052414 0.289312 255 220 0
0.518116 0.069833 0.274841 255 220 0
0.483547 0.021843 0.206404 255 220 0
0.521401 0.102266 0.273706 255 220 0
0.438292 0.088260 0.273629 255 220 0
0.490045 0.153112 0.291446 255 220 0
0.517894 0.067406 0.272690 255 220 0
0.446141 0.040262 0.288217 255 220 0
0.466465 0.019361 0.218523 255 220 0
0.488966 0.104939 0.320282 255 220 0
0.492194 0.075341 0.313006 255 220 0
0.438191 0.099597 0.281843 255 220 0
0.489860 -0.005159 0.231628 255 220 0
0.514448 0.120663 0.292100 255 220 0
0.437053 0.089060 0.280099 255 220 0
0.448358 0.135114 0.288270 255 220 0
0.506421 0.032351 0.225431 255 220 0
0.461482 0.148786 0.291268 255 220 0
0.451084 0.112900 0.310729 255 220 0
0.494514 0.004402 0.248690 255 220 0
0.464946 0.073913 0.314470 255 220 0
0.510773 0.134243 0.287355 255 220 0
0.446785 0.056274 0.248261 255 220 0
0.495329 0.142557 0.308389 255 220 0
0.503574 0.055334 0.226508 255 220 0
0.442050 0.038162 0.264269 255 220 0
0.443271 0.039133 0.257560 255 220 0
0.483506 0.097067 0.235120 255 220 0
0.463242 0.049745 0.302672 255 220 0
0.471205 0.032582 0.292168 255 220 0
0.521075 0.091724 0.278881 255 220 0
0.450568 0.096965 0.311256 255 220 0
0.460774 0.003431 0.235328 255 220 0
0.519379 0.070672 0.255039 255 220 0
0.511691 0.122678 0.297649 255 220 0
0.463788 0.032565 0.291117 255 220 0
0.509399 0.134083 0.292774 255 220 0
0.468682 0.110475 0.245258 255 220 0
0.518571 0.088370 0.288023 255 220 0
0.454572 0.011561 0.260205 255 220 0
0.504730 0.136737 0.300474 255 220 0
0.486582 0.149348 0.272828 255 220 0
0.463663 0.044055 0.227999 255 220 0
0.475568 0.060269 0.225772 255 220 0
0.512182 0.055104 0.279907 255 220 0
0.467325 -0.004731 0.241264 255 220 0
0.517087 0.120803 0.278538 255 220 0
0.501430 0.142156 0.269364 255 220 0
0.489346 -0.005949 0.220115 255 220 0
0.483719 0.009065 0.266264 255 220 0
0.500417 0.146908 0.290644 255 220 0
0.460612 0.029202 0.287530 255 220 0
0.506444 0.025868 0.225476 255 220 0
0.477165 0.067841 0.313448 255 220 0
0.449710 0.110988 0.309496 255 220 0
0.486986 0.094465 0.233603 255 220 0
0.493996 0.148876 0.301656 255 220 0
0.506074 0.058313 0.229242 255 220 0
0.485447 -0.002781 0.244775 255 220 0
0.493801 0.005434 0.206294 255 220 0
0.497056 0.001622 0.236732 255 220 0
0.509651 0.034353 0.259488 255 220 0
0.479761 0.082344 0.231137 255 220 0
0.503521 0.063581 0.300193 255 220 0
0.459566 0.120199 0.255452 255 220 0
0.447433 0.089151 0.308189 255 220 0
0.484402 0.128753 0.250306 255 220 0
0.497724 0.020108 0.209542 255 220 0
0.443013 0.036252 0.278224 255 220 0
0.464628 0.023812 0.221983 255 220 0
0.513245 0.095649 0.243341 255 220 0
0.442825 0.047196 0.255786 255 220 0
0.481461 0.059479 0.223584 255 220 0
0.439962 0.093510 0.270277 255 220 0
0.520667 0.102540 0.262510 255 220 0
0.497785 0.067941 0.307153 255 220 0
0.506000 0.121550 0.250573 255 220 0
0.476900 0.028226 0.212372 255 220 0
0.512148 0.038479 0.245237 255 220 0
0.511108 0.048364 0.275019 255 220 0
0.520594 0.108051 0.270750 255 220 0
0.443819 0.123570 0.280825 255 220 0
0.506573 0.078711 0.304485 255 220 0
0.506585 0.057574 0.292620 255 220 0
0.451699 0.095070 0.312125 255 220 0
0.506260 0.098705 0.309112 255 220 0
0.438659 0.064819 0.289670 255 220 0
0.493077 0.012400 0.204638 255 220 0
0.476715 0.046760 0.220521 255 220 0
0.497760 0.033095 0.282008 255 220 0
0.502009 0.008276 0.219273 255 220 0
0.466164 0.118751 0.250385 255 220 0
0.479670 0.119018 0.321236 255 220 0
0.495572 0.149482 0.296343 255 220 0
0.505886 0.064879 0.298362 255 220 0
0.500627 0.143491 0.270835 255 220 0
0.459499 0.063281 0.308648 255 220 0
0.449591 0.116258 0.308596 255 220 0
0.521415 0.086595 0.272643 255 220 0
0.516611 0.080060 0.244193 255 220 0
0.459557 0.009453 0.230675 255 220 0
0.510328 0.087767 0.303261 255 220 0
0.441495 0.111795 0.295387 255 220 0
0.498570 0.004329 0.212891 255 220 0
0.508865 0.039695 0.270459 255 220 0
0.458980 0.085526 0.242696 255 220 0
0.494187 0.113671 0.241658 255 220 0
0.521048 0.101271 0.279015 255 220 0
0.481184 0.019952 0.206175 255 220 0
0.453028 0.012974 0.256921 255 220 0
0.516238 0.057131 0.249840 255 220 0
0.476003 0.052611 0.305595 255 220 0
0.457681 0.021646 0.278913 255 220 0
0.477246 0.010554 0.204953 255 220 0
0.511061 0.052558 0.235489 255 220 0
0.443566 0.070945 0.299517 255 220 0
0.467243 0.112229 0.246751 255 220 0
0.496186 0.001695 0.239453 255 220 0
0.494304 0.053784 0.221409 255 220 0
0.478293 0.140482 0.261228 255 220 0
0.507416 0.043372 0.278381 255 220 0
0.465165 0.100741 0.319207 255 220 0
0.464179 0.132684 0.260118 255 220 0
0.473727 0.146095 0.312321 255 220 0
0.438168 0.087577 0.293696 255 220 0
0.466271 0.095137 0.240825 255 220 0
0.438405 0.061432 0.269689 255 220 0
0.520334 0.103776 0.282509 255 220 0
0.454696 0.026615 0.235546 255 220 0
0.504494 0.143906 0.282268 255 220 0
0.453411 0.140974 0.296925 255 220 0
0.441952 0.058087 0.257460 255 220 0
0.444985 0.116497 0.301810 255 220 0
0.466736 0.017572 0.217621 255 220 0
0.490955 0.152357 0.295882 255 220 0
0.471062 0.118825 0.320764 255 220 0
0.477257 0.143474 0.264817 255 220 0
0.518680 0.096430 0.290009 255 220 0
0.477758 0.144749 0.314012 255 220 0
0.449708 0.136329 0.284113 255 220 0
0.443246 0.041509 0.256231 255 220 0
0.500148 0.105500 0.238925 255 220 0
0.460066 0.041141 0.230887 255 220 0
0.457270 0.136769 0.309315 255 220 0
0.496760 0.056986 0.301808 255 220 0
0.479486 0.137062 0.317911 255 220 0
0.501701 0.018875 0.214347 255 220 0
0.506750 0.119107 0.249404 255 220 0
0.438280 0.053509 0.281507 255 220 0
0.502615 0.140975 0.299622 255 220 0
0.437244 0.077360 0.275334 255 220 0
0.508250 0.062804 0.294035 255 220 0
0.465188 0.149523 0.283264 255 220 0
0.449071 0.021048 0.254954 255 220 0
0.504177 0.110501 0.310711 255 220 0
0.482378 0.029150 0.210273 255 220 0
0.511274 0.036192 0.240824 255 220 0
0.459244 0.091665 0.316276 255 220 0
0.471465 0.020486 0.213151 255 220 0
0.447225 0.098755 0.258066 255 220 0
0.486925 0.071339 0.226210 255 220 0
0.456718 0.139786 0.305948 255 220 0
0.443378 0.112395 0.271117 255 220 0
0.511611 0.037647 0.241353 255 220 0
0.501517 0.139683 0.265605 255 220 0
0.492478 0.037580 0.290534 255 220 0
0.478484 0.051667 0.304832 255 220 0
0.464361 0.071111 0.313366 255 220 0
0.521369 0.092023 0.276989 255 220 0
0.439419 0.048574 0.269148 255 220 0
0.512229 0.099421 0.302088 255 220 0
0.459865 0.041157 0.231102 255 220 0
0.507821 0.023459 0.245120 255 220 0
0.487514 0.005711 0.203762 255 220 0
0.476641 0.088642 0.234148 255 220 0
0.509783 0.084803 0.236351 255 220 0
0.440125 0.070958 0.263814 255 220 0
0.440225 0.056327 0.262685 255 220 0
0.500403 0.009501 0.212760 255 220 0
0.487810 0.076276 0.314899 255 220 0
0.452269 0.114763 0.311667 255 220 0
0.453809 0.015249 0.242897 255 220 0
0.469653 0.089992 0.237405 255 220 0
0.468021 0.059224 0.308890 255 220 0
0.476055 -0.008447 0.231216 255 220 0
0.463752 0.044001 0.227907 255 220 0
0.455708 0.139574 0.275339 255 220 0
0.485562 0.069757 0.225932 255 220 0
0.516089 0.098739 0.296030 255 220 0
0.490874 0.007995 0.259245 255 220 0
0.491520 0.009032 0.260077 255 220 0
0.517160 0.066642 0.275551 255 220 0
0.486248 0.119967 0.244751 255 220 0
0.471332 0.096837 0.238889 255 220 0
0.451811 0.082620 0.248064 255 220 0
0.437450 0.086343 0.291231 255 220 0
0.477387 0.111735 0.321590 255 220 0
0.467037 0.058081 0.308145 255 220 0
0.440226 0.053348 0.263092 255 220 0
0.479128 0.075577 0.229229 255 220 0
0.484301 0.064405 0.310955 255 220 0
0.439846 0.046066 0.268754 255 220 0
0.520772 0.089625 0.256581 255 220 0
0.495103 0.115854 0.317352 255 220 0
0.454354 0.103071 0.252562 255 220 0
0.471350 0.016639 0.277164 255 220 0
0.452812 0.101198 0.312976 255 220 0
0.513220 0.123612 0.260902 255 220 0
0.481658 0.079216 0.317094 255 220 0
0.464209 0.021474 0.281033 255 220 0
0.500620 0.129556 0.310178 255 220 0
0.460350 0.143853 0.305673 255 220 0
0.452496 0.015993 0.265424 255 220 0
0.453870 0.039804 0.293339 255 220 0
0.484459 0.068395 0.225705 255 220 0
0.450275 0.049809 0.243042 255 220 0
0.492543 0.003051 0.249071 255 220 0
0.459284 0.005929 0.236328 255 220 0
0.495948 0.086899 0.314789 255 220 0
0.469347 -0.005432 0.241942 255 220 0
0.474563 0.151904 0.305305 255 220 0
0.460633 0.022761 0.281333 255 220 0
0.468333 0.141358 0.313919 255 220 0
0.438993 0.104590 0.288746 255 220 0
0.504531 0.041283 0.281295 255 220 0
0.485598 0.066496 0.311655 255 220 0
0.503308 0.135389 0.303962 255 220 0
0.504905 0.013929 0.237217 255 220 0
0.480920 -0.001583 0.208732 255 220 0
0.504241 0.144133 0.285575 255 220 0
0.481385 -0.005907 0.239230 255 220 0
0.441907 0.070310 0.259052 255 220 0
0.466659 0.088294 0.318269 255 220 0
0.502026 0.061841 0.300620 255 220 0
0.444138 0.092090 0.260374 255 220 0
0.515819 0.118807 0.261154 255 220 0
0.515439 0.061557 0.244067 255 220 0
0.496840 0.016393 0.263866 255 220 0
0.516933 0.058351 0.254432 255 220 0
0.437240 0.084919 0.290357 255 220 0
0.445450 0.106164 0.263652 255 220 0
0.471867 0.083348 0.318226 255 220 0
0.486559 0.048593 0.301199 255 220 0
0.471621 0.043584 0.221960 255 220 0
0.500514 0.146836 0.280339 255 220 0
0.505393 0.130909 0.258620 255 220 0
0.496873 0.135726 0.311067 255 220 0
0.492052 0.062859 0.223659 255 220 0
0.451073 0.086121 0.249764 255 220 0
0.454558 0.045962 0.297605 255 220 0
0.454729 0.124001 0.261561 255 220 0
0.438534 0.102616 0.286637 255 220 0
0.518363 0.099116 0.291103 255 220 0
0.501249 0.101962 0.313736 255 220 0
0.456728 0.064138 0.307867 255 220 0
0.492156 0.081820 0.229082 255 220 0
0.504911 0.095464 0.236575 255 220 0
0.517723 0.094785 0.249870 255 220 0
0.461250 0.089106 0.242079 255 220 0
0.441322 0.097083 0.268140 255 220 0
0.448993 0.098027 0.309845 255 220 0
0.481195 0.067527 0.312938 255 220 0
0.445995 0.119467 0.302655 255 220 0
0.481946 0.031204 0.211411 255 220 0
0.470442 0.141490 0.265080 255 220 0
0.444507 0.124817 0.279940 255 220 0
0.520069 0.082330 0.253182 255 220 0
0.441411 0.115571 0.280569 255 220 0
0.442866 0.075450 0.258074 255 220 0
0.455191 0.122783 0.260451 255 220 0
0.475200 -0.005751 0.218288 255 220 0
0.505311 0.015139 0.238302 255 220 0
0.498564 0.038434 0.217697 255 220 0
0.442086 0.073757 0.298357 255 220 0
0.441112 0.089798 0.265929 255 220 0
0.439046 0.105518 0.287662 255 220 0
0.439554 0.053121 0.265980 255 220 0
0.477023 0.028295 0.212330 255 220 0
0.514006 0.119531 0.257938 255 220 0
0.505769 0.088605 0.234633 255 220 0
0.487706 0.135563 0.255632 255 220 0
0.459488 0.147349 0.292879 255 220 0
0.477472 0.155104 0.297135 255 220 0
0.466977 -0.004484 0.241607 255 220 0
0.436557 0.085795 0.284641 255 220 0
0.467095 0.086511 0.237587 255 220 0
0.498431 0.003207 0.237002 255 220 0
0.442770 0.091719 0.262887 255 220 0
0.500581 0.139444 0.304640 255 220 0
0.448806 0.129655 0.274243 255 220 0
0.488131 0.029358 0.209553 255 220 0
0.440414 0.097085 0.298078 255 220 0
0.447421 0.069114 0.249500 255 220 0
0.493865 0.053272 0.301136 255 220 0
0.480198 0.013944 0.273710 255 220 0
0.500272 0.123310 0.312360 255 220 0
0.504406 0.016467 0.247340 255 220 0
0.519431 0.078316 0.251279 255 220 0
0.469780 0.010857 0.270351 255 220 0
0.448834 0.023362 0.251664 255 220 0
0.477602 0.082875 0.318355 255 220 0
0.454743 0.030750 0.235500 255 220 0
0.511108 0.120935 0.299789 255 220 0
0.520388 0.080226 0.254968 255 220 0
0.513962 0.049390 0.264548 255 220 0
0.460663 0.080069 0.314829 255 220 0
0.450583 0.138376 0.290636 255 220 0
0.493893 0.039203 0.215470 255 220 0
0.500507 0.009493 0.212998 255 220 0
0.499480 0.002512 0.225384 255 220 0
0.455389 0.143767 0.290650 255 220 0
0.498498 0.001875 0.217507 255 220 0
0.515102 0.081186 0.293131 255 220 0
0.479400 0.068359 0.226941 255 220 0
0.460392 0.057234 0.234222 255 220 0
0.491054 0.114884 0.242001 255 220 0
0.500191 0.125157 0.311973 255 220 0
0.508775 0.039332 0.230700 255 220 0
0.508177 0.073030 0.300043 255 220 0
0.444707 0.096162 0.260811 255 220 0
0.510240 0.125029 0.257625 255 220 0
0.457138 0.110436 0.315778 255 220 0
0.479271 0.058273 0.308568 255 220 0
0.510770 0.033694 0.240658 255 220 0
0.461305 0.147556 0.300333 255 220 0
0.471963 0.048400 0.303062 255 220 0
0.505006 0.125802 0.253278 255 220 0
0.469716 -0.002935 0.249488 255 220 0
0.491562 0.081494 0.315184 255 220 0
0.521359 0.103105 0.272207 255 220 0
0.493668 0.011560 0.204914 255 220 0
0.466776 0.032128 0.221900 255 220 0
0.443708 0.078865 0.302223 255 220 0
0.436652 0.071757 0.283155 255 220 0
0.469249 0.091724 0.238154 255 220 0
0.475128 0.149225 0.309458 255 220 0
0.490570 0.051434 0.301543 255 220 0
0.500214 0.034697 0.217600 255 220 0
0.460467 0.065542 0.309990 255 220 0
0.499456 0.093792 0.233990 255 220 0
0.443603 0.116273 0.273410 255 220 0
0.464859 0.141457 0.311969 255 220 0
0.466092 0.002910 0.258858 255 220 0
0.510346 0.043078 0.270471 255 220 0
0.462136 0.149288 0.292917 255 220 0
0.471519 0.046336 0.222985 255 220 0
0.444168 0.120778 0.276040 255 220 0
0.493642 0.051255 0.299891 255 220 0
0.472805 0.143392 0.314174 255 220 0
0.477137 -0.003908 0.246842 255 220 0
0.516748 0.071518 0.282536 255 220 0
0.472439 0.082164 0.233667 255 220 0
0.496718 0.131200 0.312996 255 220 0
0.502868 0.028604 0.269977 255 220 0
0.494926 0.063268 0.306518 255 220 0
0.440339 0.112136 0.282435 255 220 0
0.452431 0.016923 0.245884 255 220 0
0.492202 0.053173 0.301933 255 220 0
0.518266 0.113801 0.284205 255 220 0
0.472161 0.002349 0.211588 255 220 0
0.520639 0.106917 0.276533 255 220 0
0.515036 0.082445 0.293866 255 220 0
0.476894 0.051408 0.304820 255 220 0
0.473003 0.001998 0.258796 255 220 0
0.521198 0.100957 0.277861 255 220 0
0.455551 0.028553 0.234280 255 220 0
0.516970 0.060334 0.250893 255 220 0
0.488649 0.148665 0.272056 255 220 0
0.483417 0.003585 0.204472 255 220 0
0.460087 0.056156 0.305411 255 220 0
0.497012 0.034490 0.284123 255 220 0
0.484836 0.142985 0.263209 255 220 0
0.441100 0.112122 0.293782 255 220 0
0.496331 0.143581 0.306376 255 220 0
0.449142 0.031611 0.244721 255 220 0
0.471100 0.027176 0.216308 255 220 0
0.485956 0.047593 0.218260 255 220 0
0.467552 0.063111 0.310746 255 220 0
0.480294 0.034391 0.293124 255 220 0
0.462199 0.140322 0.268900 255 220 0
0.479637 0.142626 0.263291 255 220 0
0.442717 0.036100 0.263248 255 220 0
0.442698 0.095662 0.302506 255 220 0
0.496124 0.033785 0.284329 255 220 0
0.518336 0.078066 0.247983 255 220 0
0.456841 0.119157 0.314951 255 220 0
0.509564 0.120862 0.302460 255 220 0
0.497085 0.147925 0.297722 255 220 0
0.439045 0.048374 0.272644 255 220 0
0.492434 0.115290 0.318773 255 220 0
0.437931 0.055074 0.275577 255 220 0
0.451766 0.074648 0.308737 255 220 0
0.485479 0.153110 0.281887 255 220 0
0.490554 0.016310 0.270817 255 220 0
0.501614 0.041993 0.221419 255 220 0
0.445910 0.092323 0.257558 255 220 0
0.470268 0.042240 0.299027 255 220 0
0.511549 0.047015 0.271798 255 220 0
0.444967 0.051822 0.250784 255 220 0
0.500670 0.005420 0.234405 255 220 0
0.458975 0.139021 0.270283 255 220 0
0.468461 0.066250 0.312315 255 220 0
0.504763 0.037428 0.223560 255 220 0
0.510109 0.133505 0.291387 255 220 0
0.467982 0.042738 0.299114 255 220 0
0.508462 0.116171 0.305389 255 220 0
0.484544 0.154261 0.285835 255 220 0
0.475999 -0.007067 0.220395 255 220 0
0.458454 0.128682 0.261198 255 220 0
0.458116 0.142512 0.304505 255 220 0
0.437345 0.070978 0.287510 255 220 0
0.504602 0.018808 0.251216 255 220 0
0.445891 0.107338 0.305316 255 220 0
0.499641 0.011477 0.251780 255 220 0
0.468580 0.040002 0.222785 255 220 0
0.484008 0.017246 0.204356 255 220 0
0.464460 -0.000710 0.230863 255 220 0
0.442835 0.070349 0.257048 255 220 0
0.518273 0.066631 0.252089 255 220 0
0.444960 0.028885 0.263519 255 220 0
0.457468 0.067845 0.309704 255 220 0
0.484731 0.096062 0.234520 255 220 0
0.499088 0.002398 0.218944 255 220 0
0.490127 0.100037 0.319665 255 220 0
0.460960 0.052496 0.303686 255 220 0
0.506400 0.098839 0.308967 255 220 0
