ply
format ascii 1.0
element vertex 1024
property float x
property float y
property float z
property uchar red
property uchar green
property uchar blue
end_header
0.620303 -0.041092 0.126856 255 220 0
0.651201 0.036781 0.115724 255 220 0
0.676270 0.086232 0.184607 255 220 0
0.680263 0.049902 0.168090 255 220 0
0.660128 0.011112 0.133511 255 220 0
0.645693 0.030834 0.204336 255 220 0
0.648925 0.018176 0.115169 255 220 0
0.639623 0.096326 0.151510 255 220 0
0.609061 0.010907 0.193310 255 220 0
0.674991 0.063177 0.145082 255 220 0
0.637423 0.097002 0.153983 255 220 0
0.612646 0.083011 0.175338 255 220 0
0.620015 0.064369 0.133853 255 220 0
0.614454 -0.006455 0.095340 255 220 0
0.661753 0.072624 0.132064 255 220 0
0.679905 0.047830 0.169181 255 220 0
0.680564 0.066747 0.165923 255 220 0
0.595493 0.026593 0.171770 255 220 0
0.612207 -0.015801 0.091110 255 220 0
0.626288 0.044302 0.116040 255 220 0
0.640482 0.001158 0.109992 255 220 0
0.673055 0.082188 0.152373 255 220 0
0.648364 0.098173 0.202584 255 220 0
0.663750 0.099842 0.161162 255 220 0
0.620712 0.014191 0.198486 255 220 0
0.590865 0.001999 0.157742 255 220 0
0.671055 0.062720 0.137989 255 220 0
0.660582 0.066193 0.206823 255 220 0
0.617888 0.002539 0.099829 255 220 0
0.630316 0.019767 0.201798 255 220 0
0.589188 -0.013632 0.138725 255 220 0
0.621575 -0.002654 0.189141 255 220 0
0.680938 0.057571 0.168971 255 220 0
0.589514 -0.017051 0.116476 255 220 0
0.662387 0.053540 0.126083 255 220 0
0.652197 -0.006807 0.133810 255 220 0
0.599567 0.048455 0.160467 255 220 0
0.601981 -0.020017 0.089777 255 220 0
0.600196 0.040705 0.147359 255 220 0
0.669220 0.099810 0.182293 255 220 0
0.653647 0.087002 0.138944 255 220 0
0.645352 -0.014830 0.126889 255 220 0
0.656711 0.023161 0.121639 255 220 0
0.616390 0.088613 0.178761 255 220 0
0.609217 -0.040921 0.141916 255 220 0
0.656750 -0.004732 0.152100 255 220 0
0.613963 0.085151 0.175414 255 220 0
0.659666 0.081699 0.207212 255 220 0
0.642025 -0.018747 0.160890 255 220 0
0.590871 0.004574 0.144045 255 220 0
0.668860 0.099738 0.174894 255 220 0
0.673726 0.060891 0.141949 255 220 0
0.618099 -0.041671 0.130671 255 220 0
0.670058 0.076327 0.142886 255 220 0
0.629305 0.079981 0.138761 255 220 0
0.604800 0.014046 0.190966 255 220 0
0.604008 0.059284 0.181725 255 220 0
0.650385 0.077669 0.130543 255 220 0
0.628186 -0.012098 0.100586 255 220 0
0.600787 -0.014834 0.171928 255 220 0
0.642397 0.004468 0.111308 255 220 0
0.590954 0.005150 0.144289 255 220 0
0.590379 -0.014119 0.147400 255 220 0
0.663635 0.092456 0.149683 255 220 0
0.599993 -0.040277 0.139457 255 220 0
0.599620 0.018490 0.126589 255 220 0
0.615942 0.088087 0.176082 255 220 0
0.639887 -0.025413 0.139221 255 220 0
0.665689 0.102309 0.187176 255 220 0
0.603172 0.038645 0.190182 255 220 0
0.660292 0.036734 0.122880 255 220 0
0.634418 0.026826 0.108730 255 220 0
0.604627 -0.037480 0.148015 255 220 0
0.653665 0.014965 0.120702 255 220 0
0.598539 0.043841 0.157580 255 220 0
0.637925 -0.005531 0.182178 255 220 0
0.665417 0.102929 0.179105 255 220 0
0.599101 0.032745 0.141646 255 220 0
0.645486 0.001712 0.184879 255 220 0
0.623688 -0.026582 0.099497 255 220 0
0.596790 0.031548 0.174445 255 220 0
0.589796 -0.032657 0.124178 255 220 0
0.657004 0.077252 0.132043 255 220 0
0.670472 0.032021 0.140416 255 220 0
0.597433 0.028980 0.143059 255 220 0
0.673693 0.030148 0.177062 255 220 0
0.609460 0.071642 0.187223 255 220 0
0.601482 0.039744 0.142267 255 220 0
0.623922 -0.037843 0.137668 255 220 0
0.609692 0.077543 0.174347 255 220 0
0.645312 0.052633 0.117030 255 220 0
0.674946 0.091675 0.179146 255 220 0
0.615776 0.077520 0.195865 255 220 0
0.669493 0.045749 0.133911 255 220 0
0.674083 0.089838 0.163705 255 220 0
0.620994 0.093985 0.179225 255 220 0
0.627383 0.015251 0.199678 255 220 0
0.598260 0.044645 0.168514 255 220 0
0.665319 0.021028 0.136612 255 220 0
0.611760 -0.044296 0.125069 255 220 0
0.642351 0.060302 0.210992 255 220 0
0.664330 0.033602 0.194923 255 220 0
0.628590 -0.022035 0.103224 255 220 0
0.678171 0.065038 0.185471 255 220 0
0.642179 -0.008710 0.176110 255 220 0
0.598627 0.041822 0.175235 255 220 0
0.624542 0.079174 0.204009 255 220 0
0.655846 0.031251 0.119149 255 220 0
0.665738 0.024220 0.186738 255 220 0
0.625471 0.026448 0.203745 255 220 0
0.658927 0.005714 0.135887 255 220 0
0.597826 0.021381 0.180473 255 220 0
0.591996 -0.003583 0.125359 255 220 0
0.667670 0.037707 0.132457 255 220 0
0.627340 0.069254 0.207578 255 220 0
0.636342 0.043074 0.209002 255 220 0
0.653472 0.081041 0.133598 255 220 0
0.617091 -0.027681 0.093295 255 220 0
0.645500 0.053577 0.117421 255 220 0
0.633450 0.101912 0.170507 255 220 0
0.665186 0.102922 0.185899 255 220 0
0.662801 0.007232 0.169870 255 220 0
0.637464 0.054949 0.117858 255 220 0
0.647981 0.106620 0.171428 255 220 0
0.603275 0.033552 0.190824 255 220 0
0.593566 0.025135 0.160651 255 220 0
0.632381 0.080715 0.137337 255 220 0
0.598455 -0.045022 0.120767 255 220 0
0.622773 -0.039464 0.131202 255 220 0
0.651501 0.018171 0.195224 255 220 0
0.677423 0.050765 0.183995 255 220 0
0.676943 0.035540 0.171940 255 220 0
0.588906 -0.023124 0.105124 255 220 0
0.634910 -0.028636 0.147759 255 220 0
0.600384 0.042312 0.181935 255 220 0
0.617160 -0.015698 0.092995 255 220 0
0.671061 0.097767 0.179402 255 220 0
0.634538 -0.020789 0.165816 255 220 0
0.611650 -0.022335 0.089592 255 220 0
0.612902 0.027645 0.115759 255 220 0
0.624972 0.015308 0.199535 255 220 0
0.641514 -0.018459 0.162335 255 220 0
0.610310 0.019113 0.112615 255 220 0
0.668716 0.091739 0.197592 255 220 0
0.675516 0.081550 0.157593 255 220 0
0.600945 0.041965 0.146465 255 220 0
0.623630 -0.006020 0.186252 255 220 0
0.587892 -0.024729 0.117322 255 220 0
0.625660 -0.010896 0.098726 255 220 0
0.633996 0.017761 0.200734 255 220 0
0.607162 0.049462 0.139233 255 220 0
0.601114 0.043299 0.183786 255 220 0
0.637084 -0.022658 0.117473 255 220 0
0.619757 -0.041171 0.116778 255 220 0
0.592916 0.017916 0.164484 255 220 0
0.610390 0.071965 0.189406 255 220 0
0.599465 0.037383 0.145755 255 220 0
0.599596 0.006997 0.115742 255 220 0
0.671252 0.095995 0.188523 255 220 0
0.656023 0.002463 0.132320 255 220 0
0.591546 0.003274 0.137910 255 220 0
0.674453 0.063747 0.144177 255 220 0
0.639537 0.065231 0.211122 255 220 0
0.605451 0.018460 0.117316 255 220 0
0.665224 0.078719 0.138661 255 220 0
0.621171 -0.028677 0.160581 255 220 0
0.609175 0.042739 0.130440 255 220 0
0.599535 0.046856 0.157802 255 220 0
0.626755 0.070183 0.207194 255 220 0
0.677251 0.072891 0.155671 255 220 0
0.644612 0.010854 0.193452 255 220 0
0.645431 0.017844 0.198017 255 220 0
0.623969 0.092399 0.192953 255 220 0
0.658583 0.100334 0.198552 255 220 0
0.608643 0.073246 0.182148 255 220 0
0.648541 0.095718 0.204439 255 220 0
0.656744 0.008324 0.128906 255 220 0
0.592486 0.019240 0.155154 255 220 0
0.643130 -0.015073 0.166337 255 220 0
0.661935 0.049850 0.125002 255 220 0
0.613654 0.056920 0.200221 255 220 0
0.634493 0.001424 0.189793 255 220 0
0.642771 -0.016370 0.122563 255 220 0
0.627243 0.068469 0.207614 255 220 0
0.593442 -0.021961 0.151265 255 220 0
0.645386 0.023043 0.112396 255 220 0
0.655903 0.104896 0.167302 255 220 0
0.663293 0.008386 0.144810 255 220 0
0.627748 0.069242 0.207762 255 220 0
0.630759 0.013531 0.105432 255 220 0
0.596348 0.020502 0.137725 255 220 0
0.675556 0.038891 0.181790 255 220 0
0.599546 0.024294 0.184308 255 220 0
0.622919 -0.039163 0.132920 255 220 0
0.658762 0.024815 0.194610 255 220 0
0.680590 0.051953 0.166221 255 220 0
0.644078 0.057444 0.210625 255 220 0
0.645431 -0.018113 0.134229 255 220 0
0.630271 0.089101 0.148058 255 220 0
0.655791 0.028983 0.119390 255 220 0
0.666246 0.027847 0.188949 255 220 0
0.631385 0.099688 0.190146 255 220 0
0.601804 0.055633 0.175184 255 220 0
0.611154 0.073340 0.190046 255 220 0
0.664804 0.058050 0.203187 255 220 0
0.642437 -0.009509 0.174968 255 220 0
0.636989 0.102761 0.190231 255 220 0
0.604631 0.064325 0.166170 255 220 0
0.670732 0.091869 0.158148 255 220 0
0.612833 0.028184 0.199229 255 220 0
0.657701 0.106855 0.184037 255 220 0
0.651561 0.094135 0.205311 255 220 0
0.627913 -0.021024 0.169151 255 220 0
0.646483 0.006853 0.189105 255 220 0
0.604327 0.064651 0.170414 255 220 0
0.619423 -0.034584 0.151377 255 220 0
0.676274 0.070851 0.190716 255 220 0
0.649031 0.008495 0.188969 255 220 0
0.670579 0.087883 0.197005 255 220 0
0.612787 -0.026045 0.165644 255 220 0
0.654300 -0.006743 0.141300 255 220 0
0.622176 0.010920 0.103560 255 220 0
0.598166 -0.038538 0.097245 255 220 0
0.672533 0.095816 0.180268 255 220 0
0.620023 0.092294 0.171165 255 220 0
0.588661 -0.026279 0.126275 255 220 0
0.648637 -0.014404 0.155302 255 220 0
0.639961 0.043589 0.208981 255 220 0
0.628952 0.011952 0.198007 255 220 0
0.596955 0.003098 0.176769 255 220 0
0.658589 0.008547 0.180027 255 220 0
0.596814 -0.044190 0.119454 255 220 0
0.591465 0.000472 0.134430 255 220 0
0.609097 -0.043358 0.134267 255 220 0
0.596179 0.035868 0.157183 255 220 0
0.600453 0.045522 0.180159 255 220 0
0.626270 -0.004793 0.186791 255 220 0
0.652957 0.100756 0.155912 255 220 0
0.679517 0.075047 0.168317 255 220 0
0.673968 0.054080 0.193022 255 220 0
0.630062 -0.003817 0.186713 255 220 0
0.603090 0.039946 0.189796 255 220 0
0.660133 0.101449 0.160895 255 220 0
0.679537 0.067434 0.160118 255 220 0
0.635261 -0.022527 0.162319 255 220 0
0.661520 0.080771 0.206353 255 220 0
0.627123 0.077570 0.138263 255 220 0
0.599584 0.011747 0.120381 255 220 0
0.657754 0.106865 0.183639 255 220 0
0.641567 0.101555 0.196985 255 220 0
0.606645 0.063562 0.186586 255 220 0
0.602323 -0.031970 0.154502 255 220 0
0.659851 0.000011 0.150569 255 220 0
0.612104 0.082051 0.176186 255 220 0
0.650999 0.095572 0.204462 255 220 0
0.630080 0.090432 0.150039 255 220 0
0.620087 0.038552 0.116527 255 220 0
0.591003 -0.000464 0.158017 255 220 0
0.612575 -0.037113 0.149071 255 220 0
0.628332 0.057457 0.208677 255 220 0
0.665353 0.044211 0.128184 255 220 0
0.621444 0.065320 0.204833 255 220 0
0.615431 0.086288 0.169392 255 220 0
0.614907 0.024683 0.199544 255 220 0
0.607345 0.060391 0.190310 255 220 0
0.612524 0.045621 0.200881 255 220 0
0.629432 -0.034735 0.135962 255 220 0
0.604363 0.018137 0.191284 255 220 0
0.596312 0.034555 0.154099 255 220 0
0.668772 0.100239 0.179873 255 220 0
0.607780 0.043471 0.196323 255 220 0
0.651648 0.098047 0.202621 255 220 0
0.622718 0.038318 0.114787 255 220 0
0.678849 0.064657 0.155739 255 220 0
0.595554 0.023491 0.173253 255 220 0
0.646155 -0.010552 0.169780 255 220 0
0.640801 0.084298 0.136893 255 220 0
0.616768 -0.025456 0.166191 255 220 0
0.627974 0.021010 0.202185 255 220 0
0.610293 0.055436 0.196894 255 220 0
0.608392 0.074445 0.170992 255 220 0
0.639893 -0.015194 0.115647 255 220 0
0.595456 -0.042634 0.121928 255 220 0
0.626244 0.065886 0.207380 255 220 0
0.663024 0.067984 0.130958 255 220 0
0.644056 0.049059 0.209517 255 220 0
0.633021 0.030158 0.109296 255 220 0
0.668740 0.093482 0.156916 255 220 0
0.598125 -0.006518 0.103283 255 220 0
0.602871 0.046314 0.145836 255 220 0
0.592192 -0.005724 0.121165 255 220 0
0.602637 0.006071 0.186479 255 220 0
0.604478 0.050557 0.146263 255 220 0
0.640495 0.089990 0.142784 255 220 0
0.621135 -0.027164 0.096933 255 220 0
0.648839 0.061566 0.121436 255 220 0
0.643495 0.013574 0.195939 255 220 0
0.602096 0.058206 0.170026 255 220 0
0.660252 0.068171 0.129074 255 220 0
0.621207 0.065151 0.204704 255 220 0
0.658582 0.043395 0.121359 255 220 0
0.603377 0.008669 0.188131 255 220 0
0.620445 0.080720 0.149007 255 220 0
0.630664 -0.011253 0.102634 255 220 0
0.618060 0.088725 0.166597 255 220 0
0.595039 0.029647 0.167354 255 220 0
0.591614 0.007631 0.143350 255 220 0
0.606675 0.040953 0.195202 255 220 0
0.607315 0.056976 0.146350 255 220 0
0.598527 -0.045229 0.114386 255 220 0
0.617490 -0.040483 0.137795 255 220 0
0.607859 -0.045419 0.114220 255 220 0
0.656461 0.069678 0.127687 255 220 0
0.644375 -0.013399 0.167526 255 220 0
0.676622 0.045310 0.148626 255 220 0
0.608712 -0.017245 0.175398 255 220 0
0.646617 0.003997 0.115754 255 220 0
0.650504 0.063003 0.210272 255 220 0
0.656395 -0.004425 0.144941 255 220 0
0.627586 0.096331 0.163936 255 220 0
0.650225 0.088787 0.140168 255 220 0
0.660249 0.014026 0.131487 255 220 0
0.652671 -0.007231 0.135988 255 220 0
0.654234 0.038691 0.203991 255 220 0
0.631120 0.013042 0.198484 255 220 0
0.636078 -0.012041 0.108444 255 220 0
0.678576 0.058079 0.182691 255 220 0
0.614553 0.027739 0.200083 255 220 0
0.622651 -0.035017 0.105917 255 220 0
0.644100 0.084858 0.136662 255 220 0
0.618247 -0.034588 0.151897 255 220 0
0.602920 0.060625 0.168883 255 220 0
0.665679 0.094935 0.198675 255 220 0
0.645506 -0.004820 0.177916 255 220 0
0.660185 0.006209 0.138548 255 220 0
0.649655 0.093803 0.145593 255 220 0
0.608782 0.006050 0.191407 255 220 0
0.614913 0.054952 0.132298 255 220 0
0.659193 0.048681 0.122530 255 220 0
0.618986 0.035536 0.204061 255 220 0
0.591848 0.006024 0.139997 255 220 0
0.645016 0.021862 0.200505 255 220 0
0.601931 0.010906 0.115688 255 220 0
0.600050 -0.040479 0.099321 255 220 0
0.666444 0.040066 0.130015 255 220 0
0.665538 0.032296 0.192866 255 220 0
0.642655 -0.015780 0.165736 255 220 0
0.613045 0.083475 0.172863 255 220 0
0.666837 0.060924 0.202139 255 220 0
0.647478 0.005105 0.186849 255 220 0
0.598815 0.043491 0.174524 255 220 0
0.656012 0.106907 0.186861 255 220 0
0.590621 -0.012558 0.118346 255 220 0
0.600951 0.029856 0.133898 255 220 0
0.590690 -0.009727 0.152010 255 220 0
0.614392 0.041212 0.123078 255 220 0
0.594348 -0.042163 0.117022 255 220 0
0.607789 -0.044636 0.128496 255 220 0
0.596806 0.028175 0.144394 255 220 0
0.668173 0.091985 0.198098 255 220 0
0.680100 0.053629 0.158066 255 220 0
0.593506 -0.040471 0.121292 255 220 0
0.675528 0.070771 0.149701 255 220 0
0.588581 -0.023341 0.127450 255 220 0
0.589384 -0.008221 0.140013 255 220 0
0.662965 0.042206 0.200159 255 220 0
0.650859 0.018042 0.116884 255 220 0
0.656535 0.051742 0.206475 255 220 0
0.632390 0.098356 0.161520 255 220 0
0.601433 0.025222 0.187910 255 220 0
0.624312 -0.031617 0.154307 255 220 0
0.649512 0.099628 0.153731 255 220 0
0.636587 0.046859 0.209577 255 220 0
0.647362 0.026400 0.201928 255 220 0
0.596378 0.034809 0.169998 255 220 0
0.601356 0.051872 0.158067 255 220 0
0.676418 0.034052 0.158398 255 220 0
0.643367 0.016155 0.111344 255 220 0
0.637320 0.091521 0.146032 255 220 0
0.648133 0.107637 0.177123 255 220 0
0.610426 -0.014913 0.178231 255 220 0
0.598178 0.014016 0.181468 255 220 0
0.674306 0.089932 0.164700 255 220 0
0.631059 0.022510 0.107445 255 220 0
0.654800 0.054616 0.207744 255 220 0
0.615251 0.038594 0.120474 255 220 0
0.674006 0.028054 0.172007 255 220 0
0.619991 0.042413 0.118789 255 220 0
0.592354 -0.022267 0.095861 255 220 0
0.658612 0.064195 0.207595 255 220 0
0.633959 -0.006074 0.105031 255 220 0
0.627447 0.065662 0.128429 255 220 0
0.631669 -0.007848 0.182568 255 220 0
0.617547 0.087262 0.164602 255 220 0
0.672187 0.096302 0.180781 255 220 0
0.675772 0.075555 0.191319 255 220 0
0.614511 0.082572 0.187863 255 220 0
0.598424 0.016355 0.182113 255 220 0
0.605125 0.066853 0.172386 255 220 0
0.677613 0.080035 0.184479 255 220 0
0.624696 0.036977 0.113218 255 220 0
0.635971 -0.019299 0.112086 255 220 0
0.629311 0.086776 0.146008 255 220 0
0.676277 0.088443 0.179066 255 220 0
0.597427 0.030708 0.144989 255 220 0
0.647709 0.076639 0.129664 255 220 0
0.644646 0.086405 0.138041 255 220 0
0.603664 0.010353 0.188931 255 220 0
0.612663 0.050430 0.131677 255 220 0
0.678329 0.078939 0.165789 255 220 0
0.631528 -0.014859 0.104122 255 220 0
0.590580 -0.012160 0.119407 255 220 0
0.597167 0.041020 0.165004 255 220 0
0.626114 0.036422 0.112431 255 220 0
0.636980 0.044379 0.113389 255 220 0
0.664826 0.071279 0.204468 255 220 0
0.651616 0.000589 0.124801 255 220 0
0.630582 -0.033243 0.140568 255 220 0
0.593804 -0.005636 0.114846 255 220 0
0.661012 0.018749 0.129806 255 220 0
0.608570 0.070919 0.185254 255 220 0
0.639323 -0.011897 0.174444 255 220 0
0.667107 0.074003 0.202675 255 220 0
0.593885 -0.033329 0.095628 255 220 0
0.592206 -0.004942 0.160979 255 220 0
0.679923 0.048323 0.160541 255 220 0
0.616114 0.071053 0.144658 255 220 0
0.605861 -0.028261 0.161385 255 220 0
0.610745 0.078936 0.179649 255 220 0
0.611576 -0.031452 0.091141 255 220 0
0.663336 0.103766 0.175013 255 220 0
0.651715 0.082604 0.209647 255 220 0
0.653075 0.100759 0.199949 255 220 0
0.636063 0.088699 0.206208 255 220 0
0.634000 -0.022856 0.162905 255 220 0
0.588945 -0.031131 0.104913 255 220 0
0.677231 0.083589 0.166839 255 220 0
0.612724 0.076490 0.158264 255 220 0
0.671312 0.047718 0.194623 255 220 0
0.593798 0.016662 0.168968 255 220 0
0.676734 0.086555 0.170487 255 220 0
0.613010 0.080217 0.187015 255 220 0
0.653126 0.101846 0.158044 255 220 0
0.680383 0.050317 0.163501 255 220 0
0.644041 -0.020088 0.134461 255 220 0
0.630732 0.098916 0.165390 255 220 0
0.621518 -0.039529 0.114072 255 220 0
0.628569 0.073233 0.207665 255 220 0
0.602043 0.056284 0.175628 255 220 0
0.627237 0.099005 0.174743 255 220 0
0.673427 0.025088 0.160115 255 220 0
0.623908 -0.026409 0.099670 255 220 0
0.670322 0.068194 0.199607 255 220 0
0.653230 0.057486 0.121321 255 220 0
0.648903 0.098876 0.152527 255 220 0
0.645901 0.006152 0.188827 255 220 0
0.648859 -0.007144 0.125942 255 220 0
0.661828 0.002960 0.152984 255 220 0
0.680303 0.071065 0.172723 255 220 0
0.616560 -0.034897 0.151955 255 220 0
0.608619 -0.023121 0.168792 255 220 0
0.676070 0.031751 0.163335 255 220 0
0.677309 0.040859 0.153525 255 220 0
0.590607 -0.014537 0.148149 255 220 0
0.601791 0.036306 0.187815 255 220 0
0.649048 0.097311 0.203296 255 220 0
0.594993 -0.016589 0.096565 255 220 0
0.625710 0.009917 0.103471 255 220 0
0.627217 0.030111 0.109711 255 220 0
0.662139 0.050745 0.125336 255 220 0
0.624777 0.086212 0.200609 255 220 0
0.654013 0.060093 0.122611 255 220 0
0.636018 -0.021442 0.113990 255 220 0
0.597544 0.021406 0.179745 255 220 0
0.635039 0.012164 0.106676 255 220 0
0.596854 0.013026 0.178444 255 220 0
0.678888 0.067570 0.183151 255 220 0
0.679811 0.059731 0.178038 255 220 0
0.637862 0.072197 0.128008 255 220 0
0.606748 0.043082 0.134388 255 220 0
0.676036 0.071981 0.191185 255 220 0
0.613674 0.084473 0.178955 255 220 0
0.612639 0.047272 0.200836 255 220 0
0.624768 0.071298 0.134853 255 220 0
0.666446 0.085970 0.145893 255 220 0
0.613098 -0.044176 0.120827 255 220 0
0.590321 -0.022254 0.139748 255 220 0
0.623176 0.025958 0.109101 255 220 0
0.631960 0.069755 0.209370 255 220 0
0.601299 0.016949 0.187300 255 220 0
0.680756 0.054489 0.162850 255 220 0
0.646011 0.105711 0.168819 255 220 0
0.618985 -0.035297 0.150242 255 220 0
0.627407 0.069226 0.207611 255 220 0
0.611964 -0.033123 0.155671 255 220 0
0.599183 0.028642 0.137121 255 220 0
0.662076 0.031430 0.125861 255 220 0
0.669139 0.038103 0.192278 255 220 0
0.592210 -0.011407 0.111809 255 220 0
0.621472 0.002045 0.192433 255 220 0
0.621769 0.011613 0.197596 255 220 0
0.588294 -0.024957 0.124107 255 220 0
0.625717 -0.014427 0.098674 255 220 0
0.639848 -0.017307 0.166496 255 220 0
0.604412 0.050421 0.146288 255 220 0
0.602244 0.046365 0.147790 255 220 0
0.651717 0.054997 0.119819 255 220 0
0.621416 0.080851 0.147824 255 220 0
0.672866 0.043026 0.140538 255 220 0
0.615820 0.068967 0.199495 255 220 0
0.610568 -0.037791 0.148214 255 220 0
0.600581 -0.000577 0.106131 255 220 0
0.617891 -0.040473 0.108580 255 220 0
0.627109 -0.009916 0.181989 255 220 0
0.596452 -0.031877 0.146824 255 220 0
0.588305 -0.026231 0.106307 255 220 0
0.667902 0.076944 0.201909 255 220 0
0.593562 -0.012575 0.160134 255 220 0
0.598464 0.032313 0.179986 255 220 0
0.677888 0.043731 0.178348 255 220 0
0.664727 0.062951 0.130615 255 220 0
0.657155 0.062395 0.125024 255 220 0
0.639283 -0.015975 0.115178 255 220 0
0.678073 0.082713 0.177771 255 220 0
0.591318 0.009772 0.158875 255 220 0
0.624119 -0.031965 0.153760 255 220 0
0.661670 0.103809 0.190410 255 220 0
0.630260 0.078210 0.136438 255 220 0
0.639705 -0.019221 0.163389 255 220 0
0.615001 -0.018436 0.091458 255 220 0
0.607668 0.006151 0.104928 255 220 0
0.649419 -0.012957 0.136678 255 220 0
0.622606 -0.038643 0.136903 255 220 0
0.651047 0.106222 0.191305 255 220 0
0.625522 0.024893 0.203239 255 220 0
0.677388 0.071742 0.155303 255 220 0
0.605027 0.041496 0.136047 255 220 0
0.645692 0.046739 0.115181 255 220 0
0.624808 0.033162 0.111496 255 220 0
0.588226 -0.031112 0.116669 255 220 0
0.660703 0.046460 0.123448 255 220 0
0.634290 0.028892 0.109105 255 220 0
0.639718 -0.023958 0.127540 255 220 0
0.600266 0.022797 0.185827 255 220 0
0.654820 0.047289 0.206219 255 220 0
0.657170 -0.002501 0.162611 255 220 0
0.602410 0.055295 0.159307 255 220 0
0.608299 0.073930 0.169824 255 220 0
0.620973 0.071979 0.203372 255 220 0
0.671354 0.022376 0.152554 255 220 0
0.627739 0.069531 0.131085 255 220 0
0.641835 0.000907 0.186309 255 220 0
0.600633 0.052864 0.163606 255 220 0
0.641798 0.004629 0.110744 255 220 0
0.591055 -0.032595 0.099473 255 220 0
0.645655 0.001628 0.115368 255 220 0
0.593742 0.000609 0.123288 255 220 0
0.661989 0.005283 0.145649 255 220 0
0.659278 0.047003 0.204006 255 220 0
0.661059 0.003070 0.164742 255 220 0
0.637332 -0.005787 0.182211 255 220 0
0.641732 -0.011152 0.173533 255 220 0
0.604820 0.057152 0.186222 255 220 0
0.596919 0.012214 0.126768 255 220 0
0.628474 -0.009305 0.182183 255 220 0
0.596150 0.015876 0.133290 255 220 0
0.636960 0.092528 0.204150 255 220 0
0.627736 0.032813 0.206108 255 220 0
0.661223 0.066678 0.129120 255 220 0
0.601836 0.034841 0.188140 255 220 0
0.662534 0.099474 0.158886 255 220 0
0.680629 0.053764 0.169319 255 220 0
0.623236 -0.034465 0.106071 255 220 0
0.652339 0.087718 0.139360 255 220 0
0.670355 0.018229 0.158016 255 220 0
0.629433 0.017316 0.106036 255 220 0
0.587861 -0.029676 0.114671 255 220 0
0.640596 0.035805 0.111402 255 220 0
0.642808 -0.022161 0.144565 255 220 0
0.656167 0.087844 0.140507 255 220 0
0.667410 0.012801 0.165145 255 220 0
0.658551 0.072301 0.129961 255 220 0
0.591641 -0.015093 0.151886 255 220 0
0.644580 0.106256 0.171985 255 220 0
0.590929 0.000722 0.138050 255 220 0
0.595534 0.032424 0.167412 255 220 0
0.590574 -0.002979 0.135068 255 220 0
0.597769 -0.009349 0.171925 255 220 0
0.640901 -0.024058 0.144977 255 220 0
0.640860 0.095128 0.149130 255 220 0
0.667720 0.027620 0.137195 255 220 0
0.615701 -0.024584 0.167472 255 220 0
0.654607 -0.007284 0.155719 255 220 0
0.670882 0.021508 0.151930 255 220 0
0.633699 0.094088 0.152194 255 220 0
0.643979 0.012250 0.194790 255 220 0
0.651074 -0.008734 0.133553 255 220 0
0.594301 0.008032 0.171298 255 220 0
0.607555 0.007889 0.191363 255 220 0
0.668105 0.023647 0.140898 255 220 0
0.598670 -0.012944 0.095936 255 220 0
0.673863 0.055751 0.141292 255 220 0
0.601202 0.045627 0.182778 255 220 0
0.661543 0.105050 0.177362 255 220 0
0.666562 0.021550 0.138953 255 220 0
0.610088 -0.004218 0.186630 255 220 0
0.589922 -0.016290 0.114833 255 220 0
0.669985 0.053486 0.197935 255 220 0
0.665847 0.025045 0.187286 255 220 0
0.606505 0.055728 0.190892 255 220 0
0.613907 -0.043394 0.111613 255 220 0
0.679225 0.071755 0.162274 255 220 0
0.603504 0.045589 0.189002 255 220 0
0.622316 0.089542 0.194466 255 220 0
0.629013 -0.006169 0.101328 255 220 0
0.636546 0.102073 0.191537 255 220 0
0.633605 0.064367 0.210091 255 220 0
0.627565 -0.036473 0.124642 255 220 0
0.643122 0.024654 0.202453 255 220 0
0.675156 0.086008 0.161409 255 220 0
0.592150 0.017058 0.153783 255 220 0
0.673494 0.092053 0.188069 255 220 0
0.629620 0.016555 0.105878 255 220 0
0.594235 -0.002841 0.168150 255 220 0
0.591989 -0.001018 0.161899 255 220 0
0.621345 0.057576 0.127495 255 220 0
0.633066 0.002425 0.191009 255 220 0
0.632696 -0.013481 0.176341 255 220 0
0.675059 0.044627 0.144874 255 220 0
0.631699 0.048549 0.209305 255 220 0
0.591830 -0.034096 0.130577 255 220 0
0.659251 0.027127 0.123465 255 220 0
0.679896 0.073115 0.168611 255 220 0
0.625817 -0.013022 0.179271 255 220 0
0.676706 0.085171 0.166717 255 220 0
0.615252 0.070124 0.145036 255 220 0
0.677181 0.040170 0.153635 255 220 0
0.600001 -0.029172 0.155725 255 220 0
0.676898 0.086954 0.175932 255 220 0
0.648746 0.104024 0.162941 255 220 0
0.595005 0.006978 0.126673 255 220 0
0.605824 0.022794 0.120163 255 220 0
0.663992 0.008646 0.146886 255 220 0
0.599553 -0.043277 0.131483 255 220 0
0.674634 0.073629 0.149379 255 220 0
0.658914 0.096715 0.151655 255 220 0
0.607553 -0.042580 0.102001 255 220 0
0.627733 -0.033775 0.145614 255 220 0
0.669337 0.098556 0.170744 255 220 0
0.620919 -0.015717 0.177538 255 220 0
0.628351 -0.012593 0.100744 255 220 0
0.652398 0.018236 0.194708 255 220 0
0.631597 0.062705 0.209570 255 220 0
0.623272 0.055053 0.124162 255 220 0
0.669632 0.099286 0.183619 255 220 0
0.633466 0.019017 0.107197 255 220 0
0.617045 -0.042640 0.125309 255 220 0
0.605605 -0.029626 0.089007 255 220 0
0.623384 -0.037704 0.112886 255 220 0
0.649236 -0.008986 0.128849 255 220 0
0.614525 0.043719 0.124648 255 220 0
0.667773 0.014651 0.169425 255 220 0
0.613670 0.078763 0.159335 255 220 0
0.626615 0.041377 0.207574 255 220 0
0.633242 0.086819 0.142948 255 220 0
0.612199 -0.015725 0.091132 255 220 0
0.601917 -0.006680 0.179357 255 220 0
0.590585 -0.012276 0.119145 255 220 0
0.650795 0.053717 0.119021 255 220 0
0.591586 0.007224 0.161378 255 220 0
0.609672 0.022048 0.115186 255 220 0
0.601504 0.051204 0.179556 255 220 0
0.667598 0.057585 0.132163 255 220 0
0.666863 0.018272 0.178721 255 220 0
0.651072 0.078686 0.131356 255 220 0
0.596699 -0.007144 0.105047 255 220 0
0.644606 -0.003069 0.115815 255 220 0
0.659867 0.002692 0.142642 255 220 0
0.672305 0.061916 0.139737 255 220 0
0.613409 0.079339 0.189381 255 220 0
0.674201 0.028901 0.172931 255 220 0
0.665908 0.009604 0.160830 255 220 0
0.632900 0.046505 0.209283 255 220 0
0.678447 0.048069 0.178915 255 220 0
0.607090 0.020221 0.194039 255 220 0
0.604903 -0.022475 0.088626 255 220 0
0.602679 0.010092 0.113828 255 220 0
0.650326 -0.012775 0.154041 255 220 0
0.619506 -0.028955 0.096092 255 220 0
0.616592 0.077727 0.151480 255 220 0
0.664044 0.067705 0.204868 255 220 0
0.668356 0.100542 0.178339 255 220 0
0.669011 0.016079 0.166768 255 220 0
0.659116 0.097871 0.153448 255 220 0
0.634360 0.015171 0.199304 255 220 0
0.631612 0.068049 0.209361 255 220 0
0.671635 0.040388 0.138904 255 220 0
0.652412 0.038023 0.116542 255 220 0
0.589088 -0.027446 0.127810 255 220 0
0.677778 0.037861 0.170805 255 220 0
0.617514 0.065800 0.201869 255 220 0
0.612904 -0.031835 0.092060 255 220 0
0.654698 -0.005164 0.139100 255 220 0
0.602945 0.046220 0.145510 255 220 0
0.635596 0.072636 0.129116 255 220 0
0.676141 0.054057 0.145901 255 220 0
0.596328 -0.014677 0.096781 255 220 0
0.597172 -0.027255 0.153858 255 220 0
0.652461 0.014578 0.119382 255 220 0
0.645774 0.004290 0.187186 255 220 0
0.613228 -0.021887 0.171001 255 220 0
0.591319 -0.023635 0.096887 255 220 0
0.640270 0.012245 0.109403 255 220 0
0.616939 0.024718 0.200469 255 220 0
0.614967 0.071721 0.147216 255 220 0
0.624026 -0.037964 0.115659 255 220 0
0.618940 0.016133 0.106173 255 220 0
0.634819 0.097207 0.156504 255 220 0
0.657868 -0.002543 0.146940 255 220 0
0.648622 0.050546 0.208901 255 220 0
0.621335 0.090274 0.162105 255 220 0
0.657388 0.095986 0.202894 255 220 0
0.611181 0.042214 0.199865 255 220 0
0.609278 0.055659 0.141061 255 220 0
0.596389 0.019611 0.176838 255 220 0
0.677571 0.056091 0.149481 255 220 0
0.589259 -0.010910 0.136082 255 220 0
0.668258 0.096546 0.161227 255 220 0
0.631657 0.093931 0.199781 255 220 0
0.592870 0.017812 0.164280 255 220 0
0.624263 0.069419 0.205981 255 220 0
0.589503 -0.017950 0.113756 255 220 0
0.664485 0.103656 0.180599 255 220 0
0.656420 0.067964 0.208889 255 220 0
0.636075 0.099724 0.160376 255 220 0
0.679156 0.047870 0.156028 255 220 0
0.661547 0.094242 0.202127 255 220 0
0.621498 0.091251 0.190344 255 220 0
0.591553 0.001516 0.161004 255 220 0
0.638425 0.064656 0.122944 255 220 0
0.593073 0.003861 0.130713 255 220 0
0.640774 0.087905 0.207945 255 220 0
0.662091 0.008206 0.173666 255 220 0
0.664164 0.086025 0.203832 255 220 0
0.617900 -0.017779 0.093055 255 220 0
0.650856 0.076394 0.129743 255 220 0
0.601404 0.010160 0.186218 255 220 0
0.675117 0.091359 0.176697 255 220 0
0.599985 0.034654 0.183744 255 220 0
0.668617 0.014512 0.161669 255 220 0
0.635746 0.103730 0.182879 255 220 0
0.593668 -0.018819 0.154985 255 220 0
0.678756 0.059616 0.182463 255 220 0
0.600423 -0.006189 0.100521 255 220 0
0.641375 -0.004689 0.112293 255 220 0
0.641087 0.042229 0.208605 255 220 0
0.591602 -0.014667 0.107785 255 220 0
0.602106 0.057738 0.165907 255 220 0
0.616964 0.033181 0.115720 255 220 0
0.638925 0.091375 0.205647 255 220 0
0.606904 0.069625 0.180289 255 220 0
0.642090 -0.003337 0.112707 255 220 0
0.656816 0.094777 0.148176 255 220 0
0.650611 -0.009266 0.164448 255 220 0
0.647408 0.003349 0.185168 255 220 0
0.641758 0.022058 0.201551 255 220 0
0.674385 0.045168 0.143140 255 220 0
0.595586 0.006914 0.174642 255 220 0
0.680076 0.049470 0.169923 255 220 0
0.593012 0.003856 0.131001 255 220 0
0.639212 -0.017722 0.116533 255 220 0
0.598974 -0.028725 0.090119 255 220 0
0.614064 0.049680 0.129414 255 220 0
0.643116 0.044095 0.113833 255 220 0
0.595921 0.029763 0.171845 255 220 0
0.593846 0.015434 0.169454 255 220 0
0.614968 -0.026782 0.091490 255 220 0
0.663157 0.025909 0.191247 255 220 0
0.635296 0.066030 0.210455 255 220 0
0.590988 -0.023122 0.141728 255 220 0
0.609881 0.050884 0.135920 255 220 0
0.641332 0.010742 0.194732 255 220 0
0.601531 -0.045973 0.118074 255 220 0
0.595028 0.006933 0.126543 255 220 0
0.622542 0.095393 0.180084 255 220 0
0.615486 0.031714 0.116038 255 220 0
0.680238 0.049449 0.162710 255 220 0
0.630185 -0.034196 0.135846 255 220 0
0.631271 -0.033313 0.136319 255 220 0
0.667299 0.020435 0.141695 255 220 0
0.631054 0.078801 0.136438 255 220 0
0.612813 0.057380 0.136962 255 220 0
0.599213 0.042932 0.153505 255 220 0
0.609184 0.041362 0.198019 255 220 0
0.661479 0.060552 0.205661 255 220 0
0.639989 0.009756 0.194498 255 220 0
0.593729 0.012430 0.169519 255 220 0
0.612282 0.037311 0.122712 255 220 0
0.656868 0.014857 0.188581 255 220 0
0.595479 0.004467 0.173851 255 220 0
0.663283 0.045610 0.125845 255 220 0
0.674938 0.064413 0.193302 255 220 0
0.605888 0.062442 0.157949 255 220 0
0.623492 -0.027215 0.161988 255 220 0
0.634949 0.052403 0.210010 255 220 0
0.662702 0.078992 0.136621 255 220 0
0.659324 0.028794 0.196567 255 220 0
0.619868 -0.022639 0.169422 255 220 0
0.677514 0.078706 0.185639 255 220 0
0.642335 0.095275 0.203923 255 220 0
0.601348 -0.025405 0.161657 255 220 0
0.619243 -0.005717 0.186960 255 220 0
0.614279 0.030447 0.116285 255 220 0
0.591792 0.011217 0.146930 255 220 0
0.625925 -0.037773 0.125856 255 220 0
0.591333 -0.031693 0.132432 255 220 0
0.671217 0.036071 0.187956 255 220 0
0.601549 -0.044154 0.130951 255 220 0
0.655183 0.102655 0.197036 255 220 0
0.617100 -0.021246 0.171644 255 220 0
0.653068 0.091321 0.206590 255 220 0
0.611229 0.059690 0.196827 255 220 0
0.656647 -0.004879 0.150712 255 220 0
0.658559 0.016772 0.188705 255 220 0
0.677300 0.085207 0.179508 255 220 0
0.631681 -0.025943 0.110410 255 220 0
0.595057 -0.036327 0.097066 255 220 0
0.669741 0.096331 0.164195 255 220 0
0.610424 -0.044793 0.122388 255 220 0
0.594965 0.029692 0.166810 255 220 0
0.648073 0.038289 0.206159 255 220 0
0.666522 0.012938 0.170396 255 220 0
0.599910 0.050966 0.168836 255 220 0
0.664531 0.074086 0.135042 255 220 0
0.649336 0.019782 0.115296 255 220 0
0.638540 -0.026783 0.137494 255 220 0
0.655513 0.015127 0.123049 255 220 0
0.608408 0.040081 0.197250 255 220 0
0.604220 0.064386 0.172277 255 220 0
0.651970 0.033167 0.202971 255 220 0
0.652143 0.000442 0.177619 255 220 0
0.598704 0.006981 0.117381 255 220 0
0.664195 0.099887 0.161913 255 220 0
0.655643 0.086876 0.139402 255 220 0
0.675428 0.084859 0.188909 255 220 0
0.619138 0.024907 0.110104 255 220 0
0.599823 0.046198 0.155663 255 220 0
0.622660 -0.000238 0.190818 255 220 0
0.613038 0.081908 0.167390 255 220 0
0.609554 0.058044 0.195081 255 220 0
0.679730 0.050394 0.157377 255 220 0
0.676855 0.050885 0.185745 255 220 0
0.631686 0.016251 0.200149 255 220 0
0.624032 0.042926 0.116455 255 220 0
0.640220 0.054832 0.117541 255 220 0
0.657838 0.051770 0.122189 255 220 0
0.604963 0.049745 0.144150 255 220 0
0.601974 0.054971 0.177373 255 220 0
0.629752 0.049863 0.209016 255 220 0
0.655554 0.017815 0.192166 255 220 0
0.625877 0.072197 0.206460 255 220 0
0.600852 -0.004293 0.101907 255 220 0
0.630162 0.098030 0.163929 255 220 0
0.613685 0.080662 0.188389 255 220 0
0.660168 0.038887 0.122625 255 220 0
0.610352 0.071565 0.189651 255 220 0
0.595849 0.034870 0.165967 255 220 0
0.612739 0.080833 0.166092 255 220 0
0.594548 -0.041500 0.107762 255 220 0
0.632710 -0.024912 0.111238 255 220 0
0.619037 0.001259 0.099368 255 220 0
0.615391 0.027725 0.200511 255 220 0
0.599883 0.048074 0.174912 255 220 0
0.610826 0.060754 0.195964 255 220 0
0.594592 0.011841 0.172304 255 220 0
0.596790 -0.007076 0.104955 255 220 0
0.661431 0.075322 0.133307 255 220 0
0.639226 0.048271 0.114799 255 220 0
0.639505 0.092681 0.146420 255 220 0
0.635500 0.100521 0.193802 255 220 0
0.653883 0.106808 0.188880 255 220 0
0.599456 -0.043065 0.131978 255 220 0
0.605025 0.041760 0.192818 255 220 0
0.607408 0.047529 0.137066 255 220 0
0.624869 -0.036233 0.112556 255 220 0
0.599971 0.050316 0.171648 255 220 0
0.675751 0.089249 0.181875 255 220 0
0.615005 0.086036 0.181777 255 220 0
0.605002 -0.006143 0.096960 255 220 0
0.616354 0.050923 0.203333 255 220 0
0.594717 0.029567 0.155720 255 220 0
0.658870 0.004753 0.174238 255 220 0
0.629021 -0.029807 0.154230 255 220 0
0.677642 0.072242 0.187088 255 220 0
0.636656 -0.024792 0.119526 255 220 0
0.658223 0.035203 0.120956 255 220 0
0.618072 -0.031936 0.156453 255 220 0
0.592051 -0.016069 0.152523 255 220 0
0.656890 0.032425 0.200077 255 220 0
0.589725 -0.006813 0.136408 255 220 0
0.680291 0.071124 0.170570 255 220 0
0.661117 0.036546 0.123783 255 220 0
0.657119 0.005010 0.132351 255 220 0
0.640308 0.030888 0.205549 255 220 0
0.625771 0.092347 0.195640 255 220 0
0.613997 0.002534 0.099954 255 220 0
0.615176 -0.026826 0.091638 255 220 0
0.619810 -0.035381 0.102058 255 220 0
0.630476 0.097464 0.193680 255 220 0
0.614912 -0.034891 0.095796 255 220 0
0.676019 0.032519 0.159096 255 220 0
0.610573 0.030469 0.119943 255 220 0
0.596789 0.019316 0.134900 255 220 0
0.633221 0.073931 0.131138 255 220 0
0.677578 0.074127 0.186974 255 220 0
0.634454 -0.000087 0.105258 255 220 0
0.672707 0.023813 0.167786 255 220 0
0.601059 0.054910 0.169299 255 220 0
0.658648 0.080975 0.135501 255 220 0
0.641072 0.060968 0.211035 255 220 0
0.650691 0.009340 0.188565 255 220 0
0.640589 -0.007116 0.112176 255 220 0
0.640851 0.099626 0.199231 255 220 0
0.640578 0.000650 0.186717 255 220 0
0.652053 0.082569 0.134572 255 220 0
0.605957 -0.042731 0.137422 255 220 0
0.667077 0.030865 0.190047 255 220 0
0.673160 0.056788 0.140117 255 220 0
0.605457 -0.023370 0.088477 255 220 0
0.593285 -0.004132 0.118750 255 220 0
0.619290 0.032179 0.203447 255 220 0
0.602829 0.028067 0.190180 255 220 0
0.610104 0.052514 0.136929 255 220 0
0.657477 0.099412 0.200028 255 220 0
0.656057 0.003026 0.176111 255 220 0
0.619994 -0.002500 0.098083 255 220 0
0.636113 0.017183 0.200160 255 220 0
0.634063 0.053775 0.117996 255 220 0
0.608678 0.073140 0.182491 255 220 0
0.649119 0.091841 0.206731 255 220 0
0.608235 -0.038064 0.147821 255 220 0
0.656338 -0.001884 0.138665 255 220 0
0.637996 0.102316 0.192651 255 220 0
0.599435 0.009568 0.118565 255 220 0
0.610982 0.077214 0.184863 255 220 0
0.657830 0.002937 0.173103 255 220 0
0.657244 0.093099 0.204693 255 220 0
0.610860 -0.043665 0.131249 255 220 0
0.671012 0.024325 0.148315 255 220 0
0.609522 0.043523 0.130562 255 220 0
0.675781 0.080123 0.190206 255 220 0
0.648118 -0.015805 0.140739 255 220 0
0.663588 0.013862 0.179215 255 220 0
0.610006 0.067959 0.191469 255 220 0
0.591501 -0.021813 0.145140 255 220 0
0.657840 0.004621 0.175765 255 220 0
0.677751 0.065872 0.152936 255 220 0
0.589436 -0.032433 0.104387 255 220 0
0.675148 0.060002 0.144531 255 220 0
0.676471 0.033667 0.159875 255 220 0
0.646013 0.003165 0.185953 255 220 0
0.614017 -0.039268 0.144117 255 220 0
0.675651 0.053898 0.144812 255 220 0
0.589560 -0.008857 0.134745 255 220 0
0.653968 0.017571 0.120203 255 220 0
0.650050 0.103361 0.161153 255 220 0
0.595598 -0.030742 0.092637 255 220 0
0.632449 0.008537 0.195574 255 220 0
0.650909 -0.011650 0.156359 255 220 0
0.641691 0.099120 0.155051 255 220 0
0.616399 0.066361 0.200737 255 220 0
0.673444 0.093297 0.185935 255 220 0
0.589695 -0.006971 0.147230 255 220 0
0.593615 -0.008462 0.111292 255 220 0
0.609531 0.010811 0.107214 255 220 0
0.642293 0.014356 0.196921 255 220 0
0.641152 -0.012229 0.172637 255 220 0
0.624917 0.096722 0.171323 255 220 0
0.637246 0.098987 0.157770 255 220 0
0.594066 -0.004771 0.166743 255 220 0
0.620394 0.048808 0.205791 255 220 0
0.650176 -0.012336 0.156926 255 220 0
0.655590 0.035455 0.118691 255 220 0
0.641347 0.069725 0.211306 255 220 0
0.680314 0.070756 0.173634 255 220 0
0.670179 0.098744 0.178587 255 220 0
0.597014 0.006256 0.177793 255 220 0
0.673312 0.063780 0.195836 255 220 0
0.598274 0.012535 0.181497 255 220 0
0.629024 0.026755 0.204440 255 220 0
0.652797 0.106559 0.171577 255 220 0
0.636673 -0.027534 0.146648 255 220 0
0.623917 0.004136 0.101299 255 220 0
0.600025 0.051502 0.165547 255 220 0
0.636416 -0.004819 0.183575 255 220 0
0.658466 0.001777 0.139545 255 220 0
0.591389 0.012389 0.156450 255 220 0
0.625710 -0.033789 0.109399 255 220 0
0.622717 0.095390 0.174042 255 220 0
0.644205 0.017207 0.198084 255 220 0
0.627199 -0.000816 0.101068 255 220 0
0.676548 0.084756 0.165115 255 220 0
0.634558 -0.004235 0.184875 255 220 0
0.680345 0.065763 0.176255 255 220 0
0.654121 0.107201 0.175530 255 220 0
0.596155 -0.043127 0.109019 255 220 0
0.616549 0.086423 0.165601 255 220 0
0.639687 0.094207 0.203953 255 220 0
0.605541 0.026670 0.193459 255 220 0
0.639040 -0.023013 0.122947 255 220 0
0.625817 0.059836 0.207636 255 220 0
0.634284 -0.030123 0.125295 255 220 0
0.596132 0.003459 0.119315 255 220 0
0.597528 -0.017234 0.093521 255 220 0
0.592273 -0.037749 0.124484 255 220 0
0.594749 0.029963 0.164628 255 220 0
0.656373 0.023581 0.121142 255 220 0
0.595337 -0.012049 0.165137 255 220 0
0.633653 0.019635 0.201680 255 220 0
0.621980 0.056610 0.126257 255 220 0
0.616201 -0.034597 0.096765 255 220 0
0.670133 0.048668 0.196348 255 220 0
0.631926 0.005112 0.193310 255 220 0
0.678509 0.048215 0.178733 255 220 0
