ply
format ascii 1.0
element vertex 1024
property float x
property float y
property float z
property uchar red
property uchar green
property uchar blue
end_header
0.404415 0.075510 0.168145 255 220 0
0.414560 0.158660 0.156922 255 220 0
0.428354 0.212650 0.225577 255 220 0
0.440843 0.178509 0.208634 255 220 0
0.430101 0.135996 0.174239 255 220 0
0.413137 0.151321 0.245590 255 220 0
0.416991 0.140077 0.156258 255 220 0
0.389456 0.213338 0.193534 255 220 0
0.382358 0.122895 0.235336 255 220 0
0.431795 0.190097 0.185892 255 220 0
0.387225 0.213436 0.196068 255 220 0
0.367322 0.193647 0.217931 255 220 0
0.377979 0.177533 0.176102 255 220 0
0.389238 0.107657 0.137106 255 220 0
0.416265 0.195965 0.173307 255 220 0
0.441044 0.176411 0.209716 255 220 0
0.436866 0.194900 0.206613 255 220 0
0.364719 0.134740 0.214297 255 220 0
0.389282 0.098055 0.132851 255 220 0
0.388577 0.159713 0.157951 255 220 0
0.412929 0.121501 0.151148 255 220 0
0.425371 0.208004 0.193402 255 220 0
0.398851 0.217194 0.244379 255 220 0
0.412194 0.222751 0.202589 255 220 0
0.392956 0.128976 0.240238 255 220 0
0.365999 0.109802 0.200172 255 220 0
0.427906 0.188687 0.178899 255 220 0
0.418782 0.189274 0.248010 255 220 0
0.390437 0.117213 0.141586 255 220 0
0.400950 0.136767 0.243351 255 220 0
0.367762 0.094292 0.181064 255 220 0
0.397745 0.112903 0.230722 255 220 0
0.439605 0.186102 0.209567 255 220 0
0.368324 0.091114 0.158784 255 220 0
0.421484 0.177659 0.167139 255 220 0
0.426908 0.116663 0.174581 255 220 0
0.362891 0.156952 0.203091 255 220 0
0.380401 0.091419 0.131746 255 220 0
0.365077 0.149635 0.189901 255 220 0
0.418074 0.224039 0.223569 255 220 0
0.405016 0.207844 0.180524 255 220 0
0.422099 0.107199 0.167768 255 220 0
0.423459 0.146836 0.162569 255 220 0
0.369641 0.199999 0.221306 255 220 0
0.394053 0.072870 0.183488 255 220 0
0.431297 0.119769 0.192765 255 220 0
0.368065 0.196047 0.217992 255 220 0
0.414033 0.204058 0.248563 255 220 0
0.420786 0.102497 0.201806 255 220 0
0.364988 0.112328 0.186503 255 220 0
0.417541 0.223897 0.216182 255 220 0
0.431056 0.187575 0.182772 255 220 0
0.402529 0.074389 0.172010 255 220 0
0.423675 0.201602 0.183943 255 220 0
0.383205 0.194962 0.180908 255 220 0
0.377386 0.124875 0.233131 255 220 0
0.365065 0.168498 0.224324 255 220 0
0.403961 0.198012 0.172127 255 220 0
0.404083 0.105613 0.141943 255 220 0
0.380197 0.095951 0.213943 255 220 0
0.413991 0.125182 0.152443 255 220 0
0.364931 0.112906 0.186750 255 220 0
0.369273 0.094098 0.189701 255 220 0
0.413614 0.215597 0.191050 255 220 0
0.384897 0.071193 0.181275 255 220 0
0.369502 0.128029 0.168954 255 220 0
0.369265 0.199383 0.218634 255 220 0
0.419791 0.095558 0.180141 255 220 0
0.414165 0.225565 0.228565 255 220 0
0.369643 0.148287 0.232613 255 220 0
0.423567 0.160870 0.163840 255 220 0
0.400612 0.144841 0.150275 255 220 0
0.388917 0.075040 0.189735 255 220 0
0.422532 0.138141 0.161637 255 220 0
0.362969 0.152234 0.200190 255 220 0
0.414098 0.114220 0.223313 255 220 0
0.413527 0.226116 0.220510 255 220 0
0.365850 0.141668 0.184147 255 220 0
0.419681 0.123117 0.225882 255 220 0
0.403318 0.090468 0.140841 255 220 0
0.364808 0.139856 0.216982 255 220 0
0.372706 0.076056 0.166335 255 220 0
0.410513 0.199259 0.173451 255 220 0
0.435077 0.158811 0.181062 255 220 0
0.365214 0.137602 0.185569 255 220 0
0.439665 0.157720 0.217595 255 220 0
0.367405 0.181815 0.229790 255 220 0
0.366423 0.149038 0.184769 255 220 0
0.407401 0.079536 0.178889 255 220 0
0.365803 0.187616 0.216967 255 220 0
0.404936 0.172533 0.158523 255 220 0
0.425562 0.217601 0.220202 255 220 0
0.372286 0.189065 0.238319 255 220 0
0.430522 0.171873 0.174710 255 220 0
0.424764 0.215642 0.204773 255 220 0
0.372768 0.206350 0.221699 255 220 0
0.399181 0.131667 0.241267 255 220 0
0.362797 0.152918 0.211134 255 220 0
0.432732 0.146888 0.177294 255 220 0
0.396897 0.070276 0.166552 255 220 0
0.402723 0.179003 0.252596 255 220 0
0.430227 0.158682 0.235723 255 220 0
0.407028 0.096087 0.144480 255 220 0
0.435512 0.192602 0.226200 255 220 0
0.418844 0.112219 0.217107 255 220 0
0.364041 0.150261 0.217818 255 220 0
0.380579 0.192839 0.246248 255 220 0
0.420532 0.154458 0.160175 255 220 0
0.433710 0.149969 0.227420 255 220 0
0.394644 0.142021 0.245483 255 220 0
0.430351 0.130464 0.176597 255 220 0
0.368516 0.130256 0.222889 255 220 0
0.367604 0.104755 0.167722 255 220 0
0.430727 0.163635 0.173230 255 220 0
0.385863 0.183926 0.249653 255 220 0
0.401156 0.160825 0.250606 255 220 0
0.406190 0.202041 0.175131 255 220 0
0.397037 0.087768 0.134801 255 220 0
0.404893 0.173493 0.158918 255 220 0
0.382605 0.217159 0.212733 255 220 0
0.413490 0.226036 0.227307 255 220 0
0.434651 0.132825 0.210480 255 220 0
0.396784 0.172812 0.159575 255 220 0
0.395518 0.225348 0.213320 255 220 0
0.371032 0.143380 0.233206 255 220 0
0.362913 0.132872 0.203219 255 220 0
0.385959 0.196444 0.179412 255 220 0
0.384082 0.066256 0.162589 255 220 0
0.406517 0.077694 0.172440 255 220 0
0.421674 0.140533 0.236216 255 220 0
0.438313 0.178598 0.224615 255 220 0
0.441323 0.163764 0.212439 255 220 0
0.368942 0.085108 0.147398 255 220 0
0.416012 0.091174 0.188775 255 220 0
0.365802 0.151160 0.224474 255 220 0
0.394102 0.099389 0.134608 255 220 0
0.420288 0.222528 0.220614 255 220 0
0.414185 0.098637 0.206906 255 220 0
0.390335 0.091593 0.131290 255 220 0
0.379775 0.140239 0.157866 255 220 0
0.396830 0.131120 0.241187 255 220 0
0.420260 0.102645 0.203267 255 220 0
0.379311 0.131338 0.154713 255 220 0
0.420021 0.216064 0.238803 255 220 0
0.428055 0.207990 0.198551 255 220 0
0.365463 0.151045 0.189000 255 220 0
0.400496 0.110164 0.227750 255 220 0
0.368695 0.083273 0.159603 255 220 0
0.401287 0.106150 0.140161 255 220 0
0.404983 0.135748 0.242174 255 220 0
0.369409 0.159875 0.181677 255 220 0
0.366313 0.152294 0.226315 255 220 0
0.415794 0.097575 0.158499 255 220 0
0.403630 0.075319 0.158085 255 220 0
0.364193 0.125711 0.207003 255 220 0
0.368284 0.182355 0.231951 255 220 0
0.365156 0.146240 0.188287 255 220 0
0.372054 0.116920 0.158007 255 220 0
0.421164 0.220840 0.229710 255 220 0
0.428255 0.126599 0.173077 255 220 0
0.365798 0.111252 0.180342 255 220 0
0.431107 0.190517 0.185006 255 220 0
0.398771 0.183072 0.252843 255 220 0
0.374900 0.129479 0.159533 255 220 0
0.418283 0.202719 0.179867 255 220 0
0.403075 0.087670 0.201948 255 220 0
0.372797 0.153888 0.172775 255 220 0
0.363186 0.155403 0.200413 255 220 0
0.385055 0.184680 0.249293 255 220 0
0.431845 0.200043 0.196506 255 220 0
0.416785 0.131730 0.234557 255 220 0
0.415956 0.138693 0.239162 255 220 0
0.376419 0.205527 0.235330 255 220 0
0.408091 0.221851 0.240103 255 220 0
0.366074 0.183176 0.224753 255 220 0
0.399687 0.214857 0.246206 255 220 0
0.427396 0.132462 0.169698 255 220 0
0.363191 0.126907 0.197699 255 220 0
0.421087 0.106318 0.207256 255 220 0
0.421938 0.173975 0.166037 255 220 0
0.375498 0.168579 0.242542 255 220 0
0.409247 0.120078 0.231076 255 220 0
0.419867 0.105073 0.163496 255 220 0
0.385966 0.183142 0.249684 255 220 0
0.374303 0.087262 0.193414 255 220 0
0.412274 0.143912 0.153622 255 220 0
0.403504 0.225669 0.208976 255 220 0
0.434153 0.134123 0.185427 255 220 0
0.386266 0.184016 0.249826 255 220 0
0.400302 0.131061 0.146952 255 220 0
0.366137 0.129135 0.180188 255 220 0
0.439412 0.166640 0.222351 255 220 0
0.369558 0.133498 0.226705 255 220 0
0.406630 0.078018 0.174157 255 220 0
0.427025 0.148783 0.235474 255 220 0
0.440596 0.180581 0.206776 255 220 0
0.405098 0.176668 0.252159 255 220 0
0.423196 0.104023 0.175073 255 220 0
0.382115 0.204012 0.190259 255 220 0
0.421052 0.152248 0.160397 255 220 0
0.433357 0.153603 0.229649 255 220 0
0.381699 0.214444 0.232399 255 220 0
0.363665 0.164428 0.217809 255 220 0
0.368697 0.183876 0.232584 255 220 0
0.424804 0.182454 0.244193 255 220 0
0.419262 0.111513 0.215952 255 220 0
0.386358 0.218821 0.232366 255 220 0
0.363983 0.173571 0.208804 255 220 0
0.420861 0.216783 0.199322 255 220 0
0.381854 0.140553 0.241312 255 220 0
0.405212 0.227977 0.225675 255 220 0
0.403029 0.214078 0.246985 255 220 0
0.407922 0.096745 0.210409 255 220 0
0.419477 0.128334 0.230127 255 220 0
0.363723 0.173801 0.213058 255 220 0
0.402607 0.081534 0.192739 255 220 0
0.432367 0.197744 0.231545 255 220 0
0.421529 0.130561 0.229940 255 220 0
0.422771 0.212798 0.238133 255 220 0
0.394441 0.088111 0.207250 255 220 0
0.429133 0.117233 0.182014 255 220 0
0.392596 0.126391 0.145280 255 220 0
0.381540 0.072516 0.139143 255 220 0
0.422223 0.221005 0.221423 255 220 0
0.372029 0.204489 0.213652 255 220 0
0.370071 0.081943 0.168518 255 220 0
0.425948 0.108368 0.196089 255 220 0
0.404530 0.162228 0.250496 255 220 0
0.401478 0.128868 0.239525 255 220 0
0.372140 0.112345 0.219044 255 220 0
0.430523 0.133022 0.220754 255 220 0
0.382251 0.066655 0.161327 255 220 0
0.366325 0.108527 0.176839 255 220 0
0.394337 0.070498 0.175824 255 220 0
0.362666 0.143925 0.199783 255 220 0
0.365020 0.154289 0.222726 255 220 0
0.402759 0.112010 0.228232 255 220 0
0.401376 0.220950 0.197628 255 220 0
0.433845 0.202669 0.209108 255 220 0
0.434388 0.180924 0.233758 255 220 0
0.406183 0.113904 0.228064 255 220 0
0.369228 0.149528 0.232241 255 220 0
0.408284 0.223404 0.202430 255 220 0
0.435542 0.195322 0.200843 255 220 0
0.415224 0.097143 0.203375 255 220 0
0.416036 0.203625 0.247648 255 220 0
0.381681 0.192082 0.180445 255 220 0
0.370982 0.121505 0.162688 255 220 0
0.405251 0.228000 0.225276 255 220 0
0.391274 0.218783 0.238988 255 220 0
0.366681 0.173289 0.229154 255 220 0
0.385488 0.079783 0.196330 255 220 0
0.433072 0.125140 0.191197 255 220 0
0.367061 0.192579 0.218783 255 220 0
0.402102 0.215330 0.246164 255 220 0
0.381652 0.205248 0.192256 255 220 0
0.384025 0.152595 0.158547 255 220 0
0.366756 0.107452 0.200421 255 220 0
0.396547 0.077379 0.190588 255 220 0
0.389801 0.172749 0.250619 255 220 0
0.426743 0.169363 0.169078 255 220 0
0.381065 0.178650 0.247026 255 220 0
0.369037 0.197529 0.211945 255 220 0
0.384745 0.137680 0.241541 255 220 0
0.368252 0.170386 0.232830 255 220 0
0.377244 0.157355 0.243129 255 220 0
0.411911 0.083926 0.177069 255 220 0
0.375949 0.128726 0.233498 255 220 0
0.363039 0.142694 0.196684 255 220 0
0.417467 0.224348 0.221166 255 220 0
0.373065 0.154098 0.238676 255 220 0
0.402062 0.217893 0.244329 255 220 0
0.386582 0.153029 0.156737 255 220 0
0.435450 0.192471 0.196458 255 220 0
0.365593 0.131749 0.215750 255 220 0
0.422980 0.111445 0.210660 255 220 0
0.393202 0.202019 0.178782 255 220 0
0.398162 0.089676 0.207698 255 220 0
0.398383 0.137385 0.243809 255 220 0
0.372524 0.166309 0.239289 255 220 0
0.365227 0.184299 0.213619 255 220 0
0.416599 0.105508 0.156668 255 220 0
0.380615 0.067817 0.163849 255 220 0
0.385639 0.180391 0.249453 255 220 0
0.418625 0.191793 0.172126 255 220 0
0.407142 0.168547 0.250975 255 220 0
0.398443 0.147717 0.150907 255 220 0
0.418497 0.217851 0.198158 255 220 0
0.373666 0.103495 0.145468 255 220 0
0.366224 0.155738 0.188361 255 220 0
0.368213 0.102740 0.163504 255 220 0
0.377162 0.116622 0.228630 255 220 0
0.366731 0.160248 0.188784 255 220 0
0.391644 0.207441 0.184730 255 220 0
0.400922 0.089272 0.138338 255 220 0
0.406238 0.182054 0.162917 255 220 0
0.415092 0.134079 0.237096 255 220 0
0.363164 0.167004 0.212669 255 220 0
0.415844 0.191284 0.170317 255 220 0
0.380874 0.178426 0.246902 255 220 0
0.420206 0.166896 0.162424 255 220 0
0.377274 0.119319 0.230286 255 220 0
0.374724 0.193438 0.191386 255 220 0
0.406325 0.107047 0.143934 255 220 0
0.370897 0.200553 0.209104 255 220 0
0.363395 0.137594 0.209922 255 220 0
0.364925 0.115476 0.185817 255 220 0
0.372594 0.151386 0.237561 255 220 0
0.367875 0.167172 0.188856 255 220 0
0.384030 0.066089 0.156206 255 220 0
0.401838 0.075371 0.179159 255 220 0
0.393105 0.068238 0.155798 255 220 0
0.411760 0.191800 0.169042 255 220 0
0.421907 0.108247 0.208427 255 220 0
0.437934 0.173197 0.189230 255 220 0
0.388565 0.095590 0.217185 255 220 0
0.418315 0.125771 0.156774 255 220 0
0.409919 0.183659 0.251690 255 220 0
0.430681 0.119994 0.185621 255 220 0
0.378144 0.210305 0.206267 255 220 0
0.401291 0.208715 0.181853 255 220 0
0.429434 0.138853 0.172239 255 220 0
0.427533 0.116366 0.176742 255 220 0
0.419432 0.161065 0.245094 255 220 0
0.403318 0.130465 0.239956 255 220 0
0.411921 0.107624 0.149594 255 220 0
0.437566 0.185972 0.223347 255 220 0
0.383654 0.140550 0.242116 255 220 0
0.404596 0.082026 0.147209 255 220 0
0.396249 0.203387 0.178471 255 220 0
0.401484 0.081235 0.193289 255 220 0
0.363325 0.169555 0.211527 255 220 0
0.416312 0.218396 0.239993 255 220 0
0.421142 0.116813 0.218861 255 220 0
0.431518 0.131252 0.179228 255 220 0
0.399635 0.213416 0.187335 255 220 0
0.383249 0.118127 0.233397 255 220 0
0.375351 0.167143 0.174594 255 220 0
0.419509 0.172163 0.163626 255 220 0
0.386105 0.149198 0.246049 255 220 0
0.365461 0.113986 0.182445 255 220 0
0.414619 0.142474 0.241696 255 220 0
0.373335 0.121289 0.157928 255 220 0
0.383905 0.071103 0.141151 255 220 0
0.428884 0.165618 0.170843 255 220 0
0.431666 0.157724 0.233623 255 220 0
0.420788 0.105517 0.206661 255 220 0
0.367526 0.194201 0.215450 255 220 0
0.426025 0.185747 0.243118 255 220 0
0.420815 0.126896 0.227830 255 220 0
0.363787 0.151925 0.217117 255 220 0
0.403642 0.227599 0.228543 255 220 0
0.368324 0.095737 0.160666 255 220 0
0.368151 0.139351 0.176328 255 220 0
0.368603 0.098418 0.194341 255 220 0
0.378027 0.153731 0.165267 255 220 0
0.379290 0.068007 0.158978 255 220 0
0.393232 0.068946 0.170077 255 220 0
0.364845 0.136663 0.186913 255 220 0
0.419447 0.216165 0.239325 255 220 0
0.439480 0.182100 0.198652 255 220 0
0.378170 0.069424 0.163283 255 220 0
0.430544 0.197574 0.190564 255 220 0
0.369292 0.084765 0.169722 255 220 0
0.366635 0.099578 0.182396 255 220 0
0.426900 0.166660 0.241070 255 220 0
0.418943 0.140428 0.157921 255 220 0
0.418466 0.174271 0.247636 255 220 0
0.382222 0.213472 0.203745 255 220 0
0.371251 0.134861 0.230265 255 220 0
0.406678 0.085623 0.195568 255 220 0
0.398263 0.219002 0.195528 255 220 0
0.400463 0.164549 0.251209 255 220 0
0.415795 0.147451 0.243099 255 220 0
0.363473 0.142921 0.212578 255 220 0
0.363703 0.160714 0.200677 255 220 0
0.440816 0.162224 0.198902 255 220 0
0.412011 0.136740 0.152560 255 220 0
0.388278 0.208122 0.188073 255 220 0
0.395567 0.226358 0.219019 255 220 0
0.389718 0.098270 0.219993 255 220 0
0.370724 0.123212 0.223808 255 220 0
0.424984 0.215786 0.205762 255 220 0
0.398405 0.139825 0.149038 255 220 0
0.416104 0.176617 0.248976 255 220 0
0.379442 0.151416 0.162618 255 220 0
0.440353 0.155782 0.212515 255 220 0
0.383029 0.156304 0.160846 255 220 0
0.371811 0.086821 0.138056 255 220 0
0.417396 0.186846 0.248815 255 220 0
0.408286 0.112880 0.146292 255 220 0
0.384701 0.180656 0.170499 255 220 0
0.408633 0.110412 0.223843 255 220 0
0.370711 0.199012 0.207110 255 220 0
0.421781 0.221388 0.221949 255 220 0
0.430722 0.202172 0.232204 255 220 0
0.369580 0.193659 0.230399 255 220 0
0.370395 0.125536 0.224468 255 220 0
0.363999 0.176128 0.215028 255 220 0
0.431198 0.206985 0.225359 255 220 0
0.388789 0.152229 0.155105 255 220 0
0.413731 0.100561 0.153173 255 220 0
0.381710 0.201525 0.188214 255 220 0
0.427657 0.214805 0.220059 255 220 0
0.364830 0.139270 0.187513 255 220 0
0.401604 0.196347 0.171308 255 220 0
0.396428 0.205018 0.179850 255 220 0
0.377153 0.121019 0.231093 255 220 0
0.374285 0.162204 0.173990 255 220 0
0.431653 0.206146 0.206647 255 220 0
0.408103 0.103767 0.145366 255 220 0
0.368214 0.096109 0.161731 255 220 0
0.362549 0.149143 0.207621 255 220 0
0.390279 0.152048 0.154276 255 220 0
0.398834 0.162466 0.155025 255 220 0
0.421555 0.195265 0.245592 255 220 0
0.424252 0.123699 0.165657 255 220 0
0.412777 0.085648 0.181657 255 220 0
0.369579 0.103243 0.157147 255 220 0
0.428947 0.143621 0.170581 255 220 0
0.366670 0.180897 0.227839 255 220 0
0.416831 0.108424 0.215487 255 220 0
0.423034 0.198477 0.243765 255 220 0
0.376051 0.076493 0.137683 255 220 0
0.369121 0.103410 0.203310 255 220 0
0.440702 0.176912 0.201083 255 220 0
0.372828 0.183005 0.187064 255 220 0
0.388174 0.084244 0.203151 255 220 0
0.366619 0.189215 0.222252 255 220 0
0.392583 0.082744 0.132757 255 220 0
0.411192 0.226416 0.216481 255 220 0
0.406177 0.202941 0.251211 255 220 0
0.402693 0.220881 0.241645 255 220 0
0.389411 0.204938 0.248234 255 220 0
0.414101 0.096508 0.203991 255 220 0
0.370974 0.077366 0.147113 255 220 0
0.429458 0.210372 0.207767 255 220 0
0.368561 0.187391 0.200802 255 220 0
0.433450 0.174096 0.235369 255 220 0
0.365482 0.124707 0.211451 255 220 0
0.428336 0.213111 0.211453 255 220 0
0.368692 0.191005 0.229568 255 220 0
0.401325 0.222043 0.199765 255 220 0
0.440730 0.178952 0.204048 255 220 0
0.422350 0.101763 0.175323 255 220 0
0.380583 0.213591 0.207661 255 220 0
0.404850 0.077356 0.155349 255 220 0
0.386061 0.188085 0.249744 255 220 0
0.363745 0.165117 0.218253 255 220 0
0.377434 0.212782 0.217102 255 220 0
0.440208 0.152792 0.200615 255 220 0
0.403492 0.090690 0.141009 255 220 0
0.427513 0.193663 0.240563 255 220 0
0.411505 0.179201 0.162652 255 220 0
0.397829 0.218124 0.194333 255 220 0
0.419081 0.127511 0.229857 255 220 0
0.423547 0.115521 0.166800 255 220 0
0.434315 0.128484 0.193587 255 220 0
0.435721 0.199000 0.213456 255 220 0
0.399930 0.080515 0.193388 255 220 0
0.389762 0.089893 0.210531 255 220 0
0.441190 0.159897 0.203826 255 220 0
0.439845 0.169048 0.194070 255 220 0
0.369619 0.093749 0.190440 255 220 0
0.368826 0.145682 0.230261 255 220 0
0.399748 0.216528 0.245064 255 220 0
0.372967 0.092977 0.138743 255 220 0
0.396264 0.126304 0.145091 255 220 0
0.392848 0.146219 0.151472 255 220 0
0.421921 0.174893 0.166373 255 220 0
0.378955 0.199721 0.242906 255 220 0
0.411646 0.181918 0.163945 255 220 0
0.414364 0.098493 0.155055 255 220 0
0.368218 0.130213 0.222170 255 220 0
0.404820 0.130805 0.148074 255 220 0
0.369608 0.121929 0.220811 255 220 0
0.435509 0.195238 0.223886 255 220 0
0.438222 0.187891 0.218679 255 220 0
0.393138 0.189588 0.169867 255 220 0
0.370470 0.153605 0.176787 255 220 0
0.431867 0.198778 0.232030 255 220 0
0.368052 0.195311 0.221533 255 220 0
0.376942 0.158982 0.243096 255 220 0
0.380875 0.185429 0.177041 255 220 0
0.417852 0.210028 0.187130 255 220 0
0.398046 0.070736 0.162277 255 220 0
0.371041 0.086225 0.181979 255 220 0
0.389958 0.141189 0.150930 255 220 0
0.390259 0.185562 0.251329 255 220 0
0.373172 0.126818 0.229584 255 220 0
0.440031 0.183086 0.203426 255 220 0
0.393768 0.223982 0.210756 255 220 0
0.402330 0.080737 0.191609 255 220 0
0.385936 0.183916 0.249684 255 220 0
0.395139 0.081075 0.197237 255 220 0
0.366831 0.137725 0.179585 255 220 0
0.426701 0.156174 0.166725 255 220 0
0.433685 0.164249 0.232995 255 220 0
0.369396 0.097264 0.154100 255 220 0
0.396562 0.117419 0.234058 255 220 0
0.394599 0.126745 0.239298 255 220 0
0.369327 0.083136 0.166373 255 220 0
0.402222 0.102746 0.140075 255 220 0
0.418473 0.103334 0.207480 255 220 0
0.366701 0.160100 0.188810 255 220 0
0.365657 0.155627 0.190331 255 220 0
0.410621 0.176417 0.161167 255 220 0
0.375599 0.193810 0.190180 255 220 0
0.434648 0.170065 0.181222 255 220 0
0.374564 0.180787 0.241869 255 220 0
0.394751 0.076223 0.189777 255 220 0
0.374637 0.109855 0.148306 255 220 0
0.401426 0.075548 0.149944 255 220 0
0.404720 0.107270 0.223363 255 220 0
0.379572 0.078424 0.188807 255 220 0
0.369169 0.081947 0.148567 255 220 0
0.423047 0.201525 0.243005 255 220 0
0.372317 0.096360 0.202362 255 220 0
0.366389 0.141002 0.222485 255 220 0
0.440366 0.171917 0.218894 255 220 0
0.421521 0.187346 0.171694 255 220 0
0.414179 0.184927 0.166296 255 220 0
0.416190 0.104600 0.156208 255 220 0
0.430791 0.209709 0.218665 255 220 0
0.364527 0.117440 0.201363 255 220 0
0.406563 0.085239 0.195023 255 220 0
0.409989 0.226006 0.231915 255 220 0
0.384508 0.193491 0.178546 255 220 0
0.418728 0.101453 0.204360 255 220 0
0.392654 0.096202 0.133103 255 220 0
0.379783 0.118144 0.146980 255 220 0
0.425835 0.110008 0.177465 255 220 0
0.406306 0.078433 0.178151 255 220 0
0.399129 0.225684 0.233107 255 220 0
0.395068 0.140529 0.244961 255 220 0
0.432254 0.198967 0.196125 255 220 0
0.369246 0.151635 0.178476 255 220 0
0.406726 0.166926 0.156612 255 220 0
0.389804 0.148567 0.153346 255 220 0
0.370595 0.077177 0.158883 255 220 0
0.421551 0.170389 0.164484 255 220 0
0.399982 0.146809 0.150672 255 220 0
0.418944 0.096952 0.168482 255 220 0
0.370670 0.132225 0.228192 255 220 0
0.417912 0.169531 0.247385 255 220 0
0.431434 0.122009 0.203281 255 220 0
0.363902 0.164288 0.201919 255 220 0
0.365234 0.183780 0.212449 255 220 0
0.378905 0.184983 0.245639 255 220 0
0.438673 0.149665 0.193086 255 220 0
0.384090 0.184469 0.173181 255 220 0
0.416388 0.121422 0.227399 255 220 0
0.362906 0.161480 0.206242 255 220 0
0.413356 0.125189 0.151896 255 220 0
0.373234 0.076488 0.141608 255 220 0
0.417965 0.123237 0.156392 255 220 0
0.368189 0.109254 0.165644 255 220 0
0.433690 0.130790 0.186271 255 220 0
0.422238 0.170374 0.245054 255 220 0
0.433865 0.128371 0.205362 255 220 0
0.413590 0.113824 0.223358 255 220 0
0.418951 0.109749 0.214521 255 220 0
0.366507 0.166628 0.228779 255 220 0
0.368461 0.121277 0.169146 255 220 0
0.405893 0.108203 0.223528 255 220 0
0.366980 0.124615 0.175718 255 220 0
0.389266 0.208874 0.246189 255 220 0
0.395311 0.148744 0.247844 255 220 0
0.417158 0.190082 0.170324 255 220 0
0.369244 0.144275 0.230572 255 220 0
0.411047 0.222096 0.200341 255 220 0
0.440266 0.182337 0.209889 255 220 0
0.405029 0.082707 0.147352 255 220 0
0.403583 0.208210 0.180981 255 220 0
0.438891 0.145388 0.198535 255 220 0
0.398089 0.134393 0.147625 255 220 0
0.369828 0.078481 0.156908 255 220 0
0.404421 0.155073 0.152868 255 220 0
0.421952 0.099425 0.185436 255 220 0
0.407287 0.209286 0.182029 255 220 0
0.437592 0.139380 0.205687 255 220 0
0.413190 0.194856 0.171285 255 220 0
0.370861 0.093460 0.194143 255 220 0
0.392332 0.224145 0.213962 255 220 0
0.365842 0.108627 0.180474 255 220 0
0.363182 0.140406 0.209993 255 220 0
0.366342 0.104961 0.177469 255 220 0
0.375905 0.100508 0.214069 255 220 0
0.420590 0.097110 0.185881 255 220 0
0.390887 0.212492 0.191111 255 220 0
0.433425 0.153869 0.177874 255 220 0
0.396946 0.090249 0.209014 255 220 0
0.429960 0.116754 0.196415 255 220 0
0.438416 0.148709 0.192467 255 220 0
0.384300 0.209688 0.194350 255 220 0
0.415861 0.132921 0.235924 255 220 0
0.426296 0.114518 0.174336 255 220 0
0.368189 0.116472 0.213689 255 220 0
0.381602 0.119600 0.233402 255 220 0
0.434891 0.150111 0.181530 255 220 0
0.375598 0.097426 0.138052 255 220 0
0.432455 0.182634 0.182066 255 220 0
0.365789 0.154571 0.225325 255 220 0
0.409199 0.227205 0.218887 255 220 0
0.433869 0.147699 0.179606 255 220 0
0.386948 0.108522 0.228495 255 220 0
0.368484 0.091956 0.157138 255 220 0
0.430815 0.179342 0.238766 255 220 0
0.433625 0.150794 0.227972 255 220 0
0.368621 0.165659 0.233391 255 220 0
0.398382 0.071716 0.153053 255 220 0
0.434220 0.199423 0.203046 255 220 0
0.368198 0.155096 0.231487 255 220 0
0.375573 0.202343 0.236860 255 220 0
0.403422 0.111559 0.142717 255 220 0
0.386136 0.218042 0.233677 255 220 0
0.393217 0.180755 0.251959 255 220 0
0.410228 0.081803 0.165786 255 220 0
0.412142 0.144699 0.243718 255 220 0
0.426697 0.212207 0.202415 255 220 0
0.363373 0.124714 0.196317 255 220 0
0.424307 0.217584 0.229163 255 220 0
0.398457 0.133703 0.147456 255 220 0
0.370755 0.105935 0.210445 255 220 0
0.367955 0.107153 0.204272 255 220 0
0.380789 0.171304 0.169650 255 220 0
0.407649 0.120688 0.232338 255 220 0
0.410864 0.105228 0.217541 255 220 0
0.436490 0.172154 0.185514 255 220 0
0.395302 0.164964 0.251079 255 220 0
0.375209 0.075157 0.172665 255 220 0
0.424976 0.151307 0.164364 255 220 0
0.434702 0.200892 0.209375 255 220 0
0.404171 0.103947 0.220652 255 220 0
0.428551 0.211772 0.207673 255 220 0
0.372236 0.181890 0.187456 255 220 0
0.439896 0.168349 0.194177 255 220 0
0.382575 0.081910 0.197637 255 220 0
0.428543 0.213525 0.216896 255 220 0
0.396675 0.223046 0.204793 255 220 0
0.367914 0.115729 0.169052 255 220 0
0.374256 0.133762 0.162408 255 220 0
0.434822 0.134544 0.187487 255 220 0
0.385003 0.068196 0.173288 255 220 0
0.428955 0.200118 0.190291 255 220 0
0.408034 0.218536 0.193182 255 220 0
0.391766 0.070938 0.143617 255 220 0
0.410290 0.084408 0.186770 255 220 0
0.418184 0.222880 0.212011 255 220 0
0.400056 0.100116 0.219022 255 220 0
0.404370 0.105175 0.142092 255 220 0
0.422512 0.140822 0.235678 255 220 0
0.391675 0.178645 0.251475 255 220 0
0.383193 0.169350 0.166245 255 220 0
0.418640 0.223632 0.224880 255 220 0
0.401600 0.137046 0.148697 255 220 0
0.401605 0.073200 0.166669 255 220 0
0.386289 0.083023 0.130795 255 220 0
0.406168 0.079592 0.154132 255 220 0
0.424451 0.113824 0.169679 255 220 0
0.377573 0.156188 0.166855 255 220 0
0.437598 0.141252 0.209973 255 220 0
0.368938 0.189826 0.201869 255 220 0
0.392127 0.156753 0.249416 255 220 0
0.385421 0.202556 0.185054 255 220 0
0.389256 0.098127 0.132874 255 220 0
0.379456 0.104112 0.221414 255 220 0
0.368240 0.095999 0.161468 255 220 0
0.410026 0.174949 0.160381 255 220 0
0.365492 0.115033 0.203835 255 220 0
0.378031 0.134013 0.157326 255 220 0
0.364600 0.160055 0.222148 255 220 0
0.425683 0.182865 0.173119 255 220 0
0.436066 0.144509 0.219322 255 220 0
0.404394 0.199166 0.172931 255 220 0
0.372490 0.102528 0.147263 255 220 0
0.418135 0.118426 0.156824 255 220 0
0.432201 0.127757 0.183297 255 220 0
0.429364 0.188218 0.180607 255 220 0
0.369363 0.190250 0.231915 255 220 0
0.440355 0.156648 0.213440 255 220 0
0.436819 0.135919 0.201384 255 220 0
0.396975 0.163285 0.251008 255 220 0
0.439840 0.176256 0.219486 255 220 0
0.378144 0.131419 0.236200 255 220 0
0.383813 0.089773 0.130497 255 220 0
0.374212 0.120692 0.156042 255 220 0
0.427142 0.110370 0.194799 255 220 0
0.399770 0.087132 0.137524 255 220 0
0.371810 0.189571 0.193932 255 220 0
0.421702 0.191609 0.245980 255 220 0
0.416947 0.224541 0.219646 255 220 0
0.438366 0.142951 0.207298 255 220 0
0.407991 0.219702 0.194979 255 220 0
0.405943 0.133334 0.240712 255 220 0
0.390348 0.183823 0.251314 255 220 0
0.434071 0.167207 0.179597 255 220 0
0.415445 0.160163 0.157719 255 220 0
0.370818 0.080917 0.170031 255 220 0
0.441520 0.166223 0.211304 255 220 0
0.377060 0.178138 0.244170 255 220 0
0.393989 0.082702 0.133638 255 220 0
0.429063 0.118867 0.179819 255 220 0
0.366309 0.155666 0.188032 255 220 0
0.390865 0.189444 0.171038 255 220 0
0.435209 0.181553 0.186598 255 220 0
0.373787 0.095160 0.138942 255 220 0
0.379306 0.083063 0.195861 255 220 0
0.421427 0.137468 0.160345 255 220 0
0.419379 0.125680 0.228204 255 220 0
0.393974 0.092235 0.212631 255 220 0
0.371180 0.085235 0.139096 255 220 0
0.409938 0.132185 0.150664 255 220 0
0.386728 0.138220 0.242414 255 220 0
0.371621 0.183360 0.189657 255 220 0
0.406930 0.079495 0.156884 255 220 0
0.388232 0.130624 0.148023 255 220 0
0.384723 0.212978 0.198657 255 220 0
0.431691 0.122180 0.187597 255 220 0
0.411172 0.171129 0.250256 255 220 0
0.373557 0.202882 0.204543 255 220 0
0.408141 0.217331 0.244435 255 220 0
0.376768 0.153722 0.242117 255 220 0
0.369960 0.166400 0.183506 255 220 0
0.367469 0.128192 0.219277 255 220 0
0.436183 0.183871 0.190158 255 220 0
0.367078 0.096952 0.178445 255 220 0
0.417382 0.220687 0.202507 255 220 0
0.383664 0.208917 0.241971 255 220 0
0.364168 0.125599 0.206799 255 220 0
0.382800 0.183320 0.248139 255 220 0
0.368463 0.090247 0.156058 255 220 0
0.412484 0.226584 0.222034 255 220 0
0.414368 0.189944 0.250199 255 220 0
0.385415 0.215720 0.202519 255 220 0
0.439949 0.176293 0.196588 255 220 0
0.412581 0.216684 0.243544 255 220 0
0.374243 0.203804 0.232776 255 220 0
0.366875 0.109499 0.203411 255 220 0
0.395428 0.182439 0.164723 255 220 0
0.366933 0.112219 0.173113 255 220 0
0.394217 0.205342 0.249841 255 220 0
0.433824 0.133582 0.214302 255 220 0
0.417213 0.209379 0.245107 255 220 0
0.395340 0.097558 0.134630 255 220 0
0.404713 0.196896 0.171303 255 220 0
0.374940 0.120274 0.228439 255 220 0
0.425740 0.217344 0.217746 255 220 0
0.367379 0.143640 0.226223 255 220 0
0.438238 0.141346 0.202198 255 220 0
0.384711 0.219466 0.225058 255 220 0
0.373838 0.090352 0.197155 255 220 0
0.437351 0.187506 0.223129 255 220 0
0.375732 0.104395 0.142651 255 220 0
0.415317 0.116058 0.153372 255 220 0
0.405949 0.161194 0.250079 255 220 0
0.369511 0.093964 0.150064 255 220 0
0.363177 0.166563 0.208547 255 220 0
0.382322 0.146615 0.157772 255 220 0
0.391498 0.208245 0.247623 255 220 0
0.365244 0.179239 0.222907 255 220 0
0.415682 0.117545 0.153779 255 220 0
0.406393 0.216144 0.189741 255 220 0
0.426826 0.113816 0.205226 255 220 0
0.421140 0.125182 0.226136 255 220 0
0.411446 0.141847 0.242828 255 220 0
0.435655 0.172513 0.183803 255 220 0
0.369804 0.115703 0.216988 255 220 0
0.440821 0.178040 0.210468 255 220 0
0.366883 0.112198 0.173403 255 220 0
0.416596 0.102888 0.157548 255 220 0
0.379676 0.082236 0.132087 255 220 0
0.375768 0.161833 0.171686 255 220 0
0.404856 0.163724 0.155307 255 220 0
0.364343 0.137916 0.214390 255 220 0
0.365849 0.123529 0.211924 255 220 0
0.394708 0.088113 0.133060 255 220 0
0.430913 0.150949 0.232008 255 220 0
0.394448 0.182787 0.252294 255 220 0
0.371957 0.085546 0.183934 255 220 0
0.371596 0.161939 0.178308 255 220 0
0.413674 0.130799 0.235921 255 220 0
0.387224 0.066111 0.159809 255 220 0
0.367944 0.115692 0.168922 255 220 0
0.373938 0.208099 0.222531 255 220 0
0.381266 0.144824 0.158115 255 220 0
0.440785 0.178076 0.203253 255 220 0
0.412501 0.084637 0.176938 255 220 0
0.413346 0.085762 0.177391 255 220 0
0.434936 0.146798 0.182319 255 220 0
0.385129 0.194261 0.178530 255 220 0
0.372839 0.168959 0.179333 255 220 0
0.363737 0.151532 0.196091 255 220 0
0.374998 0.152403 0.240316 255 220 0
0.421028 0.184039 0.246774 255 220 0
0.412613 0.129510 0.235712 255 220 0
0.366488 0.120591 0.211965 255 220 0
0.376950 0.149428 0.164920 255 220 0
0.427515 0.138681 0.229407 255 220 0
0.370290 0.113309 0.216178 255 220 0
0.424326 0.170205 0.166806 255 220 0
0.432753 0.191170 0.234106 255 220 0
0.365445 0.172081 0.200537 255 220 0
0.404994 0.089662 0.203308 255 220 0
0.397505 0.169506 0.251735 255 220 0
0.415717 0.202357 0.177895 255 220 0
0.426628 0.152772 0.237452 255 220 0
0.400546 0.093170 0.210874 255 220 0
0.431466 0.205671 0.226509 255 220 0
0.393776 0.212877 0.245846 255 220 0
0.383100 0.085880 0.203566 255 220 0
0.396193 0.109359 0.228575 255 220 0
0.380421 0.143295 0.158382 255 220 0
0.364298 0.118984 0.189423 255 220 0
0.409000 0.080131 0.167030 255 220 0
0.374178 0.077355 0.174555 255 220 0
0.436086 0.162811 0.228602 255 220 0
0.387139 0.067847 0.172697 255 220 0
0.404179 0.223251 0.238696 255 220 0
0.397580 0.093822 0.213179 255 220 0
0.405226 0.211727 0.248199 255 220 0
0.372366 0.170663 0.239237 255 220 0
0.431197 0.119604 0.191379 255 220 0
0.428676 0.140959 0.229504 255 220 0
0.429467 0.211927 0.220445 255 220 0
0.411193 0.093060 0.151548 255 220 0
0.377974 0.073880 0.139064 255 220 0
0.418952 0.220842 0.205433 255 220 0
0.395655 0.069467 0.163901 255 220 0
0.363298 0.137620 0.209381 255 220 0
0.413628 0.159131 0.247418 255 220 0
0.436841 0.139278 0.210961 255 220 0
0.362824 0.159450 0.211471 255 220 0
0.418671 0.198068 0.176225 255 220 0
0.416991 0.141735 0.156388 255 220 0
0.418782 0.093899 0.178436 255 220 0
0.424344 0.138754 0.163937 255 220 0
0.374545 0.150971 0.239555 255 220 0
0.363737 0.173514 0.214920 255 220 0
0.418592 0.155153 0.244083 255 220 0
0.426243 0.123568 0.218441 255 220 0
0.371239 0.116678 0.159669 255 220 0
0.412634 0.222905 0.203329 255 220 0
0.406992 0.208220 0.180930 255 220 0
0.427999 0.211099 0.229888 255 220 0
0.386340 0.139160 0.152027 255 220 0
0.363571 0.154842 0.198262 255 220 0
0.398237 0.115510 0.232392 255 220 0
0.367760 0.192695 0.209966 255 220 0
0.371107 0.168655 0.237521 255 220 0
0.439911 0.178877 0.197944 255 220 0
0.437782 0.178568 0.226380 255 220 0
0.403109 0.133709 0.241635 255 220 0
0.386749 0.157816 0.158412 255 220 0
0.399472 0.173388 0.159186 255 220 0
0.417416 0.174817 0.163348 255 220 0
0.367345 0.159588 0.186652 255 220 0
0.364055 0.163825 0.219987 255 220 0
0.393082 0.165751 0.250853 255 220 0
0.425602 0.141209 0.233050 255 220 0
0.383682 0.186413 0.248600 255 220 0
0.375712 0.106335 0.144043 255 220 0
0.380212 0.212594 0.206208 255 220 0
0.369272 0.191602 0.230929 255 220 0
0.422902 0.162924 0.163608 255 220 0
0.368353 0.181958 0.232194 255 220 0
0.362836 0.142856 0.208562 255 220 0
0.367704 0.191583 0.208665 255 220 0
0.379066 0.068719 0.149722 255 220 0
0.411953 0.094314 0.152359 255 220 0
0.391856 0.116262 0.141084 255 220 0
0.384480 0.140745 0.242522 255 220 0
0.363687 0.156630 0.217519 255 220 0
0.371686 0.171594 0.238394 255 220 0
0.367546 0.120230 0.214721 255 220 0
0.372559 0.102617 0.147169 255 220 0
0.415314 0.198494 0.174582 255 220 0
0.400074 0.166793 0.156411 255 220 0
0.390113 0.209791 0.188416 255 220 0
0.385574 0.216272 0.235954 255 220 0
0.401661 0.226966 0.230615 255 220 0
0.384869 0.068376 0.173788 255 220 0
0.370730 0.151760 0.235228 255 220 0
0.370071 0.158069 0.179488 255 220 0
0.407229 0.081388 0.153777 255 220 0
0.363122 0.158829 0.214274 255 220 0
0.427022 0.215448 0.222887 255 220 0
0.369026 0.197151 0.224333 255 220 0
0.380056 0.105592 0.138974 255 220 0
0.379693 0.163441 0.245528 255 220 0
0.362785 0.137462 0.198300 255 220 0
0.431584 0.129432 0.214926 255 220 0
0.410781 0.088553 0.195386 255 220 0
0.433245 0.199441 0.227895 255 220 0
0.415969 0.095397 0.160543 255 220 0
0.421895 0.158875 0.161956 255 220 0
0.400777 0.083749 0.197872 255 220 0
0.371519 0.092616 0.194761 255 220 0
0.423461 0.155671 0.241057 255 220 0
0.366515 0.101034 0.178796 255 220 0
0.435636 0.199058 0.211305 255 220 0
0.424437 0.160893 0.164719 255 220 0
0.428681 0.129338 0.173102 255 220 0
0.407945 0.150025 0.246942 255 220 0
0.378249 0.205921 0.237969 255 220 0
0.386676 0.116235 0.141812 255 220 0
0.394925 0.088122 0.133203 255 220 0
0.401832 0.080973 0.143421 255 220 0
0.381471 0.212056 0.235935 255 220 0
0.396798 0.080237 0.137293 255 220 0
0.440832 0.160637 0.199597 255 220 0
0.376929 0.142382 0.162135 255 220 0
0.366782 0.128103 0.177342 255 220 0
0.388298 0.190100 0.173132 255 220 0
0.432708 0.201250 0.227800 255 220 0
0.407276 0.118800 0.146560 255 220 0
0.440040 0.151361 0.208291 255 220 0
0.362964 0.163555 0.211939 255 220 0
0.411267 0.203267 0.176898 255 220 0
0.401320 0.179328 0.252678 255 220 0
0.422914 0.131796 0.229501 255 220 0
0.415159 0.113512 0.153254 255 220 0
0.391125 0.216730 0.241235 255 220 0
0.415246 0.120858 0.227836 255 220 0
0.404461 0.203163 0.176156 255 220 0
0.391227 0.070312 0.179064 255 220 0
0.433437 0.156730 0.230752 255 220 0
0.431483 0.183465 0.180918 255 220 0
0.384568 0.089045 0.130326 255 220 0
0.368807 0.104561 0.161077 255 220 0
0.387222 0.146026 0.245397 255 220 0
0.371953 0.137959 0.232524 255 220 0
0.371432 0.163570 0.179326 255 220 0
0.407292 0.220677 0.241598 255 220 0
0.429345 0.127052 0.216855 255 220 0
0.393687 0.112865 0.139740 255 220 0
0.407161 0.135718 0.241540 255 220 0
0.393789 0.170825 0.159791 255 220 0
0.366144 0.183081 0.225094 255 220 0
0.401277 0.211242 0.248447 255 220 0
0.392550 0.075376 0.189442 255 220 0
0.429819 0.122454 0.179372 255 220 0
0.387509 0.218636 0.234755 255 220 0
0.371333 0.119363 0.160857 255 220 0
0.367421 0.187596 0.227443 255 220 0
0.431001 0.127416 0.213801 255 220 0
0.408771 0.214496 0.246211 255 220 0
0.396037 0.070647 0.172758 255 220 0
0.437739 0.151477 0.188875 255 220 0
0.372941 0.154734 0.172895 255 220 0
0.429559 0.206599 0.231132 255 220 0
0.425398 0.106916 0.181531 255 220 0
0.434012 0.139420 0.219861 255 220 0
0.368969 0.178376 0.233988 255 220 0
0.372220 0.086935 0.187343 255 220 0
0.430662 0.129042 0.216478 255 220 0
0.434007 0.193379 0.193696 255 220 0
0.371761 0.076228 0.146562 255 220 0
0.432725 0.187064 0.185309 255 220 0
0.441004 0.161861 0.200374 255 220 0
0.419857 0.124654 0.226955 255 220 0
0.398346 0.075664 0.185579 255 220 0
0.434744 0.181279 0.185521 255 220 0
0.366821 0.099017 0.177119 255 220 0
0.422161 0.140741 0.161154 255 220 0
0.398054 0.222734 0.202966 255 220 0
0.376981 0.079433 0.134673 255 220 0
0.405650 0.126442 0.236972 255 220 0
0.427488 0.111600 0.197111 255 220 0
0.390856 0.216552 0.197045 255 220 0
0.375809 0.178405 0.243072 255 220 0
0.423889 0.218781 0.227042 255 220 0
0.366821 0.100849 0.189613 255 220 0
0.370005 0.100468 0.153573 255 220 0
0.380484 0.123117 0.149259 255 220 0
0.413761 0.134534 0.238116 255 220 0
0.418634 0.108563 0.213631 255 220 0
0.375665 0.209999 0.213724 255 220 0
0.386662 0.215305 0.199876 255 220 0
0.371035 0.104027 0.209025 255 220 0
0.384200 0.162397 0.247862 255 220 0
0.426966 0.110751 0.197690 255 220 0
0.419221 0.158466 0.159762 255 220 0
0.399405 0.187875 0.253022 255 220 0
0.435834 0.198701 0.214364 255 220 0
0.419168 0.223256 0.219830 255 220 0
0.371436 0.115415 0.220095 255 220 0
0.431406 0.190146 0.236675 255 220 0
0.371188 0.121802 0.223821 255 220 0
0.398025 0.143205 0.246088 255 220 0
0.400200 0.226493 0.213344 255 220 0
0.417412 0.092684 0.187628 255 220 0
0.395914 0.120264 0.142914 255 220 0
0.362711 0.160005 0.208185 255 220 0
0.412498 0.114529 0.224754 255 220 0
0.430989 0.126528 0.180229 255 220 0
0.363876 0.119996 0.198961 255 220 0
0.407346 0.083972 0.150621 255 220 0
0.373943 0.208153 0.216486 255 220 0
0.414931 0.137769 0.239255 255 220 0
0.400321 0.116290 0.142553 255 220 0
0.428459 0.211335 0.206072 255 220 0
0.410590 0.114627 0.226107 255 220 0
0.437183 0.193869 0.216938 255 220 0
0.401429 0.227436 0.217267 255 220 0
0.381062 0.067543 0.150923 255 220 0
0.369982 0.197949 0.208127 255 220 0
0.391481 0.211182 0.245936 255 220 0
0.375018 0.137277 0.235718 255 220 0
0.417926 0.097707 0.163916 255 220 0
0.386744 0.174426 0.249666 255 220 0
0.415164 0.089629 0.166322 255 220 0
0.369682 0.112620 0.161636 255 220 0
0.375498 0.092993 0.135628 255 220 0
0.376384 0.071745 0.166530 255 220 0
0.362961 0.137834 0.207208 255 220 0
0.423013 0.147159 0.162085 255 220 0
0.374040 0.097302 0.207321 255 220 0
0.404209 0.137474 0.243146 255 220 0
0.381611 0.170529 0.168387 255 220 0
0.397999 0.080842 0.138231 255 220 0
0.432119 0.174717 0.237133 255 220 0
0.405937 0.123000 0.234691 255 220 0
0.439858 0.176413 0.219303 255 220 0
