ply
format ascii 1.0
element vertex 1024
property float x
property float y
property float z
property uchar red
property uchar green
property uchar blue
end_header
0.588587 -0.054679 0.026958 255 220 0
0.595180 0.027533 0.008504 255 220 0
0.640816 0.082504 0.060603 255 220 0
0.642962 0.047348 0.041416 255 220 0
0.616186 0.004564 0.017787 255 220 0
0.634496 0.022560 0.088175 255 220 0
0.596413 0.008841 0.007659 255 220 0
0.591580 0.084338 0.049984 255 220 0
0.601527 -0.004523 0.094510 255 220 0
0.624849 0.058791 0.024852 255 220 0
0.590772 0.084615 0.053252 255 220 0
0.582524 0.066429 0.082697 255 220 0
0.572185 0.048725 0.041435 255 220 0
0.561900 -0.022614 0.004894 255 220 0
0.605474 0.065113 0.020538 255 220 0
0.643568 0.045271 0.042381 255 220 0
0.639048 0.063862 0.040690 255 220 0
0.576586 0.007656 0.083387 255 220 0
0.559662 -0.032311 0.001541 255 220 0
0.572639 0.029929 0.021290 255 220 0
0.589840 -0.009632 0.005845 255 220 0
0.623203 0.077189 0.033636 255 220 0
0.623451 0.089020 0.090613 255 220 0
0.616232 0.092816 0.047153 255 220 0
0.613387 0.001137 0.093717 255 220 0
0.570392 -0.017670 0.071417 255 220 0
0.618133 0.057401 0.020496 255 220 0
0.641877 0.060228 0.085980 255 220 0
0.565344 -0.013018 0.007878 255 220 0
0.622170 0.008591 0.092452 255 220 0
0.562644 -0.033736 0.054370 255 220 0
0.612721 -0.015398 0.083818 255 220 0
0.642545 0.055016 0.042461 255 220 0
0.552779 -0.037511 0.034489 255 220 0
0.606656 0.046414 0.013516 255 220 0
0.612870 -0.014567 0.020448 255 220 0
0.570543 0.029637 0.073256 255 220 0
0.551055 -0.038514 0.004942 255 220 0
0.566167 0.021881 0.060888 255 220 0
0.631151 0.094344 0.063012 255 220 0
0.599211 0.077729 0.031555 255 220 0
0.605153 -0.023947 0.017046 255 220 0
0.605281 0.015422 0.009978 255 220 0
0.586346 0.072740 0.084335 255 220 0
0.586371 -0.056395 0.045448 255 220 0
0.625238 -0.011221 0.034427 255 220 0
0.583291 0.068790 0.082299 255 220 0
0.638409 0.075243 0.087967 255 220 0
0.619503 -0.027699 0.048069 255 220 0
0.563286 -0.015448 0.059636 255 220 0
0.627272 0.094039 0.056708 255 220 0
0.622673 0.056230 0.022539 255 220 0
0.588657 -0.055603 0.031304 255 220 0
0.617131 0.070639 0.026317 255 220 0
0.579612 0.065984 0.042498 255 220 0
0.596167 -0.002351 0.094744 255 220 0
0.582630 0.041601 0.090567 255 220 0
0.594083 0.067750 0.025042 255 220 0
0.577228 -0.025282 0.002470 255 220 0
0.588867 -0.031864 0.077763 255 220 0
0.591502 -0.005977 0.006337 255 220 0
0.563367 -0.014862 0.059855 255 220 0
0.567954 -0.033784 0.061350 255 220 0
0.611942 0.085304 0.036592 255 220 0
0.577174 -0.057661 0.047762 255 220 0
0.559731 -0.000454 0.041267 255 220 0
0.584762 0.072076 0.082165 255 220 0
0.608415 -0.035134 0.029622 255 220 0
0.630034 0.096194 0.069168 255 220 0
0.589837 0.021402 0.096755 255 220 0
0.606428 0.029462 0.010409 255 220 0
0.579287 0.014272 0.009644 255 220 0
0.584763 -0.053807 0.053247 255 220 0
0.603741 0.006765 0.009978 255 220 0
0.569120 0.024848 0.070864 255 220 0
0.623860 -0.015103 0.069680 255 220 0
0.625777 0.096569 0.062288 255 220 0
0.563939 0.013739 0.055795 255 220 0
0.630291 -0.006437 0.068988 255 220 0
0.575539 -0.040392 0.002542 255 220 0
0.578072 0.012828 0.085493 255 220 0
0.559642 -0.052572 0.039874 255 220 0
0.600546 0.068698 0.023153 255 220 0
0.624499 0.027265 0.020505 255 220 0
0.563895 0.009749 0.057536 255 220 0
0.645352 0.026883 0.050868 255 220 0
0.587664 0.054918 0.093729 255 220 0
0.564979 0.021085 0.055744 255 220 0
0.596316 -0.050535 0.034935 255 220 0
0.580532 0.060460 0.082817 255 220 0
0.587839 0.041913 0.013700 255 220 0
0.636029 0.087450 0.056886 255 220 0
0.596161 0.062128 0.098722 255 220 0
0.617967 0.040374 0.016355 255 220 0
0.628153 0.085137 0.043652 255 220 0
0.589511 0.078933 0.082956 255 220 0
0.619473 0.003534 0.091649 255 220 0
0.574029 0.025821 0.080623 255 220 0
0.620289 0.015383 0.018788 255 220 0
0.581011 -0.059564 0.029234 255 220 0
0.629401 0.050906 0.097892 255 220 0
0.645358 0.028789 0.071239 255 220 0
0.580693 -0.034877 0.003810 255 220 0
0.646787 0.062141 0.058798 255 220 0
0.625147 -0.017501 0.062088 255 220 0
0.578122 0.023277 0.086106 255 220 0
0.607294 0.065679 0.101779 255 220 0
0.601835 0.023119 0.008845 255 220 0
0.644336 0.019700 0.062676 255 220 0
0.617732 0.014210 0.096994 255 220 0
0.617310 -0.000911 0.020020 255 220 0
0.583762 0.003208 0.089476 255 220 0
0.556708 -0.023626 0.042120 255 220 0
0.617194 0.032100 0.015329 255 220 0
0.613254 0.056601 0.102788 255 220 0
0.626492 0.032786 0.097684 255 220 0
0.597578 0.071737 0.026499 255 220 0
0.567098 -0.042924 0.000189 255 220 0
0.588015 0.042884 0.014026 255 220 0
0.594469 0.088995 0.069988 255 220 0
0.628871 0.096666 0.068340 255 220 0
0.636802 0.002100 0.048004 255 220 0
0.581102 0.042632 0.018361 255 220 0
0.606466 0.096531 0.064206 255 220 0
0.591179 0.016449 0.096870 255 220 0
0.569822 0.005598 0.074472 255 220 0
0.581416 0.067285 0.039838 255 220 0
0.567685 -0.063030 0.031783 255 220 0
0.592501 -0.052495 0.029704 255 220 0
0.637395 0.011116 0.076439 255 220 0
0.648078 0.047977 0.056753 255 220 0
0.644650 0.032701 0.045252 255 220 0
0.547886 -0.043832 0.024379 255 220 0
0.608892 -0.039097 0.039219 255 220 0
0.582778 0.024256 0.091162 255 220 0
0.564791 -0.031179 0.000828 255 220 0
0.631703 0.092647 0.059444 255 220 0
0.615866 -0.031087 0.055801 255 220 0
0.559662 -0.038857 -0.000029 255 220 0
0.564145 0.010930 0.026152 255 220 0
0.617331 0.003105 0.092683 255 220 0
0.619713 -0.027487 0.049600 255 220 0
0.561986 0.001986 0.023978 255 220 0
0.639627 0.086675 0.076005 255 220 0
0.627953 0.077170 0.036974 255 220 0
0.566141 0.023246 0.059845 255 220 0
0.613702 -0.018349 0.080046 255 220 0
0.553224 -0.045337 0.035407 255 220 0
0.573945 -0.024650 0.002146 255 220 0
0.625172 0.007338 0.089604 255 220 0
0.566564 0.031673 0.051129 255 220 0
0.584117 0.025410 0.092509 255 220 0
0.594973 -0.033475 0.012158 255 220 0
0.583253 -0.055088 0.018399 255 220 0
0.572462 -0.001519 0.077573 255 220 0
0.589457 0.055468 0.095218 255 220 0
0.565382 0.018446 0.059576 255 220 0
0.556587 -0.011955 0.030896 255 220 0
0.636613 0.091151 0.067192 255 220 0
0.613702 -0.004754 0.018036 255 220 0
0.561132 -0.016722 0.053847 255 220 0
0.623845 0.059222 0.024362 255 220 0
0.626145 0.055175 0.099736 255 220 0
0.560231 0.000478 0.030364 255 220 0
0.610508 0.071923 0.025122 255 220 0
0.603364 -0.041600 0.057005 255 220 0
0.565272 0.025295 0.041952 255 220 0
0.569521 0.028006 0.070816 255 220 0
0.612395 0.057385 0.102804 255 220 0
0.630110 0.068992 0.033788 255 220 0
0.632002 0.002533 0.077616 255 220 0
0.633618 0.009645 0.081761 255 220 0
0.598998 0.078276 0.093414 255 220 0
0.629834 0.093090 0.082364 255 220 0
0.584211 0.056214 0.089807 255 220 0
0.624956 0.086691 0.091959 255 220 0
0.611579 0.001056 0.015162 255 220 0
0.567329 -0.000514 0.069722 255 220 0
0.622406 -0.023759 0.052591 255 220 0
0.606429 0.042684 0.012500 255 220 0
0.600275 0.041621 0.101942 255 220 0
0.623325 -0.008808 0.078523 255 220 0
0.601135 -0.026067 0.014377 255 220 0
0.613334 0.055813 0.102805 255 220 0
0.573898 -0.040768 0.062652 255 220 0
0.591143 0.012840 0.007306 255 220 0
0.611561 0.096335 0.056672 255 220 0
0.624870 0.002776 0.025942 255 220 0
0.613694 0.056674 0.102753 255 220 0
0.577026 0.000445 0.007474 255 220 0
0.561955 0.001110 0.052729 255 220 0
0.647614 0.035924 0.054792 255 220 0
0.586551 0.006491 0.092234 255 220 0
0.593403 -0.052133 0.031160 255 220 0
0.642074 0.019062 0.072945 255 220 0
0.641956 0.049382 0.039785 255 220 0
0.631229 0.048443 0.096522 255 220 0
0.609383 -0.026986 0.023171 255 220 0
0.583252 0.075315 0.050877 255 220 0
0.602325 0.020892 0.008906 255 220 0
0.645169 0.023403 0.064648 255 220 0
0.602629 0.086836 0.087979 255 220 0
0.578254 0.037440 0.085616 255 220 0
0.590165 0.056982 0.095520 255 220 0
0.645235 0.053015 0.080145 255 220 0
0.624963 -0.018256 0.060904 255 220 0
0.606892 0.090969 0.085610 255 220 0
0.574694 0.046320 0.077058 255 220 0
0.622219 0.086334 0.040553 255 220 0
0.604418 0.013286 0.099229 255 220 0
0.620841 0.098982 0.070600 255 220 0
0.628254 0.085764 0.091152 255 220 0
0.611861 -0.032568 0.061870 255 220 0
0.632238 -0.001109 0.072607 255 220 0
0.576429 0.046673 0.080941 255 220 0
0.598506 -0.047940 0.049332 255 220 0
0.646628 0.067571 0.064746 255 220 0
0.634046 0.001006 0.071396 255 220 0
0.641649 0.083257 0.074299 255 220 0
0.598161 -0.040586 0.065651 255 220 0
0.618285 -0.013919 0.025997 255 220 0
0.569264 -0.003869 0.009742 255 220 0
0.554843 -0.057254 0.011855 255 220 0
0.633742 0.091049 0.059344 255 220 0
0.585090 0.076905 0.076239 255 220 0
0.558506 -0.046505 0.042748 255 220 0
0.621645 -0.022247 0.040357 255 220 0
0.629481 0.034012 0.095974 255 220 0
0.620616 0.000579 0.089179 255 220 0
0.584612 -0.014957 0.085229 255 220 0
0.637877 0.002770 0.059006 255 220 0
0.565493 -0.062571 0.031485 255 220 0
0.559896 -0.019560 0.050623 255 220 0
0.583015 -0.058974 0.038626 255 220 0
0.568388 0.016557 0.071026 255 220 0
0.581383 0.027375 0.089826 255 220 0
0.615993 -0.016607 0.079350 255 220 0
0.604292 0.091439 0.047797 255 220 0
0.637774 0.071837 0.043931 255 220 0
0.648883 0.050733 0.066560 255 220 0
0.619016 -0.014895 0.077542 255 220 0
0.589338 0.022653 0.096558 255 220 0
0.612713 0.093662 0.048775 255 220 0
0.635230 0.064202 0.036158 255 220 0
0.615113 -0.032722 0.052261 255 220 0
0.639750 0.074686 0.086256 255 220 0
0.577952 0.063174 0.042919 255 220 0
0.557943 -0.007203 0.035330 255 220 0
0.620692 0.098993 0.070227 255 220 0
0.614301 0.090852 0.089232 255 220 0
0.586446 0.046426 0.093890 255 220 0
0.584915 -0.048727 0.060453 255 220 0
0.626269 -0.005989 0.031973 255 220 0
0.582650 0.065399 0.083623 255 220 0
0.627096 0.087040 0.090791 255 220 0
0.583801 0.076625 0.052805 255 220 0
0.568639 0.023068 0.024236 255 220 0
0.571100 -0.020048 0.071400 255 220 0
0.592002 -0.051836 0.050395 255 220 0
0.616821 0.045267 0.102355 255 220 0
0.611939 0.037914 0.013208 255 220 0
0.607612 0.051508 0.102902 255 220 0
0.581418 0.070064 0.076419 255 220 0
0.606992 0.010277 0.098238 255 220 0
0.589436 0.043542 0.096565 255 220 0
0.601722 0.030342 0.102180 255 220 0
0.599625 -0.046427 0.031048 255 220 0
0.595190 0.001576 0.095551 255 220 0
0.567252 0.015230 0.068162 255 220 0
0.629516 0.094622 0.061144 255 220 0
0.595857 0.027187 0.100297 255 220 0
0.626300 0.089554 0.089063 255 220 0
0.570088 0.023326 0.021436 255 220 0
0.633035 0.061248 0.032441 255 220 0
0.577932 0.004663 0.084414 255 220 0
0.625822 -0.018650 0.054506 255 220 0
0.587736 0.072468 0.035699 255 220 0
0.601720 -0.039201 0.064269 255 220 0
0.620125 0.009349 0.094008 255 220 0
0.596064 0.039422 0.100525 255 220 0
0.578370 0.057092 0.080264 255 220 0
0.595107 -0.025643 0.009798 255 220 0
0.565241 -0.061263 0.034420 255 220 0
0.612846 0.053077 0.102876 255 220 0
0.606885 0.060798 0.018601 255 220 0
0.632228 0.040201 0.094909 255 220 0
0.577750 0.017270 0.011067 255 220 0
0.619621 0.087490 0.040555 255 220 0
0.551799 -0.025763 0.019650 255 220 0
0.566678 0.027877 0.058713 255 220 0
0.555240 -0.025776 0.038191 255 220 0
0.593623 -0.010695 0.091233 255 220 0
0.567472 0.032364 0.058647 255 220 0
0.589273 0.078113 0.041441 255 220 0
0.572222 -0.041529 0.001475 255 220 0
0.591334 0.051465 0.016562 255 220 0
0.631747 0.005028 0.080538 255 220 0
0.575528 0.039905 0.081166 255 220 0
0.603568 0.060385 0.018295 255 220 0
0.607378 0.051292 0.102890 255 220 0
0.602994 0.035611 0.010416 255 220 0
0.594574 -0.007965 0.092526 255 220 0
0.576862 0.065162 0.055757 255 220 0
0.580182 -0.023913 0.003141 255 220 0
0.581861 0.072916 0.072906 255 220 0
0.573493 0.010460 0.079981 255 220 0
0.563018 -0.012320 0.058911 255 220 0
0.594836 0.024474 0.099648 255 220 0
0.568750 0.039220 0.057867 255 220 0
0.564694 -0.063358 0.026151 255 220 0
0.591367 -0.054403 0.037919 255 220 0
0.572628 -0.061683 0.021526 255 220 0
0.599375 0.061073 0.019014 255 220 0
0.623736 -0.021845 0.053165 255 220 0
0.631272 0.041693 0.025778 255 220 0
0.597770 -0.032565 0.076817 255 220 0
0.597351 -0.005497 0.008169 255 220 0
0.635523 0.055166 0.093571 255 220 0
0.621409 -0.011149 0.028360 255 220 0
0.587307 0.082211 0.066613 255 220 0
0.596548 0.078821 0.034403 255 220 0
0.614769 0.007398 0.016186 255 220 0
0.614409 -0.014840 0.022093 255 220 0
0.640175 0.031957 0.084398 255 220 0
0.622499 0.002091 0.088644 255 220 0
0.587771 -0.023475 0.005570 255 220 0
0.647076 0.055344 0.055630 255 220 0
0.606384 0.013212 0.099117 255 220 0
0.579325 -0.048721 0.007996 255 220 0
0.590341 0.073671 0.033961 255 220 0
0.597753 -0.048167 0.050349 255 220 0
0.575231 0.042414 0.079961 255 220 0
0.636962 0.089222 0.078654 255 220 0
0.628146 -0.012986 0.062379 255 220 0
0.619583 -0.000116 0.021783 255 220 0
0.597759 0.083741 0.039811 255 220 0
0.601267 -0.009378 0.092601 255 220 0
0.568815 0.038446 0.041783 255 220 0
0.603104 0.040937 0.011559 255 220 0
0.610657 0.021823 0.101083 255 220 0
0.561891 -0.013922 0.055742 255 220 0
0.633724 0.013553 0.084449 255 220 0
0.557832 -0.007660 0.030037 255 220 0
0.557819 -0.058733 0.012618 255 220 0
0.614526 0.034112 0.013964 255 220 0
0.645636 0.027706 0.068759 255 220 0
0.621840 -0.024559 0.052236 255 220 0
0.581581 0.066909 0.080377 255 220 0
0.645933 0.056214 0.078479 255 220 0
0.632319 -0.002672 0.070022 255 220 0
0.577629 0.024934 0.085523 255 220 0
0.620756 0.098757 0.073882 255 220 0
0.553799 -0.032847 0.035945 255 220 0
0.562303 0.011108 0.047908 255 220 0
0.569639 -0.029318 0.065575 255 220 0
0.566449 0.024680 0.032898 255 220 0
0.561830 -0.061132 0.030696 255 220 0
0.579338 -0.060615 0.034106 255 220 0
0.564155 0.008865 0.058941 255 220 0
0.639361 0.086818 0.076727 255 220 0
0.637276 0.050746 0.033018 255 220 0
0.562865 -0.059549 0.034965 255 220 0
0.626139 0.066439 0.029227 255 220 0
0.558463 -0.043617 0.044043 255 220 0
0.562432 -0.028368 0.055824 255 220 0
0.645133 0.037060 0.077142 255 220 0
0.598923 0.009134 0.008222 255 220 0
0.640927 0.045255 0.086486 255 220 0
0.589869 0.085102 0.062358 255 220 0
0.589737 0.007856 0.094554 255 220 0
0.603556 -0.043992 0.049786 255 220 0
0.600499 0.089598 0.047451 255 220 0
0.626279 0.036554 0.098365 255 220 0
0.635578 0.018498 0.084924 255 220 0
0.574962 0.015843 0.082055 255 220 0
0.570277 0.033289 0.070568 255 220 0
0.637917 0.030840 0.033544 255 220 0
0.590183 0.005666 0.006815 255 220 0
0.587848 0.079050 0.045920 255 220 0
0.609167 0.097683 0.069193 255 220 0
0.600175 -0.029876 0.078657 255 220 0
0.585910 -0.003913 0.089604 255 220 0
0.628808 0.085296 0.044422 255 220 0
0.576594 0.009345 0.009791 255 220 0
0.639526 0.047753 0.088650 255 220 0
0.566408 0.022229 0.030005 255 220 0
0.643559 0.024783 0.046134 255 220 0
0.568937 0.026881 0.026561 255 220 0
0.546187 -0.042507 0.014694 255 220 0
0.640938 0.057895 0.087442 255 220 0
0.583201 -0.018129 0.004065 255 220 0
0.575672 0.051357 0.033235 255 220 0
0.619130 -0.018614 0.072834 255 220 0
0.580727 0.071335 0.071293 255 220 0
0.633605 0.091468 0.059997 255 220 0
0.645620 0.072092 0.065881 255 220 0
0.590268 0.066648 0.092724 255 220 0
0.585999 -0.001559 0.090233 255 220 0
0.577659 0.049032 0.082455 255 220 0
0.643050 0.076698 0.059366 255 220 0
0.571268 0.022373 0.019012 255 220 0
0.590790 -0.030526 0.008241 255 220 0
0.581868 0.072800 0.049363 255 220 0
0.637728 0.084548 0.055927 255 220 0
0.564504 0.011483 0.059361 255 220 0
0.591561 0.066187 0.025474 255 220 0
0.591189 0.075325 0.035027 255 220 0
0.594894 -0.006241 0.093220 255 220 0
0.567428 0.033553 0.041964 255 220 0
0.634812 0.075356 0.042592 255 220 0
0.582310 -0.027240 0.003748 255 220 0
0.554204 -0.032442 0.036924 255 220 0
0.572067 0.021974 0.077794 255 220 0
0.572202 0.022096 0.017602 255 220 0
0.580482 0.032082 0.013860 255 220 0
0.643423 0.066006 0.082285 255 220 0
0.606639 -0.007637 0.013424 255 220 0
0.602562 -0.044634 0.034643 255 220 0
0.553541 -0.025508 0.031900 255 220 0
0.613731 0.012140 0.014719 255 220 0
0.586084 0.053988 0.092377 255 220 0
0.622489 -0.021229 0.061750 255 220 0
0.644000 0.069091 0.079838 255 220 0
0.549434 -0.053043 0.012895 255 220 0
0.574393 -0.024130 0.073065 255 220 0
0.639307 0.045567 0.034854 255 220 0
0.572845 0.054731 0.053272 255 220 0
0.590586 -0.044234 0.065068 255 220 0
0.583742 0.062152 0.087058 255 220 0
0.562038 -0.047767 0.000651 255 220 0
0.621861 0.096883 0.059770 255 220 0
0.632623 0.074594 0.093973 255 220 0
0.625723 0.092436 0.086254 255 220 0
0.616445 0.077362 0.098931 255 220 0
0.614379 -0.033284 0.053352 255 220 0
0.549301 -0.051672 0.023552 255 220 0
0.633520 0.079714 0.044399 255 220 0
0.575530 0.059680 0.067218 255 220 0
0.648566 0.044005 0.068735 255 220 0
0.575620 -0.002473 0.080975 255 220 0
0.634313 0.082601 0.048058 255 220 0
0.589009 0.064022 0.092517 255 220 0
0.605267 0.092587 0.049666 255 220 0
0.640765 0.047678 0.037378 255 220 0
0.608673 -0.029193 0.023886 255 220 0
0.590222 0.085404 0.066579 255 220 0
0.583143 -0.053188 0.015318 255 220 0
0.613609 0.060745 0.102586 255 220 0
0.578552 0.038135 0.085942 255 220 0
0.591748 0.084999 0.076439 255 220 0
0.637853 0.021499 0.035779 255 220 0
0.575779 -0.040175 0.002601 255 220 0
0.646339 0.063975 0.075163 255 220 0
0.595789 0.048344 0.014042 255 220 0
0.599535 0.088713 0.046631 255 220 0
0.631735 -0.001917 0.072588 255 220 0
0.606268 -0.015738 0.015138 255 220 0
0.628582 -0.002652 0.033369 255 220 0
0.641318 0.068190 0.047099 255 220 0
0.596396 -0.048805 0.051183 255 220 0
0.595580 -0.038485 0.070627 255 220 0
0.640438 0.028625 0.037850 255 220 0
0.635057 0.037578 0.029387 255 220 0
0.568589 -0.034131 0.061862 255 220 0
0.587942 0.018783 0.095163 255 220 0
0.624540 0.088328 0.090841 255 220 0
0.547733 -0.036402 0.014489 255 220 0
0.572429 -0.004147 0.007894 255 220 0
0.572997 0.016074 0.014204 255 220 0
0.606600 0.043610 0.012764 255 220 0
0.604544 0.072546 0.099241 255 220 0
0.596600 0.051082 0.014999 255 220 0
0.592149 -0.032574 0.009716 255 220 0
0.583165 0.003161 0.088977 255 220 0
0.581541 -0.000010 0.006408 255 220 0
0.583497 -0.005214 0.087516 255 220 0
0.645807 0.064713 0.056624 255 220 0
0.645572 0.057106 0.051098 255 220 0
0.583162 0.059831 0.028391 255 220 0
0.565045 0.025233 0.046593 255 220 0
0.646443 0.068642 0.065358 255 220 0
0.584885 0.068146 0.085482 255 220 0
0.601493 0.031980 0.102214 255 220 0
0.575449 0.056485 0.040575 255 220 0
0.613712 0.079429 0.031427 255 220 0
0.580078 -0.059273 0.024893 255 220 0
0.565706 -0.041933 0.054050 255 220 0
0.570016 0.011184 0.015282 255 220 0
0.617979 0.058054 0.102183 255 220 0
0.590860 -0.000288 0.093440 255 220 0
0.639995 0.051825 0.036955 255 220 0
0.603687 0.095189 0.062796 255 220 0
0.597714 -0.048750 0.048493 255 220 0
0.613333 0.056587 0.102783 255 220 0
0.593937 -0.047904 0.056771 255 220 0
0.562578 0.009636 0.051479 255 220 0
0.610380 0.024688 0.011748 255 220 0
0.647354 0.034101 0.066975 255 220 0
0.551777 -0.031546 0.029557 255 220 0
0.613357 -0.010743 0.087112 255 220 0
0.614338 -0.001198 0.092232 255 220 0
0.556897 -0.045331 0.041131 255 220 0
0.574623 -0.028098 0.001798 255 220 0
0.620090 -0.026600 0.054127 255 220 0
0.567453 0.032218 0.058691 255 220 0
0.567078 0.027845 0.060726 255 220 0
0.594229 0.045570 0.013258 255 220 0
0.577096 0.065458 0.054268 255 220 0
0.624566 0.038527 0.020324 255 220 0
0.599543 0.053839 0.101210 255 220 0
0.589997 -0.052920 0.050553 255 220 0
0.554177 -0.019390 0.021429 255 220 0
0.577557 -0.054958 0.012176 255 220 0
0.615333 -0.021564 0.074348 255 220 0
0.576158 -0.049978 0.056554 255 220 0
0.548520 -0.046969 0.025458 255 220 0
0.643763 0.072114 0.079017 255 220 0
0.576558 -0.031354 0.071083 255 220 0
0.582046 0.014034 0.089597 255 220 0
0.647043 0.041055 0.051043 255 220 0
0.609107 0.056200 0.017094 255 220 0
0.600029 0.054019 0.015784 255 220 0
0.594503 -0.026540 0.009619 255 220 0
0.639698 0.079266 0.053488 255 220 0
0.569888 -0.009940 0.072797 255 220 0
0.603190 -0.044383 0.049372 255 220 0
0.627886 0.096932 0.074036 255 220 0
0.579632 0.064388 0.039871 255 220 0
0.618818 -0.028571 0.051327 255 220 0
0.562708 -0.034326 0.000303 255 220 0
0.558407 -0.011409 0.017509 255 220 0
0.613024 -0.021083 0.023807 255 220 0
0.594968 -0.051599 0.034833 255 220 0
0.618790 0.097192 0.080092 255 220 0
0.617819 0.012686 0.096405 255 220 0
0.630262 0.067886 0.033312 255 220 0
0.564672 0.023372 0.048744 255 220 0
0.588362 0.036175 0.011442 255 220 0
0.571237 0.018620 0.017156 255 220 0
0.554376 -0.051538 0.034179 255 220 0
0.605252 0.039084 0.011466 255 220 0
0.578977 0.016280 0.010194 255 220 0
0.602342 -0.034000 0.019600 255 220 0
0.588180 0.005201 0.093102 255 220 0
0.640162 0.040545 0.086736 255 220 0
0.630275 -0.008721 0.043592 255 220 0
0.571144 0.036879 0.071414 255 220 0
0.577820 0.056543 0.079246 255 220 0
0.605268 0.057905 0.102369 255 220 0
0.632921 0.018261 0.029947 255 220 0
0.576491 0.055264 0.035719 255 220 0
0.628011 -0.007923 0.071923 255 220 0
0.572158 0.034238 0.075836 255 220 0
0.590687 -0.005952 0.006143 255 220 0
0.548741 -0.052804 0.017670 255 220 0
0.596780 -0.008018 0.008108 255 220 0
0.556420 -0.019216 0.039800 255 220 0
0.624736 -0.000506 0.027058 255 220 0
0.642955 0.041107 0.082644 255 220 0
0.633601 -0.002439 0.044029 255 220 0
0.623417 -0.015471 0.069972 255 220 0
0.623970 -0.020039 0.059859 255 220 0
0.585898 0.039774 0.093945 255 220 0
0.558672 -0.007137 0.042227 255 220 0
0.616481 -0.020689 0.073913 255 220 0
0.560495 -0.003560 0.048584 255 220 0
0.615505 0.081246 0.097000 255 220 0
0.619634 0.020950 0.098472 255 220 0
0.604697 0.059118 0.017754 255 220 0
0.588410 0.017365 0.095312 255 220 0
0.614158 0.092163 0.045715 255 220 0
0.643155 0.051232 0.042617 255 220 0
0.579798 -0.048059 0.007893 255 220 0
0.598162 0.078179 0.032601 255 220 0
0.635481 0.014120 0.034879 255 220 0
0.575483 0.003902 0.008932 255 220 0
0.552830 -0.050248 0.032718 255 220 0
0.584200 0.024362 0.009724 255 220 0
0.612898 -0.031247 0.033151 255 220 0
0.601967 0.079093 0.031782 255 220 0
0.637422 0.008372 0.042100 255 220 0
0.601778 0.064110 0.020206 255 220 0
0.571387 -0.034387 0.064592 255 220 0
0.603896 0.095507 0.066293 255 220 0
0.561145 -0.019342 0.054065 255 220 0
0.573430 0.013280 0.080011 255 220 0
0.560083 -0.023104 0.051339 255 220 0
0.585268 -0.027094 0.079633 255 220 0
0.611818 -0.033478 0.034276 255 220 0
0.591707 0.083359 0.047217 255 220 0
0.621402 0.022333 0.018662 255 220 0
0.601266 -0.038533 0.065969 255 220 0
0.625632 -0.014069 0.038419 255 220 0
0.632376 0.017303 0.029559 255 220 0
0.587261 0.080976 0.053243 255 220 0
0.631851 0.003803 0.079198 255 220 0
0.612142 -0.016685 0.020611 255 220 0
0.578779 -0.010774 0.082099 255 220 0
0.599857 -0.007824 0.093293 255 220 0
0.624261 0.018600 0.021408 255 220 0
0.549897 -0.032111 0.012463 255 220 0
0.623426 0.051209 0.021498 255 220 0
0.583272 0.027685 0.091766 255 220 0
0.621227 0.097834 0.062783 255 220 0
0.622388 0.016194 0.020281 255 220 0
0.601973 -0.019281 0.086997 255 220 0
0.552191 -0.036720 0.032916 255 220 0
0.647966 0.049464 0.072716 255 220 0
0.644541 0.020542 0.063166 255 220 0
0.589865 0.038819 0.097112 255 220 0
0.576161 -0.058549 0.016509 255 220 0
0.635208 0.068420 0.038530 255 220 0
0.588262 0.028246 0.096105 255 220 0
0.598847 0.075180 0.095307 255 220 0
0.577196 -0.019292 0.003185 255 220 0
0.607273 0.090236 0.086911 255 220 0
0.620733 0.053121 0.101606 255 220 0
0.592867 -0.048752 0.021906 255 220 0
0.632531 0.015951 0.087277 255 220 0
0.628668 0.081549 0.040832 255 220 0
0.566782 -0.002749 0.068513 255 220 0
0.639041 0.087727 0.065414 255 220 0
0.575708 0.003190 0.008645 255 220 0
0.579212 -0.021507 0.078530 255 220 0
0.573926 -0.020309 0.074280 255 220 0
0.571501 0.042197 0.034708 255 220 0
0.622509 -0.008085 0.080348 255 220 0
0.618036 -0.024064 0.066458 255 220 0
0.628245 0.040629 0.023192 255 220 0
0.621654 0.037227 0.100599 255 220 0
0.564748 -0.053434 0.044384 255 220 0
0.607602 0.019856 0.010669 255 220 0
0.638598 0.070026 0.043857 255 220 0
0.613488 -0.024924 0.072348 255 220 0
0.632719 0.081156 0.044667 255 220 0
0.572463 0.053658 0.053944 255 220 0
0.635128 0.036881 0.029491 255 220 0
0.583003 -0.046423 0.062851 255 220 0
0.637016 0.083144 0.052773 255 220 0
0.603490 0.093954 0.056214 255 220 0
0.557960 -0.012650 0.042652 255 220 0
0.561125 0.004861 0.033013 255 220 0
0.626425 0.003216 0.027443 255 220 0
0.573491 -0.060865 0.040765 255 220 0
0.624688 0.069054 0.029595 255 220 0
0.608072 0.088577 0.040909 255 220 0
0.565922 -0.059233 0.011207 255 220 0
0.602669 -0.045614 0.040378 255 220 0
0.625889 0.092884 0.052759 255 220 0
0.608960 -0.028582 0.072967 255 220 0
0.577538 -0.025730 0.002490 255 220 0
0.637900 0.011348 0.075564 255 220 0
0.619072 0.051080 0.101982 255 220 0
0.572002 0.040036 0.030675 255 220 0
0.632242 0.093942 0.063934 255 220 0
0.579179 0.006400 0.008150 255 220 0
0.585338 -0.056881 0.027043 255 220 0
0.555561 -0.047220 0.001784 255 220 0
0.583826 -0.051053 0.013530 255 220 0
0.608339 -0.017403 0.017357 255 220 0
0.566859 0.027197 0.034402 255 220 0
0.639463 0.010351 0.045814 255 220 0
0.576436 0.062120 0.067880 255 220 0
0.617799 0.029147 0.100959 255 220 0
0.583739 0.073560 0.044809 255 220 0
0.559652 -0.032237 0.001570 255 220 0
0.591920 -0.023486 0.084355 255 220 0
0.554103 -0.032561 0.036683 255 220 0
0.593291 0.044115 0.012902 255 220 0
0.571801 -0.012327 0.074659 255 220 0
0.562143 0.004789 0.026760 255 220 0
0.580936 0.033138 0.089239 255 220 0
0.613307 0.051552 0.016656 255 220 0
0.642516 0.013921 0.054662 255 220 0
0.594876 0.068901 0.025504 255 220 0
0.551549 -0.026623 0.021827 255 220 0
0.596970 -0.012819 0.008635 255 220 0
0.621946 -0.003535 0.025242 255 220 0
0.620198 0.056902 0.021364 255 220 0
0.590660 0.063294 0.094326 255 220 0
0.644015 0.025671 0.046914 255 220 0
0.634640 0.004844 0.038796 255 220 0
0.623050 0.035464 0.099845 255 220 0
0.646993 0.045429 0.051610 255 220 0
0.598470 0.004223 0.096817 255 220 0
0.553451 -0.040363 0.002344 255 220 0
0.557721 -0.008350 0.027988 255 220 0
0.622176 -0.020341 0.038571 255 220 0
0.570754 -0.043628 0.001380 255 220 0
0.575321 0.061515 0.059531 255 220 0
0.643610 0.062358 0.082731 255 220 0
0.628361 0.094801 0.060025 255 220 0
0.638969 0.011939 0.043009 255 220 0
0.608899 0.089789 0.042470 255 220 0
0.625271 0.004842 0.087977 255 220 0
0.617994 0.056313 0.102209 255 220 0
0.623211 0.035661 0.019278 255 220 0
0.596382 0.029009 0.008737 255 220 0
0.559831 -0.047529 0.043795 255 220 0
0.644384 0.035116 0.044041 255 220 0
0.602728 0.051127 0.102228 255 220 0
0.563690 -0.047857 0.000789 255 220 0
0.617266 -0.012341 0.024005 255 220 0
0.566600 0.027792 0.058385 255 220 0
0.581680 0.059833 0.030479 255 220 0
0.627920 0.050106 0.024307 255 220 0
0.548624 -0.034259 0.014188 255 220 0
0.579324 -0.045152 0.062722 255 220 0
0.602144 0.006115 0.009370 255 220 0
0.631177 -0.003803 0.071069 255 220 0
0.600361 -0.036306 0.070449 255 220 0
0.546053 -0.044032 0.015980 255 220 0
0.587319 0.001174 0.006295 255 220 0
0.609171 0.010738 0.098078 255 220 0
0.572979 0.055213 0.056111 255 220 0
0.585766 -0.051118 0.015628 255 220 0
0.566797 0.000648 0.013982 255 220 0
0.589728 0.084351 0.056719 255 220 0
0.623288 -0.008967 0.029549 255 220 0
0.635558 0.042556 0.092302 255 220 0
0.582198 0.074988 0.067531 255 220 0
0.631722 0.088688 0.086394 255 220 0
0.600713 0.026713 0.101669 255 220 0
0.568110 0.038207 0.052198 255 220 0
0.581101 0.001107 0.086847 255 220 0
0.630499 0.052463 0.026912 255 220 0
0.560919 -0.031114 0.052236 255 220 0
0.620729 0.090490 0.044795 255 220 0
0.608595 0.081465 0.095826 255 220 0
0.572343 -0.001635 0.077408 255 220 0
0.609819 0.056112 0.102877 255 220 0
0.551619 -0.038454 0.032046 255 220 0
0.625569 0.097128 0.064097 255 220 0
0.638991 0.061177 0.089916 255 220 0
0.592212 0.087153 0.059701 255 220 0
0.636549 0.044871 0.031239 255 220 0
0.635229 0.087793 0.083597 255 220 0
0.595835 0.076601 0.092226 255 220 0
0.572650 -0.017933 0.073903 255 220 0
0.582588 0.052445 0.023106 255 220 0
0.558842 -0.016001 0.046867 255 220 0
0.621461 0.077563 0.098133 255 220 0
0.637853 0.002996 0.051740 255 220 0
0.639816 0.080305 0.083195 255 220 0
0.565838 -0.033069 0.000363 255 220 0
0.594335 0.066577 0.024018 255 220 0
0.591684 -0.006941 0.091914 255 220 0
0.635048 0.087121 0.054637 255 220 0
0.584733 0.016714 0.092338 255 220 0
0.636454 0.010212 0.038616 255 220 0
0.602088 0.091508 0.079851 255 220 0
0.575311 -0.037564 0.066042 255 220 0
0.646835 0.056881 0.055464 255 220 0
0.552365 -0.025042 0.016161 255 220 0
0.592802 -0.015130 0.006974 255 220 0
0.630513 0.032897 0.095000 255 220 0
0.549912 -0.034950 0.026075 255 220 0
0.573628 0.039358 0.077523 255 220 0
0.566573 0.017164 0.024606 255 220 0
0.618124 0.080542 0.097279 255 220 0
0.582494 0.052278 0.088731 255 220 0
0.593364 -0.013653 0.007100 255 220 0
0.604952 0.086183 0.038719 255 220 0
0.626810 -0.016617 0.047810 255 220 0
0.631771 -0.004443 0.068448 255 220 0
0.631409 0.013116 0.086938 255 220 0
0.626728 0.040986 0.022039 255 220 0
0.581704 -0.011539 0.084322 255 220 0
0.643770 0.046928 0.043075 255 220 0
0.558931 -0.016011 0.047148 255 220 0
0.595422 -0.028235 0.010702 255 220 0
0.550264 -0.047638 0.006001 255 220 0
0.567669 0.033049 0.039256 255 220 0
0.585996 0.033040 0.011290 255 220 0
0.576401 0.010849 0.083496 255 220 0
0.576124 -0.003655 0.081281 255 220 0
0.564242 -0.042507 -0.000304 255 220 0
0.643999 0.020938 0.067985 255 220 0
0.622047 0.055096 0.101245 255 220 0
0.567396 -0.042607 0.055395 255 220 0
0.567021 0.033536 0.047041 255 220 0
0.629839 0.001795 0.080297 255 220 0
0.569187 -0.063405 0.027882 255 220 0
0.557925 -0.012692 0.042524 255 220 0
0.590990 0.080640 0.083076 255 220 0
0.565735 0.015438 0.025477 255 220 0
0.640418 0.046781 0.036687 255 220 0
0.600112 -0.045751 0.030628 255 220 0
0.601106 -0.044658 0.030591 255 220 0
0.624554 0.015311 0.022240 255 220 0
0.580201 0.065125 0.039537 255 220 0
0.568829 0.040508 0.047056 255 220 0
0.567891 0.024002 0.066907 255 220 0
0.598270 0.025438 0.100943 255 220 0
0.643127 0.054856 0.084095 255 220 0
0.628759 0.000557 0.080658 255 220 0
0.576613 -0.006619 0.081160 255 220 0
0.565192 0.020429 0.033283 255 220 0
0.639380 0.008796 0.067802 255 220 0
0.581683 -0.013975 0.083490 255 220 0
0.608776 0.038819 0.012261 255 220 0
0.647932 0.061055 0.067146 255 220 0
0.572135 0.044546 0.069120 255 220 0
0.605759 -0.039674 0.057239 255 220 0
0.624061 0.041667 0.099960 255 220 0
0.607313 0.071641 0.024566 255 220 0
0.642765 0.023115 0.074697 255 220 0
0.605413 -0.035751 0.065832 255 220 0
0.643774 0.075402 0.060324 255 220 0
0.619482 0.085006 0.094443 255 220 0
0.586330 -0.042333 0.067688 255 220 0
0.610238 -0.018913 0.082788 255 220 0
0.565057 0.013962 0.026172 255 220 0
0.564239 -0.008694 0.062236 255 220 0
0.592294 -0.050327 0.023651 255 220 0
0.564776 -0.051139 0.046432 255 220 0
0.647414 0.032431 0.062042 255 220 0
0.575103 -0.061336 0.039276 255 220 0
0.625763 0.094651 0.082846 255 220 0
0.603864 -0.034891 0.069208 255 220 0
0.630683 0.083337 0.091331 255 220 0
0.596044 0.043775 0.100350 255 220 0
0.624505 -0.011416 0.033250 255 220 0
0.640530 0.011013 0.067251 255 220 0
0.639417 0.081593 0.055572 255 220 0
0.587541 -0.037928 0.008310 255 220 0
0.551688 -0.055713 0.013359 255 220 0
0.623474 0.090641 0.046664 255 220 0
0.578661 -0.060377 0.027490 255 220 0
0.573158 0.010477 0.079544 255 220 0
0.636032 0.030380 0.089211 255 220 0
0.639180 0.008444 0.047129 255 220 0
0.574424 0.032349 0.080608 255 220 0
0.609021 0.067166 0.021927 255 220 0
0.596528 0.010499 0.007697 255 220 0
0.606680 -0.036784 0.028649 255 220 0
0.606428 0.007344 0.011159 255 220 0
0.597471 0.024012 0.100542 255 220 0
0.577289 0.046433 0.082600 255 220 0
0.638768 0.026071 0.084159 255 220 0
0.632701 -0.006511 0.059353 255 220 0
0.556621 -0.012113 0.032756 255 220 0
0.616968 0.092966 0.047600 255 220 0
0.601164 0.078015 0.030991 255 220 0
0.642435 0.081084 0.064663 255 220 0
0.567245 0.009370 0.018009 255 220 0
0.568853 0.027371 0.068757 255 220 0
0.614013 -0.012777 0.084954 255 220 0
0.579214 0.065251 0.075472 255 220 0
0.594071 0.041790 0.099497 255 220 0
0.637225 0.047487 0.032341 255 220 0
0.648418 0.048020 0.058564 255 220 0
0.623194 0.005384 0.090080 255 220 0
0.571166 0.028139 0.022625 255 220 0
0.583326 0.043061 0.016755 255 220 0
0.601208 0.043684 0.012150 255 220 0
0.567013 0.031619 0.056505 255 220 0
0.579582 0.036874 0.087398 255 220 0
0.619607 0.038120 0.101380 255 220 0
0.639444 0.011510 0.071797 255 220 0
0.610916 0.059167 0.102740 255 220 0
0.553051 -0.023069 0.017316 255 220 0
0.589191 0.084390 0.065506 255 220 0
0.590170 0.064624 0.093430 255 220 0
0.605799 0.031540 0.010413 255 220 0
0.589617 0.055074 0.095420 255 220 0
0.572546 0.015707 0.078787 255 220 0
0.578529 0.064110 0.074395 255 220 0
0.557392 -0.060647 0.022553 255 220 0
0.588630 -0.036694 0.008623 255 220 0
0.566340 -0.014052 0.006825 255 220 0
0.607311 0.013376 0.099089 255 220 0
0.577881 0.029646 0.085709 255 220 0
0.595084 0.044717 0.099871 255 220 0
0.578808 -0.006963 0.083136 255 220 0
0.551570 -0.026540 0.021708 255 220 0
0.605301 0.067719 0.021990 255 220 0
0.582364 0.036375 0.014322 255 220 0
0.589689 0.080632 0.045305 255 220 0
0.607764 0.088556 0.089272 255 220 0
0.619932 0.098280 0.076659 255 220 0
0.573609 -0.060665 0.041261 255 220 0
0.592120 0.024882 0.098416 255 220 0
0.566083 0.029780 0.048966 255 220 0
0.584663 -0.049323 0.012645 255 220 0
0.575959 0.031787 0.082987 255 220 0
0.638489 0.085295 0.058698 255 220 0
0.587100 0.070006 0.087434 255 220 0
0.554546 -0.024161 0.010859 255 220 0
0.605201 0.036355 0.102904 255 220 0
0.567597 0.010060 0.069954 255 220 0
0.636016 -0.001018 0.053513 255 220 0
0.607208 -0.041279 0.047606 255 220 0
0.645783 0.069128 0.061027 255 220 0
0.595996 -0.035605 0.013992 255 220 0
0.604011 0.027505 0.009597 255 220 0
0.599319 -0.045503 0.054624 255 220 0
0.572227 -0.035247 0.064877 255 220 0
0.641711 0.026263 0.079215 255 220 0
0.560717 -0.027001 0.052618 255 220 0
0.640254 0.068197 0.045226 255 220 0
0.607606 0.029462 0.010789 255 220 0
0.614182 -0.002041 0.017737 255 220 0
0.630469 0.021565 0.091817 255 220 0
0.601851 0.078645 0.094898 255 220 0
0.562079 -0.013798 0.009848 255 220 0
0.564500 -0.042506 -0.000277 255 220 0
0.575094 -0.049730 0.005951 255 220 0
0.603975 0.084555 0.091331 255 220 0
0.567783 -0.050367 0.002858 255 220 0
0.638198 0.029274 0.034227 255 220 0
0.563657 0.013324 0.031147 255 220 0
0.561183 -0.000026 0.049955 255 220 0
0.580389 0.060671 0.033486 255 220 0
0.645324 0.070959 0.061105 255 220 0
0.582624 -0.012160 0.004493 255 220 0
0.641190 0.020276 0.042733 255 220 0
0.574901 0.036452 0.080770 255 220 0
0.602936 0.072749 0.025681 255 220 0
0.628205 0.051304 0.098593 255 220 0
0.635113 0.002157 0.070315 255 220 0
0.592523 -0.017667 0.007059 255 220 0
0.615134 0.088868 0.091389 255 220 0
0.627181 -0.008418 0.072861 255 220 0
0.596553 0.072972 0.028149 255 220 0
0.581743 -0.058918 0.042937 255 220 0
0.645852 0.026549 0.065446 255 220 0
0.622063 0.052057 0.020888 255 220 0
0.554019 -0.041132 0.001879 255 220 0
0.554710 -0.024052 0.035681 255 220 0
0.611242 0.018583 0.100138 255 220 0
0.591503 0.010972 0.096093 255 220 0
0.567398 0.035199 0.047944 255 220 0
0.629775 0.091998 0.084112 255 220 0
0.634839 -0.003230 0.056362 255 220 0
0.567233 -0.017572 0.004949 255 220 0
0.626812 0.007182 0.088044 255 220 0
0.578478 0.040805 0.020018 255 220 0
0.584426 0.056124 0.090082 255 220 0
0.627279 0.083060 0.093385 255 220 0
0.587862 -0.053663 0.051305 255 220 0
0.617850 -0.008810 0.023096 255 220 0
0.609007 0.090787 0.087210 255 220 0
0.557340 -0.009407 0.033643 255 220 0
0.586790 0.060628 0.091371 255 220 0
0.634914 -0.003030 0.052876 255 220 0
0.633005 0.085871 0.087812 255 220 0
0.583117 -0.058990 0.035119 255 220 0
0.630214 0.020009 0.026555 255 220 0
0.565482 0.026135 0.041954 255 220 0
0.644242 0.076544 0.065259 255 220 0
0.614406 -0.024044 0.027759 255 220 0
0.640773 0.008958 0.056318 255 220 0
0.590870 0.051512 0.096895 255 220 0
0.569245 -0.041146 0.058235 255 220 0
0.635900 -0.001320 0.055331 255 220 0
0.630514 0.062156 0.030610 255 220 0
0.549707 -0.052861 0.022754 255 220 0
0.625305 0.055701 0.024047 255 220 0
0.638749 0.030506 0.034781 255 220 0
0.630992 -0.004884 0.069788 255 220 0
0.591235 -0.053768 0.045204 255 220 0
0.627002 0.049828 0.023577 255 220 0
0.560149 -0.029072 0.051083 255 220 0
0.603276 0.009367 0.009600 255 220 0
0.603862 0.093525 0.053975 255 220 0
0.548970 -0.050232 0.009662 255 220 0
0.623060 -0.002121 0.085112 255 220 0
0.623589 -0.019072 0.040408 255 220 0
0.594546 0.087566 0.052309 255 220 0
0.601122 0.051429 0.101816 255 220 0
0.637733 0.088888 0.063668 255 220 0
0.565962 -0.026922 0.062084 255 220 0
0.552182 -0.028392 0.028662 255 220 0
0.560243 -0.006422 0.018980 255 220 0
0.631051 0.005576 0.082033 255 220 0
0.623239 -0.021230 0.059269 255 220 0
0.588531 0.082223 0.074381 255 220 0
0.592087 0.086607 0.056803 255 220 0
0.578743 -0.023464 0.077230 255 220 0
0.610239 0.035144 0.102956 255 220 0
0.623364 -0.019878 0.041200 255 220 0
0.600615 0.027177 0.008895 255 220 0
0.626949 0.059943 0.099382 255 220 0
0.641827 0.067909 0.047866 255 220 0
0.630373 0.093410 0.059229 255 220 0
0.584573 -0.011829 0.086342 255 220 0
0.647887 0.060166 0.070090 255 220 0
0.586280 -0.005344 0.089468 255 220 0
0.621050 0.015237 0.095925 255 220 0
0.610668 0.097437 0.062027 255 220 0
0.609657 -0.037690 0.037490 255 220 0
0.570915 -0.010216 0.006402 255 220 0
0.572830 0.032825 0.077718 255 220 0
0.623115 -0.014675 0.071679 255 220 0
0.619418 -0.004780 0.023132 255 220 0
0.568288 -0.007416 0.070846 255 220 0
0.583400 -0.046830 0.009672 255 220 0
0.588213 0.080539 0.077707 255 220 0
0.632721 0.008777 0.082356 255 220 0
0.574527 -0.014416 0.004244 255 220 0
0.631886 0.080683 0.043309 255 220 0
0.622048 -0.014447 0.073750 255 220 0
0.644047 0.063082 0.049754 255 220 0
0.613596 0.098417 0.064900 255 220 0
0.559677 -0.061892 0.022757 255 220 0
0.580513 0.070337 0.072579 255 220 0
0.617431 0.083431 0.095653 255 220 0
0.595669 0.010218 0.097553 255 220 0
0.599362 -0.033312 0.015981 255 220 0
0.613726 0.047071 0.102834 255 220 0
0.597751 -0.041175 0.019756 255 220 0
0.556011 -0.016035 0.035403 255 220 0
0.548545 -0.036595 0.010563 255 220 0
0.562852 -0.057058 0.038559 255 220 0
0.571866 0.010652 0.077761 255 220 0
0.604673 0.015755 0.009739 255 220 0
0.580401 -0.030374 0.074649 255 220 0
0.624990 0.009126 0.090742 255 220 0
0.571623 0.041349 0.033246 255 220 0
0.569300 -0.049800 0.003111 255 220 0
0.648217 0.044739 0.070882 255 220 0
0.622150 -0.005631 0.083115 255 220 0
0.646930 0.045580 0.051432 255 220 0
