ply
format ascii 1.0
element vertex 1024
property float x
property float y
property float z
property uchar red
property uchar green
property uchar blue
end_header
0.402253 0.046652 0.043790 255 220 0
0.424296 0.124767 0.020231 255 220 0
0.424078 0.191665 0.078052 255 220 0
0.436973 0.154085 0.072563 255 220 0
0.431717 0.105683 0.045445 255 220 0
0.397143 0.136983 0.104085 255 220 0
0.424741 0.106390 0.023936 255 220 0
0.396111 0.187265 0.036354 255 220 0
0.367549 0.108548 0.090811 255 220 0
0.436041 0.160874 0.046364 255 220 0
0.393281 0.188022 0.038037 255 220 0
0.365960 0.174464 0.056353 255 220 0
0.386117 0.149130 0.023570 255 220 0
0.400095 0.071975 0.004025 255 220 0
0.425437 0.164615 0.028827 255 220 0
0.436628 0.152266 0.074040 255 220 0
0.435568 0.169818 0.066313 255 220 0
0.357977 0.116378 0.063587 255 220 0
0.400273 0.061688 0.001922 255 220 0
0.399359 0.127290 0.013226 255 220 0
0.420251 0.087368 0.021544 255 220 0
0.429786 0.180279 0.047994 255 220 0
0.391166 0.201631 0.085928 255 220 0
0.416273 0.197298 0.049787 255 220 0
0.376942 0.115024 0.097381 255 220 0
0.360416 0.088932 0.055600 255 220 0
0.434149 0.158168 0.038940 255 220 0
0.406046 0.174230 0.100682 255 220 0
0.401035 0.082207 0.006720 255 220 0
0.384546 0.122905 0.101169 255 220 0
0.365761 0.069567 0.041275 255 220 0
0.382407 0.097050 0.093032 255 220 0
0.436371 0.161751 0.071594 255 220 0
0.372222 0.061592 0.021238 255 220 0
0.430120 0.145173 0.028168 255 220 0
0.426437 0.087068 0.048555 255 220 0
0.361853 0.135681 0.048268 255 220 0
0.391385 0.055414 -0.000479 255 220 0
0.366843 0.125571 0.038013 255 220 0
0.416108 0.202834 0.070900 255 220 0
0.413997 0.178316 0.029910 255 220 0
0.422725 0.076595 0.042584 255 220 0
0.429876 0.114035 0.030456 255 220 0
0.367923 0.181278 0.058969 255 220 0
0.387762 0.047925 0.055543 255 220 0
0.425840 0.093839 0.066257 255 220 0
0.366917 0.176781 0.056167 255 220 0
0.403001 0.188994 0.096917 255 220 0
0.411362 0.079485 0.074910 255 220 0
0.363583 0.088469 0.042035 255 220 0
0.417666 0.201113 0.063864 255 220 0
0.435936 0.157773 0.043716 255 220 0
0.399243 0.046494 0.047056 255 220 0
0.430126 0.172062 0.039889 255 220 0
0.391674 0.166910 0.026247 255 220 0
0.363651 0.110241 0.086882 255 220 0
0.359221 0.151452 0.066523 255 220 0
0.414269 0.166956 0.023652 255 220 0
0.412654 0.070310 0.013376 255 220 0
0.368532 0.077733 0.075393 255 220 0
0.421307 0.091186 0.022359 255 220 0
0.363522 0.089089 0.042137 255 220 0
0.364746 0.071185 0.049834 255 220 0
0.420085 0.187744 0.040813 255 220 0
0.379474 0.046257 0.051064 255 220 0
0.374569 0.099733 0.023944 255 220 0
0.368249 0.180114 0.056480 255 220 0
0.415748 0.068054 0.055711 255 220 0
0.411144 0.205600 0.074105 255 220 0
0.359010 0.133329 0.079551 255 220 0
0.431175 0.127987 0.028958 255 220 0
0.411344 0.110532 0.012529 255 220 0
0.381348 0.051652 0.059426 255 220 0
0.428292 0.105401 0.030992 255 220 0
0.362223 0.130447 0.046494 255 220 0
0.400226 0.095921 0.090739 255 220 0
0.412867 0.204414 0.066280 255 220 0
0.368318 0.116514 0.034409 255 220 0
0.405808 0.104879 0.093085 255 220 0
0.410558 0.055344 0.015050 255 220 0
0.357873 0.121945 0.065133 255 220 0
0.372603 0.048343 0.032519 255 220 0
0.420278 0.168139 0.026605 255 220 0
0.437065 0.129165 0.048890 255 220 0
0.366861 0.112891 0.036335 255 220 0
0.431022 0.135828 0.084611 255 220 0
0.361387 0.165508 0.069751 255 220 0
0.369505 0.123805 0.033735 255 220 0
0.402518 0.052769 0.053942 255 220 0
0.364115 0.168450 0.056166 255 220 0
0.416208 0.139110 0.016165 255 220 0
0.423480 0.195458 0.071237 255 220 0
0.364439 0.174193 0.077775 255 220 0
0.435960 0.140738 0.039063 255 220 0
0.426850 0.190229 0.056960 255 220 0
0.371496 0.187401 0.059041 255 220 0
0.382883 0.117566 0.099681 255 220 0
0.359051 0.133504 0.056537 255 220 0
0.434571 0.116837 0.046977 255 220 0
0.394958 0.041571 0.041069 255 220 0
0.388310 0.166002 0.102159 255 220 0
0.417026 0.141174 0.098545 255 220 0
0.413691 0.061432 0.018472 255 220 0
0.428504 0.171907 0.084656 255 220 0
0.406277 0.092387 0.086745 255 220 0
0.358059 0.132308 0.063670 255 220 0
0.370527 0.179192 0.086931 255 220 0
0.428605 0.121087 0.025869 255 220 0
0.421721 0.130703 0.093513 255 220 0
0.378518 0.128799 0.100260 255 220 0
0.430679 0.100791 0.048795 255 220 0
0.358679 0.113692 0.073619 255 220 0
0.370529 0.076870 0.026733 255 220 0
0.435660 0.132375 0.039337 255 220 0
0.373616 0.170986 0.093418 255 220 0
0.385364 0.147926 0.103352 255 220 0
0.415993 0.171428 0.026345 255 220 0
0.405975 0.051705 0.008053 255 220 0
0.416162 0.140134 0.016335 255 220 0
0.384595 0.195505 0.051509 255 220 0
0.410907 0.205818 0.072636 255 220 0
0.425491 0.110258 0.081285 255 220 0
0.408174 0.140010 0.014659 255 220 0
0.397644 0.202983 0.054329 255 220 0
0.359624 0.128607 0.081470 255 220 0
0.359171 0.112235 0.053057 255 220 0
0.394885 0.167894 0.025385 255 220 0
0.383416 0.037418 0.034315 255 220 0
0.403288 0.049613 0.048009 255 220 0
0.406726 0.124009 0.099965 255 220 0
0.430069 0.157775 0.086723 255 220 0
0.434726 0.140517 0.079117 255 220 0
0.375354 0.053229 0.011945 255 220 0
0.409229 0.065844 0.063499 255 220 0
0.357962 0.134547 0.070241 255 220 0
0.404519 0.063135 0.004746 255 220 0
0.418883 0.200608 0.069092 255 220 0
0.403206 0.077155 0.078451 255 220 0
0.401000 0.054997 0.002028 255 220 0
0.388836 0.108719 0.014288 255 220 0
0.380604 0.117130 0.099010 255 220 0
0.410465 0.079973 0.076089 255 220 0
0.388297 0.099378 0.012926 255 220 0
0.412788 0.198280 0.087261 255 220 0
0.430892 0.181254 0.053611 255 220 0
0.367621 0.126729 0.037013 255 220 0
0.385562 0.093598 0.091607 255 220 0
0.371476 0.054109 0.023632 255 220 0
0.410551 0.070582 0.010771 255 220 0
0.388609 0.121458 0.101472 255 220 0
0.374423 0.133550 0.029639 255 220 0
0.358056 0.136027 0.071894 255 220 0
0.418261 0.065504 0.033903 255 220 0
0.404319 0.044315 0.034191 255 220 0
0.358532 0.106015 0.058362 255 220 0
0.361675 0.166462 0.071929 255 220 0
0.366997 0.121906 0.037186 255 220 0
0.378855 0.086396 0.016628 255 220 0
0.416969 0.200900 0.078181 255 220 0
0.429245 0.096360 0.045627 255 220 0
0.365972 0.086039 0.036728 255 220 0
0.435682 0.161124 0.045249 255 220 0
0.384925 0.170216 0.100422 255 220 0
0.382529 0.098832 0.016472 255 220 0
0.426259 0.172528 0.034252 255 220 0
0.392799 0.065930 0.072622 255 220 0
0.379497 0.125610 0.023491 255 220 0
0.362718 0.133573 0.046154 255 220 0
0.373031 0.171682 0.092694 255 220 0
0.434200 0.172877 0.054371 255 220 0
0.401559 0.115306 0.098658 255 220 0
0.400242 0.123136 0.101366 255 220 0
0.371043 0.189386 0.073029 255 220 0
0.401693 0.204787 0.083791 255 220 0
0.361689 0.165803 0.064384 255 220 0
0.391188 0.199710 0.088337 255 220 0
0.430027 0.101382 0.041078 255 220 0
0.360330 0.105205 0.049137 255 220 0
0.410536 0.084381 0.079353 255 220 0
0.430456 0.141319 0.027987 255 220 0
0.364041 0.154985 0.086649 255 220 0
0.394064 0.103559 0.095409 255 220 0
0.421566 0.073702 0.038337 255 220 0
0.373619 0.170223 0.093630 255 220 0
0.367737 0.065083 0.056130 255 220 0
0.421413 0.109784 0.019320 255 220 0
0.406514 0.201959 0.052594 255 220 0
0.432219 0.106094 0.057474 255 220 0
0.373961 0.171091 0.093683 255 220 0
0.410459 0.096392 0.012000 255 220 0
0.368319 0.103421 0.033223 255 220 0
0.430430 0.145571 0.087252 255 220 0
0.358956 0.117632 0.076868 255 220 0
0.402949 0.050297 0.049584 255 220 0
0.412948 0.131628 0.099272 255 220 0
0.437491 0.155713 0.070352 255 220 0
0.390438 0.163514 0.102912 255 220 0
0.421360 0.075036 0.050353 255 220 0
0.389004 0.177820 0.032908 255 220 0
0.428793 0.118955 0.026660 255 220 0
0.421158 0.134748 0.094788 255 220 0
0.377889 0.197183 0.070140 255 220 0
0.359272 0.146134 0.060805 255 220 0
0.362059 0.168062 0.072349 255 220 0
0.412105 0.166456 0.100235 255 220 0
0.406922 0.091427 0.085927 255 220 0
0.382824 0.201214 0.070655 255 220 0
0.363125 0.153071 0.050715 255 220 0
0.424793 0.190346 0.050480 255 220 0
0.367341 0.127086 0.092826 255 220 0
0.403693 0.207760 0.068262 255 220 0
0.394068 0.198956 0.090215 255 220 0
0.396040 0.076380 0.080220 255 220 0
0.404996 0.110899 0.095981 255 220 0
0.361705 0.154234 0.054567 255 220 0
0.394268 0.057967 0.065065 255 220 0
0.424570 0.178237 0.087715 255 220 0
0.407252 0.112929 0.095988 255 220 0
0.415236 0.194815 0.088089 255 220 0
0.383125 0.067936 0.074912 255 220 0
0.426526 0.089133 0.056056 255 220 0
0.403068 0.091853 0.009039 255 220 0
0.388292 0.038541 0.010433 255 220 0
0.420331 0.199205 0.070721 255 220 0
0.372853 0.183871 0.051661 255 220 0
0.370129 0.054685 0.032632 255 220 0
0.418542 0.083711 0.069973 255 220 0
0.388766 0.149104 0.103986 255 220 0
0.385253 0.114346 0.099282 255 220 0
0.361232 0.095218 0.074577 255 220 0
0.418684 0.112888 0.089614 255 220 0
0.382070 0.037621 0.032512 255 220 0
0.367159 0.082594 0.034140 255 220 0
0.389930 0.043931 0.048925 255 220 0
0.361128 0.122273 0.047632 255 220 0
0.358055 0.137255 0.067768 255 220 0
0.387788 0.095393 0.092376 255 220 0
0.407161 0.194993 0.042268 255 220 0
0.432847 0.178082 0.066237 255 220 0
0.424010 0.162224 0.093645 255 220 0
0.391309 0.097034 0.092876 255 220 0
0.358857 0.134478 0.078838 255 220 0
0.412664 0.198092 0.048344 255 220 0
0.435979 0.169038 0.060443 255 220 0
0.405025 0.074880 0.075751 255 220 0
0.405120 0.188274 0.096744 255 220 0
0.390034 0.164077 0.025917 255 220 0
0.377022 0.091937 0.019794 255 220 0
0.403844 0.207694 0.067896 255 220 0
0.385640 0.202377 0.078319 255 220 0
0.359931 0.157094 0.070591 255 220 0
0.376747 0.057880 0.063645 255 220 0
0.428569 0.098646 0.064282 255 220 0
0.365353 0.173622 0.057278 255 220 0
0.393555 0.200044 0.088929 255 220 0
0.388137 0.179483 0.034395 255 220 0
0.394064 0.120703 0.013801 255 220 0
0.360806 0.086658 0.056514 255 220 0
0.388639 0.053745 0.062049 255 220 0
0.375859 0.160108 0.097662 255 220 0
0.433667 0.137250 0.033158 255 220 0
0.369198 0.165505 0.090552 255 220 0
0.369712 0.176862 0.050520 255 220 0
0.369713 0.124195 0.094459 255 220 0
0.360072 0.154987 0.075058 255 220 0
0.364296 0.144086 0.089892 255 220 0
0.407816 0.056432 0.052739 255 220 0
0.362605 0.114146 0.086050 255 220 0
0.362220 0.120381 0.045086 255 220 0
0.416241 0.202642 0.068413 255 220 0
0.361208 0.140146 0.085114 255 220 0
0.394318 0.202145 0.086705 255 220 0
0.397059 0.120608 0.012789 255 220 0
0.436811 0.165309 0.056870 255 220 0
0.358070 0.113736 0.065785 255 220 0
0.411948 0.090027 0.082107 255 220 0
0.402583 0.172837 0.025881 255 220 0
0.386718 0.069377 0.076140 255 220 0
0.382039 0.123733 0.100711 255 220 0
0.361871 0.152210 0.083160 255 220 0
0.364142 0.164516 0.053508 255 220 0
0.420422 0.072800 0.030896 255 220 0
0.379929 0.039383 0.034155 255 220 0
0.373067 0.167507 0.093849 255 220 0
0.427556 0.160175 0.029237 255 220 0
0.391820 0.155240 0.103990 255 220 0
0.409418 0.113580 0.011915 255 220 0
0.422985 0.191249 0.048478 255 220 0
0.382437 0.070502 0.007993 255 220 0
0.369046 0.131129 0.035734 255 220 0
0.372075 0.073958 0.023364 255 220 0
0.363792 0.101228 0.084208 255 220 0
0.369909 0.135592 0.035408 255 220 0
0.400023 0.179493 0.029924 255 220 0
0.408847 0.053750 0.012228 255 220 0
0.417266 0.149284 0.018816 255 220 0
0.399490 0.118231 0.100071 255 220 0
0.360528 0.147551 0.055353 255 220 0
0.425359 0.159422 0.026814 255 220 0
0.369027 0.165270 0.090422 255 220 0
0.429039 0.133717 0.025464 255 220 0
0.363730 0.104212 0.085266 255 220 0
0.380471 0.168121 0.033800 255 220 0
0.414389 0.072031 0.015629 255 220 0
0.372619 0.179100 0.047835 255 220 0
0.358265 0.118273 0.058551 255 220 0
0.364064 0.091391 0.040765 255 220 0
0.360772 0.137283 0.084456 255 220 0
0.371746 0.142301 0.034476 255 220 0
0.385145 0.035868 0.028367 255 220 0
0.396679 0.049041 0.053339 255 220 0
0.394148 0.037430 0.030281 255 220 0
0.421883 0.159847 0.024303 255 220 0
0.411201 0.086477 0.080319 255 220 0
0.439080 0.144826 0.054590 255 220 0
0.375554 0.077677 0.080992 255 220 0
0.424273 0.092491 0.027584 255 220 0
0.395940 0.169991 0.102561 255 220 0
0.427290 0.092533 0.059353 255 220 0
0.381406 0.187634 0.045461 255 220 0
0.410169 0.179636 0.029870 255 220 0
0.431962 0.108065 0.042824 255 220 0
0.426390 0.087219 0.050818 255 220 0
0.404361 0.146065 0.103615 255 220 0
0.387062 0.115907 0.099925 255 220 0
0.418192 0.073551 0.022479 255 220 0
0.430531 0.164723 0.083888 255 220 0
0.368829 0.127170 0.094116 255 220 0
0.409047 0.048439 0.023018 255 220 0
0.405726 0.173954 0.026235 255 220 0
0.393010 0.057850 0.065301 255 220 0
0.361287 0.149781 0.053840 255 220 0
0.409176 0.200994 0.086814 255 220 0
0.408481 0.097135 0.088182 255 220 0
0.431137 0.102075 0.051449 255 220 0
0.407567 0.185494 0.033588 255 220 0
0.368417 0.103435 0.090189 255 220 0
0.382887 0.138803 0.023388 255 220 0
0.428619 0.139147 0.025359 255 220 0
0.371015 0.136336 0.096848 255 220 0
0.365360 0.089178 0.038063 255 220 0
0.398672 0.127439 0.102602 255 220 0
0.380582 0.090576 0.016091 255 220 0
0.389824 0.037485 0.013291 255 220 0
0.434795 0.133879 0.036172 255 220 0
0.418884 0.139713 0.097198 255 220 0
0.410330 0.083485 0.078862 255 220 0
0.366914 0.174455 0.053988 255 220 0
0.413936 0.169372 0.098958 255 220 0
0.406759 0.108932 0.094513 255 220 0
0.358199 0.133790 0.062616 255 220 0
0.401347 0.208092 0.070546 255 220 0
0.372204 0.066508 0.022101 255 220 0
0.372458 0.112441 0.028239 255 220 0
0.363279 0.076438 0.053133 255 220 0
0.386580 0.123568 0.018068 255 220 0
0.380060 0.038573 0.029170 255 220 0
0.390324 0.041222 0.043526 255 220 0
0.366027 0.112286 0.037663 255 220 0
0.412105 0.198520 0.087558 255 220 0
0.438885 0.155480 0.062132 255 220 0
0.377936 0.040946 0.032584 255 220 0
0.434360 0.169240 0.048908 255 220 0
0.369360 0.057737 0.032977 255 220 0
0.364897 0.075065 0.041158 255 220 0
0.413233 0.150278 0.101002 255 220 0
0.426171 0.106997 0.026005 255 220 0
0.404188 0.159539 0.103145 255 220 0
0.386354 0.189973 0.043709 255 220 0
0.359717 0.119652 0.080437 255 220 0
0.397804 0.062369 0.068134 255 220 0
0.404570 0.192789 0.039752 255 220 0
0.384946 0.151721 0.102987 255 220 0
0.399949 0.132538 0.103300 255 220 0
0.358181 0.124040 0.060025 255 220 0
0.363724 0.138783 0.045526 255 220 0
0.437886 0.136094 0.066615 255 220 0
0.420668 0.102575 0.019638 255 220 0
0.395948 0.181050 0.031910 255 220 0
0.396196 0.205205 0.059474 255 220 0
0.376159 0.080844 0.083442 255 220 0
0.359744 0.106917 0.076502 255 220 0
0.426797 0.190574 0.057922 255 220 0
0.409033 0.105482 0.011685 255 220 0
0.401819 0.162233 0.103236 255 220 0
0.388418 0.120665 0.016464 255 220 0
0.432895 0.132800 0.080444 255 220 0
0.392878 0.124868 0.014933 255 220 0
0.380911 0.052725 0.003742 255 220 0
0.404229 0.172106 0.101491 255 220 0
0.416240 0.078134 0.017289 255 220 0
0.394449 0.150625 0.019738 255 220 0
0.394446 0.092592 0.090339 255 220 0
0.372833 0.177173 0.046215 255 220 0
0.419804 0.199715 0.071007 255 220 0
0.423308 0.182777 0.086982 255 220 0
0.364600 0.177079 0.068676 255 220 0
0.359503 0.109342 0.076570 255 220 0
0.361670 0.156918 0.056041 255 220 0
0.426223 0.185957 0.079795 255 220 0
0.399534 0.119365 0.012079 255 220 0
0.418126 0.067357 0.027731 255 220 0
0.388919 0.174971 0.031357 255 220 0
0.425207 0.192598 0.072270 255 220 0
0.366132 0.114959 0.037715 255 220 0
0.412069 0.165270 0.022505 255 220 0
0.405689 0.175835 0.027262 255 220 0
0.363576 0.106050 0.085655 255 220 0
0.381494 0.133909 0.023462 255 220 0
0.431836 0.181043 0.062608 255 220 0
0.415317 0.069059 0.018134 255 220 0
0.371840 0.067108 0.022991 255 220 0
0.359387 0.129072 0.053911 255 220 0
0.401167 0.118935 0.011785 255 220 0
0.410264 0.128834 0.013023 255 220 0
0.410033 0.179407 0.098091 255 220 0
0.427199 0.092115 0.038060 255 220 0
0.407539 0.059066 0.056951 255 220 0
0.375224 0.072997 0.017734 255 220 0
0.432493 0.112376 0.040206 255 220 0
0.361134 0.164225 0.067886 255 220 0
0.404393 0.088434 0.085365 255 220 0
0.412313 0.182068 0.096204 255 220 0
0.383913 0.042369 0.006660 255 220 0
0.361798 0.083231 0.060703 255 220 0
0.438790 0.150892 0.065774 255 220 0
0.378726 0.157103 0.031215 255 220 0
0.377879 0.063581 0.069958 255 220 0
0.363581 0.171119 0.061039 255 220 0
0.401749 0.046580 0.005785 255 220 0
0.411809 0.203944 0.061760 255 220 0
0.394644 0.188866 0.097262 255 220 0
0.396006 0.204443 0.083807 255 220 0
0.379725 0.190985 0.089083 255 220 0
0.403711 0.074449 0.076114 255 220 0
0.376514 0.045520 0.013786 255 220 0
0.429896 0.185513 0.062181 255 220 0
0.371274 0.164577 0.041929 255 220 0
0.421905 0.155964 0.096192 255 220 0
0.358395 0.105942 0.063098 255 220 0
0.428092 0.189041 0.064760 255 220 0
0.363694 0.174355 0.068148 255 220 0
0.406631 0.196526 0.044038 255 220 0
0.438207 0.153524 0.068158 255 220 0
0.420233 0.072929 0.050772 255 220 0
0.383701 0.191021 0.046856 255 220 0
0.406478 0.045645 0.031605 255 220 0
0.374240 0.175050 0.092757 255 220 0
0.359300 0.146899 0.061111 255 220 0
0.377950 0.192442 0.054894 255 220 0
0.435778 0.127302 0.069860 255 220 0
0.410702 0.055588 0.015217 255 220 0
0.416951 0.176460 0.095482 255 220 0
0.422045 0.146187 0.020695 255 220 0
0.404396 0.191695 0.038676 255 220 0
0.404603 0.110058 0.095770 255 220 0
0.425299 0.084425 0.040501 255 220 0
0.429449 0.102366 0.066239 255 220 0
0.433002 0.175360 0.071571 255 220 0
0.391421 0.057245 0.065069 255 220 0
0.377939 0.070616 0.076235 255 220 0
0.436597 0.134879 0.071778 255 220 0
0.439077 0.141742 0.060487 255 220 0
0.364829 0.070987 0.050695 255 220 0
0.358606 0.130319 0.077613 255 220 0
0.391753 0.201088 0.086965 255 220 0
0.382501 0.058819 0.003537 255 220 0
0.406608 0.091547 0.009975 255 220 0
0.403760 0.112517 0.011061 255 220 0
0.430446 0.142288 0.028119 255 220 0
0.370683 0.185252 0.081991 255 220 0
0.422116 0.149110 0.021419 255 220 0
0.417970 0.065720 0.030080 255 220 0
0.358593 0.113508 0.072866 255 220 0
0.414420 0.096165 0.014447 255 220 0
0.359382 0.105069 0.073616 255 220 0
0.429446 0.173973 0.081982 255 220 0
0.432684 0.165545 0.079350 255 220 0
0.403657 0.158783 0.019938 255 220 0
0.376118 0.126322 0.026600 255 220 0
0.424072 0.179375 0.087819 255 220 0
0.365825 0.176835 0.059615 255 220 0
0.364198 0.145680 0.089456 255 220 0
0.389488 0.156889 0.023783 255 220 0
0.424612 0.181255 0.039495 255 220 0
0.397308 0.041034 0.037329 255 220 0
0.367735 0.061742 0.044672 255 220 0
0.400601 0.107637 0.010664 255 220 0
0.377514 0.172730 0.095981 255 220 0
0.360849 0.111570 0.081932 255 220 0
0.438174 0.157453 0.066567 255 220 0
0.396547 0.201178 0.051675 255 220 0
0.394234 0.056957 0.064081 255 220 0
0.373676 0.170979 0.093472 255 220 0
0.385833 0.058864 0.067127 255 220 0
0.370101 0.111630 0.031203 255 220 0
0.432829 0.123884 0.033500 255 220 0
0.421707 0.145837 0.095951 255 220 0
0.375245 0.066515 0.015990 255 220 0
0.380839 0.102236 0.094921 255 220 0
0.378526 0.112564 0.097425 255 220 0
0.370156 0.055418 0.030173 255 220 0
0.411090 0.067200 0.011630 255 220 0
0.407651 0.081649 0.079359 255 220 0
0.369857 0.135455 0.035452 255 220 0
0.367938 0.131476 0.037427 255 220 0
0.421313 0.143193 0.019583 255 220 0
0.381685 0.168178 0.032862 255 220 0
0.437857 0.140191 0.046732 255 220 0
0.364693 0.166784 0.083377 255 220 0
0.387027 0.052529 0.060979 255 220 0
0.383267 0.077271 0.009703 255 220 0
0.404537 0.042874 0.025881 255 220 0
0.390504 0.089617 0.089330 255 220 0
0.373078 0.055206 0.055111 255 220 0
0.374891 0.050391 0.013718 255 220 0
0.412878 0.184874 0.094908 255 220 0
0.364331 0.075996 0.062137 255 220 0
0.357956 0.124183 0.070525 255 220 0
0.432898 0.149916 0.083285 255 220 0
0.429945 0.155605 0.030559 255 220 0
0.424201 0.152432 0.023790 255 220 0
0.420062 0.071835 0.030520 255 220 0
0.428023 0.187175 0.072892 255 220 0
0.359523 0.096708 0.054794 255 220 0
0.397806 0.061881 0.067664 255 220 0
0.406269 0.206963 0.075902 255 220 0
0.393419 0.164898 0.024714 255 220 0
0.408565 0.079124 0.076884 255 220 0
0.403210 0.059771 0.003524 255 220 0
0.389463 0.084811 0.008396 255 220 0
0.423864 0.081261 0.052218 255 220 0
0.401560 0.051587 0.053139 255 220 0
0.395547 0.207440 0.073834 255 220 0
0.378904 0.127211 0.100188 255 220 0
0.434578 0.171725 0.054346 255 220 0
0.374257 0.124829 0.028194 255 220 0
0.417832 0.133140 0.016000 255 220 0
0.400590 0.115362 0.011448 255 220 0
0.372815 0.047917 0.024708 255 220 0
0.430127 0.137505 0.027115 255 220 0
0.410850 0.112568 0.012331 255 220 0
0.418381 0.066916 0.044293 255 220 0
0.359456 0.116660 0.078836 255 220 0
0.403205 0.154891 0.103662 255 220 0
0.423255 0.098305 0.075691 255 220 0
0.363960 0.142528 0.046054 255 220 0
0.364421 0.163755 0.052517 255 220 0
0.368233 0.171483 0.087384 255 220 0
0.436090 0.122691 0.062971 255 220 0
0.393533 0.154956 0.021323 255 220 0
0.402055 0.103719 0.093846 255 220 0
0.361482 0.140780 0.050340 255 220 0
0.420856 0.091105 0.021657 255 220 0
0.380121 0.043356 0.009486 255 220 0
0.423766 0.089955 0.027613 255 220 0
0.372171 0.080775 0.024095 255 220 0
0.431171 0.103052 0.058770 255 220 0
0.408079 0.154993 0.102613 255 220 0
0.425691 0.104840 0.077130 255 220 0
0.399685 0.095569 0.090706 255 220 0
0.406833 0.089411 0.084839 255 220 0
0.359133 0.150527 0.071479 255 220 0
0.372775 0.093244 0.025120 255 220 0
0.391679 0.090504 0.089654 255 220 0
0.369881 0.098001 0.030172 255 220 0
0.380599 0.194384 0.086366 255 220 0
0.379233 0.135834 0.101363 255 220 0
0.426476 0.158187 0.027446 255 220 0
0.358761 0.128994 0.078301 255 220 0
0.415740 0.196228 0.047471 255 220 0
0.436494 0.158118 0.072822 255 220 0
0.409495 0.049112 0.023149 255 220 0
0.412543 0.178842 0.029838 255 220 0
0.434290 0.119697 0.068956 255 220 0
0.408529 0.099895 0.011322 255 220 0
0.372785 0.048796 0.022381 255 220 0
0.415378 0.120885 0.014108 255 220 0
0.416744 0.072870 0.060556 255 220 0
0.415897 0.179938 0.031716 255 220 0
0.430370 0.115461 0.076415 255 220 0
0.422952 0.163245 0.026233 255 220 0
0.364938 0.071452 0.054583 255 220 0
0.394293 0.202105 0.054211 255 220 0
0.365686 0.083506 0.037373 255 220 0
0.358354 0.121040 0.058008 255 220 0
0.366602 0.079255 0.035425 255 220 0
0.364911 0.082412 0.073345 255 220 0
0.415065 0.070777 0.061013 255 220 0
0.398064 0.185843 0.034682 255 220 0
0.435841 0.123735 0.046375 255 220 0
0.385252 0.070282 0.076895 255 220 0
0.423203 0.091760 0.069852 255 220 0
0.435914 0.121636 0.062501 255 220 0
0.390562 0.184137 0.036284 255 220 0
0.400424 0.116809 0.099429 255 220 0
0.425684 0.084953 0.048559 255 220 0
0.359433 0.098268 0.067594 255 220 0
0.367008 0.104952 0.089416 255 220 0
0.435792 0.120795 0.050957 255 220 0
0.385696 0.062877 0.002815 255 220 0
0.436922 0.152734 0.044431 255 220 0
0.358087 0.138058 0.070372 255 220 0
0.409320 0.205335 0.063260 255 220 0
0.435092 0.118075 0.049321 255 220 0
0.372259 0.092824 0.088573 255 220 0
0.372932 0.062047 0.019584 255 220 0
0.419018 0.161947 0.097564 255 220 0
0.421575 0.131631 0.093844 255 220 0
0.359742 0.150483 0.076608 255 220 0
0.400336 0.039965 0.028619 255 220 0
0.434552 0.173580 0.061312 255 220 0
0.358704 0.139793 0.076748 255 220 0
0.369454 0.186658 0.074823 255 220 0
0.412465 0.076307 0.012751 255 220 0
0.382157 0.200750 0.071964 255 220 0
0.379624 0.168036 0.098384 255 220 0
0.409156 0.051988 0.042104 255 220 0
0.395989 0.130169 0.103320 255 220 0
0.428976 0.186273 0.055999 255 220 0
0.360651 0.102757 0.048325 255 220 0
0.419758 0.197453 0.079239 255 220 0
0.408851 0.099167 0.011407 255 220 0
0.361625 0.087166 0.067370 255 220 0
0.360831 0.087146 0.060528 255 220 0
0.389924 0.141516 0.019586 255 220 0
0.392253 0.104506 0.095993 255 220 0
0.397774 0.086058 0.086121 255 220 0
0.438634 0.143071 0.050889 255 220 0
0.380110 0.152350 0.101243 255 220 0
0.373105 0.048722 0.039357 255 220 0
0.431311 0.118710 0.031721 255 220 0
0.433391 0.176366 0.067086 255 220 0
0.390377 0.085814 0.087276 255 220 0
0.429214 0.186902 0.061551 255 220 0
0.377928 0.156130 0.031620 255 220 0
0.439019 0.141081 0.060737 255 220 0
0.373837 0.060380 0.063584 255 220 0
0.426802 0.190619 0.069827 255 220 0
0.400894 0.198826 0.047153 255 220 0
0.371665 0.087842 0.025944 255 220 0
0.381579 0.103664 0.018137 255 220 0
0.432324 0.106920 0.059517 255 220 0
0.381493 0.041592 0.044213 255 220 0
0.433205 0.171739 0.047685 255 220 0
0.414492 0.191346 0.040570 255 220 0
0.396603 0.037476 0.017975 255 220 0
0.403591 0.059093 0.061227 255 220 0
0.419342 0.199183 0.060356 255 220 0
0.386489 0.081926 0.085266 255 220 0
0.412838 0.069902 0.013686 255 220 0
0.407707 0.124132 0.099656 255 220 0
0.378056 0.165950 0.097880 255 220 0
0.392958 0.138752 0.017502 255 220 0
0.416233 0.202694 0.072372 255 220 0
0.411867 0.102542 0.012859 255 220 0
0.399736 0.044217 0.042019 255 220 0
0.396334 0.046734 0.002017 255 220 0
0.408325 0.047496 0.030428 255 220 0
0.425162 0.083354 0.043790 255 220 0
0.385972 0.126330 0.018941 255 220 0
0.429376 0.118218 0.080060 255 220 0
0.371602 0.167165 0.042566 255 220 0
0.376642 0.144139 0.100330 255 220 0
0.393460 0.175107 0.029313 255 220 0
0.400250 0.061764 0.001921 255 220 0
0.366625 0.087350 0.080572 255 220 0
0.371928 0.066942 0.022775 255 220 0
0.420804 0.141621 0.018955 255 220 0
0.359479 0.094853 0.057858 255 220 0
0.386637 0.102618 0.014468 255 220 0
0.358457 0.142770 0.065986 255 220 0
0.433014 0.151343 0.034002 255 220 0
0.425643 0.123503 0.087708 255 220 0
0.414582 0.168234 0.024309 255 220 0
0.380703 0.070007 0.009506 255 220 0
0.423274 0.085351 0.028999 255 220 0
0.430254 0.099521 0.056133 255 220 0
0.435006 0.158011 0.041063 255 220 0
0.363589 0.174096 0.070688 255 220 0
0.432732 0.133846 0.081142 255 220 0
0.430463 0.111187 0.072834 255 220 0
0.381539 0.150616 0.102002 255 220 0
0.432710 0.154300 0.082841 255 220 0
0.364233 0.117251 0.088709 255 220 0
0.394806 0.053370 -0.000308 255 220 0
0.381883 0.089540 0.014706 255 220 0
0.420266 0.085323 0.068736 255 220 0
0.407742 0.051544 0.011537 255 220 0
0.376548 0.165048 0.036057 255 220 0
0.409659 0.175921 0.099206 255 220 0
0.416195 0.202524 0.066800 255 220 0
0.431050 0.119254 0.077461 255 220 0
0.414073 0.192876 0.042011 255 220 0
0.389669 0.118740 0.100860 255 220 0
0.377411 0.171027 0.096331 255 220 0
0.437449 0.137079 0.045594 255 220 0
0.425081 0.126363 0.020950 255 220 0
0.370301 0.053978 0.034468 255 220 0
0.435506 0.142657 0.077639 255 220 0
0.366130 0.164581 0.086785 255 220 0
0.402837 0.046663 0.007037 255 220 0
0.427259 0.090251 0.053667 255 220 0
0.369212 0.130983 0.035466 255 220 0
0.401145 0.159008 0.020381 255 220 0
0.438150 0.152532 0.049699 255 220 0
0.383468 0.060950 0.003544 255 220 0
0.371351 0.061277 0.060725 255 220 0
0.427528 0.104518 0.029586 255 220 0
0.405150 0.107898 0.094668 255 220 0
0.381621 0.073150 0.079002 255 220 0
0.379840 0.051436 0.004832 255 220 0
0.418721 0.097823 0.018129 255 220 0
0.371417 0.124814 0.095763 255 220 0
0.376885 0.158072 0.033208 255 220 0
0.408264 0.047962 0.033247 255 220 0
0.398605 0.096789 0.009479 255 220 0
0.390116 0.188261 0.039798 255 220 0
0.427938 0.095045 0.061079 255 220 0
0.396150 0.157403 0.104021 255 220 0
0.376697 0.180247 0.043917 255 220 0
0.400019 0.201323 0.088729 255 220 0
0.363725 0.140348 0.089508 255 220 0
0.375155 0.140282 0.030248 255 220 0
0.358470 0.110945 0.070330 255 220 0
0.438332 0.155519 0.052867 255 220 0
0.366142 0.071623 0.038107 255 220 0
0.421012 0.195015 0.051660 255 220 0
0.376453 0.193782 0.080743 255 220 0
0.358553 0.105863 0.058186 255 220 0
0.371056 0.170215 0.091205 255 220 0
0.373027 0.060147 0.018900 255 220 0
0.411495 0.205253 0.067302 255 220 0
0.401296 0.175576 0.101279 255 220 0
0.389992 0.191741 0.043082 255 220 0
0.439270 0.149347 0.061468 255 220 0
0.404430 0.200281 0.089349 255 220 0
0.369498 0.187258 0.070326 255 220 0
0.360304 0.089299 0.058947 255 220 0
0.406498 0.150582 0.017199 255 220 0
0.369197 0.085352 0.030125 255 220 0
0.383897 0.191494 0.091942 255 220 0
0.423709 0.111868 0.084463 255 220 0
0.407595 0.193272 0.093607 255 220 0
0.405490 0.061294 0.005490 255 220 0
0.415094 0.165652 0.023324 255 220 0
0.362132 0.104855 0.082657 255 220 0
0.424314 0.194664 0.069045 255 220 0
0.358139 0.127520 0.073803 255 220 0
0.432187 0.116586 0.072967 255 220 0
0.383385 0.200332 0.063208 255 220 0
0.366582 0.068932 0.058889 255 220 0
0.430557 0.166181 0.083322 255 220 0
0.385300 0.070664 0.005804 255 220 0
0.421298 0.082429 0.025390 255 220 0
0.390121 0.147936 0.104220 255 220 0
0.376126 0.062415 0.012892 255 220 0
0.361654 0.146223 0.051591 255 220 0
0.391997 0.114789 0.013727 255 220 0
0.382252 0.193974 0.088495 255 220 0
0.360982 0.161604 0.063173 255 220 0
0.421696 0.083950 0.025592 255 220 0
0.413632 0.188345 0.037327 255 220 0
0.417408 0.090967 0.077718 255 220 0
0.407356 0.106876 0.093358 255 220 0
0.395260 0.127229 0.102833 255 220 0
0.438361 0.143089 0.048970 255 220 0
0.359957 0.098158 0.071308 255 220 0
0.436383 0.154028 0.074361 255 220 0
0.369066 0.085398 0.030385 255 220 0
0.419881 0.070438 0.032225 255 220 0
0.389580 0.046571 0.001401 255 220 0
0.383516 0.132973 0.021823 255 220 0
0.416063 0.129827 0.014842 255 220 0
0.357945 0.119513 0.062947 255 220 0
0.358481 0.104878 0.063878 255 220 0
0.404284 0.051776 0.005664 255 220 0
0.417870 0.132794 0.096776 255 220 0
0.380928 0.170030 0.098671 255 220 0
0.367982 0.061461 0.046903 255 220 0
0.377685 0.134722 0.026744 255 220 0
0.398106 0.114847 0.099183 255 220 0
0.387177 0.036517 0.032684 255 220 0
0.371726 0.087776 0.025838 255 220 0
0.372570 0.189229 0.059829 255 220 0
0.390695 0.113169 0.014078 255 220 0
0.438386 0.152495 0.067601 255 220 0
0.408494 0.057067 0.052655 255 220 0
0.409296 0.058221 0.053113 255 220 0
0.435245 0.117735 0.052348 255 220 0
0.394100 0.165615 0.024736 255 220 0
0.379359 0.141727 0.026713 255 220 0
0.364032 0.128832 0.043029 255 220 0
0.362399 0.138756 0.087552 255 220 0
0.407955 0.168748 0.101213 255 220 0
0.397011 0.113597 0.098921 255 220 0
0.358753 0.101992 0.064677 255 220 0
0.385174 0.119349 0.018256 255 220 0
0.414006 0.120436 0.095705 255 220 0
0.360383 0.095624 0.071159 255 220 0
0.432097 0.137695 0.030149 255 220 0
0.423488 0.172368 0.091497 255 220 0
0.366683 0.149748 0.043715 255 220 0
0.394466 0.068073 0.074081 255 220 0
0.382528 0.156813 0.101635 255 220 0
0.424330 0.171872 0.031713 255 220 0
0.412455 0.135965 0.100229 255 220 0
0.388483 0.073357 0.079143 255 220 0
0.426009 0.184912 0.081205 255 220 0
0.385437 0.197991 0.086619 255 220 0
0.373108 0.065514 0.068513 255 220 0
0.381141 0.093204 0.091248 255 220 0
0.389645 0.111778 0.014371 255 220 0
0.362840 0.095626 0.043269 255 220 0
0.407449 0.050690 0.043223 255 220 0
0.371834 0.051326 0.040389 255 220 0
0.425074 0.143362 0.092841 255 220 0
0.383657 0.041019 0.044366 255 220 0
0.398516 0.206038 0.081036 255 220 0
0.385079 0.074640 0.080284 255 220 0
0.395559 0.196821 0.092461 255 220 0
0.362218 0.156450 0.082220 255 220 0
0.426116 0.093381 0.064964 255 220 0
0.415338 0.122620 0.095702 255 220 0
0.426505 0.189789 0.073729 255 220 0
0.415334 0.059816 0.026907 255 220 0
0.385067 0.040028 0.009030 255 220 0
0.421701 0.195726 0.054834 255 220 0
0.394431 0.040266 0.038377 255 220 0
0.358327 0.118186 0.058011 255 220 0
0.397961 0.144969 0.104427 255 220 0
0.428157 0.116546 0.081139 255 220 0
0.359705 0.139943 0.055595 255 220 0
0.427140 0.167183 0.031866 255 220 0
0.424888 0.108034 0.023736 255 220 0
0.415084 0.066114 0.054138 255 220 0
0.429439 0.106411 0.033564 255 220 0
0.362024 0.137217 0.086983 255 220 0
0.361161 0.154359 0.056367 255 220 0
0.403191 0.140123 0.103564 255 220 0
0.414209 0.103378 0.088005 255 220 0
0.377583 0.086562 0.017985 255 220 0
0.416501 0.197588 0.050580 255 220 0
0.415808 0.178674 0.030807 255 220 0
0.422354 0.191109 0.082275 255 220 0
0.396619 0.106075 0.011002 255 220 0
0.363628 0.132539 0.044367 255 220 0
0.382694 0.099931 0.094235 255 220 0
0.368517 0.171781 0.049225 255 220 0
0.361279 0.154181 0.080630 255 220 0
0.439138 0.152162 0.062224 255 220 0
0.429062 0.158156 0.088220 255 220 0
0.386749 0.119445 0.100803 255 220 0
0.397276 0.125630 0.013478 255 220 0
0.410909 0.140356 0.014986 255 220 0
0.426997 0.141776 0.023961 255 220 0
0.371022 0.134454 0.033727 255 220 0
0.358963 0.146001 0.063073 255 220 0
0.378145 0.153176 0.100216 255 220 0
0.411436 0.123786 0.098049 255 220 0
0.372109 0.173287 0.091301 255 220 0
0.385103 0.072859 0.006722 255 220 0
0.383647 0.189751 0.045580 255 220 0
0.363930 0.175205 0.069478 255 220 0
0.430835 0.129971 0.028145 255 220 0
0.361629 0.166124 0.072253 255 220 0
0.358698 0.123134 0.056094 255 220 0
0.368706 0.170416 0.048209 255 220 0
0.382533 0.037264 0.020315 255 220 0
0.415969 0.061177 0.027649 255 220 0
0.402423 0.081102 0.006858 255 220 0
0.369524 0.127408 0.094704 255 220 0
0.358511 0.138468 0.062050 255 220 0
0.361910 0.157208 0.081050 255 220 0
0.358946 0.102188 0.067638 255 220 0
0.380806 0.070070 0.009421 255 220 0
0.424450 0.167405 0.029245 255 220 0
0.411534 0.133294 0.013850 255 220 0
0.397786 0.182661 0.032455 255 220 0
0.380783 0.199549 0.074267 255 220 0
0.398805 0.208024 0.072013 255 220 0
0.381245 0.041883 0.044605 255 220 0
0.359695 0.137231 0.081646 255 220 0
0.375471 0.131281 0.028140 255 220 0
0.409635 0.049117 0.030066 255 220 0
0.359130 0.139934 0.058423 255 220 0
0.423877 0.193872 0.074599 255 220 0
0.366169 0.179190 0.062166 255 220 0
0.390590 0.070819 0.003427 255 220 0
0.366629 0.150421 0.091688 255 220 0
0.360943 0.115645 0.047534 255 220 0
0.420940 0.108068 0.085180 255 220 0
0.402090 0.064984 0.068622 255 220 0
0.426623 0.179054 0.084238 255 220 0
0.417610 0.063818 0.036287 255 220 0
0.429891 0.125713 0.027085 255 220 0
0.391323 0.061333 0.068886 255 220 0
0.365297 0.070731 0.055521 255 220 0
0.408742 0.139731 0.102091 255 220 0
0.365959 0.075706 0.037477 255 220 0
0.433534 0.174953 0.069524 255 220 0
0.431759 0.128157 0.030036 255 220 0
0.429947 0.099015 0.045248 255 220 0
0.391670 0.136268 0.104047 255 220 0
0.372088 0.190255 0.075966 255 220 0
0.397278 0.081488 0.005996 255 220 0
0.404452 0.051805 0.005860 255 220 0
0.407364 0.046722 0.018856 255 220 0
0.376411 0.195636 0.073839 255 220 0
0.404211 0.044918 0.011769 255 220 0
0.437530 0.134698 0.067576 255 220 0
0.385158 0.111876 0.017012 255 220 0
0.369622 0.101764 0.030956 255 220 0
0.398181 0.160228 0.021444 255 220 0
0.426339 0.180823 0.083638 255 220 0
0.415857 0.084013 0.016091 255 220 0
0.433297 0.127586 0.077259 255 220 0
0.360161 0.144040 0.055280 255 220 0
0.420470 0.172759 0.029276 255 220 0
0.386986 0.166405 0.101754 255 220 0
0.408831 0.113969 0.095752 255 220 0
0.420899 0.079929 0.025725 255 220 0
0.384637 0.200873 0.080771 255 220 0
0.400780 0.103320 0.094023 255 220 0
0.414181 0.172830 0.026569 255 220 0
0.386032 0.044608 0.051060 255 220 0
0.421270 0.138032 0.095237 255 220 0
0.436411 0.153342 0.042908 255 220 0
0.395494 0.052586 -0.000101 255 220 0
0.373527 0.075175 0.020921 255 220 0
0.371912 0.133048 0.097187 255 220 0
0.360094 0.123130 0.082158 255 220 0
0.377423 0.136541 0.027330 255 220 0
0.400380 0.204008 0.085177 255 220 0
0.417998 0.106278 0.086775 255 220 0
0.404170 0.077408 0.006807 255 220 0
0.390860 0.121184 0.101536 255 220 0
0.405038 0.138267 0.014350 255 220 0
0.361648 0.165781 0.064741 255 220 0
0.391673 0.196596 0.091607 255 220 0
0.384930 0.051738 0.060172 255 220 0
0.428503 0.093613 0.052780 255 220 0
0.383228 0.201498 0.073267 255 220 0
0.377635 0.089433 0.018603 255 220 0
0.362704 0.170631 0.066443 255 220 0
0.420477 0.105887 0.084346 255 220 0
0.399805 0.198915 0.091126 255 220 0
0.392430 0.043326 0.046539 255 220 0
0.436588 0.123586 0.058407 255 220 0
0.379694 0.126454 0.023483 255 220 0
0.422992 0.186917 0.084775 255 220 0
0.421959 0.079153 0.056486 255 220 0
0.422969 0.118760 0.088584 255 220 0
0.361314 0.162992 0.074807 255 220 0
0.367426 0.063544 0.049898 255 220 0
0.419581 0.108071 0.086430 255 220 0
0.436314 0.165664 0.053682 255 220 0
0.377293 0.044253 0.013726 255 220 0
0.436756 0.157745 0.046684 255 220 0
0.437610 0.136051 0.068116 255 220 0
0.405845 0.106602 0.093843 255 220 0
0.391574 0.050895 0.058238 255 220 0
0.437980 0.152053 0.048606 255 220 0
0.366499 0.073361 0.036392 255 220 0
0.428362 0.107849 0.029927 255 220 0
0.402689 0.198056 0.045918 255 220 0
0.385972 0.044534 0.003555 255 220 0
0.389680 0.111221 0.098612 255 220 0
0.420080 0.087008 0.070762 255 220 0
0.396812 0.191094 0.039432 255 220 0
0.365277 0.164663 0.085334 255 220 0
0.420089 0.198179 0.076900 255 220 0
0.363182 0.077866 0.047712 255 220 0
0.376329 0.069494 0.015059 255 220 0
0.390040 0.090120 0.009772 255 220 0
0.397984 0.118961 0.100538 255 220 0
0.406651 0.088077 0.084142 255 220 0
0.376908 0.189080 0.051747 255 220 0
0.391878 0.190700 0.041066 255 220 0
0.362081 0.084982 0.066496 255 220 0
0.370151 0.149691 0.095417 255 220 0
0.419326 0.086333 0.071312 255 220 0
0.427916 0.124968 0.024315 255 220 0
0.386011 0.174906 0.099847 255 220 0
0.432822 0.175261 0.072511 255 220 0
0.418117 0.201202 0.067884 255 220 0
0.360606 0.098474 0.074754 255 220 0
0.421367 0.171994 0.093694 255 220 0
0.360026 0.105523 0.076926 255 220 0
0.381701 0.129919 0.101607 255 220 0
0.402225 0.203875 0.055529 255 220 0
0.411054 0.066998 0.062554 255 220 0
0.406219 0.085202 0.009006 255 220 0
0.360585 0.139775 0.052383 255 220 0
0.398330 0.096615 0.091548 255 220 0
0.429827 0.097714 0.053142 255 220 0
0.359862 0.098710 0.051859 255 220 0
0.410922 0.050943 0.026651 255 220 0
0.374284 0.187966 0.054171 255 220 0
0.399137 0.122306 0.101325 255 220 0
0.410080 0.081034 0.010755 255 220 0
0.429528 0.186132 0.060112 255 220 0
0.396140 0.097098 0.092223 255 220 0
0.432847 0.171045 0.076255 255 220 0
0.402396 0.205588 0.059380 255 220 0
0.383967 0.036281 0.022262 255 220 0
0.371734 0.176393 0.047153 255 220 0
0.383037 0.196470 0.086345 255 220 0
0.362038 0.123010 0.086191 255 220 0
0.418781 0.066708 0.039576 255 220 0
0.373400 0.161685 0.095533 255 220 0
0.414576 0.059493 0.042564 255 220 0
0.375095 0.083111 0.020144 255 220 0
0.385793 0.058032 0.001379 255 220 0
0.375576 0.044003 0.034635 255 220 0
0.358642 0.117937 0.055839 255 220 0
0.429623 0.114266 0.029808 255 220 0
0.364680 0.077909 0.067104 255 220 0
0.387789 0.123390 0.101814 255 220 0
0.390978 0.140446 0.018802 255 220 0
0.405158 0.045653 0.012886 255 220 0
0.420209 0.157020 0.097323 255 220 0
0.390214 0.107355 0.097233 255 220 0
0.432796 0.154412 0.082645 255 220 0
