ply
format ascii 1.0
element vertex 1024
property float x
property float y
property float z
property uchar red
property uchar green
property uchar blue
end_header
0.578849 -0.054135 0.034438 255 220 0
0.582263 0.027779 0.013912 255 220 0
0.642780 0.081351 0.049780 255 220 0
0.638155 0.046103 0.031211 255 220 0
0.604355 0.004159 0.016924 255 220 0
0.642968 0.021706 0.078688 255 220 0
0.582626 0.009054 0.012959 255 220 0
0.592669 0.084762 0.053974 255 220 0
0.612480 -0.004278 0.094684 255 220 0
0.616351 0.058092 0.020523 255 220 0
0.592860 0.085071 0.057333 255 220 0
0.593024 0.067228 0.088111 255 220 0
0.570548 0.049779 0.051873 255 220 0
0.547870 -0.021268 0.020754 255 220 0
0.596763 0.065031 0.021980 255 220 0
0.638954 0.044009 0.031980 255 220 0
0.634705 0.062734 0.031467 255 220 0
0.585760 0.008681 0.091186 255 220 0
0.544457 -0.030895 0.018314 255 220 0
0.564524 0.030934 0.032691 255 220 0
0.575251 -0.009198 0.013358 255 220 0
0.617904 0.076552 0.029191 255 220 0
0.635146 0.088495 0.083473 255 220 0
0.615665 0.092427 0.043972 255 220 0
0.623757 0.000992 0.090398 255 220 0
0.575571 -0.016456 0.081840 255 220 0
0.608617 0.056911 0.018334 255 220 0
0.650529 0.059109 0.073997 255 220 0
0.552326 -0.011783 0.022492 255 220 0
0.632010 0.008154 0.086538 255 220 0
0.562696 -0.032300 0.067984 255 220 0
0.619725 -0.015534 0.081317 255 220 0
0.638296 0.053782 0.032242 255 220 0
0.547343 -0.035796 0.051894 255 220 0
0.595272 0.046288 0.015136 255 220 0
0.601381 -0.014848 0.020659 255 220 0
0.577693 0.030824 0.083006 255 220 0
0.537033 -0.036807 0.024150 255 220 0
0.569661 0.023188 0.072544 255 220 0
0.634605 0.093505 0.054767 255 220 0
0.594379 0.077868 0.034199 255 220 0
0.592724 -0.023980 0.019766 255 220 0
0.591981 0.015349 0.012514 255 220 0
0.597347 0.073416 0.088489 255 220 0
0.582080 -0.055737 0.052788 255 220 0
0.617389 -0.011875 0.030379 255 220 0
0.593712 0.069562 0.087480 255 220 0
0.648252 0.074233 0.076736 255 220 0
0.615390 -0.028128 0.045291 255 220 0
0.565404 -0.014031 0.072621 255 220 0
0.629046 0.093312 0.049874 255 220 0
0.613518 0.055598 0.018976 255 220 0
0.580157 -0.055051 0.038585 255 220 0
0.609763 0.070188 0.024040 255 220 0
0.578483 0.066789 0.050521 255 220 0
0.607490 -0.001932 0.096448 255 220 0
0.594668 0.042427 0.095895 255 220 0
0.587271 0.068046 0.029582 255 220 0
0.561733 -0.024438 0.013993 255 220 0
0.594653 -0.031229 0.082681 255 220 0
0.577094 -0.005599 0.013302 255 220 0
0.565564 -0.013447 0.072800 255 220 0
0.569809 -0.032505 0.073110 255 220 0
0.608250 0.085036 0.035212 255 220 0
0.573926 -0.056699 0.057701 255 220 0
0.557097 0.001031 0.055918 255 220 0
0.595179 0.072798 0.086884 255 220 0
0.599176 -0.035239 0.030971 255 220 0
0.635392 0.095404 0.060959 255 220 0
0.602750 0.022019 0.099944 255 220 0
0.593630 0.029345 0.012427 255 220 0
0.567001 0.015044 0.019794 255 220 0
0.582900 -0.053081 0.060687 255 220 0
0.590245 0.006746 0.013063 255 220 0
0.575488 0.026079 0.081189 255 220 0
0.626252 -0.015632 0.064541 255 220 0
0.629325 0.095902 0.055617 255 220 0
0.565795 0.015111 0.068419 255 220 0
0.632460 -0.007182 0.061901 255 220 0
0.559680 -0.039485 0.014730 255 220 0
0.587953 0.013807 0.092706 255 220 0
0.555018 -0.051060 0.055215 255 220 0
0.592926 0.068779 0.025878 255 220 0
0.613787 0.026585 0.016834 255 220 0
0.566140 0.011129 0.070143 255 220 0
0.642578 0.025591 0.039790 255 220 0
0.600810 0.055580 0.097295 255 220 0
0.566998 0.022419 0.067981 255 220 0
0.588694 -0.050226 0.039763 255 220 0
0.590973 0.061328 0.088877 255 220 0
0.577202 0.042401 0.020857 255 220 0
0.637269 0.086442 0.047564 255 220 0
0.610610 0.062521 0.099507 255 220 0
0.606730 0.039889 0.014619 255 220 0
0.625803 0.084358 0.037233 255 220 0
0.600159 0.079499 0.086174 255 220 0
0.629043 0.003186 0.086617 255 220 0
0.583061 0.026913 0.089078 255 220 0
0.608899 0.014842 0.016558 255 220 0
0.572123 -0.058766 0.038883 255 220 0
0.641799 0.050223 0.089139 255 220 0
0.648593 0.027541 0.059248 255 220 0
0.565144 -0.034137 0.014374 255 220 0
0.647341 0.060801 0.046546 255 220 0
0.625191 -0.018088 0.056933 255 220 0
0.588498 0.024250 0.093157 255 220 0
0.622253 0.065716 0.099139 255 220 0
0.588591 0.023152 0.012346 255 220 0
0.644837 0.018471 0.051462 255 220 0
0.629266 0.013924 0.092113 255 220 0
0.605916 -0.001345 0.018795 255 220 0
0.594263 0.004016 0.094967 255 220 0
0.553751 -0.022029 0.057884 255 220 0
0.605440 0.031643 0.013959 255 220 0
0.627968 0.056450 0.098470 255 220 0
0.638406 0.032206 0.090001 255 220 0
0.591158 0.071921 0.029909 255 220 0
0.550846 -0.041747 0.014973 255 220 0
0.577495 0.043367 0.021106 255 220 0
0.601416 0.089366 0.072208 255 220 0
0.634053 0.095911 0.060501 255 220 0
0.632815 0.001093 0.039834 255 220 0
0.572145 0.043349 0.027272 255 220 0
0.611424 0.096495 0.063089 255 220 0
0.603916 0.017024 0.099719 255 220 0
0.576628 0.006824 0.084658 255 220 0
0.579470 0.068026 0.047436 255 220 0
0.560024 -0.061791 0.045251 255 220 0
0.583460 -0.052073 0.035896 255 220 0
0.641962 0.010147 0.066750 255 220 0
0.647545 0.046598 0.044377 255 220 0
0.640444 0.031417 0.034556 255 220 0
0.539520 -0.041976 0.043726 255 220 0
0.602315 -0.039194 0.040056 255 220 0
0.594456 0.025088 0.096622 255 220 0
0.549185 -0.029931 0.016121 255 220 0
0.634039 0.091782 0.051213 255 220 0
0.614070 -0.031379 0.053786 255 220 0
0.543799 -0.037440 0.016888 255 220 0
0.557248 0.012232 0.040041 255 220 0
0.627285 0.002829 0.088235 255 220 0
0.616045 -0.027919 0.046691 255 220 0
0.554276 0.003358 0.038696 255 220 0
0.646269 0.085592 0.064808 255 220 0
0.623420 0.076387 0.030998 255 220 0
0.569373 0.024550 0.071539 255 220 0
0.619471 -0.018523 0.077458 255 220 0
0.547799 -0.043630 0.052733 255 220 0
0.558519 -0.023701 0.014634 255 220 0
0.634010 0.006797 0.082953 255 220 0
0.567488 0.032940 0.062983 255 220 0
0.596163 0.026200 0.097506 255 220 0
0.581275 -0.033182 0.018174 255 220 0
0.571237 -0.054389 0.027815 255 220 0
0.579840 -0.000368 0.086935 255 220 0
0.602975 0.056075 0.098190 255 220 0
0.568422 0.019777 0.071559 255 220 0
0.550711 -0.010385 0.047050 255 220 0
0.640950 0.090145 0.057207 255 220 0
0.601770 -0.005073 0.017996 255 220 0
0.561616 -0.015247 0.067728 255 220 0
0.615261 0.058554 0.020343 255 220 0
0.639355 0.054600 0.091804 255 220 0
0.554418 0.001922 0.045334 255 220 0
0.603122 0.071683 0.024815 255 220 0
0.602150 -0.041477 0.058710 255 220 0
0.563377 0.026587 0.054657 255 220 0
0.575953 0.029222 0.080990 255 220 0
0.627176 0.057262 0.098727 255 220 0
0.624301 0.068136 0.027416 255 220 0
0.636890 0.001746 0.069550 255 220 0
0.639862 0.008811 0.072960 255 220 0
0.612263 0.078557 0.093415 255 220 0
0.638962 0.092337 0.073674 255 220 0
0.596402 0.056979 0.094537 255 220 0
0.636907 0.086121 0.084348 255 220 0
0.599078 0.000797 0.015799 255 220 0
0.572671 0.000786 0.080914 255 220 0
0.619606 -0.024275 0.048722 255 220 0
0.594645 0.042565 0.014273 255 220 0
0.614859 0.041898 0.101623 255 220 0
0.628516 -0.009304 0.073082 255 220 0
0.588040 -0.025974 0.018411 255 220 0
0.628025 0.055661 0.098471 255 220 0
0.575659 -0.039676 0.072701 255 220 0
0.577607 0.013222 0.014115 255 220 0
0.614088 0.096117 0.054399 255 220 0
0.614984 0.002108 0.022209 255 220 0
0.628381 0.056509 0.098306 255 220 0
0.563784 0.001293 0.018539 255 220 0
0.562619 0.002547 0.066212 255 220 0
0.646162 0.034563 0.042778 255 220 0
0.597834 0.007212 0.096752 255 220 0
0.584758 -0.051737 0.037021 255 220 0
0.645656 0.017930 0.061951 255 220 0
0.636780 0.048164 0.029920 255 220 0
0.643072 0.047699 0.087324 255 220 0
0.598465 -0.027141 0.024425 255 220 0
0.584694 0.076016 0.057364 255 220 0
0.589009 0.020910 0.012287 255 220 0
0.646323 0.022150 0.053063 255 220 0
0.614406 0.086983 0.087057 255 220 0
0.588912 0.038400 0.092486 255 220 0
0.603786 0.057566 0.098254 255 220 0
0.651815 0.051778 0.067520 255 220 0
0.624646 -0.018839 0.055862 255 220 0
0.617915 0.090969 0.083500 255 220 0
0.583279 0.047372 0.085237 255 220 0
0.619263 0.085740 0.035988 255 220 0
0.617163 0.013438 0.098147 255 220 0
0.627108 0.098492 0.064980 255 220 0
0.639795 0.085085 0.082625 255 220 0
0.611969 -0.032715 0.060777 255 220 0
0.635541 -0.001911 0.064733 255 220 0
0.586083 0.047677 0.088440 255 220 0
0.595072 -0.047672 0.052862 255 220 0
0.649091 0.066247 0.052218 255 220 0
0.636980 0.000140 0.063023 255 220 0
0.647600 0.082107 0.062626 255 220 0
0.599733 -0.040276 0.068485 255 220 0
0.608197 -0.014364 0.024378 255 220 0
0.556896 -0.002762 0.023024 255 220 0
0.542103 -0.055645 0.029874 255 220 0
0.635911 0.090119 0.050541 255 220 0
0.593908 0.077601 0.081065 255 220 0
0.554957 -0.044953 0.058225 255 220 0
0.615350 -0.022765 0.037226 255 220 0
0.640801 0.033332 0.087478 255 220 0
0.629324 0.000189 0.083955 255 220 0
0.593281 -0.014177 0.090867 255 220 0
0.637076 0.001752 0.050034 255 220 0
0.557856 -0.061262 0.045600 255 220 0
0.559406 -0.018050 0.065038 255 220 0
0.576801 -0.058221 0.047273 255 220 0
0.574583 0.017817 0.081654 255 220 0
0.592826 0.028248 0.095715 255 220 0
0.621511 -0.016859 0.076103 255 220 0
0.604398 0.091441 0.048089 255 220 0
0.634677 0.070752 0.034846 255 220 0
0.651264 0.049349 0.053489 255 220 0
0.623924 -0.015250 0.073472 255 220 0
0.602254 0.023284 0.099886 255 220 0
0.612801 0.093391 0.046541 255 220 0
0.629742 0.063187 0.028243 255 220 0
0.612265 -0.032996 0.050639 255 220 0
0.649017 0.073628 0.074715 255 220 0
0.576934 0.064036 0.051441 255 220 0
0.553448 -0.005670 0.050839 255 220 0
0.626857 0.098507 0.064666 255 220 0
0.626051 0.090620 0.084802 255 220 0
0.599434 0.047133 0.097903 255 220 0
0.585305 -0.047993 0.067475 255 220 0
0.617817 -0.006685 0.027670 255 220 0
0.593383 0.066196 0.088972 255 220 0
0.638622 0.086397 0.082603 255 220 0
0.585822 0.077311 0.059032 255 220 0
0.561353 0.024213 0.036756 255 220 0
0.576170 -0.018857 0.081644 255 220 0
0.589047 -0.051353 0.055823 255 220 0
0.630906 0.045006 0.097145 255 220 0
0.599973 0.037620 0.013398 255 220 0
0.622454 0.051544 0.100285 255 220 0
0.590244 0.070884 0.082388 255 220 0
0.619243 0.010345 0.096483 255 220 0
0.602986 0.044159 0.099622 255 220 0
0.615968 0.030579 0.101559 255 220 0
0.590846 -0.046237 0.035032 255 220 0
0.606911 0.002027 0.097459 255 220 0
0.572620 0.016520 0.079262 255 220 0
0.632505 0.093831 0.053455 255 220 0
0.609715 0.027612 0.101506 255 220 0
0.637433 0.088932 0.081153 255 220 0
0.561928 0.024417 0.033653 255 220 0
0.626468 0.060298 0.025363 255 220 0
0.587255 0.005648 0.091810 255 220 0
0.623586 -0.019274 0.049498 255 220 0
0.584460 0.072991 0.041572 255 220 0
0.602774 -0.039010 0.066109 255 220 0
0.630532 0.008982 0.088614 255 220 0
0.610353 0.039834 0.101523 255 220 0
0.588058 0.058026 0.087105 255 220 0
0.580953 -0.025364 0.015787 255 220 0
0.558513 -0.059941 0.048465 255 220 0
0.627496 0.052942 0.098714 255 220 0
0.597415 0.060667 0.019765 255 220 0
0.643304 0.039425 0.085586 255 220 0
0.566039 0.018094 0.021569 255 220 0
0.616815 0.086980 0.036735 255 220 0
0.542429 -0.024055 0.037852 255 220 0
0.569696 0.029159 0.070246 255 220 0
0.551134 -0.024139 0.054580 255 220 0
0.603779 -0.010196 0.093930 255 220 0
0.570573 0.033618 0.069899 255 220 0
0.587779 0.078596 0.046550 255 220 0
0.556162 -0.040516 0.014692 255 220 0
0.581669 0.051841 0.022463 255 220 0
0.637576 0.004256 0.072389 255 220 0
0.585082 0.040942 0.088997 255 220 0
0.594142 0.060362 0.020446 255 220 0
0.622220 0.051335 0.100344 255 220 0
0.590538 0.035603 0.013365 255 220 0
0.605148 -0.007496 0.094857 255 220 0
0.579703 0.066087 0.064013 255 220 0
0.564794 -0.023164 0.013757 255 220 0
0.589727 0.073711 0.078865 255 220 0
0.581894 0.011577 0.088799 255 220 0
0.565031 -0.010897 0.071969 255 220 0
0.608467 0.024933 0.101216 255 220 0
0.571775 0.040427 0.068700 255 220 0
0.555510 -0.062035 0.040741 255 220 0
0.584717 -0.053926 0.044106 255 220 0
0.561794 -0.060629 0.033982 255 220 0
0.590365 0.061188 0.022349 255 220 0
0.621103 -0.022403 0.048861 255 220 0
0.622241 0.040796 0.019732 255 220 0
0.602866 -0.032222 0.079185 255 220 0
0.583236 -0.005305 0.013340 255 220 0
0.646519 0.054272 0.083171 255 220 0
0.611959 -0.011692 0.025693 255 220 0
0.593378 0.082811 0.071149 255 220 0
0.592698 0.079052 0.037687 255 220 0
0.602619 0.007035 0.015774 255 220 0
0.603324 -0.015167 0.021785 255 220 0
0.647579 0.030904 0.073309 255 220 0
0.631014 0.001638 0.082876 255 220 0
0.572771 -0.022968 0.013859 255 220 0
0.646484 0.053992 0.043511 255 220 0
0.619008 0.013300 0.097467 255 220 0
0.564638 -0.047921 0.018937 255 220 0
0.586479 0.074105 0.039136 255 220 0
0.594642 -0.047873 0.054057 255 220 0
0.584522 0.043457 0.087902 255 220 0
0.644573 0.088231 0.068090 255 220 0
0.628280 -0.013672 0.056283 255 220 0
0.608627 -0.000619 0.019808 255 220 0
0.595585 0.083941 0.042448 255 220 0
0.611525 -0.009126 0.092991 255 220 0
0.567115 0.039616 0.053308 255 220 0
0.591139 0.040924 0.014365 255 220 0
0.623928 0.021772 0.098000 255 220 0
0.562980 -0.012469 0.069286 255 220 0
0.640867 0.012720 0.075454 255 220 0
0.551782 -0.006135 0.045815 255 220 0
0.545126 -0.057219 0.029752 255 220 0
0.602552 0.033738 0.013410 255 220 0
0.648101 0.026444 0.056808 255 220 0
0.618937 -0.025057 0.048558 255 220 0
0.591459 0.067733 0.086162 255 220 0
0.652092 0.054948 0.065686 255 220 0
0.634816 -0.003482 0.062254 255 220 0
0.587907 0.025920 0.092724 255 220 0
0.627978 0.098277 0.068146 255 220 0
0.548885 -0.031164 0.052935 255 220 0
0.561848 0.012518 0.061384 255 220 0
0.572790 -0.028086 0.076607 255 220 0
0.561839 0.025915 0.045661 255 220 0
0.554168 -0.059706 0.045899 255 220 0
0.571916 -0.059752 0.044043 255 220 0
0.566772 0.010239 0.071421 255 220 0
0.646231 0.085746 0.065574 255 220 0
0.630371 0.049665 0.024798 255 220 0
0.556452 -0.058149 0.049661 255 220 0
0.619095 0.065704 0.024242 255 220 0
0.555381 -0.042062 0.059443 255 220 0
0.563082 -0.026924 0.069375 255 220 0
0.650354 0.035828 0.064863 255 220 0
0.585199 0.009267 0.012763 255 220 0
0.649313 0.044176 0.074933 255 220 0
0.594671 0.085608 0.066299 255 220 0
0.601599 0.008478 0.098025 255 220 0
0.600152 -0.043890 0.051777 255 220 0
0.600615 0.089723 0.048887 255 220 0
0.638516 0.035981 0.090670 255 220 0
0.642929 0.017603 0.075310 255 220 0
0.584067 0.016913 0.090292 255 220 0
0.576764 0.034477 0.080470 255 220 0
0.630531 0.029750 0.025346 255 220 0
0.576328 0.006082 0.014008 255 220 0
0.587753 0.079588 0.051238 255 220 0
0.615498 0.097570 0.067057 255 220 0
0.605784 -0.029608 0.080211 255 220 0
0.596137 -0.003171 0.094544 255 220 0
0.626659 0.084497 0.037777 255 220 0
0.564319 0.010207 0.020778 255 220 0
0.648682 0.046722 0.077382 255 220 0
0.560880 0.023460 0.042935 255 220 0
0.639418 0.023540 0.035810 255 220 0
0.562433 0.028019 0.038849 255 220 0
0.535108 -0.040619 0.034945 255 220 0
0.649987 0.056810 0.075697 255 220 0
0.568126 -0.017479 0.013692 255 220 0
0.571566 0.052278 0.042982 255 220 0
0.622545 -0.018981 0.068979 255 220 0
0.588123 0.072165 0.077672 255 220 0
0.635983 0.090544 0.051200 255 220 0
0.648597 0.070801 0.053545 255 220 0
0.603361 0.067217 0.095438 255 220 0
0.596477 -0.000820 0.095092 255 220 0
0.587772 0.049998 0.089502 255 220 0
0.644378 0.075474 0.048012 255 220 0
0.562319 0.023422 0.031001 255 220 0
0.576223 -0.030107 0.015614 255 220 0
0.582853 0.073544 0.056349 255 220 0
0.638525 0.083485 0.046185 255 220 0
0.567309 0.012846 0.071690 255 220 0
0.584938 0.066567 0.030749 255 220 0
0.587652 0.075734 0.039889 255 220 0
0.605710 -0.005782 0.095407 255 220 0
0.565693 0.034771 0.053943 255 220 0
0.631561 0.074363 0.034390 255 220 0
0.566904 -0.026558 0.013754 255 220 0
0.549571 -0.030771 0.053748 255 220 0
0.580242 0.023126 0.086990 255 220 0
0.562791 0.023111 0.029383 255 220 0
0.569917 0.032815 0.023271 255 220 0
0.651103 0.064825 0.069946 255 220 0
0.593583 -0.007735 0.015679 255 220 0
0.594758 -0.044532 0.037592 255 220 0
0.547681 -0.023829 0.049056 255 220 0
0.601344 0.011805 0.014618 255 220 0
0.598876 0.054700 0.096474 255 220 0
0.622438 -0.021729 0.057428 255 220 0
0.651034 0.067885 0.067401 255 220 0
0.537365 -0.051258 0.032399 255 220 0
0.579681 -0.023039 0.082323 255 220 0
0.632691 0.044427 0.026022 255 220 0
0.574819 0.055787 0.062931 255 220 0
0.592211 -0.043677 0.070181 255 220 0
0.595332 0.062923 0.091976 255 220 0
0.545997 -0.046422 0.016948 255 220 0
0.624855 0.096337 0.054349 255 220 0
0.644455 0.073786 0.084176 255 220 0
0.636149 0.091826 0.078602 255 220 0
0.630523 0.077088 0.093609 255 220 0
0.611866 -0.033531 0.051903 255 220 0
0.540392 -0.049860 0.042613 255 220 0
0.630987 0.078765 0.036443 255 220 0
0.581611 0.060676 0.075428 255 220 0
0.651391 0.042639 0.055740 255 220 0
0.583823 -0.001416 0.089278 255 220 0
0.632902 0.081632 0.039678 255 220 0
0.602018 0.064633 0.095637 255 220 0
0.605911 0.092561 0.049579 255 220 0
0.634886 0.046495 0.027986 255 220 0
0.597928 -0.029322 0.025341 255 220 0
0.596251 0.085908 0.070230 255 220 0
0.570290 -0.052493 0.024877 255 220 0
0.628375 0.060581 0.098124 255 220 0
0.589314 0.039086 0.092702 255 220 0
0.600578 0.085475 0.079219 255 220 0
0.630838 0.020421 0.027611 255 220 0
0.559933 -0.039276 0.014714 255 220 0
0.651749 0.062685 0.062307 255 220 0
0.585097 0.048570 0.018789 255 220 0
0.599427 0.088868 0.048395 255 220 0
0.635030 -0.002704 0.064870 255 220 0
0.593483 -0.015815 0.017521 255 220 0
0.620538 -0.003421 0.028292 255 220 0
0.638879 0.066999 0.036883 255 220 0
0.593569 -0.048465 0.055259 255 220 0
0.598783 -0.038081 0.073973 255 220 0
0.634131 0.027464 0.028753 255 220 0
0.626788 0.036568 0.022127 255 220 0
0.570555 -0.032872 0.073419 255 220 0
0.600394 0.019459 0.099004 255 220 0
0.636232 0.087768 0.083381 255 220 0
0.536711 -0.034568 0.034227 255 220 0
0.559373 -0.003147 0.020337 255 220 0
0.562375 0.017059 0.025971 255 220 0
0.594913 0.043485 0.014466 255 220 0
0.619092 0.072663 0.097435 255 220 0
0.586235 0.051283 0.019436 255 220 0
0.577891 -0.032195 0.016652 255 220 0
0.593544 0.003987 0.094664 255 220 0
0.567775 0.000688 0.016207 255 220 0
0.593181 -0.004398 0.093267 255 220 0
0.645847 0.063399 0.044723 255 220 0
0.643777 0.055792 0.039595 255 220 0
0.577569 0.060494 0.036065 255 220 0
0.564515 0.026543 0.059162 255 220 0
0.649126 0.067324 0.052845 255 220 0
0.596146 0.068874 0.090066 255 220 0
0.615809 0.032224 0.101639 255 220 0
0.573653 0.057427 0.050007 255 220 0
0.608254 0.079095 0.029823 255 220 0
0.569972 -0.058454 0.035000 255 220 0
0.565280 -0.040592 0.066880 255 220 0
0.559692 0.012271 0.027928 255 220 0
0.632352 0.057748 0.096495 255 220 0
0.602099 0.000299 0.096726 255 220 0
0.634153 0.050663 0.027758 255 220 0
0.608316 0.095242 0.062568 255 220 0
0.594045 -0.048459 0.052301 255 220 0
0.628041 0.056434 0.098442 255 220 0
0.592879 -0.047472 0.061310 255 220 0
0.563108 0.011045 0.064736 255 220 0
0.597654 0.024449 0.012609 255 220 0
0.649417 0.032776 0.054526 255 220 0
0.545127 -0.029812 0.047400 255 220 0
0.621437 -0.010896 0.084229 255 220 0
0.624161 -0.001376 0.088727 255 220 0
0.552982 -0.043731 0.057134 255 220 0
0.558960 -0.027169 0.014143 255 220 0
0.617755 -0.027035 0.050900 255 220 0
0.570563 0.033473 0.069949 255 220 0
0.570666 0.029118 0.072055 255 220 0
0.583293 0.045848 0.018527 255 220 0
0.579500 0.066372 0.062518 255 220 0
0.614141 0.037838 0.016511 255 220 0
0.614317 0.054132 0.100995 255 220 0
0.587143 -0.052371 0.056572 255 220 0
0.545416 -0.017759 0.038785 255 220 0
0.563979 -0.054088 0.023524 255 220 0
0.619268 -0.021803 0.071570 255 220 0
0.575758 -0.048968 0.066317 255 220 0
0.540346 -0.045130 0.044610 255 220 0
0.650660 0.070912 0.066650 255 220 0
0.580951 -0.030335 0.079879 255 220 0
0.592987 0.014892 0.095458 255 220 0
0.644678 0.039702 0.039299 255 220 0
0.598959 0.055997 0.017729 255 220 0
0.589832 0.054109 0.019152 255 220 0
0.580296 -0.026241 0.015803 255 220 0
0.639534 0.078136 0.043338 255 220 0
0.575728 -0.008711 0.083218 255 220 0
0.599669 -0.044270 0.051493 255 220 0
0.634784 0.096221 0.066233 255 220 0
0.577687 0.065188 0.048022 255 220 0
0.615661 -0.028970 0.048617 255 220 0
0.546945 -0.033010 0.016265 255 220 0
0.548557 -0.009928 0.033709 255 220 0
0.602311 -0.021358 0.023902 255 220 0
0.587343 -0.051246 0.040072 255 220 0
0.627866 0.096791 0.074677 255 220 0
0.629131 0.012397 0.091542 255 220 0
0.624274 0.067025 0.026928 255 220 0
0.564729 0.024700 0.061350 255 220 0
0.576867 0.036644 0.018611 255 220 0
0.561633 0.019667 0.029278 255 220 0
0.548352 -0.049868 0.051293 255 220 0
0.593108 0.039002 0.013670 255 220 0
0.566926 0.017062 0.020388 255 220 0
0.590478 -0.033930 0.023146 255 220 0
0.599605 0.005872 0.097121 255 220 0
0.648511 0.039494 0.075450 255 220 0
0.624957 -0.009519 0.037645 255 220 0
0.577950 0.038039 0.080985 255 220 0
0.587218 0.057493 0.086299 255 220 0
0.620252 0.058013 0.100385 255 220 0
0.624322 0.017332 0.023510 255 220 0
0.573194 0.056162 0.045073 255 220 0
0.631094 -0.008587 0.065391 255 220 0
0.580130 0.035376 0.084949 255 220 0
0.576259 -0.005547 0.013353 255 220 0
0.538105 -0.050986 0.037165 255 220 0
0.582595 -0.007807 0.013477 255 220 0
0.552932 -0.017617 0.055698 255 220 0
0.615083 -0.001165 0.023353 255 220 0
0.650002 0.039956 0.070714 255 220 0
0.628455 -0.003348 0.037019 255 220 0
0.625902 -0.015986 0.064954 255 220 0
0.623337 -0.020591 0.055174 255 220 0
0.598723 0.040503 0.098193 255 220 0
0.556162 -0.005612 0.057222 255 220 0
0.620265 -0.020966 0.070808 255 220 0
0.559870 -0.002082 0.062729 255 220 0
0.629180 0.080997 0.091992 255 220 0
0.631720 0.020602 0.092893 255 220 0
0.595024 0.059058 0.019613 255 220 0
0.600842 0.018026 0.099026 255 220 0
0.613243 0.091839 0.043210 255 220 0
0.638809 0.049980 0.032257 255 220 0
0.565080 -0.047275 0.018693 255 220 0
0.593696 0.078353 0.035499 255 220 0
0.628084 0.013121 0.027527 255 220 0
0.562841 0.004801 0.020344 255 220 0
0.546487 -0.048532 0.050333 255 220 0
0.572028 0.024969 0.018320 255 220 0
0.604610 -0.031492 0.032992 255 220 0
0.597121 0.079141 0.033595 255 220 0
0.631873 0.007329 0.033933 255 220 0
0.593103 0.064148 0.022753 255 220 0
0.574019 -0.033212 0.075216 255 220 0
0.609546 0.095561 0.065847 255 220 0
0.561612 -0.017866 0.067963 255 220 0
0.581928 0.014397 0.088813 255 220 0
0.559686 -0.021597 0.065710 255 220 0
0.591905 -0.026341 0.085464 255 220 0
0.603839 -0.033684 0.034410 255 220 0
0.591952 0.083773 0.051302 255 220 0
0.610138 0.021752 0.016033 255 220 0
0.602857 -0.038324 0.067859 255 220 0
0.618844 -0.014726 0.034114 255 220 0
0.623658 0.016392 0.023309 255 220 0
0.589390 0.081549 0.058391 255 220 0
0.637246 0.003024 0.071093 255 220 0
0.600668 -0.016940 0.021051 255 220 0
0.586918 -0.009814 0.089528 255 220 0
0.610427 -0.007525 0.094046 255 220 0
0.613559 0.017934 0.017867 255 220 0
0.538318 -0.030353 0.031608 255 220 0
0.613780 0.050552 0.017819 255 220 0
0.595208 0.028500 0.097016 255 220 0
0.625159 0.097315 0.057404 255 220 0
0.611367 0.015588 0.017364 255 220 0
0.610261 -0.019059 0.087541 255 220 0
0.546345 -0.034990 0.050552 255 220 0
0.652147 0.048123 0.059659 255 220 0
0.645203 0.019307 0.051862 255 220 0
0.603411 0.039426 0.100075 255 220 0
0.563801 -0.057622 0.028117 255 220 0
0.630542 0.067409 0.030469 255 220 0
0.601263 0.028908 0.099702 255 220 0
0.612577 0.075472 0.095305 255 220 0
0.562093 -0.018449 0.014617 255 220 0
0.618637 0.090227 0.084641 255 220 0
0.634667 0.052727 0.095197 255 220 0
0.581645 -0.048361 0.028289 255 220 0
0.640626 0.015162 0.078479 255 220 0
0.625363 0.080749 0.034428 255 220 0
0.571727 -0.001432 0.079943 255 220 0
0.642647 0.086640 0.054838 255 220 0
0.562950 0.004081 0.020013 255 220 0
0.585963 -0.020563 0.086112 255 220 0
0.579706 -0.019203 0.083577 255 220 0
0.567730 0.043262 0.045714 255 220 0
0.628291 -0.008551 0.075057 255 220 0
0.619470 -0.024407 0.063263 255 220 0
0.618559 0.039825 0.018155 255 220 0
0.634769 0.036809 0.094148 255 220 0
0.561190 -0.052078 0.058049 255 220 0
0.594536 0.019706 0.012445 255 220 0
0.635388 0.068915 0.034556 255 220 0
0.616818 -0.025106 0.070234 255 220 0
0.630344 0.080232 0.036917 255 220 0
0.574618 0.054728 0.063698 255 220 0
0.626865 0.035869 0.022213 255 220 0
0.584248 -0.045623 0.070300 255 220 0
0.636880 0.082098 0.043392 255 220 0
0.606167 0.093999 0.056345 255 220 0
0.555437 -0.011099 0.057900 255 220 0
0.556180 0.006279 0.047555 255 220 0
0.616923 0.002500 0.023186 255 220 0
0.568265 -0.059796 0.052121 255 220 0
0.617896 0.068364 0.024988 255 220 0
0.605912 0.088442 0.040432 255 220 0
0.552444 -0.057985 0.026043 255 220 0
0.596507 -0.045503 0.043057 255 220 0
0.626535 0.092194 0.046514 255 220 0
0.612559 -0.028613 0.072190 255 220 0
0.562021 -0.024896 0.013927 255 220 0
0.642196 0.010361 0.065763 255 220 0
0.633127 0.050742 0.096065 255 220 0
0.566965 0.041077 0.041736 255 220 0
0.635905 0.093070 0.055335 255 220 0
0.566221 0.007176 0.018489 255 220 0
0.575702 -0.056230 0.035493 255 220 0
0.540153 -0.045662 0.019916 255 220 0
0.570486 -0.050385 0.022943 255 220 0
0.596061 -0.017542 0.019058 255 220 0
0.562747 0.028420 0.046950 255 220 0
0.634969 0.009248 0.036866 255 220 0
0.582744 0.063087 0.075767 255 220 0
0.630942 0.028860 0.095712 255 220 0
0.583334 0.074233 0.051439 255 220 0
0.544457 -0.030821 0.018344 255 220 0
0.599752 -0.022941 0.087997 255 220 0
0.549400 -0.030886 0.053549 255 220 0
0.582247 0.044423 0.018477 255 220 0
0.578028 -0.011156 0.084467 255 220 0
0.555324 0.006161 0.041279 255 220 0
0.592403 0.034021 0.095217 255 220 0
0.602704 0.051213 0.016138 255 220 0
0.640581 0.012736 0.044396 255 220 0
0.588198 0.069172 0.029779 255 220 0
0.542800 -0.024901 0.040017 255 220 0
0.582785 -0.012610 0.013982 255 220 0
0.611792 -0.004106 0.022466 255 220 0
0.610829 0.056347 0.018567 255 220 0
0.604102 0.063856 0.096894 255 220 0
0.640109 0.024415 0.036413 255 220 0
0.628142 0.003886 0.031626 255 220 0
0.635829 0.035000 0.093041 255 220 0
0.644928 0.044076 0.039805 255 220 0
0.610497 0.004568 0.097682 255 220 0
0.538509 -0.038738 0.020988 255 220 0
0.551057 -0.006825 0.043896 255 220 0
0.615395 -0.020882 0.035342 255 220 0
0.554668 -0.042566 0.015053 255 220 0
0.579222 0.062500 0.068115 255 220 0
0.651302 0.061175 0.070360 255 220 0
0.631080 0.094045 0.052719 255 220 0
0.633726 0.010845 0.034310 255 220 0
0.607195 0.089630 0.041669 255 220 0
0.633553 0.004296 0.081397 255 220 0
0.632321 0.056007 0.096535 255 220 0
0.612453 0.035014 0.015939 255 220 0
0.583525 0.029216 0.013766 255 220 0
0.556498 -0.046017 0.058852 255 220 0
0.639909 0.033837 0.033448 255 220 0
0.617576 0.051321 0.101070 255 220 0
0.547614 -0.046565 0.016599 255 220 0
0.606690 -0.012758 0.022752 255 220 0
0.569523 0.029076 0.069956 255 220 0
0.576762 0.060548 0.038494 255 220 0
0.618863 0.049310 0.019206 255 220 0
0.537540 -0.032455 0.033654 255 220 0
0.580733 -0.044233 0.071235 255 220 0
0.588521 0.006148 0.012955 255 220 0
0.633996 -0.004574 0.063602 255 220 0
0.603369 -0.036059 0.072382 255 220 0
0.535309 -0.042135 0.036231 255 220 0
0.573302 0.001685 0.014399 255 220 0
0.621293 0.010735 0.095688 255 220 0
0.575792 0.056270 0.065601 255 220 0
0.572951 -0.050509 0.024384 255 220 0
0.555914 0.001843 0.027747 255 220 0
0.592867 0.084849 0.060956 255 220 0
0.614169 -0.009570 0.026257 255 220 0
0.645798 0.041665 0.082093 255 220 0
0.588542 0.075760 0.073603 255 220 0
0.641810 0.087884 0.077028 255 220 0
0.614743 0.026983 0.101406 255 220 0
0.569477 0.039423 0.063478 255 220 0
0.590887 0.001997 0.093253 255 220 0
0.622162 0.051588 0.020917 255 220 0
0.560504 -0.029627 0.066417 255 220 0
0.619203 0.089951 0.040431 255 220 0
0.622238 0.081437 0.092883 255 220 0
0.579674 -0.000480 0.086814 255 220 0
0.624696 0.056074 0.099563 255 220 0
0.545492 -0.036705 0.049907 255 220 0
0.629671 0.096471 0.057402 255 220 0
0.648949 0.060160 0.078594 255 220 0
0.596197 0.087576 0.063050 255 220 0
0.628978 0.043813 0.023378 255 220 0
0.644318 0.086870 0.073339 255 220 0
0.608841 0.076983 0.093221 255 220 0
0.578448 -0.016788 0.083562 255 220 0
0.575251 0.053119 0.031263 255 220 0
0.557410 -0.014467 0.061713 255 220 0
0.635092 0.077125 0.091379 255 220 0
0.634938 0.001962 0.043090 255 220 0
0.648357 0.079236 0.071703 255 220 0
0.549993 -0.031855 0.015393 255 220 0
0.587176 0.066864 0.028542 255 220 0
0.602239 -0.006380 0.095103 255 220 0
0.635664 0.086140 0.045703 255 220 0
0.596438 0.017489 0.097264 255 220 0
0.629986 0.009192 0.030863 255 220 0
0.611657 0.091652 0.079388 255 220 0
0.578097 -0.036511 0.075494 255 220 0
0.646252 0.055535 0.043405 255 220 0
0.541973 -0.023360 0.034342 255 220 0
0.578245 -0.014787 0.013637 255 220 0
0.641470 0.032182 0.086258 255 220 0
0.542223 -0.033161 0.044654 255 220 0
0.582184 0.040449 0.086073 255 220 0
0.559306 0.018381 0.037782 255 220 0
0.631743 0.080209 0.091501 255 220 0
0.594327 0.053099 0.094055 255 220 0
0.578863 -0.013329 0.013576 255 220 0
0.602217 0.086146 0.039275 255 220 0
0.622637 -0.017290 0.042782 255 220 0
0.633778 -0.005238 0.060930 255 220 0
0.639369 0.012364 0.078516 255 220 0
0.616784 0.040229 0.017491 255 220 0
0.590341 -0.010668 0.090808 255 220 0
0.639400 0.045660 0.032565 255 220 0
0.557576 -0.014479 0.061956 255 220 0
0.581439 -0.027963 0.016589 255 220 0
0.536308 -0.045898 0.025500 255 220 0
0.565118 0.034253 0.051288 255 220 0
0.574466 0.033587 0.019193 255 220 0
0.585712 0.011878 0.091307 255 220 0
0.584359 -0.002614 0.089438 255 220 0
0.547984 -0.041238 0.015331 255 220 0
0.646105 0.019731 0.056624 255 220 0
0.635877 0.054657 0.094445 255 220 0
0.567267 -0.041318 0.067681 255 220 0
0.566787 0.034778 0.058918 255 220 0
0.635583 0.001086 0.072754 255 220 0
0.560309 -0.062224 0.041086 255 220 0
0.555365 -0.011140 0.057788 255 220 0
0.601660 0.081158 0.085838 255 220 0
0.558707 0.016685 0.038879 255 220 0
0.634325 0.045608 0.027437 255 220 0
0.591210 -0.045578 0.034481 255 220 0
0.592183 -0.044518 0.034142 255 220 0
0.613982 0.014639 0.018615 255 220 0
0.578155 0.065906 0.047528 255 220 0
0.568731 0.041688 0.058323 255 220 0
0.573131 0.025265 0.077773 255 220 0
0.612157 0.025788 0.101441 255 220 0
0.651010 0.053695 0.071892 255 220 0
0.634618 -0.000116 0.073428 255 220 0
0.584700 -0.005593 0.089214 255 220 0
0.560620 0.021707 0.046446 255 220 0
0.641266 0.007745 0.057938 255 220 0
0.590003 -0.013104 0.090047 255 220 0
0.596701 0.038625 0.013405 255 220 0
0.650840 0.059697 0.054208 255 220 0
0.578461 0.045665 0.078413 255 220 0
0.604567 -0.039629 0.058212 255 220 0
0.637018 0.041167 0.092784 255 220 0
0.599896 0.071504 0.025220 255 220 0
0.646952 0.021962 0.063378 255 220 0
0.606866 -0.035679 0.066485 255 220 0
0.645310 0.074156 0.048732 255 220 0
0.632348 0.084620 0.088341 255 220 0
0.588966 -0.041633 0.073907 255 220 0
0.616944 -0.018969 0.081098 255 220 0
0.558217 0.015233 0.039759 255 220 0
0.567281 -0.007305 0.074752 255 220 0
0.581559 -0.049913 0.030143 255 220 0
0.561886 -0.049780 0.059972 255 220 0
0.647982 0.031094 0.049810 255 220 0
0.569356 -0.060324 0.050232 255 220 0
0.635258 0.094031 0.075305 255 220 0
0.606398 -0.034761 0.070156 255 220 0
0.642096 0.082581 0.082114 255 220 0
0.610415 0.044185 0.101310 255 220 0
0.616339 -0.012049 0.029470 255 220 0
0.642272 0.009922 0.057049 255 220 0
0.639945 0.080475 0.045386 255 220 0
0.572912 -0.037400 0.016715 255 220 0
0.539574 -0.053999 0.032215 255 220 0
0.622378 0.090017 0.041416 255 220 0
0.569343 -0.059507 0.037910 255 220 0
0.581446 0.011604 0.088479 255 220 0
0.644977 0.029473 0.079140 255 220 0
0.635025 0.007355 0.038228 255 220 0
0.583633 0.033425 0.088873 255 220 0
0.600622 0.066970 0.022249 255 220 0
0.582798 0.010708 0.012944 255 220 0
0.597183 -0.036833 0.030566 255 220 0
0.593176 0.007241 0.013401 255 220 0
0.611233 0.024387 0.101307 255 220 0
0.587382 0.047413 0.089778 255 220 0
0.645986 0.025067 0.073559 255 220 0
0.631948 -0.007355 0.051985 255 220 0
0.551283 -0.010540 0.048820 255 220 0
0.616504 0.092555 0.044183 255 220 0
0.596089 0.078088 0.033086 255 220 0
0.645470 0.079889 0.053206 255 220 0
0.557784 0.010554 0.031367 255 220 0
0.574694 0.028604 0.079223 255 220 0
0.621372 -0.012954 0.081996 255 220 0
0.587713 0.066143 0.082181 255 220 0
0.608219 0.042264 0.101094 255 220 0
0.630025 0.046408 0.024204 255 220 0
0.648401 0.046634 0.046010 255 220 0
0.632198 0.004910 0.084008 255 220 0
0.563453 0.029196 0.034419 255 220 0
0.573816 0.043702 0.025083 255 220 0
0.589583 0.043733 0.015452 255 220 0
0.569486 0.032883 0.067993 255 220 0
0.590685 0.037795 0.093808 255 220 0
0.633067 0.037769 0.095483 255 220 0
0.642577 0.010465 0.061708 255 220 0
0.625797 0.059091 0.099076 255 220 0
0.543026 -0.021408 0.035223 255 220 0
0.594921 0.084925 0.069516 255 220 0
0.603413 0.065199 0.096165 255 220 0
0.593094 0.031442 0.012590 255 220 0
0.603175 0.055677 0.098341 255 220 0
0.580799 0.016849 0.087873 255 220 0
0.586709 0.065022 0.081365 255 220 0
0.547562 -0.059096 0.039400 255 220 0
0.574082 -0.036201 0.016681 255 220 0
0.552939 -0.012851 0.021206 255 220 0
0.619891 0.013433 0.097168 255 220 0
0.588345 0.030622 0.092773 255 220 0
0.609386 0.045157 0.101122 255 220 0
0.587366 -0.006003 0.090467 255 220 0
0.542788 -0.024819 0.039896 255 220 0
0.597101 0.067644 0.023389 255 220 0
0.571981 0.037045 0.023114 255 220 0
0.589382 0.081108 0.050094 255 220 0
0.619744 0.088537 0.086775 255 220 0
0.627987 0.097833 0.071048 255 220 0
0.568528 -0.059599 0.052559 255 220 0
0.605524 0.025426 0.100825 255 220 0
0.566338 0.031059 0.061076 255 220 0
0.571081 -0.048685 0.021833 255 220 0
0.585778 0.032819 0.090707 255 220 0
0.640084 0.084212 0.048604 255 220 0
0.598890 0.070665 0.091265 255 220 0
0.542536 -0.022562 0.028624 255 220 0
0.619688 0.036477 0.101166 255 220 0
0.573316 0.011346 0.080935 255 220 0
0.633578 -0.001986 0.045368 255 220 0
0.603089 -0.041302 0.048594 255 220 0
0.647245 0.067822 0.048889 255 220 0
0.582725 -0.035341 0.019654 255 220 0
0.591023 0.027466 0.012379 255 220 0
0.597469 -0.045252 0.057658 255 220 0
0.574879 -0.034098 0.075254 255 220 0
0.647361 0.025152 0.067970 255 220 0
0.560547 -0.025509 0.066793 255 220 0
0.637315 0.067037 0.035403 255 220 0
0.594867 0.029308 0.012447 255 220 0
0.602224 -0.002377 0.017538 255 220 0
0.640152 0.020850 0.083358 255 220 0
0.615434 0.078836 0.093997 255 220 0
0.549757 -0.012451 0.025339 255 220 0
0.548239 -0.041245 0.015281 255 220 0
0.559966 -0.048796 0.018229 255 220 0
0.616603 0.084666 0.089897 255 220 0
0.552054 -0.049202 0.017412 255 220 0
0.630952 0.028177 0.025935 255 220 0
0.558312 0.014651 0.044933 255 220 0
0.561036 0.001430 0.063798 255 220 0
0.576432 0.061435 0.041736 255 220 0
0.646884 0.069667 0.049077 255 220 0
0.567881 -0.011494 0.014200 255 220 0
0.636022 0.019105 0.033301 255 220 0
0.584261 0.037511 0.088841 255 220 0
0.596072 0.072756 0.027551 255 220 0
0.640873 0.050661 0.090155 255 220 0
0.637719 0.001254 0.061664 255 220 0
0.577926 -0.017314 0.013829 255 220 0
0.627418 0.088614 0.086645 255 220 0
0.630559 -0.009052 0.066536 255 220 0
0.590698 0.073192 0.031772 255 220 0
0.576846 -0.058115 0.051767 255 220 0
0.647305 0.025274 0.053589 255 220 0
0.612325 0.051444 0.017624 255 220 0
0.538892 -0.039527 0.020387 255 220 0
0.549947 -0.022404 0.052314 255 220 0
0.624113 0.018512 0.096963 255 220 0
0.603831 0.011538 0.098945 255 220 0
0.567462 0.036430 0.059652 255 220 0
0.639382 0.091251 0.075375 255 220 0
0.633217 -0.004152 0.048462 255 220 0
0.553137 -0.016402 0.019193 255 220 0
0.635116 0.006585 0.080984 255 220 0
0.570066 0.041612 0.029645 255 220 0
0.596685 0.056883 0.094738 255 220 0
0.639433 0.082419 0.085076 255 220 0
0.585300 -0.053042 0.057922 255 220 0
0.607090 -0.009250 0.021671 255 220 0
0.620399 0.090723 0.084415 255 220 0
0.552312 -0.007856 0.049428 255 220 0
0.599459 0.061310 0.095229 255 220 0
0.632276 -0.003962 0.045104 255 220 0
0.643364 0.085030 0.078042 255 220 0
0.575874 -0.058248 0.043890 255 220 0
0.620797 0.019159 0.021036 255 220 0
0.563605 0.027420 0.054587 255 220 0
0.647233 0.075294 0.053301 255 220 0
0.604696 -0.024353 0.027312 255 220 0
0.639248 0.007836 0.046546 255 220 0
0.604695 0.052080 0.099426 255 220 0
0.569909 -0.039912 0.069840 255 220 0
0.633988 -0.002280 0.047144 255 220 0
0.623551 0.061284 0.024338 255 220 0
0.540511 -0.051064 0.041746 255 220 0
0.616458 0.054986 0.019656 255 220 0
0.631677 0.029392 0.026290 255 220 0
0.633412 -0.005651 0.062444 255 220 0
0.586738 -0.053271 0.051105 255 220 0
0.617764 0.049060 0.018779 255 220 0
0.559493 -0.027565 0.065515 255 220 0
0.589770 0.009361 0.012807 255 220 0
0.605855 0.093554 0.054100 255 220 0
0.536063 -0.048441 0.029409 255 220 0
0.630390 -0.002597 0.079383 255 220 0
0.617320 -0.019655 0.036671 255 220 0
0.596282 0.087897 0.055295 255 220 0
0.615930 0.051673 0.101141 255 220 0
0.640923 0.087839 0.053537 255 220 0
0.568328 -0.025580 0.074315 255 220 0
0.545348 -0.026675 0.046390 255 220 0
0.550894 -0.005000 0.034522 255 220 0
0.637363 0.004829 0.074016 255 220 0
0.622430 -0.021759 0.054836 255 220 0
0.596817 0.082801 0.078222 255 220 0
0.595215 0.087028 0.060322 255 220 0
0.585076 -0.022506 0.085028 255 220 0
0.624482 0.035104 0.099759 255 220 0
0.617313 -0.020451 0.037504 255 220 0
0.587563 0.027247 0.012703 255 220 0
0.640166 0.059339 0.091176 255 220 0
0.639581 0.066704 0.037472 255 220 0
0.632728 0.092588 0.051387 255 220 0
0.593665 -0.011046 0.091907 255 220 0
0.651630 0.058817 0.057048 255 220 0
0.596407 -0.004614 0.094323 255 220 0
0.632156 0.014840 0.090110 255 220 0
0.614832 0.097259 0.059768 255 220 0
0.602584 -0.037817 0.038163 255 220 0
0.557306 -0.009166 0.019422 255 220 0
0.581280 0.033946 0.086569 255 220 0
0.626136 -0.015177 0.066665 255 220 0
0.608722 -0.005272 0.021201 255 220 0
0.573706 -0.006141 0.081789 255 220 0
0.569081 -0.046159 0.019329 255 220 0
0.597434 0.081135 0.081515 255 220 0
0.639152 0.007974 0.073801 255 220 0
0.560000 -0.013486 0.016352 255 220 0
0.629136 0.079784 0.035867 255 220 0
0.625729 -0.014909 0.068955 255 220 0
0.642108 0.061812 0.038685 255 220 0
0.618500 0.098151 0.061650 255 220 0
0.549768 -0.060414 0.038943 255 220 0
0.588264 0.071177 0.078976 255 220 0
0.630693 0.083115 0.090116 255 220 0
0.608217 0.010652 0.099134 255 220 0
0.586593 -0.033153 0.020547 255 220 0
0.628143 0.046911 0.098486 255 220 0
0.585917 -0.040951 0.024719 255 220 0
0.551353 -0.014434 0.051576 255 220 0
0.536335 -0.034795 0.030237 255 220 0
0.557566 -0.055651 0.053073 255 220 0
0.579696 0.011816 0.087148 255 220 0
0.591340 0.015701 0.012458 255 220 0
0.585697 -0.029472 0.082157 255 220 0
0.634222 0.008593 0.084073 255 220 0
0.567394 0.042408 0.044290 255 220 0
0.553595 -0.048684 0.017204 255 220 0
0.651708 0.043388 0.057887 255 220 0
0.628831 -0.006080 0.077780 255 220 0
0.644821 0.044228 0.039651 255 220 0
