ply
format ascii 1.0
element vertex 1024
property float x
property float y
property float z
property uchar red
property uchar green
property uchar blue
end_header
0.445448 0.038944 0.221693 255 220 0
0.442313 0.123164 0.215373 255 220 0
0.441631 0.174365 0.287461 255 220 0
0.460914 0.143829 0.270016 255 220 0
0.460085 0.102325 0.232834 255 220 0
0.435457 0.110263 0.303148 255 220 0
0.447870 0.105305 0.214026 255 220 0
0.405699 0.170653 0.252313 255 220 0
0.410748 0.077873 0.288974 255 220 0
0.451792 0.155157 0.247173 255 220 0
0.403299 0.170230 0.254652 255 220 0
0.385408 0.146150 0.273777 255 220 0
0.401742 0.134593 0.232274 255 220 0
0.427477 0.070023 0.191060 255 220 0
0.436492 0.159170 0.233616 255 220 0
0.461383 0.141730 0.271009 255 220 0
0.454408 0.159443 0.268456 255 220 0
0.393008 0.087945 0.267112 255 220 0
0.429454 0.060837 0.186369 255 220 0
0.416519 0.119893 0.214250 255 220 0
0.447381 0.086664 0.207704 255 220 0
0.441906 0.171279 0.254963 255 220 0
0.410451 0.172864 0.303897 255 220 0
0.425786 0.183081 0.263700 255 220 0
0.419774 0.085291 0.295041 255 220 0
0.399518 0.064467 0.251965 255 220 0
0.448733 0.153563 0.239816 255 220 0
0.434453 0.148407 0.307856 255 220 0
0.426715 0.079353 0.196080 255 220 0
0.426089 0.094079 0.299190 255 220 0
0.405295 0.050655 0.232352 255 220 0
0.427897 0.070832 0.285204 255 220 0
0.458353 0.151046 0.271204 255 220 0
0.408061 0.048986 0.210073 255 220 0
0.445159 0.142377 0.227039 255 220 0
0.460166 0.082746 0.231976 255 220 0
0.388329 0.110206 0.256871 255 220 0
0.421921 0.052920 0.184199 255 220 0
0.392701 0.104168 0.243578 255 220 0
0.429767 0.184023 0.285141 255 220 0
0.422896 0.168585 0.240417 255 220 0
0.457541 0.073060 0.224334 255 220 0
0.452618 0.112630 0.221178 255 220 0
0.386366 0.152577 0.277637 255 220 0
0.434549 0.033709 0.235960 255 220 0
0.462587 0.085405 0.250595 255 220 0
0.385730 0.148632 0.274015 255 220 0
0.427263 0.162154 0.308714 255 220 0
0.454472 0.066127 0.257875 255 220 0
0.399131 0.067628 0.238397 255 220 0
0.429824 0.184249 0.277736 255 220 0
0.451724 0.152745 0.243884 255 220 0
0.443492 0.037296 0.225327 255 220 0
0.442027 0.165278 0.245099 255 220 0
0.403591 0.152313 0.238336 255 220 0
0.405694 0.079145 0.286455 255 220 0
0.386926 0.120627 0.278742 255 220 0
0.424143 0.159247 0.231499 255 220 0
0.442047 0.070140 0.197033 255 220 0
0.414759 0.052303 0.266207 255 220 0
0.447710 0.090382 0.209260 255 220 0
0.398959 0.068173 0.238665 255 220 0
0.406161 0.050182 0.241067 255 220 0
0.429253 0.176978 0.251992 255 220 0
0.425998 0.030698 0.232902 255 220 0
0.402257 0.084902 0.222066 255 220 0
0.386301 0.152073 0.274917 255 220 0
0.456292 0.060461 0.235895 255 220 0
0.425292 0.184580 0.289855 255 220 0
0.394193 0.100964 0.286408 255 220 0
0.450273 0.126388 0.223126 255 220 0
0.431423 0.107686 0.206914 255 220 0
0.428666 0.034624 0.241847 255 220 0
0.453236 0.103974 0.219755 255 220 0
0.389417 0.105751 0.253763 255 220 0
0.444308 0.075256 0.279276 255 220 0
0.425180 0.185513 0.281811 255 220 0
0.395232 0.096802 0.237533 255 220 0
0.448109 0.084771 0.282733 255 220 0
0.443920 0.055170 0.195143 255 220 0
0.392035 0.092832 0.270038 255 220 0
0.414326 0.034412 0.217235 255 220 0
0.430274 0.161465 0.233430 255 220 0
0.460633 0.125184 0.241141 255 220 0
0.395182 0.092608 0.238699 255 220 0
0.462569 0.122617 0.277837 255 220 0
0.386579 0.133786 0.285019 255 220 0
0.394512 0.104115 0.238555 255 220 0
0.446897 0.042737 0.232832 255 220 0
0.384998 0.140023 0.272399 255 220 0
0.430404 0.135154 0.216819 255 220 0
0.438461 0.179114 0.282114 255 220 0
0.389517 0.141198 0.294268 255 220 0
0.454443 0.137692 0.235061 255 220 0
0.439169 0.178002 0.266596 255 220 0
0.388344 0.159317 0.278598 255 220 0
0.425364 0.088895 0.296721 255 220 0
0.388307 0.105724 0.264674 255 220 0
0.460613 0.113293 0.236621 255 220 0
0.439058 0.032660 0.219220 255 220 0
0.420046 0.135388 0.310569 255 220 0
0.451764 0.120909 0.295127 255 220 0
0.446349 0.061085 0.199349 255 220 0
0.451984 0.155756 0.287725 255 220 0
0.449778 0.074442 0.273405 255 220 0
0.389472 0.102901 0.271304 255 220 0
0.396437 0.145783 0.303042 255 220 0
0.448642 0.119804 0.218914 255 220 0
0.457276 0.113409 0.286739 255 220 0
0.418848 0.098090 0.301031 255 220 0
0.461082 0.096774 0.234936 255 220 0
0.396845 0.083624 0.275769 255 220 0
0.404390 0.061751 0.219562 255 220 0
0.456138 0.129704 0.233210 255 220 0
0.402870 0.137661 0.306450 255 220 0
0.421707 0.117355 0.307583 255 220 0
0.425431 0.163394 0.234871 255 220 0
0.438655 0.051856 0.188472 255 220 0
0.430170 0.136068 0.217254 255 220 0
0.396876 0.172118 0.271026 255 220 0
0.424644 0.185011 0.288569 255 220 0
0.462356 0.097722 0.269136 255 220 0
0.422265 0.134032 0.217189 255 220 0
0.408149 0.182255 0.273095 255 220 0
0.396338 0.096324 0.286880 255 220 0
0.392383 0.086491 0.255844 255 220 0
0.406162 0.154314 0.237152 255 220 0
0.427436 0.026851 0.213999 255 220 0
0.446824 0.041174 0.226250 255 220 0
0.446366 0.101611 0.294023 255 220 0
0.457207 0.142523 0.285711 255 220 0
0.463574 0.129156 0.273135 255 220 0
0.410536 0.043872 0.198504 255 220 0
0.452662 0.054997 0.243957 255 220 0
0.390550 0.103665 0.278121 255 220 0
0.433834 0.062830 0.188589 255 220 0
0.432419 0.183078 0.282314 255 220 0
0.448247 0.060934 0.262206 255 220 0
0.431690 0.054742 0.184593 255 220 0
0.411142 0.099284 0.212486 255 220 0
0.423150 0.087977 0.296416 255 220 0
0.453820 0.066096 0.259291 255 220 0
0.412418 0.090637 0.208881 255 220 0
0.431870 0.175553 0.300084 255 220 0
0.444158 0.171387 0.260314 255 220 0
0.392912 0.105674 0.242780 255 220 0
0.431284 0.068767 0.282348 255 220 0
0.409680 0.041275 0.210542 255 220 0
0.439343 0.070321 0.195047 255 220 0
0.430313 0.093806 0.298311 255 220 0
0.395862 0.115463 0.236250 255 220 0
0.390723 0.104752 0.280050 255 220 0
0.453658 0.063122 0.214114 255 220 0
0.445468 0.039246 0.211605 255 220 0
0.394557 0.079417 0.259374 255 220 0
0.387190 0.134328 0.287270 255 220 0
0.393471 0.100937 0.241815 255 220 0
0.407455 0.075053 0.210854 255 220 0
0.432878 0.181001 0.291360 255 220 0
0.459936 0.092842 0.231070 255 220 0
0.400573 0.067079 0.232281 255 220 0
0.451112 0.155512 0.246253 255 220 0
0.415460 0.138734 0.310676 255 220 0
0.408030 0.087791 0.213216 255 220 0
0.436847 0.165747 0.240639 255 220 0
0.439541 0.048624 0.255806 255 220 0
0.400868 0.110668 0.227389 255 220 0
0.389082 0.108893 0.254156 255 220 0
0.401976 0.138293 0.306059 255 220 0
0.449371 0.164307 0.258218 255 220 0
0.443163 0.092246 0.291535 255 220 0
0.440832 0.098684 0.296383 255 220 0
0.391042 0.158266 0.292434 255 220 0
0.419075 0.179222 0.300647 255 220 0
0.385424 0.135217 0.279959 255 220 0
0.411527 0.170587 0.305674 255 220 0
0.458362 0.098682 0.227917 255 220 0
0.394073 0.081001 0.250088 255 220 0
0.453715 0.069603 0.263508 255 220 0
0.446307 0.138891 0.225804 255 220 0
0.395794 0.121292 0.297759 255 220 0
0.437971 0.079755 0.286873 255 220 0
0.456027 0.070864 0.219792 255 220 0
0.403101 0.136904 0.306453 255 220 0
0.411972 0.044045 0.244859 255 220 0
0.442790 0.108472 0.211187 255 220 0
0.416273 0.184143 0.269462 255 220 0
0.463539 0.100456 0.244222 255 220 0
0.403238 0.137805 0.306661 255 220 0
0.433682 0.094271 0.202920 255 220 0
0.397916 0.084752 0.233016 255 220 0
0.460465 0.131067 0.282977 255 220 0
0.397038 0.086752 0.279811 255 220 0
0.446752 0.041407 0.227984 255 220 0
0.450296 0.110655 0.294133 255 220 0
0.460465 0.145943 0.268246 255 220 0
0.422805 0.133504 0.310222 255 220 0
0.458601 0.069664 0.231545 255 220 0
0.400296 0.160472 0.247986 255 220 0
0.449508 0.117698 0.219073 255 220 0
0.456151 0.116793 0.289103 255 220 0
0.394956 0.168090 0.290391 255 220 0
0.386725 0.116790 0.271944 255 220 0
0.387293 0.135855 0.288008 255 220 0
0.441805 0.142910 0.304239 255 220 0
0.450394 0.073887 0.272257 255 220 0
0.398804 0.173162 0.290963 255 220 0
0.386183 0.126397 0.263447 255 220 0
0.435553 0.178823 0.260896 255 220 0
0.406838 0.094811 0.295727 255 220 0
0.416305 0.185669 0.286337 255 220 0
0.414884 0.170319 0.306694 255 220 0
0.442144 0.057833 0.265073 255 220 0
0.446712 0.089614 0.287191 255 220 0
0.385568 0.126320 0.267670 255 220 0
0.440805 0.043071 0.246306 255 220 0
0.447627 0.159977 0.293024 255 220 0
0.448370 0.092154 0.287285 255 220 0
0.435172 0.172828 0.299492 255 220 0
0.430580 0.047321 0.260374 255 220 0
0.461696 0.083215 0.239590 255 220 0
0.427017 0.088517 0.200380 255 220 0
0.425655 0.034039 0.190749 255 220 0
0.434516 0.181845 0.283210 255 220 0
0.388537 0.157858 0.270437 255 220 0
0.410584 0.039644 0.219468 255 220 0
0.458992 0.073102 0.252903 255 220 0
0.424796 0.119295 0.307827 255 220 0
0.428223 0.086622 0.295048 255 220 0
0.403703 0.066816 0.271389 255 220 0
0.457490 0.096610 0.279022 255 220 0
0.425664 0.027022 0.212607 255 220 0
0.401812 0.064697 0.228709 255 220 0
0.435805 0.031891 0.228242 255 220 0
0.390544 0.097545 0.252934 255 220 0
0.389388 0.106726 0.276465 255 220 0
0.433163 0.070925 0.283107 255 220 0
0.415829 0.179845 0.257762 255 220 0
0.449946 0.166446 0.271056 255 220 0
0.452270 0.143610 0.294591 255 220 0
0.436223 0.073360 0.283321 255 220 0
0.393605 0.102141 0.286062 255 220 0
0.421846 0.183096 0.263243 255 220 0
0.453471 0.159996 0.262621 255 220 0
0.449785 0.059849 0.258709 255 220 0
0.429373 0.162111 0.307952 255 220 0
0.402611 0.149257 0.237608 255 220 0
0.405279 0.079106 0.215642 255 220 0
0.416369 0.185723 0.285945 255 220 0
0.403144 0.173522 0.297967 255 220 0
0.387347 0.125312 0.283915 255 220 0
0.424002 0.038330 0.248348 255 220 0
0.463549 0.091080 0.249442 255 220 0
0.385265 0.145004 0.274552 255 220 0
0.413825 0.171451 0.305859 255 220 0
0.399482 0.161491 0.249993 255 220 0
0.413195 0.112103 0.214116 255 220 0
0.400638 0.062261 0.252164 255 220 0
0.435709 0.038122 0.243454 255 220 0
0.408544 0.127240 0.307209 255 220 0
0.451574 0.134948 0.229016 255 220 0
0.399237 0.131843 0.303177 255 220 0
0.386893 0.150621 0.268151 255 220 0
0.410144 0.092441 0.296062 255 220 0
0.389101 0.122483 0.287567 255 220 0
0.399349 0.110490 0.297952 255 220 0
0.450731 0.047908 0.231613 255 220 0
0.403608 0.082680 0.286883 255 220 0
0.391351 0.096584 0.249822 255 220 0
0.429299 0.184376 0.282712 255 220 0
0.396125 0.106873 0.293011 255 220 0
0.413493 0.174081 0.304152 255 220 0
0.415771 0.113060 0.212552 255 220 0
0.454189 0.157443 0.258112 255 220 0
0.394260 0.085054 0.268488 255 220 0
0.454459 0.074751 0.267302 255 220 0
0.412393 0.161026 0.237405 255 220 0
0.433941 0.049443 0.261210 255 220 0
0.423428 0.094239 0.299459 255 220 0
0.393497 0.118771 0.294162 255 220 0
0.385241 0.136869 0.268860 255 220 0
0.453256 0.071177 0.212741 255 220 0
0.423671 0.027744 0.215035 255 220 0
0.403258 0.134156 0.306062 255 220 0
0.439601 0.155520 0.232440 255 220 0
0.426266 0.125914 0.308828 255 220 0
0.428761 0.110125 0.207498 255 220 0
0.433138 0.179559 0.259588 255 220 0
0.412239 0.062868 0.197866 255 220 0
0.392920 0.110459 0.242434 255 220 0
0.405645 0.060126 0.215319 255 220 0
0.407199 0.071259 0.281560 255 220 0
0.392630 0.114957 0.243115 255 220 0
0.409504 0.165745 0.243453 255 220 0
0.441954 0.053754 0.192392 255 220 0
0.429754 0.144471 0.221759 255 220 0
0.440913 0.094126 0.294032 255 220 0
0.386188 0.119560 0.266909 255 220 0
0.437089 0.154676 0.230379 255 220 0
0.399096 0.131599 0.303026 255 220 0
0.446065 0.131859 0.221722 255 220 0
0.406731 0.073832 0.283347 255 220 0
0.394720 0.148784 0.247974 255 220 0
0.443860 0.071796 0.199272 255 220 0
0.388428 0.154076 0.265626 255 220 0
0.391559 0.090808 0.262783 255 220 0
0.398592 0.070759 0.237859 255 220 0
0.396201 0.104194 0.291731 255 220 0
0.392587 0.121956 0.243616 255 220 0
0.427893 0.027070 0.207634 255 220 0
0.442108 0.037711 0.232430 255 220 0
0.436484 0.030694 0.208098 255 220 0
0.433084 0.154594 0.228790 255 220 0
0.454109 0.071565 0.264835 255 220 0
0.460411 0.139315 0.250203 255 220 0
0.422800 0.053116 0.270124 255 220 0
0.451535 0.091403 0.213965 255 220 0
0.426407 0.141204 0.310499 255 220 0
0.462482 0.085965 0.243443 255 220 0
0.394129 0.165037 0.263883 255 220 0
0.418989 0.168752 0.241467 255 220 0
0.459101 0.105152 0.230924 255 220 0
0.460667 0.082424 0.234166 255 220 0
0.440046 0.120916 0.303655 255 220 0
0.429730 0.088468 0.295709 255 220 0
0.448837 0.072930 0.205407 255 220 0
0.455331 0.149739 0.284741 255 220 0
0.408547 0.095052 0.296680 255 220 0
0.446113 0.046676 0.201184 255 220 0
0.415182 0.162890 0.237418 255 220 0
0.439710 0.042560 0.246744 255 220 0
0.386005 0.122168 0.265909 255 220 0
0.427743 0.177171 0.301066 255 220 0
0.451133 0.079233 0.275567 255 220 0
0.461898 0.097580 0.237692 255 220 0
0.416159 0.172775 0.247009 255 220 0
0.412570 0.073443 0.286891 255 220 0
0.401016 0.124026 0.230052 255 220 0
0.444405 0.136858 0.223112 255 220 0
0.409208 0.103727 0.301217 255 220 0
0.399624 0.069586 0.234477 255 220 0
0.438692 0.102033 0.298973 255 220 0
0.407987 0.079570 0.211093 255 220 0
0.428065 0.032911 0.192880 255 220 0
0.454174 0.131502 0.230774 255 220 0
0.453498 0.120330 0.293112 255 220 0
0.453601 0.068802 0.262851 255 220 0
0.385701 0.146882 0.271352 255 220 0
0.442533 0.146418 0.303430 255 220 0
0.448442 0.088557 0.284949 255 220 0
0.388996 0.104542 0.270665 255 220 0
0.414609 0.184864 0.289040 255 220 0
0.407144 0.053423 0.212167 255 220 0
0.398472 0.095377 0.229835 255 220 0
0.404427 0.054041 0.245835 255 220 0
0.406601 0.111830 0.220352 255 220 0
0.422704 0.028014 0.210084 255 220 0
0.435412 0.030535 0.222355 255 220 0
0.394876 0.091540 0.239960 255 220 0
0.431249 0.175527 0.300560 255 220 0
0.459725 0.147756 0.260138 255 220 0
0.421040 0.028962 0.214342 255 220 0
0.448955 0.162027 0.252076 255 220 0
0.409254 0.042221 0.220735 255 220 0
0.403200 0.055594 0.233836 255 220 0
0.446751 0.127893 0.300550 255 220 0
0.449605 0.105867 0.215863 255 220 0
0.436689 0.133605 0.306737 255 220 0
0.397795 0.168977 0.261871 255 220 0
0.398204 0.088151 0.283563 255 220 0
0.443907 0.047588 0.249663 255 220 0
0.413255 0.177547 0.255314 255 220 0
0.420355 0.120872 0.308304 255 220 0
0.438906 0.107040 0.300708 255 220 0
0.390541 0.095903 0.265689 255 220 0
0.388678 0.114191 0.254717 255 220 0
0.464356 0.128387 0.259546 255 220 0
0.443815 0.101433 0.209764 255 220 0
0.405828 0.165660 0.246528 255 220 0
0.407598 0.182907 0.278819 255 220 0
0.423272 0.055771 0.273145 255 220 0
0.400129 0.076992 0.276533 255 220 0
0.439287 0.178119 0.267606 255 220 0
0.430189 0.102463 0.205256 255 220 0
0.433872 0.135448 0.307983 255 220 0
0.408580 0.109944 0.217724 255 220 0
0.463954 0.121133 0.272746 255 220 0
0.411420 0.115451 0.216498 255 220 0
0.413773 0.046601 0.189532 255 220 0
0.433438 0.145740 0.308424 255 220 0
0.444631 0.077714 0.202065 255 220 0
0.408248 0.139110 0.227416 255 220 0
0.439536 0.070581 0.279159 255 220 0
0.388654 0.152651 0.263552 255 220 0
0.433977 0.182118 0.283715 255 220 0
0.445217 0.164028 0.293754 255 220 0
0.386684 0.145766 0.286378 255 220 0
0.399366 0.079186 0.277273 255 220 0
0.385300 0.128535 0.269766 255 220 0
0.445393 0.169266 0.287213 255 220 0
0.418198 0.112733 0.211076 255 220 0
0.451531 0.066053 0.208782 255 220 0
0.400469 0.158083 0.245796 255 220 0
0.441000 0.176712 0.282014 255 220 0
0.394378 0.094068 0.240682 255 220 0
0.422168 0.157273 0.230405 255 220 0
0.414980 0.164440 0.238884 255 220 0
0.406266 0.075436 0.284222 255 220 0
0.400843 0.119025 0.229124 255 220 0
0.447394 0.169663 0.268588 255 220 0
0.446050 0.068769 0.200691 255 220 0
0.406892 0.053705 0.213236 255 220 0
0.388963 0.102183 0.260976 255 220 0
0.419755 0.112849 0.210369 255 220 0
0.426360 0.124459 0.212338 255 220 0
0.436356 0.154907 0.305972 255 220 0
0.457048 0.089788 0.223208 255 220 0
0.450947 0.049463 0.236335 255 220 0
0.407383 0.061234 0.209132 255 220 0
0.457947 0.109869 0.229462 255 220 0
0.386158 0.132881 0.282971 255 220 0
0.448557 0.070476 0.271441 255 220 0
0.437408 0.158424 0.304433 255 220 0
0.419702 0.037148 0.189024 255 220 0
0.403422 0.058490 0.255045 255 220 0
0.461614 0.142698 0.262412 255 220 0
0.394934 0.138467 0.243011 255 220 0
0.425378 0.042742 0.255579 255 220 0
0.385134 0.141407 0.277805 255 220 0
0.435274 0.046306 0.185819 255 220 0
0.423138 0.185674 0.277618 255 220 0
0.419529 0.159608 0.310632 255 220 0
0.413815 0.177291 0.301678 255 220 0
0.402938 0.159017 0.306347 255 220 0
0.448741 0.059002 0.259196 255 220 0
0.413854 0.036598 0.198021 255 220 0
0.444442 0.173396 0.269720 255 220 0
0.388967 0.141244 0.256534 255 220 0
0.452372 0.136635 0.295787 255 220 0
0.395657 0.078366 0.263862 255 220 0
0.442602 0.175683 0.273425 255 220 0
0.386319 0.143059 0.285348 255 220 0
0.415435 0.180781 0.259936 255 220 0
0.461075 0.144528 0.265463 255 220 0
0.458130 0.067285 0.231614 255 220 0
0.395869 0.168585 0.265635 255 220 0
0.446532 0.041619 0.209082 255 220 0
0.402360 0.141783 0.306757 255 220 0
0.386655 0.117454 0.272426 255 220 0
0.392197 0.166695 0.274726 255 220 0
0.465211 0.118896 0.260747 255 220 0
0.444041 0.055406 0.195336 255 220 0
0.442860 0.154612 0.301393 255 220 0
0.435430 0.142539 0.221803 255 220 0
0.413066 0.176686 0.254046 255 220 0
0.446482 0.088755 0.286850 255 220 0
0.457641 0.081550 0.223893 255 220 0
0.464028 0.094429 0.252087 255 220 0
0.452077 0.162873 0.275366 255 220 0
0.438296 0.041590 0.246677 255 220 0
0.425435 0.048110 0.263329 255 220 0
0.464742 0.125855 0.264366 255 220 0
0.462620 0.135245 0.254982 255 220 0
0.406504 0.049849 0.241814 255 220 0
0.394004 0.098411 0.283873 255 220 0
0.411392 0.172313 0.304623 255 220 0
0.413824 0.052809 0.190609 255 220 0
0.430652 0.089042 0.200497 255 220 0
0.423470 0.107702 0.207516 255 220 0
0.446111 0.139771 0.226181 255 220 0
0.393938 0.152499 0.299910 255 220 0
0.435015 0.145158 0.223233 255 220 0
0.452358 0.064004 0.210610 255 220 0
0.396613 0.083576 0.275026 255 220 0
0.438081 0.094689 0.204406 255 220 0
0.399472 0.075730 0.273394 255 220 0
0.451714 0.158494 0.285547 255 220 0
0.456006 0.152022 0.280242 255 220 0
0.415089 0.149323 0.227930 255 220 0
0.398325 0.109763 0.231172 255 220 0
0.446926 0.160884 0.293515 255 220 0
0.385573 0.147687 0.277504 255 220 0
0.398782 0.112045 0.297972 255 220 0
0.403193 0.142783 0.233833 255 220 0
0.434648 0.172428 0.248182 255 220 0
0.440433 0.033564 0.215085 255 220 0
0.409803 0.043192 0.233153 255 220 0
0.421514 0.102309 0.206490 255 220 0
0.406790 0.139887 0.308569 255 220 0
0.401493 0.080588 0.282662 255 220 0
0.459741 0.148523 0.264983 255 220 0
0.406852 0.180781 0.270329 255 220 0
0.440752 0.042311 0.245120 255 220 0
0.402941 0.137661 0.306487 255 220 0
0.433203 0.041123 0.250130 255 220 0
0.397202 0.093361 0.232886 255 220 0
0.453924 0.122099 0.226037 255 220 0
0.454434 0.127123 0.292972 255 220 0
0.408436 0.055504 0.205797 255 220 0
0.425724 0.074880 0.288641 255 220 0
0.421834 0.083421 0.294138 255 220 0
0.409813 0.040829 0.217327 255 220 0
0.440840 0.067127 0.194878 255 220 0
0.451629 0.066224 0.263366 255 220 0
0.392624 0.114804 0.243131 255 220 0
0.392233 0.110136 0.244342 255 220 0
0.435141 0.139744 0.220118 255 220 0
0.395608 0.149367 0.246866 255 220 0
0.458311 0.136186 0.241805 255 220 0
0.392878 0.133202 0.297597 255 220 0
0.434198 0.036739 0.242439 255 220 0
0.411912 0.069114 0.201078 255 220 0
0.443877 0.039610 0.203327 255 220 0
0.436252 0.066877 0.278200 255 220 0
0.418982 0.036486 0.240295 255 220 0
0.411201 0.040725 0.199535 255 220 0
0.436967 0.161474 0.303824 255 220 0
0.407818 0.052129 0.254034 255 220 0
0.392982 0.093882 0.275704 255 220 0
0.460778 0.136631 0.279870 255 220 0
0.443226 0.151641 0.232041 255 220 0
0.436823 0.148391 0.225932 255 220 0
0.453042 0.070245 0.212205 255 220 0
0.445041 0.172292 0.280648 255 220 0
0.396699 0.071673 0.253393 255 220 0
0.443900 0.047225 0.249092 255 220 0
0.420860 0.184126 0.292857 255 220 0
0.405297 0.151222 0.236025 255 220 0
0.452432 0.064605 0.260192 255 220 0
0.433060 0.059548 0.186816 255 220 0
0.415679 0.078198 0.200591 255 220 0
0.460010 0.075841 0.234436 255 220 0
0.446062 0.041518 0.231951 255 220 0
0.410149 0.181961 0.293110 255 220 0
0.419555 0.096723 0.300476 255 220 0
0.449983 0.163337 0.257822 255 220 0
0.397325 0.107520 0.232655 255 220 0
0.433249 0.130042 0.214799 255 220 0
0.419943 0.109400 0.209236 255 220 0
0.412625 0.035628 0.209694 255 220 0
0.446645 0.135392 0.224054 255 220 0
0.430444 0.109497 0.207351 255 220 0
0.456106 0.062411 0.224286 255 220 0
0.398232 0.085589 0.281323 255 220 0
0.436958 0.128864 0.306212 255 220 0
0.461552 0.086988 0.261180 255 220 0
0.388181 0.117666 0.256143 255 220 0
0.385424 0.136430 0.267670 255 220 0
0.396156 0.137811 0.301917 255 220 0
0.464795 0.116028 0.252973 255 220 0
0.406805 0.142600 0.230217 255 220 0
0.445042 0.082471 0.283882 255 220 0
0.387347 0.114474 0.260225 255 220 0
0.447125 0.090319 0.208662 255 220 0
0.416638 0.036441 0.192691 255 220 0
0.451644 0.088875 0.213433 255 220 0
0.404367 0.066405 0.217759 255 220 0
0.463579 0.097047 0.244863 255 220 0
0.441245 0.130543 0.304299 255 220 0
0.462717 0.093522 0.263762 255 220 0
0.443872 0.074780 0.279260 255 220 0
0.450492 0.072186 0.270722 255 220 0
0.388322 0.118747 0.283208 255 220 0
0.402352 0.078072 0.221845 255 220 0
0.437237 0.067977 0.278508 255 220 0
0.399840 0.080714 0.228421 255 220 0
0.402289 0.162995 0.304488 255 220 0
0.418197 0.104675 0.303759 255 220 0
0.438582 0.153706 0.230440 255 220 0
0.394629 0.097074 0.284150 255 220 0
0.424938 0.182387 0.261335 255 220 0
0.459611 0.147427 0.271400 255 220 0
0.446413 0.047408 0.201396 255 220 0
0.421392 0.168683 0.240768 255 220 0
0.465316 0.111518 0.258209 255 220 0
0.430897 0.097150 0.203562 255 220 0
0.411801 0.036908 0.207727 255 220 0
0.433255 0.118225 0.210308 255 220 0
0.457368 0.064297 0.241533 255 220 0
0.424773 0.170284 0.242177 255 220 0
0.464508 0.104951 0.264930 255 220 0
0.433808 0.157700 0.231290 255 220 0
0.407494 0.049540 0.245591 255 220 0
0.405172 0.180510 0.273407 255 220 0
0.401047 0.064493 0.232291 255 220 0
0.390872 0.093537 0.262970 255 220 0
0.402380 0.061150 0.229167 255 220 0
0.409766 0.056081 0.266187 255 220 0
0.456385 0.061767 0.241749 255 220 0
0.407431 0.170203 0.249982 255 220 0
0.460079 0.120244 0.237592 255 220 0
0.432550 0.049728 0.262444 255 220 0
0.461503 0.081994 0.253970 255 220 0
0.464750 0.115082 0.252289 255 220 0
0.401182 0.166167 0.252514 255 220 0
0.441951 0.093183 0.292875 255 220 0
0.459943 0.080549 0.231578 255 220 0
0.399531 0.070562 0.265923 255 220 0
0.410703 0.074624 0.286827 255 220 0
0.461875 0.116558 0.241174 255 220 0
0.415716 0.057663 0.190357 255 220 0
0.453982 0.148152 0.243062 255 220 0
0.389900 0.106970 0.279131 255 220 0
0.420866 0.185978 0.279882 255 220 0
0.461420 0.114134 0.239057 255 220 0
0.418187 0.064891 0.281864 255 220 0
0.408201 0.049942 0.208488 255 220 0
0.448645 0.141161 0.299197 255 220 0
0.457012 0.114173 0.287321 255 220 0
0.390215 0.117855 0.287930 255 220 0
0.441294 0.035150 0.205980 255 220 0
0.451317 0.163683 0.264898 255 220 0
0.391715 0.107502 0.285492 255 220 0
0.390630 0.154900 0.293732 255 220 0
0.440341 0.075839 0.198032 255 220 0
0.398618 0.172278 0.292211 255 220 0
0.410456 0.135599 0.309215 255 220 0
0.450285 0.046235 0.220139 255 220 0
0.435731 0.103695 0.300883 255 220 0
0.441823 0.175080 0.264248 255 220 0
0.394725 0.078957 0.248622 255 220 0
0.436555 0.178342 0.290925 255 220 0
0.431387 0.096540 0.203392 255 220 0
0.404067 0.060806 0.262406 255 220 0
0.401576 0.061926 0.256083 255 220 0
0.406037 0.129315 0.225791 255 220 0
0.436203 0.080017 0.288024 255 220 0
0.443074 0.066228 0.272827 255 220 0
0.459446 0.138279 0.246333 255 220 0
0.415223 0.120445 0.307758 255 220 0
0.416460 0.033547 0.223704 255 220 0
0.453223 0.117170 0.223308 255 220 0
0.451066 0.164820 0.271309 255 220 0
0.436476 0.063682 0.275295 255 220 0
0.443323 0.174632 0.269617 255 220 0
0.394509 0.137248 0.243298 255 220 0
0.462779 0.134558 0.255059 255 220 0
0.420682 0.039867 0.249505 255 220 0
0.442325 0.175791 0.278879 255 220 0
0.410317 0.180701 0.264595 255 220 0
0.402752 0.072526 0.221439 255 220 0
0.406461 0.091727 0.216229 255 220 0
0.463971 0.100854 0.246349 255 220 0
0.427207 0.028255 0.224818 255 220 0
0.446987 0.164290 0.251792 255 220 0
0.423114 0.178829 0.253784 255 220 0
0.435633 0.033881 0.195991 255 220 0
0.448325 0.047523 0.241154 255 220 0
0.430942 0.183610 0.273591 255 220 0
0.433196 0.059338 0.273142 255 220 0
0.442392 0.069746 0.197184 255 220 0
0.447181 0.102065 0.293572 255 220 0
0.409331 0.133299 0.308502 255 220 0
0.408984 0.127992 0.222513 255 220 0
0.430292 0.183634 0.286473 255 220 0
0.433822 0.100269 0.205053 255 220 0
0.443186 0.036301 0.219875 255 220 0
0.429189 0.045673 0.183347 255 220 0
0.447544 0.044111 0.208090 255 220 0
0.458597 0.079850 0.226754 255 220 0
0.405622 0.114077 0.222012 255 220 0
0.463876 0.106532 0.269286 255 220 0
0.388848 0.143638 0.257744 255 220 0
0.413605 0.111943 0.305439 255 220 0
0.404182 0.159899 0.243015 255 220 0
0.429414 0.060903 0.186393 255 220 0
0.412098 0.059759 0.273971 255 220 0
0.406957 0.053617 0.212971 255 220 0
0.434862 0.138250 0.219215 255 220 0
0.397865 0.069310 0.255819 255 220 0
0.410513 0.092902 0.211502 255 220 0
0.388051 0.112370 0.276131 255 220 0
0.447962 0.147821 0.233596 255 220 0
0.461119 0.108915 0.278617 255 220 0
0.424314 0.160405 0.232391 255 220 0
0.411110 0.061613 0.199506 255 220 0
0.452586 0.084139 0.213646 255 220 0
0.462849 0.094000 0.241632 255 220 0
0.450117 0.153234 0.241617 255 220 0
0.386929 0.142280 0.287704 255 220 0
0.463741 0.121929 0.273709 255 220 0
0.464654 0.101680 0.260416 255 220 0
0.417154 0.119070 0.307748 255 220 0
0.459488 0.140781 0.280624 255 220 0
0.405109 0.085524 0.289888 255 220 0
0.425644 0.051933 0.183165 255 220 0
0.409092 0.079240 0.209261 255 220 0
0.459927 0.075347 0.251816 255 220 0
0.441243 0.051509 0.191382 255 220 0
0.392313 0.144344 0.250076 255 220 0
0.437085 0.151308 0.306195 255 220 0
0.428871 0.184574 0.281165 255 220 0
0.464548 0.108494 0.266770 255 220 0
0.422740 0.179860 0.255625 255 220 0
0.431773 0.091676 0.296821 255 220 0
0.407171 0.138191 0.308478 255 220 0
0.458346 0.133377 0.240001 255 220 0
0.442870 0.124740 0.216314 255 220 0
0.411376 0.038662 0.220988 255 220 0
0.463441 0.131679 0.272140 255 220 0
0.395602 0.130860 0.299970 255 220 0
0.436597 0.046441 0.186813 255 220 0
0.461519 0.084947 0.237478 255 220 0
0.393041 0.110423 0.242110 255 220 0
0.412791 0.148738 0.228896 255 220 0
0.456529 0.147258 0.247754 255 220 0
0.414249 0.055081 0.190981 255 220 0
0.417410 0.040577 0.247516 255 220 0
0.452361 0.103210 0.218343 255 220 0
0.447206 0.087102 0.285141 255 220 0
0.429024 0.050976 0.265888 255 220 0
0.413340 0.044873 0.190437 255 220 0
0.442685 0.096725 0.207483 255 220 0
0.411937 0.093243 0.297124 255 220 0
0.393492 0.138459 0.245506 255 220 0
0.448101 0.043970 0.210890 255 220 0
0.421811 0.091803 0.202943 255 220 0
0.400720 0.169211 0.256995 255 220 0
0.462959 0.088161 0.245601 255 220 0
0.429849 0.129159 0.308576 255 220 0
0.390996 0.157084 0.261424 255 220 0
0.419555 0.174514 0.304745 255 220 0
0.399567 0.106897 0.296731 255 220 0
0.395169 0.121866 0.238430 255 220 0
0.396435 0.081642 0.271986 255 220 0
0.456828 0.149482 0.251491 255 220 0
0.404374 0.053323 0.229815 255 220 0
0.431238 0.181902 0.263958 255 220 0
0.397094 0.162381 0.299818 255 220 0
0.394567 0.079315 0.259164 255 220 0
0.400075 0.136657 0.304655 255 220 0
0.408549 0.048323 0.207330 255 220 0
0.423961 0.185709 0.283262 255 220 0
0.429837 0.148211 0.309693 255 220 0
0.400650 0.171787 0.261028 255 220 0
0.461317 0.142241 0.257845 255 220 0
0.424094 0.174657 0.304203 255 220 0
0.389385 0.156371 0.289625 255 220 0
0.400185 0.064113 0.255248 255 220 0
0.418928 0.142974 0.222660 255 220 0
0.402071 0.068660 0.225229 255 220 0
0.407473 0.160102 0.308372 255 220 0
0.461127 0.098097 0.272907 255 220 0
0.429756 0.168125 0.305799 255 220 0
0.435357 0.061229 0.188627 255 220 0
0.425132 0.158322 0.230689 255 220 0
0.404416 0.074504 0.281357 255 220 0
0.438865 0.179041 0.279672 255 220 0
0.393230 0.096412 0.279634 255 220 0
0.465076 0.107206 0.261605 255 220 0
0.397628 0.173977 0.283581 255 220 0
0.410715 0.046781 0.248692 255 220 0
0.454879 0.151227 0.284578 255 220 0
0.414332 0.064264 0.195281 255 220 0
0.450474 0.081558 0.209858 255 220 0
0.426396 0.118534 0.307482 255 220 0
0.409408 0.052522 0.201632 255 220 0
0.386587 0.119381 0.262787 255 220 0
0.412582 0.105984 0.212914 255 220 0
0.404480 0.162652 0.306074 255 220 0
0.385408 0.131318 0.277862 255 220 0
0.450553 0.083057 0.210366 255 220 0
0.422162 0.176417 0.250106 255 220 0
0.458251 0.078048 0.262333 255 220 0
0.449177 0.087027 0.283208 255 220 0
0.435593 0.100827 0.299802 255 220 0
0.458694 0.138602 0.244576 255 220 0
0.400998 0.069866 0.269307 255 220 0
0.460833 0.143251 0.271816 255 220 0
0.402004 0.068614 0.225512 255 220 0
0.453626 0.068543 0.213491 255 220 0
0.422724 0.043738 0.184036 255 220 0
0.402536 0.119044 0.226938 255 220 0
0.432047 0.126664 0.213188 255 220 0
0.392099 0.091006 0.267325 255 220 0
0.396180 0.077237 0.264308 255 220 0
0.436439 0.051921 0.186558 255 220 0
0.454016 0.113635 0.291117 255 220 0
0.411300 0.137780 0.309750 255 220 0
0.410669 0.042553 0.235143 255 220 0
0.397919 0.118060 0.233181 255 220 0
0.440158 0.090737 0.292585 255 220 0
0.430757 0.027392 0.211491 255 220 0
0.402798 0.072502 0.221310 255 220 0
0.389138 0.161179 0.279608 255 220 0
0.411819 0.104027 0.213080 255 220 0
0.461336 0.143724 0.264634 255 220 0
0.451202 0.048713 0.231566 255 220 0
0.451809 0.049931 0.232143 255 220 0
0.462415 0.113255 0.241803 255 220 0
0.405779 0.152083 0.236099 255 220 0
0.397885 0.125112 0.234643 255 220 0
0.390599 0.105437 0.249715 255 220 0
0.398185 0.105419 0.294725 255 220 0
0.437633 0.143696 0.306565 255 220 0
0.439347 0.089307 0.292225 255 220 0
0.397298 0.074446 0.264262 255 220 0
0.406291 0.107437 0.219709 255 220 0
0.452931 0.101160 0.287651 255 220 0
0.401939 0.067638 0.268426 255 220 0
0.449228 0.135522 0.226591 255 220 0
0.448916 0.153411 0.295291 255 220 0
0.388494 0.125677 0.255272 255 220 0
0.440991 0.050816 0.257417 255 220 0
0.416576 0.125237 0.308815 255 220 0
0.434535 0.165093 0.238443 255 220 0
0.449088 0.114395 0.296259 255 220 0
0.435459 0.053078 0.264740 255 220 0
0.445791 0.167945 0.288317 255 220 0
0.406076 0.167695 0.304721 255 220 0
0.420086 0.043498 0.255641 255 220 0
0.427128 0.067220 0.282766 255 220 0
0.411225 0.102367 0.213201 255 220 0
0.397116 0.073889 0.241564 255 220 0
0.449264 0.044312 0.221193 255 220 0
0.414935 0.035427 0.225603 255 220 0
0.457367 0.126369 0.288734 255 220 0
0.429411 0.028297 0.224394 255 220 0
0.415100 0.180048 0.298982 255 220 0
0.432260 0.053094 0.266814 255 220 0
0.417346 0.168288 0.307976 255 220 0
0.392615 0.123035 0.294305 255 220 0
0.462620 0.085312 0.249199 255 220 0
0.453683 0.103586 0.287955 255 220 0
0.443234 0.174150 0.282413 255 220 0
0.450418 0.058351 0.206591 255 220 0
0.421926 0.034804 0.190435 255 220 0
0.432535 0.182132 0.267011 255 220 0
0.438172 0.031823 0.216438 255 220 0
0.391499 0.090851 0.262238 255 220 0
0.434491 0.117921 0.305384 255 220 0
0.463389 0.104404 0.270110 255 220 0
0.387212 0.112140 0.265326 255 220 0
0.438284 0.161455 0.236825 255 220 0
0.447583 0.106930 0.214235 255 220 0
0.455708 0.058767 0.234033 255 220 0
0.454741 0.104733 0.222226 255 220 0
0.398038 0.103982 0.293861 255 220 0
0.385489 0.125925 0.269511 255 220 0
0.440289 0.115020 0.302294 255 220 0
0.455044 0.086744 0.275904 255 220 0
0.406570 0.074580 0.212427 255 220 0
0.426137 0.183260 0.264481 255 220 0
0.424745 0.169253 0.241006 255 220 0
0.441217 0.172516 0.291647 255 220 0
0.418216 0.099653 0.207178 255 220 0
0.389716 0.108535 0.252021 255 220 0
0.427817 0.073377 0.287033 255 220 0
0.386599 0.145773 0.265841 255 220 0
0.391844 0.120958 0.292394 255 220 0
0.460743 0.144695 0.259315 255 220 0
0.456557 0.142298 0.287422 255 220 0
0.428854 0.091526 0.297518 255 220 0
0.415006 0.117697 0.214463 255 220 0
0.424840 0.135063 0.217057 255 220 0
0.441924 0.139145 0.222786 255 220 0
0.393505 0.114538 0.241013 255 220 0
0.387045 0.116126 0.274115 255 220 0
0.412926 0.120871 0.307383 255 220 0
0.450352 0.103113 0.291237 255 220 0
0.400388 0.139818 0.305337 255 220 0
0.413881 0.066085 0.196757 255 220 0
0.395782 0.167632 0.264110 255 220 0
0.386687 0.143658 0.286780 255 220 0
0.449292 0.128316 0.222937 255 220 0
0.387306 0.133934 0.287499 255 220 0
0.390229 0.095981 0.261635 255 220 0
0.386828 0.144749 0.264489 255 220 0
0.423062 0.029247 0.200886 255 220 0
0.450893 0.059660 0.207522 255 220 0
0.428307 0.078680 0.195654 255 220 0
0.409296 0.095355 0.297163 255 220 0
0.388077 0.109133 0.271282 255 220 0
0.391853 0.123893 0.293453 255 220 0
0.398191 0.074094 0.267076 255 220 0
0.411170 0.061718 0.199423 255 220 0
0.435036 0.161426 0.234926 255 220 0
0.426747 0.128837 0.214030 255 220 0
0.407326 0.167582 0.247105 255 220 0
0.398190 0.170304 0.294345 255 220 0
0.412611 0.183791 0.290905 255 220 0
0.427008 0.028380 0.225313 255 220 0
0.394482 0.104401 0.289269 255 220 0
0.396980 0.113928 0.234040 255 220 0
0.448312 0.046074 0.207913 255 220 0
0.387398 0.111405 0.268111 255 220 0
0.440056 0.177067 0.284806 255 220 0
0.386011 0.149486 0.280461 255 220 0
0.418658 0.066375 0.192043 255 220 0
0.400555 0.116735 0.300840 255 220 0
0.391858 0.091292 0.251158 255 220 0
0.459576 0.093607 0.273139 255 220 0
0.447462 0.051155 0.249969 255 220 0
0.448480 0.162016 0.289548 255 220 0
0.454041 0.060881 0.216058 255 220 0
0.449106 0.124266 0.221014 255 220 0
0.438247 0.044638 0.251367 255 220 0
0.408236 0.048779 0.246222 255 220 0
0.445216 0.116511 0.299719 255 220 0
0.403109 0.057229 0.230313 255 220 0
0.452146 0.163048 0.273221 255 220 0
0.451058 0.126498 0.224076 255 220 0
0.459893 0.095607 0.231263 255 220 0
0.430469 0.108056 0.303992 255 220 0
0.392576 0.158791 0.295234 255 220 0
0.423165 0.077762 0.195939 255 220 0
0.436640 0.051957 0.186719 255 220 0
0.443858 0.045419 0.197130 255 220 0
0.394867 0.165484 0.293776 255 220 0
0.439496 0.044248 0.190570 255 220 0
0.464585 0.126785 0.260163 255 220 0
0.407662 0.100667 0.216597 255 220 0
0.398939 0.084016 0.230188 255 220 0
0.410000 0.148835 0.230795 255 220 0
0.447656 0.163716 0.289495 255 220 0
0.442624 0.083362 0.202530 255 220 0
0.464707 0.116988 0.268303 255 220 0
0.386625 0.116176 0.266001 255 220 0
0.430083 0.165322 0.237118 255 220 0
0.418606 0.135474 0.310548 255 220 0
0.449557 0.093622 0.287025 255 220 0
0.450755 0.079032 0.209605 255 220 0
0.403172 0.171338 0.300092 255 220 0
0.443981 0.081701 0.284194 255 220 0
0.423467 0.164154 0.235798 255 220 0
0.432535 0.031001 0.231195 255 220 0
0.455621 0.119817 0.290357 255 220 0
0.452974 0.148881 0.241878 255 220 0
0.426522 0.051351 0.183024 255 220 0
0.406107 0.062164 0.213041 255 220 0
0.410887 0.100826 0.300510 255 220 0
0.398204 0.091178 0.286019 255 220 0
0.397407 0.119576 0.234258 255 220 0
0.418373 0.177844 0.302011 255 220 0
0.457628 0.090779 0.274755 255 220 0
0.430778 0.075716 0.194308 255 220 0
0.432507 0.094172 0.297863 255 220 0
0.419638 0.131572 0.217056 255 220 0
0.385482 0.135114 0.280299 255 220 0
0.413528 0.167151 0.307866 255 220 0
0.432202 0.035567 0.241879 255 220 0
0.461694 0.088630 0.237269 255 220 0
0.399787 0.173022 0.293429 255 220 0
0.406122 0.077166 0.213746 255 220 0
0.385803 0.139624 0.282961 255 220 0
0.459425 0.091595 0.271873 255 220 0
0.420516 0.171717 0.306429 255 220 0
0.437682 0.032504 0.225342 255 220 0
0.463891 0.117918 0.248791 255 220 0
0.400858 0.111518 0.227562 255 220 0
0.443412 0.168263 0.292801 255 220 0
0.459793 0.072475 0.238298 255 220 0
0.459913 0.103535 0.278736 255 220 0
0.388377 0.130397 0.289164 255 220 0
0.410438 0.043755 0.238625 255 220 0
0.458618 0.092977 0.274586 255 220 0
0.452827 0.158271 0.255285 255 220 0
0.414860 0.035641 0.197485 255 220 0
0.453259 0.152358 0.246525 255 220 0
0.464490 0.127970 0.261009 255 220 0
0.447943 0.086247 0.283890 255 220 0
0.438142 0.037035 0.238538 255 220 0
0.456199 0.146979 0.246630 255 220 0
0.403874 0.055397 0.228573 255 220 0
0.452472 0.106503 0.219368 255 220 0
0.411862 0.180731 0.262879 255 220 0
0.420350 0.040379 0.186248 255 220 0
0.432923 0.085071 0.292743 255 220 0
0.459886 0.076473 0.254206 255 220 0
0.406271 0.173832 0.256080 255 220 0
0.394411 0.130986 0.298785 255 220 0
0.436103 0.179582 0.288836 255 220 0
0.402624 0.056433 0.241095 255 220 0
0.408537 0.058791 0.205478 255 220 0
0.415361 0.083069 0.203158 255 220 0
0.439451 0.094294 0.294957 255 220 0
0.450447 0.071021 0.269752 255 220 0
0.391181 0.163873 0.271080 255 220 0
0.402144 0.171744 0.258484 255 220 0
0.404769 0.059059 0.260925 255 220 0
0.404984 0.116301 0.303493 255 220 0
0.459472 0.075516 0.254697 255 220 0
0.446712 0.123561 0.218585 255 220 0
0.415264 0.143556 0.311138 255 220 0
0.452170 0.162541 0.276265 255 220 0
0.431255 0.183660 0.281474 255 220 0
0.402417 0.069659 0.272523 255 220 0
0.447571 0.152024 0.297685 255 220 0
0.400820 0.075678 0.276517 255 220 0
0.421928 0.099771 0.301976 255 220 0
0.412557 0.184146 0.273570 255 220 0
0.453872 0.056783 0.243008 255 220 0
0.431486 0.083171 0.198011 255 220 0
0.387256 0.112870 0.262072 255 220 0
0.442575 0.075211 0.280590 255 220 0
0.462096 0.092780 0.238417 255 220 0
0.395811 0.074232 0.251069 255 220 0
0.448232 0.048832 0.204906 255 220 0
0.389589 0.161604 0.273595 255 220 0
0.439972 0.097601 0.296344 255 220 0
0.436512 0.080000 0.197834 255 220 0
0.443426 0.174285 0.267995 255 220 0
0.440581 0.074912 0.281780 255 220 0
0.454113 0.157845 0.278708 255 220 0
0.413311 0.185035 0.277624 255 220 0
0.425131 0.028341 0.202194 255 220 0
0.388039 0.151422 0.264451 255 220 0
0.404098 0.165644 0.304534 255 220 0
0.401090 0.090811 0.289425 255 220 0
0.455323 0.063268 0.219692 255 220 0
0.405330 0.128450 0.306082 255 220 0
0.453782 0.054715 0.221465 255 220 0
0.405572 0.070209 0.214059 255 220 0
0.416545 0.053430 0.187724 255 220 0
0.418650 0.030756 0.217534 255 220 0
0.391296 0.091140 0.260057 255 220 0
0.452162 0.112904 0.220674 255 220 0
0.408980 0.053033 0.259160 255 220 0
0.429189 0.095319 0.299295 255 220 0
0.407070 0.128764 0.224567 255 220 0
0.440504 0.044983 0.191634 255 220 0
0.450826 0.136921 0.297460 255 220 0
0.433955 0.081869 0.290332 255 220 0
0.459493 0.140949 0.280451 255 220 0
