ply
format ascii 1.0
element vertex 1024
property float x
property float y
property float z
property uchar red
property uchar green
property uchar blue
end_header
0.267756 0.226755 0.282010 255 220 0
0.222964 0.172127 0.222688 255 220 0
0.248801 0.104324 0.190289 255 220 0
0.233684 0.124590 0.260194 255 220 0
0.294670 0.197608 0.233787 255 220 0
0.229369 0.161098 0.266718 255 220 0
0.290304 0.189619 0.223932 255 220 0
0.227032 0.175581 0.213346 255 220 0
0.283729 0.192442 0.219466 255 220 0
0.217413 0.127021 0.182089 255 220 0
0.236033 0.184597 0.278131 255 220 0
0.269667 0.111210 0.254244 255 220 0
0.229178 0.185051 0.260712 255 220 0
0.258778 0.169008 0.294077 255 220 0
0.246106 0.101646 0.250841 255 220 0
0.203572 0.115550 0.195883 255 220 0
0.274047 0.223343 0.240427 255 220 0
0.257264 0.223673 0.277396 255 220 0
0.227213 0.185879 0.229663 255 220 0
0.222995 0.147594 0.195417 255 220 0
0.252496 0.217461 0.233107 255 220 0
0.290707 0.190728 0.292450 255 220 0
0.274665 0.116222 0.255162 255 220 0
0.268981 0.218907 0.291379 255 220 0
0.229105 0.098301 0.179500 255 220 0
0.271535 0.159775 0.202980 255 220 0
0.263862 0.228128 0.275491 255 220 0
0.281022 0.229163 0.276451 255 220 0
0.239626 0.193271 0.213925 255 220 0
0.292689 0.199416 0.291314 255 220 0
0.261734 0.198454 0.298229 255 220 0
0.227695 0.158867 0.263144 255 220 0
0.231344 0.100782 0.239425 255 220 0
0.219645 0.120844 0.177719 255 220 0
0.271764 0.137515 0.202235 255 220 0
0.222525 0.170679 0.240949 255 220 0
0.297093 0.179159 0.229322 255 220 0
0.264638 0.217115 0.291094 255 220 0
0.248985 0.166080 0.196113 255 220 0
0.242655 0.120668 0.265587 255 220 0
0.289850 0.153078 0.218964 255 220 0
0.300916 0.155136 0.252591 255 220 0
0.243181 0.213989 0.268720 255 220 0
0.282892 0.153353 0.284440 255 220 0
0.281290 0.201659 0.297931 255 220 0
0.213148 0.130486 0.221139 255 220 0
0.233251 0.187568 0.215344 255 220 0
0.234892 0.197366 0.269748 255 220 0
0.278622 0.228545 0.280151 255 220 0
0.300870 0.190799 0.278795 255 220 0
0.228489 0.186979 0.225733 255 220 0
0.252059 0.223417 0.267545 255 220 0
0.215894 0.144069 0.225562 255 220 0
0.207791 0.125629 0.200444 255 220 0
0.208723 0.111566 0.210767 255 220 0
0.201681 0.106980 0.196249 255 220 0
0.280620 0.217484 0.292785 255 220 0
0.230729 0.102854 0.178606 255 220 0
0.210070 0.129487 0.207501 255 220 0
0.246993 0.139303 0.187923 255 220 0
0.296962 0.207393 0.284737 255 220 0
0.228668 0.187138 0.225342 255 220 0
0.267493 0.107035 0.248465 255 220 0
0.286406 0.129709 0.226341 255 220 0
0.224519 0.151992 0.197347 255 220 0
0.256152 0.185187 0.204088 255 220 0
0.242726 0.113506 0.183198 255 220 0
0.242440 0.210828 0.233811 255 220 0
0.296617 0.187997 0.285561 255 220 0
0.273282 0.214776 0.294936 255 220 0
0.286516 0.138039 0.219248 255 220 0
0.285823 0.128108 0.253840 255 220 0
0.242380 0.193027 0.285699 255 220 0
0.293209 0.181194 0.287674 255 220 0
0.207348 0.105675 0.207619 255 220 0
0.255158 0.146168 0.192384 255 220 0
0.289331 0.166999 0.285936 255 220 0
0.212099 0.124423 0.219092 255 220 0
0.237533 0.150286 0.274880 255 220 0
0.263428 0.117832 0.198634 255 220 0
0.243801 0.183164 0.204127 255 220 0
0.219083 0.155991 0.212047 255 220 0
0.279647 0.226338 0.249285 255 220 0
0.272219 0.211896 0.226110 255 220 0
0.203906 0.116692 0.195563 255 220 0
0.224731 0.179892 0.241639 255 220 0
0.236771 0.147965 0.273293 255 220 0
0.255741 0.177592 0.295186 255 220 0
0.234080 0.185630 0.212232 255 220 0
0.250261 0.093273 0.203719 255 220 0
0.301102 0.156300 0.254931 255 220 0
0.222826 0.173218 0.237590 255 220 0
0.298808 0.167083 0.273861 255 220 0
0.288043 0.208882 0.293315 255 220 0
0.236965 0.101168 0.182607 255 220 0
0.282988 0.127711 0.260342 255 220 0
0.247365 0.115421 0.264865 255 220 0
0.295854 0.206737 0.244159 255 220 0
0.305494 0.186457 0.260589 255 220 0
0.259466 0.203377 0.215757 255 220 0
0.212753 0.104912 0.217192 255 220 0
0.220679 0.152861 0.243817 255 220 0
0.273293 0.157950 0.290822 255 220 0
0.243365 0.176362 0.286916 255 220 0
0.288073 0.218195 0.245909 255 220 0
0.268123 0.162624 0.201395 255 220 0
0.256669 0.217522 0.285530 255 220 0
0.215984 0.128439 0.183953 255 220 0
0.302281 0.200369 0.255194 255 220 0
0.215527 0.092161 0.211999 255 220 0
0.292529 0.170023 0.221788 255 220 0
0.233053 0.158741 0.272055 255 220 0
0.213038 0.132922 0.219444 255 220 0
0.279362 0.220042 0.239325 255 220 0
0.268156 0.190782 0.299763 255 220 0
0.268419 0.155663 0.290821 255 220 0
0.289716 0.201482 0.293687 255 220 0
0.264426 0.225779 0.242975 255 220 0
0.249022 0.221328 0.265389 255 220 0
0.250264 0.214526 0.229868 255 220 0
0.255571 0.180561 0.295723 255 220 0
0.226053 0.162708 0.258498 255 220 0
0.298929 0.149383 0.245770 255 220 0
0.252674 0.095659 0.239894 255 220 0
0.259001 0.102949 0.251345 255 220 0
0.240913 0.148883 0.277663 255 220 0
0.272204 0.161159 0.292170 255 220 0
0.223386 0.169176 0.247884 255 220 0
0.277584 0.115521 0.245271 255 220 0
0.281832 0.200656 0.297864 255 220 0
0.228774 0.083942 0.211971 255 220 0
0.275065 0.131447 0.273943 255 220 0
0.298051 0.189318 0.234826 255 220 0
0.269093 0.105693 0.219541 255 220 0
0.284959 0.123789 0.239649 255 220 0
0.275501 0.178662 0.296692 255 220 0
0.229950 0.166248 0.267997 255 220 0
0.266259 0.192464 0.209952 255 220 0
0.293042 0.215636 0.285896 255 220 0
0.229765 0.119794 0.253351 255 220 0
0.291002 0.147633 0.272384 255 220 0
0.236449 0.145215 0.188467 255 220 0
0.243697 0.215331 0.242217 255 220 0
0.294869 0.206147 0.241731 255 220 0
0.292215 0.135603 0.242049 255 220 0
0.259411 0.116067 0.195330 255 220 0
0.241114 0.171987 0.284108 255 220 0
0.301441 0.204079 0.256558 255 220 0
0.282849 0.151489 0.211167 255 220 0
0.240811 0.175112 0.284261 255 220 0
0.256853 0.107756 0.196572 255 220 0
0.230258 0.194358 0.254223 255 220 0
0.233748 0.147001 0.269653 255 220 0
0.219943 0.161995 0.232558 255 220 0
0.233490 0.100897 0.241558 255 220 0
0.224995 0.152485 0.197259 255 220 0
0.262461 0.148569 0.196338 255 220 0
0.221796 0.118784 0.240792 255 220 0
0.237543 0.133436 0.268147 255 220 0
0.291789 0.153961 0.276260 255 220 0
0.284901 0.198125 0.296760 255 220 0
0.287810 0.227065 0.272508 255 220 0
0.289959 0.162075 0.283123 255 220 0
0.245331 0.210153 0.280034 255 220 0
0.223075 0.103568 0.175388 255 220 0
0.279615 0.229140 0.277834 255 220 0
0.235460 0.090382 0.190459 255 220 0
0.245814 0.099306 0.190734 255 220 0
0.204683 0.101221 0.201908 255 220 0
0.213117 0.100849 0.175361 255 220 0
0.229060 0.179845 0.213955 255 220 0
0.284113 0.226861 0.256873 255 220 0
0.224812 0.176607 0.221709 255 220 0
0.262417 0.219106 0.231958 255 220 0
0.223442 0.162446 0.207216 255 220 0
0.203503 0.097780 0.184662 255 220 0
0.252196 0.176488 0.293303 255 220 0
0.284156 0.128178 0.258681 255 220 0
0.289417 0.217016 0.288524 255 220 0
0.284736 0.221468 0.246292 255 220 0
0.294558 0.141794 0.256079 255 220 0
0.279538 0.195031 0.298741 255 220 0
0.247727 0.103653 0.189675 255 220 0
0.248354 0.115478 0.186556 255 220 0
0.229562 0.192589 0.253519 255 220 0
0.300329 0.159841 0.264518 255 220 0
0.207095 0.096547 0.203861 255 220 0
0.239889 0.092538 0.235025 255 220 0
0.215218 0.108765 0.223438 255 220 0
0.211285 0.118501 0.178626 255 220 0
0.276807 0.169257 0.293571 255 220 0
0.227121 0.187762 0.242155 255 220 0
0.240885 0.123138 0.182638 255 220 0
0.253365 0.103253 0.254125 255 220 0
0.225730 0.179271 0.251100 255 220 0
0.277475 0.136488 0.207760 255 220 0
0.221062 0.113221 0.236687 255 220 0
0.290540 0.136271 0.229703 255 220 0
0.293805 0.192292 0.229310 255 220 0
0.286154 0.199429 0.296076 255 220 0
0.240761 0.156411 0.192945 255 220 0
0.255968 0.179315 0.201407 255 220 0
0.279541 0.126139 0.214963 255 220 0
0.259877 0.108714 0.199407 255 220 0
0.228156 0.190296 0.247133 255 220 0
0.274872 0.229756 0.255466 255 220 0
0.247323 0.203849 0.287504 255 220 0
0.264986 0.196627 0.211958 255 220 0
0.273782 0.127134 0.271149 255 220 0
0.297008 0.148056 0.259541 255 220 0
0.256551 0.197488 0.211476 255 220 0
0.299716 0.197985 0.281354 255 220 0
0.296977 0.176959 0.228662 255 220 0
0.261753 0.226010 0.278314 255 220 0
0.274093 0.193448 0.213826 255 220 0
0.279555 0.222652 0.242927 255 220 0
0.280248 0.160646 0.209129 255 220 0
0.221191 0.133796 0.244162 255 220 0
0.246819 0.120807 0.268366 255 220 0
0.257081 0.153831 0.194644 255 220 0
0.276124 0.167448 0.293215 255 220 0
0.202775 0.113986 0.194536 255 220 0
0.247837 0.088744 0.213421 255 220 0
0.292609 0.163249 0.280857 255 220 0
0.220557 0.104647 0.230254 255 220 0
0.279265 0.219575 0.291688 255 220 0
0.239294 0.139036 0.186108 255 220 0
0.241581 0.093853 0.237815 255 220 0
0.302257 0.159977 0.249791 255 220 0
0.284669 0.228594 0.271334 255 220 0
0.278038 0.163274 0.207738 255 220 0
0.280665 0.139234 0.276406 255 220 0
0.297918 0.149782 0.259050 255 220 0
0.243905 0.145866 0.279081 255 220 0
0.248625 0.143654 0.189465 255 220 0
0.223126 0.174512 0.231009 255 220 0
0.241773 0.176667 0.285429 255 220 0
0.286544 0.185313 0.218875 255 220 0
0.264909 0.229406 0.253542 255 220 0
0.266992 0.137407 0.198471 255 220 0
0.240205 0.115389 0.260216 255 220 0
0.250554 0.136953 0.279362 255 220 0
0.246257 0.113987 0.263165 255 220 0
0.216779 0.120982 0.178202 255 220 0
0.237779 0.178214 0.281063 255 220 0
0.300200 0.198247 0.245826 255 220 0
0.300434 0.210497 0.269694 255 220 0
0.278871 0.217605 0.293105 255 220 0
0.232073 0.181157 0.270252 255 220 0
0.248718 0.106286 0.257159 255 220 0
0.254312 0.219451 0.235430 255 220 0
0.236732 0.089977 0.229325 255 220 0
0.215392 0.120537 0.178289 255 220 0
0.220581 0.112112 0.235220 255 220 0
0.253195 0.224725 0.265133 255 220 0
0.253792 0.162358 0.195665 255 220 0
0.249399 0.219371 0.272757 255 220 0
0.218701 0.084606 0.200392 255 220 0
0.273744 0.139694 0.280704 255 220 0
0.240690 0.125309 0.182884 255 220 0
0.301525 0.170088 0.269774 255 220 0
0.288364 0.164616 0.216690 255 220 0
0.204846 0.119663 0.193395 255 220 0
0.295199 0.196855 0.234093 255 220 0
0.299969 0.157318 0.262760 255 220 0
0.298467 0.171148 0.276633 255 220 0
0.252827 0.224376 0.265688 255 220 0
0.276087 0.111887 0.231194 255 220 0
0.300068 0.190418 0.239800 255 220 0
0.254954 0.143212 0.284157 255 220 0
0.281168 0.217721 0.238007 255 220 0
0.243552 0.096433 0.190987 255 220 0
0.288660 0.191910 0.223351 255 220 0
0.244119 0.087305 0.208547 255 220 0
0.230250 0.125372 0.256964 255 220 0
0.240038 0.129307 0.183474 255 220 0
0.221153 0.148098 0.245656 255 220 0
0.261785 0.099899 0.237512 255 220 0
0.289806 0.136025 0.227794 255 220 0
0.230682 0.185352 0.265161 255 220 0
0.301723 0.170997 0.237629 255 220 0
0.293827 0.160708 0.277928 255 220 0
0.293687 0.142273 0.231536 255 220 0
0.229644 0.185564 0.261941 255 220 0
0.246440 0.090608 0.231074 255 220 0
0.261076 0.136464 0.194417 255 220 0
0.229724 0.190901 0.257479 255 220 0
0.254486 0.120178 0.190374 255 220 0
0.284881 0.145452 0.214188 255 220 0
0.217004 0.143309 0.199252 255 220 0
0.266864 0.105048 0.243731 255 220 0
0.281700 0.221201 0.289651 255 220 0
0.248815 0.100392 0.249900 255 220 0
0.222441 0.092811 0.220988 255 220 0
0.224636 0.144829 0.254873 255 220 0
0.262938 0.144771 0.286075 255 220 0
0.285209 0.177045 0.215483 255 220 0
0.300549 0.210196 0.266407 255 220 0
0.256725 0.094580 0.217683 255 220 0
0.263006 0.205511 0.217704 255 220 0
0.221473 0.090422 0.216737 255 220 0
0.225909 0.183839 0.243267 255 220 0
0.218659 0.134192 0.237386 255 220 0
0.215959 0.132973 0.188287 255 220 0
0.240464 0.182535 0.204969 255 220 0
0.275598 0.160418 0.205689 255 220 0
0.232049 0.193477 0.264085 255 220 0
0.304218 0.171346 0.261216 255 220 0
0.289734 0.165110 0.284751 255 220 0
0.289593 0.208074 0.292532 255 220 0
0.291517 0.143205 0.225269 255 220 0
0.288437 0.130140 0.248873 255 220 0
0.249858 0.192401 0.292829 255 220 0
0.281953 0.128844 0.264078 255 220 0
0.263894 0.168511 0.294813 255 220 0
0.286399 0.221219 0.287141 255 220 0
0.290460 0.178849 0.289466 255 220 0
0.212888 0.107561 0.218444 255 220 0
0.267692 0.230044 0.272053 255 220 0
0.248807 0.128435 0.274018 255 220 0
0.250440 0.211972 0.226018 255 220 0
0.250088 0.219311 0.239742 255 220 0
0.255113 0.167877 0.197402 255 220 0
0.300083 0.152556 0.251849 255 220 0
0.258253 0.109474 0.261328 255 220 0
0.250268 0.137012 0.188698 255 220 0
0.287856 0.159719 0.216027 255 220 0
0.305158 0.190308 0.262419 255 220 0
0.229744 0.137853 0.261635 255 220 0
0.272596 0.181576 0.208176 255 220 0
0.288191 0.208018 0.293475 255 220 0
0.302239 0.202997 0.258868 255 220 0
0.281397 0.182341 0.213937 255 220 0
0.234932 0.110107 0.179362 255 220 0
0.271933 0.121361 0.266858 255 220 0
0.228531 0.191175 0.248310 255 220 0
0.226557 0.095826 0.229054 255 220 0
0.232123 0.187515 0.268130 255 220 0
0.204013 0.113716 0.182602 255 220 0
0.220985 0.104597 0.230839 255 220 0
0.215394 0.128215 0.228167 255 220 0
0.296831 0.200932 0.240226 255 220 0
0.267388 0.230543 0.265733 255 220 0
0.212494 0.119374 0.178617 255 220 0
0.275812 0.172033 0.207655 255 220 0
0.240105 0.098792 0.244159 255 220 0
0.205815 0.109317 0.204762 255 220 0
0.248649 0.177490 0.200323 255 220 0
0.268699 0.158683 0.201144 255 220 0
0.269847 0.190244 0.299742 255 220 0
0.302745 0.173075 0.240396 255 220 0
0.270640 0.217793 0.231768 255 220 0
0.301289 0.174934 0.236385 255 220 0
0.299510 0.205560 0.251474 255 220 0
0.225304 0.165052 0.255948 255 220 0
0.234683 0.203613 0.239548 255 220 0
0.226961 0.186954 0.236652 255 220 0
0.212624 0.122521 0.220687 255 220 0
0.245036 0.157958 0.284203 255 220 0
0.293040 0.169933 0.222410 255 220 0
0.273354 0.114099 0.214696 255 220 0
0.211751 0.117537 0.218199 255 220 0
0.237481 0.209581 0.252811 255 220 0
0.274720 0.181676 0.297643 255 220 0
0.243130 0.216695 0.253902 255 220 0
0.275538 0.161701 0.205793 255 220 0
0.239698 0.174470 0.282987 255 220 0
0.274206 0.230431 0.274100 255 220 0
0.234890 0.088759 0.226239 255 220 0
0.249157 0.145918 0.190176 255 220 0
0.228023 0.190260 0.241351 255 220 0
0.294009 0.173094 0.223949 255 220 0
0.221020 0.166900 0.230249 255 220 0
0.273931 0.133230 0.204831 255 220 0
0.284847 0.123577 0.238688 255 220 0
0.235166 0.112030 0.253504 255 220 0
0.301049 0.178434 0.275072 255 220 0
0.279100 0.197846 0.298877 255 220 0
0.283739 0.130806 0.263988 255 220 0
0.226729 0.186170 0.235647 255 220 0
0.299450 0.151807 0.242468 255 220 0
0.274081 0.166334 0.205511 255 220 0
0.246075 0.201061 0.287478 255 220 0
0.243759 0.132573 0.272906 255 220 0
0.211786 0.104819 0.215455 255 220 0
0.299342 0.150551 0.251704 255 220 0
0.244351 0.216700 0.264793 255 220 0
0.254660 0.112786 0.192056 255 220 0
0.231175 0.194497 0.230705 255 220 0
0.224975 0.100163 0.232041 255 220 0
0.252422 0.219000 0.278911 255 220 0
0.256564 0.115720 0.192855 255 220 0
0.216914 0.128310 0.232032 255 220 0
0.248599 0.197606 0.212832 255 220 0
0.283006 0.228847 0.264357 255 220 0
0.284508 0.123739 0.231402 255 220 0
0.269705 0.187719 0.209017 255 220 0
0.266216 0.116687 0.202181 255 220 0
0.279739 0.167324 0.209509 255 220 0
0.223657 0.104315 0.175435 255 220 0
0.294478 0.178367 0.285320 255 220 0
0.263599 0.206981 0.218965 255 220 0
0.232753 0.171663 0.273290 255 220 0
0.225453 0.181545 0.230159 255 220 0
0.270717 0.227253 0.246019 255 220 0
0.304204 0.168974 0.256897 255 220 0
0.237737 0.200484 0.274626 255 220 0
0.245533 0.181482 0.202730 255 220 0
0.295518 0.158577 0.226704 255 220 0
0.301365 0.205901 0.259382 255 220 0
0.240734 0.118731 0.262908 255 220 0
0.263911 0.212893 0.293676 255 220 0
0.300189 0.161363 0.266496 255 220 0
0.231063 0.091344 0.227592 255 220 0
0.259613 0.221112 0.283898 255 220 0
0.295778 0.169314 0.279863 255 220 0
0.246414 0.154204 0.284099 255 220 0
0.261215 0.136263 0.281266 255 220 0
0.204091 0.110335 0.201049 255 220 0
0.255826 0.185079 0.296484 255 220 0
0.267608 0.196702 0.212800 255 220 0
0.215118 0.130553 0.227465 255 220 0
0.240083 0.135743 0.271450 255 220 0
0.246758 0.180966 0.290342 255 220 0
0.250985 0.090572 0.220404 255 220 0
0.243969 0.149379 0.190234 255 220 0
0.255023 0.125788 0.190390 255 220 0
0.245231 0.145947 0.280162 255 220 0
0.239280 0.152130 0.191295 255 220 0
0.262382 0.117716 0.197623 255 220 0
0.235590 0.190279 0.215062 255 220 0
0.265744 0.123428 0.199143 255 220 0
0.274494 0.191432 0.299513 255 220 0
0.211439 0.088992 0.199757 255 220 0
0.261145 0.172023 0.295369 255 220 0
0.283996 0.161100 0.212261 255 220 0
0.256223 0.094438 0.215405 255 220 0
0.281922 0.132925 0.269282 255 220 0
0.209000 0.113398 0.211419 255 220 0
0.260121 0.103307 0.204511 255 220 0
0.230483 0.195792 0.238729 255 220 0
0.201334 0.100112 0.189394 255 220 0
0.253132 0.092637 0.227253 255 220 0
0.280754 0.215931 0.235668 255 220 0
0.289061 0.136292 0.262194 255 220 0
0.219940 0.159891 0.214950 255 220 0
0.224580 0.104258 0.235447 255 220 0
0.231073 0.156663 0.268863 255 220 0
0.230870 0.093168 0.229947 255 220 0
0.255998 0.095382 0.233185 255 220 0
0.292315 0.146719 0.224845 255 220 0
0.248376 0.220595 0.265993 255 220 0
0.242276 0.105997 0.253732 255 220 0
0.231611 0.184450 0.214512 255 220 0
0.210853 0.125052 0.184918 255 220 0
0.235442 0.190466 0.275194 255 220 0
0.279887 0.164105 0.209189 255 220 0
0.271057 0.154915 0.290131 255 220 0
0.218695 0.118324 0.234196 255 220 0
0.233781 0.135902 0.184483 255 220 0
0.264836 0.155789 0.291051 255 220 0
0.249426 0.160549 0.194441 255 220 0
0.203039 0.113359 0.196576 255 220 0
0.267446 0.103259 0.230116 255 220 0
0.289834 0.199825 0.229294 255 220 0
0.229739 0.116123 0.251045 255 220 0
0.244020 0.213742 0.237019 255 220 0
0.294982 0.182929 0.227280 255 220 0
0.228257 0.189385 0.232988 255 220 0
0.299530 0.176966 0.277392 255 220 0
0.255715 0.136948 0.281162 255 220 0
0.273548 0.223222 0.240017 255 220 0
0.279147 0.117599 0.246445 255 220 0
0.286881 0.126803 0.237156 255 220 0
0.249482 0.205027 0.288985 255 220 0
0.231784 0.083847 0.213809 255 220 0
0.241461 0.214769 0.255441 255 220 0
0.260315 0.122560 0.194532 255 220 0
0.228656 0.136266 0.184957 255 220 0
0.286753 0.157530 0.214874 255 220 0
0.217532 0.151712 0.212449 255 220 0
0.244833 0.103162 0.187432 255 220 0
0.296411 0.217226 0.261879 255 220 0
0.251867 0.205727 0.290648 255 220 0
0.291586 0.193264 0.227020 255 220 0
0.296584 0.217762 0.264412 255 220 0
0.291242 0.136692 0.231458 255 220 0
0.229781 0.194573 0.248620 255 220 0
0.277674 0.144994 0.282564 255 220 0
0.246047 0.114381 0.185164 255 220 0
0.259840 0.097270 0.229406 255 220 0
0.248486 0.106781 0.188813 255 220 0
0.294014 0.181737 0.225639 255 220 0
0.224306 0.142123 0.253606 255 220 0
0.271203 0.148258 0.201759 255 220 0
0.218339 0.130589 0.236019 255 220 0
0.248486 0.093968 0.199732 255 220 0
0.284632 0.155526 0.284352 255 220 0
0.270595 0.108255 0.244056 255 220 0
0.299071 0.195907 0.282690 255 220 0
0.218882 0.150078 0.204069 255 220 0
0.279303 0.142872 0.208510 255 220 0
0.243104 0.195496 0.213498 255 220 0
0.296505 0.149212 0.263065 255 220 0
0.233798 0.095783 0.235779 255 220 0
0.233871 0.178216 0.275022 255 220 0
0.243028 0.215053 0.243358 255 220 0
0.272483 0.167854 0.294177 255 220 0
0.220124 0.140814 0.192164 255 220 0
0.202057 0.098409 0.189405 255 220 0
0.226611 0.152952 0.260387 255 220 0
0.215023 0.142511 0.220733 255 220 0
0.287565 0.172749 0.289564 255 220 0
0.226578 0.156982 0.260513 255 220 0
0.280282 0.117094 0.232397 255 220 0
0.255182 0.186781 0.296305 255 220 0
0.245013 0.144182 0.188711 255 220 0
0.208759 0.108397 0.210593 255 220 0
0.267052 0.229780 0.253952 255 220 0
0.225065 0.169357 0.254224 255 220 0
0.206974 0.096486 0.203581 255 220 0
0.220319 0.162614 0.235609 255 220 0
0.292614 0.185523 0.289581 255 220 0
0.220431 0.084510 0.203550 255 220 0
0.293585 0.217561 0.254308 255 220 0
0.217756 0.127514 0.182322 255 220 0
0.294819 0.143331 0.258596 255 220 0
0.252741 0.197793 0.294012 255 220 0
0.268682 0.227376 0.246003 255 220 0
0.214229 0.141467 0.213795 255 220 0
0.244495 0.163783 0.195398 255 220 0
0.301678 0.194644 0.276967 255 220 0
0.214939 0.099248 0.175778 255 220 0
0.253326 0.107039 0.258894 255 220 0
0.281756 0.220734 0.242177 255 220 0
0.252592 0.224775 0.260064 255 220 0
0.283624 0.185727 0.216649 255 220 0
0.298093 0.215994 0.268457 255 220 0
0.274814 0.229244 0.279145 255 220 0
0.272292 0.143841 0.202430 255 220 0
0.216269 0.140403 0.229802 255 220 0
0.228061 0.169023 0.262910 255 220 0
0.219139 0.149683 0.202941 255 220 0
0.250024 0.189688 0.206798 255 220 0
0.302838 0.181455 0.272076 255 220 0
0.286905 0.162576 0.285999 255 220 0
0.217143 0.151730 0.219199 255 220 0
0.280823 0.224021 0.246134 255 220 0
0.224173 0.155114 0.254140 255 220 0
0.210734 0.131050 0.194215 255 220 0
0.227233 0.082682 0.201048 255 220 0
0.210790 0.132081 0.207175 255 220 0
0.208449 0.114042 0.177719 255 220 0
0.234675 0.175181 0.203599 255 220 0
0.288744 0.197353 0.226451 255 220 0
0.279664 0.210420 0.296280 255 220 0
0.302547 0.175733 0.270373 255 220 0
0.209627 0.116858 0.178545 255 220 0
0.231124 0.195471 0.233370 255 220 0
0.225759 0.183555 0.237511 255 220 0
0.273913 0.117212 0.258438 255 220 0
0.214174 0.139091 0.199775 255 220 0
0.286479 0.194497 0.295839 255 220 0
0.262380 0.114395 0.199012 255 220 0
0.271877 0.114167 0.256307 255 220 0
0.275756 0.120241 0.213080 255 220 0
0.227086 0.114350 0.176570 255 220 0
0.219648 0.145226 0.197071 255 220 0
0.219128 0.155672 0.235702 255 220 0
0.231921 0.182654 0.212182 255 220 0
0.264807 0.219069 0.289538 255 220 0
0.234234 0.086660 0.195842 255 220 0
0.211174 0.118724 0.216825 255 220 0
0.262317 0.132326 0.278935 255 220 0
0.236715 0.085731 0.200880 255 220 0
0.245174 0.218347 0.261208 255 220 0
0.220337 0.162540 0.218304 255 220 0
0.255779 0.220678 0.280671 255 220 0
0.299790 0.155031 0.239229 255 220 0
0.293479 0.183864 0.288228 255 220 0
0.268354 0.229797 0.274263 255 220 0
0.291921 0.193571 0.227570 255 220 0
0.227721 0.165944 0.262615 255 220 0
0.260729 0.206324 0.218115 255 220 0
0.299388 0.173811 0.276278 255 220 0
0.268111 0.228746 0.277909 255 220 0
0.276662 0.203378 0.221364 255 220 0
0.216406 0.142713 0.199752 255 220 0
0.287886 0.226838 0.267118 255 220 0
0.247081 0.127314 0.185909 255 220 0
0.234511 0.084098 0.202936 255 220 0
0.237923 0.203353 0.272088 255 220 0
0.224633 0.085590 0.190609 255 220 0
0.263705 0.207502 0.296308 255 220 0
0.246078 0.109284 0.259032 255 220 0
0.249830 0.207610 0.221349 255 220 0
0.299609 0.212387 0.271900 255 220 0
0.274267 0.123892 0.267481 255 220 0
0.235297 0.143074 0.187578 255 220 0
0.204980 0.115534 0.200918 255 220 0
0.300886 0.170467 0.271534 255 220 0
0.282339 0.137626 0.213224 255 220 0
0.281588 0.201739 0.223472 255 220 0
0.260726 0.097513 0.221718 255 220 0
0.284103 0.138428 0.215364 255 220 0
0.214805 0.141879 0.219929 255 220 0
0.273033 0.167434 0.293954 255 220 0
0.269280 0.134966 0.200363 255 220 0
0.264771 0.161785 0.292969 255 220 0
0.293573 0.152258 0.272416 255 220 0
0.299372 0.152358 0.257250 255 220 0
0.224139 0.164501 0.252595 255 220 0
0.258783 0.223161 0.280168 255 220 0
0.288340 0.185647 0.293114 255 220 0
0.277645 0.122441 0.214523 255 220 0
0.283728 0.123894 0.227183 255 220 0
0.203080 0.101059 0.182407 255 220 0
0.237241 0.111628 0.255015 255 220 0
0.247975 0.196572 0.290661 255 220 0
0.236837 0.200087 0.225550 255 220 0
0.258073 0.149011 0.194178 255 220 0
0.204516 0.112146 0.201419 255 220 0
0.293955 0.138688 0.243298 255 220 0
0.271149 0.154376 0.202148 255 220 0
0.208190 0.119702 0.208304 255 220 0
0.264125 0.105511 0.250848 255 220 0
0.229652 0.193903 0.250283 255 220 0
0.279931 0.226724 0.250469 255 220 0
0.265791 0.105963 0.249092 255 220 0
0.298981 0.210936 0.277939 255 220 0
0.289552 0.132560 0.232917 255 220 0
0.289476 0.220303 0.285571 255 220 0
0.258305 0.113606 0.265728 255 220 0
0.241334 0.093284 0.192172 255 220 0
0.232506 0.169228 0.201578 255 220 0
0.255131 0.209497 0.291000 255 220 0
0.234203 0.120806 0.179839 255 220 0
0.241445 0.159254 0.193997 255 220 0
0.240989 0.188383 0.284752 255 220 0
0.221263 0.157439 0.206763 255 220 0
0.274723 0.230796 0.268828 255 220 0
0.289065 0.215437 0.243689 255 220 0
0.221125 0.134325 0.244095 255 220 0
0.280870 0.120387 0.249065 255 220 0
0.288826 0.167391 0.217363 255 220 0
0.228585 0.111994 0.246775 255 220 0
0.267472 0.103162 0.227116 255 220 0
0.225940 0.177520 0.218736 255 220 0
0.258960 0.179885 0.202173 255 220 0
0.285415 0.201006 0.296329 255 220 0
0.297248 0.145264 0.248029 255 220 0
0.252925 0.129546 0.189175 255 220 0
0.211185 0.107843 0.174732 255 220 0
0.220731 0.118320 0.238506 255 220 0
0.207246 0.111463 0.207557 255 220 0
0.280381 0.221888 0.242537 255 220 0
0.304377 0.195654 0.264368 255 220 0
0.291956 0.191405 0.291478 255 220 0
0.276983 0.194301 0.215878 255 220 0
0.241209 0.199304 0.218642 255 220 0
0.258706 0.096093 0.218301 255 220 0
0.214207 0.141606 0.209493 255 220 0
0.290089 0.135492 0.229395 255 220 0
0.274365 0.118774 0.211981 255 220 0
0.238651 0.085672 0.203716 255 220 0
0.305435 0.182611 0.254131 255 220 0
0.262255 0.120570 0.271264 255 220 0
0.268470 0.166262 0.294211 255 220 0
0.238923 0.207744 0.235138 255 220 0
0.299103 0.168712 0.274239 255 220 0
0.264742 0.141760 0.197048 255 220 0
0.261145 0.223115 0.238708 255 220 0
0.207588 0.092483 0.199284 255 220 0
0.272984 0.219053 0.234251 255 220 0
0.303187 0.169427 0.264150 255 220 0
0.210490 0.098488 0.210624 255 220 0
0.299219 0.205645 0.250701 255 220 0
0.282271 0.188178 0.216548 255 220 0
0.265584 0.217262 0.229685 255 220 0
0.281414 0.155321 0.286377 255 220 0
0.294201 0.140270 0.237478 255 220 0
0.304495 0.180401 0.266481 255 220 0
0.203909 0.105144 0.179827 255 220 0
0.268104 0.139664 0.282440 255 220 0
0.296453 0.166483 0.227272 255 220 0
0.267079 0.151258 0.289145 255 220 0
0.303400 0.196806 0.256046 255 220 0
0.282486 0.163706 0.289339 255 220 0
0.255822 0.093808 0.220010 255 220 0
0.248946 0.209325 0.285712 255 220 0
0.239598 0.198366 0.279892 255 220 0
0.252190 0.141811 0.282488 255 220 0
0.229104 0.173463 0.207812 255 220 0
0.276649 0.213435 0.230125 255 220 0
0.293470 0.172679 0.223214 255 220 0
0.287679 0.169287 0.216415 255 220 0
0.273029 0.112267 0.249555 255 220 0
0.251205 0.110702 0.189700 255 220 0
0.246713 0.126286 0.185630 255 220 0
0.281257 0.148199 0.209852 255 220 0
0.222732 0.173190 0.231411 255 220 0
0.242213 0.161555 0.282833 255 220 0
0.227639 0.158635 0.263015 255 220 0
0.228162 0.095625 0.230495 255 220 0
0.228973 0.169405 0.265289 255 220 0
0.251588 0.201688 0.215302 255 220 0
0.271912 0.107989 0.236923 255 220 0
0.250903 0.117889 0.188037 255 220 0
0.294343 0.213002 0.286008 255 220 0
0.230470 0.154766 0.267561 255 220 0
0.260199 0.198258 0.212148 255 220 0
0.242852 0.135334 0.185734 255 220 0
0.271805 0.107931 0.237250 255 220 0
0.218099 0.155462 0.222490 255 220 0
0.244916 0.119250 0.266199 255 220 0
0.222837 0.099697 0.176426 255 220 0
0.264427 0.200284 0.298658 255 220 0
0.285640 0.134806 0.266439 255 220 0
0.267635 0.161571 0.292876 255 220 0
0.259663 0.179379 0.202144 255 220 0
0.264371 0.212025 0.223562 255 220 0
0.238900 0.096070 0.187118 255 220 0
0.217187 0.085133 0.199263 255 220 0
0.216448 0.094242 0.178980 255 220 0
0.296683 0.144284 0.250168 255 220 0
0.302953 0.181330 0.242420 255 220 0
0.247177 0.205980 0.286125 255 220 0
0.304518 0.172670 0.248831 255 220 0
0.218488 0.096925 0.176938 255 220 0
0.243956 0.179469 0.287814 255 220 0
0.227799 0.188059 0.232101 255 220 0
0.269030 0.131742 0.200509 255 220 0
0.211006 0.122871 0.182431 255 220 0
0.305431 0.187505 0.260863 255 220 0
0.244117 0.154426 0.282386 255 220 0
0.219298 0.106274 0.174182 255 220 0
0.200968 0.107998 0.186414 255 220 0
0.224568 0.089014 0.218061 255 220 0
0.203441 0.106043 0.200318 255 220 0
0.301238 0.187611 0.241059 255 220 0
0.252244 0.100941 0.196303 255 220 0
0.288230 0.133069 0.227089 255 220 0
0.209668 0.114029 0.176954 255 220 0
0.230189 0.134996 0.184145 255 220 0
0.255235 0.210061 0.290719 255 220 0
0.301091 0.178606 0.275053 255 220 0
0.254933 0.143300 0.191787 255 220 0
0.277677 0.114204 0.227776 255 220 0
0.235838 0.194698 0.219753 255 220 0
0.278799 0.152644 0.286454 255 220 0
0.215851 0.139776 0.228276 255 220 0
0.287143 0.166704 0.215622 255 220 0
0.270926 0.212557 0.226145 255 220 0
0.290659 0.217621 0.286936 255 220 0
0.270242 0.117278 0.206963 255 220 0
0.285558 0.221257 0.287641 255 220 0
0.240000 0.198089 0.280715 255 220 0
0.271794 0.143842 0.202054 255 220 0
0.235052 0.203721 0.237994 255 220 0
0.294688 0.221113 0.274250 255 220 0
0.278535 0.114819 0.233490 255 220 0
0.247565 0.115498 0.265023 255 220 0
0.260366 0.147566 0.287344 255 220 0
0.239171 0.210829 0.243255 255 220 0
0.219209 0.135985 0.188491 255 220 0
0.228023 0.184473 0.256860 255 220 0
0.215997 0.143479 0.202238 255 220 0
0.269278 0.156034 0.201149 255 220 0
0.285536 0.212219 0.293515 255 220 0
0.245974 0.219463 0.258432 255 220 0
0.262068 0.189067 0.207001 255 220 0
0.267518 0.223333 0.238504 255 220 0
0.219820 0.161334 0.219652 255 220 0
0.294419 0.175226 0.284167 255 220 0
0.230469 0.136994 0.185097 255 220 0
0.304762 0.182262 0.249675 255 220 0
0.295918 0.150491 0.230469 255 220 0
0.253223 0.168049 0.197116 255 220 0
0.259170 0.141934 0.284340 255 220 0
0.229707 0.125469 0.256364 255 220 0
0.225881 0.143591 0.190339 255 220 0
0.258099 0.227138 0.251998 255 220 0
0.207345 0.104431 0.207426 255 220 0
0.226600 0.128811 0.181324 255 220 0
0.217257 0.115342 0.230074 255 220 0
0.229863 0.129820 0.258577 255 220 0
0.281864 0.142721 0.278269 255 220 0
0.252696 0.150141 0.286343 255 220 0
0.243051 0.135548 0.273799 255 220 0
0.276667 0.229368 0.255401 255 220 0
0.281961 0.121688 0.249077 255 220 0
0.246365 0.136490 0.276677 255 220 0
0.214627 0.095755 0.178027 255 220 0
0.234681 0.165887 0.275607 255 220 0
0.296126 0.152534 0.229857 255 220 0
0.224304 0.088188 0.216460 255 220 0
0.267950 0.201747 0.299072 255 220 0
0.232553 0.155090 0.270533 255 220 0
0.228376 0.100222 0.178336 255 220 0
0.281228 0.118343 0.236071 255 220 0
0.267709 0.230589 0.265810 255 220 0
0.279685 0.223955 0.287402 255 220 0
0.277165 0.217703 0.235024 255 220 0
0.301052 0.205866 0.274707 255 220 0
0.258621 0.101204 0.204746 255 220 0
0.226638 0.178177 0.255923 255 220 0
0.303372 0.194759 0.271524 255 220 0
0.303032 0.167108 0.262395 255 220 0
0.282803 0.130126 0.217824 255 220 0
0.208250 0.091795 0.186275 255 220 0
0.227589 0.188659 0.246678 255 220 0
0.246927 0.088050 0.215117 255 220 0
0.282369 0.204281 0.226011 255 220 0
0.221001 0.161110 0.241901 255 220 0
0.301500 0.159900 0.242568 255 220 0
0.276429 0.112472 0.235795 255 220 0
0.255238 0.178632 0.201035 255 220 0
0.230068 0.162543 0.268145 255 220 0
0.239622 0.127579 0.267136 255 220 0
0.221542 0.092499 0.219583 255 220 0
0.266324 0.110156 0.257122 255 220 0
0.303593 0.198660 0.260096 255 220 0
0.275940 0.113722 0.245091 255 220 0
0.262558 0.099801 0.233855 255 220 0
0.259980 0.115620 0.267412 255 220 0
0.290197 0.184888 0.222102 255 220 0
0.294809 0.146180 0.230746 255 220 0
0.226771 0.142199 0.189012 255 220 0
0.293349 0.141741 0.231133 255 220 0
0.261701 0.228281 0.251553 255 220 0
0.303643 0.199088 0.266138 255 220 0
0.226457 0.173255 0.212036 255 220 0
0.224166 0.178278 0.234680 255 220 0
0.257216 0.215305 0.288148 255 220 0
0.275938 0.136206 0.206238 255 220 0
0.275590 0.111829 0.225897 255 220 0
0.263002 0.228413 0.273168 255 220 0
0.244457 0.118313 0.265276 255 220 0
0.271487 0.227343 0.282729 255 220 0
0.222489 0.129908 0.246381 255 220 0
0.211824 0.087764 0.193324 255 220 0
0.217224 0.151380 0.214404 255 220 0
0.216911 0.143180 0.199275 255 220 0
0.246442 0.099649 0.248290 255 220 0
0.266749 0.149900 0.198977 255 220 0
0.274479 0.199173 0.217278 255 220 0
0.278942 0.172585 0.209832 255 220 0
0.246907 0.132102 0.274853 255 220 0
0.225089 0.181103 0.233287 255 220 0
0.296060 0.176583 0.282635 255 220 0
0.250096 0.090144 0.214074 255 220 0
0.260817 0.228445 0.268137 255 220 0
0.257972 0.227842 0.260697 255 220 0
0.248497 0.214141 0.280214 255 220 0
0.275610 0.145984 0.205019 255 220 0
0.224739 0.163778 0.254524 255 220 0
0.210794 0.132986 0.201663 255 220 0
0.272881 0.124915 0.206294 255 220 0
0.279385 0.116385 0.228587 255 220 0
0.264590 0.218747 0.231511 255 220 0
0.201846 0.106364 0.183230 255 220 0
0.216230 0.146248 0.225269 255 220 0
0.207105 0.118070 0.205737 255 220 0
0.252751 0.156942 0.193996 255 220 0
0.264592 0.108152 0.255601 255 220 0
0.225261 0.171127 0.212343 255 220 0
0.251714 0.183857 0.294127 255 220 0
0.260427 0.132725 0.279291 255 220 0
0.292285 0.202125 0.234033 255 220 0
0.270197 0.225686 0.284848 255 220 0
0.283858 0.130801 0.263776 255 220 0
0.257701 0.195775 0.297104 255 220 0
0.235920 0.184106 0.278009 255 220 0
0.280177 0.150310 0.208749 255 220 0
0.244834 0.142448 0.278362 255 220 0
0.302268 0.197846 0.274570 255 220 0
0.289364 0.183972 0.220992 255 220 0
0.226112 0.178349 0.253709 255 220 0
0.261234 0.097912 0.221776 255 220 0
0.296779 0.218446 0.271456 255 220 0
0.298429 0.164433 0.272942 255 220 0
0.291243 0.137565 0.230061 255 220 0
0.293217 0.197363 0.290829 255 220 0
0.301399 0.205864 0.259496 255 220 0
0.290538 0.221596 0.255496 255 220 0
0.251914 0.224270 0.260965 255 220 0
0.217448 0.104097 0.174213 255 220 0
0.267103 0.210005 0.222328 255 220 0
0.259241 0.130303 0.193124 255 220 0
0.219645 0.138177 0.240617 255 220 0
0.226619 0.091563 0.223832 255 220 0
0.292295 0.169990 0.284355 255 220 0
0.304063 0.173016 0.263708 255 220 0
0.224452 0.175657 0.247825 255 220 0
0.236415 0.187033 0.278344 255 220 0
0.236437 0.201291 0.228354 255 220 0
0.243631 0.176464 0.200542 255 220 0
0.246287 0.204859 0.285815 255 220 0
0.250391 0.116811 0.187793 255 220 0
0.294388 0.215863 0.253217 255 220 0
0.283211 0.173278 0.292345 255 220 0
0.238000 0.084092 0.213456 255 220 0
0.277329 0.114118 0.240487 255 220 0
0.269456 0.115425 0.261769 255 220 0
0.251007 0.137151 0.189037 255 220 0
0.221961 0.137992 0.246992 255 220 0
0.304927 0.180392 0.264577 255 220 0
0.244696 0.212978 0.274857 255 220 0
0.214118 0.124588 0.181749 255 220 0
0.247723 0.138615 0.188019 255 220 0
0.241011 0.167114 0.197112 255 220 0
0.209884 0.118012 0.213472 255 220 0
0.289239 0.139203 0.223439 255 220 0
0.276014 0.146100 0.205350 255 220 0
0.233055 0.152147 0.270386 255 220 0
0.234071 0.137371 0.266487 255 220 0
0.243914 0.110505 0.258934 255 220 0
0.231643 0.196893 0.257407 255 220 0
0.224290 0.162974 0.206206 255 220 0
0.271146 0.106811 0.233192 255 220 0
0.288680 0.211331 0.238583 255 220 0
0.295480 0.171934 0.281450 255 220 0
0.265205 0.151185 0.198196 255 220 0
0.262008 0.195438 0.298724 255 220 0
0.244679 0.136100 0.275297 255 220 0
0.206501 0.120350 0.185782 255 220 0
0.254802 0.207128 0.292093 255 220 0
0.254691 0.096206 0.205810 255 220 0
0.258485 0.222780 0.239197 255 220 0
0.240655 0.206996 0.274431 255 220 0
0.242343 0.177351 0.286069 255 220 0
0.218969 0.141274 0.238917 255 220 0
0.257574 0.107775 0.259420 255 220 0
0.246953 0.174168 0.289536 255 220 0
0.274298 0.114376 0.251821 255 220 0
0.208853 0.126707 0.205035 255 220 0
0.250141 0.206876 0.288571 255 220 0
0.227274 0.170975 0.260302 255 220 0
0.234584 0.159659 0.195713 255 220 0
0.280267 0.117201 0.237683 255 220 0
0.244319 0.131032 0.272542 255 220 0
0.266496 0.159224 0.292197 255 220 0
0.253550 0.225398 0.256703 255 220 0
0.303700 0.194333 0.270344 255 220 0
0.225805 0.135518 0.254867 255 220 0
0.246697 0.112117 0.185898 255 220 0
0.298916 0.174180 0.231484 255 220 0
0.209416 0.096885 0.208003 255 220 0
0.252886 0.199297 0.293746 255 220 0
0.240075 0.162226 0.195363 255 220 0
0.243320 0.107984 0.184483 255 220 0
0.299406 0.196773 0.242535 255 220 0
0.218607 0.137903 0.190768 255 220 0
0.286256 0.218628 0.289569 255 220 0
0.271811 0.173494 0.205528 255 220 0
0.283292 0.122727 0.247086 255 220 0
0.293757 0.215737 0.251653 255 220 0
0.214184 0.112925 0.174998 255 220 0
0.263156 0.110040 0.202571 255 220 0
0.260143 0.134361 0.193752 255 220 0
0.232586 0.193398 0.224213 255 220 0
0.220677 0.157024 0.242639 255 220 0
0.281418 0.216039 0.293385 255 220 0
0.237012 0.148820 0.273841 255 220 0
0.244119 0.116587 0.183852 255 220 0
0.257983 0.147886 0.287117 255 220 0
0.208218 0.114343 0.178025 255 220 0
0.242663 0.087943 0.203422 255 220 0
0.239761 0.105627 0.251677 255 220 0
0.303561 0.196691 0.269777 255 220 0
0.299165 0.213317 0.272834 255 220 0
0.301863 0.160995 0.259795 255 220 0
0.214726 0.115387 0.175784 255 220 0
0.264262 0.155254 0.290841 255 220 0
0.241441 0.214434 0.258755 255 220 0
0.229907 0.086798 0.219294 255 220 0
0.213619 0.139930 0.207169 255 220 0
0.241956 0.126754 0.183605 255 220 0
0.251053 0.092289 0.231036 255 220 0
0.294556 0.148235 0.266734 255 220 0
0.238687 0.109716 0.181292 255 220 0
0.288186 0.187495 0.221063 255 220 0
0.276927 0.172276 0.294461 255 220 0
0.288923 0.226313 0.273439 255 220 0
0.274401 0.185774 0.210623 255 220 0
0.212762 0.134418 0.216603 255 220 0
0.229424 0.131123 0.182362 255 220 0
0.256114 0.226677 0.263906 255 220 0
0.208582 0.097834 0.207275 255 220 0
0.214563 0.130110 0.225865 255 220 0
0.301978 0.158870 0.253190 255 220 0
0.299617 0.152818 0.241502 255 220 0
0.237142 0.083779 0.211281 255 220 0
0.234832 0.197461 0.225498 255 220 0
0.242962 0.135818 0.273857 255 220 0
0.289381 0.143597 0.270927 255 220 0
0.212198 0.135948 0.201400 255 220 0
0.213989 0.086886 0.198553 255 220 0
0.239999 0.156009 0.279185 255 220 0
0.300071 0.156729 0.238780 255 220 0
0.296840 0.200615 0.239973 255 220 0
0.232257 0.200410 0.246327 255 220 0
0.287279 0.131772 0.226065 255 220 0
0.290232 0.137371 0.261204 255 220 0
0.216876 0.121964 0.178769 255 220 0
0.251303 0.149661 0.285504 255 220 0
0.305256 0.181556 0.263216 255 220 0
0.298148 0.178347 0.230833 255 220 0
0.292298 0.190033 0.226312 255 220 0
0.235884 0.094725 0.235964 255 220 0
0.268508 0.124380 0.201603 255 220 0
0.250698 0.115048 0.266016 255 220 0
0.290156 0.140480 0.266099 255 220 0
0.227101 0.129438 0.254698 255 220 0
0.263992 0.111005 0.202929 255 220 0
0.231582 0.190306 0.265101 255 220 0
0.222695 0.102526 0.231465 255 220 0
0.279870 0.152209 0.285683 255 220 0
0.226669 0.178595 0.218024 255 220 0
0.271226 0.128983 0.203104 255 220 0
0.258656 0.119028 0.193833 255 220 0
0.253224 0.192776 0.295089 255 220 0
0.286132 0.199695 0.225621 255 220 0
0.269660 0.219818 0.233937 255 220 0
