ply
format ascii 1.0
element vertex 1024
property float x
property float y
property float z
property uchar red
property uchar green
property uchar blue
end_header
0.509004 0.200478 0.328757 255 220 0
0.433744 0.165808 0.288215 255 220 0
0.430466 0.119155 0.223973 255 220 0
0.458921 0.109835 0.292012 255 220 0
0.501510 0.195321 0.266978 255 220 0
0.462511 0.140349 0.313226 255 220 0
0.491647 0.190996 0.258976 255 220 0
0.432222 0.173006 0.280365 255 220 0
0.484007 0.194301 0.260337 255 220 0
0.402195 0.138563 0.243764 255 220 0
0.476629 0.158672 0.327077 255 220 0
0.483989 0.104859 0.262753 255 220 0
0.461309 0.164538 0.318049 255 220 0
0.502776 0.141707 0.320504 255 220 0
0.461744 0.093977 0.269457 255 220 0
0.397369 0.120969 0.257203 255 220 0
0.490681 0.213577 0.293077 255 220 0
0.497484 0.197857 0.329888 255 220 0
0.442459 0.176473 0.296350 255 220 0
0.416207 0.153338 0.258509 255 220 0
0.468264 0.207808 0.297178 255 220 0
0.530285 0.166800 0.310140 255 220 0
0.489104 0.109835 0.262622 255 220 0
0.514483 0.189988 0.332044 255 220 0
0.407631 0.114800 0.224423 255 220 0
0.461620 0.168642 0.242226 255 220 0
0.502290 0.203590 0.326567 255 220 0
0.517075 0.206627 0.318282 255 220 0
0.444631 0.190833 0.280683 255 220 0
0.532122 0.175481 0.311542 255 220 0
0.510358 0.167644 0.333265 255 220 0
0.458924 0.139380 0.310630 255 220 0
0.443124 0.095295 0.268718 255 220 0
0.401006 0.134818 0.236923 255 220 0
0.459253 0.148503 0.233011 255 220 0
0.443423 0.157681 0.301482 255 220 0
0.499244 0.180367 0.255256 255 220 0
0.510571 0.187829 0.333524 255 220 0
0.439804 0.173758 0.251884 255 220 0
0.468949 0.105519 0.289607 255 220 0
0.484989 0.159200 0.241517 255 220 0
0.513059 0.150262 0.261257 255 220 0
0.480103 0.190158 0.327433 255 220 0
0.515781 0.134312 0.294130 255 220 0
0.526626 0.173479 0.323565 255 220 0
0.420782 0.126735 0.276470 255 220 0
0.439617 0.184164 0.283041 255 220 0
0.472243 0.173331 0.326363 255 220 0
0.517100 0.204353 0.322111 255 220 0
0.531060 0.173348 0.294446 255 220 0
0.441426 0.179114 0.293150 255 220 0
0.487676 0.200514 0.325314 255 220 0
0.426819 0.137971 0.283466 255 220 0
0.404360 0.129145 0.262150 255 220 0
0.409532 0.112552 0.263924 255 220 0
0.395190 0.112693 0.255225 255 220 0
0.524727 0.189817 0.326172 255 220 0
0.408910 0.119544 0.224615 255 220 0
0.410545 0.130410 0.267630 255 220 0
0.431020 0.151901 0.236616 255 220 0
0.532745 0.185842 0.307369 255 220 0
0.441370 0.179429 0.292822 255 220 0
0.478574 0.102847 0.258045 255 220 0
0.484015 0.134524 0.239930 255 220 0
0.418962 0.156882 0.260795 255 220 0
0.451996 0.189386 0.261218 255 220 0
0.422387 0.129341 0.225546 255 220 0
0.459726 0.200025 0.300665 255 220 0
0.531055 0.167673 0.300733 255 220 0
0.519615 0.185493 0.330751 255 220 0
0.480952 0.144808 0.237788 255 220 0
0.498711 0.122827 0.260086 255 220 0
0.486892 0.164527 0.332463 255 220 0
0.528769 0.160160 0.301562 255 220 0
0.406076 0.108107 0.260077 255 220 0
0.440900 0.157722 0.238095 255 220 0
0.523237 0.147211 0.296950 255 220 0
0.418193 0.121772 0.273198 255 220 0
0.472754 0.128568 0.310680 255 220 0
0.448479 0.130566 0.227350 255 220 0
0.441640 0.185757 0.267234 255 220 0
0.423060 0.154360 0.276239 255 220 0
0.500525 0.213857 0.297747 255 220 0
0.480091 0.208083 0.279040 255 220 0
0.397576 0.122184 0.257220 255 220 0
0.446513 0.166202 0.304320 255 220 0
0.471018 0.126914 0.309028 255 220 0
0.501715 0.148751 0.326284 255 220 0
0.438379 0.183650 0.279530 255 220 0
0.438095 0.104259 0.228924 255 220 0
0.514629 0.150494 0.263343 255 220 0
0.442043 0.161295 0.299792 255 220 0
0.524327 0.153090 0.282812 255 220 0
0.530316 0.182777 0.319204 255 220 0
0.416120 0.117406 0.223530 255 220 0
0.499960 0.119661 0.266322 255 220 0
0.471925 0.101637 0.284480 255 220 0
0.509147 0.200049 0.277545 255 220 0
0.524305 0.176733 0.276710 255 220 0
0.462984 0.202263 0.275057 255 220 0
0.415796 0.104643 0.263945 255 220 0
0.441787 0.139994 0.297794 255 220 0
0.511866 0.134815 0.305895 255 220 0
0.486781 0.148911 0.326438 255 220 0
0.504808 0.208821 0.287500 255 220 0
0.458197 0.171358 0.244008 255 220 0
0.500937 0.189121 0.333905 255 220 0
0.402192 0.138974 0.246476 255 220 0
0.519985 0.191044 0.279791 255 220 0
0.413963 0.095242 0.253674 255 220 0
0.490403 0.174104 0.248648 255 220 0
0.468298 0.136740 0.314275 255 220 0
0.419981 0.129583 0.276204 255 220 0
0.494132 0.211707 0.288081 255 220 0
0.515772 0.160945 0.327948 255 220 0
0.507627 0.132022 0.307687 255 220 0
0.531191 0.176081 0.315726 255 220 0
0.484402 0.213506 0.301174 255 220 0
0.483768 0.198958 0.324572 255 220 0
0.464335 0.205989 0.294866 255 220 0
0.502159 0.151255 0.327914 255 220 0
0.455349 0.144388 0.309545 255 220 0
0.507065 0.147210 0.255066 255 220 0
0.460482 0.093451 0.255422 255 220 0
0.472783 0.096823 0.263270 255 220 0
0.476958 0.126734 0.310362 255 220 0
0.512028 0.137111 0.308725 255 220 0
0.447855 0.153865 0.305592 255 220 0
0.485930 0.113255 0.253398 255 220 0
0.526939 0.172659 0.322833 255 220 0
0.424080 0.089587 0.243248 255 220 0
0.501369 0.116949 0.282209 255 220 0
0.504080 0.187804 0.262721 255 220 0
0.463639 0.112509 0.235142 255 220 0
0.489672 0.123972 0.248350 255 220 0
0.518951 0.151989 0.316994 255 220 0
0.464199 0.144690 0.315834 255 220 0
0.464300 0.195346 0.262835 255 220 0
0.530952 0.192429 0.313538 255 220 0
0.451414 0.107396 0.287229 255 220 0
0.515198 0.134659 0.278530 255 220 0
0.423197 0.155630 0.245061 255 220 0
0.465882 0.201239 0.307954 255 220 0
0.506924 0.200263 0.276052 255 220 0
0.498129 0.134971 0.250691 255 220 0
0.443155 0.129591 0.226415 255 220 0
0.482938 0.145608 0.323904 255 220 0
0.520410 0.193829 0.282688 255 220 0
0.474717 0.159621 0.238943 255 220 0
0.483074 0.148378 0.325382 255 220 0
0.440939 0.121135 0.225553 255 220 0
0.459477 0.175635 0.316200 255 220 0
0.466403 0.126941 0.307606 255 220 0
0.435781 0.152432 0.293325 255 220 0
0.446094 0.094919 0.269173 255 220 0
0.419353 0.157435 0.260658 255 220 0
0.449358 0.159508 0.237958 255 220 0
0.437744 0.109967 0.281865 255 220 0
0.467388 0.115576 0.299206 255 220 0
0.518616 0.139153 0.283408 255 220 0
0.528612 0.171179 0.319361 255 220 0
0.520272 0.207121 0.310828 255 220 0
0.521713 0.143815 0.292626 255 220 0
0.487815 0.182767 0.333200 255 220 0
0.400873 0.120297 0.226686 255 220 0
0.516684 0.205896 0.320072 255 220 0
0.418219 0.104388 0.226058 255 220 0
0.427769 0.113957 0.224015 255 220 0
0.400266 0.105743 0.255581 255 220 0
0.392385 0.116393 0.231077 255 220 0
0.434644 0.176987 0.281342 255 220 0
0.508488 0.212174 0.301146 255 220 0
0.435153 0.170548 0.288193 255 220 0
0.475962 0.211154 0.291521 255 220 0
0.424582 0.162691 0.272734 255 220 0
0.389347 0.108776 0.242081 255 220 0
0.497636 0.147926 0.326401 255 220 0
0.500042 0.120869 0.264627 255 220 0
0.529561 0.192211 0.318007 255 220 0
0.502584 0.211211 0.290867 255 220 0
0.508478 0.135815 0.262217 255 220 0
0.524996 0.166843 0.322585 255 220 0
0.429173 0.118612 0.223846 255 220 0
0.429089 0.130714 0.225719 255 220 0
0.458340 0.174171 0.315380 255 220 0
0.519677 0.150101 0.272254 255 220 0
0.402895 0.101072 0.253920 255 220 0
0.446924 0.090561 0.257606 255 220 0
0.421682 0.106229 0.268719 255 220 0
0.394392 0.131142 0.241276 255 220 0
0.517384 0.144687 0.310351 255 220 0
0.449528 0.173581 0.306413 255 220 0
0.421483 0.138133 0.229831 255 220 0
0.469715 0.095274 0.268540 255 220 0
0.452551 0.162285 0.310571 255 220 0
0.466944 0.146334 0.233599 255 220 0
0.434316 0.106267 0.277081 255 220 0
0.489929 0.139899 0.242682 255 220 0
0.497789 0.191966 0.262084 255 220 0
0.529389 0.172807 0.318666 255 220 0
0.430326 0.164875 0.250323 255 220 0
0.449786 0.184956 0.257073 255 220 0
0.471668 0.134465 0.233857 255 220 0
0.445105 0.121400 0.226373 255 220 0
0.453400 0.174220 0.310521 255 220 0
0.500362 0.214037 0.306269 255 220 0
0.493015 0.174504 0.335248 255 220 0
0.464769 0.198248 0.266620 255 220 0
0.498338 0.113836 0.279180 255 220 0
0.513031 0.140639 0.265852 255 220 0
0.457627 0.198018 0.271211 255 220 0
0.532225 0.178840 0.299737 255 220 0
0.498570 0.178573 0.253986 255 220 0
0.501922 0.200303 0.329010 255 220 0
0.473014 0.195936 0.261804 255 220 0
0.496550 0.212803 0.291655 255 220 0
0.472316 0.168414 0.242363 255 220 0
0.440568 0.122428 0.290459 255 220 0
0.473945 0.105215 0.289447 255 220 0
0.444482 0.164200 0.241662 255 220 0
0.516448 0.143060 0.309768 255 220 0
0.395810 0.119916 0.256038 255 220 0
0.441070 0.096175 0.235730 255 220 0
0.522748 0.146106 0.289939 255 220 0
0.429489 0.100692 0.269285 255 220 0
0.523199 0.191951 0.326900 255 220 0
0.423634 0.151229 0.239379 255 220 0
0.450002 0.090980 0.259258 255 220 0
0.513070 0.155932 0.260297 255 220 0
0.517175 0.208511 0.312262 255 220 0
0.469972 0.171026 0.243546 255 220 0
0.508108 0.123990 0.283961 255 220 0
0.513674 0.142535 0.265650 255 220 0
0.479925 0.123866 0.308621 255 220 0
0.433644 0.155561 0.238537 255 220 0
0.438746 0.164953 0.295230 255 220 0
0.484668 0.149513 0.326320 255 220 0
0.485313 0.188372 0.255622 255 220 0
0.491040 0.213008 0.310159 255 220 0
0.453210 0.149113 0.232783 255 220 0
0.463426 0.102304 0.284930 255 220 0
0.484708 0.116521 0.301772 255 220 0
0.469926 0.100789 0.283272 255 220 0
0.398925 0.134359 0.238904 255 220 0
0.479089 0.151976 0.325854 255 220 0
0.512843 0.192254 0.273149 255 220 0
0.527520 0.194735 0.295470 255 220 0
0.523475 0.189562 0.327414 255 220 0
0.468640 0.157855 0.322065 255 220 0
0.467866 0.096281 0.274505 255 220 0
0.471248 0.209038 0.298674 255 220 0
0.440898 0.089862 0.254112 255 220 0
0.397787 0.133721 0.239558 255 220 0
0.432994 0.105722 0.275828 255 220 0
0.487393 0.202767 0.323399 255 220 0
0.443160 0.171189 0.247491 255 220 0
0.487999 0.194498 0.329095 255 220 0
0.409383 0.093035 0.240407 255 220 0
0.504842 0.121842 0.291124 255 220 0
0.421668 0.140009 0.230953 255 220 0
0.524579 0.157745 0.279438 255 220 0
0.483605 0.170426 0.245064 255 220 0
0.397428 0.125846 0.256232 255 220 0
0.502044 0.194592 0.266627 255 220 0
0.518157 0.148381 0.270176 255 220 0
0.525983 0.155753 0.286619 255 220 0
0.487366 0.202190 0.323880 255 220 0
0.476498 0.114896 0.242355 255 220 0
0.508622 0.187266 0.265738 255 220 0
0.491611 0.121127 0.305329 255 220 0
0.494663 0.210318 0.285222 255 220 0
0.425769 0.110903 0.224340 255 220 0
0.490188 0.193081 0.260323 255 220 0
0.435148 0.096122 0.233589 255 220 0
0.454365 0.111256 0.291791 255 220 0
0.421844 0.143370 0.233282 255 220 0
0.442744 0.135008 0.297076 255 220 0
0.467074 0.099520 0.250288 255 220 0
0.488237 0.140273 0.241570 255 220 0
0.465059 0.163388 0.320650 255 220 0
0.506909 0.170464 0.255770 255 220 0
0.521875 0.145025 0.286120 255 220 0
0.494123 0.145185 0.244624 255 220 0
0.462428 0.164623 0.318904 255 220 0
0.449938 0.091177 0.250340 255 220 0
0.445980 0.148900 0.232646 255 220 0
0.460519 0.171183 0.317589 255 220 0
0.436726 0.134495 0.227003 255 220 0
0.477497 0.153251 0.237762 255 220 0
0.412993 0.147135 0.262998 255 220 0
0.475225 0.102678 0.254107 255 220 0
0.524228 0.194541 0.324675 255 220 0
0.463333 0.093558 0.266793 255 220 0
0.424738 0.093507 0.256824 255 220 0
0.450440 0.129101 0.300770 255 220 0
0.499414 0.122988 0.302982 255 220 0
0.481527 0.181839 0.250660 255 220 0
0.525753 0.195688 0.292847 255 220 0
0.451336 0.101228 0.236271 255 220 0
0.467194 0.204008 0.275385 255 220 0
0.421339 0.092743 0.253276 255 220 0
0.448772 0.169395 0.306400 255 220 0
0.434740 0.124930 0.286958 255 220 0
0.405024 0.141536 0.251452 255 220 0
0.439297 0.184394 0.269446 255 220 0
0.466543 0.168812 0.242262 255 220 0
0.466367 0.171443 0.322216 255 220 0
0.522149 0.162439 0.272080 255 220 0
0.522727 0.145970 0.295124 255 220 0
0.531080 0.182544 0.317463 255 220 0
0.488930 0.148043 0.241509 255 220 0
0.498293 0.126898 0.255740 255 220 0
0.496974 0.162386 0.333430 255 220 0
0.501298 0.119177 0.270102 255 220 0
0.507356 0.141707 0.318060 255 220 0
0.526705 0.196153 0.320242 255 220 0
0.527275 0.156954 0.303501 255 220 0
0.416860 0.106635 0.265819 255 220 0
0.503717 0.207162 0.322648 255 220 0
0.479469 0.110419 0.295488 255 220 0
0.462088 0.205088 0.290926 255 220 0
0.470154 0.206717 0.304140 255 220 0
0.445748 0.175805 0.250177 255 220 0
0.511711 0.148047 0.260172 255 220 0
0.478359 0.099028 0.273607 255 220 0
0.433932 0.149976 0.234521 255 220 0
0.482347 0.166100 0.242972 255 220 0
0.525418 0.179547 0.279731 255 220 0
0.457752 0.120926 0.300327 255 220 0
0.467489 0.186901 0.253869 255 220 0
0.530445 0.181945 0.318910 255 220 0
0.522252 0.192097 0.283554 255 220 0
0.478031 0.186731 0.253629 255 220 0
0.413495 0.126524 0.225657 255 220 0
0.493866 0.109853 0.274787 255 220 0
0.454450 0.174647 0.311527 255 220 0
0.432918 0.093886 0.261725 255 220 0
0.468110 0.164485 0.322898 255 220 0
0.390152 0.124246 0.246381 255 220 0
0.430163 0.100492 0.269467 255 220 0
0.426333 0.122376 0.279597 255 220 0
0.507201 0.196307 0.271858 255 220 0
0.499991 0.209908 0.318305 255 220 0
0.395468 0.132119 0.240942 255 220 0
0.468932 0.178786 0.248061 255 220 0
0.452796 0.092966 0.266678 255 220 0
0.403569 0.112288 0.260188 255 220 0
0.442970 0.182638 0.259574 255 220 0
0.458153 0.167912 0.241995 255 220 0
0.517103 0.160698 0.326800 255 220 0
0.509494 0.171498 0.258066 255 220 0
0.482511 0.211188 0.286374 255 220 0
0.506236 0.174478 0.256592 255 220 0
0.516126 0.196790 0.280531 255 220 0
0.453536 0.147376 0.308958 255 220 0
0.455835 0.190178 0.306412 255 220 0
0.446251 0.174846 0.302097 255 220 0
0.419332 0.119511 0.273367 255 220 0
0.484876 0.133244 0.316448 255 220 0
0.491162 0.173865 0.248797 255 220 0
0.465260 0.122624 0.232429 255 220 0
0.416746 0.115726 0.270084 255 220 0
0.466109 0.191166 0.317032 255 220 0
0.519127 0.154296 0.319285 255 220 0
0.472061 0.198102 0.317478 255 220 0
0.466674 0.169942 0.242865 255 220 0
0.481385 0.148101 0.324798 255 220 0
0.510267 0.207690 0.320751 255 220 0
0.437541 0.089618 0.252359 255 220 0
0.434697 0.157453 0.239643 255 220 0
0.450064 0.176301 0.306279 255 220 0
0.493124 0.176338 0.250623 255 220 0
0.435854 0.157942 0.292898 255 220 0
0.462076 0.143918 0.232112 255 220 0
0.489024 0.124115 0.247615 255 220 0
0.455207 0.100977 0.281409 255 220 0
0.527942 0.163389 0.286839 255 220 0
0.524981 0.169317 0.324005 255 220 0
0.502909 0.121266 0.269810 255 220 0
0.445423 0.174464 0.301177 255 220 0
0.505886 0.150729 0.253255 255 220 0
0.465761 0.174096 0.245230 255 220 0
0.491703 0.171775 0.334843 255 220 0
0.475084 0.113912 0.299011 255 220 0
0.414022 0.105062 0.263147 255 220 0
0.510826 0.146153 0.259702 255 220 0
0.479139 0.194263 0.324911 255 220 0
0.437097 0.127110 0.225324 255 220 0
0.447136 0.184567 0.298259 255 220 0
0.433696 0.096543 0.266476 255 220 0
0.493887 0.192316 0.331875 255 220 0
0.439394 0.129781 0.226000 255 220 0
0.429751 0.121254 0.281676 255 220 0
0.451838 0.196495 0.276619 255 220 0
0.511939 0.211080 0.308079 255 220 0
0.484697 0.126904 0.242443 255 220 0
0.466164 0.191822 0.258433 255 220 0
0.452645 0.128602 0.228022 255 220 0
0.472750 0.174335 0.245484 255 220 0
0.401451 0.121049 0.226689 255 220 0
0.528232 0.158613 0.298033 255 220 0
0.468527 0.204978 0.276561 255 220 0
0.469982 0.148110 0.320313 255 220 0
0.440867 0.172058 0.296021 255 220 0
0.491429 0.214631 0.300558 255 220 0
0.519502 0.161852 0.267966 255 220 0
0.477608 0.174800 0.329628 255 220 0
0.442128 0.184974 0.264601 255 220 0
0.494507 0.162203 0.246279 255 220 0
0.522098 0.194451 0.285528 255 220 0
0.465685 0.104455 0.287924 255 220 0
0.511004 0.182895 0.334223 255 220 0
0.520811 0.150749 0.274385 255 220 0
0.435388 0.090950 0.256452 255 220 0
0.502799 0.193440 0.332457 255 220 0
0.525390 0.152494 0.289791 255 220 0
0.485594 0.130031 0.314176 255 220 0
0.494493 0.116701 0.297086 255 220 0
0.400176 0.114347 0.258762 255 220 0
0.503228 0.155160 0.330073 255 220 0
0.467407 0.198380 0.265840 255 220 0
0.425940 0.124743 0.280122 255 220 0
0.471547 0.116838 0.301157 255 220 0
0.491931 0.152358 0.328893 255 220 0
0.447734 0.095726 0.239901 255 220 0
0.430784 0.159873 0.243854 255 220 0
0.437717 0.139719 0.228871 255 220 0
0.481629 0.123730 0.308730 255 220 0
0.427774 0.161342 0.248265 255 220 0
0.447041 0.130684 0.227126 255 220 0
0.441649 0.187092 0.282590 255 220 0
0.451210 0.135848 0.228606 255 220 0
0.520921 0.162535 0.324541 255 220 0
0.403462 0.096265 0.245593 255 220 0
0.505737 0.144337 0.321325 255 220 0
0.477197 0.168209 0.242814 255 220 0
0.449638 0.101867 0.234798 255 220 0
0.504567 0.121002 0.275555 255 220 0
0.410300 0.114034 0.264960 255 220 0
0.447632 0.114586 0.227962 255 220 0
0.451162 0.182699 0.305104 255 220 0
0.390421 0.108864 0.247682 255 220 0
0.453521 0.095403 0.244612 255 220 0
0.492845 0.209478 0.283023 255 220 0
0.506825 0.127724 0.267665 255 220 0
0.425760 0.156993 0.279424 255 220 0
0.435663 0.098992 0.270796 255 220 0
0.464686 0.135727 0.312188 255 220 0
0.436718 0.091730 0.259008 255 220 0
0.459456 0.096143 0.248506 255 220 0
0.489689 0.151540 0.242104 255 220 0
0.483501 0.197970 0.325094 255 220 0
0.460617 0.096363 0.275372 255 220 0
0.437501 0.181374 0.282125 255 220 0
0.398174 0.134777 0.248704 255 220 0
0.475069 0.165062 0.327467 255 220 0
0.472385 0.171517 0.243931 255 220 0
0.509345 0.131964 0.305443 255 220 0
0.431466 0.111537 0.278481 255 220 0
0.417881 0.148165 0.239987 255 220 0
0.504812 0.131543 0.309868 255 220 0
0.438704 0.169358 0.248278 255 220 0
0.397106 0.118625 0.257170 255 220 0
0.467942 0.106139 0.242976 255 220 0
0.495230 0.198327 0.267135 255 220 0
0.449754 0.104871 0.284121 255 220 0
0.463098 0.201743 0.303302 255 220 0
0.496728 0.184282 0.256340 255 220 0
0.445510 0.178615 0.299595 255 220 0
0.527842 0.160968 0.288832 255 220 0
0.489967 0.116586 0.300283 255 220 0
0.490029 0.213546 0.292999 255 220 0
0.488073 0.114952 0.254213 255 220 0
0.490157 0.127934 0.246599 255 220 0
0.495735 0.175348 0.335619 255 220 0
0.427577 0.089250 0.242931 255 220 0
0.471356 0.195527 0.318798 255 220 0
0.444079 0.135978 0.227816 255 220 0
0.413954 0.147596 0.243286 255 220 0
0.480584 0.164358 0.241879 255 220 0
0.421594 0.150061 0.275746 255 220 0
0.425490 0.118578 0.223575 255 220 0
0.520493 0.203227 0.294440 255 220 0
0.498696 0.175717 0.335818 255 220 0
0.494776 0.193388 0.261968 255 220 0
0.522099 0.202809 0.296435 255 220 0
0.491527 0.139739 0.243765 255 220 0
0.455980 0.177831 0.312376 255 220 0
0.509628 0.126585 0.292387 255 220 0
0.426306 0.129892 0.225525 255 220 0
0.460698 0.099818 0.244317 255 220 0
0.429620 0.121912 0.223989 255 220 0
0.494900 0.183655 0.255191 255 220 0
0.449202 0.127036 0.298971 255 220 0
0.459558 0.158466 0.237083 255 220 0
0.433368 0.122080 0.284735 255 220 0
0.434475 0.106115 0.227197 255 220 0
0.517376 0.136588 0.293946 255 220 0
0.478790 0.106034 0.253535 255 220 0
0.532239 0.176346 0.300288 255 220 0
0.417878 0.151843 0.268149 255 220 0
0.469483 0.152181 0.235604 255 220 0
0.447475 0.193529 0.279313 255 220 0
0.514691 0.140329 0.269191 255 220 0
0.442634 0.092396 0.262745 255 220 0
0.472500 0.153650 0.323501 255 220 0
0.465940 0.200468 0.309063 255 220 0
0.514021 0.142560 0.312632 255 220 0
0.411374 0.147901 0.255061 255 220 0
0.390860 0.107399 0.246642 255 220 0
0.455924 0.134810 0.306904 255 220 0
0.423258 0.138197 0.279753 255 220 0
0.524356 0.150903 0.302820 255 220 0
0.456355 0.138459 0.308562 255 220 0
0.481128 0.119831 0.242949 255 220 0
0.502761 0.156699 0.330945 255 220 0
0.430297 0.155810 0.240157 255 220 0
0.409159 0.109711 0.262560 255 220 0
0.493072 0.213505 0.309435 255 220 0
0.452792 0.151931 0.309458 255 220 0
0.402633 0.101102 0.253755 255 220 0
0.437851 0.151929 0.295626 255 220 0
0.529758 0.163349 0.304966 255 220 0
0.412560 0.092028 0.241772 255 220 0
0.513974 0.205925 0.290486 255 220 0
0.402655 0.138978 0.243938 255 220 0
0.510244 0.136336 0.264536 255 220 0
0.500528 0.167312 0.334799 255 220 0
0.489753 0.214461 0.301708 255 220 0
0.418635 0.139684 0.274628 255 220 0
0.435482 0.171274 0.252930 255 220 0
0.531077 0.177669 0.294120 255 220 0
0.393966 0.115028 0.229775 255 220 0
0.472706 0.096988 0.273560 255 220 0
0.497763 0.211631 0.289157 255 220 0
0.484075 0.204597 0.319979 255 220 0
0.481704 0.189157 0.255725 255 220 0
0.525429 0.199908 0.297939 255 220 0
0.513466 0.204825 0.323716 255 220 0
0.460405 0.154316 0.235293 255 220 0
0.429139 0.133092 0.285008 255 220 0
0.460072 0.148847 0.314149 255 220 0
0.417423 0.151933 0.267017 255 220 0
0.448887 0.191650 0.268314 255 220 0
0.528038 0.167523 0.284789 255 220 0
0.520846 0.142779 0.296629 255 220 0
0.425038 0.147532 0.280986 255 220 0
0.499515 0.213058 0.293871 255 220 0
0.450640 0.138753 0.304422 255 220 0
0.403836 0.136841 0.257985 255 220 0
0.416599 0.092240 0.235485 255 220 0
0.411206 0.133015 0.267988 255 220 0
0.391119 0.126977 0.240445 255 220 0
0.433052 0.177321 0.268776 255 220 0
0.492509 0.196949 0.264669 255 220 0
0.525208 0.181904 0.326586 255 220 0
0.526298 0.162854 0.281488 255 220 0
0.392822 0.129427 0.241494 255 220 0
0.448673 0.184472 0.300643 255 220 0
0.445412 0.171236 0.302092 255 220 0
0.490405 0.109429 0.265849 255 220 0
0.410544 0.142665 0.263319 255 220 0
0.529050 0.168411 0.316421 255 220 0
0.447495 0.127119 0.226887 255 220 0
0.487246 0.107128 0.264212 255 220 0
0.466930 0.129204 0.232268 255 220 0
0.405877 0.130336 0.229504 255 220 0
0.414141 0.150077 0.260663 255 220 0
0.436254 0.145348 0.293685 255 220 0
0.436285 0.180627 0.279533 255 220 0
0.510031 0.190221 0.333023 255 220 0
0.419852 0.098809 0.229305 255 220 0
0.415619 0.117242 0.269833 255 220 0
0.493724 0.114101 0.293239 255 220 0
0.424617 0.096451 0.231337 255 220 0
0.477978 0.197215 0.322426 255 220 0
0.428212 0.158246 0.282717 255 220 0
0.497797 0.193685 0.331989 255 220 0
0.504671 0.154933 0.251896 255 220 0
0.529557 0.162447 0.302850 255 220 0
0.505471 0.206215 0.323834 255 220 0
0.495389 0.193515 0.262311 255 220 0
0.459332 0.146079 0.312935 255 220 0
0.465624 0.204279 0.277249 255 220 0
0.526801 0.158461 0.286873 255 220 0
0.507202 0.203870 0.326276 255 220 0
0.480290 0.202642 0.269812 255 220 0
0.412721 0.146318 0.263469 255 220 0
0.517308 0.208911 0.306691 255 220 0
0.428817 0.141644 0.230472 255 220 0
0.423789 0.093879 0.233448 255 220 0
0.476622 0.178398 0.328740 255 220 0
0.408914 0.098391 0.230260 255 220 0
0.511784 0.176944 0.334226 255 220 0
0.467023 0.097968 0.278493 255 220 0
0.458563 0.202717 0.286115 255 220 0
0.528252 0.195541 0.298287 255 220 0
0.496382 0.112280 0.274943 255 220 0
0.421547 0.153827 0.244209 255 220 0
0.401336 0.119297 0.260171 255 220 0
0.525070 0.157352 0.281241 255 220 0
0.474110 0.146056 0.235436 255 220 0
0.485369 0.201060 0.268054 255 220 0
0.457166 0.103002 0.238206 255 220 0
0.476835 0.146254 0.236369 255 220 0
0.422569 0.137882 0.279032 255 220 0
0.514310 0.142334 0.312004 255 220 0
0.455916 0.146498 0.232002 255 220 0
0.506405 0.136334 0.313629 255 220 0
0.517780 0.139261 0.278919 255 220 0
0.514116 0.145772 0.264503 255 220 0
0.450653 0.147940 0.306891 255 220 0
0.500232 0.196580 0.330922 255 220 0
0.528215 0.161551 0.309981 255 220 0
0.469503 0.130961 0.233149 255 220 0
0.481717 0.128491 0.239792 255 220 0
0.388058 0.112559 0.241893 255 220 0
0.457721 0.100346 0.281242 255 220 0
0.494614 0.166749 0.334448 255 220 0
0.449468 0.192409 0.293469 255 220 0
0.444578 0.160086 0.238923 255 220 0
0.400906 0.115935 0.259499 255 220 0
0.500557 0.137591 0.251851 255 220 0
0.460319 0.163935 0.239748 255 220 0
0.408502 0.120858 0.265504 255 220 0
0.476978 0.100088 0.261077 255 220 0
0.456737 0.176584 0.313427 255 220 0
0.501456 0.213816 0.298620 255 220 0
0.477417 0.101388 0.259033 255 220 0
0.530961 0.191891 0.302566 255 220 0
0.490550 0.135164 0.244191 255 220 0
0.528279 0.196328 0.317039 255 220 0
0.481253 0.101208 0.278435 255 220 0
0.424297 0.107258 0.225228 255 220 0
0.429564 0.172290 0.266179 255 220 0
0.501946 0.179514 0.335738 255 220 0
0.414188 0.136072 0.230514 255 220 0
0.431750 0.167197 0.251821 255 220 0
0.484771 0.160412 0.330739 255 220 0
0.422051 0.157949 0.271671 255 220 0
0.507789 0.210043 0.316687 255 220 0
0.504123 0.207248 0.284248 255 220 0
0.440527 0.122929 0.290648 255 220 0
0.491222 0.116792 0.256287 255 220 0
0.484629 0.172792 0.246376 255 220 0
0.446025 0.102490 0.279994 255 220 0
0.466281 0.107160 0.240693 255 220 0
0.434513 0.172644 0.285715 255 220 0
0.452735 0.185622 0.256223 255 220 0
0.529072 0.174057 0.319864 255 220 0
0.506542 0.142355 0.256088 255 220 0
0.435671 0.143320 0.230558 255 220 0
0.391114 0.122775 0.234349 255 220 0
0.435547 0.110233 0.280570 255 220 0
0.406514 0.113432 0.262307 255 220 0
0.496940 0.212363 0.290620 255 220 0
0.526375 0.183628 0.283658 255 220 0
0.530838 0.167957 0.308993 255 220 0
0.476623 0.196373 0.262075 255 220 0
0.449147 0.194860 0.285637 255 220 0
0.453459 0.102671 0.236226 255 220 0
0.416232 0.141395 0.271493 255 220 0
0.489310 0.139233 0.242401 255 220 0
0.465029 0.128064 0.231649 255 220 0
0.427789 0.095626 0.232365 255 220 0
0.520286 0.175573 0.270464 255 220 0
0.488266 0.106124 0.283061 255 220 0
0.510578 0.140514 0.314244 255 220 0
0.457269 0.196203 0.302394 255 220 0
0.524939 0.154489 0.283556 255 220 0
0.450979 0.153316 0.234626 255 220 0
0.479062 0.212165 0.298776 255 220 0
0.400359 0.099098 0.248688 255 220 0
0.485948 0.211763 0.287420 255 220 0
0.522751 0.159448 0.274091 255 220 0
0.409651 0.100844 0.257836 255 220 0
0.515464 0.197112 0.280149 255 220 0
0.480768 0.191254 0.257330 255 220 0
0.477129 0.210749 0.287390 255 220 0
0.515831 0.135195 0.297135 255 220 0
0.497668 0.141226 0.247994 255 220 0
0.526184 0.168854 0.279317 255 220 0
0.387695 0.117381 0.241087 255 220 0
0.501155 0.120372 0.295491 255 220 0
0.496355 0.169388 0.249221 255 220 0
0.505163 0.128403 0.305484 255 220 0
0.521041 0.187616 0.278445 255 220 0
0.519174 0.141957 0.301966 255 220 0
0.451814 0.099532 0.238201 255 220 0
0.493882 0.180426 0.335126 255 220 0
0.481875 0.171177 0.331714 255 220 0
0.488266 0.120063 0.305064 255 220 0
0.430642 0.173396 0.274302 255 220 0
0.486130 0.208646 0.280191 255 220 0
0.492229 0.176152 0.250213 255 220 0
0.483337 0.174721 0.247026 255 220 0
0.484249 0.108037 0.257831 255 220 0
0.432734 0.125573 0.224664 255 220 0
0.428259 0.140750 0.230072 255 220 0
0.472355 0.156857 0.237575 255 220 0
0.438518 0.163535 0.295238 255 220 0
0.482131 0.136652 0.318354 255 220 0
0.458784 0.139207 0.310475 255 220 0
0.435026 0.093399 0.261840 255 220 0
0.462187 0.148450 0.315566 255 220 0
0.456072 0.199758 0.278385 255 220 0
0.475875 0.108608 0.247407 255 220 0
0.432249 0.132745 0.226348 255 220 0
0.531833 0.190153 0.311899 255 220 0
0.463280 0.134378 0.310822 255 220 0
0.461084 0.198996 0.270009 255 220 0
0.426004 0.148473 0.235733 255 220 0
0.475963 0.108419 0.247687 255 220 0
0.428019 0.149883 0.284342 255 220 0
0.471018 0.104313 0.288281 255 220 0
0.400883 0.116325 0.226104 255 220 0
0.512995 0.169549 0.332811 255 220 0
0.506228 0.124306 0.272126 255 220 0
0.508694 0.136579 0.311910 255 220 0
0.453250 0.185268 0.255622 255 220 0
0.472212 0.208024 0.281492 255 220 0
0.419741 0.111335 0.223870 255 220 0
0.407555 0.093720 0.240598 255 220 0
0.396515 0.109463 0.229411 255 220 0
0.507175 0.140585 0.257612 255 220 0
0.511588 0.178363 0.262621 255 220 0
0.492331 0.176950 0.335119 255 220 0
0.515620 0.168267 0.263212 255 220 0
0.397315 0.112971 0.227803 255 220 0
0.488068 0.151518 0.327974 255 220 0
0.444510 0.177659 0.298677 255 220 0
0.455482 0.143448 0.231011 255 220 0
0.396704 0.133713 0.245935 255 220 0
0.524507 0.177585 0.277349 255 220 0
0.482766 0.130540 0.314245 255 220 0
0.397346 0.122690 0.228895 255 220 0
0.389217 0.117154 0.248691 255 220 0
0.424495 0.091401 0.252026 255 220 0
0.398819 0.110582 0.256928 255 220 0
0.510019 0.184390 0.264956 255 220 0
0.436333 0.114320 0.225263 255 220 0
0.486259 0.137594 0.240775 255 220 0
0.391697 0.127421 0.239204 255 220 0
0.414643 0.146947 0.241355 255 220 0
0.501930 0.180150 0.335689 255 220 0
0.527983 0.163559 0.286867 255 220 0
0.440106 0.155276 0.236674 255 220 0
0.476126 0.118511 0.239831 255 220 0
0.444894 0.189455 0.287638 255 220 0
0.513461 0.132336 0.297598 255 220 0
0.427883 0.133020 0.283861 255 220 0
0.482205 0.172564 0.245740 255 220 0
0.479108 0.208493 0.280028 255 220 0
0.529758 0.193529 0.316378 255 220 0
0.458687 0.127954 0.229601 255 220 0
0.526293 0.195883 0.321089 255 220 0
0.482638 0.170677 0.332000 255 220 0
0.459785 0.154385 0.235287 255 220 0
0.455283 0.190903 0.305095 255 220 0
0.526343 0.201989 0.306076 255 220 0
0.480078 0.117091 0.243846 255 220 0
0.472186 0.101677 0.284517 255 220 0
0.498269 0.124721 0.306405 255 220 0
0.462296 0.196077 0.309478 255 220 0
0.408108 0.144690 0.250979 255 220 0
0.458153 0.165264 0.315594 255 220 0
0.413843 0.146046 0.265835 255 220 0
0.458378 0.165560 0.240666 255 220 0
0.528681 0.185412 0.322004 255 220 0
0.477197 0.199378 0.320352 255 220 0
0.458872 0.192718 0.261633 255 220 0
0.484224 0.213348 0.295217 255 220 0
0.428421 0.156567 0.283540 255 220 0
0.527237 0.156144 0.296003 255 220 0
0.415597 0.148471 0.242676 255 220 0
0.517214 0.176801 0.267384 255 220 0
0.496158 0.153444 0.245760 255 220 0
0.444047 0.175800 0.251064 255 220 0
0.495067 0.120486 0.302667 255 220 0
0.453592 0.111489 0.291678 255 220 0
0.415371 0.151944 0.251617 255 220 0
0.484346 0.210525 0.311870 255 220 0
0.405847 0.107035 0.259459 255 220 0
0.409516 0.141796 0.238851 255 220 0
0.427695 0.110114 0.275060 255 220 0
0.455373 0.114692 0.294908 255 220 0
0.510471 0.126676 0.286027 255 220 0
0.491634 0.126364 0.310848 255 220 0
0.475284 0.116215 0.301204 255 220 0
0.501769 0.213961 0.305090 255 220 0
0.492254 0.118138 0.256197 255 220 0
0.479712 0.116490 0.301891 255 220 0
0.394627 0.110945 0.230279 255 220 0
0.472308 0.142225 0.318765 255 220 0
0.496185 0.155576 0.245974 255 220 0
0.423305 0.091196 0.250663 255 220 0
0.516271 0.171241 0.331751 255 220 0
0.466686 0.133876 0.312016 255 220 0
0.406566 0.116890 0.224693 255 220 0
0.484077 0.119758 0.245642 255 220 0
0.500303 0.209968 0.318204 255 220 0
0.521577 0.197614 0.325162 255 220 0
0.489698 0.210833 0.285188 255 220 0
0.530380 0.188722 0.297084 255 220 0
0.446324 0.112354 0.228152 255 220 0
0.455884 0.159630 0.313242 255 220 0
0.529450 0.180023 0.289188 255 220 0
0.521421 0.157943 0.271981 255 220 0
0.476336 0.137536 0.235727 255 220 0
0.393586 0.103358 0.238387 255 220 0
0.452522 0.172803 0.309865 255 220 0
0.441198 0.094782 0.237224 255 220 0
0.487674 0.202569 0.270489 255 220 0
0.441777 0.148323 0.299355 255 220 0
0.508411 0.158418 0.255310 255 220 0
0.479401 0.113785 0.245814 255 220 0
0.448911 0.184362 0.256933 255 220 0
0.464022 0.141250 0.314459 255 220 0
0.467976 0.110865 0.295070 255 220 0
0.423183 0.093611 0.256151 255 220 0
0.482736 0.102353 0.266320 255 220 0
0.523636 0.187853 0.282063 255 220 0
0.484301 0.111435 0.253475 255 220 0
0.465663 0.100888 0.247107 255 220 0
0.483767 0.102675 0.279543 255 220 0
0.490084 0.187311 0.255859 255 220 0
0.494983 0.149224 0.244920 255 220 0
0.415231 0.151282 0.249609 255 220 0
0.493569 0.144796 0.244306 255 220 0
0.487178 0.212252 0.310005 255 220 0
0.527087 0.186024 0.286693 255 220 0
0.430794 0.171271 0.278813 255 220 0
0.442012 0.167206 0.298835 255 220 0
0.502633 0.186197 0.334703 255 220 0
0.464801 0.146418 0.233201 255 220 0
0.473129 0.116726 0.238665 255 220 0
0.500314 0.204586 0.325420 255 220 0
0.470035 0.103728 0.287486 255 220 0
0.512538 0.201283 0.327474 255 220 0
0.442501 0.118222 0.289908 255 220 0
0.400075 0.097565 0.240127 255 220 0
0.422398 0.148991 0.277242 255 220 0
0.412916 0.146995 0.263016 255 220 0
0.460408 0.093132 0.266609 255 220 0
0.454492 0.160367 0.238083 255 220 0
0.475807 0.199975 0.266355 255 220 0
0.472780 0.178935 0.248178 255 220 0
0.478721 0.113209 0.298555 255 220 0
0.442269 0.170446 0.298376 255 220 0
0.527867 0.158189 0.294485 255 220 0
0.443431 0.097541 0.235516 255 220 0
0.495711 0.206160 0.322887 255 220 0
0.489159 0.207945 0.318679 255 220 0
0.490909 0.186814 0.333130 255 220 0
0.464791 0.155802 0.236223 255 220 0
0.452153 0.146650 0.307719 255 220 0
0.408223 0.135880 0.264234 255 220 0
0.461226 0.135591 0.230586 255 220 0
0.478196 0.120458 0.240334 255 220 0
0.477470 0.211298 0.289861 255 220 0
0.388009 0.116952 0.245215 255 220 0
0.427141 0.140128 0.283899 255 220 0
0.406019 0.120152 0.263564 255 220 0
0.440850 0.166682 0.244744 255 220 0
0.480267 0.100828 0.265369 255 220 0
0.429774 0.169033 0.278880 255 220 0
0.498406 0.154323 0.330104 255 220 0
0.492403 0.114068 0.294691 255 220 0
0.500115 0.199040 0.270199 255 220 0
0.512497 0.198797 0.329121 255 220 0
0.502889 0.121357 0.269585 255 220 0
0.506149 0.165023 0.333609 255 220 0
0.476421 0.158250 0.326860 255 220 0
0.471052 0.159050 0.238156 255 220 0
0.479962 0.121123 0.306267 255 220 0
0.530535 0.181578 0.293241 255 220 0
0.488690 0.186760 0.255139 255 220 0
0.454232 0.160530 0.311950 255 220 0
0.457656 0.103421 0.238124 255 220 0
0.526253 0.200868 0.301830 255 220 0
0.523248 0.150941 0.281320 255 220 0
0.490833 0.141056 0.243059 255 220 0
0.532089 0.173850 0.310104 255 220 0
0.522185 0.194379 0.285580 255 220 0
0.512512 0.208759 0.294585 255 220 0
0.483970 0.203704 0.320826 255 220 0
0.395629 0.120416 0.229096 255 220 0
0.473582 0.207013 0.278304 255 220 0
0.443154 0.143457 0.230327 255 220 0
0.437738 0.127539 0.290349 255 220 0
0.429648 0.091905 0.256173 255 220 0
0.525087 0.150963 0.295298 255 220 0
0.523571 0.163032 0.274659 255 220 0
0.449324 0.159992 0.307450 255 220 0
0.477297 0.160886 0.327960 255 220 0
0.450817 0.192423 0.296236 255 220 0
0.438857 0.180901 0.262091 255 220 0
0.491317 0.175908 0.334946 255 220 0
0.431587 0.131772 0.226034 255 220 0
0.513865 0.204882 0.288583 255 220 0
0.522367 0.149744 0.307475 255 220 0
0.432530 0.090489 0.239359 255 220 0
0.482917 0.113694 0.249442 255 220 0
0.488415 0.105925 0.270082 255 220 0
0.434744 0.150084 0.234421 255 220 0
0.443184 0.125348 0.293751 255 220 0
0.525478 0.169609 0.277660 255 220 0
0.484676 0.187181 0.330781 255 220 0
0.399054 0.135984 0.244382 255 220 0
0.431610 0.151337 0.236023 255 220 0
0.433884 0.173205 0.257390 255 220 0
0.412617 0.117641 0.267772 255 220 0
0.485646 0.144718 0.239860 255 220 0
0.465319 0.155844 0.236292 255 220 0
0.466735 0.131298 0.310504 255 220 0
0.463979 0.119309 0.301382 255 220 0
0.465301 0.098817 0.280073 255 220 0
0.462638 0.176986 0.318783 255 220 0
0.424768 0.163669 0.271721 255 220 0
0.473049 0.108794 0.244600 255 220 0
0.500564 0.205305 0.279087 255 220 0
0.526281 0.154273 0.292139 255 220 0
0.452907 0.161616 0.238841 255 220 0
0.510571 0.164730 0.332327 255 220 0
0.477515 0.116401 0.301638 255 220 0
0.394615 0.129520 0.249928 255 220 0
0.502057 0.176888 0.335823 255 220 0
0.443196 0.106812 0.229178 255 220 0
0.477109 0.211299 0.300467 255 220 0
0.480531 0.181269 0.330383 255 220 0
0.485561 0.149986 0.326747 255 220 0
0.436530 0.130915 0.290642 255 220 0
0.476573 0.098074 0.271908 255 220 0
0.490989 0.146439 0.325580 255 220 0
0.486762 0.109319 0.259630 255 220 0
0.407899 0.128593 0.265396 255 220 0
0.496225 0.177293 0.335659 255 220 0
0.458157 0.151490 0.313389 255 220 0
0.427089 0.165959 0.257010 255 220 0
0.484073 0.117979 0.246930 255 220 0
0.475194 0.112711 0.297843 255 220 0
0.507150 0.134511 0.311129 255 220 0
0.483051 0.206545 0.317194 255 220 0
0.529022 0.180114 0.287967 255 220 0
0.450506 0.120717 0.296555 255 220 0
0.427033 0.127634 0.224847 255 220 0
0.501474 0.175255 0.253957 255 220 0
0.407150 0.100186 0.255860 255 220 0
0.500645 0.168812 0.335099 255 220 0
0.431668 0.169227 0.254727 255 220 0
0.423062 0.123879 0.224059 255 220 0
0.510212 0.192001 0.270571 255 220 0
0.409065 0.145527 0.253737 255 220 0
0.527692 0.192857 0.321133 255 220 0
0.464588 0.180343 0.249231 255 220 0
0.492341 0.120016 0.254386 255 220 0
0.512461 0.205254 0.287718 255 220 0
0.394224 0.127771 0.234853 255 220 0
0.449701 0.121918 0.227439 255 220 0
0.444638 0.147082 0.231856 255 220 0
0.444574 0.186153 0.292237 255 220 0
0.441528 0.144252 0.298514 255 220 0
0.525581 0.188382 0.325627 255 220 0
0.471604 0.127531 0.309631 255 220 0
0.424196 0.132128 0.226451 255 220 0
0.496208 0.124759 0.307663 255 220 0
0.391128 0.127108 0.240915 255 220 0
0.431151 0.098392 0.230820 255 220 0
0.457361 0.096423 0.275079 255 220 0
0.528817 0.182469 0.288525 255 220 0
0.528496 0.195987 0.299581 255 220 0
0.518420 0.153121 0.268344 255 220 0
0.395345 0.129819 0.236084 255 220 0
0.504171 0.131047 0.309821 255 220 0
0.473155 0.193995 0.321146 255 220 0
0.429371 0.089670 0.249170 255 220 0
0.414290 0.140629 0.269444 255 220 0
0.423253 0.141250 0.231350 255 220 0
0.453883 0.093391 0.248430 255 220 0
0.515036 0.137801 0.272613 255 220 0
0.417629 0.125988 0.224887 255 220 0
0.488097 0.189803 0.257187 255 220 0
0.518269 0.147149 0.312105 255 220 0
0.521637 0.206245 0.310622 255 220 0
0.470744 0.190111 0.256310 255 220 0
0.418313 0.131965 0.274816 255 220 0
0.412646 0.143939 0.238963 255 220 0
0.489304 0.205428 0.321637 255 220 0
0.406147 0.101207 0.256139 255 220 0
0.424547 0.124847 0.279066 255 220 0
0.514628 0.153621 0.262554 255 220 0
0.505583 0.152038 0.252832 255 220 0
0.430580 0.090882 0.238091 255 220 0
0.447532 0.189731 0.293521 255 220 0
0.475270 0.116428 0.301399 255 220 0
0.512660 0.131258 0.276786 255 220 0
0.409519 0.138898 0.264405 255 220 0
0.404691 0.095138 0.242494 255 220 0
0.477738 0.132589 0.314726 255 220 0
0.504816 0.156699 0.252059 255 220 0
0.507038 0.196110 0.271544 255 220 0
0.457305 0.184391 0.311554 255 220 0
0.484780 0.136646 0.240037 255 220 0
0.507343 0.129247 0.266701 255 220 0
0.399415 0.135066 0.239649 255 220 0
0.489971 0.126035 0.310802 255 220 0
0.525102 0.171228 0.276915 255 220 0
0.500879 0.179213 0.255491 255 220 0
0.494658 0.190782 0.259813 255 220 0
0.444355 0.091654 0.261335 255 220 0
0.454952 0.136207 0.229287 255 220 0
0.475280 0.101344 0.283367 255 220 0
0.510308 0.130286 0.271576 255 220 0
0.450896 0.115379 0.293388 255 220 0
0.450682 0.122791 0.227618 255 220 0
0.466244 0.168089 0.322012 255 220 0
0.431722 0.098601 0.268202 255 220 0
0.513873 0.132373 0.296271 255 220 0
0.434821 0.173998 0.285198 255 220 0
0.458474 0.140268 0.230681 255 220 0
0.441983 0.132756 0.226851 255 220 0
0.501045 0.162376 0.333412 255 220 0
0.490118 0.199036 0.266380 255 220 0
0.483106 0.212108 0.289300 255 220 0
