ply
format ascii 1.0
element vertex 1024
property float x
property float y
property float z
property uchar red
property uchar green
property uchar blue
end_header
0.349826 0.209674 0.279120 255 220 0
0.277091 0.191012 0.225539 255 220 0
0.254301 0.120136 0.197762 255 220 0
0.259472 0.148468 0.266293 255 220 0
0.350162 0.168082 0.232544 255 220 0
0.278590 0.180314 0.270088 255 220 0
0.341175 0.163972 0.223470 255 220 0
0.281752 0.190865 0.215843 255 220 0
0.337353 0.170012 0.218990 255 220 0
0.242556 0.156854 0.188740 255 220 0
0.298890 0.195387 0.279445 255 220 0
0.279505 0.115715 0.260358 255 220 0
0.292505 0.199149 0.262250 255 220 0
0.308623 0.169899 0.295886 255 220 0
0.254792 0.122317 0.258393 255 220 0
0.225607 0.156789 0.203777 255 220 0
0.349836 0.201314 0.237763 255 220 0
0.339316 0.213410 0.275065 255 220 0
0.289269 0.199635 0.231300 255 220 0
0.260364 0.170350 0.200264 255 220 0
0.328669 0.209438 0.231549 255 220 0
0.346973 0.167621 0.291654 255 220 0
0.286566 0.116689 0.260740 255 220 0
0.346709 0.203121 0.289030 255 220 0
0.234278 0.126867 0.188049 255 220 0
0.306765 0.150814 0.205449 255 220 0
0.347110 0.212844 0.272630 255 220 0
0.361415 0.203269 0.273009 255 220 0
0.302482 0.197251 0.214683 255 220 0
0.353720 0.173251 0.289791 255 220 0
0.329069 0.191622 0.297654 255 220 0
0.275662 0.179407 0.266748 255 220 0
0.241759 0.130109 0.247510 255 220 0
0.240284 0.150409 0.184799 255 220 0
0.293430 0.133000 0.206426 255 220 0
0.277149 0.190936 0.243862 255 220 0
0.340611 0.151791 0.229455 255 220 0
0.342160 0.204330 0.289012 255 220 0
0.292209 0.169224 0.198770 255 220 0
0.264595 0.140140 0.271712 255 220 0
0.318364 0.135069 0.221366 255 220 0
0.330746 0.131449 0.254397 255 220 0
0.321678 0.213919 0.267579 255 220 0
0.317605 0.142400 0.286797 255 220 0
0.346499 0.182254 0.296541 255 220 0
0.244009 0.163913 0.227510 255 220 0
0.294076 0.196670 0.216724 255 220 0
0.305121 0.205832 0.270133 255 220 0
0.359398 0.204402 0.276814 255 220 0
0.354120 0.160895 0.277746 255 220 0
0.290671 0.199557 0.227261 255 220 0
0.334341 0.215939 0.265419 255 220 0
0.254714 0.173202 0.230785 255 220 0
0.235370 0.162411 0.207418 255 220 0
0.228327 0.151153 0.218770 255 220 0
0.218949 0.151163 0.204862 255 220 0
0.355178 0.194976 0.290204 255 220 0
0.238257 0.129449 0.186757 255 220 0
0.240006 0.164393 0.214086 255 220 0
0.273859 0.148854 0.192743 255 220 0
0.361473 0.176686 0.282494 255 220 0
0.290881 0.199557 0.226854 255 220 0
0.274850 0.113475 0.254986 255 220 0
0.302015 0.118969 0.230631 255 220 0
0.264368 0.172994 0.201801 255 220 0
0.310011 0.180359 0.205027 255 220 0
0.254539 0.130796 0.190159 255 220 0
0.316729 0.210329 0.233057 255 220 0
0.349526 0.161559 0.284830 255 220 0
0.347871 0.197388 0.292771 255 220 0
0.306643 0.125191 0.222913 255 220 0
0.302513 0.119263 0.258176 255 220 0
0.309555 0.198541 0.286149 255 220 0
0.342856 0.158333 0.287561 255 220 0
0.223453 0.147182 0.216130 255 220 0
0.284800 0.149524 0.196420 255 220 0
0.331072 0.149366 0.287043 255 220 0
0.239366 0.159656 0.225971 255 220 0
0.279099 0.167138 0.278823 255 220 0
0.274660 0.122312 0.204606 255 220 0
0.298993 0.186269 0.205581 255 220 0
0.263506 0.180117 0.216299 255 220 0
0.356710 0.200671 0.246196 255 220 0
0.340456 0.192723 0.224436 255 220 0
0.226540 0.157476 0.203360 255 220 0
0.284519 0.196926 0.243771 255 220 0
0.276979 0.165693 0.277444 255 220 0
0.311484 0.178598 0.296414 255 220 0
0.293342 0.194493 0.213748 255 220 0
0.249718 0.111080 0.211961 255 220 0
0.331762 0.132362 0.256634 255 220 0
0.278687 0.192617 0.240308 255 220 0
0.337792 0.143136 0.274728 255 220 0
0.355901 0.183668 0.291185 255 220 0
0.242464 0.124495 0.190694 255 220 0
0.300481 0.120959 0.264769 255 220 0
0.265107 0.133086 0.271263 255 220 0
0.357351 0.175053 0.242138 255 220 0
0.353884 0.153841 0.259805 255 220 0
0.324461 0.193273 0.215149 255 220 0
0.227950 0.143711 0.225572 255 220 0
0.265108 0.178063 0.248156 255 220 0
0.313219 0.152163 0.293080 255 220 0
0.300342 0.184787 0.288626 255 220 0
0.358231 0.188944 0.243219 255 220 0
0.305671 0.155077 0.203747 255 220 0
0.335694 0.209255 0.283666 255 220 0
0.242411 0.158929 0.190528 255 220 0
0.359371 0.166583 0.253442 255 220 0
0.222074 0.131689 0.221306 255 220 0
0.330936 0.146993 0.222789 255 220 0
0.280461 0.176440 0.275482 255 220 0
0.245277 0.165836 0.225635 255 220 0
0.351977 0.195416 0.236766 255 220 0
0.329631 0.181702 0.299591 255 220 0
0.307970 0.153315 0.293397 255 220 0
0.352778 0.176801 0.292081 255 220 0
0.343855 0.209208 0.240391 255 220 0
0.330517 0.216036 0.263520 255 220 0
0.324896 0.208327 0.228613 255 220 0
0.313182 0.181078 0.296723 255 220 0
0.276357 0.183244 0.261866 255 220 0
0.325211 0.127798 0.248104 255 220 0
0.255613 0.113095 0.247757 255 220 0
0.265845 0.115529 0.258419 255 220 0
0.281127 0.164093 0.281608 255 220 0
0.314391 0.155428 0.294205 255 220 0
0.277409 0.189526 0.250864 255 220 0
0.287763 0.113922 0.250852 255 220 0
0.346317 0.181126 0.296537 255 220 0
0.227608 0.117117 0.221532 255 220 0
0.297410 0.129338 0.278263 255 220 0
0.347903 0.159501 0.234125 255 220 0
0.273278 0.110165 0.226220 255 220 0
0.298219 0.115742 0.244395 255 220 0
0.327910 0.167493 0.297258 255 220 0
0.282256 0.184098 0.270946 255 220 0
0.322842 0.180237 0.210013 255 220 0
0.363432 0.185653 0.283123 255 220 0
0.252983 0.146749 0.259959 255 220 0
0.319733 0.132404 0.274992 255 220 0
0.269109 0.159976 0.193132 255 220 0
0.321040 0.213502 0.241048 255 220 0
0.356042 0.175078 0.239792 255 220 0
0.311290 0.120797 0.245659 255 220 0
0.270174 0.123211 0.201567 255 220 0
0.295713 0.182566 0.286232 255 220 0
0.361045 0.170094 0.254539 255 220 0
0.311303 0.137725 0.213923 255 220 0
0.297374 0.185233 0.286151 255 220 0
0.263205 0.118234 0.203525 255 220 0
0.298536 0.205583 0.255029 255 220 0
0.273743 0.166607 0.273979 255 220 0
0.269258 0.185255 0.236248 255 220 0
0.243681 0.128988 0.249565 255 220 0
0.265037 0.173091 0.201662 255 220 0
0.292324 0.147159 0.199962 255 220 0
0.245170 0.150243 0.247753 255 220 0
0.268443 0.153481 0.273420 255 220 0
0.324456 0.137111 0.278341 255 220 0
0.347144 0.177204 0.295543 255 220 0
0.365255 0.197305 0.269045 255 220 0
0.328394 0.144957 0.284604 255 220 0
0.321858 0.210069 0.279089 255 220 0
0.232391 0.134528 0.183716 255 220 0
0.360383 0.204167 0.274430 255 220 0
0.235297 0.117208 0.199400 255 220 0
0.248928 0.117995 0.198682 255 220 0
0.218243 0.145022 0.210861 255 220 0
0.222846 0.138429 0.184190 255 220 0
0.285982 0.193038 0.216060 255 220 0
0.361102 0.198703 0.253587 255 220 0
0.281198 0.193396 0.224162 255 220 0
0.337452 0.204657 0.229988 255 220 0
0.270529 0.182369 0.210857 255 220 0
0.214016 0.142253 0.193975 255 220 0
0.307871 0.179796 0.294726 255 220 0
0.301573 0.120547 0.263044 255 220 0
0.361575 0.189067 0.285740 255 220 0
0.357591 0.193584 0.243443 255 220 0
0.317877 0.124896 0.259093 255 220 0
0.341157 0.178102 0.297914 255 220 0
0.253000 0.120230 0.197233 255 220 0
0.260431 0.129084 0.193190 255 220 0
0.296865 0.204574 0.254485 255 220 0
0.333963 0.136061 0.265936 255 220 0
0.217467 0.139936 0.213100 255 220 0
0.243242 0.118184 0.243518 255 220 0
0.232674 0.145540 0.231427 255 220 0
0.232299 0.153677 0.186127 255 220 0
0.323039 0.159108 0.294840 255 220 0
0.291212 0.201732 0.243605 255 220 0
0.258865 0.139525 0.188908 255 220 0
0.261752 0.119320 0.261330 255 220 0
0.285600 0.196243 0.253218 255 220 0
0.297727 0.128955 0.211846 255 220 0
0.240935 0.146100 0.244115 255 220 0
0.309499 0.121802 0.233352 255 220 0
0.345946 0.164198 0.228520 255 220 0
0.348879 0.177446 0.294724 255 220 0
0.279615 0.166424 0.196601 255 220 0
0.306125 0.175699 0.202817 255 220 0
0.293612 0.119813 0.219768 255 220 0
0.266382 0.117279 0.206187 255 220 0
0.293914 0.203331 0.248340 255 220 0
0.355424 0.206556 0.252228 255 220 0
0.320148 0.204190 0.286965 255 220 0
0.324491 0.184398 0.211727 255 220 0
0.293587 0.126578 0.275851 255 220 0
0.323852 0.128521 0.261986 255 220 0
0.318287 0.190190 0.211424 255 220 0
0.357730 0.167405 0.279772 255 220 0
0.339143 0.150088 0.228972 255 220 0
0.344355 0.212572 0.275669 255 220 0
0.329923 0.176422 0.213571 255 220 0
0.353961 0.197526 0.240148 255 220 0
0.314635 0.146475 0.211256 255 220 0
0.254007 0.162657 0.249964 255 220 0
0.268177 0.137840 0.274349 255 220 0
0.291119 0.154527 0.198022 255 220 0
0.321378 0.158075 0.294646 255 220 0
0.223934 0.155975 0.202579 255 220 0
0.245736 0.109392 0.222052 255 220 0
0.331048 0.144176 0.282178 255 220 0
0.234897 0.139329 0.238384 255 220 0
0.355292 0.197410 0.288988 255 220 0
0.267462 0.153245 0.191178 255 220 0
0.245575 0.118319 0.246147 255 220 0
0.334542 0.134348 0.251193 255 220 0
0.363605 0.200375 0.267848 255 220 0
0.314374 0.149841 0.209731 255 220 0
0.306735 0.132212 0.279952 255 220 0
0.325583 0.129314 0.261337 255 220 0
0.281775 0.159945 0.283168 255 220 0
0.277893 0.151377 0.193895 255 220 0
0.279246 0.193171 0.233642 255 220 0
0.299159 0.185932 0.287166 255 220 0
0.335233 0.162624 0.218872 255 220 0
0.347174 0.212254 0.250627 255 220 0
0.289316 0.135650 0.202822 255 220 0
0.259082 0.137211 0.266840 255 220 0
0.281678 0.148849 0.283947 255 220 0
0.263241 0.132549 0.269712 255 220 0
0.238128 0.152282 0.185353 255 220 0
0.296620 0.189395 0.282811 255 220 0
0.355780 0.165755 0.244331 255 220 0
0.365049 0.176371 0.267161 255 220 0
0.353887 0.196150 0.290565 255 220 0
0.293116 0.194722 0.271974 255 220 0
0.260114 0.124684 0.264253 255 220 0
0.331476 0.210013 0.233657 255 220 0
0.238789 0.117824 0.238127 255 220 0
0.236765 0.152777 0.185514 255 220 0
0.239779 0.145450 0.242753 255 220 0
0.335864 0.216179 0.262881 255 220 0
0.293740 0.163331 0.198473 255 220 0
0.330150 0.214580 0.271004 255 220 0
0.219207 0.123261 0.210233 255 220 0
0.301824 0.136976 0.284400 255 220 0
0.260041 0.141375 0.188990 255 220 0
0.341479 0.143686 0.270344 255 220 0
0.324004 0.145018 0.218248 255 220 0
0.228931 0.159164 0.200942 255 220 0
0.350148 0.167177 0.232892 255 220 0
0.332028 0.134203 0.264389 255 220 0
0.340176 0.146687 0.277185 255 220 0
0.335400 0.216151 0.263472 255 220 0
0.283390 0.111334 0.237149 255 220 0
0.350516 0.159365 0.238938 255 220 0
0.289290 0.151345 0.288113 255 220 0
0.351913 0.192420 0.235581 255 220 0
0.245414 0.117105 0.199223 255 220 0
0.341215 0.166762 0.222761 255 220 0
0.241574 0.110298 0.217414 255 220 0
0.256995 0.151034 0.263113 255 220 0
0.261983 0.144965 0.189286 255 220 0
0.262732 0.174082 0.250345 255 220 0
0.265238 0.110810 0.244790 255 220 0
0.308634 0.121970 0.231491 255 220 0
0.294193 0.198669 0.266616 255 220 0
0.339931 0.142871 0.238233 255 220 0
0.330271 0.141292 0.279421 255 220 0
0.315754 0.124726 0.234622 255 220 0
0.293272 0.199327 0.263421 255 220 0
0.246994 0.112496 0.239540 255 220 0
0.283768 0.138323 0.199027 255 220 0
0.296250 0.203312 0.258558 255 220 0
0.268406 0.129246 0.196453 255 220 0
0.309475 0.131838 0.217343 255 220 0
0.253288 0.170767 0.204592 255 220 0
0.272817 0.112074 0.250441 255 220 0
0.358064 0.197127 0.286762 255 220 0
0.256116 0.119634 0.257473 255 220 0
0.228582 0.128395 0.230014 255 220 0
0.264164 0.169777 0.259682 255 220 0
0.296701 0.147808 0.289672 255 220 0
0.328936 0.156734 0.216172 255 220 0
0.364728 0.175918 0.263905 255 220 0
0.256616 0.108799 0.225589 255 220 0
0.328697 0.192897 0.216821 255 220 0
0.226070 0.126903 0.225990 255 220 0
0.287955 0.199410 0.245053 255 220 0
0.251762 0.164213 0.243254 255 220 0
0.245438 0.162728 0.194497 255 220 0
0.296025 0.187837 0.206566 255 220 0
0.310568 0.148971 0.207980 255 220 0
0.300116 0.204230 0.264874 255 220 0
0.343775 0.142668 0.261640 255 220 0
0.330166 0.147571 0.285998 255 220 0
0.356587 0.182050 0.290422 255 220 0
0.314157 0.126508 0.228368 255 220 0
0.305468 0.119066 0.252993 255 220 0
0.315609 0.193809 0.293086 255 220 0
0.300607 0.122652 0.268434 255 220 0
0.312432 0.166426 0.296509 255 220 0
0.361626 0.194173 0.284123 255 220 0
0.339382 0.158225 0.289609 255 220 0
0.229747 0.145784 0.226611 255 220 0
0.351066 0.211881 0.268945 255 220 0
0.274765 0.142926 0.279333 255 220 0
0.323220 0.206026 0.224969 255 220 0
0.328342 0.212661 0.238087 255 220 0
0.298248 0.166978 0.199738 255 220 0
0.328473 0.129879 0.253882 255 220 0
0.269898 0.121595 0.267883 255 220 0
0.275125 0.145080 0.193598 255 220 0
0.320593 0.141416 0.217983 255 220 0
0.356075 0.157177 0.261340 255 220 0
0.264472 0.161439 0.266814 255 220 0
0.321158 0.167674 0.208905 255 220 0
0.355507 0.182899 0.291408 255 220 0
0.361185 0.168853 0.256902 255 220 0
0.329006 0.163182 0.214332 255 220 0
0.246031 0.132673 0.186826 255 220 0
0.288328 0.122938 0.272076 255 220 0
0.294827 0.203851 0.249433 255 220 0
0.234236 0.128636 0.237699 255 220 0
0.296853 0.199637 0.269365 255 220 0
0.223916 0.154483 0.190671 255 220 0
0.235247 0.139055 0.238959 255 220 0
0.244910 0.161056 0.234625 255 220 0
0.354338 0.169685 0.238640 255 220 0
0.350684 0.212183 0.262616 255 220 0
0.233785 0.153632 0.186015 255 220 0
0.317900 0.158133 0.209032 255 220 0
0.247837 0.123411 0.252129 255 220 0
0.224239 0.150875 0.213044 255 220 0
0.299139 0.178656 0.202090 255 220 0
0.303726 0.151592 0.203786 255 220 0
0.330645 0.180246 0.299564 255 220 0
0.342192 0.144019 0.240800 255 220 0
0.343168 0.198606 0.229663 255 220 0
0.341880 0.146201 0.236701 255 220 0
0.360052 0.172218 0.249413 255 220 0
0.277002 0.185446 0.259165 255 220 0
0.306614 0.209581 0.239559 255 220 0
0.290210 0.200947 0.238188 255 220 0
0.238744 0.157899 0.227693 255 220 0
0.290345 0.169065 0.287301 255 220 0
0.331331 0.146639 0.223400 255 220 0
0.281403 0.114023 0.220616 255 220 0
0.234863 0.154371 0.225626 255 220 0
0.313374 0.213193 0.252231 255 220 0
0.329181 0.170400 0.297995 255 220 0
0.322235 0.215443 0.252603 255 220 0
0.311302 0.150029 0.207987 255 220 0
0.296014 0.185345 0.284963 255 220 0
0.356612 0.208316 0.270765 255 220 0
0.236374 0.117843 0.235200 255 220 0
0.279734 0.152878 0.194413 255 220 0
0.293381 0.203128 0.242584 255 220 0
0.334120 0.148622 0.224661 255 220 0
0.272918 0.188385 0.233535 255 220 0
0.292740 0.128400 0.209284 255 220 0
0.297936 0.115599 0.243457 255 220 0
0.252582 0.137318 0.260558 255 220 0
0.346521 0.150823 0.274990 255 220 0
0.342522 0.180606 0.297843 255 220 0
0.303204 0.123116 0.268140 255 220 0
0.289481 0.200423 0.237254 255 220 0
0.326859 0.129257 0.244610 255 220 0
0.312930 0.154575 0.207388 255 220 0
0.317470 0.202738 0.287192 255 220 0
0.273185 0.149226 0.278050 255 220 0
0.227005 0.144149 0.223876 255 220 0
0.326662 0.128734 0.253915 255 220 0
0.323971 0.215183 0.263420 255 220 0
0.264191 0.123357 0.198697 255 220 0
0.297698 0.204100 0.231555 255 220 0
0.235814 0.133167 0.240385 255 220 0
0.332755 0.212718 0.277079 255 220 0
0.267532 0.124558 0.199210 255 220 0
0.246444 0.160377 0.238426 255 220 0
0.312146 0.195180 0.212997 255 220 0
0.361950 0.201279 0.260924 255 220 0
0.297253 0.115614 0.236192 255 220 0
0.322640 0.174339 0.209351 255 220 0
0.276428 0.119865 0.208150 255 220 0
0.318297 0.152094 0.211131 255 220 0
0.233309 0.134768 0.183689 255 220 0
0.341988 0.155217 0.285399 255 220 0
0.330145 0.193756 0.217946 255 220 0
0.288125 0.186918 0.275719 255 220 0
0.285286 0.197292 0.232181 255 220 0
0.349951 0.206683 0.243129 255 220 0
0.342027 0.140606 0.257520 255 220 0
0.309606 0.206787 0.274670 255 220 0
0.299252 0.183821 0.204270 255 220 0
0.326730 0.136321 0.228489 255 220 0
0.362285 0.171709 0.257214 255 220 0
0.261712 0.139656 0.269248 255 220 0
0.339210 0.201540 0.291933 255 220 0
0.334912 0.137439 0.267793 255 220 0
0.234997 0.122279 0.236459 255 220 0
0.340086 0.210238 0.281676 255 220 0
0.337160 0.147012 0.280625 255 220 0
0.289161 0.165248 0.287449 255 220 0
0.289850 0.141902 0.285589 255 220 0
0.223226 0.152567 0.209315 255 220 0
0.316170 0.184537 0.297124 255 220 0
0.326674 0.182901 0.212484 255 220 0
0.246056 0.163046 0.233752 255 220 0
0.272085 0.153910 0.276460 255 220 0
0.306059 0.186523 0.291585 255 220 0
0.249828 0.109233 0.228777 255 220 0
0.277717 0.158780 0.194352 255 220 0
0.272227 0.133367 0.196017 255 220 0
0.282952 0.159249 0.284201 255 220 0
0.275736 0.163859 0.195332 255 220 0
0.273689 0.122812 0.203638 255 220 0
0.297551 0.197384 0.216164 255 220 0
0.279917 0.125361 0.204612 255 220 0
0.335034 0.178351 0.299108 255 220 0
0.216055 0.131126 0.209470 255 220 0
0.312414 0.170906 0.296871 255 220 0
0.318102 0.144693 0.214234 255 220 0
0.255971 0.108892 0.223344 255 220 0
0.303416 0.126134 0.273305 255 220 0
0.229701 0.152465 0.219270 255 220 0
0.263664 0.113070 0.211686 255 220 0
0.298495 0.205901 0.239471 255 220 0
0.214038 0.145629 0.198573 255 220 0
0.253261 0.109866 0.235380 255 220 0
0.350338 0.191151 0.233400 255 220 0
0.310618 0.124148 0.265773 255 220 0
0.266748 0.182814 0.218864 255 220 0
0.238217 0.136803 0.243473 255 220 0
0.277410 0.175857 0.272520 255 220 0
0.236113 0.123946 0.238669 255 220 0
0.257612 0.110559 0.240996 255 220 0
0.316885 0.128789 0.227650 255 220 0
0.329603 0.215875 0.264198 255 220 0
0.254589 0.128222 0.261047 255 220 0
0.290830 0.195160 0.216185 255 220 0
0.236360 0.159408 0.191901 255 220 0
0.301765 0.200269 0.276080 255 220 0
0.316445 0.149438 0.211058 255 220 0
0.309561 0.151088 0.292692 255 220 0
0.241969 0.151475 0.241305 255 220 0
0.261080 0.154042 0.189962 255 220 0
0.305220 0.155605 0.293720 255 220 0
0.289097 0.164499 0.197520 255 220 0
0.223908 0.155407 0.204653 255 220 0
0.271241 0.109704 0.236995 255 220 0
0.347351 0.172583 0.228035 255 220 0
0.250580 0.143754 0.257947 255 220 0
0.319971 0.211818 0.235982 255 220 0
0.341074 0.155972 0.227190 255 220 0
0.292451 0.201924 0.234311 255 220 0
0.344591 0.150685 0.277459 255 220 0
0.285895 0.145785 0.285592 255 220 0
0.349337 0.201504 0.237378 255 220 0
0.290342 0.114670 0.251816 255 220 0
0.301393 0.116852 0.241621 255 220 0
0.322678 0.203876 0.288287 255 220 0
0.230067 0.115293 0.223283 255 220 0
0.319854 0.214999 0.254334 255 220 0
0.274762 0.127772 0.200242 255 220 0
0.257268 0.157469 0.190555 255 220 0
0.318313 0.140301 0.217035 255 220 0
0.259716 0.177687 0.217076 255 220 0
0.250251 0.121502 0.195120 255 220 0
0.365380 0.183807 0.258967 255 220 0
0.325110 0.203053 0.289821 255 220 0
0.344613 0.166217 0.226227 255 220 0
0.366019 0.184238 0.261445 255 220 0
0.310434 0.121786 0.235048 255 220 0
0.297894 0.205797 0.249442 255 220 0
0.308278 0.138868 0.285728 255 220 0
0.257840 0.129556 0.191955 255 220 0
0.261536 0.109552 0.236972 255 220 0
0.255434 0.122209 0.196110 255 220 0
0.339470 0.155544 0.225674 255 220 0
0.262177 0.167778 0.258640 255 220 0
0.299449 0.141834 0.205135 255 220 0
0.249234 0.161492 0.242181 255 220 0
0.248450 0.112535 0.207985 255 220 0
0.320294 0.143061 0.286491 255 220 0
0.277739 0.112361 0.250407 255 220 0
0.356055 0.166209 0.281284 255 220 0
0.259210 0.175202 0.208813 255 220 0
0.303091 0.132936 0.212046 255 220 0
0.306557 0.196879 0.213984 255 220 0
0.324398 0.129898 0.265423 255 220 0
0.240426 0.124493 0.244194 255 220 0
0.293098 0.191508 0.276905 255 220 0
0.320421 0.213739 0.242226 255 220 0
0.318803 0.160653 0.295678 255 220 0
0.253757 0.166580 0.197631 255 220 0
0.213582 0.143841 0.198695 255 220 0
0.271031 0.175257 0.264490 255 220 0
0.252741 0.172285 0.226118 255 220 0
0.333403 0.155156 0.290264 255 220 0
0.273451 0.178476 0.264304 255 220 0
0.289951 0.112961 0.237822 255 220 0
0.316676 0.186270 0.296832 255 220 0
0.275295 0.153959 0.193208 255 220 0
0.226427 0.148612 0.218842 255 220 0
0.349129 0.211265 0.250945 255 220 0
0.279295 0.188927 0.257121 255 220 0
0.217314 0.139949 0.212829 255 220 0
0.270146 0.185651 0.239230 255 220 0
0.345136 0.162210 0.289144 255 220 0
0.220743 0.122272 0.213337 255 220 0
0.362809 0.185458 0.251479 255 220 0
0.243143 0.157046 0.188923 255 220 0
0.319191 0.126066 0.261475 255 220 0
0.321240 0.196382 0.293763 255 220 0
0.348410 0.208018 0.243162 255 220 0
0.250993 0.171635 0.219308 255 220 0
0.287209 0.170103 0.198366 255 220 0
0.356958 0.163371 0.275603 255 220 0
0.223352 0.136070 0.184676 255 220 0
0.264346 0.122554 0.265790 255 220 0
0.354495 0.194634 0.239486 255 220 0
0.335060 0.216363 0.257843 255 220 0
0.333010 0.164630 0.216707 255 220 0
0.366431 0.182097 0.265570 255 220 0
0.356729 0.207228 0.275868 255 220 0
0.297689 0.137701 0.206115 255 220 0
0.253091 0.170255 0.235284 255 220 0
0.282079 0.187223 0.265715 255 220 0
0.259096 0.174683 0.207711 255 220 0
0.308063 0.187773 0.207556 255 220 0
0.349557 0.151997 0.271718 255 220 0
0.326476 0.147338 0.287520 255 220 0
0.259892 0.178234 0.223813 255 220 0
0.356020 0.197981 0.243201 255 220 0
0.269967 0.178178 0.258168 255 220 0
0.240546 0.164643 0.200705 255 220 0
0.224858 0.116575 0.210789 255 220 0
0.242123 0.165996 0.213539 255 220 0
0.227288 0.151828 0.185651 255 220 0
0.286889 0.185470 0.205939 255 220 0
0.344792 0.171161 0.225425 255 220 0
0.350393 0.190113 0.294264 255 220 0
0.345746 0.147564 0.270473 255 220 0
0.229984 0.153379 0.186221 255 220 0
0.298433 0.205020 0.234136 255 220 0
0.287261 0.199022 0.239343 255 220 0
0.286797 0.118075 0.263949 255 220 0
0.248528 0.169168 0.205522 255 220 0
0.346137 0.173330 0.294861 255 220 0
0.271776 0.120242 0.205281 255 220 0
0.283192 0.116806 0.262121 255 220 0
0.286909 0.117359 0.218459 255 220 0
0.242178 0.140686 0.183942 255 220 0
0.256392 0.170583 0.202192 255 220 0
0.265008 0.180877 0.239896 255 220 0
0.289826 0.193445 0.213992 255 220 0
0.343366 0.205707 0.287305 255 220 0
0.232451 0.115240 0.205089 255 220 0
0.235027 0.155602 0.224181 255 220 0
0.288179 0.138008 0.283540 255 220 0
0.234211 0.113217 0.210109 255 220 0
0.325369 0.215830 0.259696 255 220 0
0.268901 0.184820 0.221990 255 220 0
0.336556 0.212083 0.278605 255 220 0
0.328852 0.131463 0.241122 255 220 0
0.344724 0.160309 0.287899 255 220 0
0.351597 0.211380 0.271147 255 220 0
0.345103 0.166280 0.226741 255 220 0
0.279926 0.184976 0.265671 255 220 0
0.327411 0.194944 0.217234 255 220 0
0.342491 0.148222 0.276599 255 220 0
0.351024 0.210856 0.274869 255 220 0
0.338496 0.183062 0.220239 255 220 0
0.252489 0.170681 0.205154 255 220 0
0.364799 0.196841 0.263689 255 220 0
0.266536 0.139209 0.191663 255 220 0
0.231619 0.113354 0.212349 255 220 0
0.311311 0.208836 0.271913 255 220 0
0.223821 0.120002 0.200235 255 220 0
0.335971 0.197508 0.294980 255 220 0
0.259965 0.128748 0.265964 255 220 0
0.319770 0.202735 0.220673 255 220 0
0.365693 0.178468 0.269236 255 220 0
0.291754 0.123552 0.272433 255 220 0
0.266838 0.158940 0.192446 255 220 0
0.227067 0.156141 0.208756 255 220 0
0.341325 0.144452 0.272087 255 220 0
0.302657 0.127139 0.217063 255 220 0
0.341560 0.178859 0.222323 255 220 0
0.261846 0.108867 0.229266 255 220 0
0.304692 0.126796 0.219082 255 220 0
0.252130 0.171881 0.225372 255 220 0
0.318969 0.159976 0.295473 255 220 0
0.289786 0.132408 0.204831 255 220 0
0.308930 0.160480 0.295168 255 220 0
0.324572 0.134507 0.274590 255 220 0
0.328168 0.130392 0.259301 255 220 0
0.275509 0.185570 0.255900 255 220 0
0.340405 0.212203 0.277824 255 220 0
0.342069 0.165063 0.292779 255 220 0
0.289840 0.118016 0.219671 255 220 0
0.296432 0.116025 0.231999 255 220 0
0.215506 0.145010 0.191486 255 220 0
0.254090 0.135804 0.262034 255 220 0
0.316486 0.198165 0.290657 255 220 0
0.305208 0.204860 0.225819 255 220 0
0.288959 0.150083 0.197902 255 220 0
0.224685 0.153761 0.209531 255 220 0
0.314624 0.122239 0.246614 255 220 0
0.303135 0.146732 0.205050 255 220 0
0.232653 0.157817 0.215700 255 220 0
0.271423 0.114421 0.257577 255 220 0
0.297504 0.205418 0.251155 255 220 0
0.357253 0.200856 0.247337 255 220 0
0.272896 0.113688 0.255744 255 220 0
0.364741 0.177966 0.275385 255 220 0
0.306696 0.119603 0.236872 255 220 0
0.363403 0.191507 0.282540 255 220 0
0.272748 0.125031 0.271947 255 220 0
0.241832 0.116011 0.200712 255 220 0
0.281425 0.181983 0.204449 255 220 0
0.330004 0.204071 0.289784 255 220 0
0.251957 0.141617 0.186493 255 220 0
0.281952 0.168307 0.197409 255 220 0
0.305577 0.195664 0.285606 255 220 0
0.265740 0.179706 0.210858 255 220 0
0.356872 0.208059 0.265468 255 220 0
0.357194 0.186057 0.241192 255 220 0
0.254270 0.163113 0.249858 255 220 0
0.293579 0.115947 0.254160 255 220 0
0.326097 0.146966 0.218690 255 220 0
0.246868 0.140996 0.254045 255 220 0
0.270992 0.109479 0.234012 255 220 0
0.282437 0.193303 0.221096 255 220 0
0.308897 0.174364 0.203449 255 220 0
0.349264 0.179156 0.294876 255 220 0
0.321545 0.125656 0.250723 255 220 0
0.272750 0.137568 0.194576 255 220 0
0.225500 0.145120 0.183076 255 220 0
0.243884 0.150423 0.245541 255 220 0
0.226868 0.151829 0.215622 255 220 0
0.354127 0.196401 0.239794 255 220 0
0.358826 0.161975 0.262890 255 220 0
0.348305 0.167355 0.290597 255 220 0
0.332875 0.175430 0.215466 255 220 0
0.307718 0.201276 0.218869 255 220 0
0.259145 0.108820 0.226029 255 220 0
0.250758 0.171569 0.215011 255 220 0
0.308648 0.121446 0.233119 255 220 0
0.284841 0.116994 0.217518 255 220 0
0.235910 0.112118 0.212885 255 220 0
0.351057 0.150544 0.253670 255 220 0
0.280481 0.128392 0.276809 255 220 0
0.314659 0.161833 0.295952 255 220 0
0.312167 0.210082 0.234720 255 220 0
0.339039 0.144265 0.274970 255 220 0
0.290064 0.140407 0.201132 255 220 0
0.339342 0.208905 0.236441 255 220 0
0.215079 0.136214 0.208840 255 220 0
0.345963 0.198289 0.231971 255 220 0
0.342003 0.141903 0.264743 255 220 0
0.221808 0.139708 0.219591 255 220 0
0.359818 0.172429 0.248645 255 220 0
0.333413 0.167391 0.216455 255 220 0
0.338689 0.201169 0.227775 255 220 0
0.317759 0.144945 0.288619 255 220 0
0.315368 0.123087 0.240685 255 220 0
0.349841 0.149908 0.266176 255 220 0
0.218453 0.147630 0.188574 255 220 0
0.297454 0.140458 0.286295 255 220 0
0.332293 0.142043 0.228414 255 220 0
0.304124 0.150566 0.292107 255 220 0
0.358164 0.163116 0.254536 255 220 0
0.323889 0.151069 0.290889 255 220 0
0.255595 0.108839 0.227994 255 220 0
0.324622 0.207464 0.284708 255 220 0
0.310171 0.204209 0.280029 255 220 0
0.286133 0.151842 0.286638 255 220 0
0.281726 0.187682 0.210433 255 220 0
0.345183 0.191426 0.228189 255 220 0
0.333389 0.148590 0.223977 255 220 0
0.326267 0.149124 0.217631 255 220 0
0.282482 0.114303 0.255506 255 220 0
0.260025 0.123703 0.196611 255 220 0
0.265602 0.138606 0.191476 255 220 0
0.307957 0.136028 0.212913 255 220 0
0.278162 0.192381 0.234156 255 220 0
0.290186 0.173572 0.285739 255 220 0
0.275468 0.179251 0.266638 255 220 0
0.235490 0.127564 0.239103 255 220 0
0.283200 0.187075 0.268031 255 220 0
0.317159 0.196706 0.215055 255 220 0
0.278123 0.111035 0.243282 255 220 0
0.264015 0.129508 0.194404 255 220 0
0.362878 0.182779 0.283400 255 220 0
0.275692 0.174663 0.271387 255 220 0
0.321693 0.188612 0.211929 255 220 0
0.268020 0.148130 0.190990 255 220 0
0.278026 0.111069 0.243616 255 220 0
0.263138 0.180756 0.226775 255 220 0
0.265574 0.137668 0.272366 255 220 0
0.229934 0.131651 0.185058 255 220 0
0.332343 0.191452 0.297861 255 220 0
0.307303 0.125238 0.270218 255 220 0
0.311065 0.158565 0.295010 255 220 0
0.309147 0.173535 0.203439 255 220 0
0.334131 0.197486 0.222114 255 220 0
0.241233 0.119477 0.195529 255 220 0
0.218246 0.124550 0.209111 255 220 0
0.221746 0.131326 0.188212 255 220 0
0.320655 0.125317 0.252948 255 220 0
0.347492 0.150523 0.242170 255 220 0
0.321225 0.205907 0.285429 255 220 0
0.343945 0.142989 0.249186 255 220 0
0.224843 0.132121 0.185910 255 220 0
0.302753 0.186930 0.289263 255 220 0
0.291223 0.201112 0.233543 255 220 0
0.287649 0.130011 0.205234 255 220 0
0.234988 0.157477 0.189588 255 220 0
0.354487 0.154721 0.259999 255 220 0
0.287353 0.166745 0.285791 255 220 0
0.230947 0.138917 0.182414 255 220 0
0.218309 0.151971 0.195003 255 220 0
0.227767 0.123963 0.227329 255 220 0
0.220063 0.149529 0.208938 255 220 0
0.349835 0.156484 0.240376 255 220 0
0.255408 0.115625 0.203918 255 220 0
0.305546 0.120554 0.231063 255 220 0
0.228194 0.151042 0.184855 255 220 0
0.257659 0.155494 0.189799 255 220 0
0.330408 0.204442 0.289458 255 220 0
0.346657 0.150932 0.274957 255 220 0
0.282845 0.147361 0.196053 255 220 0
0.285813 0.112052 0.233517 255 220 0
0.300750 0.200942 0.220490 255 220 0
0.314071 0.144417 0.288979 255 220 0
0.252273 0.169946 0.233824 255 220 0
0.324224 0.147368 0.217058 255 220 0
0.339833 0.194036 0.224457 255 220 0
0.362815 0.188722 0.284075 255 220 0
0.280314 0.118095 0.212752 255 220 0
0.361016 0.194737 0.284642 255 220 0
0.310380 0.203781 0.280858 255 220 0
0.297268 0.137988 0.205755 255 220 0
0.306864 0.209373 0.237991 255 220 0
0.367232 0.188480 0.271044 255 220 0
0.287266 0.112269 0.239138 255 220 0
0.265323 0.133032 0.271408 255 220 0
0.296440 0.151643 0.290794 255 220 0
0.314799 0.212733 0.242563 255 220 0
0.249852 0.163147 0.194372 255 220 0
0.290969 0.199224 0.258488 255 220 0
0.252801 0.171645 0.207583 255 220 0
0.302583 0.149141 0.203980 255 220 0
0.355945 0.187846 0.291198 255 220 0
0.326483 0.216106 0.256821 255 220 0
0.317255 0.179964 0.207458 255 220 0
0.344515 0.205192 0.236036 255 220 0
0.267856 0.184237 0.223442 255 220 0
0.339960 0.152713 0.284495 255 220 0
0.259156 0.156950 0.190585 255 220 0
0.350000 0.150480 0.249275 255 220 0
0.322420 0.129835 0.232857 255 220 0
0.296833 0.168251 0.199493 255 220 0
0.291874 0.147775 0.288272 255 220 0
0.256581 0.151415 0.262524 255 220 0
0.259875 0.165199 0.195430 255 220 0
0.340292 0.214531 0.249462 255 220 0
0.222684 0.146190 0.216034 255 220 0
0.250872 0.152652 0.187572 255 220 0
0.238735 0.149805 0.237470 255 220 0
0.259492 0.154866 0.264387 255 220 0
0.309926 0.134328 0.281503 255 220 0
0.291843 0.158305 0.289819 255 220 0
0.274486 0.152054 0.278730 255 220 0
0.356608 0.205155 0.252142 255 220 0
0.295232 0.116316 0.254040 255 220 0
0.277886 0.150911 0.281428 255 220 0
0.221149 0.133591 0.187198 255 220 0
0.286324 0.181269 0.278420 255 220 0
0.323777 0.131301 0.232082 255 220 0
0.226946 0.123399 0.225805 255 220 0
0.336051 0.190487 0.298059 255 220 0
0.277749 0.173783 0.274263 255 220 0
0.234779 0.128782 0.186761 255 220 0
0.291715 0.113537 0.241359 255 220 0
0.350972 0.212028 0.262680 255 220 0
0.357973 0.200437 0.284365 255 220 0
0.348518 0.194709 0.232725 255 220 0
0.363091 0.172546 0.272497 255 220 0
0.261218 0.112326 0.212128 255 220 0
0.285997 0.195036 0.258084 255 220 0
0.357990 0.162192 0.270121 255 220 0
0.340354 0.140082 0.263178 255 220 0
0.298811 0.121115 0.222215 255 220 0
0.214275 0.134693 0.195910 255 220 0
0.292442 0.202358 0.248030 255 220 0
0.244714 0.109470 0.223822 255 220 0
0.343895 0.180510 0.224634 255 220 0
0.270218 0.184321 0.245597 255 220 0
0.333387 0.134429 0.244022 255 220 0
0.284338 0.111791 0.241679 255 220 0
0.305107 0.175585 0.202520 255 220 0
0.280119 0.181097 0.271377 255 220 0
0.266478 0.147530 0.272807 255 220 0
0.227582 0.128633 0.228663 255 220 0
0.276418 0.117040 0.263406 255 220 0
0.359722 0.164647 0.258423 255 220 0
0.285359 0.113489 0.250860 255 220 0
0.265535 0.110100 0.241131 255 220 0
0.275413 0.125683 0.273420 255 220 0
0.338100 0.160207 0.222016 255 220 0
0.318952 0.127105 0.233499 255 220 0
0.259646 0.163496 0.194190 255 220 0
0.315136 0.124492 0.234272 255 220 0
0.343809 0.213226 0.248825 255 220 0
0.360445 0.165220 0.264409 255 220 0
0.279797 0.189313 0.214735 255 220 0
0.282607 0.195684 0.236978 255 220 0
0.334970 0.207280 0.286431 255 220 0
0.296231 0.129600 0.210396 255 220 0
0.282589 0.111357 0.231889 255 220 0
0.346438 0.213491 0.270318 255 220 0
0.264579 0.137165 0.271532 255 220 0
0.353192 0.207902 0.279683 255 220 0
0.252840 0.158884 0.252439 255 220 0
0.215166 0.129636 0.203144 255 220 0
0.259408 0.177697 0.219059 255 220 0
0.253138 0.170723 0.204627 255 220 0
0.253672 0.120417 0.255995 255 220 0
0.296714 0.145722 0.202365 255 220 0
0.333934 0.180877 0.216556 255 220 0
0.320870 0.156762 0.211068 255 220 0
0.275534 0.147024 0.279936 255 220 0
0.284950 0.197300 0.235343 255 220 0
0.341975 0.152723 0.282815 255 220 0
0.248421 0.109156 0.222528 255 220 0
0.344371 0.214624 0.265365 255 220 0
0.341227 0.215548 0.258080 255 220 0
0.326794 0.211312 0.278868 255 220 0
0.301799 0.137494 0.208433 255 220 0
0.275683 0.184717 0.257861 255 220 0
0.242287 0.166469 0.207976 255 220 0
0.286980 0.122512 0.211417 255 220 0
0.288544 0.112777 0.234106 255 220 0
0.338928 0.203031 0.229508 255 220 0
0.217793 0.150001 0.191931 255 220 0
0.256277 0.174712 0.230314 255 220 0
0.230625 0.157071 0.213300 255 220 0
0.289521 0.159598 0.197260 255 220 0
0.273726 0.116439 0.262095 255 220 0
0.277582 0.188368 0.215240 255 220 0
0.312004 0.185966 0.294989 255 220 0
0.286947 0.139489 0.283918 255 220 0
0.351019 0.173123 0.232508 255 220 0
0.351316 0.207467 0.281961 255 220 0
0.303281 0.123031 0.267927 255 220 0
0.324171 0.191901 0.296858 255 220 0
0.298496 0.195061 0.279365 255 220 0
0.308300 0.138310 0.211682 255 220 0
0.280394 0.156639 0.282690 255 220 0
0.359195 0.165444 0.272948 255 220 0
0.336807 0.159939 0.221005 255 220 0
0.285528 0.195394 0.255879 255 220 0
0.262494 0.108878 0.229278 255 220 0
0.367082 0.184972 0.268405 255 220 0
0.335824 0.141226 0.274029 255 220 0
0.310865 0.122416 0.233588 255 220 0
0.352864 0.171282 0.289451 255 220 0
0.362297 0.171664 0.257329 255 220 0
0.362917 0.190562 0.252437 255 220 0
0.334280 0.216414 0.258800 255 220 0
0.228166 0.138318 0.182668 255 220 0
0.334989 0.194170 0.220962 255 220 0
0.278495 0.134500 0.198270 255 220 0
0.255181 0.166914 0.246137 255 220 0
0.231340 0.124990 0.232823 255 220 0
0.335121 0.149864 0.285150 255 220 0
0.344837 0.144195 0.263998 255 220 0
0.282170 0.194012 0.250272 255 220 0
0.300682 0.197095 0.279457 255 220 0
0.305816 0.206181 0.228532 255 220 0
0.294555 0.180905 0.202534 255 220 0
0.319819 0.205546 0.285233 255 220 0
0.262940 0.128956 0.194260 255 220 0
0.362343 0.183576 0.250499 255 220 0
0.330465 0.158346 0.293120 255 220 0
0.235121 0.111690 0.222732 255 220 0
0.286376 0.112755 0.246201 255 220 0
0.282415 0.119516 0.267537 255 220 0
0.275819 0.144756 0.193903 255 220 0
0.257354 0.165639 0.252437 255 220 0
0.350045 0.149553 0.264267 255 220 0
0.322699 0.212467 0.273730 255 220 0
0.238447 0.156915 0.188685 255 220 0
0.274028 0.147868 0.192871 255 220 0
0.286579 0.174938 0.199916 255 220 0
0.233337 0.155674 0.220932 255 220 0
0.309801 0.124641 0.226920 255 220 0
0.302212 0.137355 0.208741 255 220 0
0.276357 0.171139 0.274330 255 220 0
0.267952 0.158639 0.271562 255 220 0
0.258980 0.131027 0.265834 255 220 0
0.301392 0.206890 0.257966 255 220 0
0.271450 0.182227 0.209785 255 220 0
0.276541 0.110404 0.239677 255 220 0
0.354047 0.182813 0.236432 255 220 0
0.338620 0.149339 0.282012 255 220 0
0.296212 0.147646 0.201531 255 220 0
0.327497 0.189086 0.298373 255 220 0
0.276216 0.151567 0.280133 255 220 0
0.230125 0.158367 0.193254 255 220 0
0.328387 0.202442 0.291067 255 220 0
0.255153 0.110802 0.213689 255 220 0
0.337064 0.210278 0.237031 255 220 0
0.315845 0.210165 0.273886 255 220 0
0.300071 0.186155 0.287735 255 220 0
0.256399 0.169705 0.244221 255 220 0
0.268198 0.120577 0.266134 255 220 0
0.302045 0.180981 0.291303 255 220 0
0.284924 0.115302 0.257564 255 220 0
0.237187 0.162822 0.211879 255 220 0
0.324290 0.204922 0.287711 255 220 0
0.282452 0.189134 0.262988 255 220 0
0.276875 0.172877 0.199287 255 220 0
0.290375 0.113289 0.243082 255 220 0
0.272671 0.147649 0.277790 255 220 0
0.308694 0.157368 0.294548 255 220 0
0.335961 0.216126 0.254418 255 220 0
0.357909 0.161603 0.268968 255 220 0
0.259459 0.161687 0.260365 255 220 0
0.257038 0.127398 0.192843 255 220 0
0.339197 0.146830 0.231943 255 220 0
0.219803 0.138975 0.217134 255 220 0
0.322246 0.197473 0.293378 255 220 0
0.282758 0.171556 0.198580 255 220 0
0.251760 0.126115 0.191851 255 220 0
0.354028 0.164925 0.241190 255 220 0
0.250695 0.165134 0.196510 255 220 0
0.360116 0.192314 0.286747 255 220 0
0.315461 0.161631 0.206916 255 220 0
0.296777 0.116242 0.251936 255 220 0
0.361657 0.183792 0.248969 255 220 0
0.230971 0.147335 0.182860 255 220 0
0.270008 0.116475 0.209143 255 220 0
0.281710 0.137195 0.198555 255 220 0
0.297696 0.202085 0.225129 255 220 0
0.267541 0.181312 0.246659 255 220 0
0.354980 0.193372 0.290891 255 220 0
0.277726 0.166248 0.277917 255 220 0
0.257553 0.132420 0.190531 255 220 0
0.294728 0.153336 0.290612 255 220 0
0.227309 0.152221 0.185940 255 220 0
0.240445 0.111464 0.212299 255 220 0
0.252226 0.129368 0.259101 255 220 0
0.359185 0.163531 0.268223 255 220 0
0.365969 0.179516 0.270108 255 220 0
0.335546 0.135834 0.261095 255 220 0
0.232945 0.148991 0.183436 255 220 0
0.304426 0.155521 0.293570 255 220 0
0.319868 0.214892 0.257664 255 220 0
0.230748 0.119014 0.228575 255 220 0
0.249114 0.170496 0.212842 255 220 0
0.261970 0.141781 0.189560 255 220 0
0.251667 0.111020 0.239238 255 220 0
0.322519 0.130471 0.269212 255 220 0
0.248908 0.130165 0.188671 255 220 0
0.338009 0.163451 0.220836 255 220 0
0.325023 0.161467 0.295489 255 220 0
0.365748 0.196072 0.269999 255 220 0
0.325300 0.170012 0.210965 255 220 0
0.245763 0.167064 0.222696 255 220 0
0.254585 0.152812 0.188345 255 220 0
0.339274 0.215897 0.261422 255 220 0
0.219664 0.140203 0.216359 255 220 0
0.245236 0.162962 0.232208 255 220 0
0.333889 0.133789 0.254674 255 220 0
0.327535 0.129914 0.243564 255 220 0
0.234099 0.111868 0.220614 255 220 0
0.302025 0.203996 0.226029 255 220 0
0.274583 0.152324 0.278769 255 220 0
0.315903 0.130127 0.273900 255 220 0
0.245175 0.167951 0.207443 255 220 0
0.216720 0.127853 0.208360 255 220 0
0.284819 0.170364 0.282598 255 220 0
0.330071 0.132618 0.240534 255 220 0
0.354136 0.169417 0.238413 255 220 0
0.303228 0.208817 0.246632 255 220 0
0.303936 0.120060 0.230170 255 220 0
0.312130 0.124248 0.264669 255 220 0
0.238839 0.153027 0.185838 255 220 0
0.290389 0.158735 0.289060 255 220 0
0.350914 0.150217 0.262811 255 220 0
0.341063 0.150571 0.230994 255 220 0
0.343174 0.163192 0.225751 255 220 0
0.241453 0.122395 0.244399 255 220 0
0.282858 0.124542 0.206910 255 220 0
0.267606 0.130813 0.272342 255 220 0
0.314293 0.126973 0.269308 255 220 0
0.256798 0.156072 0.260631 255 220 0
0.271279 0.116747 0.209401 255 220 0
0.297899 0.202045 0.266146 255 220 0
0.235394 0.136401 0.239693 255 220 0
0.314603 0.143387 0.288213 255 220 0
0.283616 0.193680 0.220282 255 220 0
0.287904 0.126603 0.207971 255 220 0
0.271261 0.125951 0.199868 255 220 0
0.318664 0.192159 0.295212 255 220 0
0.344079 0.174570 0.224492 255 220 0
0.343767 0.200903 0.231695 255 220 0
