ply
format ascii 1.0
element vertex 1024
property float x
property float y
property float z
property uchar red
property uchar green
property uchar blue
end_header
0.336890 0.209169 0.284685 255 220 0
0.270432 0.184541 0.225638 255 220 0
0.260089 0.113707 0.191144 255 220 0
0.257681 0.136510 0.261856 255 220 0
0.345752 0.172241 0.235115 255 220 0
0.271493 0.170405 0.269231 255 220 0
0.337930 0.167631 0.225237 255 220 0
0.275503 0.185923 0.216251 255 220 0
0.333439 0.173396 0.221024 255 220 0
0.243282 0.148902 0.184331 255 220 0
0.288787 0.187476 0.280907 255 220 0
0.282752 0.107739 0.254578 255 220 0
0.282702 0.191706 0.263712 255 220 0
0.301542 0.162408 0.295860 255 220 0
0.257436 0.110728 0.251685 255 220 0
0.225866 0.145021 0.198297 255 220 0
0.340093 0.204482 0.242874 255 220 0
0.326129 0.211631 0.280323 255 220 0
0.280864 0.194356 0.232757 255 220 0
0.258257 0.163862 0.197895 255 220 0
0.318241 0.209864 0.236080 255 220 0
0.339943 0.166242 0.293721 255 220 0
0.289554 0.109718 0.255448 255 220 0
0.334359 0.201399 0.293855 255 220 0
0.239741 0.118186 0.180825 255 220 0
0.306816 0.151087 0.204259 255 220 0
0.334023 0.212444 0.278312 255 220 0
0.349594 0.205111 0.278785 255 220 0
0.295041 0.195402 0.216809 255 220 0
0.345825 0.172954 0.292701 255 220 0
0.318312 0.186703 0.300508 255 220 0
0.268896 0.169362 0.265665 255 220 0
0.243880 0.117396 0.240695 255 220 0
0.242210 0.142552 0.179775 255 220 0
0.296340 0.131467 0.203064 255 220 0
0.269654 0.182903 0.243872 255 220 0
0.338966 0.155034 0.230214 255 220 0
0.329684 0.201914 0.293664 255 220 0
0.289934 0.167626 0.198190 255 220 0
0.263764 0.128605 0.266902 255 220 0
0.319943 0.135940 0.219557 255 220 0
0.331194 0.131386 0.252876 255 220 0
0.308988 0.210146 0.271876 255 220 0
0.315046 0.137437 0.285203 255 220 0
0.337005 0.180167 0.299695 255 220 0
0.241842 0.152747 0.223551 255 220 0
0.286737 0.193402 0.218302 255 220 0
0.293766 0.199493 0.272818 255 220 0
0.347253 0.205599 0.282542 255 220 0
0.348671 0.161874 0.279775 255 220 0
0.282447 0.194835 0.228814 255 220 0
0.321277 0.214208 0.270628 255 220 0
0.250832 0.163212 0.228161 255 220 0
0.234473 0.151703 0.202931 255 220 0
0.228723 0.138589 0.212940 255 220 0
0.220107 0.138394 0.198549 255 220 0
0.343914 0.194537 0.294887 255 220 0
0.243333 0.121434 0.179974 255 220 0
0.238437 0.153774 0.209993 255 220 0
0.275223 0.145342 0.189530 255 220 0
0.353289 0.178118 0.286160 255 220 0
0.282673 0.194901 0.228421 255 220 0
0.278749 0.105299 0.248784 255 220 0
0.305846 0.116848 0.226566 255 220 0
0.261733 0.166931 0.199866 255 220 0
0.305509 0.180711 0.206328 255 220 0
0.259040 0.124895 0.184420 255 220 0
0.306249 0.208833 0.236949 255 220 0
0.343707 0.161236 0.286608 255 220 0
0.336213 0.195604 0.297201 255 220 0
0.309817 0.124329 0.219640 255 220 0
0.305020 0.114850 0.254033 255 220 0
0.298521 0.191597 0.288451 255 220 0
0.337492 0.156830 0.288684 255 220 0
0.224642 0.134177 0.209717 255 220 0
0.285750 0.147318 0.193884 255 220 0
0.327259 0.146285 0.286779 255 220 0
0.237983 0.147993 0.221416 255 220 0
0.273612 0.156752 0.276930 255 220 0
0.279535 0.118297 0.199320 255 220 0
0.293701 0.184844 0.206692 255 220 0
0.259120 0.172576 0.214798 255 220 0
0.346588 0.204150 0.251621 255 220 0
0.332768 0.195764 0.228392 255 220 0
0.226702 0.145874 0.197990 255 220 0
0.276015 0.189910 0.244680 255 220 0
0.271805 0.155131 0.275321 255 220 0
0.303008 0.171359 0.297229 255 220 0
0.286485 0.191403 0.215128 255 220 0
0.256297 0.102885 0.204302 255 220 0
0.331953 0.132245 0.255233 255 220 0
0.271079 0.185093 0.240556 255 220 0
0.335417 0.142205 0.274433 255 220 0
0.346316 0.183421 0.295027 255 220 0
0.248063 0.116843 0.183754 255 220 0
0.302449 0.115653 0.260607 255 220 0
0.265372 0.121770 0.265937 255 220 0
0.351336 0.179357 0.245628 255 220 0
0.350349 0.156428 0.261358 255 220 0
0.317324 0.194719 0.218254 255 220 0
0.229177 0.130618 0.219109 255 220 0
0.259544 0.168060 0.246438 255 220 0
0.308929 0.145862 0.291957 255 220 0
0.291421 0.176463 0.289306 255 220 0
0.350025 0.193079 0.247835 255 220 0
0.305161 0.155270 0.202833 255 220 0
0.322794 0.206260 0.288347 255 220 0
0.242738 0.150771 0.186264 255 220 0
0.354106 0.170345 0.256338 255 220 0
0.225417 0.118266 0.213583 255 220 0
0.330460 0.149438 0.222638 255 220 0
0.273685 0.166405 0.274409 255 220 0
0.242885 0.154991 0.221909 255 220 0
0.343157 0.199077 0.241550 255 220 0
0.320298 0.176849 0.301698 255 220 0
0.303556 0.146188 0.292055 255 220 0
0.344245 0.176114 0.295201 255 220 0
0.332858 0.211142 0.245754 255 220 0
0.317575 0.213897 0.268521 255 220 0
0.314822 0.208459 0.232850 255 220 0
0.304290 0.174028 0.297829 255 220 0
0.269219 0.173664 0.261146 255 220 0
0.326581 0.127505 0.246004 255 220 0
0.260153 0.102679 0.240430 255 220 0
0.269386 0.105686 0.251832 255 220 0
0.275952 0.153816 0.279584 255 220 0
0.309533 0.149157 0.293400 255 220 0
0.269803 0.180953 0.250746 255 220 0
0.291618 0.108019 0.245462 255 220 0
0.336999 0.179029 0.299592 255 220 0
0.233105 0.104716 0.212999 255 220 0
0.297509 0.122292 0.274508 255 220 0
0.344765 0.163316 0.235889 255 220 0
0.279035 0.104272 0.219804 255 220 0
0.301958 0.111924 0.239791 255 220 0
0.320887 0.162795 0.298170 255 220 0
0.274492 0.174605 0.270595 255 220 0
0.317962 0.182076 0.212034 255 220 0
0.353818 0.187190 0.287599 255 220 0
0.251832 0.134393 0.255038 255 220 0
0.319225 0.128920 0.272801 255 220 0
0.268810 0.155557 0.190503 255 220 0
0.309648 0.211916 0.245402 255 220 0
0.350149 0.179388 0.243218 255 220 0
0.314026 0.118743 0.242209 255 220 0
0.275109 0.118775 0.196102 255 220 0
0.287303 0.173790 0.286479 255 220 0
0.355169 0.173959 0.257800 255 220 0
0.312910 0.138142 0.211941 255 220 0
0.288537 0.176672 0.286703 255 220 0
0.268903 0.112666 0.197254 255 220 0
0.288003 0.199562 0.257380 255 220 0
0.268630 0.155846 0.271754 255 220 0
0.263088 0.176784 0.235389 255 220 0
0.245854 0.116402 0.242766 255 220 0
0.262386 0.167139 0.199774 255 220 0
0.293375 0.145805 0.197667 255 220 0
0.244147 0.137718 0.242703 255 220 0
0.265437 0.142174 0.269866 255 220 0
0.323010 0.133973 0.276777 255 220 0
0.338462 0.175375 0.298347 255 220 0
0.354481 0.200147 0.274601 255 220 0
0.325404 0.141752 0.283852 255 220 0
0.309223 0.205393 0.283043 255 220 0
0.236905 0.125824 0.176999 255 220 0
0.348371 0.205720 0.280208 255 220 0
0.241704 0.107850 0.191431 255 220 0
0.255071 0.110718 0.191577 255 220 0
0.220075 0.131725 0.204000 255 220 0
0.226862 0.128203 0.177213 255 220 0
0.279336 0.188675 0.216884 255 220 0
0.350882 0.202232 0.259082 255 220 0
0.274184 0.187620 0.224694 255 220 0
0.327716 0.206596 0.234670 255 220 0
0.265959 0.176308 0.209969 255 220 0
0.217107 0.129816 0.186731 255 220 0
0.299337 0.172146 0.295430 255 220 0
0.303670 0.115557 0.258922 255 220 0
0.351340 0.190052 0.290360 255 220 0
0.348671 0.197536 0.248382 255 220 0
0.319279 0.122610 0.256284 255 220 0
0.332305 0.175163 0.300425 255 220 0
0.258814 0.113651 0.190549 255 220 0
0.264979 0.123827 0.187649 255 220 0
0.286533 0.198365 0.256662 255 220 0
0.333129 0.135419 0.264907 255 220 0
0.219985 0.126407 0.205787 255 220 0
0.247357 0.106212 0.235881 255 220 0
0.233289 0.132622 0.225355 255 220 0
0.233765 0.144467 0.180881 255 220 0
0.317476 0.154016 0.294825 255 220 0
0.281892 0.195657 0.245281 255 220 0
0.262030 0.134246 0.184108 255 220 0
0.264631 0.108561 0.254783 255 220 0
0.276750 0.188588 0.254092 255 220 0
0.300951 0.127658 0.208396 255 220 0
0.240771 0.133317 0.238511 255 220 0
0.312673 0.120521 0.229934 255 220 0
0.342372 0.168132 0.230561 255 220 0
0.340175 0.175942 0.297653 255 220 0
0.278032 0.163177 0.195074 255 220 0
0.302490 0.175732 0.203537 255 220 0
0.297924 0.117360 0.215328 255 220 0
0.272063 0.111971 0.200016 255 220 0
0.284095 0.197228 0.250276 255 220 0
0.344136 0.209238 0.258007 255 220 0
0.308073 0.198671 0.290324 255 220 0
0.318872 0.186274 0.214160 255 220 0
0.294270 0.119210 0.271668 255 220 0
0.324487 0.126824 0.259797 255 220 0
0.311875 0.191082 0.213944 255 220 0
0.351143 0.168651 0.282510 255 220 0
0.337800 0.153180 0.229514 255 220 0
0.331204 0.211505 0.281154 255 220 0
0.325372 0.179068 0.215693 255 220 0
0.344636 0.201161 0.245196 255 220 0
0.314981 0.147487 0.210164 255 220 0
0.250865 0.151074 0.246387 255 220 0
0.267530 0.126647 0.269558 255 220 0
0.291146 0.153050 0.196238 255 220 0
0.316003 0.152767 0.294454 255 220 0
0.224395 0.144073 0.196943 255 220 0
0.252159 0.099763 0.213980 255 220 0
0.328256 0.141586 0.281532 255 220 0
0.236114 0.126238 0.231926 255 220 0
0.343709 0.197056 0.293873 255 220 0
0.268308 0.148848 0.187939 255 220 0
0.249518 0.106467 0.238645 255 220 0
0.334644 0.135082 0.250135 255 220 0
0.352438 0.203029 0.273552 255 220 0
0.314278 0.150895 0.208892 255 220 0
0.306195 0.126368 0.276959 255 220 0
0.326104 0.127918 0.259314 255 220 0
0.277155 0.149692 0.280852 255 220 0
0.278765 0.148330 0.191109 255 220 0
0.271854 0.186294 0.233997 255 220 0
0.290145 0.177539 0.287873 255 220 0
0.332485 0.165812 0.220208 255 220 0
0.335193 0.213759 0.256372 255 220 0
0.292039 0.133774 0.199442 255 220 0
0.258996 0.125315 0.261501 255 220 0
0.278725 0.138680 0.280759 255 220 0
0.263684 0.121096 0.264242 255 220 0
0.239769 0.144028 0.180345 255 220 0
0.287310 0.180947 0.283659 255 220 0
0.351110 0.169775 0.246995 255 220 0
0.357576 0.179656 0.271086 255 220 0
0.342443 0.195470 0.295262 255 220 0
0.283535 0.186601 0.273082 255 220 0
0.262056 0.113351 0.258014 255 220 0
0.320826 0.210667 0.238387 255 220 0
0.243266 0.105655 0.230227 255 220 0
0.238340 0.144299 0.180463 255 220 0
0.239793 0.132621 0.237037 255 220 0
0.322861 0.214889 0.268209 255 220 0
0.292362 0.162075 0.197525 255 220 0
0.317090 0.211766 0.275834 255 220 0
0.224393 0.110486 0.201739 255 220 0
0.300411 0.129947 0.281469 255 220 0
0.262904 0.136237 0.184402 255 220 0
0.339175 0.143673 0.270328 255 220 0
0.324130 0.146848 0.217558 255 220 0
0.228914 0.148100 0.195855 255 220 0
0.345861 0.171318 0.235390 255 220 0
0.331576 0.133433 0.263110 255 220 0
0.337112 0.145848 0.277294 255 220 0
0.322380 0.214742 0.268768 255 220 0
0.288332 0.105992 0.231367 255 220 0
0.347143 0.163158 0.240822 255 220 0
0.285664 0.141916 0.285545 255 220 0
0.343608 0.196217 0.240133 255 220 0
0.251713 0.109271 0.191840 255 220 0
0.337576 0.170447 0.224751 255 220 0
0.248127 0.100433 0.209190 255 220 0
0.254989 0.138942 0.258746 255 220 0
0.264256 0.140038 0.185090 255 220 0
0.257708 0.163596 0.248167 255 220 0
0.270140 0.102116 0.237865 255 220 0
0.311880 0.120717 0.228044 255 220 0
0.284240 0.191109 0.268119 255 220 0
0.339256 0.145393 0.238217 255 220 0
0.328059 0.138866 0.278518 255 220 0
0.318341 0.124225 0.231792 255 220 0
0.283378 0.191894 0.264936 255 220 0
0.252116 0.101509 0.231700 255 220 0
0.286328 0.135906 0.195547 255 220 0
0.285931 0.196681 0.260581 255 220 0
0.272675 0.124896 0.191377 255 220 0
0.311851 0.131777 0.214780 255 220 0
0.251009 0.162847 0.201820 255 220 0
0.277167 0.104006 0.244032 255 220 0
0.346592 0.197381 0.291798 255 220 0
0.259198 0.108362 0.250639 255 220 0
0.231944 0.115244 0.222375 255 220 0
0.259350 0.158768 0.257209 255 220 0
0.293449 0.139403 0.287257 255 220 0
0.327297 0.159303 0.216693 255 220 0
0.357478 0.179442 0.267791 255 220 0
0.262826 0.100497 0.218092 255 220 0
0.321486 0.194836 0.220137 255 220 0
0.229880 0.113745 0.218107 255 220 0
0.278966 0.192759 0.246351 255 220 0
0.248720 0.152847 0.239698 255 220 0
0.244960 0.154624 0.190687 255 220 0
0.290486 0.185863 0.207620 255 220 0
0.310735 0.149621 0.206859 255 220 0
0.289315 0.197620 0.267165 255 220 0
0.342000 0.143758 0.261722 255 220 0
0.326688 0.144472 0.285546 255 220 0
0.347276 0.181995 0.294182 255 220 0
0.316780 0.126279 0.225613 255 220 0
0.308206 0.115540 0.249032 255 220 0
0.304901 0.187243 0.295342 255 220 0
0.302144 0.117024 0.264394 255 220 0
0.305806 0.159501 0.296433 255 220 0
0.350683 0.195229 0.289150 255 220 0
0.333985 0.156031 0.290510 255 220 0
0.230585 0.132839 0.220409 255 220 0
0.338245 0.212401 0.274802 255 220 0
0.273023 0.132210 0.275301 255 220 0
0.313689 0.206255 0.228946 255 220 0
0.317122 0.212429 0.242818 255 220 0
0.296194 0.166231 0.199332 255 220 0
0.329215 0.129545 0.252108 255 220 0
0.272020 0.111454 0.261961 255 220 0
0.277011 0.141740 0.190162 255 220 0
0.321328 0.142815 0.216814 255 220 0
0.351929 0.159910 0.263273 255 220 0
0.260602 0.149988 0.263677 255 220 0
0.318278 0.169545 0.209855 255 220 0
0.346035 0.182586 0.295165 255 220 0
0.355389 0.172554 0.260064 255 220 0
0.326462 0.165823 0.215367 255 220 0
0.250509 0.125763 0.180750 255 220 0
0.289812 0.115164 0.267319 255 220 0
0.284865 0.197782 0.251458 255 220 0
0.237133 0.115665 0.230374 255 220 0
0.286590 0.192224 0.271087 255 220 0
0.225157 0.143622 0.184975 255 220 0
0.236475 0.125971 0.232498 255 220 0
0.242840 0.149457 0.230463 255 220 0
0.349347 0.173920 0.241552 255 220 0
0.338114 0.213184 0.268505 255 220 0
0.235244 0.144654 0.180854 255 220 0
0.316519 0.159649 0.209048 255 220 0
0.250693 0.111307 0.245127 255 220 0
0.224995 0.138197 0.206980 255 220 0
0.295174 0.177666 0.202634 255 220 0
0.303774 0.151543 0.202487 255 220 0
0.321523 0.175568 0.301617 255 220 0
0.341193 0.146640 0.240993 255 220 0
0.334301 0.201516 0.234211 255 220 0
0.340741 0.149095 0.237064 255 220 0
0.354101 0.176343 0.252806 255 220 0
0.269643 0.176161 0.258667 255 220 0
0.296079 0.206030 0.242768 255 220 0
0.281273 0.195198 0.239770 255 220 0
0.237558 0.146022 0.222956 255 220 0
0.284026 0.159599 0.286178 255 220 0
0.330875 0.149095 0.223242 255 220 0
0.286722 0.109763 0.215004 255 220 0
0.234364 0.142145 0.220397 255 220 0
0.301612 0.209509 0.256058 255 220 0
0.321661 0.165784 0.299204 255 220 0
0.309996 0.213014 0.257124 255 220 0
0.311298 0.150772 0.206991 255 220 0
0.287233 0.176682 0.285450 255 220 0
0.344182 0.209559 0.276662 255 220 0
0.241014 0.105565 0.227173 255 220 0
0.280328 0.150039 0.191850 255 220 0
0.283866 0.197442 0.244500 255 220 0
0.333266 0.151356 0.224815 255 220 0
0.266346 0.180645 0.233147 255 220 0
0.296232 0.126588 0.205510 255 220 0
0.301744 0.111821 0.238830 255 220 0
0.252855 0.124991 0.254876 255 220 0
0.342843 0.151056 0.275804 255 220 0
0.333272 0.177839 0.300629 255 220 0
0.304650 0.117894 0.264290 255 220 0
0.280677 0.194654 0.238757 255 220 0
0.328146 0.129487 0.242737 255 220 0
0.312234 0.155544 0.206844 255 220 0
0.305642 0.196823 0.290280 255 220 0
0.270557 0.138292 0.274420 255 220 0
0.228256 0.131054 0.217399 255 220 0
0.327601 0.128145 0.251945 255 220 0
0.311249 0.212089 0.267971 255 220 0
0.269314 0.118273 0.192906 255 220 0
0.288488 0.199989 0.233853 255 220 0
0.237872 0.120133 0.233492 255 220 0
0.319666 0.209799 0.281888 255 220 0
0.272404 0.119911 0.193706 255 220 0
0.244283 0.148690 0.234283 255 220 0
0.304975 0.194947 0.215537 255 220 0
0.350985 0.204267 0.266633 255 220 0
0.301404 0.112357 0.231561 255 220 0
0.318698 0.176292 0.210903 255 220 0
0.281491 0.115846 0.202760 255 220 0
0.317740 0.153579 0.210691 255 220 0
0.237774 0.126199 0.177044 255 220 0
0.337213 0.153817 0.286238 255 220 0
0.322731 0.195802 0.221409 255 220 0
0.279632 0.177849 0.275909 255 220 0
0.277251 0.191379 0.233218 255 220 0
0.339135 0.209328 0.248639 255 220 0
0.340781 0.141820 0.257358 255 220 0
0.297837 0.200712 0.277671 255 220 0
0.294393 0.182584 0.205212 255 220 0
0.327680 0.137809 0.227234 255 220 0
0.356022 0.175505 0.260661 255 220 0
0.261106 0.127909 0.264243 255 220 0
0.327065 0.198475 0.296181 255 220 0
0.333768 0.136758 0.266918 255 220 0
0.238916 0.109622 0.228690 255 220 0
0.327071 0.208054 0.286700 255 220 0
0.333926 0.145423 0.280566 255 220 0
0.283435 0.155649 0.285959 255 220 0
0.287781 0.132913 0.282332 255 220 0
0.223908 0.140033 0.203341 255 220 0
0.306690 0.177847 0.298673 255 220 0
0.321223 0.185059 0.214925 255 220 0
0.243707 0.151662 0.229816 255 220 0
0.268826 0.142878 0.273138 255 220 0
0.296661 0.178771 0.292721 255 220 0
0.255912 0.099640 0.220901 255 220 0
0.277434 0.155557 0.192130 255 220 0
0.275835 0.129562 0.191488 255 220 0
0.278376 0.149094 0.281895 255 220 0
0.274655 0.160181 0.193384 255 220 0
0.278545 0.118728 0.198338 255 220 0
0.290084 0.194671 0.218005 255 220 0
0.284257 0.122083 0.199871 255 220 0
0.326167 0.174394 0.301274 255 220 0
0.220110 0.117830 0.201407 255 220 0
0.305085 0.163881 0.297140 255 220 0
0.318539 0.145993 0.213192 255 220 0
0.262279 0.100685 0.215828 255 220 0
0.304158 0.120456 0.269677 255 220 0
0.229855 0.140043 0.213620 255 220 0
0.269770 0.106947 0.205002 255 220 0
0.288632 0.201203 0.241918 255 220 0
0.216399 0.132751 0.191571 255 220 0
0.258898 0.100208 0.227724 255 220 0
0.342349 0.194919 0.237772 255 220 0
0.311920 0.120219 0.262448 255 220 0
0.261789 0.175496 0.217751 255 220 0
0.239544 0.123808 0.236989 255 220 0
0.270899 0.165630 0.271236 255 220 0
0.239661 0.111241 0.231086 255 220 0
0.262827 0.101058 0.233622 255 220 0
0.319157 0.128994 0.225235 255 220 0
0.316667 0.213544 0.269129 255 220 0
0.256208 0.116288 0.254773 255 220 0
0.283790 0.191477 0.217457 255 220 0
0.236628 0.150223 0.187312 255 220 0
0.291032 0.193002 0.278107 255 220 0
0.316323 0.150693 0.210303 255 220 0
0.305501 0.144291 0.291272 255 220 0
0.241098 0.139007 0.236194 255 220 0
0.261941 0.148787 0.186416 255 220 0
0.300475 0.148006 0.292392 255 220 0
0.287644 0.162615 0.196396 255 220 0
0.224361 0.143332 0.198962 255 220 0
0.276596 0.102589 0.230373 255 220 0
0.342496 0.176643 0.230813 255 220 0
0.250012 0.131257 0.252661 255 220 0
0.309085 0.210531 0.240166 255 220 0
0.338885 0.159416 0.228311 255 220 0
0.283515 0.196828 0.236118 255 220 0
0.340844 0.150421 0.278137 255 220 0
0.283281 0.136149 0.282405 255 220 0
0.339589 0.204627 0.242477 255 220 0
0.294004 0.109057 0.246631 255 220 0
0.305049 0.113728 0.237303 255 220 0
0.310557 0.198625 0.291764 255 220 0
0.235731 0.103135 0.214745 255 220 0
0.307634 0.212074 0.258672 255 220 0
0.279000 0.124065 0.195407 255 220 0
0.257626 0.151544 0.187048 255 220 0
0.319292 0.141458 0.215651 255 220 0
0.255716 0.169551 0.215160 255 220 0
0.256004 0.114676 0.188384 255 220 0
0.357141 0.187734 0.263529 255 220 0
0.313013 0.198046 0.293369 255 220 0
0.340852 0.170119 0.228357 255 220 0
0.357591 0.188041 0.266065 255 220 0
0.313520 0.120499 0.231676 255 220 0
0.287595 0.200156 0.251799 255 220 0
0.306431 0.132659 0.283316 255 220 0
0.262407 0.124012 0.186305 255 220 0
0.267040 0.100996 0.229769 255 220 0
0.260966 0.116060 0.189728 255 220 0
0.337439 0.158886 0.226675 255 220 0
0.257743 0.156592 0.255899 255 220 0
0.300986 0.141177 0.202819 255 220 0
0.246692 0.149882 0.238270 255 220 0
0.255007 0.104470 0.200384 255 220 0
0.317612 0.138515 0.285107 255 220 0
0.281983 0.105025 0.244310 255 220 0
0.349603 0.167094 0.283824 255 220 0
0.255980 0.167736 0.206713 255 220 0
0.305626 0.132362 0.209219 255 220 0
0.299152 0.195703 0.216323 255 220 0
0.324657 0.127967 0.263356 255 220 0
0.243578 0.111949 0.236880 255 220 0
0.283782 0.183009 0.277738 255 220 0
0.308947 0.211956 0.246557 255 220 0
0.313019 0.154835 0.295531 255 220 0
0.252436 0.159389 0.194593 255 220 0
0.216218 0.130910 0.191526 255 220 0
0.265066 0.164777 0.262823 255 220 0
0.249242 0.162414 0.223330 255 220 0
0.328523 0.152060 0.290572 255 220 0
0.266969 0.168325 0.263031 255 220 0
0.294527 0.108516 0.232548 255 220 0
0.306938 0.179654 0.298546 255 220 0
0.275836 0.150545 0.190474 255 220 0
0.227233 0.135797 0.212702 255 220 0
0.337260 0.213049 0.256726 255 220 0
0.271467 0.180107 0.257037 255 220 0
0.219845 0.126420 0.205509 255 220 0
0.263766 0.177051 0.238439 255 220 0
0.339075 0.160853 0.290694 255 220 0
0.225916 0.109474 0.204842 255 220 0
0.354696 0.189620 0.256053 255 220 0
0.243824 0.149163 0.184563 255 220 0
0.320286 0.123754 0.258823 255 220 0
0.310034 0.190559 0.296547 255 220 0
0.337408 0.210411 0.248686 255 220 0
0.247930 0.162098 0.216398 255 220 0
0.284882 0.167782 0.197562 255 220 0
0.351193 0.164920 0.278002 255 220 0
0.227701 0.125914 0.177543 255 220 0
0.266489 0.111751 0.259626 255 220 0
0.345637 0.198448 0.244343 255 220 0
0.322272 0.215383 0.263162 255 220 0
0.330083 0.167643 0.218079 255 220 0
0.358135 0.185639 0.270028 255 220 0
0.344229 0.208067 0.281663 255 220 0
0.299837 0.136759 0.203370 255 220 0
0.249474 0.159681 0.232314 255 220 0
0.274079 0.178106 0.265622 255 220 0
0.255998 0.167302 0.205570 255 220 0
0.302333 0.187508 0.209307 255 220 0
0.345811 0.152946 0.272817 255 220 0
0.323011 0.143561 0.286826 255 220 0
0.255494 0.169539 0.221917 255 220 0
0.346457 0.201653 0.248391 255 220 0
0.263860 0.168038 0.256696 255 220 0
0.239551 0.155249 0.196727 255 220 0
0.230970 0.104694 0.202104 255 220 0
0.240307 0.155716 0.209697 255 220 0
0.229125 0.141940 0.179970 255 220 0
0.281859 0.182222 0.206275 255 220 0
0.340308 0.175085 0.227954 255 220 0
0.339749 0.188685 0.298268 255 220 0
0.342786 0.148118 0.271009 255 220 0
0.231522 0.143821 0.180817 255 220 0
0.288953 0.200784 0.236537 255 220 0
0.278604 0.192764 0.240597 255 220 0
0.289422 0.110842 0.258763 255 220 0
0.246513 0.160483 0.202342 255 220 0
0.338093 0.171466 0.297308 255 220 0
0.276974 0.115770 0.199661 255 220 0
0.286142 0.109212 0.256634 255 220 0
0.291745 0.114055 0.213441 255 220 0
0.245610 0.133329 0.178276 255 220 0
0.254212 0.163334 0.199599 255 220 0
0.259396 0.171525 0.238430 255 220 0
0.283164 0.189826 0.215083 255 220 0
0.330743 0.203597 0.292143 255 220 0
0.238933 0.104999 0.196773 255 220 0
0.234403 0.143506 0.219064 255 220 0
0.286824 0.129005 0.279892 255 220 0
0.240749 0.102838 0.201715 255 220 0
0.312702 0.213255 0.264397 255 220 0
0.263461 0.177525 0.221144 255 220 0
0.323445 0.209609 0.283581 255 220 0
0.329936 0.132256 0.239554 255 220 0
0.339017 0.159026 0.289283 255 220 0
0.338745 0.211798 0.276986 255 220 0
0.341303 0.170210 0.228903 255 220 0
0.272301 0.175575 0.265276 255 220 0
0.319883 0.196626 0.220632 255 220 0
0.339189 0.147756 0.276966 255 220 0
0.338087 0.210877 0.280616 255 220 0
0.332509 0.186314 0.223349 255 220 0
0.250207 0.162595 0.202325 255 220 0
0.354350 0.200082 0.269208 255 220 0
0.269523 0.134842 0.187276 255 220 0
0.238065 0.102395 0.203804 255 220 0
0.299333 0.203222 0.275186 255 220 0
0.229908 0.108820 0.191806 255 220 0
0.324346 0.193760 0.298710 255 220 0
0.261206 0.117185 0.260023 255 220 0
0.310988 0.202867 0.224212 255 220 0
0.357794 0.181640 0.273352 255 220 0
0.293083 0.116249 0.267924 255 220 0
0.266759 0.154257 0.189607 255 220 0
0.227177 0.144174 0.203287 255 220 0
0.338825 0.144254 0.272114 255 220 0
0.305854 0.126156 0.213735 255 220 0
0.336081 0.182452 0.225276 255 220 0
0.267808 0.101028 0.222065 255 220 0
0.307822 0.125948 0.215838 255 220 0
0.248735 0.161990 0.222520 255 220 0
0.313296 0.154210 0.295284 255 220 0
0.292907 0.130478 0.201217 255 220 0
0.303323 0.153237 0.294430 255 220 0
0.323697 0.131747 0.272849 255 220 0
0.328584 0.129540 0.257523 255 220 0
0.268302 0.176341 0.255339 255 220 0
0.327263 0.210367 0.283038 255 220 0
0.335442 0.162895 0.294354 255 220 0
0.294481 0.115035 0.214870 255 220 0
0.300724 0.112999 0.227371 255 220 0
0.218270 0.132967 0.184556 255 220 0
0.254507 0.123598 0.256316 255 220 0
0.305212 0.191873 0.293315 255 220 0
0.296050 0.202349 0.228644 255 220 0
0.289700 0.148361 0.195647 255 220 0
0.225155 0.141408 0.203734 255 220 0
0.317052 0.120578 0.243468 255 220 0
0.303877 0.146559 0.203332 255 220 0
0.232113 0.146062 0.210656 255 220 0
0.275102 0.105498 0.251235 255 220 0
0.287188 0.199577 0.253451 255 220 0
0.347042 0.204315 0.252803 255 220 0
0.276752 0.105153 0.249440 255 220 0
0.356646 0.180476 0.279377 255 220 0
0.310081 0.117635 0.233102 255 220 0
0.352919 0.193002 0.287473 255 220 0
0.274117 0.114916 0.266439 255 220 0
0.248277 0.107532 0.193027 255 220 0
0.277070 0.178101 0.204201 255 220 0
0.317689 0.199781 0.293699 255 220 0
0.255002 0.135485 0.181462 255 220 0
0.280012 0.165312 0.196162 255 220 0
0.295060 0.188217 0.287453 255 220 0
0.261640 0.172971 0.209481 255 220 0
0.344723 0.209799 0.271386 255 220 0
0.349538 0.190254 0.245532 255 220 0
0.251059 0.151571 0.246333 255 220 0
0.296895 0.110597 0.249253 255 220 0
0.325876 0.149041 0.218273 255 220 0
0.246951 0.128321 0.248345 255 220 0
0.276523 0.102587 0.227372 255 220 0
0.275563 0.187976 0.221708 255 220 0
0.305401 0.174776 0.204225 255 220 0
0.340286 0.177671 0.297959 255 220 0
0.323170 0.124623 0.248229 255 220 0
0.275774 0.133902 0.190411 255 220 0
0.228507 0.135286 0.176781 255 220 0
0.242954 0.137892 0.240440 255 220 0
0.227325 0.139307 0.209774 255 220 0
0.344989 0.200107 0.244766 255 220 0
0.353838 0.164914 0.265351 255 220 0
0.341347 0.166269 0.292727 255 220 0
0.328351 0.178369 0.217675 255 220 0
0.299398 0.199788 0.221596 255 220 0
0.265299 0.100857 0.218681 255 220 0
0.247907 0.162366 0.212103 255 220 0
0.311899 0.120063 0.229624 255 220 0
0.289804 0.113468 0.212354 255 220 0
0.242465 0.101770 0.204492 255 220 0
0.348348 0.153286 0.254829 255 220 0
0.281011 0.118962 0.271994 255 220 0
0.308735 0.155356 0.295652 255 220 0
0.301707 0.207767 0.238317 255 220 0
0.336464 0.143482 0.274835 255 220 0
0.292126 0.138716 0.198173 255 220 0
0.328631 0.210509 0.241534 255 220 0
0.218395 0.122750 0.201117 255 220 0
0.337002 0.201421 0.236648 255 220 0
0.340224 0.142475 0.264646 255 220 0
0.224005 0.126273 0.212484 255 220 0
0.353873 0.176582 0.252045 255 220 0
0.330069 0.170444 0.218066 255 220 0
0.329574 0.203535 0.232268 255 220 0
0.314723 0.139811 0.287222 255 220 0
0.317931 0.122033 0.237676 255 220 0
0.346668 0.151405 0.267155 255 220 0
0.220913 0.136237 0.182034 255 220 0
0.295476 0.132564 0.283369 255 220 0
0.332298 0.144281 0.227931 255 220 0
0.300242 0.143016 0.290331 255 220 0
0.353395 0.166655 0.257086 255 220 0
0.319730 0.146562 0.290318 255 220 0
0.261701 0.100177 0.220430 255 220 0
0.312092 0.202756 0.288594 255 220 0
0.298542 0.197797 0.282837 255 220 0
0.282539 0.142062 0.283931 255 220 0
0.276216 0.183247 0.210617 255 220 0
0.337459 0.194869 0.232304 255 220 0
0.332581 0.151274 0.224088 255 220 0
0.325762 0.151284 0.217397 255 220 0
0.286131 0.107207 0.249814 255 220 0
0.265245 0.118172 0.190612 255 220 0
0.268702 0.134125 0.186987 255 220 0
0.309915 0.136059 0.210608 255 220 0
0.270881 0.185310 0.234384 255 220 0
0.283249 0.164150 0.284965 255 220 0
0.268734 0.169189 0.265532 255 220 0
0.238470 0.114675 0.231762 255 220 0
0.275102 0.177929 0.267980 255 220 0
0.309594 0.197021 0.217999 255 220 0
0.282894 0.104387 0.237138 255 220 0
0.268396 0.124675 0.189101 255 220 0
0.353699 0.184253 0.287619 255 220 0
0.269439 0.164295 0.269915 255 220 0
0.315455 0.189990 0.214524 255 220 0
0.269651 0.143910 0.187386 255 220 0
0.282778 0.104378 0.237467 255 220 0
0.258175 0.172252 0.225252 255 220 0
0.265079 0.126260 0.267418 255 220 0
0.234858 0.122508 0.177966 255 220 0
0.321560 0.187005 0.300893 255 220 0
0.308275 0.120417 0.266763 255 220 0
0.305732 0.151682 0.294249 255 220 0
0.305776 0.173996 0.204166 255 220 0
0.325901 0.199713 0.226081 255 220 0
0.247394 0.111301 0.188104 255 220 0
0.223298 0.111708 0.200666 255 220 0
0.226680 0.120697 0.180599 255 220 0
0.322240 0.123966 0.250364 255 220 0
0.345365 0.153720 0.243173 255 220 0
0.308944 0.200655 0.288992 255 220 0
0.342694 0.145168 0.249361 255 220 0
0.229721 0.122140 0.178551 255 220 0
0.293443 0.178879 0.290248 255 220 0
0.282463 0.195911 0.235219 255 220 0
0.291146 0.127764 0.201306 255 220 0
0.235677 0.148315 0.184780 255 220 0
0.350801 0.157369 0.261654 255 220 0
0.281497 0.156997 0.284319 255 220 0
0.234866 0.130044 0.175959 255 220 0
0.219807 0.139940 0.188761 255 220 0
0.231944 0.110987 0.219311 255 220 0
0.221269 0.136601 0.202543 255 220 0
0.346846 0.160095 0.241989 255 220 0
0.261589 0.108900 0.196985 255 220 0
0.309069 0.118900 0.227327 255 220 0
0.230176 0.141369 0.179170 255 220 0
0.258349 0.149721 0.186166 255 220 0
0.318046 0.200235 0.293427 255 220 0
0.342962 0.151187 0.275787 255 220 0
0.284169 0.144927 0.193236 255 220 0
0.290781 0.107373 0.227950 255 220 0
0.292496 0.198282 0.222774 255 220 0
0.311147 0.138710 0.287323 255 220 0
0.248782 0.159380 0.230789 255 220 0
0.324041 0.149298 0.216570 255 220 0
0.331951 0.196962 0.228479 255 220 0
0.352694 0.190039 0.288748 255 220 0
0.285386 0.114287 0.207431 255 220 0
0.349971 0.195648 0.289676 255 220 0
0.298776 0.197336 0.283641 255 220 0
0.299394 0.137011 0.203009 255 220 0
0.296429 0.205998 0.241206 255 220 0
0.357694 0.191577 0.276021 255 220 0
0.291922 0.107321 0.233646 255 220 0
0.265587 0.121737 0.266090 255 220 0
0.292552 0.143045 0.288656 255 220 0
0.303536 0.210098 0.246483 255 220 0
0.249258 0.155705 0.190854 255 220 0
0.281348 0.191873 0.259884 255 220 0
0.250256 0.163383 0.204836 255 220 0
0.303013 0.148942 0.202421 255 220 0
0.345718 0.187542 0.295367 255 220 0
0.313892 0.213939 0.261621 255 220 0
0.312608 0.181194 0.209141 255 220 0
0.334326 0.207658 0.241145 255 220 0
0.262452 0.176671 0.222482 255 220 0
0.335637 0.151125 0.285025 255 220 0
0.259568 0.151311 0.187149 255 220 0
0.347518 0.153442 0.250389 255 220 0
0.324219 0.130403 0.230824 255 220 0
0.294614 0.167295 0.199105 255 220 0
0.288755 0.138771 0.285578 255 220 0
0.254549 0.139305 0.258164 255 220 0
0.258788 0.159130 0.192655 255 220 0
0.328104 0.215076 0.254986 255 220 0
0.224040 0.133094 0.209500 255 220 0
0.252190 0.146101 0.183330 255 220 0
0.238339 0.137209 0.232057 255 220 0
0.256807 0.142979 0.260458 255 220 0
0.308948 0.128795 0.278855 255 220 0
0.287038 0.149007 0.287934 255 220 0
0.271376 0.141213 0.275393 255 220 0
0.345525 0.208041 0.257881 255 220 0
0.298476 0.111216 0.249259 255 220 0
0.274782 0.140363 0.278190 255 220 0
0.225790 0.122927 0.179731 255 220 0
0.278595 0.171784 0.278052 255 220 0
0.325370 0.132115 0.230247 255 220 0
0.231290 0.110439 0.217702 255 220 0
0.325359 0.186591 0.301233 255 220 0
0.271471 0.163488 0.272829 255 220 0
0.240002 0.120258 0.179722 255 220 0
0.296017 0.109043 0.236217 255 220 0
0.338419 0.213069 0.268573 255 220 0
0.346105 0.200833 0.289665 255 220 0
0.340038 0.198211 0.237270 255 220 0
0.355983 0.175138 0.275985 255 220 0
0.267450 0.105812 0.205240 255 220 0
0.277102 0.187041 0.258864 255 220 0
0.352645 0.164382 0.272515 255 220 0
0.338948 0.140570 0.262850 255 220 0
0.302744 0.119207 0.218169 255 220 0
0.218433 0.122241 0.188084 255 220 0
0.282806 0.196077 0.249806 255 220 0
0.251056 0.099536 0.215688 255 220 0
0.338026 0.184229 0.227841 255 220 0
0.263747 0.175205 0.244677 255 220 0
0.333824 0.135605 0.242937 255 220 0
0.288988 0.106196 0.235966 255 220 0
0.301516 0.175493 0.203173 255 220 0
0.272822 0.171294 0.270665 255 220 0
0.264439 0.136072 0.268677 255 220 0
0.230983 0.115445 0.220991 255 220 0
0.279361 0.108323 0.257533 255 220 0
0.354519 0.168062 0.261165 255 220 0
0.289310 0.107233 0.245296 255 220 0
0.270712 0.101775 0.234185 255 220 0
0.276580 0.115828 0.268112 255 220 0
0.335540 0.163589 0.223317 255 220 0
0.321184 0.127142 0.231048 255 220 0
0.258880 0.157524 0.191275 255 220 0
0.317783 0.123933 0.231389 255 220 0
0.331806 0.214370 0.254457 255 220 0
0.354868 0.168222 0.267209 255 220 0
0.273863 0.184198 0.214912 255 220 0
0.274631 0.188985 0.237710 255 220 0
0.322254 0.203970 0.290903 255 220 0
0.299442 0.128194 0.206915 255 220 0
0.287780 0.106347 0.226086 255 220 0
0.333367 0.213179 0.276022 255 220 0
0.264212 0.125687 0.266490 255 220 0
0.340457 0.207877 0.285305 255 220 0
0.250177 0.146970 0.248489 255 220 0
0.219754 0.116772 0.194942 255 220 0
0.255319 0.169345 0.217116 255 220 0
0.250867 0.162778 0.201842 255 220 0
0.256733 0.108896 0.249085 255 220 0
0.297818 0.144838 0.200204 255 220 0
0.328510 0.183798 0.219245 255 220 0
0.319567 0.158566 0.211142 255 220 0
0.273126 0.136311 0.276264 255 220 0
0.276772 0.191066 0.236346 255 220 0
0.337702 0.151579 0.283472 255 220 0
0.254823 0.099890 0.214593 255 220 0
0.331382 0.214412 0.271060 255 220 0
0.328473 0.215479 0.263697 255 220 0
0.313915 0.207372 0.283209 255 220 0
0.303819 0.136970 0.205902 255 220 0
0.268513 0.175358 0.257235 255 220 0
0.240653 0.156684 0.204207 255 220 0
0.291350 0.119747 0.206837 255 220 0
0.293338 0.108443 0.228753 255 220 0
0.329444 0.205256 0.234152 255 220 0
0.219743 0.138186 0.185521 255 220 0
0.252166 0.164972 0.227901 255 220 0
0.230336 0.145231 0.208091 255 220 0
0.288826 0.157873 0.195781 255 220 0
0.276856 0.107442 0.256024 255 220 0
0.271799 0.182893 0.215211 255 220 0
0.302457 0.178817 0.296415 255 220 0
0.285363 0.130248 0.280311 255 220 0
0.345827 0.177338 0.235522 255 220 0
0.338567 0.206973 0.287428 255 220 0
0.304749 0.117840 0.264074 255 220 0
0.313471 0.186316 0.299450 255 220 0
0.288452 0.187103 0.280780 255 220 0
0.309960 0.138463 0.209580 255 220 0
0.276321 0.146271 0.280038 255 220 0
0.353205 0.167523 0.275652 255 220 0
0.334352 0.163219 0.222214 255 220 0
0.276686 0.187513 0.256670 255 220 0
0.268446 0.101134 0.222115 255 220 0
0.358206 0.188325 0.273113 255 220 0
0.333800 0.140091 0.273473 255 220 0
0.313917 0.121309 0.230297 255 220 0
0.345298 0.170915 0.292159 255 220 0
0.356036 0.175452 0.260773 255 220 0
0.353975 0.194580 0.257411 255 220 0
0.321450 0.215234 0.264073 255 220 0
0.232201 0.129017 0.176002 255 220 0
0.327310 0.196673 0.224727 255 220 0
0.281745 0.131419 0.194186 255 220 0
0.251548 0.155770 0.242978 255 220 0
0.235059 0.112060 0.225068 255 220 0
0.331267 0.147541 0.285171 255 220 0
0.342705 0.145219 0.264249 255 220 0
0.273842 0.186132 0.250785 255 220 0
0.290294 0.189424 0.281157 255 220 0
0.296321 0.203508 0.231483 255 220 0
0.290284 0.179160 0.202981 255 220 0
0.307620 0.200106 0.288687 255 220 0
0.267426 0.123983 0.188852 255 220 0
0.354570 0.187780 0.254905 255 220 0
0.325002 0.154520 0.293490 255 220 0
0.241298 0.100386 0.214213 255 220 0
0.290643 0.107061 0.240661 255 220 0
0.284710 0.111301 0.262189 255 220 0
0.277732 0.141497 0.190481 255 220 0
0.253598 0.154298 0.249276 255 220 0
0.347012 0.151250 0.265239 255 220 0
0.309934 0.208340 0.277945 255 220 0
0.239219 0.148354 0.184040 255 220 0
0.275535 0.144385 0.189591 255 220 0
0.283447 0.172318 0.199444 255 220 0
0.232875 0.143604 0.215737 255 220 0
0.312833 0.123915 0.223771 255 220 0
0.304234 0.136868 0.206222 255 220 0
0.270500 0.160670 0.272609 255 220 0
0.264248 0.147341 0.268388 255 220 0
0.259890 0.119295 0.260014 255 220 0
0.290485 0.201023 0.260572 255 220 0
0.266939 0.176397 0.208945 255 220 0
0.281596 0.103839 0.233408 255 220 0
0.347149 0.186998 0.240359 255 220 0
0.334946 0.147815 0.282212 255 220 0
0.297067 0.146729 0.199494 255 220 0
0.317116 0.183909 0.300934 255 220 0
0.273093 0.140871 0.276853 255 220 0
0.230570 0.148152 0.188212 255 220 0
0.316284 0.197825 0.294754 255 220 0
0.261624 0.103273 0.206320 255 220 0
0.326145 0.211472 0.242094 255 220 0
0.303514 0.205038 0.277519 255 220 0
0.290985 0.177847 0.288509 255 220 0
0.252411 0.158866 0.241360 255 220 0
0.270578 0.110348 0.260040 255 220 0
0.293562 0.172738 0.291774 255 220 0
0.288293 0.108379 0.252083 255 220 0
0.235997 0.151996 0.207509 255 220 0
0.312015 0.199946 0.291367 255 220 0
0.274281 0.180278 0.263077 255 220 0
0.274213 0.168895 0.198088 255 220 0
0.294652 0.108450 0.237833 255 220 0
0.270304 0.136684 0.274010 255 220 0
0.303597 0.150189 0.293558 255 220 0
0.323356 0.215577 0.259788 255 220 0
0.352709 0.163889 0.271317 255 220 0
0.255915 0.150038 0.256983 255 220 0
0.261904 0.121691 0.186974 255 220 0
0.338216 0.149724 0.232221 255 220 0
0.222252 0.125463 0.209864 255 220 0
0.310877 0.191817 0.296307 255 220 0
0.280256 0.168531 0.197627 255 220 0
0.256937 0.119725 0.185577 255 220 0
0.349652 0.168965 0.243701 255 220 0
0.249687 0.157604 0.193185 255 220 0
0.349356 0.192946 0.291530 255 220 0
0.313673 0.162913 0.207071 255 220 0
0.300110 0.111554 0.247251 255 220 0
0.353930 0.188021 0.253359 255 220 0
0.233578 0.138302 0.177059 255 220 0
0.275628 0.111465 0.203108 255 220 0
0.284491 0.134528 0.194868 255 220 0
0.289092 0.198555 0.227301 255 220 0
0.261517 0.171751 0.245343 255 220 0
0.343932 0.192868 0.295435 255 220 0
0.272435 0.155748 0.275878 255 220 0
0.261749 0.126912 0.185094 255 220 0
0.290610 0.144473 0.288506 255 220 0
0.229072 0.142305 0.180289 255 220 0
0.247070 0.101853 0.204124 255 220 0
0.253789 0.117232 0.252787 255 220 0
0.353707 0.166043 0.270801 255 220 0
0.357866 0.182639 0.274317 255 220 0
0.334950 0.135847 0.260165 255 220 0
0.235246 0.140178 0.177877 255 220 0
0.299712 0.147817 0.292189 255 220 0
0.307510 0.211685 0.261978 255 220 0
0.235588 0.106449 0.220341 255 220 0
0.246550 0.161251 0.209764 255 220 0
0.264719 0.136876 0.185114 255 220 0
0.256969 0.100777 0.231559 255 220 0
0.322539 0.127926 0.267061 255 220 0
0.253648 0.123563 0.182560 255 220 0
0.335007 0.166872 0.222390 255 220 0
0.319042 0.156580 0.295771 255 220 0
0.355113 0.198925 0.275484 255 220 0
0.321913 0.172288 0.212330 255 220 0
0.243312 0.156525 0.219108 255 220 0
0.255793 0.146746 0.184329 255 220 0
0.326338 0.215245 0.266936 255 220 0
0.221962 0.126718 0.209180 255 220 0
0.242981 0.151589 0.228225 255 220 0
0.333925 0.134136 0.253518 255 220 0
0.328761 0.130325 0.241786 255 220 0
0.240359 0.100591 0.212059 255 220 0
0.293031 0.201005 0.228600 255 220 0
0.271428 0.141490 0.275460 255 220 0
0.315844 0.126199 0.271312 255 220 0
0.243301 0.158620 0.203962 255 220 0
0.221320 0.114799 0.200086 255 220 0
0.278589 0.160458 0.281273 255 220 0
0.330989 0.133626 0.239131 255 220 0
0.349199 0.173645 0.241293 255 220 0
0.292527 0.204167 0.249550 255 220 0
0.307597 0.118249 0.226305 255 220 0
0.313448 0.120637 0.261446 255 220 0
0.240334 0.144826 0.180928 255 220 0
0.285571 0.149279 0.287127 255 220 0
0.347835 0.152158 0.263893 255 220 0
0.339527 0.153768 0.231676 255 220 0
0.339918 0.166965 0.227565 255 220 0
0.244905 0.110017 0.236981 255 220 0
0.287178 0.121518 0.202267 255 220 0
0.268137 0.119811 0.266981 255 220 0
0.314951 0.123246 0.266403 255 220 0
0.254136 0.144088 0.256655 255 220 0
0.276830 0.111900 0.203460 255 220 0
0.287403 0.195028 0.268132 255 220 0
0.236993 0.123316 0.233031 255 220 0
0.311866 0.137840 0.286512 255 220 0
0.276706 0.188593 0.220996 255 220 0
0.291794 0.124209 0.203779 255 220 0
0.275841 0.121782 0.194687 255 220 0
0.308072 0.185891 0.297509 255 220 0
0.339125 0.178417 0.227249 255 220 0
0.334446 0.203693 0.236448 255 220 0
