ply
format ascii 1.0
element vertex 1024
property float x
property float y
property float z
property uchar red
property uchar green
property uchar blue
end_header
0.606599 0.106840 0.080989 255 220 0
0.518438 0.131100 0.068791 255 220 0
0.464070 0.094947 0.023499 255 220 0
0.501819 0.073875 0.083971 255 220 0
0.576391 0.103494 0.026439 255 220 0
0.531045 0.094881 0.093902 255 220 0
0.564028 0.106618 0.022268 255 220 0
0.519165 0.136688 0.059626 255 220 0
0.561318 0.114394 0.024095 255 220 0
0.463776 0.130015 0.041875 255 220 0
0.557247 0.099277 0.098479 255 220 0
0.505676 0.050609 0.053099 255 220 0
0.547190 0.113400 0.091409 255 220 0
0.562276 0.068471 0.092129 255 220 0
0.485804 0.058796 0.067109 255 220 0
0.454069 0.121837 0.060645 255 220 0
0.589640 0.126126 0.047510 255 220 0
0.597386 0.113052 0.085161 255 220 0
0.534058 0.133318 0.071423 255 220 0
0.487981 0.132017 0.048369 255 220 0
0.571961 0.137885 0.057599 255 220 0
0.593468 0.066508 0.069390 255 220 0
0.512305 0.050608 0.050453 255 220 0
0.604918 0.095790 0.086082 255 220 0
0.445707 0.107720 0.029845 255 220 0
0.523270 0.110156 0.019414 255 220 0
0.603156 0.113555 0.079376 255 220 0
0.612365 0.104812 0.067748 255 220 0
0.539105 0.140851 0.052079 255 220 0
0.600712 0.071553 0.067730 255 220 0
0.588389 0.082765 0.094738 255 220 0
0.527040 0.096474 0.092497 255 220 0
0.473516 0.072608 0.069796 255 220 0
0.458179 0.127624 0.036856 255 220 0
0.505669 0.096667 0.017322 255 220 0
0.524667 0.119609 0.081632 255 220 0
0.561252 0.093447 0.020439 255 220 0
0.601374 0.097078 0.088900 255 220 0
0.514837 0.129722 0.031307 255 220 0
0.505171 0.063637 0.080989 255 220 0
0.533197 0.087121 0.016844 255 220 0
0.553897 0.062790 0.032241 255 220 0
0.579655 0.119418 0.088693 255 220 0
0.557292 0.052076 0.067113 255 220 0
0.599890 0.074882 0.080653 255 220 0
0.480672 0.111222 0.072147 255 220 0
0.532262 0.139747 0.057287 255 220 0
0.563223 0.112753 0.094318 255 220 0
0.612296 0.103469 0.071994 255 220 0
0.592606 0.069419 0.052641 255 220 0
0.533885 0.135673 0.067858 255 220 0
0.590678 0.121403 0.082086 255 220 0
0.494402 0.115619 0.074088 255 220 0
0.465805 0.123221 0.061398 255 220 0
0.459524 0.107899 0.066968 255 220 0
0.446641 0.117273 0.061717 255 220 0
0.609815 0.088094 0.078583 255 220 0
0.449653 0.110241 0.028346 255 220 0
0.472806 0.120263 0.064878 255 220 0
0.489587 0.118982 0.025384 255 220 0
0.606215 0.078205 0.060614 255 220 0
0.533930 0.135912 0.067469 255 220 0
0.499005 0.052560 0.050407 255 220 0
0.516382 0.070019 0.022940 255 220 0
0.492928 0.132820 0.048884 255 220 0
0.536417 0.133172 0.032868 255 220 0
0.465476 0.107966 0.023556 255 220 0
0.562378 0.138519 0.064906 255 220 0
0.591235 0.065857 0.060202 255 220 0
0.605168 0.088910 0.085181 255 220 0
0.520006 0.079334 0.018487 255 220 0
0.526250 0.053033 0.042258 255 220 0
0.569932 0.096764 0.099673 255 220 0
0.585204 0.062136 0.063684 255 220 0
0.452974 0.106816 0.065409 255 220 0
0.500608 0.116404 0.023022 255 220 0
0.571581 0.056350 0.064376 255 220 0
0.474596 0.109211 0.071104 255 220 0
0.529782 0.079142 0.092976 255 220 0
0.484906 0.090869 0.019588 255 220 0
0.529093 0.138239 0.041661 255 220 0
0.499608 0.129385 0.063210 255 220 0
0.598262 0.119859 0.049789 255 220 0
0.573909 0.128443 0.038208 255 220 0
0.454985 0.122563 0.060256 255 220 0
0.533182 0.123783 0.081105 255 220 0
0.526955 0.079033 0.092282 255 220 0
0.568028 0.074700 0.095627 255 220 0
0.529845 0.139962 0.054417 255 220 0
0.461676 0.079383 0.031026 255 220 0
0.555863 0.062031 0.033798 255 220 0
0.525400 0.123020 0.079256 255 220 0
0.571063 0.058686 0.049213 255 220 0
0.606773 0.078629 0.073059 255 220 0
0.452901 0.103620 0.026514 255 220 0
0.527312 0.050392 0.048767 255 220 0
0.502968 0.058389 0.076766 255 220 0
0.588376 0.102406 0.033333 255 220 0
0.583826 0.075136 0.036457 255 220 0
0.557015 0.135843 0.039698 255 220 0
0.458863 0.097894 0.068083 255 220 0
0.511068 0.107801 0.083813 255 220 0
0.559053 0.056080 0.078727 255 220 0
0.557869 0.085195 0.098747 255 220 0
0.594427 0.112477 0.040872 255 220 0
0.523249 0.114616 0.020956 255 220 0
0.595671 0.104721 0.090820 255 220 0
0.464990 0.130525 0.044282 255 220 0
0.590967 0.088616 0.035925 255 220 0
0.448040 0.091633 0.061688 255 220 0
0.548861 0.094586 0.017941 255 220 0
0.533132 0.088363 0.094787 255 220 0
0.481823 0.113795 0.071210 255 220 0
0.589081 0.122000 0.042712 255 220 0
0.586023 0.073796 0.090686 255 220 0
0.554992 0.057165 0.082091 255 220 0
0.601923 0.072957 0.071641 255 220 0
0.588112 0.131071 0.056353 255 220 0
0.586735 0.122945 0.082651 255 220 0
0.567283 0.139130 0.056782 255 220 0
0.570492 0.076312 0.096309 255 220 0
0.527351 0.102453 0.090711 255 220 0
0.545648 0.064283 0.028594 255 220 0
0.479653 0.058192 0.054435 255 220 0
0.493045 0.052681 0.058253 255 220 0
0.531415 0.074886 0.092377 255 220 0
0.561611 0.057832 0.080646 255 220 0
0.526767 0.114126 0.085708 255 220 0
0.509021 0.054533 0.041472 255 220 0
0.599331 0.074021 0.080152 255 220 0
0.447781 0.079743 0.051608 255 220 0
0.532172 0.048723 0.064107 255 220 0
0.571919 0.095998 0.024197 255 220 0
0.486720 0.068040 0.029185 255 220 0
0.516593 0.059205 0.032802 255 220 0
0.578703 0.064320 0.082506 255 220 0
0.535871 0.097020 0.094693 255 220 0
0.549248 0.129020 0.030103 255 220 0
0.611310 0.084646 0.064760 255 220 0
0.493408 0.076966 0.081760 255 220 0
0.551609 0.051502 0.052580 255 220 0
0.489515 0.127746 0.033728 255 220 0
0.569966 0.135687 0.070094 255 220 0
0.586449 0.103985 0.032327 255 220 0
0.530205 0.061386 0.029983 255 220 0
0.480283 0.093795 0.020086 255 220 0
0.552237 0.085301 0.098150 255 220 0
0.594040 0.090541 0.037708 255 220 0
0.525461 0.094350 0.016397 255 220 0
0.554602 0.087305 0.098673 255 220 0
0.473110 0.089216 0.022259 255 220 0
0.552280 0.122465 0.086738 255 220 0
0.523284 0.082145 0.091882 255 220 0
0.513199 0.120518 0.077143 255 220 0
0.475490 0.070313 0.069732 255 220 0
0.493499 0.132933 0.048512 255 220 0
0.507529 0.111799 0.020648 255 220 0
0.483700 0.087874 0.078758 255 220 0
0.513828 0.072670 0.087248 255 220 0
0.558527 0.052728 0.055093 255 220 0
0.598327 0.071527 0.077018 255 220 0
0.612257 0.102359 0.060002 255 220 0
0.566859 0.054638 0.061668 255 220 0
0.582347 0.109231 0.094719 255 220 0
0.445308 0.116523 0.031680 255 220 0
0.612263 0.104701 0.069715 255 220 0
0.447021 0.093049 0.032339 255 220 0
0.458939 0.093104 0.025639 255 220 0
0.445884 0.108805 0.063100 255 220 0
0.438529 0.119967 0.038660 255 220 0
0.523696 0.137931 0.058857 255 220 0
0.603897 0.113394 0.051848 255 220 0
0.522396 0.133510 0.067067 255 220 0
0.577396 0.134489 0.049765 255 220 0
0.504685 0.134013 0.057142 255 220 0
0.435499 0.117493 0.051815 255 220 0
0.564732 0.076952 0.096809 255 220 0
0.527534 0.051066 0.046808 255 220 0
0.611786 0.085808 0.069274 255 220 0
0.595588 0.115995 0.043747 255 220 0
0.541948 0.055712 0.038383 255 220 0
0.594228 0.071189 0.082053 255 220 0
0.462789 0.095446 0.023805 255 220 0
0.471033 0.104309 0.021949 255 220 0
0.550281 0.122142 0.086641 255 220 0
0.562242 0.058946 0.041204 255 220 0
0.444164 0.103508 0.062416 255 220 0
0.469234 0.065709 0.060080 255 220 0
0.465612 0.095318 0.070869 255 220 0
0.452824 0.129928 0.043355 255 220 0
0.570668 0.059662 0.078812 255 220 0
0.540662 0.127133 0.080239 255 220 0
0.471914 0.115220 0.025106 255 220 0
0.491805 0.054118 0.064252 255 220 0
0.537082 0.117280 0.086883 255 220 0
0.509819 0.089822 0.016961 255 220 0
0.477309 0.087231 0.076097 255 220 0
0.524831 0.069975 0.022701 255 220 0
0.569978 0.103292 0.023632 255 220 0
0.599648 0.072098 0.075726 255 220 0
0.502132 0.129825 0.034427 255 220 0
0.530632 0.131211 0.030776 255 220 0
0.505677 0.078071 0.019794 255 220 0
0.476443 0.086578 0.022101 255 220 0
0.545188 0.125225 0.083095 255 220 0
0.601267 0.120771 0.057714 255 220 0
0.581443 0.099870 0.098047 255 220 0
0.552739 0.131069 0.032670 255 220 0
0.527045 0.048362 0.062827 255 220 0
0.549420 0.056288 0.039408 255 220 0
0.549279 0.136223 0.038466 255 220 0
0.598744 0.072956 0.055697 255 220 0
0.559205 0.092532 0.019928 255 220 0
0.601687 0.111651 0.082711 255 220 0
0.555275 0.123311 0.027201 255 220 0
0.592703 0.121386 0.045228 255 220 0
0.530561 0.102577 0.017443 255 220 0
0.496548 0.095504 0.082474 255 220 0
0.508373 0.059938 0.079919 255 220 0
0.508430 0.118832 0.023686 255 220 0
0.568788 0.059101 0.078945 255 220 0
0.451917 0.122073 0.060190 255 220 0
0.461025 0.072069 0.039188 255 220 0
0.568074 0.055347 0.058268 255 220 0
0.467707 0.085981 0.071472 255 220 0
0.610363 0.090738 0.078933 255 220 0
0.485035 0.123847 0.029657 255 220 0
0.472206 0.064002 0.060872 255 220 0
0.557146 0.066764 0.029647 255 220 0
0.611501 0.105616 0.061550 255 220 0
0.531008 0.106167 0.018240 255 220 0
0.541890 0.049219 0.062270 255 220 0
0.550990 0.057182 0.038523 255 220 0
0.531039 0.070637 0.091010 255 220 0
0.494387 0.119930 0.025550 255 220 0
0.523825 0.127567 0.074575 255 220 0
0.556749 0.087084 0.098885 255 220 0
0.556814 0.108875 0.021208 255 220 0
0.595550 0.126813 0.063537 255 220 0
0.501800 0.101281 0.018151 255 220 0
0.497678 0.064802 0.078707 255 220 0
0.527290 0.061523 0.085851 255 220 0
0.500626 0.059076 0.076298 255 220 0
0.457150 0.128896 0.039262 255 220 0
0.554287 0.092683 0.098843 255 220 0
0.584457 0.093918 0.030816 255 220 0
0.604028 0.087258 0.047917 255 220 0
0.609227 0.088878 0.080071 255 220 0
0.549448 0.103845 0.095668 255 220 0
0.493266 0.056591 0.069888 255 220 0
0.575325 0.136810 0.058022 255 220 0
0.463399 0.069118 0.058251 255 220 0
0.456191 0.129281 0.040293 255 220 0
0.475610 0.087660 0.075359 255 220 0
0.591231 0.123060 0.079685 255 220 0
0.513985 0.125208 0.027300 255 220 0
0.588435 0.117172 0.087346 255 220 0
0.438807 0.092191 0.050904 255 220 0
0.540802 0.050514 0.070254 255 220 0
0.473622 0.116522 0.025554 255 220 0
0.572986 0.061576 0.044624 255 220 0
0.540581 0.096391 0.017075 255 220 0
0.456848 0.125208 0.058270 255 220 0
0.576176 0.102574 0.026222 255 220 0
0.559374 0.058607 0.040087 255 220 0
0.575230 0.059741 0.051632 255 220 0
0.591017 0.122704 0.080311 255 220 0
0.499651 0.061387 0.032593 255 220 0
0.575780 0.092697 0.026251 255 220 0
0.536220 0.060306 0.086393 255 220 0
0.587564 0.120412 0.040354 255 220 0
0.455743 0.092333 0.027260 255 220 0
0.564812 0.109229 0.023196 255 220 0
0.456147 0.075974 0.038406 255 220 0
0.499491 0.078038 0.084262 255 220 0
0.476687 0.118988 0.026684 255 220 0
0.508327 0.103513 0.084441 255 220 0
0.486229 0.057553 0.046497 255 220 0
0.523507 0.071330 0.021896 255 220 0
0.549970 0.110178 0.093419 255 220 0
0.560473 0.081082 0.022328 255 220 0
0.565442 0.054879 0.055206 255 220 0
0.531750 0.070997 0.022082 255 220 0
0.548317 0.112751 0.091955 255 220 0
0.469144 0.063486 0.052510 255 220 0
0.496625 0.106137 0.019550 255 220 0
0.550678 0.118666 0.089153 255 220 0
0.479148 0.101812 0.020469 255 220 0
0.522942 0.087771 0.016639 255 220 0
0.483426 0.130164 0.055061 255 220 0
0.495198 0.054454 0.047463 255 220 0
0.611926 0.091702 0.075875 255 220 0
0.485697 0.057184 0.064428 255 220 0
0.455496 0.083158 0.062962 255 220 0
0.511214 0.094235 0.088094 255 220 0
0.541957 0.056035 0.082068 255 220 0
0.548325 0.106439 0.019301 255 220 0
0.602485 0.088960 0.045544 255 220 0
0.471497 0.068599 0.036102 255 220 0
0.561140 0.134195 0.038630 255 220 0
0.451416 0.084692 0.060570 255 220 0
0.537492 0.124663 0.081632 255 220 0
0.492869 0.101065 0.079640 255 220 0
0.470317 0.130783 0.047583 255 220 0
0.527394 0.139064 0.044605 255 220 0
0.526790 0.106862 0.018400 255 220 0
0.556512 0.115156 0.092206 255 220 0
0.571680 0.066042 0.036851 255 220 0
0.569801 0.055672 0.063147 255 220 0
0.606540 0.077795 0.071350 255 220 0
0.528870 0.076402 0.019374 255 220 0
0.527000 0.055894 0.037073 255 220 0
0.575883 0.088309 0.099174 255 220 0
0.529262 0.049414 0.052166 255 220 0
0.564578 0.065098 0.088922 255 220 0
0.613092 0.090787 0.070758 255 220 0
0.582831 0.061031 0.066754 255 220 0
0.461516 0.098727 0.069019 255 220 0
0.605015 0.114812 0.074364 255 220 0
0.517604 0.060301 0.082877 255 220 0
0.563774 0.139735 0.053833 255 220 0
0.575031 0.136340 0.064035 255 220 0
0.519634 0.126925 0.027899 255 220 0
0.551185 0.062057 0.032164 255 220 0
0.501931 0.051200 0.066104 255 220 0
0.489644 0.115419 0.023416 255 220 0
0.536242 0.094005 0.016672 255 220 0
0.587437 0.076613 0.038208 255 220 0
0.510946 0.083276 0.088645 255 220 0
0.542957 0.120060 0.023622 255 220 0
0.606233 0.077921 0.073007 255 220 0
0.594523 0.088091 0.038661 255 220 0
0.550046 0.112600 0.021314 255 220 0
0.457595 0.112134 0.026302 255 220 0
0.519893 0.048271 0.060827 255 220 0
0.546537 0.124880 0.083693 255 220 0
0.463113 0.078136 0.065763 255 220 0
0.553562 0.109021 0.094569 255 220 0
0.447340 0.128340 0.051035 255 220 0
0.468110 0.085384 0.071565 255 220 0
0.482856 0.104495 0.075243 255 220 0
0.582664 0.100632 0.029543 255 220 0
0.602645 0.119022 0.070248 255 220 0
0.454066 0.129854 0.042533 255 220 0
0.536782 0.112795 0.020341 255 220 0
0.478006 0.064067 0.066632 255 220 0
0.453922 0.111556 0.064770 255 220 0
0.525342 0.134481 0.035181 255 220 0
0.520333 0.112022 0.020118 255 220 0
0.586382 0.072605 0.089420 255 220 0
0.563720 0.080207 0.023636 255 220 0
0.580126 0.129562 0.043629 255 220 0
0.562832 0.084485 0.022030 255 220 0
0.592191 0.095464 0.035679 255 220 0
0.527779 0.105803 0.089638 255 220 0
0.555498 0.134628 0.073999 255 220 0
0.537676 0.129974 0.076501 255 220 0
0.474015 0.106817 0.071708 255 220 0
0.543140 0.074524 0.094502 255 220 0
0.549286 0.093899 0.017997 255 220 0
0.493271 0.073937 0.023302 255 220 0
0.468682 0.105646 0.070301 255 220 0
0.566961 0.129037 0.081526 255 220 0
0.581089 0.066028 0.083917 255 220 0
0.575609 0.129902 0.078663 255 220 0
0.527807 0.107627 0.018597 255 220 0
0.553053 0.088233 0.098553 255 220 0
0.609204 0.110493 0.071112 255 220 0
0.460309 0.071137 0.057369 255 220 0
0.496699 0.120640 0.025802 255 220 0
0.542702 0.128696 0.079193 255 220 0
0.552847 0.094450 0.018563 255 220 0
0.516578 0.124376 0.075083 255 220 0
0.504406 0.091356 0.017283 255 220 0
0.515977 0.059699 0.032204 255 220 0
0.489922 0.069283 0.077485 255 220 0
0.581482 0.063861 0.049157 255 220 0
0.596281 0.073081 0.082641 255 220 0
0.531591 0.049767 0.050942 255 220 0
0.536539 0.130203 0.075924 255 220 0
0.546417 0.067475 0.026091 255 220 0
0.530632 0.111419 0.019745 255 220 0
0.578671 0.098796 0.098751 255 220 0
0.518023 0.066121 0.086006 255 220 0
0.457621 0.099362 0.067573 255 220 0
0.549212 0.061280 0.032471 255 220 0
0.580693 0.122826 0.085309 255 220 0
0.474148 0.096140 0.021037 255 220 0
0.543073 0.136013 0.069836 255 220 0
0.467003 0.079871 0.069241 255 220 0
0.592104 0.111742 0.089398 255 220 0
0.477660 0.096509 0.020404 255 220 0
0.485240 0.101483 0.076825 255 220 0
0.546225 0.139578 0.045136 255 220 0
0.608033 0.110761 0.057942 255 220 0
0.512927 0.064292 0.027424 255 220 0
0.546759 0.124859 0.026675 255 220 0
0.486780 0.086625 0.019959 255 220 0
0.535700 0.106757 0.018496 255 220 0
0.446184 0.116659 0.031341 255 220 0
0.582612 0.061124 0.060965 255 220 0
0.563088 0.134056 0.039166 255 220 0
0.543603 0.095804 0.096676 255 220 0
0.530055 0.131239 0.072758 255 220 0
0.593459 0.126949 0.054020 255 220 0
0.568030 0.067136 0.033726 255 220 0
0.569008 0.110336 0.095838 255 220 0
0.528007 0.137133 0.039342 255 220 0
0.543346 0.083035 0.018459 255 220 0
0.596599 0.090037 0.039829 255 220 0
0.501652 0.065009 0.080398 255 220 0
0.598804 0.093302 0.090940 255 220 0
0.564186 0.058790 0.042767 255 220 0
0.461105 0.073906 0.061224 255 220 0
0.599174 0.106404 0.087800 255 220 0
0.573880 0.058071 0.055684 255 220 0
0.540806 0.071548 0.093199 255 220 0
0.532510 0.054490 0.079446 255 220 0
0.452376 0.115273 0.063511 255 220 0
0.574457 0.078533 0.096938 255 220 0
0.554369 0.129270 0.031369 255 220 0
0.484264 0.106504 0.075104 255 220 0
0.518184 0.070839 0.087848 255 220 0
0.564469 0.084279 0.098963 255 220 0
0.466814 0.067450 0.041862 255 220 0
0.497009 0.125419 0.029798 255 220 0
0.483790 0.105009 0.020449 255 220 0
0.532169 0.069365 0.090807 255 220 0
0.497413 0.128907 0.034081 255 220 0
0.483908 0.091934 0.019635 255 220 0
0.535355 0.140395 0.055580 255 220 0
0.490570 0.092851 0.018627 255 220 0
0.589383 0.071090 0.085991 255 220 0
0.438585 0.099020 0.055973 255 220 0
0.566271 0.068361 0.091509 255 220 0
0.533961 0.099078 0.016937 255 220 0
0.470208 0.070119 0.034881 255 220 0
0.534594 0.048879 0.056042 255 220 0
0.461355 0.108507 0.067335 255 220 0
0.474445 0.080074 0.025109 255 220 0
0.547087 0.132419 0.075961 255 220 0
0.438271 0.117251 0.056794 255 220 0
0.472267 0.063571 0.045179 255 220 0
0.585002 0.120900 0.038922 255 220 0
0.537618 0.051499 0.046217 255 220 0
0.504259 0.129645 0.064845 255 220 0
0.471430 0.080597 0.072139 255 220 0
0.529262 0.089983 0.093876 255 220 0
0.463418 0.073742 0.063105 255 220 0
0.478207 0.060287 0.047388 255 220 0
0.531813 0.078424 0.018730 255 220 0
0.586111 0.122464 0.083487 255 220 0
0.488617 0.061751 0.072140 255 220 0
0.528716 0.139147 0.057696 255 220 0
0.460349 0.130488 0.048428 255 220 0
0.560343 0.104963 0.097248 255 220 0
0.533121 0.104873 0.017964 255 220 0
0.555351 0.055754 0.079668 255 220 0
0.479162 0.093090 0.076404 255 220 0
0.479342 0.125698 0.032305 255 220 0
0.553515 0.058949 0.084838 255 220 0
0.510028 0.127054 0.029484 255 220 0
0.452396 0.120340 0.061369 255 220 0
0.488430 0.061111 0.037524 255 220 0
0.574008 0.110017 0.026959 255 220 0
0.489571 0.076067 0.079954 255 220 0
0.566722 0.137614 0.066170 255 220 0
0.562368 0.098080 0.020788 255 220 0
0.538662 0.132988 0.073190 255 220 0
0.580587 0.062356 0.051760 255 220 0
0.530438 0.057802 0.083379 255 220 0
0.589143 0.126550 0.047579 255 220 0
0.511860 0.054324 0.041290 255 220 0
0.518813 0.061564 0.029886 255 220 0
0.583984 0.098614 0.097590 255 220 0
0.449873 0.077049 0.050705 255 220 0
0.573962 0.128653 0.080806 255 220 0
0.485449 0.097833 0.019295 255 220 0
0.477433 0.128276 0.036347 255 220 0
0.533539 0.093897 0.016531 255 220 0
0.495707 0.127289 0.064333 255 220 0
0.460128 0.097956 0.024308 255 220 0
0.604174 0.098131 0.045840 255 220 0
0.586333 0.096838 0.097066 255 220 0
0.568754 0.106393 0.023709 255 220 0
0.605723 0.096874 0.047500 255 220 0
0.526215 0.068836 0.023435 255 220 0
0.549904 0.126163 0.083223 255 220 0
0.547548 0.050682 0.069044 255 220 0
0.468523 0.105638 0.022578 255 220 0
0.479909 0.061724 0.042130 255 220 0
0.465232 0.097507 0.022861 255 220 0
0.560305 0.098810 0.020275 255 220 0
0.508421 0.093476 0.087285 255 220 0
0.513607 0.103903 0.018078 255 220 0
0.489338 0.099803 0.078698 255 220 0
0.459740 0.083088 0.029593 255 220 0
0.559766 0.052583 0.065938 255 220 0
0.499579 0.054335 0.045204 255 220 0
0.597372 0.071206 0.056953 255 220 0
0.491588 0.130546 0.057467 255 220 0
0.515971 0.092400 0.016568 255 220 0
0.542289 0.140697 0.049420 255 220 0
0.551548 0.055176 0.042279 255 220 0
0.469242 0.070405 0.065193 255 220 0
0.549964 0.098270 0.097483 255 220 0
0.569910 0.135182 0.071347 255 220 0
0.567806 0.060654 0.082256 255 220 0
0.479994 0.131212 0.047759 255 220 0
0.437282 0.115817 0.056174 255 220 0
0.520769 0.094994 0.090997 255 220 0
0.490777 0.117961 0.071280 255 220 0
0.576754 0.058675 0.068519 255 220 0
0.523955 0.097436 0.091364 255 220 0
0.506175 0.061749 0.030733 255 220 0
0.575413 0.080027 0.097386 255 220 0
0.492804 0.122560 0.027664 255 220 0
0.456991 0.106018 0.066621 255 220 0
0.597012 0.125701 0.062301 255 220 0
0.530317 0.109619 0.088892 255 220 0
0.443944 0.103698 0.062305 255 220 0
0.515122 0.118901 0.079020 255 220 0
0.589100 0.063998 0.065705 255 220 0
0.440846 0.089372 0.051834 255 220 0
0.599982 0.104276 0.042666 255 220 0
0.464417 0.130007 0.041820 255 220 0
0.544315 0.055040 0.040032 255 220 0
0.581932 0.089473 0.098258 255 220 0
0.592600 0.128081 0.055482 255 220 0
0.486716 0.121832 0.066992 255 220 0
0.510652 0.131027 0.033900 255 220 0
0.595231 0.072473 0.051041 255 220 0
0.438299 0.117791 0.037534 255 220 0
0.496722 0.053662 0.067815 255 220 0
0.591921 0.119509 0.043003 255 220 0
0.588889 0.126404 0.076620 255 220 0
0.554854 0.111950 0.021799 255 220 0
0.606721 0.092604 0.049096 255 220 0
0.610649 0.106455 0.074085 255 220 0
0.510941 0.100205 0.017478 255 220 0
0.493467 0.110639 0.076515 255 220 0
0.535052 0.102727 0.092715 255 220 0
0.490932 0.130837 0.056477 255 220 0
0.538201 0.137508 0.039439 255 220 0
0.583436 0.066591 0.045990 255 220 0
0.567018 0.054814 0.065886 255 220 0
0.498336 0.123501 0.069278 255 220 0
0.595693 0.119684 0.046617 255 220 0
0.518735 0.101289 0.088573 255 220 0
0.468834 0.128763 0.055319 255 220 0
0.441553 0.086224 0.045091 255 220 0
0.475034 0.121696 0.064298 255 220 0
0.447640 0.129156 0.044488 255 220 0
0.518379 0.138287 0.047361 255 220 0
0.570389 0.110727 0.025622 255 220 0
0.605296 0.082131 0.081238 255 220 0
0.578123 0.064199 0.044659 255 220 0
0.450733 0.129809 0.044388 255 220 0
0.544915 0.135064 0.071776 255 220 0
0.534815 0.127974 0.077745 255 220 0
0.514084 0.049668 0.053321 255 220 0
0.479025 0.128691 0.057193 255 220 0
0.595846 0.069011 0.075016 255 220 0
0.481887 0.089051 0.020387 255 220 0
0.509873 0.050087 0.053121 255 220 0
0.498522 0.077472 0.020846 255 220 0
0.456097 0.120452 0.030292 255 220 0
0.485254 0.131288 0.051772 255 220 0
0.509179 0.115150 0.079501 255 220 0
0.526491 0.139254 0.055749 255 220 0
0.602335 0.099125 0.087827 255 220 0
0.445770 0.088180 0.036705 255 220 0
0.468772 0.107493 0.069843 255 220 0
0.528982 0.052861 0.076792 255 220 0
0.448288 0.083344 0.038340 255 220 0
0.580879 0.125549 0.082344 255 220 0
0.507904 0.129098 0.067045 255 220 0
0.595709 0.110015 0.088303 255 220 0
0.547754 0.071220 0.023812 255 220 0
0.587646 0.063325 0.064042 255 220 0
0.606047 0.113010 0.075399 255 220 0
0.569378 0.106084 0.023867 255 220 0
0.532364 0.101165 0.092561 255 220 0
0.560884 0.135626 0.040605 255 220 0
0.577594 0.061131 0.050893 255 220 0
0.606622 0.110323 0.078026 255 220 0
0.567358 0.123687 0.031190 255 220 0
0.482889 0.129805 0.055800 255 220 0
0.609882 0.105372 0.056209 255 220 0
0.479422 0.112691 0.023168 255 220 0
0.446836 0.082245 0.041245 255 220 0
0.570286 0.113525 0.094133 255 220 0
0.438288 0.095549 0.039935 255 220 0
0.595585 0.088504 0.092564 255 220 0
0.495154 0.058697 0.073273 255 220 0
0.558146 0.140108 0.050770 255 220 0
0.606035 0.087548 0.050154 255 220 0
0.523218 0.048274 0.059738 255 220 0
0.486937 0.127535 0.033807 255 220 0
0.456800 0.118120 0.063110 255 220 0
0.573713 0.061096 0.046323 255 220 0
0.515240 0.084792 0.017307 255 220 0
0.569247 0.118891 0.028995 255 220 0
0.477327 0.065973 0.036196 255 220 0
0.517576 0.083116 0.017566 255 220 0
0.489849 0.118157 0.070841 255 220 0
0.567642 0.060243 0.081680 255 220 0
0.501743 0.097470 0.017656 255 220 0
0.558965 0.061566 0.086590 255 220 0
0.556436 0.053032 0.051044 255 220 0
0.552935 0.059100 0.036396 255 220 0
0.525415 0.108047 0.088125 255 220 0
0.598843 0.110312 0.085950 255 220 0
0.588667 0.064177 0.071231 255 220 0
0.501720 0.077011 0.020621 255 220 0
0.510937 0.067287 0.025081 255 220 0
0.436931 0.121080 0.050769 255 220 0
0.491201 0.067073 0.077009 255 220 0
0.577367 0.093149 0.099297 255 220 0
0.547947 0.139626 0.062551 255 220 0
0.504932 0.115608 0.022343 255 220 0
0.454143 0.115960 0.063575 255 220 0
0.533946 0.061666 0.029789 255 220 0
0.518525 0.107496 0.018774 255 220 0
0.464614 0.114681 0.066166 255 220 0
0.497230 0.051933 0.054383 255 220 0
0.550009 0.124828 0.084422 255 220 0
0.599187 0.119252 0.050426 255 220 0
0.497634 0.052397 0.051998 255 220 0
0.607109 0.083393 0.054688 255 220 0
0.522802 0.066275 0.025398 255 220 0
0.613160 0.089567 0.067400 255 220 0
0.507008 0.051131 0.069369 255 220 0
0.452738 0.090817 0.029477 255 220 0
0.511877 0.136905 0.047149 255 220 0
0.590947 0.097292 0.095198 255 220 0
0.465816 0.118865 0.027836 255 220 0
0.505110 0.130614 0.034842 255 220 0
0.565261 0.095157 0.099725 255 220 0
0.499568 0.132294 0.058081 255 220 0
0.607546 0.113577 0.067120 255 220 0
0.591815 0.111571 0.038448 255 220 0
0.496902 0.095906 0.082508 255 220 0
0.515928 0.053617 0.042036 255 220 0
0.543244 0.097477 0.017383 255 220 0
0.484037 0.076629 0.077572 255 220 0
0.487124 0.062815 0.035426 255 220 0
0.522405 0.135259 0.064259 255 220 0
0.532789 0.129573 0.029187 255 220 0
0.600640 0.073306 0.076534 255 220 0
0.542580 0.061252 0.031104 255 220 0
0.485245 0.109139 0.021359 255 220 0
0.442834 0.125673 0.040061 255 220 0
0.481894 0.089488 0.077915 255 220 0
0.457425 0.110497 0.065807 255 220 0
0.592330 0.120719 0.044315 255 220 0
0.592059 0.079178 0.040456 255 220 0
0.594176 0.066861 0.067863 255 220 0
0.558139 0.121140 0.026592 255 220 0
0.546512 0.140986 0.054580 255 220 0
0.473859 0.068154 0.035198 255 220 0
0.485033 0.124477 0.064044 255 220 0
0.523884 0.069906 0.022764 255 220 0
0.496271 0.077928 0.020995 255 220 0
0.450320 0.080632 0.038903 255 220 0
0.578117 0.076605 0.031794 255 220 0
0.516587 0.050143 0.070792 255 220 0
0.564704 0.061707 0.085069 255 220 0
0.558877 0.137626 0.068160 255 220 0
0.572631 0.059321 0.049365 255 220 0
0.503564 0.105982 0.019064 255 220 0
0.582732 0.133631 0.055599 255 220 0
0.439322 0.103444 0.058640 255 220 0
0.583232 0.127669 0.043737 255 220 0
0.570915 0.063643 0.039499 255 220 0
0.450066 0.098962 0.064767 255 220 0
0.591802 0.096124 0.035361 255 220 0
0.556097 0.114226 0.022858 255 220 0
0.576490 0.133064 0.045797 255 220 0
0.558943 0.052909 0.069641 255 220 0
0.532886 0.065969 0.025691 255 220 0
0.581067 0.068400 0.040864 255 220 0
0.439442 0.124718 0.048649 255 220 0
0.538868 0.052365 0.075512 255 220 0
0.550196 0.087124 0.018679 255 220 0
0.550229 0.056114 0.081618 255 220 0
0.589057 0.085324 0.035482 255 220 0
0.567225 0.055807 0.071447 255 220 0
0.471436 0.067206 0.038312 255 220 0
0.585737 0.103495 0.095987 255 220 0
0.570402 0.104946 0.098002 255 220 0
0.533144 0.061845 0.087141 255 220 0
0.516184 0.137587 0.054175 255 220 0
0.578841 0.124744 0.037890 255 220 0
0.551967 0.094906 0.018418 255 220 0
0.543799 0.099805 0.017674 255 220 0
0.506128 0.052316 0.047506 255 220 0
0.469932 0.098018 0.021765 255 220 0
0.478332 0.112407 0.023175 255 220 0
0.521602 0.093906 0.016426 255 220 0
0.522775 0.126711 0.075053 255 220 0
0.544067 0.079018 0.095816 255 220 0
0.526779 0.096435 0.092433 255 220 0
0.464302 0.076333 0.065589 255 220 0
0.536761 0.101085 0.093727 255 220 0
0.551833 0.139112 0.044950 255 220 0
0.497030 0.057718 0.039311 255 220 0
0.474719 0.103618 0.021289 255 220 0
0.609904 0.082278 0.063734 255 220 0
0.526958 0.089887 0.093290 255 220 0
0.551860 0.134428 0.036353 255 220 0
0.483647 0.119944 0.026602 255 220 0
0.497071 0.057544 0.039610 255 220 0
0.503062 0.123376 0.071100 255 220 0
0.505371 0.061233 0.079693 255 220 0
0.442602 0.113628 0.032323 255 220 0
0.591253 0.082262 0.093210 255 220 0
0.536620 0.049820 0.051521 255 220 0
0.560095 0.060017 0.084450 255 220 0
0.532710 0.128915 0.028629 255 220 0
0.569295 0.134065 0.042107 255 220 0
0.451688 0.096790 0.027914 255 220 0
0.438045 0.093964 0.051248 255 220 0
0.436418 0.112012 0.038343 255 220 0
0.542437 0.059667 0.032927 255 220 0
0.571107 0.084023 0.025407 255 220 0
0.582469 0.102085 0.097334 255 220 0
0.567724 0.074047 0.028161 255 220 0
0.438619 0.113839 0.035633 255 220 0
0.560946 0.086288 0.099139 255 220 0
0.537045 0.132925 0.072823 255 220 0
0.499167 0.095512 0.017732 255 220 0
0.457686 0.130529 0.046462 255 220 0
0.584730 0.075656 0.036758 255 220 0
0.539198 0.073881 0.093684 255 220 0
0.445163 0.120857 0.033738 255 220 0
0.443030 0.124098 0.055499 255 220 0
0.452308 0.081444 0.059167 255 220 0
0.448415 0.113377 0.063201 255 220 0
0.574653 0.089608 0.026100 255 220 0
0.465522 0.087516 0.024960 255 220 0
0.520169 0.070723 0.022356 255 220 0
0.447882 0.128974 0.043081 255 220 0
0.476818 0.127181 0.034601 255 220 0
0.591320 0.097754 0.094965 255 220 0
0.581628 0.063956 0.049123 255 220 0
0.498013 0.115093 0.022590 255 220 0
0.500787 0.064032 0.029233 255 220 0
0.540868 0.140230 0.058924 255 220 0
0.555664 0.052546 0.071407 255 220 0
0.492150 0.111370 0.075722 255 220 0
0.541201 0.098946 0.017349 255 220 0
0.573837 0.129497 0.039206 255 220 0
0.612181 0.086486 0.067321 255 220 0
0.491100 0.082091 0.020401 255 220 0
0.612936 0.090946 0.071712 255 220 0
0.570714 0.104080 0.098264 255 220 0
0.510553 0.100685 0.017577 255 220 0
0.555111 0.135426 0.072666 255 220 0
0.611534 0.094099 0.055876 255 220 0
0.504035 0.060588 0.032602 255 220 0
0.503186 0.058240 0.076735 255 220 0
0.543467 0.058338 0.084974 255 220 0
0.564766 0.134604 0.073785 255 220 0
0.474271 0.130861 0.045574 255 220 0
0.544603 0.115918 0.089542 255 220 0
0.484326 0.129018 0.057860 255 220 0
0.518535 0.110079 0.019537 255 220 0
0.608295 0.081869 0.075213 255 220 0
0.580975 0.127475 0.079921 255 220 0
0.543416 0.130814 0.030867 255 220 0
0.585791 0.130613 0.050882 255 220 0
0.507279 0.127816 0.068272 255 220 0
0.579651 0.059888 0.060011 255 220 0
0.478905 0.127714 0.035184 255 220 0
0.575685 0.079374 0.029176 255 220 0
0.538771 0.075582 0.020260 255 220 0
0.518768 0.128173 0.029072 255 220 0
0.537264 0.057238 0.083402 255 220 0
0.499065 0.078732 0.084245 255 220 0
0.484094 0.131059 0.042529 255 220 0
0.589962 0.129819 0.067231 255 220 0
0.451921 0.106160 0.065199 255 220 0
0.469142 0.126859 0.034845 255 220 0
0.474453 0.094421 0.074403 255 220 0
0.503455 0.080041 0.085938 255 220 0
0.545946 0.049662 0.062915 255 220 0
0.541488 0.064470 0.089969 255 220 0
0.520388 0.067802 0.087322 255 220 0
0.601774 0.119647 0.056352 255 220 0
0.517459 0.053856 0.041341 255 220 0
0.523862 0.064979 0.086983 255 220 0
0.436356 0.114452 0.039092 255 220 0
0.540947 0.089857 0.096522 255 220 0
0.540212 0.077105 0.019817 255 220 0
0.450876 0.082015 0.058198 255 220 0
0.594211 0.081114 0.091053 255 220 0
0.529414 0.087257 0.093864 255 220 0
0.446387 0.109977 0.029688 255 220 0
0.509114 0.059862 0.032670 255 220 0
0.602863 0.118841 0.070072 255 220 0
0.612207 0.095779 0.075947 255 220 0
0.584447 0.124225 0.041174 255 220 0
0.602774 0.081098 0.050641 255 220 0
0.472199 0.079400 0.026219 255 220 0
0.538649 0.113277 0.089493 255 220 0
0.593856 0.074899 0.046067 255 220 0
0.568303 0.063324 0.038251 255 220 0
0.511499 0.077175 0.019675 255 220 0
0.433704 0.110384 0.049132 255 220 0
0.543455 0.124770 0.083085 255 220 0
0.460761 0.071101 0.040971 255 220 0
0.572650 0.118562 0.030348 255 220 0
0.516871 0.113890 0.082781 255 220 0
0.553740 0.071385 0.025197 255 220 0
0.502173 0.058848 0.035563 255 220 0
0.529603 0.131382 0.031001 255 220 0
0.533091 0.094574 0.094476 255 220 0
0.509800 0.068566 0.084681 255 220 0
0.454251 0.084259 0.062619 255 220 0
0.504486 0.049967 0.057429 255 220 0
0.592274 0.083977 0.038259 255 220 0
0.506774 0.054368 0.042418 255 220 0
0.484997 0.059262 0.043407 255 220 0
0.510061 0.050522 0.069454 255 220 0
0.559522 0.104822 0.020780 255 220 0
0.534999 0.073313 0.020977 255 220 0
0.482871 0.130524 0.040883 255 220 0
0.531010 0.071079 0.022014 255 220 0
0.592351 0.128941 0.064402 255 220 0
0.595134 0.080637 0.042425 255 220 0
0.516536 0.136316 0.058987 255 220 0
0.528775 0.127195 0.076601 255 220 0
0.595277 0.101514 0.092094 255 220 0
0.508251 0.091339 0.016999 255 220 0
0.497179 0.064744 0.029287 255 220 0
0.602015 0.115550 0.078408 255 220 0
0.504042 0.061435 0.079326 255 220 0
0.609096 0.104862 0.078837 255 220 0
0.495033 0.091110 0.082826 255 220 0
0.435140 0.101871 0.051173 255 220 0
0.496114 0.126083 0.065884 255 220 0
0.483292 0.130119 0.055136 255 220 0
0.483343 0.058895 0.064977 255 220 0
0.511661 0.108858 0.019468 255 220 0
0.561359 0.124620 0.029672 255 220 0
0.539575 0.110240 0.019626 255 220 0
0.519930 0.063057 0.085054 255 220 0
0.530836 0.129298 0.075153 255 220 0
0.580842 0.060795 0.057856 255 220 0
0.463444 0.071391 0.038101 255 220 0
0.598938 0.119673 0.076508 255 220 0
0.594057 0.125168 0.073377 255 220 0
0.587015 0.109971 0.092817 255 220 0
0.515236 0.098296 0.017013 255 220 0
0.525929 0.106147 0.088980 255 220 0
0.473460 0.125521 0.060545 255 220 0
0.498023 0.085869 0.018523 255 220 0
0.503624 0.064028 0.028701 255 220 0
0.577944 0.133415 0.047868 255 220 0
0.440843 0.124518 0.052563 255 220 0
0.496139 0.116972 0.073782 255 220 0
0.461769 0.115747 0.065070 255 220 0
0.508575 0.123371 0.026553 255 220 0
0.501482 0.050516 0.057498 255 220 0
0.514442 0.135428 0.059925 255 220 0
0.570608 0.081284 0.098193 255 220 0
0.528560 0.053869 0.078424 255 220 0
0.578911 0.107377 0.028614 255 220 0
0.608078 0.103241 0.081124 255 220 0
0.531556 0.049828 0.050709 255 220 0
0.583949 0.083840 0.096694 255 220 0
0.556761 0.099103 0.098445 255 220 0
0.522291 0.096425 0.016576 255 220 0
0.528503 0.068464 0.089628 255 220 0
0.597016 0.075577 0.049162 255 220 0
0.557958 0.105339 0.020555 255 220 0
0.537620 0.114966 0.088353 255 220 0
0.477900 0.065926 0.035895 255 220 0
0.609267 0.093025 0.052270 255 220 0
0.568434 0.057781 0.048683 255 220 0
0.526319 0.070205 0.022524 255 220 0
0.599153 0.070296 0.066884 255 220 0
0.596632 0.089930 0.039881 255 220 0
0.602207 0.107641 0.045936 255 220 0
0.588551 0.125904 0.077698 255 220 0
0.442612 0.120438 0.034954 255 220 0
0.568479 0.132139 0.039160 255 220 0
0.490418 0.104023 0.019587 255 220 0
0.497782 0.101117 0.081416 255 220 0
0.457646 0.078553 0.061840 255 220 0
0.574646 0.057619 0.061338 255 220 0
0.573945 0.065682 0.038790 255 220 0
0.532305 0.117635 0.085312 255 220 0
0.559418 0.100467 0.098506 255 220 0
0.549863 0.138918 0.064854 255 220 0
0.522292 0.136292 0.038881 255 220 0
0.581049 0.102029 0.097690 255 220 0
0.473537 0.103357 0.021421 255 220 0
0.598577 0.103456 0.041226 255 220 0
0.576289 0.059593 0.073609 255 220 0
0.452816 0.074216 0.046001 255 220 0
0.505823 0.056628 0.038261 255 220 0
0.511989 0.048876 0.058719 255 220 0
0.490238 0.114925 0.023127 255 220 0
0.501359 0.096035 0.084141 255 220 0
0.580473 0.069300 0.039236 255 220 0
0.582114 0.114377 0.091779 255 220 0
0.460196 0.130400 0.043859 255 220 0
0.489429 0.118123 0.024881 255 220 0
0.512341 0.133869 0.037805 255 220 0
0.466224 0.109701 0.068409 255 220 0
0.523921 0.076174 0.019496 255 220 0
0.515651 0.097965 0.016958 255 220 0
0.527287 0.085260 0.093214 255 220 0
0.514597 0.077878 0.088851 255 220 0
0.495059 0.060625 0.074840 255 220 0
0.556226 0.121440 0.088102 255 220 0
0.505074 0.134504 0.055867 255 220 0
0.494207 0.059592 0.037210 255 220 0
0.586311 0.112247 0.034937 255 220 0
0.576447 0.058910 0.057161 255 220 0
0.511622 0.110912 0.020122 255 220 0
0.586365 0.080459 0.094691 255 220 0
0.522199 0.066420 0.087219 255 220 0
0.455003 0.129294 0.051862 255 220 0
0.589395 0.095343 0.096039 255 220 0
0.466901 0.077688 0.029467 255 220 0
0.581433 0.134500 0.057831 255 220 0
0.575377 0.112994 0.094015 255 220 0
0.557815 0.086836 0.098961 255 220 0
0.499183 0.104394 0.080924 255 220 0
0.499496 0.051625 0.065167 255 220 0
0.558913 0.080438 0.097834 255 220 0
0.509307 0.051630 0.048292 255 220 0
0.469044 0.120624 0.063874 255 220 0
0.585565 0.099669 0.096946 255 220 0
0.535130 0.105887 0.091603 255 220 0
0.502938 0.133374 0.040994 255 220 0
0.508441 0.058693 0.034404 255 220 0
0.516929 0.065093 0.085254 255 220 0
0.557449 0.059548 0.084653 255 220 0
0.588430 0.128289 0.073647 255 220 0
0.593187 0.075165 0.044989 255 220 0
0.504479 0.087860 0.086657 255 220 0
0.467361 0.103465 0.022474 255 220 0
0.559105 0.088140 0.020305 255 220 0
0.447227 0.100072 0.063627 255 220 0
0.583065 0.090489 0.098065 255 220 0
0.507359 0.132353 0.036960 255 220 0
0.461969 0.103474 0.023666 255 220 0
0.581572 0.095360 0.029021 255 220 0
0.476433 0.131012 0.047702 255 220 0
0.612006 0.087814 0.072375 255 220 0
0.535177 0.117017 0.021845 255 220 0
0.518067 0.054996 0.039073 255 220 0
0.597537 0.104629 0.040592 255 220 0
0.448315 0.127128 0.038407 255 220 0
0.480320 0.083841 0.022010 255 220 0
0.494271 0.105706 0.019629 255 220 0
0.540183 0.138452 0.064264 255 220 0
0.513832 0.111084 0.083265 255 220 0
0.609306 0.086432 0.078331 255 220 0
0.527963 0.079116 0.092541 255 220 0
0.468804 0.108776 0.023200 255 220 0
0.542512 0.059895 0.086553 255 220 0
0.447895 0.129280 0.044885 255 220 0
0.453844 0.080155 0.035954 255 220 0
0.486303 0.064031 0.072508 255 220 0
0.594730 0.077036 0.044846 255 220 0
0.606942 0.087800 0.051179 255 220 0
0.561902 0.061672 0.036908 255 220 0
0.450817 0.127912 0.038716 255 220 0
0.552742 0.059035 0.085072 255 220 0
0.575064 0.126492 0.083089 255 220 0
0.453575 0.076595 0.056034 255 220 0
0.482486 0.125116 0.062755 255 220 0
0.475640 0.116341 0.025232 255 220 0
0.472593 0.062181 0.049268 255 220 0
0.551396 0.053397 0.046155 255 220 0
0.459840 0.108819 0.024907 255 220 0
0.560192 0.108089 0.021676 255 220 0
0.573452 0.060947 0.079533 255 220 0
0.612574 0.100768 0.059796 255 220 0
0.548093 0.120288 0.024279 255 220 0
0.481686 0.116547 0.069541 255 220 0
0.472696 0.126228 0.033674 255 220 0
0.593610 0.123499 0.076859 255 220 0
0.447278 0.101521 0.063786 255 220 0
0.482996 0.107462 0.074370 255 220 0
0.557559 0.064207 0.032127 255 220 0
0.546885 0.068589 0.025367 255 220 0
0.451270 0.075752 0.045096 255 220 0
0.544938 0.139058 0.063793 255 220 0
0.520582 0.067980 0.087443 255 220 0
0.547094 0.050694 0.052485 255 220 0
0.476321 0.126794 0.059539 255 220 0
0.437630 0.097116 0.053171 255 220 0
0.537189 0.078876 0.094538 255 220 0
0.549027 0.072395 0.023407 255 220 0
0.582317 0.100580 0.029342 255 220 0
0.554671 0.129872 0.080226 255 220 0
0.518288 0.071014 0.022251 255 220 0
0.538597 0.052154 0.044759 255 220 0
0.458197 0.129120 0.039647 255 220 0
0.540116 0.065385 0.090362 255 220 0
0.580973 0.070660 0.038133 255 220 0
0.561734 0.091506 0.020672 255 220 0
0.566268 0.104441 0.022502 255 220 0
0.469464 0.068568 0.063751 255 220 0
0.493622 0.090563 0.018397 255 220 0
0.504707 0.055763 0.075137 255 220 0
0.543019 0.051222 0.048394 255 220 0
0.500262 0.083521 0.085222 255 220 0
0.481612 0.083798 0.021717 255 220 0
0.554237 0.112826 0.093043 255 220 0
0.467547 0.082849 0.070635 255 220 0
0.555504 0.052182 0.070076 255 220 0
0.523290 0.135973 0.063310 255 220 0
0.499110 0.091134 0.017769 255 220 0
0.481626 0.096907 0.019783 255 220 0
0.578682 0.085474 0.098336 255 220 0
0.570659 0.114014 0.027078 255 220 0
0.582150 0.130037 0.045962 255 220 0
