ply
format ascii 1.0
element vertex 1024
property float x
property float y
property float z
property uchar red
property uchar green
property uchar blue
end_header
0.567924 0.169319 0.317609 255 220 0
0.484859 0.157305 0.279326 255 220 0
0.466197 0.110728 0.217709 255 220 0
0.491857 0.096580 0.286027 255 220 0
0.557942 0.163612 0.256232 255 220 0
0.505010 0.125561 0.305548 255 220 0
0.547068 0.162111 0.248518 255 220 0
0.485442 0.164221 0.271105 255 220 0
0.540828 0.167655 0.249732 255 220 0
0.445599 0.138807 0.236548 255 220 0
0.524322 0.139367 0.318328 255 220 0
0.513607 0.082729 0.256970 255 220 0
0.511336 0.149172 0.309064 255 220 0
0.543915 0.114922 0.312566 255 220 0
0.489247 0.079510 0.264348 255 220 0
0.435919 0.124223 0.250937 255 220 0
0.553732 0.185585 0.281355 255 220 0
0.556179 0.170401 0.318931 255 220 0
0.496575 0.165191 0.286836 255 220 0
0.463748 0.149315 0.250412 255 220 0
0.530713 0.187150 0.285859 255 220 0
0.577543 0.129864 0.300743 255 220 0
0.519991 0.085892 0.256548 255 220 0
0.570012 0.157835 0.321434 255 220 0
0.443136 0.113583 0.218493 255 220 0
0.511318 0.149186 0.233130 255 220 0
0.562434 0.174218 0.315284 255 220 0
0.577267 0.172177 0.306783 255 220 0
0.502696 0.177400 0.270407 255 220 0
0.581965 0.137627 0.301667 255 220 0
0.559302 0.137908 0.323876 255 220 0
0.501246 0.125606 0.303024 255 220 0
0.471903 0.086412 0.263620 255 220 0
0.443184 0.135267 0.229924 255 220 0
0.502737 0.130297 0.225025 255 220 0
0.491874 0.147285 0.292970 255 220 0
0.550986 0.149498 0.245344 255 220 0
0.565660 0.157051 0.323045 255 220 0
0.492302 0.161196 0.242593 255 220 0
0.500040 0.089294 0.283815 255 220 0
0.530679 0.133036 0.232829 255 220 0
0.555092 0.116951 0.252900 255 220 0
0.537232 0.168265 0.316971 255 220 0
0.553502 0.102598 0.286573 255 220 0
0.576370 0.138004 0.313804 255 220 0
0.460368 0.123520 0.269763 255 220 0
0.495938 0.172707 0.273144 255 220 0
0.524598 0.154610 0.316844 255 220 0
0.576677 0.170199 0.310729 255 220 0
0.579951 0.135068 0.284716 255 220 0
0.496330 0.167858 0.283502 255 220 0
0.547555 0.175694 0.314262 255 220 0
0.469685 0.132711 0.276115 255 220 0
0.445170 0.130110 0.255405 255 220 0
0.445075 0.112841 0.258050 255 220 0
0.431282 0.116919 0.249418 255 220 0
0.579594 0.154251 0.315534 255 220 0
0.445802 0.117713 0.218424 255 220 0
0.451558 0.129698 0.260782 255 220 0
0.476963 0.142330 0.228564 255 220 0
0.585630 0.147081 0.296939 255 220 0
0.496366 0.168159 0.283159 255 220 0
0.507740 0.082234 0.252400 255 220 0
0.522200 0.109789 0.232580 255 220 0
0.467498 0.151959 0.252493 255 220 0
0.508867 0.172801 0.251016 255 220 0
0.461640 0.122960 0.218765 255 220 0
0.520283 0.182531 0.289798 255 220 0
0.578348 0.129987 0.291300 255 220 0
0.573504 0.151929 0.320363 255 220 0
0.522373 0.120395 0.229899 255 220 0
0.533045 0.095187 0.253273 255 220 0
0.535991 0.142070 0.323346 255 220 0
0.573898 0.123584 0.292543 255 220 0
0.440351 0.109477 0.254463 255 220 0
0.488175 0.144922 0.229685 255 220 0
0.564590 0.112729 0.288660 255 220 0
0.456323 0.119427 0.266774 255 220 0
0.511122 0.111104 0.303597 255 220 0
0.486896 0.116247 0.220387 255 220 0
0.498023 0.172813 0.257265 255 220 0
0.470950 0.149082 0.268032 255 220 0
0.563287 0.183079 0.285960 255 220 0
0.541684 0.182892 0.267681 255 220 0
0.436487 0.125315 0.250887 255 220 0
0.497470 0.154586 0.295330 255 220 0
0.508930 0.109978 0.302044 255 220 0
0.545170 0.122232 0.317962 255 220 0
0.494530 0.172421 0.269671 255 220 0
0.469024 0.094481 0.223423 255 220 0
0.556700 0.116797 0.254963 255 220 0
0.491625 0.151058 0.291094 255 220 0
0.567128 0.117278 0.274221 255 220 0
0.582627 0.145501 0.308932 255 220 0
0.451994 0.113424 0.217424 255 220 0
0.533399 0.092107 0.259665 255 220 0
0.501586 0.084436 0.278891 255 220 0
0.566873 0.166305 0.266495 255 220 0
0.574185 0.139462 0.266852 255 220 0
0.523539 0.182382 0.264093 255 220 0
0.448631 0.103409 0.258470 255 220 0
0.484850 0.130780 0.290248 255 220 0
0.550170 0.104861 0.298311 255 220 0
0.531002 0.126953 0.318172 255 220 0
0.565619 0.176469 0.275981 255 220 0
0.508923 0.152903 0.234778 255 220 0
0.556888 0.161240 0.323398 255 220 0
0.445777 0.139335 0.239234 255 220 0
0.574496 0.154545 0.269176 255 220 0
0.443808 0.094514 0.248729 255 220 0
0.540522 0.145911 0.239122 255 220 0
0.509443 0.120415 0.306765 255 220 0
0.460467 0.126459 0.269347 255 220 0
0.556345 0.182503 0.276453 255 220 0
0.562306 0.129619 0.318904 255 220 0
0.545319 0.103589 0.300269 255 220 0
0.581348 0.138692 0.305817 255 220 0
0.547898 0.187840 0.289471 255 220 0
0.543344 0.175371 0.313623 255 220 0
0.526369 0.186505 0.283666 255 220 0
0.546390 0.124560 0.319453 255 220 0
0.499346 0.131406 0.301686 255 220 0
0.548326 0.115571 0.246909 255 220 0
0.487595 0.078693 0.250368 255 220 0
0.500499 0.078536 0.257969 255 220 0
0.514559 0.108060 0.303359 255 220 0
0.551082 0.107136 0.301012 255 220 0
0.495015 0.142508 0.297260 255 220 0
0.517820 0.089652 0.247167 255 220 0
0.576404 0.137092 0.313117 255 220 0
0.451504 0.085526 0.238579 255 220 0
0.534241 0.089892 0.275669 255 220 0
0.558011 0.155466 0.252375 255 220 0
0.495990 0.094837 0.229076 255 220 0
0.524544 0.098448 0.241531 255 220 0
0.562378 0.119583 0.308436 255 220 0
0.507994 0.129305 0.307910 255 220 0
0.522432 0.174792 0.252256 255 220 0
0.586057 0.154200 0.302751 255 220 0
0.483866 0.096315 0.281415 255 220 0
0.552730 0.102326 0.270979 255 220 0
0.470825 0.148688 0.236830 255 220 0
0.526665 0.182170 0.296984 255 220 0
0.564790 0.167112 0.265002 255 220 0
0.535997 0.106442 0.243239 255 220 0
0.481510 0.116899 0.219529 255 220 0
0.526284 0.124859 0.315838 255 220 0
0.575809 0.157208 0.271917 255 220 0
0.520973 0.136443 0.230281 255 220 0
0.527289 0.127526 0.317163 255 220 0
0.476806 0.109492 0.219134 255 220 0
0.512934 0.160191 0.306628 255 220 0
0.504515 0.111342 0.300642 255 220 0
0.482828 0.144219 0.285141 255 220 0
0.474626 0.085171 0.264082 255 220 0
0.468036 0.152359 0.252324 255 220 0
0.496770 0.144031 0.229414 255 220 0
0.471522 0.102665 0.275981 255 220 0
0.501817 0.099814 0.292863 255 220 0
0.557455 0.105800 0.275593 255 220 0
0.577473 0.135000 0.309722 255 220 0
0.580308 0.171297 0.299299 255 220 0
0.562015 0.109748 0.284533 255 220 0
0.542442 0.159170 0.323094 255 220 0
0.438421 0.120987 0.220486 255 220 0
0.576709 0.171691 0.308611 255 220 0
0.450078 0.100530 0.220641 255 220 0
0.462045 0.106611 0.218043 255 220 0
0.434005 0.108778 0.250127 255 220 0
0.429240 0.120086 0.225118 255 220 0
0.488981 0.167316 0.271856 255 220 0
0.570427 0.179217 0.289410 255 220 0
0.487644 0.161380 0.279042 255 220 0
0.538945 0.187698 0.279997 255 220 0
0.474865 0.156364 0.264076 255 220 0
0.424254 0.114321 0.236530 255 220 0
0.541037 0.122700 0.318141 255 220 0
0.533810 0.093145 0.257907 255 220 0
0.584758 0.154642 0.307231 255 220 0
0.564300 0.179590 0.279224 255 220 0
0.546347 0.104661 0.254657 255 220 0
0.572776 0.132142 0.313191 255 220 0
0.464798 0.110600 0.217618 255 220 0
0.468444 0.122227 0.218835 255 220 0
0.511389 0.159105 0.305892 255 220 0
0.561571 0.115328 0.263860 255 220 0
0.435051 0.103451 0.248709 255 220 0
0.473850 0.080194 0.252763 255 220 0
0.454817 0.103358 0.263125 255 220 0
0.435856 0.134009 0.234498 255 220 0
0.558524 0.112786 0.302203 255 220 0
0.502633 0.160787 0.297009 255 220 0
0.463547 0.131810 0.222574 255 220 0
0.497214 0.078264 0.263328 255 220 0
0.502156 0.149330 0.301757 255 220 0
0.509412 0.125915 0.225696 255 220 0
0.467031 0.099955 0.271417 255 220 0
0.529526 0.113232 0.235012 255 220 0
0.553276 0.161313 0.251542 255 220 0
0.578695 0.136276 0.308937 255 220 0
0.480538 0.155565 0.241555 255 220 0
0.505326 0.169056 0.247127 255 220 0
0.510300 0.113199 0.226573 255 220 0
0.480870 0.108513 0.219920 255 220 0
0.506600 0.160417 0.301060 255 220 0
0.563363 0.183726 0.294461 255 220 0
0.544919 0.149828 0.325562 255 220 0
0.523841 0.177598 0.255877 255 220 0
0.530344 0.087706 0.272826 255 220 0
0.552227 0.108040 0.258007 255 220 0
0.517065 0.179789 0.260505 255 220 0
0.582844 0.140199 0.289698 255 220 0
0.549771 0.147934 0.244175 255 220 0
0.561132 0.171327 0.317902 255 220 0
0.530888 0.172640 0.251157 255 220 0
0.559055 0.182986 0.279952 255 220 0
0.521437 0.145709 0.233232 255 220 0
0.478185 0.114082 0.283877 255 220 0
0.504701 0.087471 0.283649 255 220 0
0.493634 0.150167 0.232881 255 220 0
0.557125 0.111495 0.301713 255 220 0
0.434090 0.123639 0.249838 255 220 0
0.469534 0.086226 0.230643 255 220 0
0.563643 0.111476 0.281722 255 220 0
0.460575 0.095737 0.263955 255 220 0
0.578804 0.156782 0.316153 255 220 0
0.469782 0.144085 0.231392 255 220 0
0.476942 0.079735 0.254377 255 220 0
0.556810 0.122292 0.251635 255 220 0
0.577812 0.173637 0.300669 255 220 0
0.520024 0.148968 0.234283 255 220 0
0.542841 0.094617 0.277009 255 220 0
0.553413 0.109636 0.257700 255 220 0
0.516475 0.104340 0.301763 255 220 0
0.480616 0.145105 0.230274 255 220 0
0.489507 0.155315 0.286355 255 220 0
0.529171 0.128165 0.318032 255 220 0
0.540168 0.161382 0.245338 255 220 0
0.554253 0.185789 0.298441 255 220 0
0.497164 0.132711 0.224791 255 220 0
0.493705 0.087689 0.279342 255 220 0
0.518650 0.095552 0.295299 255 220 0
0.499399 0.084181 0.277740 255 220 0
0.441104 0.135565 0.231936 255 220 0
0.524600 0.132188 0.317458 255 220 0
0.567927 0.157544 0.262510 255 220 0
0.583119 0.156538 0.284600 255 220 0
0.578350 0.154452 0.316794 255 220 0
0.516363 0.140779 0.313403 255 220 0
0.495883 0.080084 0.269238 255 220 0
0.533960 0.187483 0.287274 255 220 0
0.467826 0.081195 0.249339 255 220 0
0.439839 0.135338 0.232628 255 220 0
0.465581 0.099777 0.270202 255 220 0
0.547933 0.177826 0.312231 255 220 0
0.494625 0.157508 0.238331 255 220 0
0.546107 0.170063 0.318361 255 220 0
0.438501 0.093151 0.235620 255 220 0
0.539223 0.093931 0.284291 255 220 0
0.464318 0.133594 0.223593 255 220 0
0.568716 0.121459 0.270599 255 220 0
0.532855 0.144310 0.235772 255 220 0
0.437442 0.128794 0.249705 255 220 0
0.558222 0.162738 0.255919 255 220 0
0.559557 0.114052 0.261884 255 220 0
0.569595 0.119496 0.277872 255 220 0
0.547741 0.177310 0.312742 255 220 0
0.509111 0.093541 0.236093 255 220 0
0.562234 0.153719 0.255397 255 220 0
0.526700 0.098002 0.298573 255 220 0
0.556369 0.180877 0.273670 255 220 0
0.459217 0.104334 0.218542 255 220 0
0.546341 0.164607 0.249757 255 220 0
0.463835 0.087877 0.228533 255 220 0
0.487946 0.099312 0.285749 255 220 0
0.465557 0.136853 0.225736 255 220 0
0.484227 0.125711 0.289796 255 220 0
0.495616 0.082194 0.244885 255 220 0
0.528005 0.114048 0.233889 255 220 0
0.514610 0.147064 0.311707 255 220 0
0.555278 0.137766 0.246358 255 220 0
0.562404 0.110524 0.277970 255 220 0
0.535170 0.117074 0.236647 255 220 0
0.512445 0.148954 0.309909 255 220 0
0.476757 0.079496 0.245462 255 220 0
0.490212 0.134710 0.224697 255 220 0
0.512599 0.155709 0.308250 255 220 0
0.476895 0.123555 0.219879 255 220 0
0.521654 0.129478 0.229433 255 220 0
0.458889 0.144623 0.255244 255 220 0
0.504418 0.082899 0.248492 255 220 0
0.580528 0.158820 0.313787 255 220 0
0.490577 0.078494 0.261703 255 220 0
0.453605 0.089731 0.251921 255 220 0
0.489832 0.117929 0.293769 255 220 0
0.534648 0.097271 0.296094 255 220 0
0.534469 0.156078 0.240752 255 220 0
0.581673 0.157852 0.281937 255 220 0
0.480861 0.087923 0.230865 255 220 0
0.528086 0.182773 0.264308 255 220 0
0.450063 0.089865 0.248434 255 220 0
0.500637 0.157037 0.297225 255 220 0
0.473325 0.118066 0.280271 255 220 0
0.449357 0.141155 0.244052 255 220 0
0.495423 0.172343 0.259557 255 220 0
0.516058 0.147846 0.233135 255 220 0
0.518342 0.154402 0.312831 255 220 0
0.567681 0.126297 0.263010 255 220 0
0.563689 0.111613 0.286906 255 220 0
0.583247 0.144959 0.307202 255 220 0
0.531031 0.121222 0.233405 255 220 0
0.533798 0.098968 0.248716 255 220 0
0.544958 0.137004 0.324383 255 220 0
0.534603 0.091426 0.263460 255 220 0
0.548226 0.113401 0.310105 255 220 0
0.583286 0.159374 0.309263 255 220 0
0.571539 0.121087 0.294659 255 220 0
0.450289 0.105071 0.260228 255 220 0
0.564800 0.176984 0.311172 255 220 0
0.511672 0.091035 0.289376 255 220 0
0.523874 0.186137 0.279790 255 220 0
0.532324 0.185884 0.292862 255 220 0
0.498551 0.161242 0.240752 255 220 0
0.553111 0.115203 0.251942 255 220 0
0.506693 0.079447 0.268146 255 220 0
0.479106 0.139506 0.226564 255 220 0
0.530296 0.140476 0.233921 255 220 0
0.576165 0.141949 0.269713 255 220 0
0.494294 0.107900 0.293736 255 220 0
0.522710 0.165339 0.243745 255 220 0
0.582490 0.144655 0.308683 255 220 0
0.577053 0.155041 0.272867 255 220 0
0.532692 0.161946 0.243468 255 220 0
0.452317 0.123002 0.219067 255 220 0
0.524782 0.085064 0.268673 255 220 0
0.507750 0.160553 0.302037 255 220 0
0.461611 0.087840 0.256759 255 220 0
0.517896 0.147287 0.313879 255 220 0
0.429823 0.129002 0.239985 255 220 0
0.461160 0.095350 0.264145 255 220 0
0.464391 0.117836 0.273096 255 220 0
0.563763 0.163056 0.261027 255 220 0
0.561999 0.180516 0.306703 255 220 0
0.437171 0.134592 0.234107 255 220 0
0.521492 0.156891 0.238377 255 220 0
0.480361 0.081142 0.261667 255 220 0
0.439240 0.114224 0.254359 255 220 0
0.498182 0.169058 0.249779 255 220 0
0.507790 0.149539 0.232953 255 220 0
0.563474 0.128920 0.317766 255 220 0
0.558101 0.138074 0.248583 255 220 0
0.545085 0.185473 0.274827 255 220 0
0.555877 0.141829 0.246965 255 220 0
0.572587 0.161224 0.269622 255 220 0
0.498517 0.134771 0.300946 255 220 0
0.513695 0.174643 0.296085 255 220 0
0.499809 0.162774 0.292646 255 220 0
0.456722 0.116938 0.267060 255 220 0
0.524208 0.112137 0.309050 255 220 0
0.541175 0.145460 0.239280 255 220 0
0.500560 0.103825 0.225814 255 220 0
0.453039 0.113965 0.263998 255 220 0
0.523999 0.172977 0.306592 255 220 0
0.563296 0.121838 0.310599 255 220 0
0.531789 0.177777 0.306637 255 220 0
0.516540 0.148911 0.233676 255 220 0
0.525583 0.127749 0.316602 255 220 0
0.571159 0.175391 0.309221 255 220 0
0.464519 0.081901 0.247616 255 220 0
0.482219 0.146638 0.231271 255 220 0
0.503969 0.163202 0.296726 255 220 0
0.543835 0.147304 0.240962 255 220 0
0.484568 0.149415 0.284418 255 220 0
0.504010 0.125030 0.224363 255 220 0
0.523956 0.098746 0.240793 255 220 0
0.485402 0.088761 0.275933 255 220 0
0.573791 0.126169 0.277671 255 220 0
0.573545 0.134570 0.314476 255 220 0
0.536768 0.092907 0.263048 255 220 0
0.498885 0.162618 0.291751 255 220 0
0.548239 0.119185 0.244915 255 220 0
0.516985 0.153257 0.235817 255 220 0
0.542830 0.147613 0.325311 255 220 0
0.508634 0.095872 0.292725 255 220 0
0.447052 0.104308 0.257657 255 220 0
0.551681 0.113649 0.251578 255 220 0
0.537513 0.172337 0.314235 255 220 0
0.474962 0.116335 0.218600 255 220 0
0.503534 0.171556 0.288285 255 220 0
0.463259 0.090366 0.261356 255 220 0
0.551106 0.166330 0.321229 255 220 0
0.477978 0.118207 0.219121 255 220 0
0.467346 0.115829 0.275218 255 220 0
0.511200 0.180379 0.266012 255 220 0
0.573523 0.177470 0.296377 255 220 0
0.520579 0.102460 0.235497 255 220 0
0.523043 0.170651 0.248043 255 220 0
0.490279 0.113141 0.221146 255 220 0
0.523718 0.151363 0.236028 255 220 0
0.439201 0.121525 0.220446 255 220 0
0.572842 0.122099 0.289105 255 220 0
0.529675 0.183347 0.265424 255 220 0
0.514635 0.131015 0.312173 255 220 0
0.493707 0.161463 0.286752 255 220 0
0.554920 0.186733 0.288765 255 220 0
0.564897 0.126341 0.258945 255 220 0
0.530222 0.154532 0.320002 255 220 0
0.498195 0.171788 0.254676 255 220 0
0.540756 0.133223 0.237380 255 220 0
0.577664 0.157426 0.274712 255 220 0
0.496573 0.089195 0.282206 255 220 0
0.564584 0.152261 0.324008 255 220 0
0.562892 0.115704 0.265948 255 220 0
0.462959 0.084029 0.251641 255 220 0
0.559947 0.164706 0.321710 255 220 0
0.568102 0.116737 0.281217 255 220 0
0.523866 0.108749 0.306953 255 220 0
0.527926 0.092501 0.290567 255 220 0
0.436606 0.117147 0.252839 255 220 0
0.548643 0.128055 0.321394 255 220 0
0.526377 0.176878 0.255080 255 220 0
0.464748 0.120234 0.273494 255 220 0
0.506201 0.099841 0.294725 255 220 0
0.537007 0.128781 0.320416 255 220 0
0.475829 0.083973 0.234802 255 220 0
0.479317 0.150345 0.235363 255 220 0
0.479469 0.128313 0.221459 255 220 0
0.518058 0.103695 0.301871 255 220 0
0.476989 0.152882 0.239702 255 220 0
0.485558 0.116787 0.220163 255 220 0
0.498756 0.174848 0.272527 255 220 0
0.491132 0.120498 0.221344 255 220 0
0.567623 0.129388 0.315394 255 220 0
0.433954 0.098290 0.240650 255 220 0
0.547553 0.116559 0.313231 255 220 0
0.526031 0.144046 0.233672 255 220 0
0.479408 0.088975 0.229367 255 220 0
0.538384 0.092436 0.268792 255 220 0
0.446279 0.114067 0.259001 255 220 0
0.481233 0.101341 0.221863 255 220 0
0.506941 0.168892 0.295202 255 220 0
0.425419 0.114357 0.242114 255 220 0
0.481339 0.082134 0.239498 255 220 0
0.554336 0.180523 0.271527 255 220 0
0.542420 0.097745 0.260541 255 220 0
0.474389 0.150921 0.271058 255 220 0
0.465968 0.092311 0.265528 255 220 0
0.505651 0.120450 0.304752 255 220 0
0.464516 0.084493 0.254145 255 220 0
0.487296 0.081221 0.243321 255 220 0
0.532833 0.124346 0.233808 255 220 0
0.542800 0.174539 0.314198 255 220 0
0.489022 0.082419 0.270131 255 220 0
0.493054 0.170654 0.272389 255 220 0
0.440718 0.136682 0.241703 255 220 0
0.524792 0.145940 0.318380 255 220 0
0.522480 0.148718 0.234630 255 220 0
0.546891 0.102897 0.298024 255 220 0
0.465952 0.105906 0.272544 255 220 0
0.463383 0.142959 0.232190 255 220 0
0.542538 0.104102 0.302485 255 220 0
0.489839 0.157167 0.239235 255 220 0
0.434954 0.122073 0.251032 255 220 0
0.498308 0.087857 0.237223 255 220 0
0.552882 0.168396 0.256254 255 220 0
0.481452 0.094264 0.278456 255 220 0
0.524072 0.183267 0.292324 255 220 0
0.549805 0.154043 0.246225 255 220 0
0.500200 0.166459 0.289947 255 220 0
0.572999 0.123998 0.279792 255 220 0
0.523646 0.093934 0.293786 255 220 0
0.553100 0.185750 0.281282 255 220 0
0.520394 0.090653 0.247880 255 220 0
0.526178 0.101980 0.239567 255 220 0
0.547773 0.149817 0.325875 255 220 0
0.454725 0.084122 0.238266 255 220 0
0.530361 0.175609 0.308097 255 220 0
0.484365 0.122761 0.220580 255 220 0
0.459538 0.143782 0.235532 255 220 0
0.528063 0.139303 0.232931 255 220 0
0.468234 0.145417 0.267778 255 220 0
0.461275 0.111678 0.217365 255 220 0
0.578994 0.166707 0.283145 255 220 0
0.550709 0.149274 0.326041 255 220 0
0.550838 0.163580 0.251363 255 220 0
0.580437 0.165919 0.285152 255 220 0
0.531021 0.112645 0.236094 255 220 0
0.510195 0.163156 0.302706 255 220 0
0.545252 0.097042 0.285276 255 220 0
0.465539 0.122286 0.218698 255 220 0
0.489512 0.084126 0.238934 255 220 0
0.466232 0.113608 0.217580 255 220 0
0.547850 0.153948 0.245121 255 220 0
0.487986 0.116253 0.292090 255 220 0
0.506147 0.139882 0.228553 255 220 0
0.471105 0.115663 0.278212 255 220 0
0.466108 0.097265 0.221614 255 220 0
0.555710 0.104266 0.286259 255 220 0
0.508824 0.084974 0.247725 255 220 0
0.582108 0.137852 0.290382 255 220 0
0.465082 0.147866 0.260112 255 220 0
0.513653 0.130800 0.227371 255 220 0
0.506197 0.179026 0.268882 255 220 0
0.553783 0.107405 0.261351 255 220 0
0.470430 0.083507 0.257815 255 220 0
0.518787 0.135674 0.315047 255 220 0
0.526509 0.181474 0.298133 255 220 0
0.554721 0.111905 0.304611 255 220 0
0.457418 0.145449 0.247284 255 220 0
0.425368 0.112778 0.241152 255 220 0
0.496920 0.121990 0.299563 255 220 0
0.466286 0.133827 0.272412 255 220 0
0.566901 0.116191 0.294318 255 220 0
0.498476 0.125412 0.301019 255 220 0
0.515036 0.096850 0.236399 255 220 0
0.548684 0.129704 0.322183 255 220 0
0.477538 0.146445 0.231893 255 220 0
0.443827 0.110185 0.256843 255 220 0
0.556324 0.185605 0.297682 255 220 0
0.499206 0.139355 0.301203 255 220 0
0.434807 0.103551 0.248543 255 220 0
0.484694 0.143223 0.287456 255 220 0
0.575882 0.126484 0.295766 255 220 0
0.441248 0.091291 0.237024 255 220 0
0.573527 0.171065 0.279079 255 220 0
0.446167 0.139070 0.236697 255 220 0
0.548236 0.104733 0.256937 255 220 0
0.549872 0.140671 0.325469 255 220 0
0.553296 0.187140 0.289930 255 220 0
0.462231 0.136397 0.267234 255 220 0
0.487452 0.160206 0.243790 255 220 0
0.581278 0.139155 0.284157 255 220 0
0.430303 0.118240 0.223885 255 220 0
0.500687 0.079231 0.268235 255 220 0
0.559802 0.181376 0.277515 255 220 0
0.545260 0.180409 0.308731 255 220 0
0.536973 0.163236 0.245414 255 220 0
0.582755 0.162219 0.286796 255 220 0
0.573393 0.171837 0.312322 255 220 0
0.505653 0.135587 0.226985 255 220 0
0.470439 0.127440 0.277908 255 220 0
0.505296 0.134434 0.306022 255 220 0
0.464652 0.148034 0.258979 255 220 0
0.506743 0.176258 0.257994 255 220 0
0.575100 0.129969 0.275401 255 220 0
0.560956 0.109228 0.288589 255 220 0
0.470851 0.142223 0.273132 255 220 0
0.562002 0.182433 0.282138 255 220 0
0.493038 0.127229 0.296895 255 220 0
0.446929 0.137380 0.250833 255 220 0
0.445029 0.089945 0.230717 255 220 0
0.452988 0.131992 0.260996 255 220 0
0.431453 0.131006 0.233907 255 220 0
0.487308 0.167491 0.259298 255 220 0
0.549820 0.167794 0.253878 255 220 0
0.577650 0.146599 0.316373 255 220 0
0.571953 0.125895 0.272363 255 220 0
0.433842 0.132868 0.234815 255 220 0
0.505018 0.171115 0.290664 255 220 0
0.497910 0.159598 0.292839 255 220 0
0.521173 0.085270 0.259787 255 220 0
0.455202 0.141136 0.255817 255 220 0
0.576987 0.132087 0.306934 255 220 0
0.484899 0.113247 0.220115 255 220 0
0.517430 0.083966 0.258290 255 220 0
0.504152 0.109563 0.225290 255 220 0
0.446303 0.129146 0.222736 255 220 0
0.460831 0.146953 0.252749 255 220 0
0.481128 0.137356 0.285881 255 220 0
0.491615 0.170186 0.269847 255 220 0
0.565864 0.159465 0.322418 255 220 0
0.450000 0.094889 0.224178 255 220 0
0.452422 0.115737 0.263670 255 220 0
0.526322 0.090071 0.286870 255 220 0
0.453861 0.091293 0.226313 255 220 0
0.537255 0.175374 0.311599 255 220 0
0.477174 0.151528 0.274268 255 220 0
0.555250 0.166444 0.321252 255 220 0
0.548335 0.123487 0.243336 255 220 0
0.575372 0.125581 0.293702 255 220 0
0.566206 0.175606 0.312400 255 220 0
0.551467 0.163530 0.251696 255 220 0
0.503723 0.131967 0.304962 255 220 0
0.526712 0.183603 0.266162 255 220 0
0.571203 0.121833 0.277975 255 220 0
0.567190 0.172970 0.314957 255 220 0
0.540025 0.177195 0.258759 255 220 0
0.458392 0.143953 0.255760 255 220 0
0.577946 0.173698 0.295084 255 220 0
0.471613 0.132942 0.222993 255 220 0
0.452332 0.089206 0.228563 255 220 0
0.530361 0.158210 0.318925 255 220 0
0.439477 0.097879 0.225202 255 220 0
0.563513 0.146364 0.324328 255 220 0
0.495676 0.082145 0.273132 255 220 0
0.519695 0.184718 0.275130 255 220 0
0.584119 0.157221 0.287366 255 220 0
0.527920 0.086612 0.268687 255 220 0
0.468686 0.147435 0.236084 255 220 0
0.439249 0.121570 0.253973 255 220 0
0.569101 0.121026 0.272419 255 220 0
0.516189 0.123554 0.227514 255 220 0
0.544343 0.174052 0.257067 255 220 0
0.486993 0.087927 0.232676 255 220 0
0.518864 0.122957 0.228423 255 220 0
0.465520 0.133702 0.271712 255 220 0
0.554914 0.111570 0.303995 255 220 0
0.498928 0.129359 0.224140 255 220 0
0.545591 0.108360 0.305975 255 220 0
0.556599 0.105933 0.271108 255 220 0
0.554797 0.112521 0.256378 255 220 0
0.495901 0.136085 0.298864 255 220 0
0.558428 0.168399 0.320020 255 220 0
0.573968 0.125496 0.300877 255 220 0
0.507156 0.110492 0.226064 255 220 0
0.518171 0.104747 0.232778 255 220 0
0.424174 0.118303 0.236144 255 220 0
0.487599 0.087385 0.275790 255 220 0
0.544061 0.141924 0.325175 255 220 0
0.508045 0.178061 0.283068 255 220 0
0.492415 0.146089 0.230368 255 220 0
0.437801 0.118470 0.253486 255 220 0
0.539132 0.108250 0.244245 255 220 0
0.508594 0.144982 0.230915 255 220 0
0.446658 0.121133 0.259184 255 220 0
0.505442 0.080250 0.255584 255 220 0
0.510557 0.161792 0.303819 255 220 0
0.564180 0.182799 0.286830 255 220 0
0.506214 0.081250 0.253471 255 220 0
0.585675 0.153137 0.291824 255 220 0
0.528705 0.108615 0.236771 255 220 0
0.584772 0.158900 0.306048 255 220 0
0.510212 0.080878 0.272838 255 220 0
0.456723 0.101361 0.219631 255 220 0
0.482399 0.163642 0.256990 255 220 0
0.554959 0.151888 0.325742 255 220 0
0.455986 0.132113 0.223399 255 220 0
0.482633 0.157413 0.242920 255 220 0
0.532682 0.138719 0.321856 255 220 0
0.470989 0.152574 0.263281 255 220 0
0.569432 0.178181 0.305047 255 220 0
0.564421 0.175019 0.272822 255 220 0
0.478302 0.114580 0.284039 255 220 0
0.523997 0.091545 0.249838 255 220 0
0.534578 0.146313 0.236949 255 220 0
0.477090 0.092933 0.274479 255 220 0
0.496991 0.089221 0.234896 255 220 0
0.487623 0.163445 0.276457 255 220 0
0.508320 0.168746 0.246229 255 220 0
0.578799 0.137621 0.310067 255 220 0
0.546370 0.111164 0.248193 255 220 0
0.478652 0.132447 0.222958 255 220 0
0.430042 0.126706 0.228046 255 220 0
0.469484 0.103525 0.274682 255 220 0
0.442436 0.114518 0.256400 255 220 0
0.559271 0.182396 0.278940 255 220 0
0.578400 0.145734 0.273410 255 220 0
0.578398 0.130738 0.299533 255 220 0
0.534463 0.171967 0.251388 255 220 0
0.508325 0.180097 0.275117 255 220 0
0.483322 0.088645 0.230733 255 220 0
0.460400 0.138601 0.264022 255 220 0
0.528728 0.112773 0.234770 255 220 0
0.501981 0.109029 0.224743 255 220 0
0.456651 0.089591 0.227370 255 220 0
0.569876 0.139274 0.260696 255 220 0
0.518484 0.083642 0.277161 255 220 0
0.550852 0.111091 0.306346 255 220 0
0.516814 0.179733 0.291742 255 220 0
0.568152 0.118460 0.274886 255 220 0
0.496359 0.137481 0.226414 255 220 0
0.542355 0.188076 0.287172 255 220 0
0.431926 0.102086 0.243602 255 220 0
0.548556 0.185022 0.275825 255 220 0
0.567384 0.123369 0.265177 255 220 0
0.441495 0.101367 0.252601 255 220 0
0.572047 0.161713 0.269226 255 220 0
0.536753 0.165596 0.246908 255 220 0
0.539848 0.186750 0.275888 255 220 0
0.553881 0.103573 0.289526 255 220 0
0.537409 0.112396 0.240211 255 220 0
0.573627 0.131527 0.269872 255 220 0
0.425282 0.122959 0.235080 255 220 0
0.535355 0.093877 0.288747 255 220 0
0.544765 0.139638 0.239922 255 220 0
0.541825 0.100790 0.298276 255 220 0
0.574429 0.150894 0.268013 255 220 0
0.559223 0.109224 0.293970 255 220 0
0.480839 0.086260 0.232881 255 220 0
0.547545 0.155188 0.325117 255 220 0
0.533224 0.149889 0.322262 255 220 0
0.523185 0.097998 0.298379 255 220 0
0.483931 0.164771 0.265038 255 220 0
0.547630 0.181641 0.268774 255 220 0
0.542917 0.147379 0.240566 255 220 0
0.533949 0.148574 0.237500 255 220 0
0.514721 0.085426 0.251882 255 220 0
0.470326 0.116173 0.218043 255 220 0
0.470801 0.132242 0.222644 255 220 0
0.517853 0.134469 0.229074 255 220 0
0.488857 0.154036 0.286441 255 220 0
0.522672 0.116311 0.310782 255 220 0
0.501056 0.125476 0.302879 255 220 0
0.463472 0.086739 0.256891 255 220 0
0.507218 0.133481 0.307449 255 220 0
0.516263 0.182278 0.267581 255 220 0
0.506706 0.088005 0.241480 255 220 0
0.472084 0.123225 0.219340 255 220 0
0.586169 0.151685 0.301233 255 220 0
0.503874 0.119529 0.303467 255 220 0
0.520630 0.179603 0.259237 255 220 0
0.471124 0.140558 0.227890 255 220 0
0.506738 0.087812 0.241769 255 220 0
0.474475 0.143715 0.276343 255 220 0
0.501615 0.087449 0.282546 255 220 0
0.437208 0.117177 0.220120 255 220 0
0.562384 0.138892 0.323308 255 220 0
0.540902 0.094900 0.265183 255 220 0
0.547811 0.107808 0.304235 255 220 0
0.508690 0.168222 0.245646 255 220 0
0.534214 0.185365 0.270167 255 220 0
0.453599 0.106562 0.218075 255 220 0
0.436974 0.094370 0.235783 255 220 0
0.431027 0.112152 0.223810 255 220 0
0.546464 0.109365 0.249808 255 220 0
0.562281 0.144191 0.252752 255 220 0
0.545009 0.152356 0.325304 255 220 0
0.563056 0.133388 0.253869 255 220 0
0.432825 0.115162 0.222013 255 220 0
0.533053 0.129116 0.319560 255 220 0
0.498938 0.165809 0.289087 255 220 0
0.497565 0.126541 0.223317 255 220 0
0.438937 0.135981 0.239002 255 220 0
0.574650 0.140243 0.267444 255 220 0
0.521330 0.110100 0.307006 255 220 0
0.435838 0.124450 0.222578 255 220 0
0.426819 0.122659 0.242679 255 220 0
0.452633 0.087564 0.247244 255 220 0
0.434129 0.113889 0.251216 255 220 0
0.562672 0.150518 0.254766 255 220 0
0.470337 0.104403 0.219232 255 220 0
0.525289 0.112065 0.233248 255 220 0
0.432113 0.131189 0.232641 255 220 0
0.459957 0.142857 0.233636 255 220 0
0.555137 0.152496 0.325659 255 220 0
0.573883 0.126320 0.277689 255 220 0
0.486644 0.142767 0.228401 255 220 0
0.509807 0.096966 0.233379 255 220 0
0.502670 0.176357 0.277426 255 220 0
0.550762 0.101601 0.290152 255 220 0
0.469198 0.127698 0.276773 255 220 0
0.532187 0.146804 0.236337 255 220 0
0.540893 0.183632 0.268650 255 220 0
0.585313 0.155754 0.305533 255 220 0
0.495867 0.110759 0.222731 255 220 0
0.582829 0.159286 0.310125 255 220 0
0.533804 0.149194 0.322570 255 220 0
0.505084 0.135842 0.226978 255 220 0
0.513364 0.175435 0.294734 255 220 0
0.584427 0.164325 0.294804 255 220 0
0.513220 0.094609 0.237448 255 220 0
0.501847 0.084398 0.278925 255 220 0
0.534157 0.099440 0.299424 255 220 0
0.521709 0.178433 0.298800 255 220 0
0.453244 0.143189 0.243396 255 220 0
0.508501 0.150704 0.306588 255 220 0
0.459426 0.143470 0.258132 255 220 0
0.507260 0.147167 0.231752 255 220 0
0.581931 0.148645 0.311594 255 220 0
0.537128 0.177565 0.309415 255 220 0
0.516438 0.173890 0.251221 255 220 0
0.547558 0.187446 0.283533 255 220 0
0.476879 0.149909 0.275180 255 220 0
0.571102 0.119954 0.287215 255 220 0
0.461357 0.144082 0.234868 255 220 0
0.567261 0.141226 0.257568 255 220 0
0.539648 0.124363 0.237328 255 220 0
0.496948 0.161801 0.241645 255 220 0
0.529740 0.096203 0.295933 255 220 0
0.487279 0.099764 0.285628 255 220 0
0.462384 0.147901 0.243610 255 220 0
0.547157 0.185558 0.300313 255 220 0
0.439793 0.108497 0.253904 255 220 0
0.453454 0.139399 0.231436 255 220 0
0.461857 0.105533 0.269221 255 220 0
0.490017 0.102427 0.288672 255 220 0
0.545951 0.096553 0.278917 255 220 0
0.528431 0.103251 0.303800 255 220 0
0.509571 0.098110 0.294790 255 220 0
0.564654 0.183165 0.293281 255 220 0
0.525387 0.092505 0.249671 255 220 0
0.513885 0.097054 0.295441 255 220 0
0.429698 0.114181 0.224606 255 220 0
0.515025 0.124631 0.310935 255 220 0
0.540327 0.126393 0.237426 255 220 0
0.451410 0.087663 0.245900 255 220 0
0.565997 0.139447 0.322145 255 220 0
0.506988 0.118071 0.304671 255 220 0
0.442763 0.115909 0.218655 255 220 0
0.517877 0.096014 0.239080 255 220 0
0.562312 0.180472 0.306598 255 220 0
0.578949 0.162576 0.314119 255 220 0
0.551797 0.182881 0.273630 255 220 0
0.584043 0.150027 0.286523 255 220 0
0.479311 0.099627 0.222180 255 220 0
0.504575 0.145921 0.304553 255 220 0
0.580344 0.141644 0.279112 255 220 0
0.565616 0.122239 0.263157 255 220 0
0.515718 0.114788 0.228254 255 220 0
0.426563 0.107690 0.233115 255 220 0
0.505318 0.159305 0.300485 255 220 0
0.469263 0.084937 0.232209 255 220 0
0.547048 0.174905 0.259407 255 220 0
0.487410 0.138782 0.291358 255 220 0
0.553028 0.125829 0.246541 255 220 0
0.511608 0.091771 0.239594 255 220 0
0.504309 0.168751 0.247023 255 220 0
0.506749 0.126019 0.306724 255 220 0
0.500855 0.094947 0.288985 255 220 0
0.452142 0.090272 0.251250 255 220 0
0.511724 0.080908 0.260672 255 220 0
0.577047 0.150509 0.271601 255 220 0
0.515716 0.088423 0.247349 255 220 0
0.494624 0.083767 0.241641 255 220 0
0.513076 0.081561 0.273854 255 220 0
0.544392 0.158928 0.245612 255 220 0
0.537226 0.120667 0.236722 255 220 0
0.462008 0.147213 0.241641 255 220 0
0.534517 0.116858 0.236353 255 220 0
0.550342 0.186242 0.298345 255 220 0
0.579871 0.147948 0.276307 255 220 0
0.483521 0.162930 0.269656 255 220 0
0.493378 0.156641 0.289819 255 220 0
0.557629 0.157982 0.324345 255 220 0
0.507389 0.126630 0.225302 255 220 0
0.506385 0.096125 0.232324 255 220 0
0.560832 0.175712 0.314093 255 220 0
0.500485 0.087153 0.281788 255 220 0
0.571508 0.168941 0.316270 255 220 0
0.478733 0.109465 0.283545 255 220 0
0.431012 0.100286 0.235137 255 220 0
0.468704 0.144229 0.269326 255 220 0
0.458774 0.144515 0.255270 255 220 0
0.487658 0.078972 0.261556 255 220 0
0.501924 0.143286 0.229471 255 220 0
0.534873 0.175856 0.255471 255 220 0
0.525204 0.155863 0.238469 255 220 0
0.511873 0.094070 0.292292 255 220 0
0.494599 0.159620 0.289185 255 220 0
0.572293 0.121630 0.285586 255 220 0
0.472195 0.086794 0.230344 255 220 0
0.556876 0.178488 0.311499 255 220 0
0.551094 0.181976 0.307231 255 220 0
0.546621 0.162070 0.322792 255 220 0
0.510302 0.135707 0.227815 255 220 0
0.496953 0.134441 0.299755 255 220 0
0.450944 0.135439 0.257106 255 220 0
0.500631 0.117295 0.223292 255 220 0
0.512381 0.098210 0.233768 255 220 0
0.540391 0.187292 0.278325 255 220 0
0.425535 0.122662 0.239225 255 220 0
0.470658 0.134685 0.276430 255 220 0
0.444038 0.121123 0.257295 255 220 0
0.490995 0.153790 0.235840 255 220 0
0.508888 0.080164 0.259816 255 220 0
0.481869 0.161116 0.269848 255 220 0
0.543796 0.128733 0.321490 255 220 0
0.525083 0.090515 0.288327 255 220 0
0.557813 0.167736 0.259254 255 220 0
0.570745 0.166672 0.318049 255 220 0
0.536772 0.092988 0.262819 255 220 0
0.554502 0.136719 0.324380 255 220 0
0.523992 0.139019 0.318135 255 220 0
0.517292 0.136980 0.229542 255 220 0
0.515625 0.101603 0.299560 255 220 0
0.581935 0.142994 0.283071 255 220 0
0.542882 0.158794 0.244928 255 220 0
0.503250 0.147216 0.303221 255 220 0
0.487585 0.088171 0.232570 255 220 0
0.583912 0.163075 0.290625 255 220 0
0.565414 0.115490 0.272852 255 220 0
0.530747 0.114075 0.235322 255 220 0
0.581408 0.136014 0.300320 255 220 0
0.577726 0.157334 0.274767 255 220 0
0.573083 0.174412 0.283025 255 220 0
0.544905 0.179634 0.309626 255 220 0
0.433514 0.122822 0.222909 255 220 0
0.535145 0.183825 0.267032 255 220 0
0.485815 0.130281 0.222687 255 220 0
0.477045 0.119801 0.283504 255 220 0
0.457779 0.086677 0.251335 255 220 0
0.567461 0.115649 0.286800 255 220 0
0.569269 0.126555 0.265547 255 220 0
0.498319 0.147978 0.298778 255 220 0
0.525651 0.141313 0.319088 255 220 0
0.509391 0.177801 0.285825 255 220 0
0.493788 0.168788 0.252404 255 220 0
0.543723 0.151665 0.325192 255 220 0
0.471151 0.122487 0.219082 255 220 0
0.573066 0.170012 0.277236 255 220 0
0.564751 0.115929 0.299037 255 220 0
0.459745 0.083609 0.234610 255 220 0
0.515003 0.090792 0.243206 255 220 0
0.518298 0.082758 0.264211 255 220 0
0.479910 0.139355 0.226455 255 220 0
0.481634 0.116224 0.286996 255 220 0
0.573151 0.132378 0.268181 255 220 0
0.540749 0.164205 0.320454 255 220 0
0.441835 0.137345 0.237318 255 220 0
0.477340 0.141584 0.228001 255 220 0
0.486611 0.162753 0.248146 255 220 0
0.449642 0.116930 0.261604 255 220 0
0.526858 0.118980 0.231953 255 220 0
0.510818 0.135589 0.227879 255 220 0
0.506218 0.115529 0.303299 255 220 0
0.499752 0.104514 0.294850 255 220 0
0.494328 0.083558 0.274671 255 220 0
0.516409 0.160640 0.309119 255 220 0
0.475320 0.157187 0.263011 255 220 0
0.504014 0.088904 0.238679 255 220 0
0.560333 0.174001 0.267789 255 220 0
0.569541 0.118274 0.283462 255 220 0
0.500811 0.144996 0.230166 255 220 0
0.558597 0.135025 0.323096 255 220 0
0.511761 0.097627 0.295203 255 220 0
0.435752 0.132832 0.243223 255 220 0
0.554266 0.149362 0.325968 255 220 0
0.474665 0.095364 0.223517 255 220 0
0.540267 0.187933 0.288916 255 220 0
0.534992 0.159829 0.320394 255 220 0
0.530175 0.128364 0.318428 255 220 0
0.476930 0.123395 0.283620 255 220 0
0.504666 0.079001 0.266510 255 220 0
0.534238 0.123275 0.317431 255 220 0
0.517542 0.085968 0.253599 255 220 0
0.448439 0.128667 0.258661 255 220 0
0.548833 0.151519 0.325808 255 220 0
0.504262 0.137494 0.305128 255 220 0
0.477924 0.157920 0.248188 255 220 0
0.517358 0.094388 0.240462 255 220 0
0.508349 0.094637 0.291623 255 220 0
0.545695 0.106274 0.303574 255 220 0
0.544821 0.182435 0.305849 255 220 0
0.579938 0.141800 0.277890 255 220 0
0.487252 0.109726 0.290013 255 220 0
0.465529 0.119883 0.218140 255 220 0
0.551525 0.143891 0.244312 255 220 0
0.438873 0.101406 0.250675 255 220 0
0.550446 0.142077 0.325687 255 220 0
0.483233 0.159514 0.245711 255 220 0
0.460588 0.117486 0.217573 255 220 0
0.565291 0.157978 0.259961 255 220 0
0.454468 0.143830 0.246101 255 220 0
0.583239 0.155983 0.310326 255 220 0
0.517854 0.159757 0.239480 255 220 0
0.526006 0.094174 0.247761 255 220 0
0.571824 0.170751 0.276358 255 220 0
0.434536 0.130533 0.228267 255 220 0
0.485426 0.107655 0.220937 255 220 0
0.488364 0.133351 0.224012 255 220 0
0.501454 0.173545 0.282197 255 220 0
0.485915 0.134944 0.290739 255 220 0
0.579958 0.152598 0.315064 255 220 0
0.509689 0.110417 0.302610 255 220 0
0.464230 0.125103 0.219511 255 220 0
0.532233 0.100169 0.300687 255 220 0
0.431511 0.131152 0.234369 255 220 0
0.460664 0.091117 0.225663 255 220 0
0.485935 0.083456 0.269849 255 220 0
0.580473 0.144130 0.278322 255 220 0
0.584515 0.157636 0.288633 255 220 0
0.561213 0.118388 0.259798 255 220 0
0.436253 0.132200 0.229381 255 220 0
0.541775 0.103824 0.302468 255 220 0
0.531655 0.173720 0.310516 255 220 0
0.456690 0.084286 0.244464 255 220 0
0.458275 0.138363 0.262026 255 220 0
0.466213 0.134310 0.223915 255 220 0
0.481149 0.080301 0.243418 255 220 0
0.553411 0.105067 0.264902 255 220 0
0.456074 0.121192 0.218309 255 220 0
0.543286 0.161971 0.246812 255 220 0
0.560153 0.114945 0.303818 255 220 0
0.581337 0.170037 0.299135 255 220 0
0.526839 0.167520 0.245995 255 220 0
0.459577 0.129164 0.267840 255 220 0
0.457089 0.140487 0.231418 255 220 0
0.550526 0.179685 0.310319 255 220 0
0.438235 0.102697 0.250903 255 220 0
0.463432 0.120705 0.272441 255 220 0
0.557636 0.119732 0.254006 255 220 0
0.548340 0.120502 0.244424 255 220 0
0.457982 0.084515 0.233331 255 220 0
0.505388 0.176108 0.283274 255 220 0
0.509627 0.098327 0.294973 255 220 0
0.549242 0.099780 0.269433 255 220 0
0.453101 0.137922 0.257108 255 220 0
0.434718 0.096687 0.237611 255 220 0
0.517176 0.113608 0.307398 255 220 0
0.549014 0.125130 0.243404 255 220 0
0.563540 0.162903 0.260724 255 220 0
0.513438 0.168948 0.301525 255 220 0
0.523576 0.111578 0.232569 255 220 0
0.543357 0.098986 0.259494 255 220 0
0.441801 0.136125 0.232640 255 220 0
0.526747 0.103443 0.303780 255 220 0
0.573271 0.133994 0.267351 255 220 0
0.552196 0.147913 0.245633 255 220 0
0.549887 0.161030 0.249352 255 220 0
0.471813 0.082204 0.256439 255 220 0
0.494819 0.119732 0.221989 255 220 0
0.504668 0.083078 0.277781 255 220 0
0.546598 0.099313 0.264293 255 220 0
0.485932 0.104372 0.287137 255 220 0
0.486630 0.108194 0.221064 255 220 0
0.517199 0.151240 0.312808 255 220 0
0.462043 0.093013 0.262977 255 220 0
0.551138 0.101444 0.288824 255 220 0
0.488318 0.164612 0.275867 255 220 0
0.499438 0.122588 0.223146 255 220 0
0.481367 0.120289 0.219799 255 220 0
0.548831 0.135750 0.324348 255 220 0
0.548214 0.170594 0.255485 255 220 0
0.545993 0.186313 0.277696 255 220 0
