ply
format ascii 1.0
element vertex 1024
property float x
property float y
property float z
property uchar red
property uchar green
property uchar blue
end_header
0.091010 0.187388 0.073654 255 220 0
0.128382 0.114089 0.031937 255 220 0
0.201315 0.084339 0.042426 255 220 0
0.142430 0.091235 0.087269 255 220 0
0.150447 0.184127 0.054785 255 220 0
0.114842 0.113590 0.075729 255 220 0
0.157863 0.174922 0.048438 255 220 0
0.133858 0.118888 0.024017 255 220 0
0.154676 0.171857 0.041255 255 220 0
0.173570 0.076781 0.015211 255 220 0
0.098844 0.135214 0.077560 255 220 0
0.175129 0.107739 0.100217 255 220 0
0.103903 0.129595 0.060430 255 220 0
0.113022 0.141839 0.105304 255 220 0
0.168447 0.083920 0.093421 255 220 0
0.164524 0.059642 0.026953 255 220 0
0.119335 0.187276 0.042381 255 220 0
0.089022 0.177418 0.067529 255 220 0
0.119068 0.127012 0.033375 255 220 0
0.157604 0.095716 0.019526 255 220 0
0.113819 0.167227 0.031417 255 220 0
0.120310 0.179795 0.105553 255 220 0
0.174685 0.114855 0.100553 255 220 0
0.091280 0.183397 0.085268 255 220 0
0.198878 0.065342 0.029245 255 220 0
0.175493 0.139643 0.037192 255 220 0
0.091398 0.185151 0.066279 255 220 0
0.100574 0.198334 0.072480 255 220 0
0.130708 0.140203 0.021255 255 220 0
0.117009 0.187142 0.101576 255 220 0
0.095237 0.164465 0.097254 255 220 0
0.117085 0.110645 0.073112 255 220 0
0.166278 0.072007 0.079195 255 220 0
0.180911 0.073904 0.014936 255 220 0
0.189119 0.124454 0.046122 255 220 0
0.119070 0.113793 0.047715 255 220 0
0.165166 0.172940 0.059719 255 220 0
0.089880 0.179006 0.084315 255 220 0
0.161968 0.127279 0.021080 255 220 0
0.147199 0.095330 0.096513 255 220 0
0.181763 0.149180 0.059675 255 220 0
0.168970 0.160478 0.090759 255 220 0
0.090961 0.160081 0.059587 255 220 0
0.141929 0.147983 0.112091 255 220 0
0.105258 0.180804 0.102292 255 220 0
0.147804 0.078254 0.045027 255 220 0
0.129464 0.131746 0.022704 255 220 0
0.095197 0.142705 0.064707 255 220 0
0.097491 0.196379 0.075030 255 220 0
0.133774 0.186438 0.097531 255 220 0
0.121318 0.128474 0.030046 255 220 0
0.091387 0.172926 0.057608 255 220 0
0.139071 0.089832 0.043887 255 220 0
0.158661 0.069883 0.027921 255 220 0
0.161891 0.061459 0.042881 255 220 0
0.168228 0.052399 0.030266 255 220 0
0.098344 0.190919 0.091012 255 220 0
0.197661 0.069599 0.027109 255 220 0
0.153936 0.074579 0.032971 255 220 0
0.180951 0.106962 0.024935 255 220 0
0.118451 0.195355 0.094118 255 220 0
0.121544 0.128690 0.029711 255 220 0
0.179410 0.102973 0.096409 255 220 0
0.189432 0.131024 0.074639 255 220 0
0.154889 0.099951 0.019790 255 220 0
0.150717 0.146053 0.022070 255 220 0
0.196114 0.085864 0.030505 255 220 0
0.111297 0.155425 0.031411 255 220 0
0.129199 0.181809 0.102950 255 220 0
0.094363 0.183867 0.091472 255 220 0
0.188447 0.136438 0.065182 255 220 0
0.175117 0.131033 0.098179 255 220 0
0.093597 0.146027 0.082475 255 220 0
0.130006 0.174781 0.106458 255 220 0
0.166234 0.056236 0.042282 255 220 0
0.179401 0.117841 0.028530 255 220 0
0.136963 0.162113 0.109725 255 220 0
0.151848 0.073210 0.045536 255 220 0
0.121676 0.112515 0.089952 255 220 0
0.197635 0.104681 0.048648 255 220 0
0.144468 0.135726 0.018763 255 220 0
0.141304 0.099587 0.028564 255 220 0
0.116136 0.193882 0.050438 255 220 0
0.132728 0.177281 0.034628 255 220 0
0.164227 0.060652 0.026312 255 220 0
0.114605 0.121765 0.045122 255 220 0
0.123442 0.110279 0.089351 255 220 0
0.105551 0.145607 0.101546 255 220 0
0.132788 0.130839 0.021201 255 220 0
0.201408 0.078542 0.058889 255 220 0
0.167128 0.161543 0.092288 255 220 0
0.119579 0.115570 0.043920 255 220 0
0.149151 0.168356 0.102789 255 220 0
0.107569 0.190403 0.097643 255 220 0
0.200228 0.073175 0.033303 255 220 0
0.170123 0.129071 0.102836 255 220 0
0.153503 0.095089 0.099743 255 220 0
0.140168 0.191842 0.059998 255 220 0
0.148971 0.185783 0.085687 255 220 0
0.135689 0.161615 0.025237 255 220 0
0.164739 0.060155 0.052472 255 220 0
0.126880 0.100360 0.057078 255 220 0
0.130003 0.144554 0.112220 255 220 0
0.103325 0.135344 0.090926 255 220 0
0.127812 0.194190 0.053940 255 220 0
0.172628 0.139046 0.033490 255 220 0
0.087871 0.173209 0.076766 255 220 0
0.170869 0.076826 0.015684 255 220 0
0.141789 0.192727 0.074147 255 220 0
0.176716 0.053103 0.054490 255 220 0
0.171881 0.162933 0.055740 255 220 0
0.115547 0.114933 0.082460 255 220 0
0.147225 0.079756 0.042531 255 220 0
0.125065 0.188790 0.044670 255 220 0
0.102772 0.163920 0.103991 255 220 0
0.128421 0.139454 0.111535 255 220 0
0.112723 0.186544 0.101674 255 220 0
0.110745 0.182131 0.040207 255 220 0
0.091960 0.169171 0.055656 255 220 0
0.115960 0.163411 0.029191 255 220 0
0.103413 0.147556 0.100675 255 220 0
0.116361 0.111840 0.067023 255 220 0
0.174856 0.154702 0.086813 255 220 0
0.181844 0.083945 0.089025 255 220 0
0.175151 0.094177 0.097675 255 220 0
0.123021 0.114151 0.094033 255 220 0
0.126732 0.146049 0.111613 255 220 0
0.116711 0.113769 0.054462 255 220 0
0.182213 0.115934 0.093550 255 220 0
0.106210 0.180503 0.102847 255 220 0
0.189517 0.057034 0.062472 255 220 0
0.155796 0.126665 0.109954 255 220 0
0.156786 0.180929 0.060336 255 220 0
0.196839 0.101595 0.073273 255 220 0
0.184829 0.126645 0.087825 255 220 0
0.115972 0.160727 0.109075 255 220 0
0.111471 0.117625 0.074806 255 220 0
0.149330 0.158700 0.027326 255 220 0
0.110623 0.198254 0.090248 255 220 0
0.146606 0.084719 0.082240 255 220 0
0.156696 0.149245 0.107176 255 220 0
0.170850 0.103428 0.019288 255 220 0
0.104850 0.159901 0.036969 255 220 0
0.141240 0.190588 0.057878 255 220 0
0.180941 0.140157 0.087276 255 220 0
0.198052 0.100376 0.045262 255 220 0
0.106067 0.130549 0.089668 255 220 0
0.138364 0.194747 0.073426 255 220 0
0.182720 0.142587 0.051433 255 220 0
0.103966 0.132488 0.088363 255 220 0
0.200728 0.092877 0.048973 255 220 0
0.102598 0.136417 0.051394 255 220 0
0.124167 0.107225 0.085681 255 220 0
0.127173 0.105482 0.043498 255 220 0
0.166343 0.073758 0.081665 255 220 0
0.154932 0.100630 0.019668 255 220 0
0.180231 0.124998 0.033308 255 220 0
0.149222 0.077557 0.069430 255 220 0
0.135237 0.100557 0.091484 255 220 0
0.151349 0.154383 0.108000 255 220 0
0.110139 0.180922 0.104043 255 220 0
0.108021 0.201584 0.072376 255 220 0
0.141759 0.159023 0.109677 255 220 0
0.088374 0.159629 0.071438 255 220 0
0.194390 0.064372 0.021503 255 220 0
0.098994 0.197377 0.073171 255 220 0
0.201408 0.065103 0.043967 255 220 0
0.202230 0.078750 0.043920 255 220 0
0.170348 0.050925 0.038483 255 220 0
0.190022 0.055293 0.019252 255 220 0
0.132239 0.123323 0.023402 255 220 0
0.114397 0.197897 0.058096 255 220 0
0.127389 0.118453 0.029837 255 220 0
0.119433 0.175473 0.033128 255 220 0
0.142746 0.106913 0.023248 255 220 0
0.181011 0.046743 0.025086 255 220 0
0.105092 0.142177 0.099232 255 220 0
0.171449 0.130144 0.101641 255 220 0
0.106211 0.196726 0.090631 255 220 0
0.123677 0.194048 0.051733 255 220 0
0.171103 0.146893 0.097201 255 220 0
0.107663 0.175022 0.105197 255 220 0
0.201398 0.083065 0.041832 255 220 0
0.196514 0.091480 0.034396 255 220 0
0.103602 0.134657 0.051320 255 220 0
0.159385 0.163954 0.098556 255 220 0
0.173486 0.049564 0.042931 255 220 0
0.178640 0.072275 0.081923 255 220 0
0.160568 0.064938 0.056907 255 220 0
0.176776 0.066293 0.013850 255 220 0
0.123977 0.155028 0.110906 255 220 0
0.111134 0.128938 0.043016 255 220 0
0.189650 0.091127 0.025309 255 220 0
0.170081 0.090462 0.097959 255 220 0
0.110441 0.122588 0.053658 255 220 0
0.190157 0.128189 0.053135 255 220 0
0.154277 0.072971 0.068107 255 220 0
0.186235 0.138717 0.076070 255 220 0
0.155478 0.179594 0.053000 255 220 0
0.110496 0.182688 0.103340 255 220 0
0.164430 0.114499 0.019743 255 220 0
0.155511 0.141732 0.022259 255 220 0
0.193576 0.122966 0.064284 255 220 0
0.200443 0.095883 0.051970 255 220 0
0.107567 0.131706 0.046464 255 220 0
0.107909 0.193122 0.052541 255 220 0
0.089226 0.157149 0.081063 255 220 0
0.145031 0.160755 0.026803 255 220 0
0.159075 0.122613 0.109011 255 220 0
0.167017 0.153167 0.098271 255 220 0
0.139721 0.155216 0.023162 255 220 0
0.127469 0.190688 0.096224 255 220 0
0.166747 0.171307 0.060064 255 220 0
0.089846 0.182325 0.068831 255 220 0
0.151355 0.165262 0.032820 255 220 0
0.121694 0.190925 0.046645 255 220 0
0.176879 0.146890 0.044941 255 220 0
0.138207 0.087634 0.065658 255 220 0
0.148112 0.098594 0.100199 255 220 0
0.174826 0.124629 0.027817 255 220 0
0.124822 0.153270 0.111146 255 220 0
0.165695 0.057914 0.026218 255 220 0
0.197355 0.074213 0.068128 255 220 0
0.143889 0.161623 0.108179 255 220 0
0.162501 0.066349 0.066192 255 220 0
0.096895 0.191316 0.088740 255 220 0
0.177469 0.101105 0.020909 255 220 0
0.177372 0.074559 0.084278 255 220 0
0.168447 0.164623 0.086806 255 220 0
0.105872 0.200297 0.069673 255 220 0
0.174761 0.147021 0.041904 255 220 0
0.153246 0.136211 0.110609 255 220 0
0.166814 0.154986 0.097434 255 220 0
0.125823 0.114320 0.097523 255 220 0
0.178538 0.111221 0.024931 255 220 0
0.122566 0.116311 0.037953 255 220 0
0.102996 0.134319 0.089008 255 220 0
0.160878 0.168958 0.044752 255 220 0
0.103175 0.185564 0.047687 255 220 0
0.188358 0.120717 0.041390 255 220 0
0.151743 0.089626 0.093423 255 220 0
0.134902 0.113017 0.103816 255 220 0
0.154602 0.093206 0.098551 255 220 0
0.178847 0.071952 0.014308 255 220 0
0.102055 0.132250 0.083330 255 220 0
0.146866 0.189239 0.066488 255 220 0
0.126867 0.199165 0.081365 255 220 0
0.097049 0.189755 0.090634 255 220 0
0.102760 0.129543 0.071071 255 220 0
0.163862 0.089354 0.097631 255 220 0
0.112481 0.170039 0.033135 255 220 0
0.181341 0.067911 0.077160 255 220 0
0.178228 0.070647 0.014098 255 220 0
0.155434 0.071778 0.067185 255 220 0
0.092608 0.174513 0.055415 255 220 0
0.167285 0.128172 0.023924 255 220 0
0.089343 0.168509 0.062795 255 220 0
0.189354 0.049556 0.049054 255 220 0
0.146489 0.131758 0.111662 255 220 0
0.188124 0.092493 0.024524 255 220 0
0.151231 0.172162 0.099007 255 220 0
0.175321 0.155915 0.052351 255 220 0
0.164220 0.063255 0.023549 255 220 0
0.151041 0.184009 0.055542 255 220 0
0.161605 0.161860 0.098033 255 220 0
0.145054 0.171060 0.103267 255 220 0
0.092291 0.174038 0.055904 255 220 0
0.191081 0.111567 0.082786 255 220 0
0.154655 0.183422 0.064724 255 220 0
0.131266 0.120773 0.106668 255 220 0
0.128228 0.188427 0.045168 255 220 0
0.202424 0.075151 0.044586 255 220 0
0.155844 0.175276 0.046417 255 220 0
0.198611 0.070261 0.063389 255 220 0
0.141659 0.089108 0.083060 255 220 0
0.185063 0.094804 0.023095 255 220 0
0.128967 0.097528 0.060809 255 220 0
0.186114 0.093323 0.088322 255 220 0
0.186974 0.137910 0.074325 255 220 0
0.102218 0.131138 0.064544 255 220 0
0.168241 0.171140 0.071735 255 220 0
0.147702 0.160592 0.107220 255 220 0
0.183603 0.145225 0.076122 255 220 0
0.103215 0.130354 0.061400 255 220 0
0.185851 0.075467 0.081660 255 220 0
0.187557 0.115561 0.036380 255 220 0
0.102545 0.133834 0.055414 255 220 0
0.195364 0.099364 0.037682 255 220 0
0.185851 0.140073 0.057227 255 220 0
0.154447 0.088646 0.022528 255 220 0
0.182767 0.100887 0.093072 255 220 0
0.098506 0.194084 0.087169 255 220 0
0.171320 0.084966 0.094087 255 220 0
0.175612 0.059054 0.064102 255 220 0
0.127985 0.098314 0.071113 255 220 0
0.134104 0.127730 0.110328 255 220 0
0.166775 0.162116 0.044974 255 220 0
0.128894 0.198858 0.078776 255 220 0
0.196952 0.084897 0.072240 255 220 0
0.135505 0.165753 0.027165 255 220 0
0.178740 0.056473 0.061225 255 220 0
0.112109 0.125424 0.045207 255 220 0
0.140127 0.085696 0.058946 255 220 0
0.165839 0.080168 0.017380 255 220 0
0.142378 0.132926 0.018601 255 220 0
0.176086 0.143177 0.040572 255 220 0
0.098846 0.137657 0.060647 255 220 0
0.156748 0.174499 0.092213 255 220 0
0.138957 0.161039 0.109674 255 220 0
0.109400 0.190925 0.097858 255 220 0
0.185149 0.143946 0.069733 255 220 0
0.178184 0.134046 0.094039 255 220 0
0.094592 0.151406 0.091264 255 220 0
0.166810 0.129308 0.105133 255 220 0
0.115987 0.145240 0.107872 255 220 0
0.102678 0.197357 0.086655 255 220 0
0.128762 0.171278 0.108025 255 220 0
0.162584 0.062145 0.052439 255 220 0
0.094436 0.189048 0.063884 255 220 0
0.141757 0.105595 0.102368 255 220 0
0.119654 0.161567 0.027111 255 220 0
0.107689 0.167125 0.035373 255 220 0
0.163892 0.133022 0.023480 255 220 0
0.170388 0.158059 0.090951 255 220 0
0.165455 0.098680 0.103012 255 220 0
0.183844 0.107798 0.027674 255 220 0
0.178254 0.152143 0.053708 255 220 0
0.145514 0.188290 0.085467 255 220 0
0.131487 0.097589 0.081491 255 220 0
0.160499 0.155697 0.032629 255 220 0
0.108080 0.189925 0.098196 255 220 0
0.138227 0.194709 0.076095 255 220 0
0.162210 0.162913 0.040127 255 220 0
0.195512 0.077672 0.026085 255 220 0
0.163685 0.117065 0.107242 255 220 0
0.106638 0.132649 0.047203 255 220 0
0.171939 0.064556 0.070982 255 220 0
0.100203 0.133834 0.066603 255 220 0
0.173066 0.057960 0.016748 255 220 0
0.162469 0.066657 0.066849 255 220 0
0.146678 0.078709 0.052651 255 220 0
0.146300 0.188336 0.059504 255 220 0
0.097386 0.188820 0.058269 255 220 0
0.176994 0.067767 0.013882 255 220 0
0.168321 0.151431 0.037348 255 220 0
0.170143 0.077242 0.086992 255 220 0
0.164722 0.057472 0.037814 255 220 0
0.152777 0.135119 0.019637 255 220 0
0.175427 0.136737 0.035154 255 220 0
0.104114 0.164772 0.104778 255 220 0
0.166133 0.173462 0.073518 255 220 0
0.125246 0.180510 0.036325 255 220 0
0.166341 0.173464 0.068868 255 220 0
0.139091 0.194086 0.067876 255 220 0
0.115916 0.112769 0.063632 255 220 0
0.107771 0.145168 0.036655 255 220 0
0.114497 0.127959 0.038692 255 220 0
0.152416 0.072370 0.047861 255 220 0
0.116618 0.123742 0.097055 255 220 0
0.171903 0.163275 0.056474 255 220 0
0.197083 0.110192 0.067081 255 220 0
0.156170 0.068172 0.047601 255 220 0
0.098753 0.152037 0.046185 255 220 0
0.113215 0.162288 0.108323 255 220 0
0.097372 0.161080 0.045993 255 220 0
0.175239 0.144021 0.040093 255 220 0
0.104365 0.131171 0.087190 255 220 0
0.097011 0.194144 0.067651 255 220 0
0.182623 0.065568 0.074465 255 220 0
0.177142 0.113203 0.024745 255 220 0
0.110644 0.131263 0.041585 255 220 0
0.169793 0.166237 0.056749 255 220 0
0.126188 0.109508 0.039840 255 220 0
0.191532 0.123220 0.050861 255 220 0
0.185408 0.126366 0.087072 255 220 0
0.154330 0.083295 0.087512 255 220 0
0.143167 0.177854 0.099734 255 220 0
0.105671 0.176650 0.103963 255 220 0
0.166778 0.131946 0.104830 255 220 0
0.115362 0.127196 0.038104 255 220 0
0.175533 0.156563 0.083189 255 220 0
0.171794 0.146138 0.037388 255 220 0
0.090129 0.154327 0.081804 255 220 0
0.136897 0.104726 0.097956 255 220 0
0.165155 0.059296 0.050726 255 220 0
0.171200 0.156135 0.091431 255 220 0
0.092199 0.162574 0.055538 255 220 0
0.198902 0.094499 0.042298 255 220 0
0.115817 0.135866 0.031928 255 220 0
0.166820 0.066561 0.071102 255 220 0
0.088040 0.170784 0.069142 255 220 0
0.197888 0.097939 0.042367 255 220 0
0.145439 0.080089 0.056369 255 220 0
0.134141 0.149618 0.021545 255 220 0
0.108508 0.198879 0.063150 255 220 0
0.189058 0.125826 0.080778 255 220 0
0.154695 0.157878 0.029735 255 220 0
0.198060 0.106109 0.053058 255 220 0
0.172443 0.151136 0.042243 255 220 0
0.194275 0.065309 0.021423 255 220 0
0.133705 0.173624 0.106121 255 220 0
0.134314 0.167264 0.027798 255 220 0
0.107101 0.123673 0.077892 255 220 0
0.120290 0.122785 0.035037 255 220 0
0.112006 0.187867 0.044273 255 220 0
0.160476 0.172617 0.089596 255 220 0
0.092429 0.147180 0.068437 255 220 0
0.147254 0.135745 0.018897 255 220 0
0.177739 0.157497 0.065752 255 220 0
0.135717 0.196103 0.074992 255 220 0
0.148636 0.092458 0.094438 255 220 0
0.090525 0.175719 0.088030 255 220 0
0.157335 0.165010 0.099519 255 220 0
0.178072 0.064652 0.073197 255 220 0
0.088413 0.177718 0.074870 255 220 0
0.142765 0.168032 0.105841 255 220 0
0.119708 0.122152 0.099035 255 220 0
0.140678 0.120362 0.109332 255 220 0
0.165101 0.056718 0.033681 255 220 0
0.100498 0.150891 0.099476 255 220 0
0.146105 0.162750 0.028369 255 220 0
0.145519 0.080078 0.050973 255 220 0
0.133615 0.104165 0.094136 255 220 0
0.100800 0.141158 0.092993 255 220 0
0.194386 0.078137 0.074275 255 220 0
0.171960 0.111833 0.021555 255 220 0
0.192380 0.103613 0.035489 255 220 0
0.125986 0.115396 0.098847 255 220 0
0.166952 0.110392 0.019678 255 220 0
0.197623 0.103788 0.047493 255 220 0
0.129428 0.135288 0.022109 255 220 0
0.195461 0.110235 0.047479 255 220 0
0.106331 0.168940 0.105661 255 220 0
0.182759 0.047282 0.044184 255 220 0
0.111970 0.145697 0.105908 255 220 0
0.177165 0.150089 0.048648 255 220 0
0.197968 0.084309 0.070219 255 220 0
0.161571 0.132384 0.107749 255 220 0
0.160627 0.062956 0.042742 255 220 0
0.201002 0.092624 0.058634 255 220 0
0.110290 0.136703 0.037869 255 220 0
0.175773 0.047042 0.027323 255 220 0
0.190748 0.081493 0.079868 255 220 0
0.130300 0.186765 0.043827 255 220 0
0.167722 0.139471 0.102800 255 220 0
0.137953 0.103052 0.029629 255 220 0
0.162329 0.069282 0.072079 255 220 0
0.117309 0.111892 0.079995 255 220 0
0.175607 0.065899 0.074329 255 220 0
0.187640 0.085787 0.084649 255 220 0
0.183793 0.146918 0.068153 255 220 0
0.091676 0.168232 0.056255 255 220 0
0.162022 0.084303 0.092690 255 220 0
0.130762 0.128368 0.022776 255 220 0
0.169255 0.070837 0.016190 255 220 0
0.096631 0.138659 0.072398 255 220 0
0.174597 0.149012 0.043396 255 220 0
0.130818 0.140809 0.112172 255 220 0
0.151206 0.074630 0.063040 255 220 0
0.176882 0.094869 0.019005 255 220 0
0.126070 0.136960 0.110455 255 220 0
0.166390 0.123700 0.022183 255 220 0
0.165116 0.057789 0.028286 255 220 0
0.191548 0.099318 0.082616 255 220 0
0.148674 0.181902 0.048429 255 220 0
0.149998 0.082046 0.081862 255 220 0
0.108795 0.158752 0.033398 255 220 0
0.162789 0.173892 0.055685 255 220 0
0.115832 0.130365 0.035025 255 220 0
0.141861 0.175873 0.101788 255 220 0
0.137029 0.116848 0.107083 255 220 0
0.119329 0.186809 0.041919 255 220 0
0.181293 0.118560 0.094182 255 220 0
0.185563 0.129972 0.085106 255 220 0
0.089027 0.159605 0.082538 255 220 0
0.190383 0.059249 0.065077 255 220 0
0.096668 0.158633 0.047536 255 220 0
0.195211 0.105452 0.042136 255 220 0
0.173333 0.091437 0.017504 255 220 0
0.179503 0.149774 0.053298 255 220 0
0.142670 0.095544 0.030195 255 220 0
0.201165 0.080510 0.039176 255 220 0
0.124732 0.200447 0.070579 255 220 0
0.089146 0.161906 0.084445 255 220 0
0.154816 0.178529 0.049911 255 220 0
0.123148 0.201082 0.072533 255 220 0
0.185458 0.139612 0.077601 255 220 0
0.105223 0.135907 0.046442 255 220 0
0.144726 0.138352 0.112301 255 220 0
0.196528 0.088979 0.032911 255 220 0
0.190886 0.089655 0.081983 255 220 0
0.200483 0.085719 0.040036 255 220 0
0.163799 0.172281 0.054487 255 220 0
0.130064 0.096143 0.071091 255 220 0
0.182725 0.131412 0.040958 255 220 0
0.142794 0.082911 0.059226 255 220 0
0.202095 0.077514 0.054646 255 220 0
0.141744 0.150732 0.111684 255 220 0
0.182946 0.105810 0.093248 255 220 0
0.127579 0.188866 0.098010 255 220 0
0.148984 0.094930 0.024324 255 220 0
0.187096 0.133945 0.051668 255 220 0
0.131721 0.144227 0.021133 255 220 0
0.164125 0.153794 0.100562 255 220 0
0.172667 0.070141 0.079102 255 220 0
0.102982 0.129087 0.076935 255 220 0
0.103992 0.159289 0.037817 255 220 0
0.121876 0.150968 0.110541 255 220 0
0.161630 0.088793 0.018708 255 220 0
0.177201 0.046394 0.028303 255 220 0
0.121406 0.105638 0.072950 255 220 0
0.142082 0.087860 0.040205 255 220 0
0.130556 0.164992 0.109719 255 220 0
0.118949 0.108393 0.071329 255 220 0
0.189888 0.118251 0.083004 255 220 0
0.099208 0.151586 0.098382 255 220 0
0.176467 0.108929 0.022846 255 220 0
0.163870 0.059295 0.044097 255 220 0
0.104019 0.187395 0.048601 255 220 0
0.114176 0.115461 0.060273 255 220 0
0.173601 0.049419 0.042681 255 220 0
0.125381 0.106351 0.045920 255 220 0
0.126070 0.177435 0.106012 255 220 0
0.188737 0.050917 0.052331 255 220 0
0.126941 0.198210 0.063128 255 220 0
0.173361 0.077382 0.015313 255 220 0
0.168992 0.148280 0.098746 255 220 0
0.092511 0.157267 0.090940 255 220 0
0.110720 0.186478 0.043514 255 220 0
0.145979 0.086181 0.034562 255 220 0
0.161009 0.122410 0.019931 255 220 0
0.132989 0.189566 0.094636 255 220 0
0.191832 0.055534 0.020902 255 220 0
0.165247 0.093304 0.100333 255 220 0
0.124549 0.191158 0.047581 255 220 0
0.094964 0.173829 0.050938 255 220 0
0.160087 0.167005 0.041716 255 220 0
0.122900 0.201183 0.077192 255 220 0
0.095338 0.194047 0.072593 255 220 0
0.185612 0.129199 0.043773 255 220 0
0.139153 0.087817 0.049131 255 220 0
0.111462 0.117883 0.068716 255 220 0
0.149982 0.094782 0.023633 255 220 0
0.142922 0.144867 0.020341 255 220 0
0.144090 0.181059 0.096545 255 220 0
0.138072 0.157318 0.110837 255 220 0
0.138767 0.095651 0.035715 255 220 0
0.119912 0.192963 0.049182 255 220 0
0.122058 0.105013 0.065963 255 220 0
0.160618 0.075395 0.021391 255 220 0
0.195253 0.054443 0.053325 255 220 0
0.153021 0.076867 0.031838 255 220 0
0.178186 0.061122 0.014024 255 220 0
0.143967 0.123601 0.018614 255 220 0
0.151015 0.179254 0.046727 255 220 0
0.100027 0.185563 0.096625 255 220 0
0.148202 0.176818 0.097453 255 220 0
0.176790 0.063958 0.013918 255 220 0
0.113769 0.136648 0.033730 255 220 0
0.115307 0.124799 0.040450 255 220 0
0.171877 0.115174 0.102622 255 220 0
0.154943 0.083725 0.023800 255 220 0
0.113718 0.179517 0.105351 255 220 0
0.198821 0.101579 0.050072 255 220 0
0.173599 0.111488 0.101439 255 220 0
0.195791 0.116065 0.063928 255 220 0
0.189819 0.074758 0.019268 255 220 0
0.156090 0.091757 0.020782 255 220 0
0.128696 0.100719 0.048549 255 220 0
0.133268 0.127227 0.021693 255 220 0
0.089676 0.180385 0.082236 255 220 0
0.199941 0.061956 0.049648 255 220 0
0.155871 0.068494 0.045747 255 220 0
0.144918 0.118322 0.109429 255 220 0
0.199246 0.063393 0.055111 255 220 0
0.093668 0.164103 0.052111 255 220 0
0.134816 0.105349 0.031449 255 220 0
0.088116 0.174465 0.071045 255 220 0
0.175599 0.158846 0.079216 255 220 0
0.128298 0.176844 0.105878 255 220 0
0.093781 0.189481 0.066067 255 220 0
0.154539 0.179014 0.050356 255 220 0
0.113229 0.115503 0.069665 255 220 0
0.133437 0.164687 0.026389 255 220 0
0.144233 0.173538 0.102149 255 220 0
0.092276 0.188785 0.069489 255 220 0
0.142975 0.174372 0.035787 255 220 0
0.154167 0.087831 0.022998 255 220 0
0.111122 0.201182 0.067979 255 220 0
0.189143 0.098666 0.028381 255 220 0
0.197767 0.060789 0.056781 255 220 0
0.092229 0.149147 0.065151 255 220 0
0.197641 0.053979 0.042450 255 220 0
0.092144 0.172009 0.092462 255 220 0
0.159500 0.089611 0.097028 255 220 0
0.124383 0.157865 0.024846 255 220 0
0.124064 0.199991 0.082129 255 220 0
0.163260 0.120530 0.107481 255 220 0
0.171899 0.101072 0.019063 255 220 0
0.162650 0.060931 0.031661 255 220 0
0.149671 0.172058 0.100104 255 220 0
0.189447 0.132796 0.058886 255 220 0
0.145754 0.176927 0.039927 255 220 0
0.195443 0.090034 0.075735 255 220 0
0.188875 0.134744 0.060939 255 220 0
0.142758 0.087223 0.039726 255 220 0
0.122574 0.151064 0.110720 255 220 0
0.190140 0.120799 0.044794 255 220 0
0.121468 0.141145 0.109488 255 220 0
0.155505 0.154289 0.106109 255 220 0
0.167150 0.157709 0.095322 255 220 0
0.117357 0.111360 0.060659 255 220 0
0.088732 0.178319 0.070588 255 220 0
0.121516 0.174624 0.107468 255 220 0
0.194851 0.119026 0.064844 255 220 0
0.190786 0.125133 0.076910 255 220 0
0.180052 0.048567 0.021656 255 220 0
0.154993 0.084604 0.089655 255 220 0
0.092184 0.152792 0.087030 255 220 0
0.118726 0.143521 0.027151 255 220 0
0.178508 0.122006 0.029816 255 220 0
0.164090 0.058293 0.033365 255 220 0
0.179495 0.143608 0.087601 255 220 0
0.178886 0.135603 0.038662 255 220 0
0.158124 0.066533 0.037171 255 220 0
0.176992 0.099619 0.097910 255 220 0
0.104638 0.135446 0.048078 255 220 0
0.115438 0.194420 0.051362 255 220 0
0.178678 0.101038 0.096812 255 220 0
0.121266 0.198875 0.087597 255 220 0
0.186081 0.135628 0.080009 255 220 0
0.105915 0.198866 0.086775 255 220 0
0.160671 0.101805 0.104961 255 220 0
0.202300 0.071446 0.046165 255 220 0
0.147259 0.117824 0.018716 255 220 0
0.088700 0.166880 0.084245 255 220 0
0.188526 0.084531 0.021682 255 220 0
0.162599 0.117009 0.019647 255 220 0
0.096006 0.141774 0.083186 255 220 0
0.144627 0.101866 0.024259 255 220 0
0.099965 0.194475 0.063251 255 220 0
0.131233 0.192887 0.053591 255 220 0
0.137894 0.087947 0.065354 255 220 0
0.179269 0.121871 0.095777 255 220 0
0.173602 0.158196 0.051891 255 220 0
0.154047 0.078133 0.079646 255 220 0
0.193247 0.099103 0.080150 255 220 0
0.129140 0.119732 0.027339 255 220 0
0.156558 0.144331 0.023677 255 220 0
0.108988 0.183251 0.102630 255 220 0
0.175042 0.150778 0.089889 255 220 0
0.189570 0.104611 0.032157 255 220 0
0.185091 0.058672 0.015089 255 220 0
0.150095 0.076341 0.067348 255 220 0
0.162804 0.060140 0.039731 255 220 0
0.122850 0.190976 0.046924 255 220 0
0.140846 0.191512 0.084560 255 220 0
0.121189 0.181110 0.104875 255 220 0
0.151478 0.168054 0.035160 255 220 0
0.125556 0.145762 0.023180 255 220 0
0.196917 0.087406 0.072787 255 220 0
0.148217 0.086021 0.030889 255 220 0
0.186589 0.137837 0.075990 255 220 0
0.196414 0.113988 0.063158 255 220 0
0.198906 0.064911 0.058173 255 220 0
0.154697 0.182734 0.081890 255 220 0
0.155948 0.109762 0.107981 255 220 0
0.120384 0.146971 0.109883 255 220 0
0.110280 0.150832 0.032640 255 220 0
0.148165 0.169712 0.102513 255 220 0
0.185219 0.122004 0.037578 255 220 0
0.112653 0.177686 0.036648 255 220 0
0.178652 0.046870 0.040991 255 220 0
0.124567 0.183211 0.038667 255 220 0
0.155666 0.172596 0.095139 255 220 0
0.170717 0.053733 0.048929 255 220 0
0.139284 0.193890 0.067093 255 220 0
0.157889 0.167707 0.040128 255 220 0
0.123651 0.176369 0.033084 255 220 0
0.138834 0.148374 0.112375 255 220 0
0.181868 0.144551 0.082132 255 220 0
0.148737 0.181221 0.092866 255 220 0
0.179547 0.051833 0.018035 255 220 0
0.142180 0.127753 0.111212 255 220 0
0.173345 0.163643 0.063180 255 220 0
0.131114 0.135360 0.111549 255 220 0
0.144094 0.191133 0.076760 255 220 0
0.132943 0.155084 0.111653 255 220 0
0.195602 0.083842 0.074212 255 220 0
0.087953 0.161991 0.077781 255 220 0
0.091936 0.147364 0.074387 255 220 0
0.131335 0.117716 0.104925 255 220 0
0.139347 0.118622 0.020983 255 220 0
0.132306 0.181769 0.038846 255 220 0
0.170110 0.165521 0.056125 255 220 0
0.172313 0.158618 0.049898 255 220 0
0.179068 0.110638 0.096979 255 220 0
0.199329 0.090434 0.040035 255 220 0
0.189678 0.097676 0.028459 255 220 0
0.184411 0.139098 0.051189 255 220 0
0.122888 0.115138 0.038719 255 220 0
0.113551 0.124097 0.093415 255 220 0
0.117259 0.110438 0.073084 255 220 0
0.172240 0.065660 0.072821 255 220 0
0.110496 0.118938 0.070859 255 220 0
0.132197 0.154727 0.022895 255 220 0
0.187760 0.106183 0.087829 255 220 0
0.195825 0.095066 0.035478 255 220 0
0.112893 0.197389 0.091905 255 220 0
0.118768 0.110078 0.079506 255 220 0
0.141094 0.158423 0.024639 255 220 0
0.181984 0.101112 0.023381 255 220 0
0.187552 0.106084 0.088091 255 220 0
0.135363 0.099093 0.037210 255 220 0
0.149059 0.096025 0.098398 255 220 0
0.195959 0.061594 0.023941 255 220 0
0.095547 0.167697 0.097751 255 220 0
0.164239 0.136209 0.105829 255 220 0
0.123363 0.143065 0.110476 255 220 0
0.157293 0.144490 0.024107 255 220 0
0.129320 0.171548 0.029768 255 220 0
0.201941 0.071320 0.039914 255 220 0
0.188747 0.048760 0.047368 255 220 0
0.193945 0.053361 0.026232 255 220 0
0.174120 0.149815 0.091907 255 220 0
0.160309 0.179405 0.071771 255 220 0
0.088633 0.158433 0.078949 255 220 0
0.162864 0.174937 0.081366 255 220 0
0.194700 0.056568 0.024071 255 220 0
0.101367 0.137960 0.090557 255 220 0
0.116818 0.129072 0.034690 255 220 0
0.191806 0.118409 0.046204 255 220 0
0.171977 0.069309 0.015086 255 220 0
0.148169 0.186473 0.085449 255 220 0
0.119127 0.120547 0.096723 255 220 0
0.191184 0.063432 0.018055 255 220 0
0.172532 0.052035 0.021343 255 220 0
0.180708 0.057818 0.063988 255 220 0
0.167630 0.053255 0.034674 255 220 0
0.156325 0.182408 0.067373 255 220 0
0.202112 0.084839 0.050080 255 220 0
0.188147 0.134696 0.074456 255 220 0
0.179340 0.061953 0.013803 255 220 0
0.175441 0.091627 0.017886 255 220 0
0.088583 0.167328 0.083805 255 220 0
0.143102 0.178001 0.099660 255 220 0
0.181276 0.115672 0.029174 255 220 0
0.192526 0.114121 0.079474 255 220 0
0.124436 0.138769 0.024245 255 220 0
0.138796 0.144645 0.112689 255 220 0
0.140097 0.086998 0.047976 255 220 0
0.173939 0.156409 0.050152 255 220 0
0.131543 0.176802 0.033936 255 220 0
0.107462 0.197953 0.089464 255 220 0
0.197537 0.109695 0.058184 255 220 0
0.101879 0.196801 0.086772 255 220 0
0.091895 0.147510 0.075332 255 220 0
0.185516 0.128818 0.043288 255 220 0
0.108771 0.145423 0.035431 255 220 0
0.114705 0.202563 0.078711 255 220 0
0.189583 0.115483 0.084294 255 220 0
0.153492 0.095295 0.099911 255 220 0
0.130230 0.127862 0.109327 255 220 0
0.104215 0.153586 0.038217 255 220 0
0.165910 0.084604 0.017374 255 220 0
0.105638 0.128146 0.057053 255 220 0
0.152124 0.088200 0.024617 255 220 0
0.177329 0.135334 0.036482 255 220 0
0.103994 0.190896 0.095537 255 220 0
0.094997 0.165295 0.049580 255 220 0
0.150410 0.153166 0.024873 255 220 0
0.116463 0.182437 0.038552 255 220 0
0.134484 0.104220 0.032917 255 220 0
0.136141 0.171355 0.106471 255 220 0
0.173918 0.093257 0.017928 255 220 0
0.156915 0.181759 0.078073 255 220 0
0.180690 0.152433 0.072487 255 220 0
0.162812 0.131756 0.022524 255 220 0
0.134450 0.122955 0.108800 255 220 0
0.141602 0.088748 0.082332 255 220 0
0.164443 0.094767 0.017954 255 220 0
0.101255 0.178990 0.045042 255 220 0
0.167068 0.055367 0.042648 255 220 0
0.178450 0.084618 0.016933 255 220 0
0.154329 0.071308 0.060364 255 220 0
0.137938 0.091978 0.082387 255 220 0
0.150906 0.139581 0.111094 255 220 0
0.124653 0.124027 0.104783 255 220 0
0.134238 0.106310 0.097197 255 220 0
0.109249 0.194151 0.053262 255 220 0
0.179153 0.123556 0.095605 255 220 0
0.134115 0.109516 0.100337 255 220 0
0.192478 0.053030 0.024169 255 220 0
0.110398 0.121224 0.082950 255 220 0
0.179946 0.153955 0.071175 255 220 0
0.181903 0.056970 0.062907 255 220 0
0.096577 0.171275 0.098674 255 220 0
0.118218 0.111974 0.082568 255 220 0
0.197941 0.066070 0.027203 255 220 0
0.187730 0.120000 0.085875 255 220 0
0.097510 0.189088 0.058423 255 220 0
0.096896 0.194394 0.083425 255 220 0
0.127452 0.185352 0.041313 255 220 0
0.127242 0.196707 0.087750 255 220 0
0.201209 0.090104 0.059217 255 220 0
0.109015 0.122761 0.058477 255 220 0
0.136890 0.190567 0.090600 255 220 0
0.157888 0.170791 0.094602 255 220 0
0.191641 0.128228 0.066094 255 220 0
0.186505 0.046151 0.030602 255 220 0
0.108436 0.130144 0.046586 255 220 0
0.196297 0.073172 0.069536 255 220 0
0.143353 0.179383 0.041240 255 220 0
0.123264 0.106160 0.052069 255 220 0
0.171953 0.163619 0.080525 255 220 0
0.188449 0.112473 0.086510 255 220 0
0.155677 0.140713 0.021990 255 220 0
0.113639 0.115170 0.076547 255 220 0
0.140476 0.097975 0.093837 255 220 0
0.176017 0.058111 0.062751 255 220 0
0.172181 0.104756 0.101942 255 220 0
0.140924 0.192774 0.079431 255 220 0
0.182380 0.113497 0.093606 255 220 0
0.188619 0.093611 0.085560 255 220 0
0.159580 0.104497 0.106085 255 220 0
0.161572 0.171488 0.048882 255 220 0
0.182408 0.148680 0.074178 255 220 0
0.166515 0.094380 0.017737 255 220 0
0.183931 0.144592 0.075895 255 220 0
0.102988 0.182358 0.045408 255 220 0
0.137428 0.193441 0.084332 255 220 0
0.135590 0.116799 0.023713 255 220 0
0.118987 0.119858 0.039782 255 220 0
0.088084 0.172225 0.080090 255 220 0
0.190225 0.126798 0.051456 255 220 0
0.193688 0.110872 0.078199 255 220 0
0.091974 0.184595 0.063917 255 220 0
0.149834 0.094997 0.097867 255 220 0
0.092515 0.190532 0.075276 255 220 0
0.140070 0.086023 0.069616 255 220 0
0.187199 0.046358 0.039444 255 220 0
0.141620 0.095202 0.031871 255 220 0
0.154454 0.088492 0.022570 255 220 0
0.171205 0.082648 0.092247 255 220 0
0.180593 0.129163 0.036412 255 220 0
0.146351 0.169672 0.033408 255 220 0
0.168697 0.154197 0.040003 255 220 0
0.138008 0.106789 0.100860 255 220 0
0.118636 0.122392 0.037725 255 220 0
0.137160 0.173392 0.105166 255 220 0
0.197535 0.076847 0.068847 255 220 0
0.093370 0.182756 0.058943 255 220 0
0.096050 0.179867 0.051993 255 220 0
0.087833 0.164673 0.070968 255 220 0
0.184941 0.133219 0.046160 255 220 0
0.117097 0.111404 0.062788 255 220 0
0.155478 0.077185 0.026832 255 220 0
0.194996 0.116821 0.055270 255 220 0
0.191831 0.116902 0.079806 255 220 0
0.121191 0.176774 0.033645 255 220 0
0.175747 0.051369 0.019668 255 220 0
0.138151 0.091557 0.042828 255 220 0
0.159822 0.064482 0.035344 255 220 0
0.170748 0.123601 0.024476 255 220 0
0.173143 0.102039 0.100930 255 220 0
0.135957 0.114487 0.024469 255 220 0
0.100024 0.146943 0.096621 255 220 0
0.143356 0.117249 0.108915 255 220 0
0.146225 0.185521 0.052257 255 220 0
0.091566 0.188577 0.077319 255 220 0
0.166967 0.132017 0.104695 255 220 0
0.095000 0.159641 0.096080 255 220 0
0.099131 0.134788 0.077629 255 220 0
0.183118 0.139707 0.048998 255 220 0
0.128780 0.112601 0.098692 255 220 0
0.132761 0.192062 0.091464 255 220 0
0.162212 0.170194 0.048057 255 220 0
0.109798 0.122375 0.056369 255 220 0
0.195482 0.090680 0.075786 255 220 0
0.119044 0.202087 0.078214 255 220 0
0.150979 0.166207 0.103018 255 220 0
0.185703 0.140136 0.076058 255 220 0
0.118796 0.186085 0.102223 255 220 0
0.135697 0.196108 0.075115 255 220 0
0.122096 0.198848 0.061369 255 220 0
0.094366 0.173041 0.051679 255 220 0
0.191336 0.060598 0.018380 255 220 0
0.132817 0.172067 0.030522 255 220 0
0.190777 0.109923 0.037294 255 220 0
0.136625 0.089331 0.060295 255 220 0
0.177313 0.061377 0.068439 255 220 0
0.137842 0.166227 0.108135 255 220 0
0.154323 0.175674 0.093538 255 220 0
0.113573 0.118995 0.052016 255 220 0
0.097526 0.137178 0.076831 255 220 0
0.116257 0.144216 0.028854 255 220 0
0.150248 0.130795 0.018552 255 220 0
0.088926 0.157000 0.078864 255 220 0
0.196283 0.093941 0.035558 255 220 0
0.129014 0.197563 0.063208 255 220 0
0.126123 0.162361 0.110344 255 220 0
0.194164 0.063896 0.066791 255 220 0
0.185478 0.114518 0.090050 255 220 0
0.168445 0.110905 0.104660 255 220 0
0.184023 0.108448 0.028150 255 220 0
0.134669 0.091236 0.066506 255 220 0
0.150035 0.181422 0.091420 255 220 0
0.089138 0.160824 0.065679 255 220 0
0.173206 0.072704 0.014841 255 220 0
0.181742 0.107022 0.025557 255 220 0
0.156030 0.122275 0.018765 255 220 0
0.157333 0.066884 0.042799 255 220 0
0.187126 0.139443 0.069127 255 220 0
0.184936 0.133609 0.046525 255 220 0
0.120329 0.110304 0.083869 255 220 0
0.131738 0.100658 0.087236 255 220 0
0.157536 0.088879 0.095690 255 220 0
0.100214 0.139341 0.053455 255 220 0
0.143493 0.107833 0.022465 255 220 0
0.190014 0.104611 0.084941 255 220 0
0.136183 0.189499 0.050926 255 220 0
0.140187 0.169708 0.105955 255 220 0
0.179334 0.128886 0.034685 255 220 0
0.096906 0.162616 0.099046 255 220 0
0.134080 0.107951 0.098773 255 220 0
0.168937 0.064501 0.017436 255 220 0
0.089302 0.165074 0.086059 255 220 0
0.201211 0.083882 0.060900 255 220 0
0.110988 0.175559 0.036296 255 220 0
0.090459 0.153760 0.066493 255 220 0
0.102589 0.135238 0.089447 255 220 0
0.135321 0.090878 0.057320 255 220 0
0.167080 0.096914 0.101905 255 220 0
0.105350 0.136578 0.095277 255 220 0
0.177362 0.113134 0.098413 255 220 0
0.156176 0.071649 0.031673 255 220 0
0.088560 0.161331 0.081627 255 220 0
0.111257 0.118511 0.065431 255 220 0
0.157311 0.112418 0.018580 255 220 0
0.186949 0.118609 0.087385 255 220 0
0.138336 0.104051 0.098497 255 220 0
0.124426 0.140588 0.110518 255 220 0
0.096995 0.174764 0.048181 255 220 0
0.137976 0.190446 0.089903 255 220 0
0.134163 0.092754 0.075470 255 220 0
0.197852 0.087933 0.034711 255 220 0
0.168016 0.170955 0.064272 255 220 0
0.172435 0.051708 0.047049 255 220 0
0.091859 0.158392 0.090127 255 220 0
0.159290 0.118138 0.019061 255 220 0
0.199020 0.082567 0.034135 255 220 0
0.149039 0.187467 0.064087 255 220 0
0.163187 0.085615 0.018261 255 220 0
0.102799 0.195606 0.089745 255 220 0
0.166213 0.149422 0.033582 255 220 0
0.180421 0.125123 0.093946 255 220 0
0.129556 0.196933 0.061736 255 220 0
0.183761 0.064353 0.014168 255 220 0
0.199918 0.099344 0.055174 255 220 0
0.188593 0.113403 0.036400 255 220 0
0.120830 0.135769 0.027432 255 220 0
0.125071 0.103156 0.054317 255 220 0
0.099347 0.190536 0.092401 255 220 0
0.122788 0.111072 0.089528 255 220 0
0.194785 0.089028 0.030215 255 220 0
0.128734 0.126345 0.108191 255 220 0
0.177704 0.061179 0.014074 255 220 0
0.200139 0.069360 0.058324 255 220 0
0.161843 0.082114 0.090269 255 220 0
0.136815 0.191935 0.088376 255 220 0
0.122745 0.200362 0.082366 255 220 0
0.162189 0.165595 0.094626 255 220 0
0.182214 0.066482 0.013964 255 220 0
0.126154 0.136165 0.110312 255 220 0
0.095056 0.158573 0.050450 255 220 0
0.184549 0.060226 0.067781 255 220 0
0.150109 0.084313 0.029453 255 220 0
0.187644 0.094443 0.024944 255 220 0
0.187654 0.079960 0.082482 255 220 0
0.161540 0.151916 0.103391 255 220 0
0.196949 0.080228 0.029146 255 220 0
0.159395 0.171769 0.046216 255 220 0
0.121791 0.157242 0.110408 255 220 0
0.108627 0.201924 0.073856 255 220 0
0.157788 0.160027 0.033507 255 220 0
0.147720 0.080427 0.039419 255 220 0
0.178224 0.088310 0.017779 255 220 0
0.093879 0.177900 0.054548 255 220 0
0.171771 0.051716 0.045751 255 220 0
0.146313 0.079283 0.049632 255 220 0
0.167087 0.163848 0.090033 255 220 0
0.175563 0.157325 0.082006 255 220 0
0.195011 0.062939 0.064809 255 220 0
0.119093 0.140261 0.027543 255 220 0
0.133995 0.106435 0.097101 255 220 0
0.158886 0.145214 0.107122 255 220 0
0.154723 0.080225 0.025828 255 220 0
0.186181 0.047612 0.044938 255 220 0
0.117459 0.118477 0.091964 255 220 0
0.175012 0.160193 0.078212 255 220 0
0.146629 0.188111 0.059430 255 220 0
0.104522 0.141587 0.042876 255 220 0
0.188893 0.133060 0.073825 255 220 0
0.168327 0.141006 0.101909 255 220 0
0.178020 0.072729 0.014397 255 220 0
0.124553 0.122642 0.103810 255 220 0
0.150285 0.182385 0.089895 255 220 0
0.165458 0.173229 0.061691 255 220 0
0.157527 0.176783 0.050936 255 220 0
0.174441 0.070933 0.080416 255 220 0
0.195227 0.113027 0.050078 255 220 0
0.155100 0.097309 0.102001 255 220 0
0.163800 0.143362 0.104664 255 220 0
0.138607 0.089500 0.078358 255 220 0
0.199659 0.100633 0.055348 255 220 0
0.099879 0.135194 0.062690 255 220 0
0.164375 0.066504 0.068837 255 220 0
0.140113 0.145078 0.112593 255 220 0
0.129332 0.120960 0.026532 255 220 0
0.193340 0.118244 0.050301 255 220 0
0.196669 0.101783 0.042490 255 220 0
0.095166 0.154226 0.094144 255 220 0
0.148519 0.178929 0.044145 255 220 0
0.122291 0.181314 0.036947 255 220 0
