ply
format ascii 1.0
element vertex 1024
property float x
property float y
property float z
property uchar red
property uchar green
property uchar blue
end_header
0.494735 0.203273 0.325292 255 220 0
0.421407 0.165044 0.284410 255 220 0
0.420246 0.121340 0.218055 255 220 0
0.450700 0.110980 0.285071 255 220 0
0.486373 0.200475 0.263472 255 220 0
0.452475 0.140648 0.307669 255 220 0
0.476692 0.195810 0.255440 255 220 0
0.419200 0.172469 0.276943 255 220 0
0.468859 0.198470 0.257088 255 220 0
0.391039 0.137643 0.239238 255 220 0
0.465490 0.159301 0.322146 255 220 0
0.475460 0.109259 0.255183 255 220 0
0.449598 0.164429 0.313674 255 220 0
0.492671 0.144653 0.314318 255 220 0
0.454216 0.096451 0.261731 255 220 0
0.387794 0.119128 0.251892 255 220 0
0.474771 0.216632 0.290603 255 220 0
0.483464 0.199752 0.326491 255 220 0
0.429480 0.175933 0.292901 255 220 0
0.404227 0.152711 0.254438 255 220 0
0.452927 0.209027 0.294801 255 220 0
0.518045 0.172180 0.304711 255 220 0
0.480192 0.114602 0.255206 255 220 0
0.501035 0.193076 0.327975 255 220 0
0.397807 0.115283 0.218683 255 220 0
0.448050 0.172095 0.238144 255 220 0
0.487767 0.205976 0.323370 255 220 0
0.502116 0.210489 0.314991 255 220 0
0.430271 0.191134 0.277910 255 220 0
0.519267 0.180898 0.306499 255 220 0
0.498589 0.170455 0.328186 255 220 0
0.448916 0.139538 0.305090 255 220 0
0.435538 0.096415 0.261374 255 220 0
0.389987 0.134145 0.232245 255 220 0
0.446979 0.152291 0.228009 255 220 0
0.431928 0.157046 0.297102 255 220 0
0.484971 0.185961 0.251083 255 220 0
0.497324 0.190566 0.329415 255 220 0
0.426119 0.175117 0.248407 255 220 0
0.460966 0.107540 0.282290 255 220 0
0.472030 0.164460 0.236582 255 220 0
0.501080 0.156717 0.255387 255 220 0
0.466648 0.190906 0.323963 255 220 0
0.505640 0.139491 0.287400 255 220 0
0.514182 0.177931 0.318503 255 220 0
0.411111 0.125709 0.271014 255 220 0
0.425809 0.184008 0.280029 255 220 0
0.460025 0.173610 0.322216 255 220 0
0.502386 0.208047 0.318704 255 220 0
0.518014 0.179496 0.289341 255 220 0
0.428191 0.178637 0.289850 255 220 0
0.473395 0.201885 0.322218 255 220 0
0.416449 0.137022 0.278440 255 220 0
0.394267 0.127560 0.257108 255 220 0
0.400678 0.111333 0.257991 255 220 0
0.386189 0.110815 0.249554 255 220 0
0.511141 0.193943 0.321928 255 220 0
0.398737 0.120095 0.219082 255 220 0
0.400453 0.129023 0.262537 255 220 0
0.418654 0.153407 0.232253 255 220 0
0.519042 0.191461 0.302822 255 220 0
0.428106 0.178963 0.289539 255 220 0
0.470111 0.107073 0.250476 255 220 0
0.472838 0.139882 0.233822 255 220 0
0.406761 0.156339 0.256846 255 220 0
0.437321 0.191153 0.258275 255 220 0
0.411474 0.130812 0.220255 255 220 0
0.445057 0.200476 0.298053 255 220 0
0.518556 0.173548 0.295346 255 220 0
0.506457 0.189041 0.326380 255 220 0
0.468985 0.149998 0.232231 255 220 0
0.488764 0.128378 0.253137 255 220 0
0.475404 0.165643 0.327633 255 220 0
0.516844 0.165856 0.295850 255 220 0
0.397480 0.106828 0.253993 255 220 0
0.428107 0.159871 0.233843 255 220 0
0.512185 0.152762 0.290713 255 220 0
0.408827 0.120726 0.267550 255 220 0
0.463500 0.129794 0.304383 255 220 0
0.437438 0.133887 0.221672 255 220 0
0.427384 0.186486 0.264284 255 220 0
0.411349 0.153407 0.272078 255 220 0
0.484661 0.217424 0.295113 255 220 0
0.464326 0.211030 0.276499 255 220 0
0.387912 0.120353 0.251964 255 220 0
0.434441 0.165630 0.300295 255 220 0
0.461856 0.128094 0.302683 255 220 0
0.491215 0.151320 0.320448 255 220 0
0.424540 0.183568 0.276518 255 220 0
0.429048 0.106836 0.222150 255 220 0
0.502671 0.156968 0.257454 255 220 0
0.430251 0.160622 0.295613 255 220 0
0.512550 0.159362 0.276858 255 220 0
0.517089 0.187673 0.314534 255 220 0
0.406061 0.118552 0.217772 255 220 0
0.490371 0.125024 0.259191 255 220 0
0.464114 0.104134 0.276931 255 220 0
0.493857 0.205258 0.274124 255 220 0
0.510666 0.183197 0.271906 255 220 0
0.447615 0.204148 0.272531 255 220 0
0.407506 0.103920 0.257524 255 220 0
0.431520 0.139478 0.292592 255 220 0
0.501941 0.139149 0.299241 255 220 0
0.476316 0.150361 0.320864 255 220 0
0.489091 0.213206 0.284563 255 220 0
0.444474 0.174463 0.240112 255 220 0
0.487631 0.191119 0.330022 255 220 0
0.391061 0.137926 0.241966 255 220 0
0.505371 0.196988 0.275748 255 220 0
0.406157 0.094900 0.246843 255 220 0
0.476479 0.179375 0.244331 255 220 0
0.458531 0.137434 0.308444 255 220 0
0.410098 0.128498 0.270899 255 220 0
0.478246 0.215260 0.285465 255 220 0
0.504369 0.164433 0.322460 255 220 0
0.497956 0.135967 0.300967 255 220 0
0.518382 0.181230 0.310723 255 220 0
0.468681 0.215715 0.298792 255 220 0
0.469598 0.200079 0.321469 255 220 0
0.449095 0.207032 0.292471 255 220 0
0.491508 0.153771 0.322190 255 220 0
0.444961 0.144312 0.304310 255 220 0
0.495200 0.153523 0.249159 255 220 0
0.452708 0.096491 0.247711 255 220 0
0.464887 0.100397 0.255502 255 220 0
0.467820 0.128295 0.303905 255 220 0
0.501992 0.141315 0.302175 255 220 0
0.436711 0.153381 0.300947 255 220 0
0.476586 0.118205 0.246213 255 220 0
0.514539 0.177173 0.317728 255 220 0
0.416446 0.090507 0.235986 255 220 0
0.492300 0.121682 0.274902 255 220 0
0.489400 0.193379 0.258814 255 220 0
0.454040 0.116662 0.228324 255 220 0
0.479426 0.129396 0.241625 255 220 0
0.507972 0.156262 0.311034 255 220 0
0.453892 0.144976 0.310454 255 220 0
0.449184 0.197929 0.259969 255 220 0
0.516898 0.197600 0.309331 255 220 0
0.443296 0.108218 0.280304 255 220 0
0.504713 0.140524 0.271847 255 220 0
0.410753 0.156144 0.241000 255 220 0
0.451256 0.201801 0.305286 255 220 0
0.491594 0.205375 0.272681 255 220 0
0.487099 0.140871 0.244350 255 220 0
0.432181 0.132564 0.220781 255 220 0
0.472675 0.146905 0.318240 255 220 0
0.505650 0.199658 0.278768 255 220 0
0.461704 0.164236 0.234206 255 220 0
0.472638 0.149605 0.319847 255 220 0
0.430576 0.124017 0.219550 255 220 0
0.446918 0.175433 0.312395 255 220 0
0.457224 0.127845 0.301343 255 220 0
0.424526 0.151631 0.288833 255 220 0
0.438537 0.096240 0.261760 255 220 0
0.407108 0.156926 0.256730 255 220 0
0.436406 0.162285 0.233649 255 220 0
0.429367 0.110014 0.275304 255 220 0
0.458869 0.116992 0.292388 255 220 0
0.507891 0.145026 0.276878 255 220 0
0.516244 0.175985 0.314160 255 220 0
0.505114 0.211568 0.307516 255 220 0
0.510826 0.149468 0.286256 255 220 0
0.474999 0.183847 0.329234 255 220 0
0.390711 0.120150 0.221323 255 220 0
0.501816 0.209648 0.316749 255 220 0
0.409162 0.105622 0.219632 255 220 0
0.417939 0.115959 0.217892 255 220 0
0.391768 0.104252 0.249488 255 220 0
0.382625 0.115424 0.225664 255 220 0
0.421343 0.176568 0.278070 255 220 0
0.492794 0.216180 0.298290 255 220 0
0.422464 0.169870 0.284592 255 220 0
0.460240 0.213197 0.289183 255 220 0
0.412183 0.161984 0.268955 255 220 0
0.380381 0.107095 0.236338 255 220 0
0.487211 0.150190 0.320595 255 220 0
0.490328 0.126313 0.257555 255 220 0
0.515618 0.197069 0.313807 255 220 0
0.486767 0.215264 0.288079 255 220 0
0.497593 0.141941 0.255726 255 220 0
0.513023 0.171246 0.317232 255 220 0
0.418994 0.120709 0.217924 255 220 0
0.418060 0.132670 0.220380 255 220 0
0.445876 0.173928 0.311524 255 220 0
0.507916 0.156533 0.266249 255 220 0
0.394698 0.099873 0.247559 255 220 0
0.439447 0.092502 0.249983 255 220 0
0.413356 0.105713 0.262267 255 220 0
0.383752 0.129788 0.236528 255 220 0
0.506809 0.149184 0.304074 255 220 0
0.436949 0.173107 0.302690 255 220 0
0.410016 0.139302 0.224975 255 220 0
0.462050 0.098379 0.260743 255 220 0
0.440878 0.161884 0.306247 255 220 0
0.454819 0.150674 0.228360 255 220 0
0.426122 0.106298 0.270405 255 220 0
0.478397 0.145547 0.236729 255 220 0
0.482809 0.197086 0.258486 255 220 0
0.516885 0.177698 0.313532 255 220 0
0.417290 0.165637 0.246580 255 220 0
0.435357 0.186770 0.253960 255 220 0
0.460407 0.139190 0.227964 255 220 0
0.434727 0.124552 0.220311 255 220 0
0.440847 0.173838 0.306758 255 220 0
0.484660 0.217191 0.303635 255 220 0
0.480833 0.175907 0.330793 255 220 0
0.449517 0.200677 0.263882 255 220 0
0.489445 0.118497 0.271778 255 220 0
0.501853 0.146915 0.259511 255 220 0
0.442507 0.199701 0.268576 255 220 0
0.518882 0.184805 0.294870 255 220 0
0.484404 0.184183 0.249739 255 220 0
0.487692 0.202560 0.325656 255 220 0
0.457808 0.199212 0.258820 255 220 0
0.480650 0.216364 0.289046 255 220 0
0.458735 0.172657 0.238087 255 220 0
0.431443 0.122233 0.284440 255 220 0
0.465966 0.107615 0.282031 255 220 0
0.431277 0.166423 0.237657 255 220 0
0.505984 0.147520 0.303429 255 220 0
0.386294 0.118018 0.250704 255 220 0
0.432748 0.098685 0.228507 255 220 0
0.511635 0.151953 0.283666 255 220 0
0.421558 0.100751 0.262433 255 220 0
0.509476 0.195921 0.322784 255 220 0
0.411395 0.152059 0.235106 255 220 0
0.442519 0.093071 0.251600 255 220 0
0.500654 0.162412 0.254702 255 220 0
0.501954 0.212655 0.309067 255 220 0
0.456229 0.175029 0.239435 255 220 0
0.498539 0.129115 0.276876 255 220 0
0.502350 0.148860 0.259391 255 220 0
0.470953 0.125740 0.301978 255 220 0
0.421040 0.157158 0.234304 255 220 0
0.426602 0.164235 0.291289 255 220 0
0.474162 0.150810 0.320812 255 220 0
0.470500 0.192882 0.252072 255 220 0
0.475521 0.215291 0.307629 255 220 0
0.440904 0.152459 0.227913 255 220 0
0.455600 0.104145 0.277558 255 220 0
0.476121 0.119100 0.294702 255 220 0
0.462157 0.103198 0.275718 255 220 0
0.387987 0.133440 0.234237 255 220 0
0.468409 0.152871 0.320560 255 220 0
0.498025 0.197974 0.269294 255 220 0
0.512935 0.200490 0.291456 255 220 0
0.509938 0.193537 0.323177 255 220 0
0.457481 0.158128 0.317238 255 220 0
0.460255 0.098965 0.266780 255 220 0
0.455842 0.210403 0.296304 255 220 0
0.433417 0.091522 0.246563 255 220 0
0.386912 0.132689 0.234878 255 220 0
0.424818 0.105715 0.269150 255 220 0
0.472909 0.204197 0.320419 255 220 0
0.429565 0.173013 0.243839 255 220 0
0.474237 0.195738 0.325698 255 220 0
0.401480 0.092983 0.233565 255 220 0
0.495586 0.126397 0.283982 255 220 0
0.410086 0.141131 0.226183 255 220 0
0.512389 0.164175 0.273709 255 220 0
0.469898 0.175373 0.240690 255 220 0
0.387476 0.124036 0.251157 255 220 0
0.486952 0.199806 0.263078 255 220 0
0.506484 0.154805 0.264116 255 220 0
0.514084 0.161959 0.280761 255 220 0
0.472934 0.203598 0.320872 255 220 0
0.466834 0.119657 0.235424 255 220 0
0.494030 0.193039 0.261724 255 220 0
0.482738 0.124035 0.298359 255 220 0
0.478819 0.214050 0.282533 255 220 0
0.416176 0.112753 0.218103 255 220 0
0.475111 0.197715 0.256910 255 220 0
0.426803 0.098293 0.226467 255 220 0
0.446048 0.112068 0.284996 255 220 0
0.410061 0.144384 0.228667 255 220 0
0.432826 0.134616 0.291618 255 220 0
0.458730 0.103268 0.242765 255 220 0
0.476659 0.145846 0.235666 255 220 0
0.453475 0.163440 0.316152 255 220 0
0.493351 0.176642 0.250987 255 220 0
0.510765 0.150991 0.279815 255 220 0
0.482230 0.151032 0.238852 255 220 0
0.450725 0.164556 0.314514 255 220 0
0.442258 0.093681 0.242705 255 220 0
0.433709 0.151717 0.227889 255 220 0
0.448313 0.171010 0.313549 255 220 0
0.425424 0.136944 0.221715 255 220 0
0.464919 0.158153 0.232672 255 220 0
0.401570 0.146082 0.258677 255 220 0
0.466703 0.106840 0.246592 255 220 0
0.510267 0.198682 0.320670 255 220 0
0.455776 0.096277 0.259023 255 220 0
0.417093 0.093824 0.249722 255 220 0
0.441009 0.129131 0.294891 255 220 0
0.490334 0.126578 0.295972 255 220 0
0.467103 0.186326 0.246865 255 220 0
0.511050 0.201430 0.288913 255 220 0
0.442624 0.104457 0.229117 255 220 0
0.451691 0.206184 0.272871 255 220 0
0.413687 0.092977 0.246199 255 220 0
0.436501 0.168881 0.302488 255 220 0
0.425376 0.124457 0.281163 255 220 0
0.393799 0.140455 0.247012 255 220 0
0.425194 0.184851 0.266468 255 220 0
0.452946 0.172629 0.238104 255 220 0
0.454220 0.171487 0.318083 255 220 0
0.509471 0.169016 0.266629 255 220 0
0.511730 0.151573 0.288838 255 220 0
0.517831 0.187579 0.312771 255 220 0
0.476778 0.153639 0.235968 255 220 0
0.487959 0.132605 0.249001 255 220 0
0.485633 0.164214 0.328324 255 220 0
0.491817 0.124464 0.262920 255 220 0
0.497188 0.145108 0.311799 255 220 0
0.512527 0.200679 0.316278 255 220 0
0.515630 0.162459 0.297657 255 220 0
0.408459 0.105894 0.259473 255 220 0
0.488846 0.209824 0.319604 255 220 0
0.471216 0.112927 0.288221 255 220 0
0.446840 0.206152 0.288532 255 220 0
0.455035 0.207754 0.301669 255 220 0
0.431861 0.177678 0.246700 255 220 0
0.499876 0.154462 0.254219 255 220 0
0.470497 0.102523 0.265837 255 220 0
0.421655 0.151805 0.230018 255 220 0
0.468919 0.171069 0.238413 255 220 0
0.511632 0.185942 0.275040 255 220 0
0.448890 0.121552 0.293930 255 220 0
0.452800 0.190174 0.250553 255 220 0
0.517272 0.186867 0.314198 255 220 0
0.507632 0.198028 0.279518 255 220 0
0.463318 0.190800 0.250126 255 220 0
0.402818 0.127340 0.220381 255 220 0
0.485188 0.114404 0.267274 255 220 0
0.441883 0.174294 0.307765 255 220 0
0.425322 0.094581 0.254496 255 220 0
0.456483 0.164654 0.318398 255 220 0
0.380136 0.122364 0.241365 255 220 0
0.422248 0.100593 0.262593 255 220 0
0.417031 0.121633 0.273832 255 220 0
0.492075 0.201652 0.268297 255 220 0
0.484841 0.212487 0.315462 255 220 0
0.384746 0.130856 0.236223 255 220 0
0.454715 0.182470 0.244337 255 220 0
0.445311 0.094910 0.259060 255 220 0
0.394676 0.110801 0.254349 255 220 0
0.428783 0.183837 0.256462 255 220 0
0.444642 0.171121 0.237936 255 220 0
0.505691 0.164340 0.321279 255 220 0
0.495900 0.177756 0.253286 255 220 0
0.466662 0.213959 0.283933 255 220 0
0.492402 0.180551 0.252013 255 220 0
0.501117 0.202390 0.276830 255 220 0
0.442921 0.147181 0.303899 255 220 0
0.442018 0.190108 0.303383 255 220 0
0.433499 0.174325 0.298497 255 220 0
0.410132 0.118550 0.267591 255 220 0
0.475362 0.135083 0.310163 255 220 0
0.477257 0.179186 0.244455 255 220 0
0.454857 0.126986 0.226076 255 220 0
0.407765 0.114742 0.264173 255 220 0
0.452408 0.191358 0.313863 255 220 0
0.508026 0.158466 0.313431 255 220 0
0.457842 0.198688 0.314542 255 220 0
0.453007 0.173736 0.238759 255 220 0
0.470961 0.149231 0.319279 255 220 0
0.495300 0.210926 0.317624 255 220 0
0.430052 0.091112 0.244857 255 220 0
0.421974 0.159069 0.235481 255 220 0
0.437280 0.175861 0.302678 255 220 0
0.479069 0.181710 0.246365 255 220 0
0.424185 0.157145 0.288671 255 220 0
0.450112 0.147975 0.226841 255 220 0
0.478755 0.129525 0.240909 255 220 0
0.447429 0.102378 0.274117 255 220 0
0.515481 0.169700 0.281316 255 220 0
0.512856 0.173642 0.318770 255 220 0
0.493265 0.126679 0.262701 255 220 0
0.432683 0.173926 0.297574 255 220 0
0.493729 0.157025 0.247540 255 220 0
0.451840 0.177695 0.241336 255 220 0
0.479717 0.173110 0.330279 255 220 0
0.466660 0.115915 0.291982 255 220 0
0.405689 0.104242 0.256776 255 220 0
0.499123 0.152532 0.253673 255 220 0
0.465334 0.195042 0.321659 255 220 0
0.426301 0.129693 0.219675 255 220 0
0.433589 0.184255 0.295119 255 220 0
0.426000 0.097062 0.259356 255 220 0
0.480325 0.193872 0.328269 255 220 0
0.428409 0.132493 0.220440 255 220 0
0.420564 0.120671 0.275796 255 220 0
0.436957 0.197500 0.274002 255 220 0
0.496458 0.215022 0.305103 255 220 0
0.474129 0.132224 0.235952 255 220 0
0.451211 0.194764 0.255371 255 220 0
0.441750 0.132209 0.222178 255 220 0
0.458796 0.178441 0.241483 255 220 0
0.391232 0.120942 0.221352 255 220 0
0.516350 0.164439 0.292259 255 220 0
0.452974 0.207194 0.274070 255 220 0
0.459498 0.148603 0.314994 255 220 0
0.428211 0.171433 0.292385 255 220 0
0.475592 0.217387 0.298113 255 220 0
0.506791 0.168427 0.262537 255 220 0
0.465334 0.175319 0.325457 255 220 0
0.427874 0.185865 0.261610 255 220 0
0.481397 0.167936 0.241321 255 220 0
0.507345 0.200269 0.281606 255 220 0
0.457755 0.106316 0.280613 255 220 0
0.498133 0.185650 0.329868 255 220 0
0.509043 0.157163 0.268389 255 220 0
0.427892 0.092087 0.249046 255 220 0
0.489141 0.195627 0.328752 255 220 0
0.513797 0.158520 0.283782 255 220 0
0.476267 0.132042 0.307727 255 220 0
0.485768 0.120227 0.289864 255 220 0
0.391111 0.112667 0.253081 255 220 0
0.492331 0.157639 0.324517 255 220 0
0.452121 0.201041 0.263064 255 220 0
0.416475 0.123937 0.274477 255 220 0
0.462962 0.118466 0.294327 255 220 0
0.481248 0.154064 0.323395 255 220 0
0.439511 0.098538 0.232537 255 220 0
0.417981 0.160991 0.239870 255 220 0
0.426066 0.142133 0.223816 255 220 0
0.472665 0.125726 0.302051 255 220 0
0.414962 0.162024 0.244398 255 220 0
0.435991 0.133908 0.221478 255 220 0
0.427611 0.187096 0.279685 255 220 0
0.439799 0.139293 0.223135 255 220 0
0.509317 0.166560 0.319046 255 220 0
0.395446 0.095517 0.239001 255 220 0
0.495447 0.147454 0.315215 255 220 0
0.463625 0.172794 0.238445 255 220 0
0.440854 0.105036 0.227705 255 220 0
0.495054 0.126269 0.268397 255 220 0
0.401356 0.112817 0.259084 255 220 0
0.437779 0.117877 0.221526 255 220 0
0.437882 0.182372 0.301795 255 220 0
0.381561 0.107000 0.241918 255 220 0
0.445402 0.098425 0.237127 255 220 0
0.477023 0.213181 0.280327 255 220 0
0.496651 0.133503 0.260804 255 220 0
0.413914 0.156082 0.275340 255 220 0
0.427870 0.099446 0.263754 255 220 0
0.454961 0.136254 0.306373 255 220 0
0.429213 0.092842 0.251614 255 220 0
0.451345 0.099422 0.240952 255 220 0
0.477291 0.157152 0.236718 255 220 0
0.469415 0.199051 0.321946 255 220 0
0.453038 0.098467 0.267773 255 220 0
0.423886 0.181114 0.279015 255 220 0
0.387408 0.133341 0.244057 255 220 0
0.463473 0.165532 0.322871 255 220 0
0.458607 0.175680 0.239802 255 220 0
0.499628 0.136142 0.298694 255 220 0
0.422922 0.111269 0.272107 255 220 0
0.405896 0.148551 0.235663 255 220 0
0.495230 0.135179 0.303170 255 220 0
0.425272 0.170821 0.244612 255 220 0
0.387704 0.116776 0.251750 255 220 0
0.458959 0.110269 0.235767 255 220 0
0.479894 0.202995 0.263881 255 220 0
0.441762 0.105724 0.277107 255 220 0
0.448347 0.202314 0.300713 255 220 0
0.482197 0.189623 0.252396 255 220 0
0.432432 0.178142 0.296193 255 220 0
0.515599 0.167188 0.283191 255 220 0
0.481329 0.119626 0.293129 255 220 0
0.474121 0.216556 0.290535 255 220 0
0.478614 0.120018 0.247072 255 220 0
0.479583 0.133461 0.240059 255 220 0
0.483491 0.176931 0.331158 255 220 0
0.419951 0.090447 0.235594 255 220 0
0.457356 0.196010 0.315747 255 220 0
0.432663 0.138930 0.222474 255 220 0
0.402090 0.147538 0.238997 255 220 0
0.467266 0.169253 0.237267 255 220 0
0.410193 0.149039 0.271404 255 220 0
0.415319 0.120413 0.217714 255 220 0
0.505284 0.208474 0.290958 255 220 0
0.486420 0.177510 0.331324 255 220 0
0.479697 0.198284 0.258490 255 220 0
0.506957 0.208084 0.292902 255 220 0
0.480024 0.145455 0.237776 255 220 0
0.443192 0.177540 0.308741 255 220 0
0.500037 0.131417 0.285391 255 220 0
0.415341 0.131653 0.220195 255 220 0
0.452228 0.103371 0.236924 255 220 0
0.419201 0.124022 0.218219 255 220 0
0.480397 0.188916 0.251250 255 220 0
0.439889 0.127066 0.293016 255 220 0
0.446635 0.162047 0.232551 255 220 0
0.424173 0.121620 0.278829 255 220 0
0.425268 0.108497 0.220577 255 220 0
0.507060 0.141885 0.287299 255 220 0
0.470000 0.110476 0.246123 255 220 0
0.519089 0.182297 0.295299 255 220 0
0.406201 0.150894 0.263965 255 220 0
0.456963 0.156593 0.230601 255 220 0
0.432880 0.194095 0.276624 255 220 0
0.503600 0.146572 0.262803 255 220 0
0.435140 0.093771 0.255277 255 220 0
0.461668 0.154159 0.318403 255 220 0
0.451393 0.200985 0.306356 255 220 0
0.503660 0.146708 0.306307 255 220 0
0.399737 0.147098 0.250815 255 220 0
0.382084 0.105622 0.240800 255 220 0
0.446183 0.134938 0.301200 255 220 0
0.412806 0.137156 0.274804 255 220 0
0.513150 0.156247 0.296734 255 220 0
0.446379 0.138527 0.303024 255 220 0
0.471101 0.124890 0.236177 255 220 0
0.491770 0.159096 0.325470 255 220 0
0.417717 0.157081 0.235990 255 220 0
0.400487 0.108539 0.256498 255 220 0
0.477496 0.215971 0.306895 255 220 0
0.441855 0.151640 0.304630 255 220 0
0.394431 0.099892 0.247400 255 220 0
0.426674 0.151176 0.291070 255 220 0
0.517666 0.168945 0.299387 255 220 0
0.404750 0.092152 0.234825 255 220 0
0.498505 0.210862 0.287250 255 220 0
0.391470 0.138083 0.239424 255 220 0
0.499363 0.142482 0.258037 255 220 0
0.488844 0.169322 0.329869 255 220 0
0.473958 0.217039 0.299281 255 220 0
0.407982 0.138534 0.269836 255 220 0
0.422015 0.172272 0.249405 255 220 0
0.517707 0.183817 0.289223 255 220 0
0.384274 0.114243 0.224271 255 220 0
0.465009 0.100073 0.265788 255 220 0
0.481894 0.215404 0.286474 255 220 0
0.469395 0.205934 0.317148 255 220 0
0.466846 0.193391 0.252273 255 220 0
0.510521 0.205371 0.294208 255 220 0
0.498761 0.208171 0.320391 255 220 0
0.447748 0.158060 0.230548 255 220 0
0.419153 0.132262 0.279705 255 220 0
0.449437 0.148889 0.309043 255 220 0
0.405717 0.151003 0.262847 255 220 0
0.434200 0.192845 0.265525 255 220 0
0.515230 0.173922 0.279467 255 220 0
0.510120 0.148184 0.290219 255 220 0
0.413920 0.146530 0.276456 255 220 0
0.483633 0.216734 0.291221 255 220 0
0.440574 0.138589 0.299002 255 220 0
0.393093 0.135382 0.253329 255 220 0
0.408632 0.092958 0.228488 255 220 0
0.400928 0.131650 0.263009 255 220 0
0.380777 0.125434 0.235553 255 220 0
0.419473 0.177372 0.265564 255 220 0
0.477231 0.201537 0.261398 255 220 0
0.512212 0.186077 0.321952 255 220 0
0.513771 0.169297 0.275974 255 220 0
0.382317 0.127952 0.236689 255 220 0
0.435177 0.184162 0.297468 255 220 0
0.432928 0.170667 0.298332 255 220 0
0.481585 0.114143 0.258387 255 220 0
0.399464 0.141433 0.258824 255 220 0
0.516824 0.173398 0.311083 255 220 0
0.436700 0.130403 0.221060 255 220 0
0.478571 0.111694 0.256695 255 220 0
0.456036 0.133671 0.226204 255 220 0
0.395021 0.130390 0.224536 255 220 0
0.402451 0.149208 0.256468 255 220 0
0.425525 0.144593 0.288842 255 220 0
0.422675 0.180401 0.276412 255 220 0
0.496599 0.192932 0.329040 255 220 0
0.411267 0.100034 0.222578 255 220 0
0.406524 0.116180 0.264015 255 220 0
0.485114 0.117760 0.285910 255 220 0
0.416233 0.097943 0.224413 255 220 0
0.463908 0.198013 0.319340 255 220 0
0.416334 0.157358 0.278648 255 220 0
0.484126 0.195522 0.328382 255 220 0
0.492181 0.161187 0.246406 255 220 0
0.517489 0.168131 0.297233 255 220 0
0.490689 0.208955 0.320713 255 220 0
0.480306 0.198440 0.258829 255 220 0
0.448877 0.146133 0.307709 255 220 0
0.450144 0.206250 0.274773 255 220 0
0.514705 0.164705 0.281131 255 220 0
0.492638 0.206634 0.323009 255 220 0
0.464735 0.206058 0.267017 255 220 0
0.401369 0.145227 0.259113 255 220 0
0.501942 0.213325 0.303521 255 220 0
0.417084 0.143314 0.225659 255 220 0
0.415639 0.095221 0.226411 255 220 0
0.464068 0.178872 0.324759 255 220 0
0.400411 0.098759 0.223698 255 220 0
0.499347 0.179779 0.329570 255 220 0
0.459372 0.100396 0.270858 255 220 0
0.443400 0.203753 0.283672 255 220 0
0.513663 0.201214 0.294296 255 220 0
0.487521 0.117001 0.267505 255 220 0
0.409222 0.154266 0.240090 255 220 0
0.391934 0.117619 0.254708 255 220 0
0.512945 0.163736 0.275483 255 220 0
0.462023 0.150843 0.230060 255 220 0
0.469879 0.204942 0.265098 255 220 0
0.448347 0.106567 0.231036 255 220 0
0.464744 0.151200 0.230955 255 220 0
0.412128 0.136825 0.274080 255 220 0
0.503951 0.146534 0.305663 255 220 0
0.443778 0.150092 0.226960 255 220 0
0.496543 0.139893 0.307131 255 220 0
0.506958 0.145282 0.272414 255 220 0
0.502530 0.152171 0.258393 255 220 0
0.439963 0.147626 0.301910 255 220 0
0.486319 0.198636 0.327415 255 220 0
0.516363 0.166805 0.304335 255 220 0
0.458491 0.135572 0.227125 255 220 0
0.470987 0.133708 0.233432 255 220 0
0.378813 0.110776 0.236355 255 220 0
0.449979 0.101944 0.273877 255 220 0
0.482980 0.168337 0.329592 255 220 0
0.435240 0.192464 0.290673 255 220 0
0.431617 0.162461 0.234722 255 220 0
0.391739 0.114269 0.253881 255 220 0
0.489351 0.143608 0.245594 255 220 0
0.447048 0.167425 0.235464 255 220 0
0.399073 0.119456 0.259988 255 220 0
0.468785 0.104064 0.253399 255 220 0
0.444060 0.176305 0.309717 255 220 0
0.485611 0.217411 0.295967 255 220 0
0.469085 0.105488 0.251412 255 220 0
0.516720 0.197579 0.298347 255 220 0
0.479394 0.140806 0.237997 255 220 0
0.514018 0.201121 0.313061 255 220 0
0.473322 0.104683 0.270715 255 220 0
0.414994 0.108971 0.218839 255 220 0
0.416311 0.172223 0.262786 255 220 0
0.489380 0.181537 0.331372 255 220 0
0.402908 0.136674 0.225681 255 220 0
0.418570 0.167985 0.248165 255 220 0
0.473556 0.161468 0.325749 255 220 0
0.409986 0.157121 0.267706 255 220 0
0.492573 0.213276 0.313721 255 220 0
0.488457 0.211740 0.281251 255 220 0
0.431370 0.122720 0.284654 255 220 0
0.481662 0.121987 0.249179 255 220 0
0.470772 0.177745 0.242097 255 220 0
0.438134 0.103269 0.272933 255 220 0
0.457181 0.111270 0.233565 255 220 0
0.421621 0.172027 0.282230 255 220 0
0.438231 0.187693 0.253093 255 220 0
0.516502 0.178863 0.314793 255 220 0
0.495056 0.148599 0.249954 255 220 0
0.423796 0.145490 0.225709 255 220 0
0.380956 0.121534 0.229261 255 220 0
0.427130 0.110176 0.274060 255 220 0
0.397571 0.112061 0.256469 255 220 0
0.481050 0.216004 0.287984 255 220 0
0.512367 0.189894 0.279143 255 220 0
0.518488 0.173428 0.303612 255 220 0
0.461380 0.199903 0.259050 255 220 0
0.434579 0.195248 0.282975 255 220 0
0.444635 0.106055 0.229105 255 220 0
0.405396 0.140207 0.266829 255 220 0
0.477823 0.144851 0.236427 255 220 0
0.454211 0.132423 0.225563 255 220 0
0.419477 0.097309 0.225345 255 220 0
0.506616 0.182036 0.265681 255 220 0
0.480048 0.109885 0.275453 255 220 0
0.500410 0.144338 0.307876 255 220 0
0.442923 0.196404 0.299637 255 220 0
0.513072 0.160766 0.277659 255 220 0
0.438409 0.156394 0.229994 255 220 0
0.463405 0.214095 0.296424 255 220 0
0.392207 0.097963 0.242281 255 220 0
0.470069 0.214738 0.284947 255 220 0
0.510332 0.165986 0.268483 255 220 0
0.401531 0.099964 0.251344 255 220 0
0.500425 0.202679 0.276475 255 220 0
0.465792 0.195335 0.253993 255 220 0
0.461348 0.213074 0.285017 255 220 0
0.505687 0.140233 0.290444 255 220 0
0.486124 0.147195 0.241967 255 220 0
0.513171 0.175366 0.274097 255 220 0
0.378081 0.115591 0.235788 255 220 0
0.492109 0.124454 0.288335 255 220 0
0.482773 0.175093 0.244574 255 220 0
0.495720 0.132282 0.298635 255 220 0
0.506648 0.193714 0.274221 255 220 0
0.508622 0.146991 0.295538 255 220 0
0.443265 0.102712 0.230953 255 220 0
0.481260 0.181875 0.330942 255 220 0
0.469897 0.171930 0.327292 255 220 0
0.479476 0.122738 0.298100 255 220 0
0.417472 0.173024 0.270934 255 220 0
0.470330 0.211986 0.277573 255 220 0
0.478182 0.181477 0.245962 255 220 0
0.469356 0.179540 0.242861 255 220 0
0.475384 0.112675 0.250417 255 220 0
0.422050 0.127869 0.219017 255 220 0
0.416585 0.142401 0.225226 255 220 0
0.459523 0.161372 0.232746 255 220 0
0.426479 0.162804 0.291233 255 220 0
0.472414 0.138183 0.312278 255 220 0
0.448785 0.139362 0.304930 255 220 0
0.427462 0.094247 0.254552 255 220 0
0.451604 0.148584 0.310403 255 220 0
0.440976 0.200983 0.275851 255 220 0
0.466778 0.113110 0.240177 255 220 0
0.421074 0.134898 0.221052 255 220 0
0.517910 0.195475 0.307569 255 220 0
0.453630 0.134871 0.304967 255 220 0
0.445857 0.200989 0.267364 255 220 0
0.413885 0.149661 0.231291 255 220 0
0.466886 0.112916 0.240446 255 220 0
0.416789 0.148936 0.279870 255 220 0
0.463090 0.106554 0.280872 255 220 0
0.391000 0.116221 0.220550 255 220 0
0.501069 0.172570 0.327779 255 220 0
0.496398 0.129845 0.265105 255 220 0
0.498772 0.140388 0.305387 255 220 0
0.438758 0.187407 0.252467 255 220 0
0.456525 0.210271 0.279079 255 220 0
0.410124 0.112758 0.217757 255 220 0
0.399612 0.093521 0.233820 255 220 0
0.387217 0.108907 0.223595 255 220 0
0.495848 0.146812 0.251380 255 220 0
0.497577 0.184537 0.258131 255 220 0
0.479969 0.178298 0.330793 255 220 0
0.502351 0.174751 0.258165 255 220 0
0.387725 0.112536 0.222146 255 220 0
0.477439 0.152982 0.322502 255 220 0
0.431487 0.177158 0.295247 255 220 0
0.443549 0.147068 0.225831 255 220 0
0.385964 0.132302 0.241266 255 220 0
0.510818 0.184032 0.272583 255 220 0
0.473411 0.132335 0.307869 255 220 0
0.387064 0.122168 0.223705 255 220 0
0.379772 0.115121 0.243346 255 220 0
0.416907 0.091934 0.244833 255 220 0
0.389998 0.108902 0.251091 255 220 0
0.495618 0.190315 0.260781 255 220 0
0.426477 0.116899 0.219010 255 220 0
0.474868 0.143067 0.234776 255 220 0
0.381295 0.125977 0.234325 255 220 0
0.402785 0.147033 0.237025 255 220 0
0.489316 0.182172 0.331354 255 220 0
0.515510 0.169872 0.281351 255 220 0
0.427466 0.157442 0.232319 255 220 0
0.466146 0.123349 0.233084 255 220 0
0.430777 0.189455 0.284786 255 220 0
0.503543 0.137187 0.290807 255 220 0
0.417882 0.132151 0.278578 255 220 0
0.468359 0.177367 0.241491 255 220 0
0.463336 0.211320 0.277523 255 220 0
0.515684 0.198474 0.312241 255 220 0
0.447854 0.131939 0.223620 255 220 0
0.512154 0.200340 0.317118 255 220 0
0.470701 0.171475 0.327540 255 220 0
0.447125 0.158083 0.230556 255 220 0
0.441388 0.190851 0.302113 255 220 0
0.511447 0.207130 0.302419 255 220 0
0.470273 0.122040 0.236958 255 220 0
0.464371 0.104192 0.276966 255 220 0
0.489136 0.128059 0.299494 255 220 0
0.448090 0.196321 0.306620 255 220 0
0.396632 0.143847 0.246639 255 220 0
0.446348 0.165032 0.311311 255 220 0
0.402556 0.144928 0.261443 255 220 0
0.445012 0.168858 0.236492 255 220 0
0.515322 0.190044 0.317486 255 220 0
0.462928 0.200207 0.317386 255 220 0
0.443940 0.194964 0.258734 255 220 0
0.468393 0.215824 0.292839 255 220 0
0.416683 0.155662 0.279385 255 220 0
0.515498 0.162001 0.290130 255 220 0
0.403651 0.148560 0.238402 255 220 0
0.503399 0.183175 0.262716 255 220 0
0.483676 0.159358 0.240352 255 220 0
0.430184 0.177505 0.247614 255 220 0
0.486177 0.123778 0.295611 255 220 0
0.445258 0.112248 0.284908 255 220 0
0.403354 0.151584 0.247503 255 220 0
0.469064 0.212240 0.309332 255 220 0
0.397317 0.105773 0.253328 255 220 0
0.398000 0.141638 0.234363 255 220 0
0.419196 0.109732 0.268685 255 220 0
0.446864 0.115419 0.288257 255 220 0
0.500740 0.131869 0.279029 255 220 0
0.482490 0.128994 0.304123 255 220 0
0.466735 0.118121 0.294280 255 220 0
0.486044 0.217275 0.302430 255 220 0
0.482590 0.123409 0.249137 255 220 0
0.471144 0.118692 0.294904 255 220 0
0.385243 0.110202 0.224566 255 220 0
0.462218 0.142986 0.313125 255 220 0
0.483551 0.161473 0.240668 255 220 0
0.415707 0.091705 0.243482 255 220 0
0.504190 0.174548 0.326747 255 220 0
0.457087 0.134568 0.306077 255 220 0
0.396596 0.117274 0.219072 255 220 0
0.474102 0.124910 0.238813 255 220 0
0.485145 0.212574 0.315359 255 220 0
0.507408 0.201523 0.321349 255 220 0
0.473830 0.214195 0.282609 255 220 0
0.516261 0.194636 0.292729 255 220 0
0.436643 0.115548 0.221630 255 220 0
0.444451 0.159361 0.308729 255 220 0
0.515811 0.186272 0.284439 255 220 0
0.509073 0.164488 0.266326 255 220 0
0.464873 0.142509 0.229901 255 220 0
0.384929 0.102187 0.232315 255 220 0
0.440061 0.172392 0.306049 255 220 0
0.433009 0.097238 0.229929 255 220 0
0.472116 0.206502 0.267564 255 220 0
0.430930 0.147701 0.294554 255 220 0
0.495724 0.164775 0.249920 255 220 0
0.469882 0.118604 0.238775 255 220 0
0.434525 0.186120 0.253807 255 220 0
0.453940 0.141600 0.308918 255 220 0
0.459716 0.112536 0.288020 255 220 0
0.415521 0.093844 0.249082 255 220 0
0.474468 0.106503 0.258646 255 220 0
0.509292 0.193974 0.277801 255 220 0
0.475097 0.116268 0.246230 255 220 0
0.457157 0.104675 0.239678 255 220 0
0.475743 0.106280 0.271850 255 220 0
0.475340 0.192168 0.252176 255 220 0
0.482797 0.155106 0.239329 255 220 0
0.403222 0.151007 0.245468 255 220 0
0.481699 0.150619 0.238525 255 220 0
0.471723 0.214258 0.307504 255 220 0
0.512963 0.192192 0.282277 255 220 0
0.417872 0.170707 0.275334 255 220 0
0.429767 0.166553 0.294942 255 220 0
0.489554 0.188294 0.330649 255 220 0
0.452668 0.150617 0.228003 255 220 0
0.463265 0.121403 0.231884 255 220 0
0.485700 0.206876 0.322305 255 220 0
0.462137 0.105936 0.280067 255 220 0
0.498173 0.204398 0.323990 255 220 0
0.433669 0.118213 0.283653 255 220 0
0.391861 0.096816 0.233662 255 220 0
0.411104 0.147963 0.272832 255 220 0
0.401505 0.145937 0.258690 255 220 0
0.452887 0.095644 0.258869 255 220 0
0.441465 0.163516 0.233728 255 220 0
0.460390 0.203230 0.263513 255 220 0
0.458543 0.182899 0.244395 255 220 0
0.470328 0.115507 0.291431 255 220 0
0.429775 0.169821 0.294637 255 220 0
0.515945 0.164157 0.288702 255 220 0
0.434998 0.100232 0.228319 255 220 0
0.480943 0.208220 0.319930 255 220 0
0.474192 0.209709 0.315926 255 220 0
0.477786 0.188111 0.329307 255 220 0
0.452032 0.159822 0.231475 255 220 0
0.441571 0.146413 0.302650 255 220 0
0.397666 0.134459 0.259449 255 220 0
0.449845 0.139688 0.224930 255 220 0
0.468078 0.125419 0.233646 255 220 0
0.461699 0.213531 0.287506 255 220 0
0.378511 0.114993 0.239885 255 220 0
0.416621 0.139174 0.278971 255 220 0
0.396610 0.118659 0.258058 255 220 0
0.427536 0.168480 0.240916 255 220 0
0.472098 0.104844 0.257665 255 220 0
0.417021 0.168399 0.275310 255 220 0
0.487585 0.156445 0.324589 255 220 0
0.483828 0.117560 0.287381 255 220 0
0.484774 0.203925 0.266893 255 220 0
0.498348 0.201840 0.325515 255 220 0
0.493233 0.126778 0.262481 255 220 0
0.494592 0.167515 0.328475 255 220 0
0.465309 0.158875 0.321912 255 220 0
0.458075 0.163432 0.233455 255 220 0
0.471143 0.123121 0.299494 255 220 0
0.516862 0.187712 0.288544 255 220 0
0.473975 0.191550 0.251453 255 220 0
0.442711 0.160195 0.307509 255 220 0
0.448802 0.107024 0.230966 255 220 0
0.511352 0.206206 0.298125 255 220 0
0.511601 0.157211 0.275283 255 220 0
0.479221 0.146749 0.237147 255 220 0
0.519325 0.179338 0.304985 255 220 0
0.507439 0.200202 0.281653 255 220 0
0.496923 0.213385 0.291505 255 220 0
0.469374 0.204997 0.317953 255 220 0
0.385523 0.119766 0.223825 255 220 0
0.457900 0.209515 0.275823 255 220 0
0.431243 0.146193 0.225358 255 220 0
0.428244 0.127119 0.284625 255 220 0
0.422093 0.092625 0.248911 255 220 0
0.513720 0.156714 0.289212 255 220 0
0.510899 0.169591 0.269209 255 220 0
0.437764 0.159506 0.303073 255 220 0
0.466011 0.161514 0.323124 255 220 0
0.436641 0.192449 0.293414 255 220 0
0.424861 0.181683 0.258962 255 220 0
0.479030 0.177192 0.330588 255 220 0
0.420479 0.133895 0.220704 255 220 0
0.498433 0.209905 0.285301 255 220 0
0.511348 0.154726 0.301361 255 220 0
0.424725 0.092217 0.232001 255 220 0
0.473468 0.118605 0.242334 255 220 0
0.479945 0.110306 0.262479 255 220 0
0.422455 0.151977 0.229910 255 220 0
0.433905 0.125182 0.287824 255 220 0
0.512378 0.176144 0.272491 255 220 0
0.471496 0.188124 0.327085 255 220 0
0.388109 0.134812 0.239784 255 220 0
0.419270 0.152917 0.231624 255 220 0
0.420371 0.173868 0.253979 255 220 0
0.403459 0.116451 0.262027 255 220 0
0.473714 0.150161 0.234216 255 220 0
0.452556 0.159900 0.231537 255 220 0
0.457294 0.132075 0.304441 255 220 0
0.455239 0.120354 0.294800 255 220 0
0.457625 0.101040 0.272506 255 220 0
0.450024 0.176893 0.314985 255 220 0
0.412276 0.163019 0.267987 255 220 0
0.463890 0.113217 0.237430 255 220 0
0.484944 0.209783 0.276064 255 220 0
0.514603 0.160248 0.286197 255 220 0
0.439809 0.164608 0.234571 255 220 0
0.498995 0.167612 0.327104 255 220 0
0.468955 0.118451 0.294685 255 220 0
0.384271 0.127783 0.245086 255 220 0
0.489685 0.178926 0.331328 255 220 0
0.433952 0.109747 0.222441 255 220 0
0.461557 0.213008 0.298104 255 220 0
0.467789 0.181945 0.326473 255 220 0
0.475027 0.151328 0.321245 255 220 0
0.426798 0.130379 0.285102 255 220 0
0.468751 0.101520 0.264125 255 220 0
0.480676 0.148253 0.319817 255 220 0
0.477833 0.114055 0.252233 255 220 0
0.397902 0.127121 0.260264 255 220 0
0.483837 0.178903 0.331283 255 220 0
0.447317 0.151415 0.308444 255 220 0
0.414119 0.166163 0.253366 255 220 0
0.474255 0.123076 0.240013 255 220 0
0.466834 0.114781 0.290756 255 220 0
0.497369 0.138250 0.304534 255 220 0
0.468174 0.207929 0.314478 255 220 0
0.515352 0.186388 0.283232 255 220 0
0.441603 0.120982 0.290276 255 220 0
0.416218 0.129490 0.219396 255 220 0
0.487543 0.181095 0.249500 255 220 0
0.399046 0.099216 0.249381 255 220 0
0.488856 0.170810 0.330239 255 220 0
0.418398 0.169866 0.251166 255 220 0
0.412518 0.125491 0.218495 255 220 0
0.495367 0.197647 0.266753 255 220 0
0.397582 0.144623 0.249417 255 220 0
0.513771 0.197428 0.316992 255 220 0
0.450293 0.183643 0.245653 255 220 0
0.482502 0.125371 0.247417 255 220 0
0.496988 0.210211 0.284478 255 220 0
0.383700 0.126718 0.229953 255 220 0
0.439293 0.125359 0.221322 255 220 0
0.432488 0.149842 0.227035 255 220 0
0.430794 0.185926 0.289224 255 220 0
0.430963 0.143666 0.293522 255 220 0
0.512087 0.192603 0.321300 255 220 0
0.462408 0.128725 0.303305 255 220 0
0.413092 0.133680 0.221263 255 220 0
0.487104 0.127885 0.300788 255 220 0
0.380787 0.125544 0.236028 255 220 0
0.422595 0.100387 0.223878 255 220 0
0.449782 0.098299 0.267539 255 220 0
0.514986 0.188692 0.283906 255 220 0
0.513901 0.201616 0.295606 255 220 0
0.506360 0.159631 0.262511 255 220 0
0.384693 0.128784 0.231263 255 220 0
0.494626 0.134639 0.303111 255 220 0
0.459310 0.194507 0.317988 255 220 0
0.421837 0.090706 0.241814 255 220 0
0.403474 0.139396 0.264778 255 220 0
0.411583 0.142467 0.226612 255 220 0
0.445989 0.096269 0.240837 255 220 0
0.504199 0.143920 0.266092 255 220 0
0.406963 0.127149 0.219516 255 220 0
0.473203 0.194441 0.253656 255 220 0
0.507547 0.151620 0.305930 255 220 0
0.506535 0.210807 0.307245 255 220 0
0.455860 0.193499 0.253091 255 220 0
0.408232 0.130812 0.269656 255 220 0
0.400966 0.144000 0.234525 255 220 0
0.474582 0.207073 0.318756 255 220 0
0.397977 0.100146 0.249726 255 220 0
0.415058 0.123987 0.273452 255 220 0
0.502424 0.160120 0.256817 255 220 0
0.493322 0.158326 0.247186 255 220 0
0.422726 0.092523 0.230787 255 220 0
0.433508 0.189649 0.290629 255 220 0
0.466709 0.118324 0.294486 255 220 0
0.502397 0.137030 0.269985 255 220 0
0.398741 0.137553 0.259743 255 220 0
0.396691 0.094631 0.235830 255 220 0
0.468257 0.133980 0.308534 255 220 0
0.492199 0.162949 0.246652 255 220 0
0.491920 0.201458 0.267976 255 220 0
0.444014 0.184211 0.308214 255 220 0
0.473447 0.142047 0.234018 255 220 0
0.497035 0.135104 0.259907 255 220 0
0.388439 0.134146 0.235007 255 220 0
0.480856 0.128545 0.304090 255 220 0
0.511869 0.177763 0.271831 255 220 0
0.486690 0.184922 0.251233 255 220 0
0.479727 0.195781 0.256214 255 220 0
0.436882 0.093225 0.253804 255 220 0
0.443518 0.139897 0.223769 255 220 0
0.467457 0.104144 0.275749 255 220 0
0.500015 0.136131 0.264775 255 220 0
0.442319 0.115842 0.286849 255 220 0
0.440211 0.126293 0.221526 255 220 0
0.454339 0.168147 0.317719 255 220 0
0.423916 0.098885 0.261212 255 220 0
0.503924 0.137317 0.289477 255 220 0
0.421818 0.173423 0.281774 255 220 0
0.446759 0.144139 0.225297 255 220 0
0.430789 0.135609 0.221390 255 220 0
0.489693 0.164508 0.328237 255 220 0
0.474729 0.203357 0.263249 255 220 0
0.467248 0.214783 0.286889 255 220 0
