ply
format ascii 1.0
element vertex 1024
property float x
property float y
property float z
property uchar red
property uchar green
property uchar blue
end_header
0.103610 0.195221 0.090244 255 220 0
0.108287 0.108363 0.059523 255 220 0
0.172416 0.069847 0.032722 255 220 0
0.154272 0.098108 0.099040 255 220 0
0.138321 0.176876 0.041684 255 220 0
0.125056 0.121329 0.100168 255 220 0
0.140344 0.165209 0.035376 255 220 0
0.107520 0.109966 0.048912 255 220 0
0.133436 0.161042 0.032915 255 220 0
0.133917 0.060679 0.031543 255 220 0
0.113253 0.145185 0.104464 255 220 0
0.187547 0.111314 0.083953 255 220 0
0.106630 0.134624 0.090494 255 220 0
0.141506 0.155991 0.114449 255 220 0
0.178583 0.088114 0.090249 255 220 0
0.134538 0.048931 0.050909 255 220 0
0.106215 0.182227 0.050184 255 220 0
0.098442 0.184539 0.089967 255 220 0
0.101641 0.122665 0.062197 255 220 0
0.123747 0.082598 0.038483 255 220 0
0.095482 0.161357 0.051541 255 220 0
0.146562 0.190882 0.098608 255 220 0
0.187262 0.118247 0.082282 255 220 0
0.111153 0.194308 0.099894 255 220 0
0.162681 0.048875 0.030272 255 220 0
0.147829 0.125697 0.027335 255 220 0
0.099356 0.191162 0.085245 255 220 0
0.110119 0.203653 0.080283 255 220 0
0.102892 0.130104 0.042210 255 220 0
0.141349 0.197450 0.095389 255 220 0
0.122119 0.178622 0.112202 255 220 0
0.125236 0.117471 0.097794 255 220 0
0.168258 0.073572 0.084689 255 220 0
0.139539 0.056578 0.027826 255 220 0
0.164361 0.111097 0.030440 255 220 0
0.110868 0.113706 0.076859 255 220 0
0.153131 0.164883 0.039950 255 220 0
0.109556 0.190136 0.101378 255 220 0
0.127467 0.112251 0.027323 255 220 0
0.163681 0.103496 0.101759 255 220 0
0.166560 0.139340 0.037273 255 220 0
0.175734 0.160189 0.064450 255 220 0
0.095361 0.165698 0.088259 255 220 0
0.168191 0.158453 0.100262 255 220 0
0.132750 0.193673 0.104904 255 220 0
0.132373 0.074149 0.068574 255 220 0
0.103001 0.122642 0.046624 255 220 0
0.102227 0.149712 0.094844 255 220 0
0.109343 0.202980 0.084616 255 220 0
0.151932 0.192803 0.082569 255 220 0
0.101290 0.122818 0.057938 255 220 0
0.094191 0.177345 0.082595 255 220 0
0.124600 0.086417 0.069407 255 220 0
0.130350 0.059953 0.051992 255 220 0
0.142386 0.055144 0.063706 255 220 0
0.139649 0.042223 0.053365 255 220 0
0.120098 0.201668 0.097599 255 220 0
0.160308 0.052601 0.028114 255 220 0
0.129714 0.066529 0.057115 255 220 0
0.145123 0.090547 0.025041 255 220 0
0.137649 0.203128 0.086487 255 220 0
0.101253 0.122900 0.057489 255 220 0
0.188614 0.105063 0.080037 255 220 0
0.182268 0.124489 0.049320 255 220 0
0.121702 0.087174 0.039004 255 220 0
0.118906 0.132347 0.029028 255 220 0
0.160881 0.069206 0.026555 255 220 0
0.093754 0.150572 0.056672 255 220 0
0.151838 0.190574 0.090740 255 220 0
0.117423 0.195777 0.102491 255 220 0
0.175483 0.127428 0.041254 255 220 0
0.185781 0.132963 0.075299 255 220 0
0.111998 0.157640 0.107921 255 220 0
0.154804 0.184630 0.095009 255 220 0
0.145513 0.049258 0.062265 255 220 0
0.145929 0.102078 0.025286 255 220 0
0.162541 0.172175 0.097148 255 220 0
0.135954 0.068766 0.068077 255 220 0
0.139294 0.122692 0.106921 255 220 0
0.173001 0.091420 0.033279 255 220 0
0.112177 0.122788 0.033498 255 220 0
0.116577 0.091437 0.053742 255 220 0
0.108607 0.191110 0.056030 255 220 0
0.112044 0.168399 0.039499 255 220 0
0.133885 0.049783 0.050303 255 220 0
0.105597 0.121424 0.075168 255 220 0
0.140344 0.120100 0.106105 255 220 0
0.133247 0.159946 0.114989 255 220 0
0.104678 0.120814 0.043801 255 220 0
0.182884 0.068470 0.046620 255 220 0
0.175228 0.161914 0.066357 255 220 0
0.108860 0.114349 0.073202 255 220 0
0.167600 0.174215 0.082799 255 220 0
0.131453 0.201225 0.097134 255 220 0
0.166105 0.057114 0.030057 255 220 0
0.184828 0.133152 0.082337 255 220 0
0.170625 0.102971 0.100445 255 220 0
0.133387 0.187344 0.049327 255 220 0
0.156422 0.186511 0.064908 255 220 0
0.108821 0.150602 0.035593 255 220 0
0.150624 0.055822 0.069492 255 220 0
0.123093 0.101912 0.083230 255 220 0
0.159028 0.157326 0.108555 255 220 0
0.125094 0.147893 0.111622 255 220 0
0.119906 0.190228 0.051529 255 220 0
0.143293 0.124699 0.026497 255 220 0
0.103397 0.183069 0.098780 255 220 0
0.132102 0.061318 0.033498 255 220 0
0.143465 0.191471 0.058546 255 220 0
0.161384 0.047510 0.065975 255 220 0
0.156100 0.153174 0.036060 255 220 0
0.129780 0.124181 0.104311 255 220 0
0.130332 0.075050 0.066614 255 220 0
0.112087 0.183235 0.047979 255 220 0
0.132220 0.178476 0.112836 255 220 0
0.157471 0.152580 0.110563 255 220 0
0.138075 0.197662 0.098212 255 220 0
0.098257 0.178298 0.055304 255 220 0
0.093498 0.173178 0.081962 255 220 0
0.095844 0.156788 0.049785 255 220 0
0.130992 0.161957 0.115027 255 220 0
0.120845 0.117199 0.093358 255 220 0
0.177989 0.152660 0.059780 255 220 0
0.186302 0.084667 0.078964 255 220 0
0.186260 0.097764 0.086227 255 220 0
0.142857 0.125041 0.108629 255 220 0
0.156063 0.159172 0.109608 255 220 0
0.113238 0.115802 0.083269 255 220 0
0.188748 0.116179 0.072263 255 220 0
0.133846 0.193358 0.104837 255 220 0
0.176282 0.051007 0.063000 255 220 0
0.178131 0.135186 0.096922 255 220 0
0.146804 0.174117 0.042973 255 220 0
0.187814 0.094840 0.052912 255 220 0
0.186995 0.124464 0.063172 255 220 0
0.145770 0.174393 0.109668 255 220 0
0.121763 0.125529 0.100266 255 220 0
0.120840 0.145951 0.029860 255 220 0
0.129059 0.206289 0.087424 255 220 0
0.154530 0.089904 0.094821 255 220 0
0.176630 0.155810 0.087393 255 220 0
0.133782 0.087540 0.028002 255 220 0
0.092094 0.157370 0.063270 255 220 0
0.132927 0.185427 0.047502 255 220 0
0.183334 0.137866 0.060944 255 220 0
0.171303 0.086396 0.031849 255 220 0
0.126550 0.142530 0.110522 255 220 0
0.140299 0.193815 0.059444 255 220 0
0.162301 0.130818 0.032631 255 220 0
0.124054 0.144416 0.110221 255 220 0
0.175865 0.079726 0.035292 255 220 0
0.099829 0.139064 0.082498 255 220 0
0.138683 0.116141 0.103895 255 220 0
0.114738 0.103307 0.071440 255 220 0
0.169814 0.075850 0.085938 255 220 0
0.121646 0.087781 0.038680 255 220 0
0.149410 0.109947 0.026123 255 220 0
0.148726 0.079395 0.085982 255 220 0
0.151090 0.109309 0.103602 255 220 0
0.172861 0.161849 0.089627 255 220 0
0.137652 0.193366 0.103238 255 220 0
0.115802 0.205405 0.074746 255 220 0
0.166321 0.168378 0.095188 255 220 0
0.100746 0.168716 0.098711 255 220 0
0.154364 0.046790 0.027535 255 220 0
0.109336 0.203195 0.082035 255 220 0
0.173850 0.051918 0.039715 255 220 0
0.174179 0.064745 0.034995 255 220 0
0.146465 0.042521 0.058624 255 220 0
0.149737 0.038354 0.031275 255 220 0
0.105780 0.114315 0.048065 255 220 0
0.111945 0.197169 0.061501 255 220 0
0.106110 0.112161 0.057225 255 220 0
0.100762 0.168644 0.046910 255 220 0
0.114232 0.096811 0.046697 255 220 0
0.146519 0.033280 0.043614 255 220 0
0.131515 0.156179 0.114606 255 220 0
0.185096 0.133639 0.080329 255 220 0
0.125884 0.205710 0.090820 255 220 0
0.115302 0.190265 0.052418 255 220 0
0.181705 0.148514 0.072108 255 220 0
0.136562 0.188481 0.107387 255 220 0
0.172136 0.068471 0.032624 255 220 0
0.163505 0.075461 0.027468 255 220 0
0.100603 0.137194 0.082383 255 220 0
0.173043 0.167155 0.074890 255 220 0
0.151721 0.041796 0.060451 255 220 0
0.179610 0.072335 0.079217 255 220 0
0.150035 0.062228 0.073801 255 220 0
0.135791 0.049791 0.031838 255 220 0
0.153283 0.168023 0.107977 255 220 0
0.101422 0.128329 0.073487 255 220 0
0.152480 0.074042 0.024970 255 220 0
0.182556 0.095195 0.090616 255 220 0
0.107655 0.125096 0.083722 255 220 0
0.169472 0.116237 0.033856 255 220 0
0.151944 0.073806 0.083384 255 220 0
0.180504 0.132734 0.049930 255 220 0
0.141232 0.171226 0.038743 255 220 0
0.137455 0.194806 0.101963 255 220 0
0.128821 0.099321 0.028784 255 220 0
0.122859 0.127438 0.027623 255 220 0
0.179209 0.113479 0.041655 255 220 0
0.177451 0.083392 0.036755 255 220 0
0.100730 0.132462 0.077323 255 220 0
0.103511 0.192368 0.062746 255 220 0
0.107471 0.168636 0.106079 255 220 0
0.117114 0.148531 0.031418 255 220 0
0.180188 0.130515 0.095505 255 220 0
0.179050 0.155474 0.073421 255 220 0
0.110809 0.143279 0.033609 255 220 0
0.146104 0.197629 0.084075 255 220 0
0.154615 0.163137 0.039760 255 220 0
0.099796 0.189391 0.088929 255 220 0
0.125715 0.153224 0.030694 255 220 0
0.110642 0.186359 0.050803 255 220 0
0.153597 0.134303 0.030007 255 220 0
0.137560 0.089973 0.086696 255 220 0
0.166626 0.107371 0.102936 255 220 0
0.141769 0.109164 0.025414 255 220 0
0.154130 0.166261 0.108188 255 220 0
0.135030 0.046896 0.050196 255 220 0
0.185576 0.067398 0.057209 255 220 0
0.166995 0.170098 0.092005 255 220 0
0.157310 0.065573 0.079075 255 220 0
0.117541 0.201728 0.096665 255 220 0
0.140012 0.084572 0.025949 255 220 0
0.180042 0.075327 0.081016 255 220 0
0.172772 0.163227 0.060568 255 220 0
0.112464 0.203877 0.074430 255 220 0
0.150045 0.134034 0.028991 255 220 0
0.176349 0.144884 0.096002 255 220 0
0.178332 0.157029 0.072364 255 220 0
0.147220 0.125589 0.109480 255 220 0
0.143146 0.095024 0.025175 255 220 0
0.107454 0.113021 0.066774 255 220 0
0.123660 0.146491 0.110716 255 220 0
0.140522 0.158072 0.032676 255 220 0
0.096941 0.184787 0.064316 255 220 0
0.160891 0.106481 0.028545 255 220 0
0.165419 0.096489 0.098505 255 220 0
0.158266 0.124336 0.109094 255 220 0
0.170779 0.100685 0.099484 255 220 0
0.137575 0.054926 0.029197 255 220 0
0.119424 0.143255 0.107717 255 220 0
0.142722 0.185326 0.050912 255 220 0
0.136182 0.202050 0.070845 255 220 0
0.118875 0.200694 0.098453 255 220 0
0.112380 0.137462 0.099063 255 220 0
0.177517 0.095156 0.094439 255 220 0
0.095450 0.164702 0.052749 255 220 0
0.178837 0.066506 0.075418 255 220 0
0.136989 0.053740 0.029814 255 220 0
0.152297 0.072235 0.082375 255 220 0
0.093742 0.178087 0.079755 255 220 0
0.133376 0.112882 0.025965 255 220 0
0.095924 0.174812 0.089012 255 220 0
0.167936 0.040535 0.055473 255 220 0
0.171823 0.142104 0.102197 255 220 0
0.150769 0.075413 0.024884 255 220 0
0.166785 0.176515 0.077588 255 220 0
0.156817 0.145035 0.033648 255 220 0
0.132101 0.051563 0.047465 255 220 0
0.139260 0.176850 0.041924 255 220 0
0.174495 0.164639 0.073816 255 220 0
0.164642 0.177631 0.084776 255 220 0
0.093810 0.177814 0.080452 255 220 0
0.189046 0.107743 0.060332 255 220 0
0.147826 0.177972 0.046729 255 220 0
0.157045 0.133076 0.110999 255 220 0
0.114876 0.182457 0.046564 255 220 0
0.174821 0.061455 0.036478 255 220 0
0.137498 0.165392 0.034982 255 220 0
0.183681 0.062220 0.054167 255 220 0
0.151087 0.095159 0.097043 255 220 0
0.147439 0.077790 0.024951 255 220 0
0.127110 0.099791 0.085607 255 220 0
0.189003 0.092658 0.073005 255 220 0
0.180009 0.131396 0.048445 255 220 0
0.107850 0.137428 0.094071 255 220 0
0.163069 0.165661 0.047546 255 220 0
0.169396 0.168203 0.089328 255 220 0
0.178345 0.139403 0.049546 255 220 0
0.106683 0.135712 0.091390 255 220 0
0.185011 0.074035 0.073722 255 220 0
0.157245 0.100452 0.026904 255 220 0
0.102350 0.137631 0.086296 255 220 0
0.164494 0.083994 0.028165 255 220 0
0.168415 0.129336 0.035812 255 220 0
0.123302 0.077187 0.044766 255 220 0
0.189196 0.101644 0.076200 255 220 0
0.117761 0.203681 0.093689 255 220 0
0.181221 0.088771 0.088698 255 220 0
0.166398 0.055793 0.071916 255 220 0
0.132758 0.103312 0.093574 255 220 0
0.161401 0.140119 0.109867 255 220 0
0.145409 0.150579 0.031409 255 220 0
0.136156 0.200747 0.067811 255 220 0
0.187605 0.078672 0.057209 255 220 0
0.109795 0.155058 0.035857 255 220 0
0.167098 0.052059 0.068707 255 220 0
0.103624 0.125366 0.075602 255 220 0
0.134910 0.086096 0.081179 255 220 0
0.129162 0.065813 0.036739 255 220 0
0.110502 0.120452 0.035492 255 220 0
0.150328 0.129807 0.028393 255 220 0
0.102648 0.143241 0.091207 255 220 0
0.166804 0.176051 0.068541 255 220 0
0.164089 0.170789 0.096244 255 220 0
0.133006 0.201453 0.096035 255 220 0
0.175592 0.136301 0.044288 255 220 0
0.185529 0.134244 0.069474 255 220 0
0.118148 0.164800 0.112171 255 220 0
0.183669 0.134543 0.085947 255 220 0
0.145354 0.159353 0.113527 255 220 0
0.120629 0.205930 0.089804 255 220 0
0.154883 0.181912 0.097988 255 220 0
0.148879 0.058087 0.070148 255 220 0
0.100153 0.193731 0.080457 255 220 0
0.162871 0.115700 0.106196 255 220 0
0.097469 0.153856 0.046600 255 220 0
0.093165 0.163340 0.058170 255 220 0
0.130348 0.117981 0.026180 255 220 0
0.177013 0.157687 0.064486 255 220 0
0.181925 0.105106 0.094599 255 220 0
0.149074 0.091524 0.025076 255 220 0
0.160033 0.141271 0.034053 255 220 0
0.153533 0.189451 0.066047 255 220 0
0.141985 0.104625 0.099371 255 220 0
0.132935 0.142463 0.028012 255 220 0
0.132207 0.200819 0.097383 255 220 0
0.141858 0.194477 0.061511 255 220 0
0.138802 0.150919 0.030315 255 220 0
0.157823 0.060403 0.026165 255 220 0
0.182800 0.123978 0.093140 255 220 0
0.100447 0.133709 0.078137 255 220 0
0.167708 0.063411 0.077513 255 220 0
0.107504 0.140868 0.095972 255 220 0
0.134875 0.043249 0.038763 255 220 0
0.157689 0.066037 0.079485 255 220 0
0.136242 0.076704 0.074746 255 220 0
0.137940 0.182803 0.046365 255 220 0
0.098957 0.191576 0.074608 255 220 0
0.135950 0.051164 0.031278 255 220 0
0.142080 0.138216 0.028126 255 220 0
0.176035 0.079839 0.086530 255 220 0
0.141517 0.049573 0.059488 255 220 0
0.119225 0.120967 0.029354 255 220 0
0.146566 0.122429 0.026760 255 220 0
0.133743 0.179249 0.112352 255 220 0
0.162487 0.168692 0.049414 255 220 0
0.107192 0.173219 0.044244 255 220 0
0.159747 0.167484 0.045850 255 220 0
0.137415 0.191657 0.055108 255 220 0
0.118361 0.117306 0.090833 255 220 0
0.094487 0.142758 0.065813 255 220 0
0.101370 0.125713 0.068576 255 220 0
0.137867 0.068453 0.069713 255 220 0
0.139543 0.136058 0.111754 255 220 0
0.156568 0.153680 0.036483 255 220 0
0.183960 0.101413 0.045547 255 220 0
0.140724 0.063731 0.068561 255 220 0
0.093249 0.153289 0.076152 255 220 0
0.143115 0.176175 0.110284 255 220 0
0.091863 0.162088 0.074060 255 220 0
0.149350 0.130639 0.028287 255 220 0
0.123661 0.142796 0.109519 255 220 0
0.104409 0.199075 0.080134 255 220 0
0.178205 0.063369 0.073376 255 220 0
0.141898 0.097109 0.025265 255 220 0
0.100098 0.130267 0.072009 255 220 0
0.155029 0.156940 0.037041 255 220 0
0.111602 0.106387 0.068088 255 220 0
0.169229 0.110693 0.032877 255 220 0
0.186982 0.123905 0.062355 255 220 0
0.163882 0.088518 0.094529 255 220 0
0.160822 0.183536 0.081208 255 220 0
0.134202 0.190069 0.107168 255 220 0
0.183400 0.136981 0.084932 255 220 0
0.101695 0.124686 0.067857 255 220 0
0.176218 0.153397 0.056124 255 220 0
0.144926 0.132578 0.027701 255 220 0
0.108698 0.165978 0.106952 255 220 0
0.156339 0.114617 0.106112 255 220 0
0.149877 0.054490 0.068216 255 220 0
0.177987 0.155835 0.064945 255 220 0
0.093748 0.166830 0.083758 255 220 0
0.170239 0.079907 0.030953 255 220 0
0.098014 0.131296 0.060355 255 220 0
0.163743 0.066252 0.080052 255 220 0
0.098820 0.178808 0.093787 255 220 0
0.169418 0.083376 0.030554 255 220 0
0.137567 0.079175 0.077813 255 220 0
0.105558 0.138529 0.037475 255 220 0
0.110480 0.200417 0.068463 255 220 0
0.185916 0.121159 0.055679 255 220 0
0.126551 0.144831 0.028680 255 220 0
0.176055 0.093817 0.035847 255 220 0
0.148360 0.138444 0.029366 255 220 0
0.154204 0.047682 0.027256 255 220 0
0.157507 0.182792 0.092898 255 220 0
0.109228 0.156865 0.036575 255 220 0
0.120151 0.132833 0.103308 255 220 0
0.103721 0.118846 0.063993 255 220 0
0.101659 0.184559 0.055792 255 220 0
0.168122 0.172943 0.064951 255 220 0
0.102300 0.155399 0.097887 255 220 0
0.114436 0.122349 0.031923 255 220 0
0.167037 0.149495 0.041622 255 220 0
0.139180 0.195968 0.061771 255 220 0
0.163568 0.099987 0.100246 255 220 0
0.112448 0.187832 0.104748 255 220 0
0.172021 0.168764 0.076506 255 220 0
0.173879 0.062981 0.075447 255 220 0
0.102542 0.186785 0.095668 255 220 0
0.164525 0.175804 0.088981 255 220 0
0.143225 0.134499 0.111855 255 220 0
0.166067 0.131698 0.107456 255 220 0
0.139249 0.047746 0.056437 255 220 0
0.127898 0.165341 0.114863 255 220 0
0.118888 0.150636 0.031320 255 220 0
0.134261 0.077788 0.073779 255 220 0
0.151404 0.113698 0.105426 255 220 0
0.124290 0.154391 0.112878 255 220 0
0.187012 0.073206 0.062328 255 220 0
0.135889 0.095914 0.026432 255 220 0
0.160706 0.088009 0.027026 255 220 0
0.148152 0.126917 0.110030 255 220 0
0.130836 0.094951 0.028487 255 220 0
0.172290 0.090281 0.032707 255 220 0
0.102527 0.125868 0.045118 255 220 0
0.170458 0.096793 0.032012 255 220 0
0.135938 0.183046 0.110397 255 220 0
0.159793 0.038306 0.056522 255 220 0
0.140981 0.160000 0.114341 255 220 0
0.156068 0.138232 0.031595 255 220 0
0.187150 0.077423 0.055287 255 220 0
0.181146 0.139053 0.090075 255 220 0
0.141281 0.056756 0.063901 255 220 0
0.182115 0.081876 0.042350 255 220 0
0.097388 0.134567 0.067802 255 220 0
0.143817 0.035053 0.048315 255 220 0
0.187592 0.078453 0.067612 255 220 0
0.115692 0.180173 0.044842 255 220 0
0.182713 0.143462 0.080554 255 220 0
0.114552 0.095593 0.055473 255 220 0
0.160790 0.069879 0.082630 255 220 0
0.129681 0.120355 0.102366 255 220 0
0.172634 0.064888 0.077377 255 220 0
0.188059 0.084292 0.071690 255 220 0
0.173484 0.138969 0.043020 255 220 0
0.093669 0.172487 0.082863 255 220 0
0.173101 0.089427 0.093439 255 220 0
0.104131 0.119217 0.046938 255 220 0
0.131282 0.056032 0.036678 255 220 0
0.108231 0.147551 0.100915 255 220 0
0.150806 0.136334 0.029581 255 220 0
0.159713 0.153608 0.109182 255 220 0
0.146349 0.074647 0.080968 255 220 0
0.138495 0.078262 0.026809 255 220 0
0.155013 0.150349 0.111939 255 220 0
0.131683 0.108345 0.026588 255 220 0
0.135871 0.047400 0.052109 255 220 0
0.189560 0.095964 0.063689 255 220 0
0.133016 0.173467 0.038730 255 220 0
0.156998 0.086667 0.093330 255 220 0
0.092970 0.154680 0.058619 255 220 0
0.148736 0.165189 0.038099 255 220 0
0.100074 0.126841 0.064326 255 220 0
0.161125 0.182400 0.084117 255 220 0
0.161886 0.128431 0.109059 255 220 0
0.105931 0.181667 0.049990 255 220 0
0.188370 0.118999 0.072474 255 220 0
0.185801 0.126812 0.059700 255 220 0
0.108185 0.171379 0.106534 255 220 0
0.178538 0.053620 0.063727 255 220 0
0.092326 0.160273 0.076374 255 220 0
0.167027 0.090938 0.029680 255 220 0
0.134858 0.075243 0.028879 255 220 0
0.160802 0.138694 0.033729 255 220 0
0.118746 0.087761 0.055372 255 220 0
0.170349 0.065410 0.031586 255 220 0
0.127756 0.200924 0.063755 255 220 0
0.109421 0.174028 0.107166 255 220 0
0.138809 0.169550 0.037182 255 220 0
0.127725 0.202301 0.065954 255 220 0
0.180834 0.134109 0.051253 255 220 0
0.098799 0.136866 0.077421 255 220 0
0.170707 0.148850 0.101700 255 220 0
0.162641 0.072704 0.027129 255 220 0
0.188849 0.086727 0.066586 255 220 0
0.170245 0.070704 0.031030 255 220 0
0.148810 0.163176 0.037103 255 220 0
0.134413 0.100875 0.092979 255 220 0
0.156000 0.117540 0.028315 255 220 0
0.137225 0.083047 0.080643 255 220 0
0.180794 0.066300 0.043387 255 220 0
0.167735 0.160999 0.099228 255 220 0
0.189343 0.106341 0.074710 255 220 0
0.147342 0.196327 0.085889 255 220 0
0.120025 0.084582 0.047437 255 220 0
0.166045 0.121883 0.032837 255 220 0
0.103523 0.133722 0.040276 255 220 0
0.178209 0.157159 0.076655 255 220 0
0.173229 0.070646 0.081365 255 220 0
0.116223 0.138469 0.103405 255 220 0
0.091967 0.157153 0.064599 255 220 0
0.151499 0.164438 0.110213 255 220 0
0.126524 0.075095 0.037593 255 220 0
0.145558 0.034432 0.048382 255 220 0
0.128614 0.111905 0.096623 255 220 0
0.124694 0.083081 0.065486 255 220 0
0.157473 0.176043 0.100097 255 220 0
0.125626 0.114550 0.096051 255 220 0
0.188111 0.114368 0.059155 255 220 0
0.126193 0.165954 0.114613 255 220 0
0.140275 0.092682 0.025578 255 220 0
0.144735 0.053043 0.064084 255 220 0
0.098133 0.186611 0.063923 255 220 0
0.114849 0.119326 0.088564 255 220 0
0.151657 0.041574 0.060241 255 220 0
0.114832 0.105060 0.074038 255 220 0
0.151396 0.187737 0.096222 255 220 0
0.169471 0.042766 0.057848 255 220 0
0.124877 0.196525 0.057609 255 220 0
0.133805 0.061313 0.031560 255 220 0
0.180991 0.150596 0.074090 255 220 0
0.116200 0.170661 0.111378 255 220 0
0.100211 0.183273 0.056429 255 220 0
0.124251 0.079371 0.059494 255 220 0
0.126102 0.107498 0.028543 255 220 0
0.149447 0.195187 0.079938 255 220 0
0.152175 0.038680 0.031338 255 220 0
0.180203 0.099351 0.094394 255 220 0
0.113452 0.186314 0.049714 255 220 0
0.092802 0.175890 0.075243 255 220 0
0.138051 0.155588 0.031505 255 220 0
0.130437 0.203616 0.069516 255 220 0
0.106190 0.200526 0.084820 255 220 0
0.160057 0.115637 0.029346 255 220 0
0.127979 0.085809 0.073854 255 220 0
0.117950 0.124240 0.095689 255 220 0
0.120377 0.084090 0.046373 255 220 0
0.111764 0.132156 0.032784 255 220 0
0.159485 0.185618 0.077312 255 220 0
0.164201 0.167698 0.098778 255 220 0
0.119140 0.089944 0.061758 255 220 0
0.110792 0.189253 0.053121 255 220 0
0.124775 0.109432 0.091259 255 220 0
0.127688 0.063204 0.044299 255 220 0
0.175107 0.045223 0.053596 255 220 0
0.128244 0.068580 0.056123 255 220 0
0.137107 0.044667 0.032710 255 220 0
0.111946 0.111303 0.037413 255 220 0
0.133837 0.170106 0.036883 255 220 0
0.125028 0.197693 0.102386 255 220 0
0.163352 0.181087 0.076823 255 220 0
0.135893 0.047584 0.032597 255 220 0
0.097523 0.132856 0.062674 255 220 0
0.103166 0.123008 0.070362 255 220 0
0.186354 0.119568 0.085396 255 220 0
0.124585 0.072738 0.046920 255 220 0
0.141294 0.191728 0.102494 255 220 0
0.174881 0.088619 0.034574 255 220 0
0.187037 0.115459 0.084622 255 220 0
0.180861 0.106433 0.042186 255 220 0
0.149183 0.056913 0.025430 255 220 0
0.123430 0.079415 0.041535 255 220 0
0.119180 0.099780 0.075726 255 220 0
0.105435 0.117417 0.044986 255 220 0
0.108071 0.190960 0.099539 255 220 0
0.176317 0.050616 0.045761 255 220 0
0.139326 0.063623 0.067271 255 220 0
0.169482 0.129034 0.105614 255 220 0
0.179154 0.053485 0.049775 255 220 0
0.092725 0.167161 0.079874 255 220 0
0.113189 0.098790 0.057992 255 220 0
0.099991 0.182777 0.094018 255 220 0
0.173741 0.154555 0.052446 255 220 0
0.153066 0.186747 0.094969 255 220 0
0.100995 0.194809 0.082331 255 220 0
0.138860 0.170172 0.037528 255 220 0
0.119971 0.121903 0.096064 255 220 0
0.107717 0.154213 0.036850 255 220 0
0.163252 0.179852 0.083680 255 220 0
0.101969 0.195276 0.085976 255 220 0
0.120831 0.164118 0.035110 255 220 0
0.123393 0.076579 0.045532 255 220 0
0.115488 0.203366 0.069761 255 220 0
0.153844 0.082079 0.025229 255 220 0
0.179096 0.051689 0.052696 255 220 0
0.100052 0.156476 0.094972 255 220 0
0.170194 0.041616 0.044267 255 220 0
0.116555 0.185136 0.108194 255 220 0
0.173728 0.096017 0.096527 255 220 0
0.099825 0.148929 0.043229 255 220 0
0.134453 0.203523 0.072835 255 220 0
0.182545 0.127409 0.092506 255 220 0
0.134510 0.085057 0.027931 255 220 0
0.135986 0.051676 0.055118 255 220 0
0.166254 0.176969 0.079365 255 220 0
0.172411 0.122197 0.037119 255 220 0
0.125533 0.167103 0.035721 255 220 0
0.188501 0.084708 0.059120 255 220 0
0.173205 0.124669 0.038381 255 220 0
0.124936 0.082234 0.064922 255 220 0
0.152154 0.164451 0.109897 255 220 0
0.164406 0.107103 0.029969 255 220 0
0.150728 0.154898 0.112696 255 220 0
0.174928 0.160549 0.085768 255 220 0
0.177219 0.159028 0.069766 255 220 0
0.117661 0.114960 0.088203 255 220 0
0.100106 0.186220 0.092126 255 220 0
0.148807 0.186232 0.100890 255 220 0
0.180636 0.109647 0.042516 255 220 0
0.184866 0.119219 0.051997 255 220 0
0.143591 0.034319 0.041092 255 220 0
0.165710 0.090187 0.095314 255 220 0
0.113597 0.165474 0.110057 255 220 0
0.097145 0.136861 0.052729 255 220 0
0.145947 0.106523 0.025492 255 220 0
0.138230 0.049342 0.056325 255 220 0
0.182336 0.141487 0.060992 255 220 0
0.151481 0.121626 0.027630 255 220 0
0.135774 0.059195 0.060183 255 220 0
0.187732 0.102677 0.083626 255 220 0
0.099372 0.136944 0.079122 255 220 0
0.108628 0.191978 0.056966 255 220 0
0.188334 0.103453 0.081368 255 220 0
0.135704 0.204334 0.078898 255 220 0
0.182907 0.130816 0.053884 255 220 0
0.123201 0.206825 0.087490 255 220 0
0.179340 0.109415 0.097945 255 220 0
0.175788 0.058350 0.038858 255 220 0
0.114700 0.105252 0.037291 255 220 0
0.108844 0.178789 0.105758 255 220 0
0.149475 0.067049 0.024988 255 220 0
0.127279 0.102007 0.029039 255 220 0
0.114411 0.153347 0.108310 255 220 0
0.116437 0.091933 0.047868 255 220 0
0.103963 0.197759 0.075010 255 220 0
0.122387 0.188297 0.049621 255 220 0
0.137118 0.090249 0.086564 255 220 0
0.187715 0.122908 0.073850 255 220 0
0.155140 0.147392 0.033637 255 220 0
0.158859 0.081671 0.090468 255 220 0
0.189353 0.094838 0.060914 255 220 0
0.105892 0.112439 0.053936 255 220 0
0.124507 0.130084 0.027245 255 220 0
0.135822 0.195429 0.102168 255 220 0
0.180136 0.149671 0.063148 255 220 0
0.156410 0.088614 0.025939 255 220 0
0.143217 0.041387 0.030113 255 220 0
0.148134 0.077558 0.084293 255 220 0
0.141160 0.052934 0.061235 255 220 0
0.111719 0.186274 0.050301 255 220 0
0.149254 0.193110 0.067183 255 220 0
0.146798 0.191807 0.097176 255 220 0
0.127213 0.156449 0.031493 255 220 0
0.099954 0.136786 0.045012 255 220 0
0.187868 0.081203 0.056864 255 220 0
0.123709 0.077897 0.055487 255 220 0
0.180749 0.131814 0.049929 255 220 0
0.180910 0.104152 0.041881 255 220 0
0.180768 0.055762 0.051777 255 220 0
0.158588 0.181642 0.059607 255 220 0
0.177371 0.118580 0.100564 255 220 0
0.150006 0.160731 0.111848 255 220 0
0.093822 0.146692 0.059601 255 220 0
0.166630 0.175609 0.082769 255 220 0
0.156033 0.107297 0.027211 255 220 0
0.097618 0.172834 0.052895 255 220 0
0.154601 0.037832 0.056749 255 220 0
0.108068 0.176500 0.045553 255 220 0
0.167826 0.175170 0.071937 255 220 0
0.153215 0.047764 0.065264 255 220 0
0.137082 0.191240 0.054473 255 220 0
0.135328 0.156242 0.031432 255 220 0
0.104010 0.168743 0.044075 255 220 0
0.165942 0.159443 0.102206 255 220 0
0.180755 0.140584 0.055237 255 220 0
0.160816 0.184024 0.071758 255 220 0
0.140868 0.036602 0.037714 255 220 0
0.168259 0.138939 0.105676 255 220 0
0.161872 0.155469 0.040465 255 220 0
0.159669 0.148213 0.110218 255 220 0
0.146930 0.190208 0.059586 255 220 0
0.160751 0.166683 0.103140 255 220 0
0.187804 0.078404 0.059801 255 220 0
0.104328 0.172638 0.102927 255 220 0
0.105625 0.157163 0.102525 255 220 0
0.156074 0.129715 0.110607 255 220 0
0.109920 0.107979 0.043462 255 220 0
0.114254 0.173809 0.041491 255 220 0
0.154903 0.156045 0.036610 255 220 0
0.152881 0.147518 0.032806 255 220 0
0.188542 0.112560 0.078309 255 220 0
0.169245 0.075392 0.030272 255 220 0
0.154331 0.081063 0.025270 255 220 0
0.163542 0.127139 0.032509 255 220 0
0.108208 0.112042 0.067507 255 220 0
0.134868 0.136018 0.110791 255 220 0
0.125358 0.117236 0.097733 255 220 0
0.169068 0.064873 0.078353 255 220 0
0.118511 0.125955 0.097529 255 220 0
0.104776 0.144073 0.038069 255 220 0
0.189713 0.104480 0.067705 255 220 0
0.163568 0.079267 0.027579 255 220 0
0.131884 0.205485 0.087556 255 220 0
0.130553 0.118249 0.101687 255 220 0
0.112737 0.146461 0.032893 255 220 0
0.145081 0.084407 0.025070 255 220 0
0.189716 0.104488 0.068053 255 220 0
0.117343 0.094197 0.063846 255 220 0
0.166295 0.104306 0.101826 255 220 0
0.157169 0.044486 0.029250 255 220 0
0.122604 0.181768 0.111391 255 220 0
0.181952 0.141737 0.085882 255 220 0
0.152785 0.156640 0.111701 255 220 0
0.125346 0.130215 0.027074 255 220 0
0.106469 0.162319 0.039707 255 220 0
0.171608 0.056716 0.034489 255 220 0
0.166426 0.039459 0.054835 255 220 0
0.157197 0.037586 0.034680 255 220 0
0.180696 0.149426 0.065490 255 220 0
0.156725 0.174932 0.049786 255 220 0
0.105662 0.169428 0.104476 255 220 0
0.164802 0.172652 0.056722 255 220 0
0.156371 0.039959 0.031644 255 220 0
0.123279 0.150634 0.111720 255 220 0
0.100662 0.125353 0.063885 255 220 0
0.166637 0.104892 0.030747 255 220 0
0.132750 0.053819 0.034701 255 220 0
0.155633 0.187250 0.065001 255 220 0
0.141361 0.132491 0.110987 255 220 0
0.149728 0.045591 0.027194 255 220 0
0.137450 0.038866 0.044300 255 220 0
0.170332 0.053690 0.069158 255 220 0
0.141916 0.044255 0.056720 255 220 0
0.150805 0.177382 0.047998 255 220 0
0.177805 0.072114 0.037751 255 220 0
0.181074 0.128164 0.048826 255 220 0
0.137854 0.045198 0.031600 255 220 0
0.136738 0.075149 0.027840 255 220 0
0.108468 0.179125 0.105365 255 220 0
0.160722 0.183669 0.081146 255 220 0
0.147840 0.099846 0.025305 255 220 0
0.188055 0.109082 0.056233 255 220 0
0.099890 0.130599 0.048619 255 220 0
0.166187 0.155981 0.103607 255 220 0
0.128012 0.084572 0.072685 255 220 0
0.154355 0.145193 0.032698 255 220 0
0.110697 0.167978 0.039844 255 220 0
0.126107 0.206362 0.088832 255 220 0
0.178773 0.098615 0.038849 255 220 0
0.120090 0.205571 0.090539 255 220 0
0.106179 0.157547 0.103203 255 220 0
0.159687 0.115169 0.029162 255 220 0
0.094499 0.142515 0.064231 255 220 0
0.124957 0.206758 0.075125 255 220 0
0.188737 0.112114 0.061142 255 220 0
0.170717 0.103212 0.100512 255 220 0
0.157748 0.140675 0.111408 255 220 0
0.092509 0.151789 0.066513 255 220 0
0.129121 0.070018 0.035329 255 220 0
0.105907 0.132087 0.087402 255 220 0
0.122800 0.077699 0.047839 255 220 0
0.148909 0.121094 0.027033 255 220 0
0.127337 0.201792 0.097567 255 220 0
0.092159 0.167422 0.076841 255 220 0
0.120267 0.139876 0.029099 255 220 0
0.101683 0.177163 0.050560 255 220 0
0.113870 0.098146 0.059624 255 220 0
0.159675 0.180292 0.092394 255 220 0
0.135541 0.076980 0.028283 255 220 0
0.157958 0.179361 0.055755 255 220 0
0.173652 0.145857 0.046390 255 220 0
0.128934 0.116727 0.026509 255 220 0
0.160817 0.135130 0.109997 255 220 0
0.150594 0.094643 0.096649 255 220 0
0.128126 0.080094 0.033515 255 220 0
0.093928 0.178203 0.065530 255 220 0
0.146411 0.048377 0.062304 255 220 0
0.138640 0.067710 0.027486 255 220 0
0.147187 0.070261 0.078138 255 220 0
0.147700 0.098375 0.097893 255 220 0
0.174755 0.148625 0.096727 255 220 0
0.150635 0.136863 0.112567 255 220 0
0.153756 0.116401 0.106658 255 220 0
0.104986 0.193293 0.062161 255 220 0
0.187482 0.124489 0.073274 255 220 0
0.155553 0.120266 0.108068 255 220 0
0.154771 0.037009 0.034135 255 220 0
0.125933 0.131198 0.105824 255 220 0
0.172220 0.147105 0.045398 255 220 0
0.170609 0.052399 0.067903 255 220 0
0.123910 0.185224 0.110357 255 220 0
0.131995 0.120922 0.103699 255 220 0
0.160660 0.049218 0.029099 255 220 0
0.188182 0.117137 0.062033 255 220 0
0.099145 0.191848 0.074564 255 220 0
0.114160 0.203315 0.091789 255 220 0
0.111928 0.178695 0.045123 255 220 0
0.140512 0.201256 0.076096 255 220 0
0.182693 0.079589 0.043430 255 220 0
0.109546 0.126728 0.088086 255 220 0
0.149953 0.194434 0.074309 255 220 0
0.169263 0.172925 0.070763 255 220 0
0.178718 0.119284 0.042537 255 220 0
0.154265 0.033141 0.044583 255 220 0
0.101518 0.130854 0.077373 255 220 0
0.185650 0.066949 0.059204 255 220 0
0.124425 0.170194 0.037376 255 220 0
0.117020 0.106803 0.079911 255 220 0
0.171611 0.160069 0.054131 255 220 0
0.189296 0.110010 0.064385 255 220 0
0.122841 0.126371 0.027638 255 220 0
0.124594 0.123251 0.101009 255 220 0
0.156705 0.106524 0.102997 255 220 0
0.165890 0.054483 0.070964 255 220 0
0.186384 0.109430 0.087912 255 220 0
0.146087 0.193003 0.062957 255 220 0
0.188965 0.113845 0.072953 255 220 0
0.189229 0.091794 0.069374 255 220 0
0.179134 0.112451 0.098603 255 220 0
0.143589 0.161400 0.034536 255 220 0
0.176127 0.142411 0.047763 255 220 0
0.129617 0.079304 0.032232 255 220 0
0.178473 0.138686 0.049377 255 220 0
0.095439 0.181194 0.063727 255 220 0
0.146402 0.195491 0.068470 255 220 0
0.108727 0.107596 0.048291 255 220 0
0.105726 0.117489 0.069180 255 220 0
0.105658 0.182935 0.101413 255 220 0
0.168505 0.114478 0.033001 255 220 0
0.188235 0.105465 0.055592 255 220 0
0.098344 0.189936 0.083324 255 220 0
0.166590 0.103057 0.101284 255 220 0
0.105732 0.198356 0.089575 255 220 0
0.141518 0.089110 0.089002 255 220 0
0.160321 0.035447 0.050641 255 220 0
0.118979 0.088043 0.057345 255 220 0
0.123337 0.077049 0.044840 255 220 0
0.180031 0.086121 0.088118 255 220 0
0.151544 0.114630 0.026922 255 220 0
0.122081 0.158450 0.032772 255 220 0
0.143972 0.141451 0.029014 255 220 0
0.158977 0.117117 0.106960 255 220 0
0.104115 0.119443 0.067091 255 220 0
0.159614 0.181721 0.090194 255 220 0
0.186111 0.070054 0.056824 255 220 0
0.096367 0.186685 0.079375 255 220 0
0.094183 0.181710 0.073518 255 220 0
0.099926 0.173492 0.097138 255 220 0
0.160940 0.120182 0.030279 255 220 0
0.118786 0.115585 0.089920 255 220 0
0.127032 0.067187 0.050851 255 220 0
0.174821 0.105108 0.036028 255 220 0
0.187661 0.111935 0.056041 255 220 0
0.102431 0.169703 0.045839 255 220 0
0.138929 0.037243 0.041341 255 220 0
0.123184 0.087953 0.068645 255 220 0
0.136003 0.056483 0.058444 255 220 0
0.136521 0.108061 0.025703 255 220 0
0.186560 0.106421 0.087422 255 220 0
0.109534 0.105522 0.049341 255 220 0
0.125828 0.160948 0.114248 255 220 0
0.167963 0.128158 0.106499 255 220 0
0.133418 0.178309 0.041916 255 220 0
0.106307 0.197180 0.092255 255 220 0
0.183462 0.136982 0.084697 255 220 0
0.121302 0.173778 0.112958 255 220 0
0.113529 0.144747 0.104474 255 220 0
0.161152 0.127393 0.031476 255 220 0
0.150295 0.123727 0.109101 255 220 0
0.147237 0.196801 0.076963 255 220 0
0.143601 0.159847 0.033941 255 220 0
0.108849 0.125691 0.086177 255 220 0
0.188550 0.085328 0.058936 255 220 0
0.128045 0.205414 0.072305 255 220 0
0.169216 0.171907 0.082533 255 220 0
0.180052 0.134175 0.049804 255 220 0
0.143170 0.196293 0.095121 255 220 0
0.139241 0.196007 0.061872 255 220 0
0.119982 0.197542 0.059016 255 220 0
0.092814 0.175433 0.076391 255 220 0
0.150108 0.042949 0.028213 255 220 0
0.109660 0.162387 0.038011 255 220 0
0.160449 0.094751 0.027383 255 220 0
0.132941 0.090513 0.083157 255 220 0
0.170384 0.058798 0.073390 255 220 0
0.162149 0.175534 0.094181 255 220 0
0.165713 0.177932 0.070612 255 220 0
0.109151 0.120710 0.081735 255 220 0
0.111728 0.147103 0.104112 255 220 0
0.096265 0.138387 0.055253 255 220 0
0.116662 0.117025 0.031394 255 220 0
0.105868 0.167992 0.104679 255 220 0
0.163999 0.078136 0.027710 255 220 0
0.126560 0.195565 0.056626 255 220 0
0.154456 0.174479 0.104023 255 220 0
0.182464 0.057807 0.061302 255 220 0
0.189143 0.113372 0.068154 255 220 0
0.185034 0.116626 0.090270 255 220 0
0.149497 0.092231 0.025122 255 220 0
0.135251 0.094237 0.088337 255 220 0
0.160923 0.183622 0.069850 255 220 0
0.097723 0.168264 0.093628 255 220 0
0.133487 0.056771 0.032740 255 220 0
0.146127 0.090621 0.025008 255 220 0
0.121488 0.107953 0.030705 255 220 0
0.138662 0.061089 0.064710 255 220 0
0.176852 0.131515 0.044039 255 220 0
0.161155 0.120646 0.030431 255 220 0
0.134490 0.119290 0.103909 255 220 0
0.145704 0.108951 0.102526 255 220 0
0.171374 0.095329 0.096939 255 220 0
0.099192 0.142787 0.084553 255 220 0
0.114307 0.097357 0.045388 255 220 0
0.189703 0.101857 0.064701 255 220 0
0.124660 0.183529 0.045726 255 220 0
0.162547 0.177881 0.090095 255 220 0
0.149488 0.114152 0.026484 255 220 0
0.124580 0.177021 0.113095 255 220 0
0.154582 0.118388 0.107413 255 220 0
0.131943 0.050374 0.039737 255 220 0
0.110484 0.177422 0.107293 255 220 0
0.183874 0.074094 0.046585 255 220 0
0.096142 0.171015 0.054285 255 220 0
0.099410 0.161517 0.095608 255 220 0
0.123598 0.147549 0.111002 255 220 0
0.130033 0.091463 0.081264 255 220 0
0.182540 0.102859 0.093350 255 220 0
0.129365 0.149808 0.113248 255 220 0
0.188053 0.115597 0.079625 255 220 0
0.130714 0.063018 0.055713 255 220 0
0.107216 0.172874 0.105610 255 220 0
0.115725 0.124044 0.093190 255 220 0
0.122579 0.098303 0.032829 255 220 0
0.188544 0.116332 0.064045 255 220 0
0.157815 0.113857 0.105858 255 220 0
0.153693 0.154107 0.111857 255 220 0
0.092648 0.175725 0.071701 255 220 0
0.150369 0.193950 0.073180 255 220 0
0.140418 0.098033 0.094801 255 220 0
0.164820 0.071930 0.027989 255 220 0
0.158239 0.163641 0.042219 255 220 0
0.153425 0.045059 0.063466 255 220 0
0.115159 0.171641 0.110822 255 220 0
0.124305 0.103517 0.030242 255 220 0
0.165485 0.066473 0.028511 255 220 0
0.142958 0.182650 0.048379 255 220 0
0.127528 0.071684 0.037306 255 220 0
0.122689 0.205022 0.092554 255 220 0
0.138124 0.135726 0.027221 255 220 0
0.187404 0.125338 0.070806 255 220 0
0.126077 0.194498 0.055406 255 220 0
0.141485 0.046794 0.028485 255 220 0
0.178969 0.087587 0.038376 255 220 0
0.158113 0.098221 0.026961 255 220 0
0.099125 0.129185 0.054057 255 220 0
0.119898 0.104194 0.081413 255 220 0
0.121757 0.201478 0.098143 255 220 0
0.139927 0.121015 0.106384 255 220 0
0.159596 0.072378 0.026166 255 220 0
0.155901 0.139209 0.111930 255 220 0
0.136761 0.044819 0.033018 255 220 0
0.181733 0.059816 0.049783 255 220 0
0.171495 0.086765 0.092429 255 220 0
0.148478 0.195187 0.072290 255 220 0
0.133562 0.204168 0.073687 255 220 0
0.172746 0.167230 0.069801 255 220 0
0.140104 0.049041 0.028606 255 220 0
0.155006 0.149542 0.112027 255 220 0
0.092888 0.161235 0.079513 255 220 0
0.175649 0.056261 0.068922 255 220 0
0.124326 0.075576 0.053817 255 220 0
0.150616 0.077458 0.024883 255 220 0
0.186839 0.078199 0.071869 255 220 0
0.177995 0.156542 0.080872 255 220 0
0.160803 0.063353 0.026782 255 220 0
0.140219 0.161378 0.033783 255 220 0
0.151219 0.170388 0.108238 255 220 0
0.117192 0.205995 0.075373 255 220 0
0.131276 0.147282 0.028955 255 220 0
0.128762 0.074816 0.063810 255 220 0
0.138915 0.071476 0.027112 255 220 0
0.094123 0.180866 0.077312 255 220 0
0.152096 0.044857 0.062902 255 220 0
0.134061 0.076553 0.072555 255 220 0
0.173741 0.163545 0.064006 255 220 0
0.175487 0.153818 0.054996 255 220 0
0.181909 0.056247 0.059622 255 220 0
0.097745 0.133793 0.053800 255 220 0
0.153504 0.116539 0.106694 255 220 0
0.178390 0.151575 0.087279 255 220 0
0.125753 0.069958 0.049627 255 220 0
0.162929 0.038207 0.054928 255 220 0
0.137131 0.129615 0.109103 255 220 0
0.172629 0.155686 0.051641 255 220 0
0.138156 0.182512 0.046182 255 220 0
0.095907 0.141494 0.073460 255 220 0
0.181297 0.126316 0.048415 255 220 0
0.182598 0.144591 0.079061 255 220 0
0.136970 0.055834 0.029520 255 220 0
0.149979 0.135317 0.112333 255 220 0
0.160146 0.184109 0.068277 255 220 0
0.154583 0.165604 0.041145 255 220 0
0.141602 0.167669 0.036852 255 220 0
0.175418 0.071419 0.081031 255 220 0
0.171839 0.100146 0.033215 255 220 0
0.173235 0.105371 0.100476 255 220 0
0.180733 0.148326 0.083087 255 220 0
0.145760 0.094883 0.095274 255 220 0
0.178848 0.088903 0.038264 255 220 0
0.104781 0.141232 0.092856 255 220 0
0.160421 0.066057 0.079861 255 220 0
0.167146 0.156136 0.102613 255 220 0
0.105513 0.113370 0.052847 255 220 0
0.170396 0.105499 0.032909 255 220 0
0.168464 0.087279 0.030195 255 220 0
0.120336 0.168108 0.113090 255 220 0
0.130283 0.169586 0.036569 255 220 0
0.105257 0.174662 0.046227 255 220 0
