ply
format ascii 1.0
element vertex 1024
property float x
property float y
property float z
property uchar red
property uchar green
property uchar blue
end_header
0.102346 0.201520 0.073692 255 220 0
0.132332 0.126286 0.029528 255 220 0
0.197519 0.083646 0.045242 255 220 0
0.135297 0.097161 0.083604 255 220 0
0.162380 0.189482 0.061429 255 220 0
0.113410 0.124773 0.071253 255 220 0
0.168952 0.179648 0.055095 255 220 0
0.139482 0.130660 0.022782 255 220 0
0.166254 0.177742 0.047334 255 220 0
0.172621 0.083119 0.014462 255 220 0
0.101036 0.148634 0.073361 255 220 0
0.168317 0.106712 0.101706 255 220 0
0.107262 0.143558 0.056447 255 220 0
0.112440 0.150552 0.103041 255 220 0
0.158777 0.085003 0.091914 255 220 0
0.159486 0.066953 0.023382 255 220 0
0.134037 0.198912 0.045957 255 220 0
0.099564 0.192545 0.066440 255 220 0
0.125135 0.140478 0.031156 255 220 0
0.159525 0.104142 0.018768 255 220 0
0.126783 0.181023 0.032541 255 220 0
0.125706 0.186541 0.107805 255 220 0
0.168996 0.113750 0.102681 255 220 0
0.100479 0.196662 0.084818 255 220 0
0.193731 0.066427 0.030084 255 220 0
0.181906 0.142821 0.042532 255 220 0
0.103305 0.199823 0.066225 255 220 0
0.113632 0.210703 0.074677 255 220 0
0.140215 0.152347 0.021770 255 220 0
0.124177 0.194632 0.104215 255 220 0
0.099743 0.176466 0.095274 255 220 0
0.115461 0.121695 0.068633 255 220 0
0.156537 0.074774 0.076443 255 220 0
0.179371 0.079044 0.014739 255 220 0
0.191630 0.124862 0.051423 255 220 0
0.121158 0.126395 0.044049 255 220 0
0.174335 0.175571 0.066882 255 220 0
0.098517 0.192666 0.083290 255 220 0
0.168723 0.134259 0.023869 255 220 0
0.139448 0.099645 0.093682 255 220 0
0.186719 0.149372 0.066400 255 220 0
0.172066 0.160289 0.096791 255 220 0
0.099659 0.175797 0.057119 255 220 0
0.140855 0.151060 0.113615 255 220 0
0.111559 0.190388 0.102978 255 220 0
0.143842 0.086732 0.041178 255 220 0
0.137439 0.144147 0.022239 255 220 0
0.100327 0.157609 0.060969 255 220 0
0.109972 0.209121 0.076660 255 220 0
0.140983 0.191350 0.102039 255 220 0
0.128000 0.141779 0.028261 255 220 0
0.102416 0.188488 0.056461 255 220 0
0.137323 0.099700 0.040191 255 220 0
0.155289 0.077949 0.024675 255 220 0
0.155170 0.067968 0.039012 255 220 0
0.161510 0.058945 0.026372 255 220 0
0.107878 0.202384 0.092028 255 220 0
0.193505 0.070983 0.028248 255 220 0
0.150784 0.082990 0.029592 255 220 0
0.183503 0.110728 0.027848 255 220 0
0.127875 0.203021 0.097802 255 220 0
0.128299 0.141978 0.027976 255 220 0
0.172218 0.101583 0.097961 255 220 0
0.189361 0.129066 0.080296 255 220 0
0.157522 0.108751 0.019135 255 220 0
0.160639 0.154565 0.025405 255 220 0
0.194201 0.086960 0.033015 255 220 0
0.122399 0.169872 0.031101 255 220 0
0.135062 0.187180 0.106431 255 220 0
0.102779 0.196112 0.091347 255 220 0
0.190485 0.135280 0.071361 255 220 0
0.172350 0.129743 0.101957 255 220 0
0.097032 0.159782 0.078682 255 220 0
0.134262 0.179870 0.109307 255 220 0
0.158648 0.062134 0.038402 255 220 0
0.183294 0.121402 0.032287 255 220 0
0.138593 0.165976 0.112090 255 220 0
0.146914 0.081041 0.041647 255 220 0
0.118105 0.121442 0.085985 255 220 0
0.196428 0.103779 0.052958 255 220 0
0.153270 0.145761 0.020424 255 220 0
0.143051 0.110070 0.026241 255 220 0
0.130950 0.205333 0.054205 255 220 0
0.146507 0.187376 0.038830 255 220 0
0.159442 0.068045 0.022813 255 220 0
0.118416 0.135194 0.041757 255 220 0
0.119547 0.118986 0.085371 255 220 0
0.106223 0.155835 0.098849 255 220 0
0.140736 0.142797 0.021040 255 220 0
0.194565 0.076672 0.060966 255 220 0
0.170242 0.161537 0.098199 255 220 0
0.122430 0.128343 0.040527 255 220 0
0.152419 0.170530 0.107215 255 220 0
0.115974 0.199771 0.099577 255 220 0
0.195806 0.073573 0.035011 255 220 0
0.166550 0.128322 0.105807 255 220 0
0.145163 0.098070 0.097564 255 220 0
0.152911 0.198435 0.066174 255 220 0
0.157259 0.188987 0.091980 255 220 0
0.148058 0.172203 0.028353 255 220 0
0.156520 0.065458 0.048691 255 220 0
0.125421 0.111133 0.052883 255 220 0
0.128613 0.149748 0.112062 255 220 0
0.103735 0.146959 0.087097 255 220 0
0.141977 0.203345 0.059017 255 220 0
0.179480 0.143014 0.038489 255 220 0
0.096575 0.187902 0.075035 255 220 0
0.169925 0.083594 0.014629 255 220 0
0.152834 0.197936 0.080434 255 220 0
0.166834 0.056305 0.051352 255 220 0
0.179787 0.164888 0.062732 255 220 0
0.113458 0.125452 0.078119 255 220 0
0.143838 0.088499 0.038791 255 220 0
0.139596 0.199231 0.049014 255 220 0
0.106167 0.174109 0.102734 255 220 0
0.126324 0.145067 0.110710 255 220 0
0.119874 0.194780 0.103769 255 220 0
0.125074 0.195514 0.042336 255 220 0
0.102615 0.184852 0.054230 255 220 0
0.128542 0.177077 0.030211 255 220 0
0.104559 0.158185 0.097935 255 220 0
0.115724 0.123462 0.062645 255 220 0
0.177391 0.153903 0.092992 255 220 0
0.172452 0.083047 0.089082 255 220 0
0.166460 0.093586 0.097875 255 220 0
0.119166 0.122502 0.090331 255 220 0
0.125732 0.151828 0.111238 255 220 0
0.117984 0.126260 0.050452 255 220 0
0.177431 0.114045 0.096712 255 220 0
0.112370 0.189885 0.103605 255 220 0
0.178979 0.057335 0.061073 255 220 0
0.151232 0.127892 0.110993 255 220 0
0.167355 0.184818 0.067323 255 220 0
0.192002 0.098993 0.076918 255 220 0
0.182462 0.124550 0.092389 255 220 0
0.117914 0.168298 0.108941 255 220 0
0.110885 0.129389 0.070353 255 220 0
0.160665 0.166820 0.031676 255 220 0
0.121182 0.207519 0.093373 255 220 0
0.138966 0.090427 0.078469 255 220 0
0.156136 0.150122 0.110546 255 220 0
0.173767 0.109441 0.020779 255 220 0
0.116108 0.174956 0.036305 255 220 0
0.154027 0.197181 0.064076 255 220 0
0.180923 0.138532 0.092721 255 220 0
0.196569 0.099739 0.049238 255 220 0
0.105799 0.141873 0.085696 255 220 0
0.149903 0.200568 0.079531 255 220 0
0.187637 0.143365 0.057717 255 220 0
0.104225 0.144241 0.084357 255 220 0
0.197494 0.091628 0.052480 255 220 0
0.108248 0.151177 0.048029 255 220 0
0.120229 0.116145 0.081527 255 220 0
0.128274 0.117156 0.039986 255 220 0
0.156570 0.076293 0.079063 255 220 0
0.157690 0.109419 0.019085 255 220 0
0.184660 0.127919 0.037801 255 220 0
0.141998 0.083927 0.065400 255 220 0
0.129235 0.107235 0.087867 255 220 0
0.151634 0.156029 0.111257 255 220 0
0.116130 0.189524 0.105272 255 220 0
0.121459 0.212613 0.075731 255 220 0
0.142790 0.162116 0.112284 255 220 0
0.095541 0.174890 0.068501 255 220 0
0.190171 0.066847 0.021827 255 220 0
0.111842 0.209984 0.075089 255 220 0
0.194287 0.064623 0.044903 255 220 0
0.197315 0.077885 0.046278 255 220 0
0.162295 0.056499 0.034593 255 220 0
0.184711 0.058862 0.018224 255 220 0
0.138697 0.135342 0.022423 255 220 0
0.128923 0.208987 0.061972 255 220 0
0.132338 0.130905 0.027764 255 220 0
0.133397 0.188017 0.035669 255 220 0
0.146331 0.117422 0.021860 255 220 0
0.173760 0.051577 0.022143 255 220 0
0.105513 0.152724 0.096175 255 220 0
0.168175 0.129239 0.104880 255 220 0
0.116568 0.206753 0.093105 255 220 0
0.138190 0.204091 0.056353 255 220 0
0.171124 0.146086 0.102080 255 220 0
0.112602 0.184071 0.105560 255 220 0
0.197469 0.082427 0.044539 255 220 0
0.195007 0.092106 0.037454 255 220 0
0.108953 0.149281 0.047898 255 220 0
0.162257 0.164762 0.103757 255 220 0
0.164576 0.054278 0.039214 255 220 0
0.168328 0.072688 0.080562 255 220 0
0.152650 0.070535 0.053071 255 220 0
0.174228 0.072370 0.012458 255 220 0
0.124586 0.161177 0.111102 255 220 0
0.116454 0.143000 0.039981 255 220 0
0.189395 0.093646 0.027659 255 220 0
0.160860 0.090794 0.097223 255 220 0
0.113385 0.136067 0.049807 255 220 0
0.192357 0.127810 0.058838 255 220 0
0.146368 0.078650 0.064216 255 220 0
0.187300 0.137063 0.082099 255 220 0
0.166795 0.184297 0.059792 255 220 0
0.116856 0.191250 0.104790 255 220 0
0.169227 0.121388 0.021581 255 220 0
0.164603 0.149478 0.025713 255 220 0
0.193430 0.121233 0.069740 255 220 0
0.197322 0.094398 0.055704 255 220 0
0.112973 0.146071 0.043256 255 220 0
0.122509 0.205849 0.055282 255 220 0
0.094742 0.171568 0.077874 255 220 0
0.156859 0.169621 0.030874 255 220 0
0.153902 0.123419 0.110037 255 220 0
0.168008 0.152871 0.103287 255 220 0
0.151229 0.165381 0.026135 255 220 0
0.135672 0.196715 0.100449 255 220 0
0.175572 0.173666 0.067243 255 220 0
0.101001 0.197121 0.068299 255 220 0
0.163011 0.172490 0.037976 255 220 0
0.136392 0.201759 0.050794 255 220 0
0.183451 0.149101 0.051056 255 220 0
0.133341 0.096018 0.061407 255 220 0
0.140399 0.102409 0.097748 255 220 0
0.180012 0.128915 0.031726 255 220 0
0.125097 0.159285 0.111263 255 220 0
0.160445 0.065110 0.022620 255 220 0
0.188716 0.072412 0.069223 255 220 0
0.145488 0.164415 0.111296 255 220 0
0.153584 0.070872 0.062607 255 220 0
0.106816 0.203199 0.089657 255 220 0
0.179659 0.105889 0.022903 255 220 0
0.167157 0.074969 0.082970 255 220 0
0.172733 0.164753 0.093227 255 220 0
0.119493 0.211929 0.072690 255 220 0
0.181788 0.149829 0.047827 255 220 0
0.150204 0.137657 0.112282 255 220 0
0.168213 0.154756 0.102614 255 220 0
0.121488 0.121914 0.094115 255 220 0
0.181835 0.115329 0.027986 255 220 0
0.126235 0.129012 0.035037 255 220 0
0.103491 0.146156 0.085063 255 220 0
0.171403 0.173553 0.051210 255 220 0
0.117269 0.199620 0.049212 255 220 0
0.190883 0.121688 0.046294 255 220 0
0.143361 0.093497 0.090584 255 220 0
0.129356 0.118579 0.101236 255 220 0
0.146085 0.096122 0.096327 255 220 0
0.177115 0.077533 0.013694 255 220 0
0.102959 0.144724 0.079141 255 220 0
0.158212 0.194222 0.073095 255 220 0
0.138357 0.206285 0.086513 255 220 0
0.106470 0.201494 0.091395 255 220 0
0.104775 0.142887 0.066835 255 220 0
0.154637 0.090809 0.096088 255 220 0
0.125711 0.183884 0.034363 255 220 0
0.170869 0.068302 0.075732 255 220 0
0.176324 0.076375 0.013290 255 220 0
0.147425 0.077350 0.063319 255 220 0
0.104148 0.190004 0.054585 255 220 0
0.173707 0.133998 0.027369 255 220 0
0.099035 0.184106 0.060929 255 220 0
0.179318 0.051053 0.047059 255 220 0
0.142735 0.134373 0.112127 255 220 0
0.188223 0.095312 0.026844 255 220 0
0.155555 0.174198 0.104081 255 220 0
0.182446 0.157663 0.059086 255 220 0
0.160210 0.070815 0.020334 255 220 0
0.162846 0.189205 0.062233 255 220 0
0.164157 0.162362 0.103287 255 220 0
0.148788 0.173858 0.107488 255 220 0
0.103699 0.189555 0.054986 255 220 0
0.186773 0.109050 0.086644 255 220 0
0.165113 0.187297 0.071664 255 220 0
0.126694 0.126605 0.104400 255 220 0
0.142569 0.198289 0.049829 255 220 0
0.196834 0.074266 0.046609 255 220 0
0.167292 0.180500 0.052902 255 220 0
0.189908 0.068679 0.064294 255 220 0
0.134734 0.095530 0.079148 255 220 0
0.185786 0.098220 0.025310 255 220 0
0.126527 0.107705 0.056532 255 220 0
0.178242 0.091569 0.089782 255 220 0
0.188115 0.136277 0.080378 255 220 0
0.105338 0.145049 0.060475 255 220 0
0.175516 0.172347 0.078936 255 220 0
0.149174 0.162817 0.110677 255 220 0
0.185776 0.143905 0.082486 255 220 0
0.106588 0.144348 0.057403 255 220 0
0.175935 0.074595 0.081427 255 220 0
0.189901 0.117149 0.040747 255 220 0
0.107262 0.148341 0.051746 255 220 0
0.194743 0.099793 0.041341 255 220 0
0.189551 0.139910 0.063555 255 220 0
0.154903 0.097516 0.020692 255 220 0
0.175589 0.099211 0.094837 255 220 0
0.109042 0.205758 0.088555 255 220 0
0.161674 0.085481 0.092998 255 220 0
0.165494 0.061600 0.061312 255 220 0
0.124377 0.107854 0.066686 255 220 0
0.130134 0.132664 0.109017 255 220 0
0.176034 0.165797 0.051430 255 220 0
0.140622 0.205832 0.084152 255 220 0
0.189532 0.082657 0.074283 255 220 0
0.148305 0.176150 0.030642 255 220 0
0.168502 0.058746 0.058569 255 220 0
0.116557 0.139212 0.041915 255 220 0
0.135762 0.094299 0.054799 255 220 0
0.165330 0.087616 0.016063 255 220 0
0.150790 0.143385 0.019755 255 220 0
0.182630 0.145928 0.046285 255 220 0
0.103596 0.152333 0.056875 255 220 0
0.162201 0.176060 0.098213 255 220 0
0.140377 0.164580 0.112160 255 220 0
0.117822 0.199950 0.100046 255 220 0
0.187897 0.142873 0.076219 255 220 0
0.176369 0.132488 0.098503 255 220 0
0.097756 0.164216 0.088008 255 220 0
0.163053 0.128953 0.107728 255 220 0
0.115566 0.153181 0.106247 255 220 0
0.113721 0.208290 0.088835 255 220 0
0.132276 0.176525 0.110374 255 220 0
0.154739 0.067787 0.048609 255 220 0
0.107216 0.203309 0.064580 255 220 0
0.135042 0.110217 0.099856 255 220 0
0.132123 0.174787 0.028391 255 220 0
0.120264 0.181680 0.035751 255 220 0
0.171232 0.139381 0.027019 255 220 0
0.173037 0.157654 0.096906 255 220 0
0.157023 0.099276 0.102497 255 220 0
0.186120 0.110838 0.030965 255 220 0
0.184529 0.153346 0.060392 255 220 0
0.154312 0.192065 0.091617 255 220 0
0.126360 0.105738 0.077273 255 220 0
0.170427 0.161530 0.037889 255 220 0
0.116325 0.199170 0.100135 255 220 0
0.149422 0.200349 0.082151 255 220 0
0.172316 0.167743 0.046199 255 220 0
0.192844 0.079360 0.027779 255 220 0
0.157737 0.117310 0.108268 255 220 0
0.112123 0.147100 0.043975 255 220 0
0.161915 0.067109 0.068235 255 220 0
0.103541 0.147887 0.062546 255 220 0
0.168874 0.064608 0.014092 255 220 0
0.153519 0.071129 0.063283 255 220 0
0.141840 0.086787 0.048634 255 220 0
0.158404 0.193970 0.066037 255 220 0
0.110783 0.203005 0.059339 255 220 0
0.174677 0.073778 0.012657 255 220 0
0.176785 0.155624 0.043024 255 220 0
0.160173 0.078646 0.085099 255 220 0
0.157940 0.063953 0.033934 255 220 0
0.161189 0.143659 0.022168 255 220 0
0.181631 0.140135 0.040226 255 220 0
0.107518 0.174653 0.103747 255 220 0
0.173603 0.174855 0.080687 255 220 0
0.139494 0.191711 0.039977 255 220 0
0.174400 0.175179 0.076112 255 220 0
0.151216 0.200219 0.074060 255 220 0
0.115872 0.124712 0.059333 255 220 0
0.116613 0.160008 0.034890 255 220 0
0.120138 0.141789 0.035990 255 220 0
0.147037 0.079939 0.043929 255 220 0
0.114073 0.132795 0.093529 255 220 0
0.179770 0.165164 0.063493 255 220 0
0.194428 0.107868 0.071659 255 220 0
0.150061 0.075187 0.043686 255 220 0
0.107688 0.167581 0.043964 255 220 0
0.115566 0.170366 0.108039 255 220 0
0.107831 0.176714 0.044499 255 220 0
0.181999 0.146940 0.045798 255 220 0
0.104552 0.142968 0.083113 255 220 0
0.110082 0.207576 0.069091 255 220 0
0.172088 0.065986 0.072984 255 220 0
0.180814 0.117531 0.027837 255 220 0
0.116535 0.145478 0.038737 255 220 0
0.178152 0.168417 0.063815 255 220 0
0.128433 0.121560 0.036650 255 220 0
0.193185 0.122868 0.056261 255 220 0
0.183079 0.124233 0.091682 255 220 0
0.145619 0.087287 0.084415 255 220 0
0.148497 0.181126 0.104443 255 220 0
0.111075 0.186109 0.104273 255 220 0
0.163490 0.131571 0.107681 255 220 0
0.120936 0.140935 0.035431 255 220 0
0.178819 0.155891 0.089667 255 220 0
0.179317 0.149824 0.042940 255 220 0
0.095073 0.168583 0.078433 255 220 0
0.130710 0.110544 0.094860 255 220 0
0.157010 0.064676 0.046927 255 220 0
0.173457 0.155588 0.097286 255 220 0
0.101793 0.178342 0.053498 255 220 0
0.196824 0.094049 0.045832 255 220 0
0.123578 0.149845 0.030219 255 220 0
0.157217 0.069955 0.067971 255 220 0
0.097319 0.186077 0.067279 255 220 0
0.196382 0.097598 0.046119 255 220 0
0.140377 0.088072 0.052304 255 220 0
0.145067 0.160975 0.023360 255 220 0
0.122675 0.210582 0.066400 255 220 0
0.187367 0.123555 0.085818 255 220 0
0.165473 0.164898 0.034584 255 220 0
0.196512 0.104768 0.057506 255 220 0
0.180144 0.154245 0.048301 255 220 0
0.190221 0.067794 0.021826 255 220 0
0.137737 0.178120 0.109278 255 220 0
0.147304 0.177791 0.031280 255 220 0
0.107198 0.135847 0.073499 255 220 0
0.125432 0.135987 0.032526 255 220 0
0.126720 0.200616 0.047057 255 220 0
0.165876 0.173768 0.095864 255 220 0
0.097869 0.162195 0.064781 255 220 0
0.155981 0.145287 0.020873 255 220 0
0.183356 0.157767 0.072764 255 220 0
0.147333 0.202237 0.080913 255 220 0
0.140652 0.096737 0.091513 255 220 0
0.098140 0.189041 0.086717 255 220 0
0.160300 0.166080 0.104581 255 220 0
0.167648 0.065972 0.071127 255 220 0
0.098079 0.192381 0.073660 255 220 0
0.145729 0.171083 0.109481 255 220 0
0.116585 0.130546 0.095681 255 220 0
0.135496 0.124368 0.108058 255 220 0
0.158716 0.063465 0.029816 255 220 0
0.102402 0.162057 0.096745 255 220 0
0.158034 0.171274 0.032737 255 220 0
0.141142 0.088462 0.046977 255 220 0
0.127896 0.110855 0.090657 255 220 0
0.101944 0.152945 0.089421 255 220 0
0.185663 0.076307 0.075348 255 220 0
0.175929 0.117327 0.023964 255 220 0
0.192794 0.104650 0.039249 255 220 0
0.121654 0.122841 0.095547 255 220 0
0.171035 0.116923 0.021402 255 220 0
0.196419 0.102993 0.051728 255 220 0
0.138055 0.147677 0.021991 255 220 0
0.195352 0.109698 0.052098 255 220 0
0.110251 0.178294 0.105276 255 220 0
0.173118 0.050336 0.041277 255 220 0
0.111961 0.154477 0.103895 255 220 0
0.183777 0.151908 0.055066 255 220 0
0.190689 0.082059 0.072343 255 220 0
0.158093 0.132678 0.110022 255 220 0
0.154195 0.069667 0.038878 255 220 0
0.196487 0.090589 0.062040 255 220 0
0.117547 0.151167 0.035551 255 220 0
0.168397 0.052605 0.023793 255 220 0
0.181934 0.079802 0.080795 255 220 0
0.144497 0.196402 0.048575 255 220 0
0.165895 0.138953 0.106513 255 220 0
0.140199 0.113970 0.027253 255 220 0
0.153140 0.073329 0.068695 255 220 0
0.115003 0.122351 0.075584 255 220 0
0.165295 0.067536 0.072090 255 220 0
0.178980 0.084188 0.085589 255 220 0
0.187254 0.146147 0.074792 255 220 0
0.102109 0.183933 0.054698 255 220 0
0.152647 0.086547 0.090502 255 220 0
0.138151 0.140599 0.022129 255 220 0
0.167309 0.077954 0.014364 255 220 0
0.100090 0.152797 0.068342 255 220 0
0.181760 0.151698 0.049477 255 220 0
0.128808 0.145933 0.111743 255 220 0
0.144280 0.081200 0.059021 255 220 0
0.178315 0.100014 0.020348 255 220 0
0.123757 0.143108 0.109133 255 220 0
0.172327 0.129896 0.025111 255 220 0
0.159594 0.064928 0.024587 255 220 0
0.185262 0.096954 0.085337 255 220 0
0.161097 0.188092 0.054728 255 220 0
0.141899 0.087244 0.078218 255 220 0
0.120238 0.173419 0.033107 255 220 0
0.172679 0.177227 0.062717 255 220 0
0.122303 0.144202 0.032748 255 220 0
0.146635 0.179250 0.106134 255 220 0
0.131642 0.121722 0.105080 255 220 0
0.134013 0.198490 0.045453 255 220 0
0.176877 0.116734 0.097488 255 220 0
0.184068 0.127898 0.090106 255 220 0
0.094758 0.173900 0.079548 255 220 0
0.179853 0.059160 0.063963 255 220 0
0.106548 0.174314 0.045706 255 220 0
0.195013 0.105455 0.046321 255 220 0
0.174477 0.097374 0.018129 255 220 0
0.185419 0.150836 0.059897 255 220 0
0.143522 0.105738 0.027615 255 220 0
0.197164 0.080162 0.041638 255 220 0
0.137854 0.208743 0.075731 255 220 0
0.095005 0.175992 0.081672 255 220 0
0.166369 0.183604 0.056559 255 220 0
0.136158 0.209490 0.077546 255 220 0
0.186490 0.137959 0.083612 255 220 0
0.111366 0.150603 0.043379 255 220 0
0.142000 0.141104 0.113202 255 220 0
0.194804 0.089762 0.035744 255 220 0
0.183125 0.087629 0.083696 255 220 0
0.197233 0.085329 0.042918 255 220 0
0.173558 0.175562 0.061489 255 220 0
0.126061 0.105364 0.066688 255 220 0
0.187165 0.133197 0.046272 255 220 0
0.137883 0.091081 0.055105 255 220 0
0.195612 0.075870 0.056749 255 220 0
0.141172 0.153823 0.113460 255 220 0
0.176542 0.104001 0.095510 255 220 0
0.135255 0.194770 0.102050 255 220 0
0.150349 0.104494 0.022462 255 220 0
0.190484 0.134105 0.057602 255 220 0
0.141876 0.156132 0.022155 255 220 0
0.164988 0.153811 0.105288 255 220 0
0.162497 0.071843 0.076890 255 220 0
0.104169 0.141950 0.072614 255 220 0
0.115061 0.174438 0.036987 255 220 0
0.121917 0.157582 0.110108 255 220 0
0.162443 0.096711 0.017741 255 220 0
0.169565 0.051646 0.024860 255 220 0
0.118896 0.116043 0.068472 255 220 0
0.140419 0.097526 0.036699 255 220 0
0.132794 0.169912 0.111641 255 220 0
0.117146 0.119298 0.066860 255 220 0
0.186663 0.115803 0.087376 255 220 0
0.101392 0.163046 0.095585 255 220 0
0.179703 0.113597 0.025467 255 220 0
0.156599 0.065407 0.040227 255 220 0
0.118276 0.201202 0.050389 255 220 0
0.115036 0.127914 0.056076 255 220 0
0.164697 0.054135 0.038965 255 220 0
0.126353 0.118133 0.042263 255 220 0
0.130899 0.183192 0.108680 255 220 0
0.178517 0.052244 0.050362 255 220 0
0.140605 0.206737 0.068395 255 220 0
0.172501 0.083737 0.014597 255 220 0
0.169086 0.147694 0.103504 255 220 0
0.096714 0.170355 0.088023 255 220 0
0.125333 0.199532 0.046027 255 220 0
0.144681 0.095636 0.031395 255 220 0
0.167141 0.129733 0.022151 255 220 0
0.141093 0.194780 0.099393 255 220 0
0.186309 0.058658 0.020084 255 220 0
0.156288 0.094239 0.099300 255 220 0
0.139104 0.201421 0.052066 255 220 0
0.106914 0.189269 0.050357 255 220 0
0.170701 0.172006 0.047929 255 220 0
0.135337 0.209275 0.082134 255 220 0
0.107799 0.207392 0.073780 255 220 0
0.189270 0.130308 0.049166 255 220 0
0.136406 0.097304 0.045190 255 220 0
0.111697 0.130113 0.064355 255 220 0
0.151390 0.104228 0.021878 255 220 0
0.153040 0.154882 0.022699 255 220 0
0.150328 0.184359 0.101706 255 220 0
0.138758 0.160990 0.112848 255 220 0
0.139016 0.106094 0.032642 255 220 0
0.134656 0.203874 0.053301 255 220 0
0.120324 0.115854 0.061576 255 220 0
0.158934 0.083524 0.018975 255 220 0
0.185338 0.054502 0.052425 255 220 0
0.150405 0.085481 0.028590 255 220 0
0.174745 0.067036 0.012285 255 220 0
0.150828 0.133953 0.019040 255 220 0
0.163174 0.185218 0.053051 255 220 0
0.107938 0.196402 0.097247 255 220 0
0.153546 0.179414 0.102656 255 220 0
0.173854 0.070069 0.012299 255 220 0
0.121471 0.150828 0.031846 255 220 0
0.120192 0.138411 0.037512 255 220 0
0.166036 0.114390 0.104441 255 220 0
0.154427 0.092501 0.021526 255 220 0
0.119236 0.187424 0.106834 255 220 0
0.196902 0.100418 0.054198 255 220 0
0.167273 0.110564 0.103107 255 220 0
0.194521 0.114100 0.068967 255 220 0
0.187672 0.078008 0.020112 255 220 0
0.157239 0.100420 0.019454 255 220 0
0.128345 0.111827 0.044689 255 220 0
0.140556 0.139129 0.021229 255 220 0
0.098808 0.194215 0.081346 255 220 0
0.191616 0.061350 0.050050 255 220 0
0.150057 0.075698 0.041851 255 220 0
0.139300 0.121623 0.108434 255 220 0
0.190471 0.062461 0.055513 255 220 0
0.103917 0.179853 0.050424 255 220 0
0.137270 0.116628 0.028921 255 220 0
0.097749 0.189532 0.069528 255 220 0
0.179762 0.158427 0.085968 255 220 0
0.133000 0.182236 0.108741 255 220 0
0.106366 0.203679 0.066707 255 220 0
0.166120 0.184094 0.057015 255 220 0
0.112917 0.127397 0.065261 255 220 0
0.146207 0.175521 0.029537 255 220 0
0.148531 0.176519 0.106532 255 220 0
0.104344 0.202993 0.069852 255 220 0
0.155912 0.182657 0.040850 255 220 0
0.154437 0.096729 0.021046 255 220 0
0.124990 0.212020 0.071695 255 220 0
0.189731 0.100899 0.031373 255 220 0
0.188388 0.060032 0.056743 255 220 0
0.098413 0.164414 0.061700 255 220 0
0.188989 0.054470 0.041896 255 220 0
0.098555 0.184777 0.090921 255 220 0
0.150488 0.091862 0.095024 255 220 0
0.136437 0.170507 0.026325 255 220 0
0.135652 0.207523 0.087033 255 220 0
0.157855 0.120767 0.108794 255 220 0
0.174440 0.106963 0.020446 255 220 0
0.157260 0.068181 0.027951 255 220 0
0.153872 0.174282 0.104980 255 220 0
0.191676 0.132014 0.064894 255 220 0
0.158517 0.184366 0.045507 255 220 0
0.188443 0.087694 0.078070 255 220 0
0.191170 0.133868 0.067049 255 220 0
0.141039 0.096820 0.036239 255 220 0
0.122593 0.157541 0.110373 255 220 0
0.192205 0.121198 0.049869 255 220 0
0.120057 0.148088 0.108065 255 220 0
0.155926 0.155363 0.109847 255 220 0
0.169253 0.157534 0.100829 255 220 0
0.117434 0.123307 0.056418 255 220 0
0.099036 0.193245 0.069520 255 220 0
0.125800 0.181107 0.109331 255 220 0
0.193965 0.117100 0.070055 255 220 0
0.189439 0.122872 0.082121 255 220 0
0.173556 0.053798 0.018821 255 220 0
0.146206 0.088292 0.086737 255 220 0
0.096166 0.166319 0.083684 255 220 0
0.128278 0.157226 0.026570 255 220 0
0.182933 0.125548 0.033862 255 220 0
0.158023 0.065210 0.029542 255 220 0
0.180027 0.142146 0.093216 255 220 0
0.184382 0.138154 0.043976 255 220 0
0.153038 0.074041 0.033434 255 220 0
0.169115 0.098593 0.098846 255 220 0
0.110509 0.150126 0.044885 255 220 0
0.130237 0.205911 0.055093 255 220 0
0.171136 0.099780 0.098089 255 220 0
0.132034 0.206490 0.092014 255 220 0
0.186145 0.133754 0.085676 255 220 0
0.117118 0.209202 0.089467 255 220 0
0.152602 0.103023 0.104187 255 220 0
0.195910 0.070528 0.047796 255 220 0
0.153098 0.127703 0.018950 255 220 0
0.095402 0.180969 0.081908 255 220 0
0.187686 0.087642 0.023304 255 220 0
0.167856 0.124177 0.021524 255 220 0
0.098606 0.155134 0.079242 255 220 0
0.147222 0.112064 0.022581 255 220 0
0.113588 0.207728 0.065107 255 220 0
0.145157 0.201500 0.058931 255 220 0
0.133123 0.096402 0.061102 255 220 0
0.175230 0.120212 0.099160 255 220 0
0.181193 0.160235 0.058659 255 220 0
0.145508 0.082872 0.076103 255 220 0
0.187204 0.096639 0.083070 255 220 0
0.134579 0.132050 0.025617 255 220 0
0.165869 0.151740 0.027486 255 220 0
0.115563 0.192119 0.103972 255 220 0
0.176543 0.149781 0.095673 255 220 0
0.190632 0.106374 0.035733 255 220 0
0.180967 0.063352 0.013880 255 220 0
0.142921 0.082741 0.063322 255 220 0
0.156252 0.066758 0.035872 255 220 0
0.137497 0.201588 0.051206 255 220 0
0.150384 0.196105 0.090506 255 220 0
0.126866 0.187732 0.107362 255 220 0
0.163285 0.175030 0.040576 255 220 0
0.135832 0.158549 0.023632 255 220 0
0.189836 0.085084 0.075065 255 220 0
0.147313 0.095374 0.028000 255 220 0
0.187514 0.136144 0.081974 255 220 0
0.194891 0.112012 0.068074 255 220 0
0.189993 0.063776 0.058650 255 220 0
0.162851 0.185295 0.088575 255 220 0
0.148887 0.111421 0.107415 255 220 0
0.119892 0.153965 0.108900 255 220 0
0.120501 0.165444 0.031755 255 220 0
0.151710 0.172053 0.106963 255 220 0
0.188508 0.123788 0.042295 255 220 0
0.126673 0.191093 0.038600 255 220 0
0.169441 0.050888 0.037617 255 220 0
0.138969 0.194301 0.042479 255 220 0
0.160460 0.174154 0.100799 255 220 0
0.161778 0.058389 0.045238 255 220 0
0.151473 0.200054 0.073289 255 220 0
0.168867 0.173198 0.046178 255 220 0
0.137675 0.188171 0.036190 255 220 0
0.137854 0.151959 0.113584 255 220 0
0.183201 0.143081 0.088168 255 220 0
0.155372 0.183997 0.098609 255 220 0
0.174055 0.057371 0.015501 255 220 0
0.137926 0.131221 0.110805 255 220 0
0.180385 0.164760 0.070323 255 220 0
0.128292 0.140580 0.110629 255 220 0
0.154496 0.195771 0.083123 255 220 0
0.133273 0.159622 0.112858 255 220 0
0.187787 0.081703 0.075979 255 220 0
0.094703 0.176795 0.074956 255 220 0
0.096657 0.162004 0.070626 255 220 0
0.126488 0.123726 0.102387 255 220 0
0.145197 0.129682 0.020377 255 220 0
0.146285 0.191532 0.043390 255 220 0
0.178426 0.167706 0.063164 255 220 0
0.180255 0.161026 0.056584 255 220 0
0.173055 0.109125 0.099231 255 220 0
0.196871 0.090158 0.043246 255 220 0
0.190083 0.099830 0.031414 255 220 0
0.188755 0.139666 0.057327 255 220 0
0.126261 0.127746 0.035716 255 220 0
0.111595 0.133954 0.089618 255 220 0
0.115600 0.121464 0.068603 255 220 0
0.162154 0.068000 0.070195 255 220 0
0.110648 0.131152 0.066467 255 220 0
0.143823 0.166224 0.024973 255 220 0
0.182005 0.103950 0.090732 255 220 0
0.194777 0.095663 0.038795 255 220 0
0.123050 0.206150 0.095184 255 220 0
0.116199 0.120355 0.075089 255 220 0
0.152905 0.168179 0.028063 255 220 0
0.183762 0.104925 0.025859 255 220 0
0.181752 0.103869 0.090958 255 220 0
0.136053 0.109949 0.034072 255 220 0
0.141139 0.099861 0.095824 255 220 0
0.190944 0.063660 0.024144 255 220 0
0.100508 0.179547 0.096115 255 220 0
0.161571 0.136120 0.108797 255 220 0
0.122097 0.149569 0.109443 255 220 0
0.166559 0.151736 0.028010 255 220 0
0.142862 0.182710 0.033081 255 220 0
0.196337 0.070947 0.041561 255 220 0
0.178811 0.050506 0.045246 255 220 0
0.187343 0.055749 0.025381 255 220 0
0.175226 0.148839 0.097471 255 220 0
0.169093 0.181832 0.078880 255 220 0
0.094641 0.173093 0.075842 255 220 0
0.169642 0.176266 0.088221 255 220 0
0.188879 0.058934 0.023642 255 220 0
0.102291 0.149894 0.086766 255 220 0
0.123100 0.142788 0.032403 255 220 0
0.193267 0.118454 0.051219 255 220 0
0.169864 0.076067 0.013431 255 220 0
0.156617 0.189823 0.091722 255 220 0
0.116051 0.129249 0.093173 255 220 0
0.187323 0.066744 0.017964 255 220 0
0.166802 0.058529 0.018000 255 220 0
0.170293 0.059514 0.061654 255 220 0
0.160501 0.059550 0.030747 255 220 0
0.166245 0.185809 0.074373 255 220 0
0.197401 0.083410 0.052949 255 220 0
0.188724 0.132909 0.080327 255 220 0
0.176037 0.067668 0.012278 255 220 0
0.176521 0.097167 0.018763 255 220 0
0.095416 0.181463 0.081503 255 220 0
0.148467 0.181288 0.104377 255 220 0
0.184694 0.118898 0.032924 255 220 0
0.189025 0.111562 0.083781 255 220 0
0.133463 0.151794 0.023879 255 220 0
0.137171 0.148279 0.113528 255 220 0
0.137345 0.096426 0.044074 255 220 0
0.181455 0.158555 0.056803 255 220 0
0.145358 0.187164 0.037966 255 220 0
0.118140 0.207831 0.092212 255 220 0
0.195929 0.107986 0.062865 255 220 0
0.112835 0.207873 0.088807 255 220 0
0.096519 0.162082 0.071570 255 220 0
0.189176 0.129988 0.048638 255 220 0
0.117789 0.160179 0.033818 255 220 0
0.127350 0.211931 0.082846 255 220 0
0.185751 0.113038 0.088348 255 220 0
0.145165 0.098261 0.097749 255 220 0
0.126492 0.133541 0.107603 255 220 0
0.114302 0.168769 0.036853 255 220 0
0.166120 0.091959 0.016497 255 220 0
0.109155 0.142095 0.053163 255 220 0
0.152291 0.097320 0.022451 255 220 0
0.183094 0.138326 0.041618 255 220 0
0.112825 0.201035 0.097138 255 220 0
0.105734 0.180987 0.048188 255 220 0
0.161135 0.161387 0.028834 255 220 0
0.130930 0.194952 0.041375 255 220 0
0.136574 0.115465 0.030226 255 220 0
0.139707 0.175444 0.109679 255 220 0
0.175291 0.099028 0.018791 255 220 0
0.165350 0.184247 0.084957 255 220 0
0.184561 0.151766 0.079265 255 220 0
0.170092 0.138399 0.025828 255 220 0
0.129892 0.128033 0.107081 255 220 0
0.134713 0.095243 0.078386 255 220 0
0.166262 0.102148 0.017894 255 220 0
0.114661 0.193700 0.045740 255 220 0
0.159276 0.061109 0.038774 255 220 0
0.178448 0.089837 0.017478 255 220 0
0.147138 0.077603 0.056404 255 220 0
0.131645 0.099043 0.078342 255 220 0
0.148401 0.141333 0.112826 255 220 0
0.120993 0.131090 0.102106 255 220 0
0.128463 0.112618 0.093964 255 220 0
0.123895 0.206572 0.056246 255 220 0
0.175412 0.121901 0.099140 255 220 0
0.128462 0.115546 0.097366 255 220 0
0.186118 0.055837 0.023144 255 220 0
0.109380 0.132483 0.078634 255 220 0
0.184248 0.153490 0.078031 255 220 0
0.171463 0.058557 0.060638 255 220 0
0.101980 0.182812 0.097493 255 220 0
0.115577 0.122076 0.078240 255 220 0
0.193194 0.067462 0.028030 255 220 0
0.184470 0.117673 0.090141 255 220 0
0.110928 0.203236 0.059531 255 220 0
0.107996 0.206629 0.084700 255 220 0
0.141802 0.195700 0.045630 255 220 0
0.137510 0.203316 0.092629 255 220 0
0.196206 0.088034 0.062394 255 220 0
0.111402 0.136114 0.054429 255 220 0
0.145587 0.195399 0.095939 255 220 0
0.162408 0.172038 0.100343 255 220 0
0.192160 0.126596 0.071824 255 220 0
0.178335 0.049621 0.028160 255 220 0
0.113554 0.144377 0.043324 255 220 0
0.187332 0.071465 0.070395 255 220 0
0.156399 0.187092 0.046773 255 220 0
0.123465 0.117839 0.048085 255 220 0
0.176803 0.163644 0.087314 255 220 0
0.183869 0.110109 0.090118 255 220 0
0.164634 0.148469 0.025366 255 220 0
0.112385 0.126470 0.072080 255 220 0
0.133641 0.103613 0.090535 255 220 0
0.165909 0.060708 0.059930 255 220 0
0.164727 0.104160 0.102789 255 220 0
0.151320 0.197725 0.085566 255 220 0
0.177192 0.111619 0.096549 255 220 0
0.181093 0.091631 0.087362 255 220 0
0.151828 0.105768 0.105437 255 220 0
0.171966 0.175600 0.055618 255 220 0
0.185416 0.147654 0.080765 255 220 0
0.168255 0.101426 0.017876 255 220 0
0.186023 0.143244 0.082238 255 220 0
0.116857 0.196680 0.046625 255 220 0
0.147382 0.198609 0.090082 255 220 0
0.140876 0.128332 0.022474 255 220 0
0.123075 0.132974 0.036786 255 220 0
0.096198 0.186643 0.078250 255 220 0
0.192412 0.126562 0.057050 255 220 0
0.189797 0.108268 0.082336 255 220 0
0.104079 0.199360 0.063901 255 220 0
0.141798 0.098759 0.095286 255 220 0
0.104122 0.204222 0.075772 255 220 0
0.134396 0.093809 0.065374 255 220 0
0.177918 0.049024 0.037002 255 220 0
0.142225 0.105455 0.029120 255 220 0
0.154880 0.097360 0.020719 255 220 0
0.161420 0.083367 0.090940 255 220 0
0.185294 0.131707 0.041317 255 220 0
0.158756 0.177640 0.038422 255 220 0
0.177263 0.158071 0.045961 255 220 0
0.131761 0.112154 0.098058 255 220 0
0.123406 0.135681 0.034959 255 220 0
0.141201 0.177367 0.108702 255 220 0
0.189228 0.074913 0.070211 255 220 0
0.105782 0.197694 0.058961 255 220 0
0.108822 0.194928 0.052111 255 220 0
0.095891 0.179973 0.068467 255 220 0
0.188962 0.134188 0.051842 255 220 0
0.116915 0.123231 0.058499 255 220 0
0.153501 0.085753 0.023949 255 220 0
0.194972 0.115647 0.060390 255 220 0
0.188755 0.114387 0.084302 255 220 0
0.135262 0.188950 0.036506 255 220 0
0.170053 0.057447 0.016641 255 220 0
0.136839 0.101634 0.039208 255 220 0
0.154600 0.071874 0.031620 255 220 0
0.176282 0.128867 0.027862 255 220 0
0.165357 0.101404 0.101633 255 220 0
0.140762 0.125940 0.023038 255 220 0
0.101662 0.158482 0.093485 255 220 0
0.137663 0.120880 0.107644 255 220 0
0.158800 0.191776 0.058589 255 220 0
0.102615 0.202310 0.077495 255 220 0
0.163703 0.131619 0.107576 255 220 0
0.098878 0.171860 0.093618 255 220 0
0.101239 0.148161 0.073420 255 220 0
0.187870 0.140656 0.055074 255 220 0
0.123953 0.119625 0.095437 255 220 0
0.141680 0.197514 0.096473 255 220 0
0.172487 0.174282 0.054749 255 220 0
0.112375 0.135761 0.052394 255 220 0
0.188580 0.088317 0.078187 255 220 0
0.131580 0.210750 0.082798 255 220 0
0.153829 0.168086 0.107439 255 220 0
0.187012 0.138549 0.082165 255 220 0
0.125671 0.193236 0.104953 255 220 0
0.147299 0.202236 0.081032 255 220 0
0.136193 0.208337 0.066171 255 220 0
0.106106 0.188541 0.050945 255 220 0
0.186970 0.063910 0.018026 255 220 0
0.146271 0.182557 0.034273 255 220 0
0.192019 0.110985 0.041467 255 220 0
0.132754 0.098370 0.056091 255 220 0
0.166981 0.063253 0.066018 255 220 0
0.140325 0.169986 0.111017 255 220 0
0.159849 0.177532 0.099364 255 220 0
0.116075 0.132123 0.048188 255 220 0
0.100159 0.150847 0.072683 255 220 0
0.125758 0.158204 0.028042 255 220 0
0.158150 0.139935 0.020388 255 220 0
0.094705 0.171643 0.075651 255 220 0
0.195032 0.094472 0.038817 255 220 0
0.142517 0.205737 0.068646 255 220 0
0.127949 0.168048 0.111502 255 220 0
0.184088 0.062937 0.066537 255 220 0
0.180842 0.112358 0.093481 255 220 0
0.161724 0.110636 0.105653 255 220 0
0.186339 0.111409 0.031519 255 220 0
0.130356 0.100101 0.062197 255 220 0
0.156858 0.184081 0.097345 255 220 0
0.097218 0.176374 0.063009 255 220 0
0.171650 0.079207 0.013658 255 220 0
0.184208 0.110602 0.028558 255 220 0
0.162396 0.130552 0.020422 255 220 0
0.151602 0.074090 0.038945 255 220 0
0.189177 0.138156 0.075405 255 220 0
0.188974 0.134544 0.052240 255 220 0
0.117205 0.119972 0.079602 255 220 0
0.126371 0.108267 0.083281 255 220 0
0.148618 0.091586 0.093408 255 220 0
0.106126 0.154302 0.050082 255 220 0
0.147311 0.118257 0.021259 255 220 0
0.184324 0.102238 0.087978 255 220 0
0.149790 0.197522 0.056525 255 220 0
0.143463 0.173165 0.109465 255 220 0
0.184238 0.131787 0.039440 255 220 0
0.100847 0.174224 0.097055 255 220 0
0.128373 0.114135 0.095663 255 220 0
0.165808 0.071692 0.014943 255 220 0
0.095466 0.178952 0.083593 255 220 0
0.194982 0.081795 0.063453 255 220 0
0.124744 0.189319 0.037857 255 220 0
0.097259 0.169147 0.063276 255 220 0
0.103186 0.147096 0.085541 255 220 0
0.132108 0.100343 0.053152 255 220 0
0.158467 0.097346 0.101413 255 220 0
0.105360 0.147485 0.091748 255 220 0
0.171608 0.111761 0.100700 255 220 0
0.152666 0.079825 0.028276 255 220 0
0.094698 0.175746 0.078763 255 220 0
0.112017 0.131018 0.061144 255 220 0
0.162072 0.120666 0.019425 255 220 0
0.183287 0.116325 0.091411 255 220 0
0.131939 0.109590 0.095492 255 220 0
0.122729 0.146950 0.109364 255 220 0
0.109405 0.190047 0.047951 255 220 0
0.146720 0.195145 0.095361 255 220 0
0.128962 0.100991 0.071151 255 220 0
0.195699 0.088367 0.037571 255 220 0
0.176219 0.172778 0.071513 255 220 0
0.163370 0.056248 0.043375 255 220 0
0.096362 0.171635 0.087255 255 220 0
0.164875 0.125903 0.020681 255 220 0
0.196044 0.082940 0.036612 255 220 0
0.160357 0.192290 0.070793 255 220 0
0.163507 0.093355 0.017165 255 220 0
0.113160 0.206312 0.091734 255 220 0
0.174877 0.154306 0.038866 255 220 0
0.177120 0.123348 0.097795 255 220 0
0.143133 0.205137 0.067190 255 220 0
0.180706 0.069232 0.013372 255 220 0
0.196961 0.097641 0.059150 255 220 0
0.190562 0.114849 0.040675 255 220 0
0.129041 0.149228 0.026330 255 220 0
0.124458 0.114404 0.050220 255 220 0
0.108620 0.201727 0.093478 255 220 0
0.119013 0.119865 0.085550 255 220 0
0.193451 0.090319 0.032886 255 220 0
0.124928 0.132398 0.106162 255 220 0
0.174276 0.067171 0.012285 255 220 0
0.191904 0.067919 0.059371 255 220 0
0.152426 0.084615 0.087875 255 220 0
0.146020 0.196926 0.093865 255 220 0
0.134391 0.208097 0.087153 255 220 0
0.165769 0.166190 0.100348 255 220 0
0.179564 0.071606 0.013202 255 220 0
0.123728 0.142324 0.108924 255 220 0
0.104588 0.174310 0.048400 255 220 0
0.173958 0.060922 0.066073 255 220 0
0.149070 0.093480 0.026628 255 220 0
0.188017 0.097277 0.027395 255 220 0
0.178324 0.078631 0.082881 255 220 0
0.161792 0.152197 0.107610 255 220 0
0.194275 0.081385 0.031217 255 220 0
0.170222 0.176458 0.052764 255 220 0
0.122871 0.163767 0.110577 255 220 0
0.121919 0.212728 0.077296 255 220 0
0.168367 0.166184 0.038872 255 220 0
0.144829 0.089312 0.035834 255 220 0
0.178720 0.093436 0.018649 255 220 0
0.106052 0.193176 0.054200 255 220 0
0.162887 0.056471 0.042017 255 220 0
0.141962 0.087646 0.045663 255 220 0
0.170865 0.163980 0.096189 255 220 0
0.179124 0.156725 0.088574 255 220 0
0.185015 0.062003 0.064579 255 220 0
0.128057 0.153930 0.026682 255 220 0
0.128257 0.112790 0.093853 255 220 0
0.157630 0.145789 0.110347 255 220 0
0.153384 0.088946 0.023167 255 220 0
0.176424 0.050010 0.042442 255 220 0
0.114691 0.127871 0.088077 255 220 0
0.179535 0.159928 0.085040 255 220 0
0.158699 0.193697 0.065979 255 220 0
0.112057 0.156575 0.040326 255 220 0
0.189269 0.131221 0.079629 255 220 0
0.166850 0.140423 0.105849 255 220 0
0.176421 0.078432 0.013765 255 220 0
0.120795 0.129822 0.100998 255 220 0
0.157454 0.185100 0.095960 255 220 0
0.174415 0.175652 0.068893 255 220 0
0.168607 0.181341 0.057708 255 220 0
0.164194 0.072213 0.078467 255 220 0
0.195245 0.112280 0.054912 255 220 0
0.146798 0.099799 0.100193 255 220 0
0.162452 0.143308 0.108292 255 220 0
0.132412 0.096804 0.074192 255 220 0
0.196894 0.098938 0.059418 255 220 0
0.103945 0.149579 0.058773 255 220 0
0.155104 0.070496 0.065449 255 220 0
0.138542 0.148484 0.113623 255 220 0
0.135069 0.133284 0.024960 255 220 0
0.194218 0.117712 0.055428 255 220 0
0.195799 0.101574 0.046478 255 220 0
0.098408 0.166663 0.091195 255 220 0
0.161009 0.185530 0.050185 255 220 0
0.136654 0.192964 0.040337 255 220 0
