ply
format ascii 1.0
element vertex 1024
property float x
property float y
property float z
property uchar red
property uchar green
property uchar blue
end_header
0.605726 0.106625 0.081064 255 220 0
0.517536 0.130691 0.068687 255 220 0
0.463436 0.094629 0.023004 255 220 0
0.501034 0.073334 0.083492 255 220 0
0.575720 0.103492 0.026389 255 220 0
0.530162 0.094370 0.093642 255 220 0
0.563363 0.106603 0.022192 255 220 0
0.518279 0.136332 0.059556 255 220 0
0.560623 0.114360 0.024052 255 220 0
0.462972 0.129594 0.041573 255 220 0
0.556335 0.098819 0.098337 255 220 0
0.505069 0.050251 0.052506 255 220 0
0.546260 0.112951 0.091309 255 220 0
0.561478 0.068063 0.091834 255 220 0
0.485123 0.058301 0.066490 255 220 0
0.453224 0.121282 0.060263 255 220 0
0.588827 0.126045 0.047632 255 220 0
0.596479 0.112786 0.085237 255 220 0
0.533140 0.132941 0.071387 255 220 0
0.487148 0.131631 0.048163 255 220 0
0.571077 0.137696 0.057723 255 220 0
0.592755 0.066318 0.069195 255 220 0
0.511707 0.050284 0.049883 255 220 0
0.604059 0.095542 0.086090 255 220 0
0.445013 0.107312 0.029355 255 220 0
0.522604 0.110035 0.019213 255 220 0
0.602268 0.113338 0.079476 255 220 0
0.611543 0.104687 0.067832 255 220 0
0.538233 0.140596 0.052103 255 220 0
0.599990 0.071394 0.067588 255 220 0
0.587539 0.082420 0.094614 255 220 0
0.526158 0.095959 0.092232 255 220 0
0.472785 0.072062 0.069210 255 220 0
0.457400 0.127214 0.036521 255 220 0
0.505051 0.096507 0.016984 255 220 0
0.523754 0.119147 0.081487 255 220 0
0.560632 0.093434 0.020280 255 220 0
0.600501 0.096804 0.088901 255 220 0
0.514071 0.129510 0.031184 255 220 0
0.504427 0.063122 0.080465 255 220 0
0.532609 0.087044 0.016551 255 220 0
0.553327 0.062690 0.031886 255 220 0
0.578717 0.119080 0.088742 255 220 0
0.556631 0.051793 0.066710 255 220 0
0.599113 0.074649 0.080527 255 220 0
0.479818 0.110683 0.071800 255 220 0
0.531375 0.139442 0.057281 255 220 0
0.562285 0.112336 0.094272 255 220 0
0.611463 0.103320 0.072070 255 220 0
0.591943 0.069321 0.052459 255 220 0
0.532973 0.135315 0.067835 255 220 0
0.589757 0.121134 0.082185 255 220 0
0.493528 0.115110 0.073814 255 220 0
0.464952 0.122697 0.061065 255 220 0
0.458698 0.107327 0.066527 255 220 0
0.445806 0.116691 0.061283 255 220 0
0.609005 0.087902 0.078565 255 220 0
0.448957 0.109854 0.027885 255 220 0
0.471951 0.119741 0.064553 255 220 0
0.488874 0.118729 0.025112 255 220 0
0.605498 0.078102 0.060529 255 220 0
0.533018 0.135556 0.067448 255 220 0
0.498402 0.052197 0.049800 255 220 0
0.515824 0.069859 0.022492 255 220 0
0.492091 0.132446 0.048700 255 220 0
0.535635 0.133015 0.032841 255 220 0
0.464803 0.107652 0.023138 255 220 0
0.561467 0.138261 0.065000 255 220 0
0.590557 0.065712 0.059995 255 220 0
0.604333 0.088667 0.085151 255 220 0
0.519435 0.079209 0.018104 255 220 0
0.525674 0.052796 0.041751 255 220 0
0.569022 0.096336 0.099561 255 220 0
0.584524 0.061954 0.063436 255 220 0
0.452157 0.106232 0.064940 255 220 0
0.499911 0.116197 0.022776 255 220 0
0.570916 0.056124 0.064047 255 220 0
0.473752 0.108660 0.070725 255 220 0
0.528949 0.078633 0.092625 255 220 0
0.484297 0.090635 0.019144 255 220 0
0.528265 0.138011 0.041635 255 220 0
0.498731 0.128951 0.063031 255 220 0
0.597459 0.119792 0.049906 255 220 0
0.573122 0.128368 0.038287 255 220 0
0.454139 0.122014 0.059881 255 220 0
0.532258 0.123350 0.081013 255 220 0
0.526125 0.078520 0.091920 255 220 0
0.567199 0.074290 0.095387 255 220 0
0.528967 0.139667 0.054404 255 220 0
0.461062 0.079016 0.030436 255 220 0
0.555289 0.061928 0.033446 255 220 0
0.524485 0.122573 0.079132 255 220 0
0.570445 0.058543 0.048896 255 220 0
0.606012 0.078459 0.072978 255 220 0
0.452230 0.103253 0.026027 255 220 0
0.526721 0.050122 0.048249 255 220 0
0.502254 0.057892 0.076205 255 220 0
0.587684 0.102401 0.033319 255 220 0
0.583204 0.075101 0.036276 255 220 0
0.556201 0.135710 0.039759 255 220 0
0.458063 0.097313 0.067585 255 220 0
0.510182 0.107288 0.083555 255 220 0
0.558339 0.055737 0.078352 255 220 0
0.556998 0.084738 0.098529 255 220 0
0.593678 0.112448 0.040935 255 220 0
0.522565 0.114487 0.020779 255 220 0
0.594769 0.104419 0.090843 255 220 0
0.464176 0.130094 0.043986 255 220 0
0.590306 0.088604 0.035844 255 220 0
0.447281 0.091056 0.061117 255 220 0
0.548247 0.094549 0.017744 255 220 0
0.532265 0.087855 0.094499 255 220 0
0.480964 0.113264 0.070881 255 220 0
0.588298 0.121944 0.042809 255 220 0
0.585214 0.073466 0.090504 255 220 0
0.554263 0.056792 0.081707 255 220 0
0.601183 0.072781 0.071511 255 220 0
0.587254 0.130937 0.056497 255 220 0
0.585808 0.122661 0.082745 255 220 0
0.566399 0.138932 0.056896 255 220 0
0.569655 0.075905 0.096086 255 220 0
0.526457 0.101950 0.090481 255 220 0
0.545086 0.064178 0.028218 255 220 0
0.479019 0.057750 0.053791 255 220 0
0.492413 0.052257 0.057626 255 220 0
0.530597 0.074385 0.092008 255 220 0
0.560885 0.057486 0.080290 255 220 0
0.525855 0.113648 0.085540 255 220 0
0.508443 0.054249 0.040912 255 220 0
0.598558 0.073789 0.080019 255 220 0
0.447094 0.079221 0.050971 255 220 0
0.531531 0.048382 0.063597 255 220 0
0.571278 0.095995 0.024090 255 220 0
0.486146 0.067758 0.028621 255 220 0
0.516032 0.058991 0.032295 255 220 0
0.577950 0.064014 0.082246 255 220 0
0.534979 0.096519 0.094463 255 220 0
0.548488 0.128917 0.030098 255 220 0
0.610560 0.084535 0.064729 255 220 0
0.492622 0.076412 0.081269 255 220 0
0.551001 0.051283 0.052154 255 220 0
0.488747 0.127446 0.033504 255 220 0
0.569045 0.135423 0.070199 255 220 0
0.585756 0.103980 0.032315 255 220 0
0.529647 0.061228 0.029536 255 220 0
0.479665 0.093544 0.019642 255 220 0
0.551367 0.084830 0.097913 255 220 0
0.593367 0.090528 0.037649 255 220 0
0.524853 0.094254 0.016117 255 220 0
0.553724 0.086838 0.098454 255 220 0
0.472497 0.088932 0.021765 255 220 0
0.551340 0.122057 0.086706 255 220 0
0.522447 0.081623 0.091525 255 220 0
0.512299 0.120047 0.076963 255 220 0
0.474766 0.069773 0.069140 255 220 0
0.492663 0.132563 0.048331 255 220 0
0.506854 0.111625 0.020400 255 220 0
0.482892 0.087308 0.078292 255 220 0
0.513034 0.072146 0.086805 255 220 0
0.557906 0.052515 0.054698 255 220 0
0.597573 0.071310 0.076868 255 220 0
0.611470 0.102277 0.060072 255 220 0
0.566209 0.054413 0.061313 255 220 0
0.581418 0.108867 0.094720 255 220 0
0.444581 0.116104 0.031238 255 220 0
0.611435 0.104565 0.069798 255 220 0
0.446361 0.092632 0.031773 255 220 0
0.458302 0.092759 0.025116 255 220 0
0.445069 0.108213 0.062616 255 220 0
0.437767 0.119489 0.038213 255 220 0
0.522809 0.137593 0.058810 255 220 0
0.603106 0.113332 0.051950 255 220 0
0.521493 0.133123 0.066991 255 220 0
0.576550 0.134360 0.049890 255 220 0
0.503816 0.133628 0.057006 255 220 0
0.434698 0.116933 0.051343 255 220 0
0.563892 0.076526 0.096569 255 220 0
0.526947 0.050807 0.046295 255 220 0
0.611017 0.085673 0.069251 255 220 0
0.594818 0.115954 0.043833 255 220 0
0.541378 0.055542 0.037946 255 220 0
0.593457 0.070932 0.081887 255 220 0
0.462152 0.095122 0.023308 255 220 0
0.470376 0.104020 0.021531 255 220 0
0.549342 0.121729 0.086600 255 220 0
0.561652 0.058821 0.040857 255 220 0
0.443368 0.102915 0.061897 255 220 0
0.468558 0.065204 0.059441 255 220 0
0.464810 0.094742 0.070380 255 220 0
0.452016 0.129466 0.043013 255 220 0
0.569943 0.059353 0.078498 255 220 0
0.539731 0.126727 0.080192 255 220 0
0.471214 0.114916 0.024751 255 220 0
0.491149 0.053657 0.063628 255 220 0
0.536157 0.116826 0.086769 255 220 0
0.509222 0.089676 0.016600 255 220 0
0.476512 0.086661 0.075605 255 220 0
0.524274 0.069841 0.022283 255 220 0
0.569317 0.103287 0.023559 255 220 0
0.598896 0.071892 0.075584 255 220 0
0.501355 0.129558 0.034260 255 220 0
0.529863 0.131049 0.030717 255 220 0
0.505106 0.077897 0.019354 255 220 0
0.475839 0.086305 0.021604 255 220 0
0.544252 0.124816 0.083054 255 220 0
0.600433 0.120669 0.057847 255 220 0
0.580530 0.099486 0.097993 255 220 0
0.551964 0.130961 0.032689 255 220 0
0.526410 0.048013 0.062297 255 220 0
0.548844 0.056135 0.039001 255 220 0
0.548468 0.136074 0.038501 255 220 0
0.598060 0.072858 0.055556 255 220 0
0.558589 0.092515 0.019756 255 220 0
0.600792 0.111412 0.082795 255 220 0
0.554543 0.123242 0.027186 255 220 0
0.591913 0.121328 0.045334 255 220 0
0.529925 0.102489 0.017226 255 220 0
0.495703 0.094955 0.082096 255 220 0
0.507643 0.059439 0.079386 255 220 0
0.507723 0.118644 0.023480 255 220 0
0.568064 0.058786 0.078621 255 220 0
0.451073 0.121515 0.059801 255 220 0
0.460404 0.071656 0.038555 255 220 0
0.567434 0.055145 0.057921 255 220 0
0.466930 0.085408 0.070939 255 220 0
0.609545 0.090546 0.078932 255 220 0
0.484293 0.123557 0.029396 255 220 0
0.471533 0.063501 0.060234 255 220 0
0.556573 0.066688 0.029326 255 220 0
0.610699 0.105523 0.061636 255 220 0
0.530359 0.106076 0.018045 255 220 0
0.541254 0.048917 0.061797 255 220 0
0.550415 0.057039 0.038127 255 220 0
0.530239 0.070143 0.090617 255 220 0
0.493671 0.119690 0.025301 255 220 0
0.522913 0.127142 0.074471 255 220 0
0.555871 0.086622 0.098674 255 220 0
0.556146 0.108844 0.021118 255 220 0
0.594679 0.126662 0.063683 255 220 0
0.501165 0.101104 0.017824 255 220 0
0.496938 0.064278 0.078163 255 220 0
0.526535 0.061047 0.085394 255 220 0
0.499912 0.058574 0.075733 255 220 0
0.456359 0.128469 0.038930 255 220 0
0.553393 0.092214 0.098654 255 220 0
0.583799 0.093915 0.030741 255 220 0
0.603329 0.087219 0.047874 255 220 0
0.608410 0.088676 0.080055 255 220 0
0.548532 0.103379 0.095523 255 220 0
0.492582 0.056103 0.069283 255 220 0
0.574443 0.136629 0.058152 255 220 0
0.462719 0.068606 0.057610 255 220 0
0.455395 0.128846 0.039960 255 220 0
0.474815 0.087089 0.074864 255 220 0
0.590314 0.122806 0.079794 255 220 0
0.513246 0.125016 0.027149 255 220 0
0.587508 0.116867 0.087413 255 220 0
0.438084 0.091646 0.050304 255 220 0
0.540135 0.050165 0.069784 255 220 0
0.472916 0.116221 0.025212 255 220 0
0.572376 0.061464 0.044329 255 220 0
0.539964 0.096335 0.016859 255 220 0
0.456001 0.124675 0.057916 255 220 0
0.575509 0.102573 0.026166 255 220 0
0.558788 0.058480 0.039728 255 220 0
0.574600 0.059597 0.051335 255 220 0
0.590099 0.122446 0.080418 255 220 0
0.499084 0.061124 0.032038 255 220 0
0.575141 0.092694 0.026140 255 220 0
0.535467 0.059853 0.085961 255 220 0
0.586793 0.120365 0.040437 255 220 0
0.455104 0.091969 0.026721 255 220 0
0.564135 0.109210 0.023136 255 220 0
0.455517 0.075551 0.037777 255 220 0
0.498693 0.077488 0.083798 255 220 0
0.475969 0.118690 0.026367 255 220 0
0.507452 0.102988 0.084149 255 220 0
0.485624 0.057174 0.045873 255 220 0
0.522948 0.071197 0.021480 255 220 0
0.549043 0.109726 0.093311 255 220 0
0.559883 0.081056 0.022097 255 220 0
0.564815 0.054686 0.054848 255 220 0
0.531191 0.070887 0.021695 255 220 0
0.547388 0.112303 0.091855 255 220 0
0.468501 0.063023 0.051858 255 220 0
0.495971 0.105938 0.019232 255 220 0
0.549740 0.118239 0.089094 255 220 0
0.478503 0.101556 0.020066 255 220 0
0.522353 0.087665 0.016313 255 220 0
0.482576 0.129728 0.054829 255 220 0
0.494599 0.054096 0.046854 255 220 0
0.611116 0.091531 0.075885 255 220 0
0.485031 0.056704 0.063800 255 220 0
0.454758 0.082596 0.062371 255 220 0
0.510354 0.093698 0.087760 255 220 0
0.541231 0.055623 0.081632 255 220 0
0.547670 0.106394 0.019168 255 220 0
0.601789 0.088929 0.045505 255 220 0
0.470897 0.068234 0.035488 255 220 0
0.560335 0.134080 0.038695 255 220 0
0.450681 0.084132 0.059973 255 220 0
0.536563 0.124239 0.081561 255 220 0
0.492018 0.100521 0.079280 255 220 0
0.469491 0.130349 0.047308 255 220 0
0.526553 0.138816 0.044578 255 220 0
0.526137 0.106758 0.018193 255 220 0
0.555574 0.114730 0.092149 255 220 0
0.571083 0.065969 0.036577 255 220 0
0.569143 0.055448 0.062809 255 220 0
0.605786 0.077634 0.071263 255 220 0
0.528305 0.076299 0.019006 255 220 0
0.526434 0.055688 0.036584 255 220 0
0.575001 0.087902 0.099036 255 220 0
0.528662 0.049130 0.051649 255 220 0
0.563801 0.064715 0.088617 255 220 0
0.612302 0.090648 0.070767 255 220 0
0.582144 0.060825 0.066491 255 220 0
0.460710 0.098149 0.068535 255 220 0
0.604141 0.114629 0.074477 255 220 0
0.516863 0.059813 0.082379 255 220 0
0.562898 0.139543 0.053938 255 220 0
0.574129 0.136124 0.064161 255 220 0
0.518888 0.126747 0.027778 255 220 0
0.550617 0.061950 0.031795 255 220 0
0.501277 0.050759 0.065500 255 220 0
0.488949 0.115177 0.023125 255 220 0
0.535634 0.093939 0.016427 255 220 0
0.586805 0.076579 0.038048 255 220 0
0.510116 0.082735 0.088250 255 220 0
0.542247 0.119974 0.023546 255 220 0
0.605473 0.077750 0.072921 255 220 0
0.593855 0.088075 0.038590 255 220 0
0.549366 0.112548 0.021222 255 220 0
0.456900 0.111781 0.025880 255 220 0
0.519265 0.047912 0.060271 255 220 0
0.545601 0.124472 0.083655 255 220 0
0.462380 0.077581 0.065171 255 220 0
0.552634 0.108573 0.094468 255 220 0
0.446510 0.127819 0.050665 255 220 0
0.467335 0.084812 0.071030 255 220 0
0.482010 0.103946 0.074866 255 220 0
0.581991 0.100631 0.029499 255 220 0
0.601773 0.118854 0.070376 255 220 0
0.453261 0.129400 0.042195 255 220 0
0.536105 0.112710 0.020202 255 220 0
0.477312 0.063552 0.066014 255 220 0
0.453093 0.110979 0.064330 255 220 0
0.524548 0.134279 0.035122 255 220 0
0.519659 0.111889 0.019917 255 220 0
0.585581 0.072284 0.089234 255 220 0
0.563128 0.080183 0.023412 255 220 0
0.579316 0.129475 0.043736 255 220 0
0.562233 0.084467 0.021827 255 220 0
0.591511 0.095457 0.035640 255 220 0
0.526878 0.105307 0.089427 255 220 0
0.554566 0.134300 0.074046 255 220 0
0.536750 0.129579 0.076459 255 220 0
0.473175 0.106260 0.071313 255 220 0
0.542315 0.074047 0.094172 255 220 0
0.548674 0.093864 0.017798 255 220 0
0.492699 0.073707 0.022794 255 220 0
0.467851 0.105082 0.069881 255 220 0
0.566020 0.128701 0.081583 255 220 0
0.580326 0.065722 0.083675 255 220 0
0.574675 0.129607 0.078755 255 220 0
0.527151 0.107525 0.018398 255 220 0
0.552174 0.087763 0.098334 255 220 0
0.608354 0.110340 0.071216 255 220 0
0.459626 0.070621 0.056728 255 220 0
0.495980 0.120405 0.025565 255 220 0
0.541770 0.128302 0.079162 255 220 0
0.552231 0.094422 0.018380 255 220 0
0.515674 0.123927 0.074936 255 220 0
0.503804 0.091192 0.016912 255 220 0
0.515417 0.059487 0.031698 255 220 0
0.489174 0.068743 0.076938 255 220 0
0.580849 0.063748 0.048905 255 220 0
0.595502 0.072827 0.082492 255 220 0
0.530994 0.049497 0.050435 255 220 0
0.535614 0.129808 0.075880 255 220 0
0.545855 0.067387 0.025736 255 220 0
0.529962 0.111318 0.019577 255 220 0
0.577758 0.098400 0.098682 255 220 0
0.517254 0.065617 0.085541 255 220 0
0.456818 0.098781 0.067079 255 220 0
0.548645 0.061164 0.032091 255 220 0
0.579757 0.122510 0.085380 255 220 0
0.473519 0.095866 0.020585 255 220 0
0.542153 0.135671 0.069847 255 220 0
0.466252 0.079308 0.068672 255 220 0
0.591186 0.111437 0.089448 255 220 0
0.477032 0.096248 0.019966 255 220 0
0.484398 0.100932 0.076440 255 220 0
0.545381 0.139383 0.045179 255 220 0
0.607229 0.110677 0.058044 255 220 0
0.512370 0.064097 0.026932 255 220 0
0.546024 0.124767 0.026638 255 220 0
0.486183 0.086394 0.019498 255 220 0
0.535048 0.106679 0.018320 255 220 0
0.445457 0.116244 0.030902 255 220 0
0.581945 0.060949 0.060701 255 220 0
0.562281 0.133943 0.039238 255 220 0
0.542707 0.095316 0.096466 255 220 0
0.529139 0.130843 0.072696 255 220 0
0.592621 0.126844 0.054160 255 220 0
0.567442 0.067070 0.033445 255 220 0
0.568071 0.109927 0.095798 255 220 0
0.527191 0.136915 0.039306 255 220 0
0.542764 0.082980 0.018179 255 220 0
0.595920 0.090021 0.039776 255 220 0
0.500906 0.064487 0.079870 255 220 0
0.597935 0.093009 0.090911 255 220 0
0.563590 0.058662 0.042426 255 220 0
0.460401 0.073371 0.060601 255 220 0
0.598277 0.106129 0.087846 255 220 0
0.573241 0.057901 0.055373 255 220 0
0.539995 0.071071 0.092845 255 220 0
0.531799 0.054065 0.078968 255 220 0
0.451540 0.114698 0.063086 255 220 0
0.573612 0.078135 0.096742 255 220 0
0.553604 0.129174 0.031384 255 220 0
0.483413 0.105959 0.074744 255 220 0
0.517394 0.070324 0.087410 255 220 0
0.563600 0.083840 0.098763 255 220 0
0.466197 0.067039 0.041224 255 220 0
0.496262 0.125163 0.029588 255 220 0
0.483136 0.104766 0.020080 255 220 0
0.531373 0.068875 0.090410 255 220 0
0.496640 0.128628 0.033892 255 220 0
0.483297 0.091696 0.019194 255 220 0
0.534472 0.140109 0.055589 255 220 0
0.489959 0.092638 0.018214 255 220 0
0.588598 0.070797 0.085806 255 220 0
0.437825 0.098446 0.055410 255 220 0
0.565475 0.067968 0.091227 255 220 0
0.533337 0.099003 0.016713 255 220 0
0.469608 0.069757 0.034270 255 220 0
0.533981 0.048590 0.055542 255 220 0
0.460526 0.107938 0.066904 255 220 0
0.473849 0.079778 0.024568 255 220 0
0.546155 0.132054 0.075966 255 220 0
0.437454 0.116672 0.056331 255 220 0
0.471650 0.063158 0.044539 255 220 0
0.584235 0.120854 0.038999 255 220 0
0.537032 0.051274 0.045742 255 220 0
0.503375 0.129216 0.064684 255 220 0
0.470667 0.080031 0.071589 255 220 0
0.528393 0.089468 0.093583 255 220 0
0.462707 0.073203 0.062490 255 220 0
0.477592 0.059879 0.046751 255 220 0
0.531244 0.078333 0.018383 255 220 0
0.585182 0.122174 0.083575 255 220 0
0.487910 0.061237 0.071547 255 220 0
0.527829 0.138830 0.057674 255 220 0
0.459521 0.130020 0.048116 255 220 0
0.559418 0.104520 0.097148 255 220 0
0.532476 0.104790 0.017768 255 220 0
0.554635 0.055396 0.079278 255 220 0
0.478347 0.092523 0.075951 255 220 0
0.478585 0.125375 0.032035 255 220 0
0.552770 0.058556 0.084459 255 220 0
0.509276 0.126838 0.029329 255 220 0
0.451553 0.119777 0.060973 255 220 0
0.487847 0.060788 0.036927 255 220 0
0.573315 0.110004 0.026936 255 220 0
0.488794 0.075512 0.079443 255 220 0
0.565809 0.137362 0.066273 255 220 0
0.561733 0.098068 0.020659 255 220 0
0.537739 0.132614 0.073169 255 220 0
0.579949 0.062226 0.051496 255 220 0
0.529703 0.057349 0.082912 255 220 0
0.588328 0.126468 0.047702 255 220 0
0.511283 0.054049 0.040739 255 220 0
0.518255 0.061374 0.029400 255 220 0
0.583077 0.098240 0.097539 255 220 0
0.449196 0.076539 0.050061 255 220 0
0.573024 0.128342 0.080886 255 220 0
0.484821 0.097601 0.018892 255 220 0
0.476654 0.127926 0.036084 255 220 0
0.532932 0.093823 0.016276 255 220 0
0.494833 0.126838 0.064128 255 220 0
0.459482 0.097622 0.023816 255 220 0
0.603450 0.098103 0.045859 255 220 0
0.585432 0.096474 0.097013 255 220 0
0.568084 0.106383 0.023648 255 220 0
0.604997 0.096842 0.047517 255 220 0
0.525658 0.068703 0.023016 255 220 0
0.548965 0.125767 0.083204 255 220 0
0.546884 0.050360 0.068599 255 220 0
0.467860 0.105338 0.022158 255 220 0
0.479307 0.061350 0.041507 255 220 0
0.464592 0.097196 0.022385 255 220 0
0.559669 0.098795 0.020142 255 220 0
0.507566 0.092935 0.086937 255 220 0
0.512964 0.103762 0.017808 255 220 0
0.488494 0.099254 0.078318 255 220 0
0.459120 0.082723 0.029017 255 220 0
0.559107 0.052313 0.065546 255 220 0
0.498988 0.054003 0.044610 255 220 0
0.596690 0.071097 0.056798 255 220 0
0.490728 0.130120 0.057266 255 220 0
0.515369 0.092274 0.016243 255 220 0
0.541426 0.140466 0.049454 255 220 0
0.550965 0.055013 0.041873 255 220 0
0.468534 0.069871 0.064579 255 220 0
0.549059 0.097796 0.097309 255 220 0
0.568986 0.134911 0.071449 255 220 0
0.567066 0.060318 0.081938 255 220 0
0.479166 0.130806 0.047520 255 220 0
0.436471 0.115238 0.055699 255 220 0
0.519896 0.094470 0.090701 255 220 0
0.489906 0.117456 0.071006 255 220 0
0.576068 0.058442 0.068221 255 220 0
0.523074 0.096919 0.091093 255 220 0
0.505613 0.061517 0.030204 255 220 0
0.574561 0.079629 0.097201 255 220 0
0.492072 0.122303 0.027423 255 220 0
0.456172 0.105440 0.066161 255 220 0
0.596148 0.125561 0.062447 255 220 0
0.529408 0.109134 0.088712 255 220 0
0.443147 0.103105 0.061787 255 220 0
0.514220 0.118426 0.078837 255 220 0
0.588408 0.063816 0.065481 255 220 0
0.440129 0.088828 0.051226 255 220 0
0.599251 0.104253 0.042704 255 220 0
0.463614 0.129588 0.041520 255 220 0
0.543740 0.054869 0.039600 255 220 0
0.581049 0.089089 0.098148 255 220 0
0.591753 0.127965 0.055625 255 220 0
0.485849 0.121339 0.066725 255 220 0
0.509874 0.130789 0.033770 255 220 0
0.594565 0.072391 0.050885 255 220 0
0.437548 0.117319 0.037074 255 220 0
0.496054 0.053196 0.067207 255 220 0
0.591143 0.119461 0.043097 255 220 0
0.587973 0.126160 0.076740 255 220 0
0.554174 0.111910 0.021720 255 220 0
0.606002 0.092567 0.049093 255 220 0
0.609801 0.106290 0.074172 255 220 0
0.510311 0.100059 0.017178 255 220 0
0.492599 0.110114 0.076210 255 220 0
0.534150 0.102235 0.092513 255 220 0
0.490074 0.130415 0.056275 255 220 0
0.537383 0.137320 0.039442 255 220 0
0.582806 0.066502 0.045760 255 220 0
0.566352 0.054566 0.065532 255 220 0
0.497455 0.123030 0.069061 255 220 0
0.594903 0.119626 0.046725 255 220 0
0.517851 0.100772 0.088305 255 220 0
0.467987 0.128282 0.055027 255 220 0
0.440869 0.085720 0.044467 255 220 0
0.474176 0.121183 0.063989 255 220 0
0.446830 0.128672 0.044124 255 220 0
0.517531 0.137996 0.047298 255 220 0
0.569699 0.110711 0.025591 255 220 0
0.604495 0.081911 0.081171 255 220 0
0.577505 0.064102 0.044397 255 220 0
0.449921 0.129335 0.044039 255 220 0
0.543990 0.134717 0.071788 255 220 0
0.533891 0.127564 0.077682 255 220 0
0.513479 0.049333 0.052752 255 220 0
0.478172 0.128230 0.056937 255 220 0
0.595106 0.068798 0.074843 255 220 0
0.481281 0.088803 0.019922 255 220 0
0.509267 0.049741 0.052540 255 220 0
0.497949 0.077271 0.020376 255 220 0
0.455363 0.120073 0.029910 255 220 0
0.484411 0.130875 0.051552 255 220 0
0.508287 0.114655 0.079277 255 220 0
0.525611 0.138941 0.055719 255 220 0
0.601460 0.098860 0.087843 255 220 0
0.445110 0.087734 0.036107 255 220 0
0.467937 0.106932 0.069433 255 220 0
0.528284 0.052440 0.076293 255 220 0
0.447636 0.082897 0.037725 255 220 0
0.579945 0.125250 0.082431 255 220 0
0.507014 0.128668 0.066894 255 220 0
0.594800 0.109727 0.088357 255 220 0
0.547189 0.071148 0.023482 255 220 0
0.586962 0.063149 0.063809 255 220 0
0.605174 0.112824 0.075505 255 220 0
0.568709 0.106076 0.023807 255 220 0
0.531467 0.100666 0.092341 255 220 0
0.560067 0.135499 0.040678 255 220 0
0.576962 0.060997 0.050612 255 220 0
0.605748 0.110124 0.078120 255 220 0
0.566610 0.123631 0.031219 255 220 0
0.482037 0.129363 0.055564 255 220 0
0.609100 0.105304 0.056288 255 220 0
0.478736 0.112420 0.022826 255 220 0
0.446177 0.081778 0.040618 255 220 0
0.569346 0.113129 0.094115 255 220 0
0.437595 0.095064 0.039352 255 220 0
0.594725 0.088192 0.092498 255 220 0
0.494452 0.058196 0.072686 255 220 0
0.557280 0.139916 0.050857 255 220 0
0.605327 0.087502 0.050121 255 220 0
0.522594 0.047931 0.059193 255 220 0
0.486169 0.127227 0.033573 255 220 0
0.455957 0.117560 0.062716 255 220 0
0.573098 0.060977 0.046029 255 220 0
0.514657 0.084660 0.016937 255 220 0
0.568520 0.118853 0.029005 255 220 0
0.476734 0.065624 0.035587 255 220 0
0.516997 0.082989 0.017195 255 220 0
0.488978 0.117652 0.070565 255 220 0
0.566904 0.059909 0.081358 255 220 0
0.501121 0.097296 0.017309 255 220 0
0.558207 0.061180 0.086245 255 220 0
0.555829 0.052836 0.050644 255 220 0
0.552361 0.058974 0.036017 255 220 0
0.524514 0.107551 0.087918 255 220 0
0.597941 0.110046 0.086016 255 220 0
0.587955 0.063964 0.071006 255 220 0
0.501149 0.076821 0.020160 255 220 0
0.510379 0.067100 0.024599 255 220 0
0.436123 0.120530 0.050322 255 220 0
0.490461 0.066539 0.076455 255 220 0
0.576470 0.092746 0.099191 255 220 0
0.547041 0.139339 0.062600 255 220 0
0.504240 0.115417 0.022107 255 220 0
0.453305 0.115390 0.063161 255 220 0
0.533387 0.061521 0.029358 255 220 0
0.517870 0.107365 0.018541 255 220 0
0.463771 0.114128 0.065781 255 220 0
0.496615 0.051542 0.053766 255 220 0
0.549070 0.124426 0.084396 255 220 0
0.598384 0.119184 0.050543 255 220 0
0.497025 0.052021 0.051386 255 220 0
0.606398 0.083325 0.054635 255 220 0
0.522246 0.066121 0.024953 255 220 0
0.612386 0.089447 0.067402 255 220 0
0.506342 0.050686 0.068782 255 220 0
0.452095 0.090432 0.028918 255 220 0
0.511034 0.136597 0.047055 255 220 0
0.590051 0.096952 0.095163 255 220 0
0.465095 0.118527 0.027479 255 220 0
0.504329 0.130354 0.034689 255 220 0
0.564356 0.094716 0.099588 255 220 0
0.498700 0.131889 0.057918 255 220 0
0.606701 0.113441 0.067235 255 220 0
0.591077 0.111548 0.038498 255 220 0
0.496057 0.095358 0.082134 255 220 0
0.515351 0.053350 0.041496 255 220 0
0.542623 0.097427 0.017183 255 220 0
0.483267 0.076070 0.077045 255 220 0
0.486543 0.062500 0.034834 255 220 0
0.521506 0.134887 0.064193 255 220 0
0.532031 0.129426 0.029127 255 220 0
0.599882 0.073099 0.076402 255 220 0
0.542019 0.061125 0.030701 255 220 0
0.484576 0.108895 0.021018 255 220 0
0.442050 0.125200 0.039660 255 220 0
0.481084 0.088921 0.077452 255 220 0
0.456595 0.109924 0.065374 255 220 0
0.591545 0.120664 0.044416 255 220 0
0.591411 0.079145 0.040326 255 220 0
0.593468 0.066683 0.067672 255 220 0
0.557415 0.121082 0.026575 255 220 0
0.545631 0.140739 0.054631 255 220 0
0.473263 0.067801 0.034590 255 220 0
0.484167 0.123996 0.063786 255 220 0
0.523327 0.069769 0.022342 255 220 0
0.495696 0.077719 0.020520 255 220 0
0.449674 0.080189 0.038279 255 220 0
0.577507 0.076579 0.031601 255 220 0
0.515918 0.049719 0.070234 255 220 0
0.563951 0.061346 0.084745 255 220 0
0.557957 0.137340 0.068236 255 220 0
0.572011 0.059182 0.049057 255 220 0
0.502912 0.105805 0.018770 255 220 0
0.581869 0.133486 0.055738 255 220 0
0.438538 0.102858 0.058104 255 220 0
0.582428 0.127591 0.043844 255 220 0
0.570316 0.063553 0.039209 255 220 0
0.449275 0.098374 0.064244 255 220 0
0.591121 0.096118 0.035324 255 220 0
0.555407 0.114184 0.022796 255 220 0
0.575662 0.132955 0.045911 255 220 0
0.558271 0.052617 0.069249 255 220 0
0.532330 0.065843 0.025280 255 220 0
0.580450 0.068332 0.040636 255 220 0
0.438631 0.124187 0.048231 255 220 0
0.538176 0.051981 0.075045 255 220 0
0.549601 0.087088 0.018446 255 220 0
0.549505 0.055729 0.081212 255 220 0
0.588407 0.085309 0.035376 255 220 0
0.566537 0.055529 0.071100 255 220 0
0.470832 0.066828 0.037689 255 220 0
0.584821 0.103135 0.095969 255 220 0
0.569474 0.104529 0.097938 255 220 0
0.532384 0.061380 0.086706 255 220 0
0.515314 0.137252 0.054100 255 220 0
0.578066 0.124686 0.037966 255 220 0
0.551350 0.094876 0.018234 255 220 0
0.543170 0.099755 0.017489 255 220 0
0.505535 0.051990 0.046924 255 220 0
0.469295 0.097727 0.021308 255 220 0
0.477646 0.112133 0.022828 255 220 0
0.520995 0.093798 0.016129 255 220 0
0.521864 0.126280 0.074941 255 220 0
0.543225 0.078536 0.095515 255 220 0
0.525897 0.095920 0.092166 255 220 0
0.463575 0.075783 0.064991 255 220 0
0.535860 0.100593 0.093522 255 220 0
0.550990 0.138934 0.045010 255 220 0
0.496451 0.057411 0.038726 255 220 0
0.474067 0.103343 0.020880 255 220 0
0.609164 0.082168 0.063684 255 220 0
0.526092 0.089368 0.092988 255 220 0
0.551062 0.134298 0.036387 255 220 0
0.482927 0.119666 0.026315 255 220 0
0.496491 0.057235 0.039025 255 220 0
0.502175 0.122909 0.070900 255 220 0
0.504638 0.060726 0.079157 255 220 0
0.441881 0.113198 0.031856 255 220 0
0.590410 0.081934 0.093094 255 220 0
0.536020 0.049562 0.051032 255 220 0
0.559349 0.059646 0.084101 255 220 0
0.531956 0.128771 0.028565 255 220 0
0.568477 0.133954 0.042201 255 220 0
0.451033 0.096411 0.027385 255 220 0
0.437316 0.093416 0.050654 255 220 0
0.435680 0.111530 0.037844 255 220 0
0.541874 0.059529 0.032514 255 220 0
0.570498 0.084012 0.025231 255 220 0
0.581552 0.101707 0.097296 255 220 0
0.567134 0.074010 0.027917 255 220 0
0.437886 0.113378 0.035152 255 220 0
0.560070 0.085837 0.098938 255 220 0
0.536123 0.132549 0.072796 255 220 0
0.498551 0.095329 0.017365 255 220 0
0.456865 0.130064 0.046141 255 220 0
0.584105 0.075622 0.036583 255 220 0
0.538379 0.073397 0.093337 255 220 0
0.444415 0.120426 0.033320 255 220 0
0.442196 0.123539 0.055091 255 220 0
0.451588 0.080894 0.058555 255 220 0
0.447586 0.112792 0.062752 255 220 0
0.574024 0.089603 0.025967 255 220 0
0.464905 0.087194 0.024429 255 220 0
0.519610 0.070578 0.021926 255 220 0
0.447077 0.128499 0.042716 255 220 0
0.476049 0.126839 0.034329 255 220 0
0.590424 0.097417 0.094934 255 220 0
0.580995 0.063845 0.048873 255 220 0
0.497322 0.114881 0.022326 255 220 0
0.500224 0.063792 0.028697 255 220 0
0.539973 0.139942 0.058951 255 220 0
0.554986 0.052234 0.071001 255 220 0
0.491283 0.110845 0.075416 255 220 0
0.540576 0.098890 0.017149 255 220 0
0.573044 0.129416 0.039291 255 220 0
0.611416 0.086364 0.067303 255 220 0
0.490515 0.081870 0.019931 255 220 0
0.612142 0.090801 0.071721 255 220 0
0.569788 0.103663 0.098195 255 220 0
0.509923 0.100537 0.017279 255 220 0
0.554182 0.135104 0.072716 255 220 0
0.610786 0.094038 0.055898 255 220 0
0.503470 0.060339 0.032058 255 220 0
0.502473 0.057744 0.076175 255 220 0
0.542724 0.057915 0.084556 255 220 0
0.563836 0.134304 0.073865 255 220 0
0.473452 0.130450 0.045313 255 220 0
0.543673 0.115471 0.089447 255 220 0
0.483469 0.128569 0.057625 255 220 0
0.517869 0.109944 0.019318 255 220 0
0.607516 0.081692 0.075156 255 220 0
0.580043 0.127189 0.080019 255 220 0
0.542648 0.130689 0.030851 255 220 0
0.584952 0.130503 0.051015 255 220 0
0.506388 0.127377 0.068111 255 220 0
0.578991 0.059710 0.059731 255 220 0
0.478132 0.127374 0.034923 255 220 0
0.575076 0.079355 0.028990 255 220 0
0.538206 0.075503 0.019923 255 220 0
0.518015 0.127985 0.028955 255 220 0
0.536530 0.056805 0.082957 255 220 0
0.498264 0.078181 0.083782 255 220 0
0.483285 0.130694 0.042304 255 220 0
0.589069 0.129630 0.067374 255 220 0
0.451106 0.105575 0.064723 255 220 0
0.468373 0.126492 0.034544 255 220 0
0.473641 0.093851 0.073940 255 220 0
0.502645 0.079494 0.085498 255 220 0
0.545307 0.049369 0.062459 255 220 0
0.540710 0.064013 0.089578 255 220 0
0.519609 0.067297 0.086874 255 220 0
0.600949 0.119554 0.056481 255 220 0
0.516883 0.053598 0.040808 255 220 0
0.523092 0.064486 0.086533 255 220 0
0.435609 0.113965 0.038606 255 220 0
0.540070 0.089362 0.096270 255 220 0
0.539643 0.077034 0.019493 255 220 0
0.450158 0.081466 0.057585 255 220 0
0.593378 0.080807 0.090941 255 220 0
0.528554 0.086742 0.093556 255 220 0
0.445686 0.109572 0.029213 255 220 0
0.508552 0.059627 0.032140 255 220 0
0.601992 0.118674 0.070200 255 220 0
0.611384 0.095609 0.075980 255 220 0
0.583662 0.124164 0.041267 255 220 0
0.602084 0.081040 0.050560 255 220 0
0.471602 0.079091 0.025667 255 220 0
0.537727 0.112813 0.089362 255 220 0
0.593201 0.074840 0.045920 255 220 0
0.567710 0.063233 0.037950 255 220 0
0.510931 0.077019 0.019250 255 220 0
0.432933 0.109834 0.048614 255 220 0
0.542521 0.124356 0.083035 255 220 0
0.460136 0.070677 0.040332 255 220 0
0.571920 0.118527 0.030368 255 220 0
0.515970 0.113399 0.082576 255 220 0
0.553169 0.071323 0.024889 255 220 0
0.501604 0.058577 0.035003 255 220 0
0.528833 0.131216 0.030939 255 220 0
0.532207 0.094066 0.094222 255 220 0
0.509028 0.068044 0.084201 255 220 0
0.453511 0.083696 0.062029 255 220 0
0.503865 0.049582 0.056827 255 220 0
0.591619 0.083956 0.038157 255 220 0
0.506193 0.054072 0.041849 255 220 0
0.484399 0.058896 0.042788 255 220 0
0.509397 0.050087 0.068875 255 220 0
0.558867 0.104801 0.020678 255 220 0
0.534438 0.073219 0.020613 255 220 0
0.482069 0.130164 0.040651 255 220 0
0.530451 0.070968 0.021624 255 220 0
0.591470 0.128776 0.064548 255 220 0
0.594474 0.080602 0.042314 255 220 0
0.515653 0.135956 0.058906 255 220 0
0.527856 0.126773 0.076513 255 220 0
0.594380 0.101204 0.092099 255 220 0
0.507650 0.091188 0.016640 255 220 0
0.496614 0.064493 0.028742 255 220 0
0.601125 0.115335 0.078515 255 220 0
0.503311 0.060926 0.078786 255 220 0
0.608236 0.104666 0.078909 255 220 0
0.494201 0.090554 0.082418 255 220 0
0.434388 0.101314 0.050613 255 220 0
0.495238 0.125624 0.065674 255 220 0
0.482441 0.129682 0.054903 255 220 0
0.482670 0.058405 0.064350 255 220 0
0.510999 0.108703 0.019219 255 220 0
0.560614 0.124555 0.029685 255 220 0
0.538908 0.110166 0.019483 255 220 0
0.519173 0.062564 0.084579 255 220 0
0.529917 0.128891 0.075084 255 220 0
0.580187 0.060632 0.057585 255 220 0
0.462828 0.070990 0.037473 255 220 0
0.598042 0.119459 0.076626 255 220 0
0.593155 0.124957 0.073509 255 220 0
0.586090 0.109632 0.092839 255 220 0
0.514614 0.098165 0.016718 255 220 0
0.525029 0.105648 0.088765 255 220 0
0.472604 0.125025 0.060252 255 220 0
0.497433 0.085680 0.018098 255 220 0
0.503063 0.063799 0.028175 255 220 0
0.577108 0.133298 0.047989 255 220 0
0.440019 0.123970 0.052149 255 220 0
0.495262 0.116470 0.073521 255 220 0
0.460927 0.115191 0.064681 255 220 0
0.507845 0.123167 0.026373 255 220 0
0.500860 0.050121 0.056889 255 220 0
0.513559 0.135057 0.059832 255 220 0
0.569750 0.080868 0.097998 255 220 0
0.527853 0.053438 0.077929 255 220 0
0.578221 0.107370 0.028594 255 220 0
0.607215 0.103029 0.081184 255 220 0
0.530959 0.049559 0.050203 255 220 0
0.583088 0.083471 0.096561 255 220 0
0.555849 0.098643 0.098300 255 220 0
0.521677 0.096318 0.016296 255 220 0
0.527714 0.067971 0.089213 255 220 0
0.596347 0.075510 0.049030 255 220 0
0.557302 0.105315 0.020450 255 220 0
0.536697 0.114505 0.088228 255 220 0
0.477308 0.065581 0.035288 255 220 0
0.608536 0.092977 0.052278 255 220 0
0.567821 0.057633 0.048351 255 220 0
0.525762 0.070077 0.022113 255 220 0
0.598438 0.070137 0.066730 255 220 0
0.595954 0.089913 0.039828 255 220 0
0.601454 0.107607 0.046000 255 220 0
0.587632 0.125654 0.077814 255 220 0
0.441861 0.119992 0.034524 255 220 0
0.567677 0.132042 0.039240 255 220 0
0.489770 0.103805 0.019236 255 220 0
0.496925 0.100577 0.081073 255 220 0
0.456926 0.078004 0.061230 255 220 0
0.573988 0.057419 0.061028 255 220 0
0.573343 0.065605 0.038522 255 220 0
0.531384 0.117175 0.085183 255 220 0
0.558502 0.100015 0.098377 255 220 0
0.548951 0.138623 0.064905 255 220 0
0.521480 0.136061 0.038821 255 220 0
0.580131 0.101646 0.097647 255 220 0
0.472885 0.103078 0.021006 255 220 0
0.597854 0.103437 0.041254 255 220 0
0.575583 0.059330 0.073315 255 220 0
0.452164 0.073741 0.045351 255 220 0
0.505250 0.056352 0.037702 255 220 0
0.511368 0.048505 0.058138 255 220 0
0.489545 0.114686 0.022835 255 220 0
0.500507 0.095491 0.083783 255 220 0
0.579859 0.069240 0.039011 255 220 0
0.581180 0.114029 0.091808 255 220 0
0.459385 0.129957 0.043546 255 220 0
0.488721 0.117872 0.024604 255 220 0
0.511539 0.133614 0.037696 255 220 0
0.465387 0.109140 0.068003 255 220 0
0.523357 0.076055 0.019109 255 220 0
0.515030 0.097836 0.016663 255 220 0
0.526435 0.084742 0.092888 255 220 0
0.513782 0.077348 0.088440 255 220 0
0.494345 0.060114 0.074264 255 220 0
0.555285 0.121036 0.088078 255 220 0
0.504208 0.134127 0.055735 255 220 0
0.493629 0.059288 0.036626 255 220 0
0.585583 0.112227 0.034971 255 220 0
0.575800 0.058738 0.056864 255 220 0
0.510952 0.110754 0.019883 255 220 0
0.585522 0.080108 0.094547 255 220 0
0.521425 0.065921 0.086771 255 220 0
0.454167 0.128792 0.051524 255 220 0
0.588502 0.094994 0.095989 255 220 0
0.466297 0.077345 0.028886 255 220 0
0.580559 0.134338 0.057970 255 220 0
0.574440 0.112614 0.094013 255 220 0
0.556938 0.086377 0.098751 255 220 0
0.498318 0.103861 0.080605 255 220 0
0.498844 0.051182 0.064556 255 220 0
0.558059 0.079989 0.097593 255 220 0
0.508714 0.051309 0.047717 255 220 0
0.468191 0.120097 0.063538 255 220 0
0.584657 0.099303 0.096906 255 220 0
0.534222 0.105402 0.091419 255 220 0
0.502127 0.133073 0.040849 255 220 0
0.507876 0.058446 0.033865 255 220 0
0.516165 0.064590 0.084779 255 220 0
0.556703 0.059168 0.084291 255 220 0
0.587519 0.128061 0.073776 255 220 0
0.592534 0.075111 0.044841 255 220 0
0.503643 0.087312 0.086265 255 220 0
0.466705 0.103162 0.022038 255 220 0
0.558502 0.088121 0.020109 255 220 0
0.446436 0.099482 0.063100 255 220 0
0.582180 0.090109 0.097965 255 220 0
0.506566 0.132088 0.036825 255 220 0
0.461309 0.103148 0.023211 255 220 0
0.580915 0.095359 0.028944 255 220 0
0.475606 0.130596 0.047450 255 220 0
0.611219 0.087663 0.072363 255 220 0
0.534482 0.116918 0.021724 255 220 0
0.517496 0.054753 0.038547 255 220 0
0.596812 0.104610 0.040623 255 220 0
0.447532 0.126680 0.038034 255 220 0
0.479724 0.083580 0.021511 255 220 0
0.493618 0.105498 0.019300 255 220 0
0.539274 0.138132 0.064279 255 220 0
0.512938 0.110581 0.083034 255 220 0
0.608503 0.086240 0.078302 255 220 0
0.527132 0.078604 0.092183 255 220 0
0.468130 0.108473 0.022799 255 220 0
0.541759 0.059461 0.086140 255 220 0
0.447083 0.128795 0.044522 255 220 0
0.453210 0.079738 0.035341 255 220 0
0.485588 0.063508 0.071919 255 220 0
0.594072 0.076987 0.044715 255 220 0
0.606230 0.087751 0.051149 255 220 0
0.561319 0.061569 0.036575 255 220 0
0.450031 0.127470 0.038356 255 220 0
0.551997 0.058639 0.084691 255 220 0
0.574124 0.126172 0.083161 255 220 0
0.452881 0.076066 0.055400 255 220 0
0.481623 0.124635 0.062491 255 220 0
0.474936 0.116048 0.024896 255 220 0
0.471965 0.061746 0.048621 255 220 0
0.550805 0.053213 0.045739 255 220 0
0.459160 0.108481 0.024474 255 220 0
0.559524 0.108065 0.021594 255 220 0
0.572721 0.060642 0.079236 255 220 0
0.611793 0.100688 0.059858 255 220 0
0.547380 0.120214 0.024222 255 220 0
0.480825 0.116026 0.069227 255 220 0
0.471933 0.125878 0.033383 255 220 0
0.592701 0.123267 0.076980 255 220 0
0.446483 0.100930 0.063267 255 220 0
0.482145 0.106917 0.074011 255 220 0
0.556985 0.064118 0.031793 255 220 0
0.546322 0.068506 0.025019 255 220 0
0.450617 0.075277 0.044449 255 220 0
0.544029 0.138755 0.063828 255 220 0
0.519802 0.067475 0.086997 255 220 0
0.546489 0.050462 0.052038 255 220 0
0.475465 0.126311 0.059263 255 220 0
0.436885 0.096555 0.052594 255 220 0
0.536352 0.078381 0.094211 255 220 0
0.548459 0.072330 0.023088 255 220 0
0.581644 0.100580 0.029297 255 220 0
0.553732 0.129507 0.080244 255 220 0
0.517729 0.070864 0.021815 255 220 0
0.538015 0.051939 0.044291 255 220 0
0.457404 0.128695 0.039320 255 220 0
0.539333 0.064922 0.089971 255 220 0
0.580358 0.070607 0.037918 255 220 0
0.561119 0.091492 0.020504 255 220 0
0.565608 0.104430 0.022422 255 220 0
0.468767 0.068043 0.063128 255 220 0
0.493018 0.090361 0.017983 255 220 0
0.504007 0.055280 0.074568 255 220 0
0.542427 0.051000 0.047936 255 220 0
0.499444 0.082968 0.084790 255 220 0
0.481017 0.083542 0.021222 255 220 0
0.553303 0.112388 0.092965 255 220 0
0.466783 0.082281 0.070084 255 220 0
0.554832 0.051877 0.069667 255 220 0
0.522393 0.135609 0.063251 255 220 0
0.498506 0.090951 0.017377 255 220 0
0.480999 0.096662 0.019361 255 220 0
0.577811 0.085080 0.098193 255 220 0
0.569954 0.113991 0.027066 255 220 0
0.581331 0.129943 0.046079 255 220 0
