ply
format ascii 1.0
element vertex 1024
property float x
property float y
property float z
property uchar red
property uchar green
property uchar blue
end_header
0.552019 0.181806 0.343945 255 220 0
0.475700 0.157213 0.298335 255 220 0
0.470233 0.108581 0.235730 255 220 0
0.491380 0.098281 0.306247 255 220 0
0.548732 0.174896 0.281970 255 220 0
0.498029 0.128865 0.326604 255 220 0
0.538978 0.171759 0.273308 255 220 0
0.475956 0.164172 0.290135 255 220 0
0.531869 0.176262 0.273891 255 220 0
0.443886 0.133035 0.252325 255 220 0
0.513709 0.145445 0.340962 255 220 0
0.517595 0.088107 0.279442 255 220 0
0.500267 0.153156 0.330452 255 220 0
0.537300 0.124364 0.337261 255 220 0
0.493454 0.081111 0.284589 255 220 0
0.435302 0.117061 0.265911 255 220 0
0.538873 0.195835 0.306385 255 220 0
0.540176 0.181045 0.344174 255 220 0
0.485309 0.166789 0.306809 255 220 0
0.458833 0.146172 0.267690 255 220 0
0.515574 0.193786 0.308746 255 220 0
0.569148 0.144400 0.328420 255 220 0
0.523423 0.092225 0.279576 255 220 0
0.555501 0.170769 0.348058 255 220 0
0.447035 0.107817 0.234371 255 220 0
0.507234 0.153509 0.254839 255 220 0
0.546073 0.185805 0.341079 255 220 0
0.561762 0.186130 0.333992 255 220 0
0.490949 0.179873 0.290890 255 220 0
0.572210 0.152752 0.329668 255 220 0
0.547831 0.149410 0.349705 255 220 0
0.494552 0.128336 0.323745 255 220 0
0.475391 0.085240 0.282208 255 220 0
0.442669 0.129194 0.245544 255 220 0
0.502467 0.133554 0.246169 255 220 0
0.482897 0.148342 0.312662 255 220 0
0.545080 0.159921 0.270631 255 220 0
0.551194 0.169311 0.349271 255 220 0
0.485797 0.162378 0.262402 255 220 0
0.500762 0.092364 0.304865 255 220 0
0.528809 0.140562 0.256472 255 220 0
0.553469 0.128374 0.278851 255 220 0
0.522052 0.176002 0.340508 255 220 0
0.551032 0.113796 0.312377 255 220 0
0.565532 0.152200 0.341238 255 220 0
0.457727 0.120078 0.286903 255 220 0
0.484778 0.174176 0.293042 255 220 0
0.511753 0.160552 0.339359 255 220 0
0.561125 0.184066 0.337886 255 220 0
0.572185 0.149987 0.312630 255 220 0
0.484962 0.169400 0.303440 255 220 0
0.531303 0.184956 0.338684 255 220 0
0.464882 0.130575 0.293991 255 220 0
0.443078 0.124293 0.271149 255 220 0
0.445418 0.107207 0.273944 255 220 0
0.432013 0.109133 0.264045 255 220 0
0.566024 0.168743 0.343096 255 220 0
0.449023 0.112311 0.234505 255 220 0
0.448929 0.124853 0.277092 255 220 0
0.474925 0.141422 0.247214 255 220 0
0.574784 0.162681 0.325203 255 220 0
0.484983 0.169704 0.303098 255 220 0
0.512321 0.086727 0.274359 255 220 0
0.524095 0.116282 0.255675 255 220 0
0.461921 0.149357 0.270079 255 220 0
0.499516 0.176376 0.272192 255 220 0
0.463757 0.119952 0.236244 255 220 0
0.505669 0.187586 0.311758 255 220 0
0.570790 0.144690 0.319090 255 220 0
0.559950 0.165482 0.347369 255 220 0
0.522868 0.126799 0.252918 255 220 0
0.535124 0.103448 0.277418 255 220 0
0.524305 0.149904 0.347001 255 220 0
0.567291 0.137667 0.319983 255 220 0
0.441623 0.103166 0.269973 255 220 0
0.485448 0.145719 0.249331 255 220 0
0.560176 0.125516 0.315371 255 220 0
0.454658 0.115420 0.283597 255 220 0
0.506461 0.115541 0.325363 255 220 0
0.489490 0.117235 0.240237 255 220 0
0.488273 0.174676 0.277421 255 220 0
0.464332 0.146980 0.285896 255 220 0
0.548237 0.194822 0.311870 255 220 0
0.528698 0.191365 0.291692 255 220 0
0.435696 0.118228 0.265903 255 220 0
0.487053 0.156413 0.315453 255 220 0
0.504623 0.114096 0.323627 255 220 0
0.536905 0.131757 0.342676 255 220 0
0.483757 0.173690 0.289458 255 220 0
0.475007 0.092944 0.241839 255 220 0
0.554885 0.128462 0.281054 255 220 0
0.482240 0.152039 0.310734 255 220 0
0.563295 0.130470 0.301181 255 220 0
0.570972 0.160599 0.336886 255 220 0
0.455871 0.109040 0.234118 255 220 0
0.535361 0.100432 0.283846 255 220 0
0.503489 0.087828 0.300152 255 220 0
0.556155 0.178896 0.292981 255 220 0
0.567475 0.153513 0.294271 255 220 0
0.511259 0.188060 0.286462 255 220 0
0.450339 0.098439 0.274781 255 220 0
0.478797 0.130959 0.309471 255 220 0
0.546324 0.115461 0.323738 255 220 0
0.522218 0.134219 0.341541 255 220 0
0.552473 0.188700 0.302212 255 220 0
0.504150 0.156802 0.256223 255 220 0
0.541883 0.172086 0.348778 255 220 0
0.443733 0.133573 0.255011 255 220 0
0.565229 0.168450 0.296465 255 220 0
0.447871 0.088948 0.264727 255 220 0
0.535916 0.154782 0.263513 255 220 0
0.503075 0.124464 0.328272 255 220 0
0.457408 0.122999 0.286469 255 220 0
0.542372 0.193218 0.301773 255 220 0
0.552528 0.141710 0.345111 255 220 0
0.541570 0.113442 0.325255 255 220 0
0.571056 0.153689 0.333734 255 220 0
0.532038 0.197120 0.313910 255 220 0
0.527270 0.183986 0.337665 255 220 0
0.511604 0.192484 0.306170 255 220 0
0.537607 0.134239 0.344250 255 220 0
0.491907 0.133776 0.322182 255 220 0
0.547579 0.125986 0.272279 255 220 0
0.493242 0.080110 0.270525 255 220 0
0.505259 0.081924 0.279277 255 220 0
0.510336 0.113069 0.325471 255 220 0
0.546620 0.117838 0.326488 255 220 0
0.486333 0.144092 0.317269 255 220 0
0.521567 0.095644 0.269998 255 220 0
0.565769 0.151308 0.340565 255 220 0
0.457768 0.081309 0.255414 255 220 0
0.535060 0.098303 0.299881 255 220 0
0.550418 0.166877 0.278217 255 220 0
0.500956 0.097458 0.249933 255 220 0
0.527336 0.105403 0.264916 255 220 0
0.555118 0.131855 0.334792 255 220 0
0.500167 0.133016 0.329193 255 220 0
0.512436 0.180444 0.274649 255 220 0
0.573565 0.169754 0.330960 255 220 0
0.483986 0.096799 0.300926 255 220 0
0.551750 0.113478 0.296782 255 220 0
0.467141 0.146712 0.254819 255 220 0
0.511341 0.188188 0.319502 255 220 0
0.554119 0.179377 0.291296 255 220 0
0.537205 0.115070 0.267586 255 220 0
0.484170 0.117047 0.238884 255 220 0
0.518117 0.131428 0.338805 255 220 0
0.565856 0.171273 0.299288 255 220 0
0.518968 0.142433 0.253011 255 220 0
0.518569 0.134213 0.340191 255 220 0
0.480728 0.109001 0.238133 255 220 0
0.500355 0.164300 0.328064 255 220 0
0.500198 0.114764 0.321814 255 220 0
0.475196 0.143944 0.304069 255 220 0
0.478219 0.084434 0.282930 255 220 0
0.462403 0.149836 0.269956 255 220 0
0.494065 0.146175 0.249857 255 220 0
0.471360 0.101180 0.294321 255 220 0
0.500047 0.102992 0.313935 255 220 0
0.555434 0.117622 0.301774 255 220 0
0.567458 0.149422 0.337303 255 220 0
0.565578 0.185766 0.326827 255 220 0
0.558485 0.122190 0.311054 255 220 0
0.528023 0.167800 0.347172 255 220 0
0.441067 0.114390 0.235850 255 220 0
0.561120 0.185554 0.335766 255 220 0
0.455690 0.095991 0.237274 255 220 0
0.466757 0.103868 0.235723 255 220 0
0.435888 0.101510 0.265081 255 220 0
0.431750 0.112053 0.239630 255 220 0
0.478889 0.167776 0.291176 255 220 0
0.555541 0.192100 0.315997 255 220 0
0.477833 0.161672 0.298267 255 220 0
0.524126 0.195632 0.303657 255 220 0
0.467418 0.154800 0.282244 255 220 0
0.426688 0.105532 0.250594 255 220 0
0.532751 0.131576 0.342472 255 220 0
0.535765 0.101530 0.282123 255 220 0
0.571807 0.169968 0.335297 255 220 0
0.550393 0.191563 0.305289 255 220 0
0.546611 0.114867 0.279921 255 220 0
0.562961 0.145854 0.340356 255 220 0
0.468885 0.108238 0.235512 255 220 0
0.470557 0.120285 0.236943 255 220 0
0.499071 0.162991 0.327201 255 220 0
0.559085 0.127726 0.290375 255 220 0
0.437873 0.096416 0.263817 255 220 0
0.479269 0.079448 0.271637 255 220 0
0.456004 0.099329 0.279983 255 220 0
0.435235 0.126792 0.249440 255 220 0
0.552954 0.124570 0.328300 255 220 0
0.491016 0.163333 0.317536 255 220 0
0.463910 0.128974 0.240124 255 220 0
0.501577 0.081122 0.284315 255 220 0
0.491885 0.151919 0.322334 255 220 0
0.509651 0.130258 0.247491 255 220 0
0.467782 0.097826 0.289392 255 220 0
0.530544 0.120810 0.258735 255 220 0
0.544930 0.171921 0.276896 255 220 0
0.568534 0.150877 0.336621 255 220 0
0.475194 0.154994 0.260346 255 220 0
0.496972 0.172144 0.268032 255 220 0
0.512414 0.117830 0.248571 255 220 0
0.484806 0.108661 0.239297 255 220 0
0.494602 0.163565 0.321937 255 220 0
0.547428 0.195435 0.320335 255 220 0
0.531680 0.158944 0.349949 255 220 0
0.513054 0.183418 0.278356 255 220 0
0.531827 0.095550 0.296714 255 220 0
0.551563 0.119103 0.283762 255 220 0
0.505624 0.184510 0.282322 255 220 0
0.573777 0.155483 0.317805 255 220 0
0.544235 0.158193 0.269371 255 220 0
0.545000 0.182735 0.343594 255 220 0
0.521189 0.179636 0.274351 255 220 0
0.544641 0.194100 0.305500 255 220 0
0.517716 0.151645 0.255901 255 220 0
0.475417 0.113458 0.302682 255 220 0
0.505645 0.091288 0.305146 255 220 0
0.489710 0.151733 0.252961 255 220 0
0.551823 0.123079 0.327697 255 220 0
0.433695 0.116205 0.264654 255 220 0
0.476124 0.084836 0.249156 255 220 0
0.560077 0.124163 0.308388 255 220 0
0.462773 0.092691 0.281412 255 220 0
0.564798 0.171118 0.343615 255 220 0
0.467329 0.142028 0.249355 255 220 0
0.482233 0.079468 0.273531 255 220 0
0.554447 0.133922 0.277696 255 220 0
0.562634 0.187684 0.327940 255 220 0
0.515725 0.154641 0.256786 255 220 0
0.542663 0.104299 0.301956 255 220 0
0.552510 0.120865 0.283550 255 220 0
0.512944 0.109699 0.324094 255 220 0
0.477930 0.144723 0.249224 255 220 0
0.479933 0.155937 0.305780 255 220 0
0.520242 0.135132 0.341222 255 220 0
0.532597 0.169982 0.269517 255 220 0
0.537782 0.196040 0.323444 255 220 0
0.496633 0.135074 0.245401 255 220 0
0.495192 0.089815 0.299847 255 220 0
0.517040 0.101385 0.317944 255 220 0
0.501483 0.087241 0.298808 255 220 0
0.440391 0.129156 0.247353 255 220 0
0.515175 0.138399 0.340192 255 220 0
0.558916 0.170423 0.289196 255 220 0
0.571983 0.171689 0.312593 255 220 0
0.564654 0.168743 0.344234 255 220 0
0.506114 0.145626 0.335316 255 220 0
0.499442 0.082686 0.290060 255 220 0
0.518586 0.194613 0.310449 255 220 0
0.473504 0.079517 0.267665 255 220 0
0.439119 0.128732 0.247929 255 220 0
0.466495 0.097430 0.288051 255 220 0
0.531531 0.187131 0.336674 255 220 0
0.489045 0.159115 0.258407 255 220 0
0.530374 0.179151 0.342688 255 220 0
0.444068 0.086836 0.251202 255 220 0
0.538541 0.103027 0.308883 255 220 0
0.464298 0.130851 0.241191 255 220 0
0.564542 0.134862 0.297679 255 220 0
0.528931 0.152025 0.259490 255 220 0
0.436205 0.121818 0.264778 255 220 0
0.549171 0.174077 0.281693 255 220 0
0.557484 0.126163 0.288235 255 220 0
0.565042 0.133027 0.305020 255 220 0
0.531375 0.186588 0.337171 255 220 0
0.513417 0.098183 0.258135 255 220 0
0.554564 0.165793 0.281630 255 220 0
0.524277 0.105040 0.321916 255 220 0
0.542903 0.191628 0.299020 255 220 0
0.464282 0.101177 0.235983 255 220 0
0.537763 0.174106 0.274450 255 220 0
0.470457 0.085592 0.246517 255 220 0
0.487136 0.100374 0.305585 255 220 0
0.464815 0.134254 0.243406 255 220 0
0.479013 0.125857 0.309014 255 220 0
0.501093 0.084839 0.265766 255 220 0
0.529025 0.121386 0.257469 255 220 0
0.503571 0.151569 0.333404 255 220 0
0.551027 0.148994 0.272149 255 220 0
0.559351 0.123047 0.304548 255 220 0
0.535350 0.125474 0.260842 255 220 0
0.501314 0.153109 0.331397 255 220 0
0.482909 0.079243 0.264639 255 220 0
0.489494 0.135969 0.244651 255 220 0
0.500571 0.159813 0.329692 255 220 0
0.478567 0.122903 0.238744 255 220 0
0.520796 0.135662 0.252299 255 220 0
0.454337 0.140761 0.272102 255 220 0
0.509310 0.086886 0.270157 255 220 0
0.566395 0.173409 0.341397 255 220 0
0.495163 0.080325 0.282088 255 220 0
0.457955 0.085730 0.268850 255 220 0
0.485366 0.119022 0.313560 255 220 0
0.532437 0.105563 0.320183 255 220 0
0.528236 0.163878 0.264481 255 220 0
0.570602 0.172775 0.309797 255 220 0
0.486982 0.088271 0.250398 255 220 0
0.515652 0.189151 0.287089 255 220 0
0.454771 0.085328 0.265052 255 220 0
0.489614 0.159317 0.317606 255 220 0
0.470351 0.116655 0.298607 255 220 0
0.446528 0.135905 0.260119 255 220 0
0.485578 0.173798 0.279470 255 220 0
0.512103 0.152921 0.255292 255 220 0
0.506001 0.159393 0.334793 255 220 0
0.563473 0.139515 0.289980 255 220 0
0.559624 0.124282 0.313553 255 220 0
0.571825 0.160168 0.335226 255 220 0
0.530934 0.128944 0.257194 255 220 0
0.535697 0.107321 0.272912 255 220 0
0.533815 0.146287 0.348905 255 220 0
0.536301 0.099929 0.287742 255 220 0
0.542003 0.123542 0.335220 255 220 0
0.569439 0.174406 0.337139 255 220 0
0.565163 0.134825 0.321898 255 220 0
0.451551 0.100331 0.276667 255 220 0
0.548350 0.188922 0.337173 255 220 0
0.511422 0.095866 0.311451 255 220 0
0.509563 0.191751 0.302087 255 220 0
0.516711 0.192754 0.315879 255 220 0
0.492106 0.163402 0.261140 255 220 0
0.551879 0.126344 0.277733 255 220 0
0.510275 0.083740 0.289970 255 220 0
0.477655 0.138974 0.245446 255 220 0
0.527178 0.147848 0.257450 255 220 0
0.568774 0.156265 0.297276 255 220 0
0.491313 0.109808 0.314035 255 220 0
0.514958 0.171187 0.266293 255 220 0
0.570991 0.159744 0.336633 255 220 0
0.567328 0.169321 0.300370 255 220 0
0.525328 0.169386 0.266965 255 220 0
0.454552 0.118545 0.235691 255 220 0
0.527148 0.092096 0.292096 255 220 0
0.495623 0.163873 0.323014 255 220 0
0.465678 0.085083 0.274419 255 220 0
0.506569 0.152290 0.335866 255 220 0
0.429572 0.120884 0.254400 255 220 0
0.463390 0.092398 0.281658 255 220 0
0.462259 0.115073 0.290646 255 220 0
0.554102 0.175228 0.287284 255 220 0
0.545459 0.191996 0.332432 255 220 0
0.436474 0.127575 0.249165 255 220 0
0.515563 0.162676 0.260920 255 220 0
0.484708 0.081356 0.281090 255 220 0
0.439804 0.107683 0.269721 255 220 0
0.489700 0.171025 0.270018 255 220 0
0.503725 0.153310 0.254336 255 220 0
0.553890 0.141206 0.344091 255 220 0
0.553552 0.149727 0.274620 255 220 0
0.530986 0.194411 0.299094 255 220 0
0.550930 0.153098 0.272768 255 220 0
0.562276 0.174750 0.296668 255 220 0
0.490638 0.136975 0.321336 255 220 0
0.499833 0.178742 0.317493 255 220 0
0.488331 0.164877 0.312914 255 220 0
0.455410 0.113022 0.283943 255 220 0
0.518672 0.118569 0.331982 255 220 0
0.536614 0.154436 0.263734 255 220 0
0.504357 0.107061 0.247016 255 220 0
0.452530 0.109527 0.280585 255 220 0
0.509260 0.178649 0.328915 255 220 0
0.555473 0.134215 0.337008 255 220 0
0.516174 0.184600 0.329626 255 220 0
0.512363 0.154046 0.255863 255 220 0
0.516909 0.134171 0.339474 255 220 0
0.555031 0.188345 0.335828 255 220 0
0.470300 0.079709 0.265640 255 220 0
0.479177 0.146482 0.250348 255 220 0
0.491981 0.165927 0.317353 255 220 0
0.538789 0.156664 0.265634 255 220 0
0.476168 0.149350 0.303456 255 220 0
0.504597 0.128551 0.245677 255 220 0
0.526780 0.105609 0.264123 255 220 0
0.487172 0.089600 0.295682 255 220 0
0.568154 0.140272 0.305139 255 220 0
0.563223 0.148366 0.341682 255 220 0
0.538239 0.101730 0.287515 255 220 0
0.487529 0.164583 0.311940 255 220 0
0.547116 0.129553 0.270251 255 220 0
0.511929 0.158399 0.257993 255 220 0
0.529992 0.156432 0.349529 255 220 0
0.507376 0.100157 0.314460 255 220 0
0.448722 0.099086 0.273818 255 220 0
0.550748 0.124588 0.277255 255 220 0
0.521949 0.180081 0.337770 255 220 0
0.477903 0.115477 0.237365 255 220 0
0.491035 0.174150 0.308826 255 220 0
0.466485 0.087814 0.279123 255 220 0
0.535607 0.176226 0.346038 255 220 0
0.480531 0.117792 0.238141 255 220 0
0.465281 0.113540 0.293049 255 220 0
0.499256 0.184157 0.287263 255 220 0
0.558215 0.190823 0.323236 255 220 0
0.523369 0.108778 0.258505 255 220 0
0.514067 0.176467 0.270551 255 220 0
0.493230 0.114689 0.241334 255 220 0
0.518827 0.157572 0.258838 255 220 0
0.441754 0.115043 0.235876 255 220 0
0.566799 0.136052 0.316477 255 220 0
0.517023 0.189960 0.288340 255 220 0
0.506041 0.135718 0.334028 255 220 0
0.483075 0.162661 0.306499 255 220 0
0.539181 0.197120 0.313861 255 220 0
0.561101 0.139144 0.285676 255 220 0
0.517006 0.161334 0.343020 255 220 0
0.488839 0.173702 0.274869 255 220 0
0.538273 0.142291 0.261924 255 220 0
0.567389 0.171763 0.302239 255 220 0
0.497516 0.091735 0.302947 255 220 0
0.550789 0.164408 0.350178 255 220 0
0.560134 0.128294 0.292571 255 220 0
0.468066 0.081551 0.269484 255 220 0
0.544511 0.175993 0.347343 255 220 0
0.563694 0.130054 0.308242 255 220 0
0.519053 0.115178 0.329895 255 220 0
0.527073 0.099832 0.314111 255 220 0
0.436900 0.110169 0.267937 255 220 0
0.539102 0.138033 0.346354 255 220 0
0.515734 0.183104 0.277802 255 220 0
0.462201 0.117495 0.291052 255 220 0
0.504183 0.103691 0.316190 255 220 0
0.527635 0.136948 0.344307 255 220 0
0.482282 0.083569 0.253896 255 220 0
0.475372 0.149675 0.254120 255 220 0
0.480216 0.127997 0.240506 255 220 0
0.514592 0.109307 0.324353 255 220 0
0.472289 0.151800 0.258202 255 220 0
0.488112 0.117562 0.239887 255 220 0
0.487275 0.176731 0.292665 255 220 0
0.492910 0.122088 0.241537 255 220 0
0.558117 0.142323 0.342105 255 220 0
0.438336 0.091184 0.255744 255 220 0
0.540563 0.126544 0.338240 255 220 0
0.522452 0.150714 0.256777 255 220 0
0.485527 0.089091 0.248763 255 220 0
0.539373 0.101490 0.293387 255 220 0
0.446325 0.108601 0.274989 255 220 0
0.486095 0.101624 0.241336 255 220 0
0.494162 0.172017 0.316052 255 220 0
0.427315 0.105724 0.256261 255 220 0
0.487555 0.082587 0.259095 255 220 0
0.541156 0.190973 0.296704 255 220 0
0.543280 0.107398 0.285488 255 220 0
0.467152 0.149318 0.289207 255 220 0
0.468463 0.090136 0.283506 255 220 0
0.499525 0.123920 0.325920 255 220 0
0.469294 0.082239 0.272116 255 220 0
0.493204 0.082593 0.263457 255 220 0
0.532185 0.132308 0.257729 255 220 0
0.526811 0.183077 0.338196 255 220 0
0.492250 0.083924 0.290298 255 220 0
0.482329 0.171703 0.292047 255 220 0
0.438940 0.130156 0.257032 255 220 0
0.513147 0.152010 0.340992 255 220 0
0.518147 0.154773 0.257359 255 220 0
0.543430 0.113013 0.323171 255 220 0
0.465695 0.103532 0.290357 255 220 0
0.461136 0.139919 0.249574 255 220 0
0.538550 0.113508 0.327202 255 220 0
0.484308 0.158031 0.258872 255 220 0
0.434677 0.114787 0.265938 255 220 0
0.503568 0.090886 0.258327 255 220 0
0.543011 0.178835 0.281482 255 220 0
0.482201 0.094412 0.297778 255 220 0
0.509049 0.188890 0.314614 255 220 0
0.543133 0.164224 0.271356 255 220 0
0.488393 0.168590 0.310226 255 220 0
0.567516 0.137994 0.307200 255 220 0
0.522345 0.100568 0.316910 255 220 0
0.538232 0.195900 0.306252 255 220 0
0.523879 0.097029 0.270934 255 220 0
0.528576 0.109154 0.263075 255 220 0
0.534461 0.159375 0.350522 255 220 0
0.461183 0.080424 0.255411 255 220 0
0.514971 0.182231 0.330970 255 220 0
0.485974 0.123276 0.240134 255 220 0
0.456919 0.140119 0.252541 255 220 0
0.525255 0.146347 0.256272 255 220 0
0.462252 0.142940 0.285431 255 220 0
0.465276 0.108757 0.234927 255 220 0
0.566483 0.181100 0.310666 255 220 0
0.537418 0.159294 0.350962 255 220 0
0.542197 0.173782 0.276472 255 220 0
0.567840 0.180537 0.312805 255 220 0
0.532006 0.120458 0.259955 255 220 0
0.497562 0.166821 0.323879 255 220 0
0.543898 0.107032 0.310385 255 220 0
0.467703 0.119892 0.236541 255 220 0
0.495338 0.085827 0.259262 255 220 0
0.469832 0.111432 0.235577 255 220 0
0.541326 0.163832 0.270077 255 220 0
0.483966 0.117087 0.311736 255 220 0
0.504011 0.143536 0.249899 255 220 0
0.468729 0.113946 0.296376 255 220 0
0.471873 0.095250 0.239743 255 220 0
0.552974 0.115789 0.312250 255 220 0
0.513393 0.089623 0.269776 255 220 0
0.573354 0.153046 0.318442 255 220 0
0.459477 0.144904 0.277484 255 220 0
0.512911 0.135735 0.249499 255 220 0
0.494282 0.182030 0.289676 255 220 0
0.552884 0.118702 0.287240 255 220 0
0.474927 0.082167 0.276321 255 220 0
0.509138 0.140951 0.337225 255 220 0
0.511189 0.187471 0.320638 255 220 0
0.549129 0.123098 0.330358 255 220 0
0.453493 0.141384 0.264033 255 220 0
0.427599 0.104160 0.255314 255 220 0
0.491176 0.124108 0.319939 255 220 0
0.461707 0.131167 0.289981 255 220 0
0.561392 0.129270 0.321182 255 220 0
0.492042 0.127723 0.321498 255 220 0
0.518704 0.102371 0.258951 255 220 0
0.538815 0.139665 0.347128 255 220 0
0.474546 0.145562 0.250540 255 220 0
0.444713 0.104394 0.272654 255 220 0
0.539917 0.196183 0.322880 255 220 0
0.490582 0.141610 0.321610 255 220 0
0.437633 0.096478 0.263629 255 220 0
0.476972 0.143239 0.306555 255 220 0
0.568497 0.140826 0.323345 255 220 0
0.446929 0.085419 0.252869 255 220 0
0.560804 0.184575 0.306074 255 220 0
0.444390 0.133383 0.252523 255 220 0
0.548248 0.115221 0.282364 255 220 0
0.537981 0.150668 0.350400 255 220 0
0.537414 0.197265 0.314868 255 220 0
0.457796 0.133099 0.284428 255 220 0
0.481069 0.160641 0.263159 255 220 0
0.572907 0.154233 0.312155 255 220 0
0.433194 0.110400 0.238518 255 220 0
0.504392 0.082594 0.289510 255 220 0
0.545849 0.192637 0.303159 255 220 0
0.528823 0.189283 0.332919 255 220 0
0.529159 0.171317 0.269282 255 220 0
0.570542 0.177234 0.314691 255 220 0
0.557495 0.185167 0.339156 255 220 0
0.504336 0.139223 0.248335 255 220 0
0.466276 0.125478 0.295897 255 220 0
0.496891 0.137673 0.327015 255 220 0
0.459133 0.145008 0.276315 255 220 0
0.496249 0.179430 0.278912 255 220 0
0.569061 0.144238 0.302961 255 220 0
0.557151 0.121494 0.315002 255 220 0
0.464829 0.140167 0.291033 255 220 0
0.547424 0.194002 0.307952 255 220 0
0.486791 0.128693 0.316875 255 220 0
0.444102 0.131768 0.266686 255 220 0
0.451437 0.084704 0.246949 255 220 0
0.449962 0.127340 0.277413 255 220 0
0.431424 0.123145 0.248478 255 220 0
0.478371 0.167745 0.278516 255 220 0
0.540311 0.177776 0.278841 255 220 0
0.565221 0.160878 0.343828 255 220 0
0.566876 0.139740 0.299688 255 220 0
0.433402 0.125351 0.249582 255 220 0
0.492344 0.173935 0.311335 255 220 0
0.486938 0.161443 0.312963 255 220 0
0.524383 0.091779 0.282915 255 220 0
0.451198 0.136741 0.272369 255 220 0
0.567687 0.146482 0.334512 255 220 0
0.488017 0.113963 0.239814 255 220 0
0.521042 0.089916 0.281094 255 220 0
0.507049 0.113290 0.246767 255 220 0
0.447347 0.123664 0.238732 255 220 0
0.456115 0.143375 0.269772 255 220 0
0.474519 0.136897 0.304717 255 220 0
0.481220 0.171029 0.289388 255 220 0
0.551078 0.171731 0.348642 255 220 0
0.456162 0.090390 0.240844 255 220 0
0.451678 0.111183 0.280185 255 220 0
0.526212 0.097199 0.310307 255 220 0
0.460320 0.087428 0.243359 255 220 0
0.521467 0.183053 0.335092 255 220 0
0.469501 0.150336 0.292652 255 220 0
0.539663 0.176982 0.346439 255 220 0
0.546689 0.133824 0.268645 255 220 0
0.568325 0.139864 0.321252 255 220 0
0.549834 0.187774 0.338538 255 220 0
0.542793 0.173830 0.276862 255 220 0
0.495824 0.134996 0.325840 255 220 0
0.514000 0.189750 0.288801 255 220 0
0.566252 0.135585 0.305247 255 220 0
0.550975 0.185312 0.341201 255 220 0
0.528770 0.185520 0.282712 255 220 0
0.453904 0.140019 0.272577 255 220 0
0.563270 0.187790 0.322390 255 220 0
0.471630 0.131342 0.241268 255 220 0
0.458933 0.085118 0.245480 255 220 0
0.516672 0.164994 0.341924 255 220 0
0.445254 0.091705 0.240870 255 220 0
0.550620 0.158415 0.350457 255 220 0
0.498561 0.084673 0.293899 255 220 0
0.506101 0.189721 0.297077 255 220 0
0.572607 0.172507 0.315433 255 220 0
0.529993 0.094112 0.292382 255 220 0
0.465300 0.145146 0.253893 255 220 0
0.438709 0.114944 0.269265 255 220 0
0.564821 0.134486 0.299531 255 220 0
0.516515 0.128970 0.249945 255 220 0
0.533660 0.183093 0.281453 255 220 0
0.492846 0.089218 0.252763 255 220 0
0.519155 0.128792 0.251101 255 220 0
0.461037 0.130928 0.289215 255 220 0
0.549427 0.122800 0.329765 255 220 0
0.498948 0.132039 0.244948 255 220 0
0.540573 0.118172 0.330915 255 220 0
0.554985 0.117641 0.297229 255 220 0
0.553545 0.123936 0.282331 255 220 0
0.488053 0.137877 0.319011 255 220 0
0.542599 0.179412 0.345485 255 220 0
0.566297 0.139530 0.328269 255 220 0
0.509788 0.114671 0.247803 255 220 0
0.520896 0.110675 0.255553 255 220 0
0.426028 0.109455 0.250163 255 220 0
0.489560 0.088583 0.295754 255 220 0
0.532098 0.151005 0.349563 255 220 0
0.494944 0.181300 0.303981 255 220 0
0.489374 0.147527 0.250388 255 220 0
0.437811 0.111659 0.268678 255 220 0
0.539915 0.117339 0.268857 255 220 0
0.505410 0.148943 0.252425 255 220 0
0.445585 0.115639 0.275136 255 220 0
0.510075 0.084396 0.277339 255 220 0
0.498027 0.165525 0.325033 255 220 0
0.549078 0.194680 0.312820 255 220 0
0.510874 0.085513 0.275295 255 220 0
0.574360 0.168694 0.320054 255 220 0
0.530291 0.116114 0.260457 255 220 0
0.571269 0.174182 0.334079 255 220 0
0.513083 0.085679 0.294950 255 220 0
0.462190 0.097848 0.236869 255 220 0
0.474353 0.163192 0.275807 255 220 0
0.541220 0.162538 0.351027 255 220 0
0.456351 0.128095 0.240250 255 220 0
0.476842 0.157138 0.261879 255 220 0
0.521707 0.146087 0.345247 255 220 0
0.464266 0.150458 0.281135 255 220 0
0.553284 0.190852 0.331486 255 220 0
0.551809 0.187096 0.298971 255 220 0
0.475440 0.113967 0.302849 255 220 0
0.527104 0.098461 0.273204 255 220 0
0.530207 0.154266 0.260801 255 220 0
0.478483 0.092437 0.293431 255 220 0
0.502275 0.092040 0.255876 255 220 0
0.477730 0.163720 0.295671 255 220 0
0.500047 0.172307 0.267415 255 220 0
0.568324 0.152216 0.337743 255 220 0
0.546220 0.121324 0.273423 255 220 0
0.478634 0.131947 0.241883 255 220 0
0.431242 0.118705 0.242555 255 220 0
0.469341 0.101719 0.292833 255 220 0
0.442714 0.108461 0.272043 255 220 0
0.545038 0.193556 0.304518 255 220 0
0.570046 0.160334 0.301125 255 220 0
0.569966 0.145402 0.327285 255 220 0
0.524788 0.179525 0.274914 255 220 0
0.495634 0.183391 0.296069 255 220 0
0.489302 0.089366 0.250485 255 220 0
0.455949 0.135007 0.281041 255 220 0
0.529853 0.120234 0.258425 255 220 0
0.505047 0.112427 0.246028 255 220 0
0.463231 0.086175 0.244683 255 220 0
0.563833 0.152686 0.287749 255 220 0
0.520392 0.089675 0.299984 255 220 0
0.545290 0.121685 0.331739 255 220 0
0.502512 0.184274 0.313404 255 220 0
0.564058 0.131793 0.301925 255 220 0
0.494952 0.139654 0.246897 255 220 0
0.526761 0.196503 0.311111 255 220 0
0.435481 0.094606 0.258459 255 220 0
0.534377 0.194500 0.300410 255 220 0
0.563435 0.136567 0.292139 255 220 0
0.444177 0.095341 0.268304 255 220 0
0.561704 0.175151 0.296220 255 220 0
0.528441 0.173607 0.270726 255 220 0
0.525539 0.194854 0.299658 255 220 0
0.550982 0.114804 0.315342 255 220 0
0.537949 0.121185 0.264641 255 220 0
0.567879 0.145574 0.297306 255 220 0
0.426494 0.114232 0.249160 255 220 0
0.534335 0.102353 0.312966 255 220 0
0.540988 0.149240 0.264759 255 220 0
0.538750 0.110144 0.322978 255 220 0
0.565836 0.164839 0.295336 255 220 0
0.554952 0.121197 0.320202 255 220 0
0.487032 0.086616 0.252420 255 220 0
0.533474 0.164649 0.349694 255 220 0
0.520471 0.157203 0.345591 255 220 0
0.520839 0.104491 0.321402 255 220 0
0.474943 0.164509 0.283949 255 220 0
0.534640 0.191048 0.293337 255 220 0
0.537911 0.156598 0.265155 255 220 0
0.529186 0.156399 0.261269 255 220 0
0.518740 0.090967 0.274451 255 220 0
0.473419 0.114600 0.236387 255 220 0
0.470972 0.130527 0.240853 255 220 0
0.516317 0.140003 0.251544 255 220 0
0.479484 0.154573 0.305818 255 220 0
0.516354 0.122446 0.333525 255 220 0
0.494399 0.128179 0.323585 255 220 0
0.467667 0.084283 0.274732 255 220 0
0.498799 0.137023 0.328621 255 220 0
0.503798 0.186812 0.289270 255 220 0
0.511414 0.092316 0.263333 255 220 0
0.473936 0.121833 0.237770 255 220 0
0.574205 0.167294 0.329483 255 220 0
0.498038 0.122739 0.324487 255 220 0
0.509276 0.184885 0.281388 255 220 0
0.469518 0.138768 0.246025 255 220 0
0.511449 0.092130 0.263626 255 220 0
0.467867 0.142189 0.294547 255 220 0
0.502715 0.090792 0.303764 255 220 0
0.440498 0.110440 0.235412 255 220 0
0.550762 0.150863 0.349412 255 220 0
0.541800 0.104331 0.289999 255 220 0
0.543001 0.117979 0.329392 255 220 0
0.500546 0.171849 0.266874 255 220 0
0.520738 0.192637 0.293459 255 220 0
0.458454 0.102508 0.234982 255 220 0
0.442362 0.087802 0.251211 255 220 0
0.434857 0.104499 0.238570 255 220 0
0.546443 0.119553 0.275057 255 220 0
0.556331 0.156400 0.279094 255 220 0
0.531402 0.161456 0.349676 255 220 0
0.558665 0.145844 0.280384 255 220 0
0.436324 0.107760 0.236915 255 220 0
0.523773 0.136668 0.343090 255 220 0
0.487331 0.167756 0.309260 255 220 0
0.498119 0.129048 0.244031 255 220 0
0.437546 0.129198 0.254187 255 220 0
0.567757 0.154354 0.294896 255 220 0
0.516344 0.116119 0.329703 255 220 0
0.437796 0.117400 0.237663 255 220 0
0.427353 0.114140 0.256870 255 220 0
0.457765 0.083459 0.264126 255 220 0
0.435118 0.106573 0.266127 255 220 0
0.555549 0.162702 0.281073 255 220 0
0.475145 0.102969 0.237688 255 220 0
0.526720 0.119007 0.256602 255 220 0
0.432161 0.123434 0.247276 255 220 0
0.457649 0.139279 0.250701 255 220 0
0.541308 0.163166 0.350955 255 220 0
0.568219 0.140435 0.305164 255 220 0
0.484394 0.143358 0.247933 255 220 0
0.513820 0.101687 0.255463 255 220 0
0.490440 0.178808 0.297887 255 220 0
0.548162 0.112370 0.315700 255 220 0
0.465119 0.125545 0.294651 255 220 0
0.527835 0.154382 0.259966 255 220 0
0.527716 0.191969 0.292577 255 220 0
0.572337 0.171161 0.333646 255 220 0
0.498950 0.113196 0.243447 255 220 0
0.568924 0.174243 0.337956 255 220 0
0.521122 0.156605 0.345958 255 220 0
0.503736 0.139386 0.248273 255 220 0
0.499509 0.179479 0.316109 255 220 0
0.571124 0.179539 0.322797 255 220 0
0.517168 0.099870 0.259850 255 220 0
0.503749 0.087830 0.300210 255 220 0
0.531312 0.107615 0.323432 255 220 0
0.506878 0.183718 0.320893 255 220 0
0.450097 0.138521 0.259801 255 220 0
0.497469 0.154240 0.327711 255 220 0
0.454777 0.139692 0.275038 255 220 0
0.503682 0.150891 0.253115 255 220 0
0.569555 0.163586 0.339441 255 220 0
0.521203 0.185208 0.332884 255 220 0
0.506775 0.178627 0.273079 255 220 0
0.532311 0.196705 0.307970 255 220 0
0.469378 0.148686 0.293549 255 220 0
0.565594 0.133671 0.314457 255 220 0
0.458722 0.140701 0.252044 255 220 0
0.561246 0.154222 0.284374 255 220 0
0.538562 0.133368 0.261858 255 220 0
0.490360 0.163701 0.261877 255 220 0
0.527790 0.103747 0.319584 255 220 0
0.486420 0.100717 0.305399 255 220 0
0.458337 0.144594 0.260805 255 220 0
0.530666 0.194702 0.324660 255 220 0
0.441277 0.102114 0.269375 255 220 0
0.451991 0.134864 0.247949 255 220 0
0.462030 0.102543 0.286676 255 220 0
0.488421 0.103760 0.308654 255 220 0
0.545247 0.106686 0.304121 255 220 0
0.524686 0.110470 0.327229 255 220 0
0.507761 0.102504 0.316580 255 220 0
0.548894 0.195086 0.319284 255 220 0
0.528338 0.099626 0.273157 255 220 0
0.512108 0.102128 0.317634 255 220 0
0.433162 0.106294 0.239221 255 220 0
0.507528 0.129477 0.332895 255 220 0
0.538906 0.135478 0.261998 255 220 0
0.456670 0.083373 0.262674 255 220 0
0.554337 0.151978 0.348579 255 220 0
0.501217 0.121777 0.325986 255 220 0
0.446293 0.110056 0.234475 255 220 0
0.521381 0.101975 0.261888 255 220 0
0.545783 0.192003 0.332356 255 220 0
0.564230 0.176873 0.341546 255 220 0
0.538099 0.192898 0.298542 255 220 0
0.573724 0.165392 0.314657 255 220 0
0.484441 0.099631 0.241492 255 220 0
0.494536 0.148915 0.325373 255 220 0
0.572068 0.156569 0.307022 255 220 0
0.562057 0.135185 0.289977 255 220 0
0.517343 0.120234 0.250726 255 220 0
0.430302 0.099356 0.247471 255 220 0
0.493566 0.162270 0.321258 255 220 0
0.475913 0.083514 0.250703 255 220 0
0.535973 0.184346 0.284023 255 220 0
0.479973 0.139257 0.310732 255 220 0
0.550647 0.136852 0.272243 255 220 0
0.515826 0.096807 0.261867 255 220 0
0.496029 0.171685 0.267838 255 220 0
0.499560 0.129582 0.327930 255 220 0
0.500212 0.098052 0.310033 255 220 0
0.456494 0.086039 0.268043 255 220 0
0.515684 0.085998 0.282974 255 220 0
0.568141 0.164848 0.299153 255 220 0
0.519671 0.094103 0.269999 255 220 0
0.500172 0.086254 0.262429 255 220 0
0.515700 0.086794 0.296217 255 220 0
0.537107 0.168212 0.270200 255 220 0
0.536808 0.129343 0.261069 255 220 0
0.458254 0.143865 0.258817 255 220 0
0.534768 0.125161 0.260491 255 220 0
0.533873 0.195881 0.322986 255 220 0
0.570883 0.162736 0.304123 255 220 0
0.474401 0.162605 0.288528 255 220 0
0.483216 0.157832 0.309570 255 220 0
0.543030 0.168978 0.349820 255 220 0
0.507586 0.130652 0.246907 255 220 0
0.510681 0.100330 0.254107 255 220 0
0.544375 0.187037 0.339731 255 220 0
0.501718 0.090328 0.302909 255 220 0
0.555726 0.181996 0.342943 255 220 0
0.476703 0.108983 0.302447 255 220 0
0.435640 0.092724 0.249965 255 220 0
0.462757 0.141832 0.287027 255 220 0
0.454238 0.140636 0.272119 255 220 0
0.492231 0.080345 0.281669 255 220 0
0.499245 0.146238 0.250393 255 220 0
0.524212 0.183412 0.278980 255 220 0
0.519365 0.162237 0.261361 255 220 0
0.510881 0.098882 0.314343 255 220 0
0.484014 0.160968 0.309022 255 220 0
0.566656 0.135520 0.312928 255 220 0
0.478681 0.085812 0.249097 255 220 0
0.540293 0.189176 0.336759 255 220 0
0.534458 0.191743 0.331944 255 220 0
0.531711 0.171314 0.347226 255 220 0
0.508813 0.140060 0.249586 255 220 0
0.489261 0.136412 0.320010 255 220 0
0.447774 0.130446 0.273319 255 220 0
0.502571 0.120390 0.244378 255 220 0
0.516124 0.103314 0.256073 255 220 0
0.525765 0.195463 0.302129 255 220 0
0.426408 0.113959 0.253312 255 220 0
0.465504 0.132675 0.294374 255 220 0
0.443183 0.115230 0.273016 255 220 0
0.486281 0.154889 0.255631 255 220 0
0.513089 0.084827 0.281869 255 220 0
0.473040 0.160556 0.288586 255 220 0
0.534221 0.137949 0.345999 255 220 0
0.524791 0.097439 0.311640 255 220 0
0.547688 0.178935 0.284927 255 220 0
0.555164 0.179627 0.344667 255 220 0
0.538252 0.101812 0.287287 255 220 0
0.543248 0.147488 0.349778 255 220 0
0.513455 0.145050 0.340743 255 220 0
0.515333 0.142395 0.251933 255 220 0
0.512736 0.106873 0.321850 255 220 0
0.573059 0.158132 0.311096 255 220 0
0.535705 0.167849 0.269382 255 220 0
0.493154 0.149994 0.323912 255 220 0
0.493400 0.089552 0.252709 255 220 0
0.571196 0.178242 0.318601 255 220 0
0.562013 0.128443 0.299678 255 220 0
0.531586 0.121831 0.259147 255 220 0
0.572035 0.151078 0.328292 255 220 0
0.567460 0.171682 0.302301 255 220 0
0.559485 0.187795 0.309930 255 220 0
0.528512 0.188458 0.333785 255 220 0
0.435732 0.115429 0.237796 255 220 0
0.522181 0.191275 0.290438 255 220 0
0.486040 0.130920 0.242291 255 220 0
0.473444 0.118932 0.302150 255 220 0
0.462588 0.083363 0.268679 255 220 0
0.562719 0.128855 0.313753 255 220 0
0.564761 0.140006 0.292648 255 220 0
0.488595 0.150002 0.319030 255 220 0
0.514644 0.147570 0.341821 255 220 0
0.496054 0.181240 0.306851 255 220 0
0.485179 0.170065 0.272232 255 220 0
0.530253 0.160575 0.349453 255 220 0
0.473156 0.120960 0.237435 255 220 0
0.560683 0.183472 0.304207 255 220 0
0.558883 0.128656 0.325687 255 220 0
0.466536 0.080713 0.252235 255 220 0
0.518984 0.096351 0.265785 255 220 0
0.521538 0.088831 0.287082 255 220 0
0.478479 0.138951 0.245412 255 220 0
0.478190 0.116095 0.306082 255 220 0
0.567434 0.146348 0.295569 255 220 0
0.525820 0.172522 0.344339 255 220 0
0.440340 0.131004 0.252762 255 220 0
0.475463 0.140746 0.246695 255 220 0
0.479446 0.163007 0.267395 255 220 0
0.448950 0.111940 0.277861 255 220 0
0.527310 0.126088 0.255387 255 220 0
0.509333 0.140023 0.249698 255 220 0
0.500980 0.119153 0.324575 255 220 0
0.497105 0.107305 0.315677 255 220 0
0.496874 0.085852 0.295294 255 220 0
0.503474 0.165272 0.330859 255 220 0
0.467836 0.155688 0.281217 255 220 0
0.508884 0.092799 0.260289 255 220 0
0.548410 0.185478 0.293595 255 220 0
0.564665 0.131786 0.310594 255 220 0
0.497821 0.147752 0.250967 255 220 0
0.547656 0.146456 0.348891 255 220 0
0.509952 0.102365 0.317197 255 220 0
0.434513 0.125574 0.258130 255 220 0
0.540910 0.159933 0.351214 255 220 0
0.480410 0.094692 0.242440 255 220 0
0.524569 0.196030 0.312657 255 220 0
0.520841 0.167305 0.343795 255 220 0
0.521162 0.135483 0.341707 255 220 0
0.472762 0.122464 0.302219 255 220 0
0.508501 0.082992 0.288159 255 220 0
0.526040 0.131092 0.341136 255 220 0
0.521273 0.091933 0.276413 255 220 0
0.446217 0.123360 0.274705 255 220 0
0.535246 0.161222 0.350536 255 220 0
0.495482 0.140539 0.326000 255 220 0
0.471648 0.156883 0.266688 255 220 0
0.520995 0.100281 0.263233 255 220 0
0.507388 0.098898 0.313349 255 220 0
0.541219 0.116138 0.328554 255 220 0
0.528343 0.191229 0.329990 255 220 0
0.571757 0.156666 0.305766 255 220 0
0.484447 0.110534 0.309664 255 220 0
0.468117 0.117519 0.236007 255 220 0
0.546574 0.154471 0.269708 255 220 0
0.441769 0.094981 0.266145 255 220 0
0.538307 0.152145 0.350656 255 220 0
0.476850 0.159294 0.264693 255 220 0
0.463680 0.114386 0.235014 255 220 0
0.556491 0.170454 0.286412 255 220 0
0.450952 0.139332 0.262600 255 220 0
0.569821 0.171044 0.338226 255 220 0
0.511440 0.164938 0.261656 255 220 0
0.528863 0.101379 0.271294 255 220 0
0.559428 0.184013 0.303212 255 220 0
0.435049 0.123182 0.243148 255 220 0
0.489326 0.108516 0.240735 255 220 0
0.487950 0.134343 0.243813 255 220 0
0.489240 0.175820 0.302554 255 220 0
0.479155 0.135236 0.310017 255 220 0
0.566682 0.167169 0.342677 255 220 0
0.505249 0.114644 0.324256 255 220 0
0.465904 0.122468 0.237203 255 220 0
0.529189 0.108030 0.324507 255 220 0
0.431417 0.123296 0.248942 255 220 0
0.467099 0.088313 0.243336 255 220 0
0.489078 0.084470 0.289725 255 220 0
0.571882 0.159049 0.306222 255 220 0
0.572814 0.172972 0.316727 255 220 0
0.558633 0.130712 0.286267 255 220 0
0.436377 0.125090 0.244398 255 220 0
0.537845 0.113115 0.327118 255 220 0
0.516315 0.180555 0.333516 255 220 0
0.462520 0.080863 0.261761 255 220 0
0.454079 0.134451 0.278860 255 220 0
0.466022 0.131851 0.241679 255 220 0
0.487292 0.080730 0.262998 255 220 0
0.552554 0.116319 0.290766 255 220 0
0.458598 0.117343 0.235297 255 220 0
0.535437 0.171042 0.271264 255 220 0
0.554074 0.126948 0.330037 255 220 0
0.566800 0.184682 0.326770 255 220 0
0.518474 0.173972 0.268890 255 220 0
0.456251 0.125540 0.284860 255 220 0
0.455400 0.136503 0.248253 255 220 0
0.533970 0.189378 0.334990 255 220 0
0.440920 0.096156 0.266301 255 220 0
0.460931 0.117761 0.289877 255 220 0
0.555438 0.131511 0.280158 255 220 0
0.547057 0.130871 0.269758 255 220 0
0.464779 0.081340 0.250792 255 220 0
0.492613 0.178957 0.303961 255 220 0
0.507765 0.102727 0.316765 255 220 0
0.548855 0.110427 0.294947 255 220 0
0.449511 0.133233 0.273494 255 220 0
0.439615 0.089733 0.252803 255 220 0
0.511678 0.118938 0.329678 255 220 0
0.547096 0.135552 0.268758 255 220 0
0.553935 0.175044 0.286963 255 220 0
0.499963 0.173052 0.322942 255 220 0
0.525173 0.118263 0.255773 255 220 0
0.544105 0.108775 0.284520 255 220 0
0.440926 0.129814 0.248113 255 220 0
0.523001 0.110399 0.327052 255 220 0
0.567378 0.147967 0.294738 255 220 0
0.546489 0.158543 0.271045 255 220 0
0.541842 0.171125 0.274407 255 220 0
0.476616 0.081101 0.275091 255 220 0
0.496596 0.121900 0.242524 255 220 0
0.506833 0.086969 0.299343 255 220 0
0.546800 0.109579 0.289592 255 220 0
0.484242 0.105053 0.306733 255 220 0
0.490416 0.109235 0.240967 255 220 0
0.505369 0.156092 0.334697 255 220 0
0.464728 0.090232 0.280599 255 220 0
0.548678 0.112279 0.314413 255 220 0
0.478287 0.164984 0.295136 255 220 0
0.500591 0.125434 0.244071 255 220 0
0.483480 0.120372 0.239106 255 220 0
0.537823 0.145650 0.349237 255 220 0
0.538150 0.180285 0.280267 255 220 0
0.531485 0.195369 0.302026 255 220 0
