ply
format ascii 1.0
element vertex 1024
property float x
property float y
property float z
property uchar red
property uchar green
property uchar blue
end_header
0.103125 0.195556 0.089803 255 220 0
0.108512 0.108397 0.060070 255 220 0
0.172949 0.070111 0.033682 255 220 0
0.154593 0.098973 0.099681 255 220 0
0.137972 0.176949 0.041441 255 220 0
0.125186 0.121962 0.100557 255 220 0
0.140089 0.165228 0.035265 255 220 0
0.107729 0.109872 0.049441 255 220 0
0.133215 0.160976 0.032854 255 220 0
0.134528 0.060611 0.032623 255 220 0
0.113188 0.145767 0.104588 255 220 0
0.187753 0.112281 0.084432 255 220 0
0.106648 0.134993 0.090740 255 220 0
0.141352 0.156919 0.114437 255 220 0
0.178983 0.089081 0.090994 255 220 0
0.135252 0.049090 0.052121 255 220 0
0.105825 0.182130 0.049893 255 220 0
0.098046 0.184830 0.089650 255 220 0
0.101748 0.122672 0.062584 255 220 0
0.124178 0.082523 0.039317 255 220 0
0.095266 0.161188 0.051491 255 220 0
0.146115 0.191668 0.098198 255 220 0
0.187410 0.119192 0.082682 255 220 0
0.110679 0.194815 0.099460 255 220 0
0.163387 0.049032 0.031474 255 220 0
0.147899 0.125690 0.027670 255 220 0
0.098904 0.191406 0.084852 255 220 0
0.109561 0.203928 0.079745 255 220 0
0.102932 0.129893 0.042512 255 220 0
0.140846 0.198156 0.094907 255 220 0
0.121778 0.179362 0.111941 255 220 0
0.125397 0.118079 0.098228 255 220 0
0.168777 0.074391 0.085604 255 220 0
0.140182 0.056515 0.028950 255 220 0
0.164552 0.111264 0.030934 255 220 0
0.111054 0.113958 0.077343 255 220 0
0.152880 0.165060 0.039837 255 220 0
0.109117 0.190648 0.100992 255 220 0
0.127649 0.112077 0.027819 255 220 0
0.163957 0.104469 0.102335 255 220 0
0.166520 0.139600 0.037445 255 220 0
0.175529 0.160832 0.064380 255 220 0
0.095120 0.165946 0.088158 255 220 0
0.168012 0.159440 0.100212 255 220 0
0.132282 0.194416 0.104468 255 220 0
0.132884 0.074488 0.069498 255 220 0
0.103104 0.122484 0.047012 255 220 0
0.102121 0.150092 0.094921 255 220 0
0.108792 0.203298 0.084086 255 220 0
0.151463 0.193451 0.082137 255 220 0
0.101395 0.122774 0.058324 255 220 0
0.093852 0.177517 0.082362 255 220 0
0.125009 0.086700 0.070195 255 220 0
0.130973 0.060088 0.053080 255 220 0
0.143052 0.055513 0.064843 255 220 0
0.140419 0.042453 0.054650 255 220 0
0.119562 0.202223 0.097078 255 220 0
0.160983 0.052714 0.029275 255 220 0
0.130284 0.066716 0.058128 255 220 0
0.145483 0.090495 0.025777 255 220 0
0.137096 0.203702 0.085943 255 220 0
0.101357 0.122850 0.057873 255 220 0
0.188870 0.105994 0.080587 255 220 0
0.182353 0.125018 0.049653 255 220 0
0.122096 0.087087 0.039787 255 220 0
0.118923 0.132119 0.029299 255 220 0
0.161419 0.069304 0.027527 255 220 0
0.093629 0.150448 0.056745 255 220 0
0.151390 0.191314 0.090332 255 220 0
0.116938 0.196365 0.102038 255 220 0
0.175542 0.127808 0.041558 255 220 0
0.185804 0.133815 0.075533 255 220 0
0.111830 0.158249 0.107902 255 220 0
0.154407 0.185444 0.094667 255 220 0
0.146227 0.049637 0.063468 255 220 0
0.146194 0.102035 0.025891 255 220 0
0.162247 0.173079 0.096944 255 220 0
0.136508 0.069129 0.069061 255 220 0
0.139414 0.123519 0.107288 255 220 0
0.173356 0.091693 0.033993 255 220 0
0.112274 0.122557 0.033881 255 220 0
0.116940 0.091475 0.054478 255 220 0
0.108146 0.191098 0.055636 255 220 0
0.111765 0.168230 0.039363 255 220 0
0.134592 0.049929 0.051505 255 220 0
0.105718 0.121611 0.075566 255 220 0
0.140485 0.120927 0.106502 255 220 0
0.133061 0.160811 0.114935 255 220 0
0.104795 0.120638 0.044208 255 220 0
0.183433 0.068979 0.047590 255 220 0
0.175010 0.162574 0.066267 255 220 0
0.109040 0.114542 0.073679 255 220 0
0.167285 0.174998 0.082572 255 220 0
0.130920 0.201868 0.096613 255 220 0
0.166743 0.057296 0.031164 255 220 0
0.184852 0.134076 0.082568 255 220 0
0.170905 0.103986 0.101025 255 220 0
0.132953 0.187462 0.048966 255 220 0
0.156000 0.186996 0.064546 255 220 0
0.108689 0.150364 0.035661 255 220 0
0.151286 0.056325 0.070617 255 220 0
0.123378 0.102338 0.083842 255 220 0
0.158861 0.158332 0.108521 255 220 0
0.125007 0.148654 0.111709 255 220 0
0.119450 0.190258 0.051141 255 220 0
0.143371 0.124645 0.026845 255 220 0
0.103015 0.183501 0.098477 255 220 0
0.132707 0.061257 0.034570 255 220 0
0.143000 0.191777 0.058133 255 220 0
0.162113 0.048062 0.067191 255 220 0
0.155944 0.153332 0.036079 255 220 0
0.129887 0.124900 0.104666 255 220 0
0.130834 0.075350 0.067529 255 220 0
0.111688 0.183161 0.047674 255 220 0
0.131880 0.179307 0.112573 255 220 0
0.157344 0.153596 0.110584 255 220 0
0.137571 0.198373 0.097729 255 220 0
0.097901 0.178193 0.055060 255 220 0
0.093194 0.173338 0.081777 255 220 0
0.095665 0.156603 0.049787 255 220 0
0.130790 0.162804 0.114951 255 220 0
0.121007 0.117720 0.093797 255 220 0
0.177844 0.153269 0.059795 255 220 0
0.186727 0.085569 0.079746 255 220 0
0.186579 0.098748 0.086860 255 220 0
0.142958 0.125917 0.108969 255 220 0
0.155882 0.160165 0.109554 255 220 0
0.113409 0.116145 0.083727 255 220 0
0.188910 0.117023 0.072687 255 220 0
0.133380 0.194110 0.104404 255 220 0
0.176981 0.051649 0.064170 255 220 0
0.178143 0.136220 0.097133 255 220 0
0.146478 0.174274 0.042757 255 220 0
0.188147 0.095458 0.053579 255 220 0
0.187085 0.125188 0.063503 255 220 0
0.145462 0.175300 0.109445 255 220 0
0.121859 0.126136 0.100609 255 220 0
0.120744 0.145748 0.029976 255 220 0
0.128481 0.206802 0.086848 255 220 0
0.154917 0.090723 0.095556 255 220 0
0.176469 0.156722 0.087370 255 220 0
0.134168 0.087428 0.028777 255 220 0
0.091915 0.157307 0.063266 255 220 0
0.132509 0.185520 0.047163 255 220 0
0.183312 0.138534 0.061125 255 220 0
0.171699 0.086639 0.032620 255 220 0
0.126507 0.143291 0.110670 255 220 0
0.139815 0.194105 0.059006 255 220 0
0.162329 0.130990 0.032902 255 220 0
0.123996 0.145153 0.110348 255 220 0
0.176317 0.080047 0.036138 255 220 0
0.099807 0.139286 0.082698 255 220 0
0.138857 0.116930 0.104337 255 220 0
0.115008 0.103529 0.072040 255 220 0
0.170315 0.076696 0.086827 255 220 0
0.122035 0.087690 0.039456 255 220 0
0.149610 0.109941 0.026636 255 220 0
0.149198 0.080067 0.086839 255 220 0
0.151320 0.110198 0.104118 255 220 0
0.172650 0.162754 0.089538 255 220 0
0.137186 0.194131 0.102804 255 220 0
0.115228 0.205664 0.074186 255 220 0
0.166058 0.169291 0.095026 255 220 0
0.100484 0.169126 0.098572 255 220 0
0.155087 0.046847 0.028764 255 220 0
0.108782 0.203484 0.081502 255 220 0
0.174534 0.052274 0.040877 255 220 0
0.174755 0.065050 0.036012 255 220 0
0.147234 0.042866 0.059902 255 220 0
0.150531 0.038417 0.032602 255 220 0
0.105952 0.114197 0.048546 255 220 0
0.111435 0.197246 0.061036 255 220 0
0.106303 0.112150 0.057729 255 220 0
0.100484 0.168466 0.046775 255 220 0
0.114549 0.096749 0.047373 255 220 0
0.147359 0.033457 0.044999 255 220 0
0.131361 0.157026 0.114596 255 220 0
0.185115 0.134542 0.080555 255 220 0
0.125312 0.206235 0.090252 255 220 0
0.114846 0.190267 0.052031 255 220 0
0.181599 0.149294 0.072167 255 220 0
0.136137 0.189284 0.107009 255 220 0
0.172681 0.068731 0.033600 255 220 0
0.163990 0.075591 0.028367 255 220 0
0.100597 0.137421 0.082603 255 220 0
0.172784 0.167893 0.074741 255 220 0
0.152496 0.042206 0.061736 255 220 0
0.180137 0.073186 0.080142 255 220 0
0.150645 0.062773 0.074853 255 220 0
0.136491 0.049744 0.033041 255 220 0
0.153028 0.168973 0.107824 255 220 0
0.101487 0.128462 0.073809 255 220 0
0.152977 0.074052 0.025890 255 220 0
0.182897 0.096198 0.091279 255 220 0
0.107750 0.125397 0.084077 255 220 0
0.169621 0.116485 0.034289 255 220 0
0.152461 0.074476 0.084303 255 220 0
0.180522 0.133253 0.050171 255 220 0
0.140928 0.171290 0.038563 255 220 0
0.136977 0.195555 0.101512 255 220 0
0.129111 0.099175 0.029427 255 220 0
0.122915 0.127227 0.027949 255 220 0
0.179384 0.113896 0.042115 255 220 0
0.177874 0.083742 0.037559 255 220 0
0.100762 0.132633 0.077598 255 220 0
0.103041 0.192390 0.062340 255 220 0
0.107211 0.169185 0.105938 255 220 0
0.116997 0.148315 0.031506 255 220 0
0.180238 0.131551 0.095768 255 220 0
0.178887 0.156247 0.073402 255 220 0
0.110737 0.143036 0.033759 255 220 0
0.145596 0.198245 0.083590 255 220 0
0.154378 0.163324 0.039666 255 220 0
0.099360 0.189681 0.088557 255 220 0
0.125558 0.153069 0.030725 255 220 0
0.110218 0.186305 0.050463 255 220 0
0.153596 0.134373 0.030242 255 220 0
0.137944 0.090559 0.087437 255 220 0
0.166871 0.108381 0.103467 255 220 0
0.141976 0.109086 0.025940 255 220 0
0.153889 0.167221 0.108054 255 220 0
0.135760 0.047050 0.051430 255 220 0
0.186137 0.068049 0.058189 255 220 0
0.166717 0.170980 0.091824 255 220 0
0.157894 0.066238 0.080086 255 220 0
0.117004 0.202251 0.096145 255 220 0
0.140422 0.084489 0.026755 255 220 0
0.180545 0.076202 0.081907 255 220 0
0.172541 0.163801 0.060464 255 220 0
0.111902 0.204105 0.073889 255 220 0
0.150046 0.134064 0.029230 255 220 0
0.176281 0.145891 0.096103 255 220 0
0.178156 0.157783 0.072328 255 220 0
0.147317 0.126510 0.109811 255 220 0
0.143469 0.094957 0.025861 255 220 0
0.107642 0.113130 0.067267 255 220 0
0.123585 0.147230 0.110820 255 220 0
0.140325 0.158062 0.032646 255 220 0
0.096535 0.184774 0.063998 255 220 0
0.161120 0.106598 0.029093 255 220 0
0.165753 0.097440 0.099160 255 220 0
0.158373 0.125345 0.109435 255 220 0
0.171078 0.101691 0.100089 255 220 0
0.138233 0.054862 0.030341 255 220 0
0.119375 0.143925 0.107860 255 220 0
0.142306 0.185539 0.050571 255 220 0
0.135634 0.202434 0.070315 255 220 0
0.118347 0.201248 0.097944 255 220 0
0.112376 0.137976 0.099274 255 220 0
0.177860 0.096160 0.095105 255 220 0
0.095207 0.164547 0.052661 255 220 0
0.179412 0.067308 0.076410 255 220 0
0.137656 0.053679 0.030971 255 220 0
0.152827 0.072896 0.083312 255 220 0
0.093397 0.178223 0.079513 255 220 0
0.133552 0.112741 0.026452 255 220 0
0.095608 0.175071 0.088807 255 220 0
0.168719 0.041023 0.056766 255 220 0
0.171780 0.143145 0.102331 255 220 0
0.151255 0.075407 0.025790 255 220 0
0.166449 0.177231 0.077334 255 220 0
0.156728 0.145172 0.033759 255 220 0
0.132792 0.051663 0.048648 255 220 0
0.138911 0.176933 0.041681 255 220 0
0.174256 0.165378 0.073695 255 220 0
0.164299 0.178412 0.084511 255 220 0
0.093467 0.177958 0.080214 255 220 0
0.189274 0.108455 0.060852 255 220 0
0.147469 0.178181 0.046469 255 220 0
0.157080 0.134096 0.111241 255 220 0
0.114483 0.182391 0.046266 255 220 0
0.175425 0.061782 0.037531 255 220 0
0.137242 0.165382 0.034870 255 220 0
0.184284 0.062821 0.055207 255 220 0
0.151431 0.095974 0.097719 255 220 0
0.147905 0.077758 0.025831 255 220 0
0.127414 0.100278 0.086242 255 220 0
0.189359 0.093514 0.073696 255 220 0
0.180037 0.131895 0.048701 255 220 0
0.107845 0.137847 0.094285 255 220 0
0.162814 0.166006 0.047419 255 220 0
0.169133 0.169075 0.089167 255 220 0
0.178308 0.139900 0.049711 255 220 0
0.106691 0.136092 0.091624 255 220 0
0.185522 0.074869 0.074626 255 220 0
0.157524 0.100521 0.027522 255 220 0
0.102341 0.137916 0.086511 255 220 0
0.164909 0.084139 0.028967 255 220 0
0.168457 0.129596 0.036096 255 220 0
0.123780 0.077180 0.045662 255 220 0
0.189479 0.102537 0.076788 255 220 0
0.117207 0.204171 0.093146 255 220 0
0.181615 0.089741 0.089435 255 220 0
0.167060 0.056453 0.073035 255 220 0
0.133034 0.103936 0.094165 255 220 0
0.161377 0.141161 0.110028 255 220 0
0.145274 0.150596 0.031462 255 220 0
0.135617 0.201096 0.067295 255 220 0
0.188072 0.079339 0.058061 255 220 0
0.109626 0.154831 0.035874 255 220 0
0.167791 0.052690 0.069869 255 220 0
0.103714 0.125542 0.075956 255 220 0
0.135326 0.086598 0.081966 255 220 0
0.129732 0.065764 0.037761 255 220 0
0.110619 0.120229 0.035901 255 220 0
0.150364 0.129833 0.028680 255 220 0
0.102594 0.143584 0.091358 255 220 0
0.166469 0.176665 0.068293 255 220 0
0.163806 0.171695 0.096056 255 220 0
0.132471 0.202096 0.095511 255 220 0
0.175578 0.136716 0.044491 255 220 0
0.185540 0.135028 0.069694 255 220 0
0.117922 0.165507 0.112068 255 220 0
0.183683 0.135498 0.086164 255 220 0
0.145172 0.160302 0.113475 255 220 0
0.120055 0.206400 0.089234 255 220 0
0.154510 0.182761 0.097677 255 220 0
0.149522 0.058583 0.071248 255 220 0
0.099678 0.193926 0.080035 255 220 0
0.163048 0.116715 0.106633 255 220 0
0.097313 0.153649 0.046634 255 220 0
0.092935 0.163227 0.058098 255 220 0
0.130482 0.117817 0.026610 255 220 0
0.176828 0.158341 0.064443 255 220 0
0.182186 0.106148 0.095150 255 220 0
0.149427 0.091505 0.025799 255 220 0
0.159976 0.141440 0.034206 255 220 0
0.153087 0.189925 0.065653 255 220 0
0.142253 0.105390 0.099944 255 220 0
0.132867 0.142339 0.028163 255 220 0
0.131678 0.201472 0.096867 255 220 0
0.141369 0.194803 0.061065 255 220 0
0.138664 0.150869 0.030367 255 220 0
0.158433 0.060472 0.027238 255 220 0
0.182903 0.125008 0.093476 255 220 0
0.100468 0.133886 0.078397 255 220 0
0.168309 0.064146 0.078545 255 220 0
0.107472 0.141306 0.096147 255 220 0
0.135632 0.043273 0.040039 255 220 0
0.158269 0.066710 0.080491 255 220 0
0.136734 0.077145 0.075640 255 220 0
0.137543 0.182925 0.046054 255 220 0
0.098498 0.191695 0.074211 255 220 0
0.136639 0.051111 0.032465 255 220 0
0.142046 0.138169 0.028321 255 220 0
0.176502 0.080743 0.087371 255 220 0
0.142228 0.049887 0.060689 255 220 0
0.119336 0.120746 0.029754 255 220 0
0.146663 0.122405 0.027133 255 220 0
0.133396 0.180086 0.112079 255 220 0
0.162207 0.169053 0.049253 255 220 0
0.106875 0.173063 0.044055 255 220 0
0.159476 0.167782 0.045705 255 220 0
0.136948 0.191873 0.054696 255 220 0
0.118522 0.117777 0.091271 255 220 0
0.094429 0.142745 0.065974 255 220 0
0.101454 0.125790 0.068928 255 220 0
0.138425 0.068851 0.070700 255 220 0
0.139554 0.136941 0.111970 255 220 0
0.156408 0.153847 0.036496 255 220 0
0.184236 0.101915 0.046142 255 220 0
0.141320 0.064140 0.069601 255 220 0
0.093108 0.153383 0.076193 255 220 0
0.142793 0.177067 0.110043 255 220 0
0.091648 0.162145 0.074002 255 220 0
0.149379 0.130655 0.028565 255 220 0
0.123616 0.143521 0.109664 255 220 0
0.103889 0.199302 0.079650 255 220 0
0.178805 0.064143 0.074404 255 220 0
0.142204 0.097032 0.025928 255 220 0
0.100145 0.130372 0.072309 255 220 0
0.154843 0.157100 0.037018 255 220 0
0.111846 0.106545 0.068655 255 220 0
0.169424 0.110928 0.033374 255 220 0
0.187077 0.124621 0.062692 255 220 0
0.164281 0.089411 0.095275 255 220 0
0.160430 0.184243 0.080877 255 220 0
0.133765 0.190850 0.106773 255 220 0
0.183393 0.137922 0.085121 255 220 0
0.101787 0.124758 0.068220 255 220 0
0.176066 0.153949 0.056131 255 220 0
0.144940 0.132551 0.027959 255 220 0
0.108461 0.166548 0.106841 255 220 0
0.156526 0.115577 0.106565 255 220 0
0.150549 0.054972 0.069356 255 220 0
0.177818 0.156502 0.064924 255 220 0
0.093497 0.167013 0.083644 255 220 0
0.170689 0.080131 0.031799 255 220 0
0.098050 0.131252 0.060645 255 220 0
0.164322 0.066982 0.081053 255 220 0
0.098473 0.179145 0.093534 255 220 0
0.169839 0.083589 0.031361 255 220 0
0.138039 0.079661 0.078677 255 220 0
0.105526 0.138286 0.037681 255 220 0
0.109945 0.200561 0.067962 255 220 0
0.186031 0.121790 0.056049 255 220 0
0.126464 0.144661 0.028806 255 220 0
0.176391 0.094143 0.036532 255 220 0
0.148325 0.138463 0.029556 255 220 0
0.154920 0.047735 0.028475 255 220 0
0.157124 0.183605 0.092576 255 220 0
0.109044 0.156641 0.036571 255 220 0
0.120186 0.133460 0.103569 255 220 0
0.103861 0.118892 0.064421 255 220 0
0.101252 0.184488 0.055476 255 220 0
0.167812 0.173527 0.064738 255 220 0
0.102148 0.155814 0.097899 255 220 0
0.114536 0.122118 0.032309 255 220 0
0.166913 0.149808 0.041678 255 220 0
0.138679 0.196274 0.061309 255 220 0
0.163873 0.100942 0.100862 255 220 0
0.112028 0.188406 0.104387 255 220 0
0.171749 0.169512 0.076339 255 220 0
0.174482 0.063742 0.076481 255 220 0
0.102129 0.187174 0.095324 255 220 0
0.164199 0.176631 0.088736 255 220 0
0.143249 0.135414 0.112087 255 220 0
0.166112 0.132753 0.107710 255 220 0
0.139974 0.048006 0.057660 255 220 0
0.127668 0.166160 0.114750 255 220 0
0.118753 0.150432 0.031383 255 220 0
0.134743 0.078202 0.074661 255 220 0
0.151597 0.114610 0.105891 255 220 0
0.124150 0.155159 0.112891 255 220 0
0.187526 0.073927 0.063241 255 220 0
0.136206 0.095801 0.027111 255 220 0
0.161087 0.088109 0.027784 255 220 0
0.148238 0.127853 0.110346 255 220 0
0.131162 0.094820 0.029178 255 220 0
0.172654 0.090542 0.033434 255 220 0
0.102603 0.125689 0.045469 255 220 0
0.170768 0.097029 0.032666 255 220 0
0.135560 0.183879 0.110080 255 220 0
0.160595 0.038738 0.057843 255 220 0
0.140794 0.160922 0.114283 255 220 0
0.156035 0.138341 0.031784 255 220 0
0.187627 0.078065 0.056152 255 220 0
0.181124 0.140033 0.090241 255 220 0
0.141934 0.057118 0.065020 255 220 0
0.182551 0.082328 0.043168 255 220 0
0.097399 0.134601 0.068054 255 220 0
0.144645 0.035260 0.049680 255 220 0
0.188065 0.079238 0.068465 255 220 0
0.115317 0.180094 0.044570 255 220 0
0.182652 0.144347 0.080670 255 220 0
0.114881 0.095634 0.056162 255 220 0
0.161339 0.070614 0.083590 255 220 0
0.129819 0.121051 0.102764 255 220 0
0.173223 0.065661 0.078390 255 220 0
0.188485 0.085127 0.072476 255 220 0
0.173448 0.139351 0.043193 255 220 0
0.093371 0.172658 0.082686 255 220 0
0.173491 0.090385 0.094172 255 220 0
0.104262 0.119072 0.047363 255 220 0
0.131933 0.056001 0.037811 255 220 0
0.108145 0.148051 0.101013 255 220 0
0.150789 0.136376 0.029794 255 220 0
0.159577 0.154627 0.109190 255 220 0
0.146858 0.075243 0.081880 255 220 0
0.138958 0.078177 0.027687 255 220 0
0.154905 0.151361 0.111986 255 220 0
0.131897 0.108198 0.027127 255 220 0
0.136598 0.047583 0.053338 255 220 0
0.189887 0.096719 0.064343 255 220 0
0.132695 0.173463 0.038528 255 220 0
0.157412 0.087490 0.094101 255 220 0
0.092812 0.154572 0.058645 255 220 0
0.148482 0.165308 0.037985 255 220 0
0.100147 0.126859 0.064666 255 220 0
0.160743 0.183143 0.083799 255 220 0
0.161959 0.129469 0.109352 255 220 0
0.105546 0.181565 0.049705 255 220 0
0.188508 0.119841 0.072866 255 220 0
0.185871 0.127488 0.060005 255 220 0
0.107903 0.171940 0.106361 255 220 0
0.179216 0.054288 0.064866 255 220 0
0.092127 0.160360 0.076336 255 220 0
0.167385 0.091120 0.030402 255 220 0
0.135347 0.075152 0.029793 255 220 0
0.160766 0.138865 0.033910 255 220 0
0.119140 0.087836 0.056148 255 220 0
0.170919 0.065644 0.032597 255 220 0
0.127215 0.201157 0.063242 255 220 0
0.109117 0.174606 0.106963 255 220 0
0.138519 0.169576 0.037022 255 220 0
0.127173 0.202559 0.065425 255 220 0
0.180841 0.134647 0.051477 255 220 0
0.098794 0.137022 0.077646 255 220 0
0.170608 0.149875 0.101758 255 220 0
0.163150 0.072823 0.028061 255 220 0
0.189253 0.087510 0.067345 255 220 0
0.170771 0.070930 0.031981 255 220 0
0.148573 0.163284 0.037012 255 220 0
0.134710 0.101506 0.093597 255 220 0
0.156138 0.117613 0.028740 255 220 0
0.137666 0.083562 0.081464 255 220 0
0.181360 0.066754 0.044383 255 220 0
0.167534 0.161970 0.099149 255 220 0
0.189586 0.107218 0.075245 255 220 0
0.146846 0.196974 0.085419 255 220 0
0.120443 0.084577 0.048249 255 220 0
0.166147 0.122090 0.033208 255 220 0
0.103532 0.133495 0.040538 255 220 0
0.178033 0.157961 0.076617 255 220 0
0.173771 0.071469 0.082312 255 220 0
0.116212 0.139064 0.103603 255 220 0
0.091790 0.157104 0.064597 255 220 0
0.151274 0.165400 0.110101 255 220 0
0.127017 0.075034 0.038512 255 220 0
0.146391 0.034655 0.049754 255 220 0
0.128820 0.112528 0.097119 255 220 0
0.125130 0.083320 0.066313 255 220 0
0.157149 0.176938 0.099851 255 220 0
0.125811 0.115141 0.096517 255 220 0
0.188284 0.115058 0.059601 255 220 0
0.125958 0.166756 0.114494 255 220 0
0.140618 0.092596 0.026292 255 220 0
0.145418 0.053436 0.065244 255 220 0
0.097712 0.186603 0.063585 255 220 0
0.114993 0.119742 0.088982 255 220 0
0.152434 0.041981 0.061529 255 220 0
0.115089 0.105313 0.074618 255 220 0
0.150974 0.188536 0.095846 255 220 0
0.170237 0.043293 0.059115 255 220 0
0.124371 0.196666 0.057147 255 220 0
0.134410 0.061245 0.032632 255 220 0
0.180868 0.151392 0.074125 255 220 0
0.115925 0.171343 0.111210 255 220 0
0.099815 0.183197 0.056127 255 220 0
0.124715 0.079539 0.060364 255 220 0
0.126324 0.107327 0.029094 255 220 0
0.148958 0.195785 0.079480 255 220 0
0.152967 0.038764 0.032659 255 220 0
0.180511 0.100377 0.095011 255 220 0
0.113028 0.186270 0.049373 255 220 0
0.092473 0.175967 0.075028 255 220 0
0.137875 0.155544 0.031504 255 220 0
0.129876 0.203937 0.068970 255 220 0
0.105659 0.200820 0.084319 255 220 0
0.160210 0.115755 0.029791 255 220 0
0.128394 0.086170 0.074647 255 220 0
0.118054 0.124763 0.096049 255 220 0
0.120798 0.084076 0.047192 255 220 0
0.111783 0.131912 0.033060 255 220 0
0.159074 0.186270 0.076959 255 220 0
0.163945 0.168634 0.098624 255 220 0
0.119518 0.090094 0.062509 255 220 0
0.110345 0.189226 0.052747 255 220 0
0.125000 0.109962 0.091784 255 220 0
0.128281 0.063230 0.045351 255 220 0
0.175851 0.045749 0.054833 255 220 0
0.128797 0.068744 0.057113 255 220 0
0.137851 0.044641 0.033970 255 220 0
0.112139 0.111115 0.037926 255 220 0
0.133543 0.170087 0.036719 255 220 0
0.124526 0.198343 0.101908 255 220 0
0.162979 0.181766 0.076520 255 220 0
0.136612 0.047546 0.033824 255 220 0
0.097547 0.132833 0.062946 255 220 0
0.103273 0.123121 0.070743 255 220 0
0.186491 0.120540 0.085782 255 220 0
0.125101 0.072766 0.047866 255 220 0
0.140841 0.192515 0.102076 255 220 0
0.175259 0.088922 0.035319 255 220 0
0.187209 0.116428 0.085054 255 220 0
0.181094 0.106870 0.042725 255 220 0
0.149822 0.056903 0.026546 255 220 0
0.123889 0.079373 0.042405 255 220 0
0.119480 0.100089 0.076364 255 220 0
0.105581 0.117260 0.045431 255 220 0
0.107625 0.191438 0.099144 255 220 0
0.177014 0.051062 0.046937 255 220 0
0.139923 0.064006 0.068312 255 220 0
0.169548 0.130096 0.105898 255 220 0
0.179828 0.053999 0.050917 255 220 0
0.092470 0.167291 0.079757 255 220 0
0.113493 0.098848 0.058646 255 220 0
0.099611 0.183127 0.093720 255 220 0
0.173579 0.155045 0.052441 255 220 0
0.152651 0.187547 0.094604 255 220 0
0.100511 0.195033 0.081896 255 220 0
0.138565 0.170203 0.037361 255 220 0
0.120095 0.122447 0.096449 255 220 0
0.107556 0.153979 0.036877 255 220 0
0.162891 0.180608 0.083390 255 220 0
0.101483 0.195549 0.085536 255 220 0
0.120586 0.163972 0.035019 255 220 0
0.123876 0.076582 0.046434 255 220 0
0.114929 0.203566 0.069224 255 220 0
0.154275 0.082102 0.026057 255 220 0
0.179785 0.052237 0.053858 255 220 0
0.099890 0.156840 0.094973 255 220 0
0.170965 0.041995 0.045547 255 220 0
0.116159 0.185783 0.107862 255 220 0
0.174065 0.097014 0.097185 255 220 0
0.099710 0.148703 0.043319 255 220 0
0.133893 0.203915 0.072289 255 220 0
0.182620 0.128430 0.092803 255 220 0
0.134917 0.084951 0.028734 255 220 0
0.136678 0.051894 0.056297 255 220 0
0.165915 0.177701 0.079107 255 220 0
0.172512 0.122505 0.037483 255 220 0
0.125263 0.167003 0.035595 255 220 0
0.188919 0.085403 0.059902 255 220 0
0.173286 0.124998 0.038717 255 220 0
0.125379 0.082469 0.065758 255 220 0
0.151929 0.165415 0.109785 255 220 0
0.164630 0.107266 0.030508 255 220 0
0.150583 0.155882 0.112693 255 220 0
0.174727 0.161428 0.085692 255 220 0
0.177025 0.159743 0.069707 255 220 0
0.117840 0.115397 0.088669 255 220 0
0.099697 0.186548 0.091789 255 220 0
0.148398 0.187064 0.100532 255 220 0
0.180843 0.110085 0.043019 255 220 0
0.184996 0.119800 0.052389 255 220 0
0.144422 0.034443 0.042467 255 220 0
0.166095 0.091104 0.096041 255 220 0
0.113364 0.166120 0.109949 255 220 0
0.097132 0.136722 0.052956 255 220 0
0.146175 0.106482 0.026046 255 220 0
0.138942 0.049593 0.057530 255 220 0
0.182284 0.142146 0.061132 255 220 0
0.151585 0.121653 0.028010 255 220 0
0.136405 0.059468 0.061276 255 220 0
0.188009 0.103643 0.084203 255 220 0
0.099367 0.137123 0.079346 255 220 0
0.108160 0.191977 0.056562 255 220 0
0.188604 0.104398 0.081936 255 220 0
0.135139 0.204805 0.078341 255 220 0
0.182942 0.131401 0.054145 255 220 0
0.122619 0.207290 0.086910 255 220 0
0.179566 0.110473 0.098448 255 220 0
0.176418 0.058712 0.039946 255 220 0
0.114944 0.105086 0.037872 255 220 0
0.108500 0.179346 0.105501 255 220 0
0.150030 0.067035 0.025989 255 220 0
0.127547 0.101852 0.029652 255 220 0
0.114279 0.153981 0.108339 255 220 0
0.116794 0.091903 0.048599 255 220 0
0.103453 0.197924 0.074541 255 220 0
0.121946 0.188326 0.049254 255 220 0
0.137501 0.090830 0.087302 255 220 0
0.187822 0.123761 0.074197 255 220 0
0.155032 0.147515 0.033722 255 220 0
0.159313 0.082477 0.091295 255 220 0
0.189688 0.095559 0.061581 255 220 0
0.106082 0.112388 0.054437 255 220 0
0.124541 0.129883 0.027540 255 220 0
0.135339 0.196166 0.101711 255 220 0
0.180018 0.150336 0.063196 255 220 0
0.156787 0.088666 0.026692 255 220 0
0.143986 0.041382 0.031408 255 220 0
0.148620 0.078206 0.085171 255 220 0
0.141844 0.053264 0.062397 255 220 0
0.111295 0.186224 0.049961 255 220 0
0.148778 0.193561 0.066749 255 220 0
0.146343 0.192579 0.096756 255 220 0
0.127030 0.156316 0.031487 255 220 0
0.099940 0.136583 0.045240 255 220 0
0.188314 0.081868 0.057687 255 220 0
0.124185 0.078015 0.056373 255 220 0
0.180774 0.132336 0.050180 255 220 0
0.181162 0.104587 0.042446 255 220 0
0.181423 0.056312 0.052892 255 220 0
0.158204 0.182086 0.059300 255 220 0
0.177522 0.119651 0.100963 255 220 0
0.149812 0.161700 0.111779 255 220 0
0.093730 0.146602 0.059718 255 220 0
0.166303 0.176383 0.082526 255 220 0
0.156255 0.107358 0.027752 255 220 0
0.097307 0.172697 0.052713 255 220 0
0.155407 0.038224 0.058078 255 220 0
0.107724 0.176366 0.045326 255 220 0
0.167499 0.175831 0.071699 255 220 0
0.153942 0.048241 0.066480 255 220 0
0.136618 0.191446 0.054066 255 220 0
0.135146 0.156175 0.031425 255 220 0
0.103730 0.168559 0.043938 255 220 0
0.165756 0.160434 0.102145 255 220 0
0.180710 0.141166 0.055388 255 220 0
0.160416 0.184624 0.071422 255 220 0
0.141680 0.036665 0.039064 255 220 0
0.168243 0.139991 0.105847 255 220 0
0.161699 0.155725 0.040455 255 220 0
0.159578 0.149244 0.110287 255 220 0
0.146475 0.190554 0.059187 255 220 0
0.160505 0.167641 0.103000 255 220 0
0.188274 0.079102 0.060655 255 220 0
0.104035 0.173126 0.102742 255 220 0
0.105459 0.157658 0.102515 255 220 0
0.156137 0.130723 0.110888 255 220 0
0.110143 0.107844 0.044013 255 220 0
0.113931 0.173680 0.041293 255 220 0
0.154724 0.156199 0.036597 255 220 0
0.152771 0.147613 0.032891 255 220 0
0.188735 0.113471 0.078774 255 220 0
0.169732 0.075601 0.031170 255 220 0
0.154770 0.081091 0.026110 255 220 0
0.163601 0.127321 0.032821 255 220 0
0.108405 0.112165 0.068011 255 220 0
0.134879 0.136851 0.111009 255 220 0
0.125521 0.117845 0.098169 255 220 0
0.169657 0.065628 0.079368 255 220 0
0.118602 0.126503 0.097868 255 220 0
0.104699 0.143830 0.038212 255 220 0
0.189969 0.105281 0.068261 255 220 0
0.164022 0.079398 0.028435 255 220 0
0.131312 0.206022 0.086987 255 220 0
0.130709 0.118945 0.102109 255 220 0
0.112638 0.146225 0.033007 255 220 0
0.145492 0.084356 0.025875 255 220 0
0.189973 0.105293 0.068610 255 220 0
0.117687 0.094355 0.064550 255 220 0
0.166565 0.105300 0.102392 255 220 0
0.157911 0.044586 0.030504 255 220 0
0.122237 0.182502 0.111094 255 220 0
0.181907 0.142677 0.086017 255 220 0
0.152625 0.157630 0.111677 255 220 0
0.125380 0.130018 0.027368 255 220 0
0.106241 0.162107 0.039643 255 220 0
0.172250 0.056994 0.035598 255 220 0
0.167218 0.039927 0.056141 255 220 0
0.157999 0.037749 0.036012 255 220 0
0.180580 0.150123 0.065539 255 220 0
0.156394 0.175249 0.049556 255 220 0
0.105396 0.169944 0.104327 255 220 0
0.164492 0.173115 0.056515 255 220 0
0.157152 0.040080 0.032950 255 220 0
0.123170 0.151380 0.111776 255 220 0
0.100748 0.125371 0.064241 255 220 0
0.166879 0.105082 0.031311 255 220 0
0.133419 0.053779 0.035858 255 220 0
0.155205 0.187729 0.064631 255 220 0
0.141402 0.133381 0.111242 255 220 0
0.150461 0.045606 0.028439 255 220 0
0.138245 0.038975 0.045625 255 220 0
0.171011 0.054352 0.070299 255 220 0
0.142670 0.044541 0.057981 255 220 0
0.150454 0.177629 0.047743 255 220 0
0.178321 0.072479 0.038682 255 220 0
0.181129 0.128677 0.049118 255 220 0
0.138592 0.045165 0.032854 255 220 0
0.137227 0.075061 0.028754 255 220 0
0.108122 0.179674 0.105105 255 220 0
0.160328 0.184375 0.080814 255 220 0
0.148124 0.099819 0.025934 255 220 0
0.188270 0.109739 0.056739 255 220 0
0.099928 0.130437 0.048917 255 220 0
0.166029 0.156990 0.103585 255 220 0
0.128438 0.084920 0.073493 255 220 0
0.154265 0.145299 0.032809 255 220 0
0.110422 0.167802 0.039713 255 220 0
0.125529 0.206867 0.088255 255 220 0
0.179070 0.098998 0.039478 255 220 0
0.119520 0.206045 0.089974 255 220 0
0.106010 0.158055 0.103189 255 220 0
0.159844 0.115282 0.029612 255 220 0
0.094443 0.142485 0.064394 255 220 0
0.124371 0.207096 0.074546 255 220 0
0.188928 0.112832 0.061613 255 220 0
0.170995 0.104228 0.101089 255 220 0
0.157720 0.141704 0.111564 255 220 0
0.092377 0.151767 0.066572 255 220 0
0.129656 0.069953 0.036304 255 220 0
0.105945 0.132416 0.087678 255 220 0
0.123275 0.077723 0.048729 255 220 0
0.149017 0.121093 0.027420 255 220 0
0.126799 0.202406 0.097042 255 220 0
0.091901 0.167512 0.076722 255 220 0
0.120221 0.139660 0.029285 255 220 0
0.101335 0.177033 0.050328 255 220 0
0.114180 0.098227 0.060284 255 220 0
0.159313 0.181118 0.092100 255 220 0
0.136016 0.076887 0.029177 255 220 0
0.157592 0.179755 0.055475 255 220 0
0.173560 0.146279 0.046484 255 220 0
0.129079 0.116555 0.026954 255 220 0
0.160834 0.136169 0.110214 255 220 0
0.150943 0.095450 0.097331 255 220 0
0.128577 0.079998 0.034376 255 220 0
0.093577 0.178179 0.065288 255 220 0
0.147132 0.048764 0.063516 255 220 0
0.139190 0.067634 0.028484 255 220 0
0.147732 0.070831 0.079100 255 220 0
0.148019 0.099172 0.098535 255 220 0
0.174656 0.149627 0.096787 255 220 0
0.150640 0.137847 0.112769 255 220 0
0.153928 0.117346 0.107091 255 220 0
0.104509 0.193320 0.061743 255 220 0
0.187575 0.125332 0.073604 255 220 0
0.155693 0.121241 0.108456 255 220 0
0.155577 0.037146 0.035475 255 220 0
0.125983 0.131902 0.106101 255 220 0
0.172117 0.147503 0.045478 255 220 0
0.171298 0.053049 0.069059 255 220 0
0.123514 0.185957 0.110020 255 220 0
0.132129 0.121653 0.104090 255 220 0
0.161363 0.049345 0.030298 255 220 0
0.188332 0.117860 0.062447 255 220 0
0.098683 0.191969 0.074165 255 220 0
0.113608 0.203754 0.091252 255 220 0
0.111566 0.178588 0.044869 255 220 0
0.139971 0.201735 0.075573 255 220 0
0.183149 0.080058 0.044274 255 220 0
0.109628 0.127095 0.088422 255 220 0
0.149468 0.194971 0.073860 255 220 0
0.168955 0.173585 0.070550 255 220 0
0.178845 0.119706 0.042931 255 220 0
0.155106 0.033393 0.045966 255 220 0
0.101563 0.131032 0.077665 255 220 0
0.186216 0.067623 0.060189 255 220 0
0.124131 0.170103 0.037215 255 220 0
0.117264 0.107141 0.080470 255 220 0
0.171404 0.160560 0.054064 255 220 0
0.189506 0.110769 0.064879 255 220 0
0.122907 0.126161 0.027975 255 220 0
0.124708 0.123889 0.101376 255 220 0
0.156957 0.107452 0.103541 255 220 0
0.166563 0.055128 0.072098 255 220 0
0.186606 0.110432 0.088412 255 220 0
0.145611 0.193379 0.062526 255 220 0
0.189146 0.114698 0.073403 255 220 0
0.189592 0.092611 0.070075 255 220 0
0.179335 0.113515 0.099072 255 220 0
0.143365 0.161436 0.034467 255 220 0
0.176064 0.142869 0.047895 255 220 0
0.130074 0.079207 0.033102 255 220 0
0.178441 0.139182 0.049550 255 220 0
0.095063 0.181162 0.063451 255 220 0
0.145907 0.195933 0.068010 255 220 0
0.108955 0.107505 0.048847 255 220 0
0.105878 0.117610 0.069623 255 220 0
0.105279 0.183415 0.101111 255 220 0
0.168669 0.114708 0.033455 255 220 0
0.188480 0.106116 0.056139 255 220 0
0.097901 0.190150 0.082946 255 220 0
0.166871 0.104048 0.101864 255 220 0
0.105221 0.198701 0.089098 255 220 0
0.141911 0.089755 0.089751 255 220 0
0.161146 0.035817 0.051995 255 220 0
0.119371 0.088142 0.058118 255 220 0
0.123816 0.077043 0.045737 255 220 0
0.180447 0.087076 0.088886 255 220 0
0.151705 0.114650 0.027381 255 220 0
0.121883 0.158288 0.032745 255 220 0
0.143912 0.141430 0.029172 255 220 0
0.159143 0.118108 0.107383 255 220 0
0.104251 0.119526 0.067513 255 220 0
0.159240 0.182520 0.089884 255 220 0
0.186650 0.070705 0.057774 255 220 0
0.095950 0.186837 0.079035 255 220 0
0.093805 0.181778 0.073236 255 220 0
0.099624 0.173877 0.096945 255 220 0
0.161056 0.120318 0.030671 255 220 0
0.118960 0.116050 0.090378 255 220 0
0.127595 0.067281 0.051858 255 220 0
0.175063 0.105425 0.036585 255 220 0
0.187853 0.112586 0.056514 255 220 0
0.102144 0.169526 0.045692 255 220 0
0.139736 0.037330 0.042684 255 220 0
0.123581 0.088215 0.069416 255 220 0
0.136656 0.056739 0.059569 255 220 0
0.136737 0.107943 0.026244 255 220 0
0.186807 0.107419 0.087956 255 220 0
0.109779 0.105450 0.049920 255 220 0
0.125634 0.161744 0.114187 255 220 0
0.168037 0.129218 0.106793 255 220 0
0.133057 0.178344 0.041658 255 220 0
0.105807 0.197560 0.091791 255 220 0
0.183455 0.137921 0.084886 255 220 0
0.121002 0.174520 0.112752 255 220 0
0.113467 0.145331 0.104602 255 220 0
0.161209 0.127543 0.031786 255 220 0
0.150407 0.124670 0.109452 255 220 0
0.146734 0.197347 0.076487 255 220 0
0.143390 0.159877 0.033890 255 220 0
0.108939 0.126030 0.086524 255 220 0
0.188962 0.086022 0.059711 255 220 0
0.127469 0.205746 0.071740 255 220 0
0.168920 0.172700 0.082331 255 220 0
0.180057 0.134689 0.050029 255 220 0
0.142676 0.197011 0.094651 255 220 0
0.138740 0.196315 0.061410 255 220 0
0.119468 0.197658 0.058544 255 220 0
0.092489 0.175523 0.076181 255 220 0
0.150863 0.042980 0.029488 255 220 0
0.109430 0.162182 0.037944 255 220 0
0.160775 0.094853 0.028065 255 220 0
0.133321 0.091020 0.083895 255 220 0
0.171022 0.059507 0.074473 255 220 0
0.161827 0.176400 0.093940 255 220 0
0.165363 0.178560 0.070344 255 220 0
0.109281 0.121002 0.082139 255 220 0
0.111646 0.147668 0.104214 255 220 0
0.096241 0.138270 0.055464 255 220 0
0.116806 0.116807 0.031841 255 220 0
0.105613 0.168512 0.104545 255 220 0
0.164462 0.078272 0.028579 255 220 0
0.126061 0.195708 0.056174 255 220 0
0.154146 0.175393 0.103797 255 220 0
0.183106 0.058480 0.062392 255 220 0
0.189326 0.114173 0.068609 255 220 0
0.185198 0.117643 0.090689 255 220 0
0.149844 0.092216 0.025837 255 220 0
0.135601 0.094823 0.089031 255 220 0
0.160526 0.184201 0.069519 255 220 0
0.097463 0.168592 0.093495 255 220 0
0.134130 0.056713 0.033864 255 220 0
0.146487 0.090577 0.025743 255 220 0
0.121707 0.107768 0.031253 255 220 0
0.139279 0.061437 0.065781 255 220 0
0.176878 0.131938 0.044296 255 220 0
0.161268 0.120785 0.030818 255 220 0
0.134638 0.120044 0.104317 255 220 0
0.145937 0.109783 0.103048 255 220 0
0.171717 0.096311 0.097606 255 220 0
0.099140 0.143026 0.084711 255 220 0
0.114619 0.097281 0.046058 255 220 0
0.189981 0.102624 0.065288 255 220 0
0.124258 0.183533 0.045412 255 220 0
0.162204 0.178704 0.089828 255 220 0
0.149653 0.114151 0.026950 255 220 0
0.124253 0.177792 0.112851 255 220 0
0.154737 0.119348 0.107824 255 220 0
0.132642 0.050384 0.040934 255 220 0
0.110152 0.178010 0.107050 255 220 0
0.184377 0.074609 0.047491 255 220 0
0.095847 0.170882 0.054125 255 220 0
0.099207 0.161881 0.095552 255 220 0
0.123514 0.148290 0.111094 255 220 0
0.130404 0.091926 0.081992 255 220 0
0.182819 0.103892 0.093926 255 220 0
0.129263 0.150622 0.113311 255 220 0
0.188221 0.116519 0.080055 255 220 0
0.131313 0.063199 0.056765 255 220 0
0.106921 0.173415 0.105421 255 220 0
0.115831 0.124520 0.093553 255 220 0
0.122878 0.098152 0.033485 255 220 0
0.188701 0.117081 0.064468 255 220 0
0.158007 0.114827 0.106319 255 220 0
0.153554 0.155106 0.111861 255 220 0
0.092320 0.175761 0.071487 255 220 0
0.149888 0.194479 0.072736 255 220 0
0.140739 0.098735 0.095450 255 220 0
0.165335 0.072076 0.028928 255 220 0
0.157999 0.163885 0.042118 255 220 0
0.154174 0.045518 0.064713 255 220 0
0.114876 0.172308 0.110643 255 220 0
0.124561 0.103351 0.030839 255 220 0
0.166046 0.066632 0.029512 255 220 0
0.142563 0.182837 0.048068 255 220 0
0.128049 0.071628 0.038263 255 220 0
0.122124 0.205541 0.091994 255 220 0
0.138111 0.135636 0.027446 255 220 0
0.187489 0.126152 0.071127 255 220 0
0.125587 0.194623 0.054967 255 220 0
0.142209 0.046756 0.029719 255 220 0
0.179357 0.087967 0.039131 255 220 0
0.158410 0.098298 0.027604 255 220 0
0.099176 0.129079 0.054371 255 220 0
0.120164 0.104572 0.082001 255 220 0
0.121223 0.202052 0.097624 255 220 0
0.140061 0.121842 0.106771 255 220 0
0.160107 0.072460 0.027102 255 220 0
0.155886 0.140229 0.112103 255 220 0
0.137503 0.044793 0.034277 255 220 0
0.182354 0.060351 0.050851 255 220 0
0.171908 0.087698 0.093193 255 220 0
0.147986 0.195689 0.071832 255 220 0
0.132997 0.204562 0.073133 255 220 0
0.172484 0.167908 0.069651 255 220 0
0.140810 0.048992 0.029816 255 220 0
0.154905 0.150555 0.112083 255 220 0
0.092681 0.161363 0.079464 255 220 0
0.176306 0.056964 0.070032 255 220 0
0.124820 0.075681 0.054729 255 220 0
0.151085 0.077452 0.025766 255 220 0
0.187315 0.079026 0.072725 255 220 0
0.177825 0.157390 0.080841 255 220 0
0.161389 0.063454 0.027820 255 220 0
0.139995 0.161378 0.033716 255 220 0
0.150944 0.171324 0.108059 255 220 0
0.116613 0.206273 0.074805 255 220 0
0.131168 0.147155 0.029052 255 220 0
0.129265 0.075071 0.064729 255 220 0
0.139434 0.071398 0.028067 255 220 0
0.093753 0.180977 0.077039 255 220 0
0.152847 0.045297 0.064152 255 220 0
0.134553 0.076951 0.073452 255 220 0
0.173508 0.164165 0.063898 255 220 0
0.175331 0.154352 0.054999 255 220 0
0.182563 0.056896 0.060731 255 220 0
0.097758 0.133672 0.054062 255 220 0
0.153675 0.117482 0.107126 255 220 0
0.178263 0.152500 0.087304 255 220 0
0.126292 0.070027 0.050604 255 220 0
0.163732 0.038647 0.056250 255 220 0
0.137195 0.130449 0.109393 255 220 0
0.172457 0.156158 0.051624 255 220 0
0.137761 0.182634 0.045875 255 220 0
0.095862 0.141580 0.073634 255 220 0
0.181368 0.126826 0.048729 255 220 0
0.182527 0.145458 0.079164 255 220 0
0.137619 0.055769 0.030654 255 220 0
0.149996 0.136293 0.112552 255 220 0
0.159745 0.184664 0.067941 255 220 0
0.154327 0.165806 0.041023 255 220 0
0.141327 0.167715 0.036713 255 220 0
0.175954 0.072256 0.081968 255 220 0
0.172122 0.100407 0.033831 255 220 0
0.173496 0.106408 0.101027 255 220 0
0.180632 0.149223 0.083148 255 220 0
0.146106 0.095634 0.095956 255 220 0
0.179225 0.089280 0.039004 255 220 0
0.104744 0.141612 0.093028 255 220 0
0.161001 0.066758 0.080865 255 220 0
0.166987 0.157142 0.102590 255 220 0
0.105695 0.113304 0.053338 255 220 0
0.170634 0.105744 0.033464 255 220 0
0.168852 0.087480 0.030958 255 220 0
0.120083 0.168844 0.112949 255 220 0
0.129993 0.169534 0.036412 255 220 0
0.104928 0.174513 0.046022 255 220 0
