ply
format ascii 1.0
element vertex 1024
property float x
property float y
property float z
property uchar red
property uchar green
property uchar blue
end_header
0.598458 0.128337 0.106549 255 220 0
0.507706 0.137478 0.092751 255 220 0
0.461473 0.094489 0.044494 255 220 0
0.500984 0.077627 0.105161 255 220 0
0.570495 0.122219 0.051050 255 220 0
0.525878 0.102918 0.116765 255 220 0
0.557871 0.123337 0.046646 255 220 0
0.507649 0.143506 0.083840 255 220 0
0.553809 0.130437 0.048700 255 220 0
0.454671 0.128132 0.064229 255 220 0
0.550808 0.111579 0.122277 255 220 0
0.509510 0.056765 0.073517 255 220 0
0.538600 0.124045 0.115480 255 220 0
0.561265 0.082419 0.114861 255 220 0
0.488214 0.060761 0.087253 255 220 0
0.446130 0.117577 0.082369 255 220 0
0.579134 0.145852 0.073379 255 220 0
0.588214 0.132670 0.110692 255 220 0
0.522640 0.142250 0.095924 255 220 0
0.478009 0.134007 0.071501 255 220 0
0.559460 0.153916 0.083405 255 220 0
0.592812 0.086892 0.092983 255 220 0
0.516095 0.058028 0.071068 255 220 0
0.598616 0.116950 0.111149 255 220 0
0.441032 0.103597 0.050802 255 220 0
0.517193 0.119885 0.042745 255 220 0
0.593933 0.134419 0.105103 255 220 0
0.604776 0.127924 0.093412 255 220 0
0.526719 0.151388 0.077049 255 220 0
0.599100 0.093183 0.091736 255 220 0
0.584425 0.100890 0.118795 255 220 0
0.521689 0.103854 0.115308 255 220 0
0.473652 0.072105 0.090126 255 220 0
0.449687 0.125032 0.058958 255 220 0
0.502261 0.103658 0.039608 255 220 0
0.515560 0.126685 0.105304 255 220 0
0.557473 0.109977 0.044217 255 220 0
0.594841 0.117479 0.113910 255 220 0
0.505221 0.137152 0.055153 255 220 0
0.506133 0.068266 0.101874 255 220 0
0.531036 0.099053 0.039556 255 220 0
0.555316 0.078020 0.054575 255 220 0
0.569572 0.135708 0.113955 255 220 0
0.559762 0.066528 0.089079 255 220 0
0.597429 0.095747 0.104751 255 220 0
0.473917 0.111233 0.094213 255 220 0
0.520061 0.148887 0.082008 255 220 0
0.554434 0.126057 0.118829 255 220 0
0.604850 0.126403 0.097597 255 220 0
0.591822 0.090346 0.076344 255 220 0
0.522137 0.144694 0.092452 255 220 0
0.580222 0.139860 0.107756 255 220 0
0.486625 0.117851 0.096727 255 220 0
0.457425 0.120937 0.083518 255 220 0
0.453790 0.104530 0.088290 255 220 0
0.439589 0.111753 0.083041 255 220 0
0.604942 0.110556 0.103496 255 220 0
0.444510 0.106827 0.049520 255 220 0
0.464757 0.119086 0.087081 255 220 0
0.482364 0.122473 0.048074 255 220 0
0.603514 0.100995 0.085053 255 220 0
0.522148 0.144954 0.092074 255 220 0
0.502663 0.057647 0.070710 255 220 0
0.517328 0.079046 0.044476 255 220 0
0.482728 0.135631 0.072191 255 220 0
0.525831 0.144214 0.057479 255 220 0
0.460587 0.107540 0.045107 255 220 0
0.549756 0.152558 0.090449 255 220 0
0.590928 0.086270 0.083714 255 220 0
0.600081 0.110263 0.109983 255 220 0
0.519370 0.089034 0.040504 255 220 0
0.529580 0.063191 0.063386 255 220 0
0.563707 0.111250 0.123740 255 220 0
0.585562 0.081411 0.086868 255 220 0
0.447565 0.102398 0.086499 255 220 0
0.493715 0.121949 0.045935 255 220 0
0.573144 0.073328 0.086932 255 220 0
0.468309 0.108248 0.092914 255 220 0
0.527398 0.087254 0.115180 255 220 0
0.482781 0.094258 0.041035 255 220 0
0.517545 0.147543 0.066248 255 220 0
0.489590 0.132776 0.086559 255 220 0
0.588664 0.141078 0.075658 255 220 0
0.563447 0.145818 0.063721 255 220 0
0.446914 0.118467 0.082035 255 220 0
0.523227 0.132289 0.105191 255 220 0
0.524649 0.086689 0.114400 255 220 0
0.565766 0.089390 0.118769 255 220 0
0.517706 0.148807 0.079079 255 220 0
0.461664 0.078429 0.051325 255 220 0
0.557350 0.077544 0.056157 255 220 0
0.515739 0.130272 0.103086 255 220 0
0.572559 0.076206 0.071865 255 220 0
0.603718 0.100960 0.097515 255 220 0
0.448900 0.100956 0.047522 255 220 0
0.530943 0.060488 0.069813 255 220 0
0.504971 0.062907 0.097384 255 220 0
0.582333 0.122920 0.058242 255 220 0
0.582537 0.095163 0.060149 255 220 0
0.545493 0.150108 0.065009 255 220 0
0.454859 0.094522 0.088989 255 220 0
0.504181 0.112616 0.106617 255 220 0
0.560544 0.070260 0.100889 255 220 0
0.553868 0.097820 0.122004 255 220 0
0.586370 0.133545 0.066348 255 220 0
0.516361 0.124202 0.044462 255 220 0
0.587853 0.123927 0.115964 255 220 0
0.455725 0.128738 0.066688 255 220 0
0.587229 0.109686 0.060361 255 220 0
0.445434 0.086769 0.082038 255 220 0
0.545131 0.109062 0.041405 255 220 0
0.529049 0.096828 0.117452 255 220 0
0.474622 0.114004 0.093412 255 220 0
0.579408 0.141907 0.068407 255 220 0
0.583747 0.091834 0.114324 255 220 0
0.556284 0.070477 0.104174 255 220 0
0.599962 0.094602 0.095733 255 220 0
0.576575 0.150063 0.082363 255 220 0
0.576060 0.140670 0.108267 255 220 0
0.554656 0.154367 0.082502 255 220 0
0.567895 0.091373 0.119586 255 220 0
0.520993 0.109870 0.113771 255 220 0
0.547015 0.078220 0.050751 255 220 0
0.482541 0.059661 0.074391 255 220 0
0.496602 0.056389 0.078378 255 220 0
0.529760 0.083376 0.114460 255 220 0
0.562716 0.072343 0.102950 255 220 0
0.518493 0.121473 0.109219 255 220 0
0.512374 0.061717 0.062157 255 220 0
0.597039 0.094824 0.104200 255 220 0
0.447472 0.075470 0.071491 255 220 0
0.535682 0.059012 0.085211 255 220 0
0.567448 0.114168 0.048383 255 220 0
0.488336 0.071687 0.049768 255 220 0
0.519204 0.068007 0.053903 255 220 0
0.578370 0.081604 0.105564 255 220 0
0.530240 0.105823 0.117781 255 220 0
0.539246 0.142473 0.054928 255 220 0
0.607318 0.108032 0.089598 255 220 0
0.492214 0.079310 0.102829 255 220 0
0.554586 0.065621 0.074376 255 220 0
0.480585 0.130716 0.056753 255 220 0
0.557606 0.150857 0.095739 255 220 0
0.580183 0.124184 0.057243 255 220 0
0.532286 0.072635 0.051572 255 220 0
0.477710 0.096314 0.041513 255 220 0
0.548318 0.096975 0.121248 255 220 0
0.589880 0.112034 0.062307 255 220 0
0.522170 0.104846 0.039170 255 220 0
0.550285 0.099333 0.121918 255 220 0
0.471398 0.090471 0.043293 255 220 0
0.542134 0.134051 0.111323 255 220 0
0.520502 0.089132 0.114017 255 220 0
0.504209 0.125791 0.100521 255 220 0
0.475997 0.070191 0.090028 255 220 0
0.483279 0.135857 0.071841 255 220 0
0.501383 0.118722 0.043583 255 220 0
0.480821 0.088493 0.099979 255 220 0
0.512944 0.078376 0.108737 255 220 0
0.561128 0.067914 0.077136 255 220 0
0.596554 0.092336 0.100942 255 220 0
0.605267 0.125833 0.085575 255 220 0
0.568853 0.070946 0.084022 255 220 0
0.573865 0.125885 0.119648 255 220 0
0.439065 0.112108 0.052972 255 220 0
0.604653 0.127710 0.095369 255 220 0
0.444826 0.089280 0.052750 255 220 0
0.456696 0.091693 0.046408 255 220 0
0.440288 0.103229 0.084065 255 220 0
0.431638 0.114016 0.059882 255 220 0
0.511910 0.145548 0.083253 255 220 0
0.595292 0.135603 0.077624 255 220 0
0.511220 0.140611 0.091241 255 220 0
0.565573 0.151861 0.075605 255 220 0
0.493914 0.138477 0.080830 255 220 0
0.428799 0.110477 0.072834 255 220 0
0.562102 0.090983 0.119942 255 220 0
0.531087 0.061276 0.067890 255 220 0
0.607485 0.109059 0.094166 255 220 0
0.586837 0.137081 0.069392 255 220 0
0.544652 0.068715 0.060080 255 220 0
0.592467 0.091071 0.105838 255 220 0
0.460119 0.094745 0.044782 255 220 0
0.466731 0.104975 0.043520 255 220 0
0.540224 0.133392 0.111154 255 220 0
0.564005 0.075287 0.063618 255 220 0
0.439534 0.097750 0.083121 255 220 0
0.470851 0.065003 0.080023 255 220 0
0.461891 0.093033 0.091866 255 220 0
0.443873 0.126085 0.065383 255 220 0
0.571352 0.075792 0.101456 255 220 0
0.530026 0.136919 0.104678 255 220 0
0.465628 0.115724 0.047131 255 220 0
0.495000 0.057324 0.084390 255 220 0
0.528073 0.126312 0.110819 255 220 0
0.507547 0.097657 0.039098 255 220 0
0.474700 0.086871 0.097109 255 220 0
0.525659 0.080476 0.044483 255 220 0
0.564278 0.121034 0.048051 255 220 0
0.597782 0.093183 0.099713 255 220 0
0.492628 0.134915 0.057902 255 220 0
0.520523 0.141375 0.055143 255 220 0
0.505455 0.085253 0.041341 255 220 0
0.475143 0.088460 0.043128 255 220 0
0.534751 0.135699 0.107587 255 220 0
0.591290 0.142147 0.083698 255 220 0
0.574533 0.116371 0.122575 255 220 0
0.542270 0.144980 0.057675 255 220 0
0.530726 0.057825 0.083769 255 220 0
0.551885 0.070530 0.061345 255 220 0
0.537839 0.149197 0.063566 255 220 0
0.597182 0.094753 0.079715 255 220 0
0.555629 0.108745 0.043610 255 220 0
0.592745 0.132145 0.108316 255 220 0
0.546238 0.138027 0.051979 255 220 0
0.583026 0.141820 0.071001 255 220 0
0.525734 0.113778 0.040690 255 220 0
0.492059 0.098062 0.104368 255 220 0
0.509953 0.065228 0.100753 255 220 0
0.500978 0.125663 0.046922 255 220 0
0.569597 0.074909 0.101511 255 220 0
0.443980 0.117457 0.081860 255 220 0
0.462119 0.070761 0.059169 255 220 0
0.570001 0.072004 0.080689 255 220 0
0.465566 0.084183 0.092160 255 220 0
0.605014 0.113237 0.103967 255 220 0
0.476943 0.126284 0.052402 255 220 0
0.474057 0.063804 0.080833 255 220 0
0.557879 0.082607 0.052237 255 220 0
0.603922 0.128839 0.087228 255 220 0
0.525531 0.117352 0.041641 255 220 0
0.545203 0.061263 0.083680 255 220 0
0.553294 0.071721 0.060543 255 220 0
0.530161 0.079191 0.112917 255 220 0
0.486921 0.124230 0.048418 255 220 0
0.513499 0.134680 0.098545 255 220 0
0.552433 0.099478 0.122185 255 220 0
0.550400 0.124354 0.045466 255 220 0
0.584482 0.146845 0.089586 255 220 0
0.497630 0.107491 0.040505 255 220 0
0.498603 0.068215 0.099422 255 220 0
0.528171 0.069802 0.107293 255 220 0
0.502556 0.063198 0.096876 255 220 0
0.448400 0.125999 0.061381 255 220 0
0.549035 0.104562 0.122292 255 220 0
0.580009 0.114001 0.055277 255 220 0
0.600062 0.110083 0.072665 255 220 0
0.604194 0.111160 0.104996 255 220 0
0.542395 0.114847 0.119422 255 220 0
0.495884 0.059761 0.090160 255 220 0
0.562950 0.153422 0.083883 255 220 0
0.464553 0.067428 0.078162 255 220 0
0.447367 0.126166 0.062398 255 220 0
0.472969 0.087032 0.096340 255 220 0
0.580530 0.141692 0.105439 255 220 0
0.505256 0.132740 0.050947 255 220 0
0.578636 0.135077 0.112776 255 220 0
0.436483 0.086194 0.071019 255 220 0
0.543732 0.061997 0.091673 255 220 0
0.467073 0.117281 0.047680 255 220 0
0.574049 0.079585 0.067452 255 220 0
0.536684 0.109443 0.040369 255 220 0
0.448330 0.121480 0.080211 255 220 0
0.570449 0.121287 0.050790 255 220 0
0.561265 0.074506 0.062406 255 220 0
0.576425 0.077859 0.074445 255 220 0
0.580368 0.141277 0.106045 255 220 0
0.502150 0.067230 0.053287 255 220 0
0.571779 0.111498 0.050417 255 220 0
0.537162 0.070127 0.108047 255 220 0
0.578242 0.140186 0.065944 255 220 0
0.453649 0.090310 0.047904 255 220 0
0.558167 0.126000 0.047699 255 220 0
0.456653 0.073793 0.058400 255 220 0
0.497961 0.081307 0.105548 255 220 0
0.469635 0.120188 0.048996 255 220 0
0.502217 0.107895 0.106994 255 220 0
0.489300 0.060521 0.066630 255 220 0
0.524136 0.081615 0.043693 255 220 0
0.541854 0.121268 0.117441 255 220 0
0.558820 0.097592 0.045590 255 220 0
0.567558 0.071223 0.077536 255 220 0
0.532305 0.082707 0.044107 255 220 0
0.539812 0.123578 0.116033 255 220 0
0.471315 0.063134 0.072372 255 220 0
0.491659 0.111311 0.041944 255 220 0
0.541166 0.129929 0.113537 255 220 0
0.475187 0.103989 0.042180 255 220 0
0.520831 0.097926 0.039077 255 220 0
0.473702 0.131100 0.077979 255 220 0
0.498649 0.058982 0.067734 255 220 0
0.606451 0.114591 0.100997 255 220 0
0.488449 0.059275 0.084509 255 220 0
0.454223 0.079666 0.083192 255 220 0
0.506596 0.099105 0.110359 255 220 0
0.543648 0.067108 0.103725 255 220 0
0.542508 0.120572 0.043217 255 220 0
0.598298 0.111595 0.070317 255 220 0
0.473100 0.069296 0.056255 255 220 0
0.549865 0.149248 0.063996 255 220 0
0.449991 0.080574 0.080745 255 220 0
0.527304 0.133878 0.105879 255 220 0
0.487530 0.103021 0.101651 255 220 0
0.460853 0.129769 0.070151 255 220 0
0.515664 0.147932 0.069172 255 220 0
0.521254 0.117299 0.041705 255 220 0
0.547454 0.127351 0.116618 255 220 0
0.572155 0.084096 0.059828 255 220 0
0.571537 0.072408 0.085627 255 220 0
0.603671 0.100175 0.095769 255 220 0
0.528588 0.087646 0.041532 255 220 0
0.529933 0.066364 0.058342 255 220 0
0.571050 0.103984 0.123080 255 220 0
0.532959 0.059714 0.073226 255 220 0
0.564189 0.079641 0.111591 255 220 0
0.607870 0.114118 0.095884 255 220 0
0.583352 0.079777 0.089821 255 220 0
0.457304 0.095759 0.090034 255 220 0
0.595654 0.136199 0.100201 255 220 0
0.518913 0.067053 0.103991 255 220 0
0.551160 0.154485 0.079478 255 220 0
0.562611 0.152643 0.089861 255 220 0
0.510505 0.135381 0.051779 255 220 0
0.552776 0.076832 0.054390 255 220 0
0.505437 0.056125 0.086420 255 220 0
0.483085 0.119064 0.045969 255 220 0
0.532837 0.106362 0.039746 255 220 0
0.585796 0.097165 0.062062 255 220 0
0.508229 0.088251 0.110468 255 220 0
0.534756 0.132853 0.047916 255 220 0
0.603310 0.100173 0.097420 255 220 0
0.590762 0.109665 0.063176 255 220 0
0.543085 0.126843 0.045523 255 220 0
0.452043 0.110155 0.047786 255 220 0
0.523745 0.056585 0.081558 255 220 0
0.536126 0.135568 0.108210 255 220 0
0.462536 0.075920 0.086013 255 220 0
0.545567 0.120700 0.118650 255 220 0
0.438583 0.123234 0.072831 255 220 0
0.466065 0.083661 0.092241 255 220 0
0.477171 0.104856 0.097102 255 220 0
0.577102 0.120353 0.054220 255 220 0
0.592677 0.140112 0.096187 255 220 0
0.445126 0.126263 0.064595 255 220 0
0.530014 0.124781 0.044171 255 220 0
0.479630 0.064618 0.086758 255 220 0
0.447686 0.107254 0.086076 255 220 0
0.514649 0.143482 0.059518 255 220 0
0.513961 0.121182 0.043437 255 220 0
0.584336 0.090781 0.113023 255 220 0
0.562140 0.097237 0.046957 255 220 0
0.569254 0.147756 0.069361 255 220 0
0.560556 0.101363 0.045497 255 220 0
0.587247 0.116647 0.060422 255 220 0
0.520853 0.113287 0.112843 255 220 0
0.543461 0.147137 0.099175 255 220 0
0.526673 0.139362 0.100969 255 220 0
0.468140 0.105765 0.093405 255 220 0
0.541319 0.084957 0.116911 255 220 0
0.545668 0.108457 0.041446 255 220 0
0.493885 0.078883 0.044318 255 220 0
0.463125 0.103751 0.091798 255 220 0
0.555556 0.143290 0.106806 255 220 0
0.580391 0.083635 0.107111 255 220 0
0.563981 0.145764 0.104234 255 220 0
0.522117 0.118219 0.041962 255 220 0
0.548602 0.099984 0.121790 255 220 0
0.600601 0.132818 0.096904 255 220 0
0.461178 0.068918 0.077270 255 220 0
0.489068 0.125317 0.048765 255 220 0
0.531784 0.138856 0.103754 255 220 0
0.549065 0.109591 0.042137 255 220 0
0.506909 0.130263 0.098715 255 220 0
0.501944 0.098215 0.039322 255 220 0
0.518525 0.068414 0.053308 255 220 0
0.490214 0.071335 0.098153 255 220 0
0.581916 0.083104 0.072318 255 220 0
0.594145 0.093262 0.106560 255 220 0
0.535217 0.060519 0.072086 255 220 0
0.525526 0.139415 0.100369 255 220 0
0.547271 0.081605 0.048400 255 220 0
0.524213 0.122388 0.043341 255 220 0
0.571976 0.114804 0.123154 255 220 0
0.518243 0.072714 0.107359 255 220 0
0.453391 0.095774 0.088501 255 220 0
0.550962 0.075712 0.054608 255 220 0
0.570074 0.139390 0.110740 255 220 0
0.471241 0.097517 0.042377 255 220 0
0.531080 0.146532 0.094709 255 220 0
0.465986 0.078147 0.089669 255 220 0
0.583149 0.130279 0.114718 255 220 0
0.474647 0.098516 0.041862 255 220 0
0.480009 0.102235 0.098633 255 220 0
0.534102 0.151675 0.070273 255 220 0
0.599690 0.133459 0.083727 255 220 0
0.514827 0.072615 0.048627 255 220 0
0.537596 0.138099 0.051266 255 220 0
0.485358 0.090390 0.041292 255 220 0
0.530042 0.118734 0.042057 255 220 0
0.439910 0.112409 0.052664 255 220 0
0.583246 0.080086 0.084037 255 220 0
0.551795 0.149424 0.064584 255 220 0
0.538020 0.105879 0.119940 255 220 0
0.519032 0.139452 0.097058 255 220 0
0.582608 0.147037 0.080025 255 220 0
0.568440 0.084678 0.056643 255 220 0
0.560516 0.124613 0.120420 255 220 0
0.516720 0.146369 0.063856 255 220 0
0.541703 0.096720 0.041304 255 220 0
0.592441 0.111888 0.064481 255 220 0
0.502442 0.069032 0.101236 255 220 0
0.592924 0.113229 0.115723 255 220 0
0.565911 0.075401 0.065230 255 220 0
0.461396 0.071611 0.081253 255 220 0
0.591074 0.126322 0.113117 255 220 0
0.575298 0.075804 0.078387 255 220 0
0.539568 0.081682 0.115424 255 220 0
0.534675 0.064068 0.100770 255 220 0
0.445543 0.110699 0.084921 255 220 0
0.571398 0.094217 0.120418 255 220 0
0.544216 0.143549 0.056352 255 220 0
0.478210 0.107082 0.097084 255 220 0
0.517539 0.077302 0.109391 255 220 0
0.560520 0.098052 0.122376 255 220 0
0.468564 0.067100 0.061825 255 220 0
0.488454 0.129897 0.052954 255 220 0
0.479200 0.107939 0.042422 255 220 0
0.531499 0.078143 0.112696 255 220 0
0.488149 0.133210 0.057383 255 220 0
0.481613 0.095131 0.041095 255 220 0
0.523030 0.150135 0.080419 255 220 0
0.488033 0.097230 0.040319 255 220 0
0.587629 0.089961 0.109625 255 220 0
0.434964 0.092652 0.076346 255 220 0
0.565230 0.083030 0.114353 255 220 0
0.529702 0.110946 0.040145 255 220 0
0.471593 0.070622 0.055058 255 220 0
0.538216 0.059940 0.077233 255 220 0
0.455478 0.105429 0.088735 255 220 0
0.474244 0.081581 0.045816 255 220 0
0.535523 0.143420 0.100802 255 220 0
0.431461 0.110499 0.077879 255 220 0
0.474536 0.064082 0.065144 255 220 0
0.575667 0.140286 0.064459 255 220 0
0.540952 0.063475 0.067612 255 220 0
0.494087 0.133765 0.088338 255 220 0
0.470155 0.079500 0.092721 255 220 0
0.524977 0.097791 0.116493 255 220 0
0.463659 0.071766 0.083193 255 220 0
0.480907 0.061782 0.067394 255 220 0
0.531147 0.090173 0.041054 255 220 0
0.575511 0.140052 0.109064 255 220 0
0.490359 0.063934 0.092478 255 220 0
0.516665 0.147665 0.082289 255 220 0
0.451072 0.127715 0.070692 255 220 0
0.552891 0.117763 0.121363 255 220 0
0.527843 0.116457 0.041375 255 220 0
0.556936 0.069258 0.101708 255 220 0
0.475497 0.092943 0.097702 255 220 0
0.470957 0.127001 0.054954 255 220 0
0.554458 0.071855 0.106945 255 220 0
0.500992 0.133774 0.053086 255 220 0
0.444728 0.115783 0.082983 255 220 0
0.491044 0.064798 0.057873 255 220 0
0.567001 0.128201 0.051757 255 220 0
0.488633 0.077841 0.100877 255 220 0
0.554162 0.152364 0.091801 255 220 0
0.557757 0.114713 0.044782 255 220 0
0.527191 0.142644 0.097811 255 220 0
0.581240 0.081353 0.074832 255 220 0
0.531972 0.066794 0.104768 255 220 0
0.578569 0.146180 0.073450 255 220 0
0.515209 0.062011 0.062050 255 220 0
0.521043 0.070842 0.051149 255 220 0
0.577264 0.115596 0.122143 255 220 0
0.450020 0.073222 0.070544 255 220 0
0.562531 0.144156 0.106276 255 220 0
0.482110 0.101216 0.041034 255 220 0
0.468540 0.129030 0.059037 255 220 0
0.530198 0.105793 0.039522 255 220 0
0.486090 0.129989 0.087483 255 220 0
0.457050 0.096732 0.045306 255 220 0
0.598356 0.120898 0.071027 255 220 0
0.579897 0.114278 0.121618 255 220 0
0.562532 0.123869 0.048215 255 220 0
0.600064 0.119856 0.072679 255 220 0
0.527204 0.079563 0.045211 255 220 0
0.539227 0.137433 0.107890 255 220 0
0.550370 0.063385 0.090669 255 220 0
0.464015 0.105820 0.044128 255 220 0
0.482447 0.063722 0.062249 255 220 0
0.462185 0.097237 0.043992 255 220 0
0.555610 0.115097 0.044238 255 220 0
0.503996 0.097909 0.109439 255 220 0
0.508798 0.112119 0.040881 255 220 0
0.484295 0.101210 0.100556 255 220 0
0.459144 0.081803 0.049984 255 220 0
0.562135 0.067507 0.087998 255 220 0
0.503031 0.059723 0.065601 255 220 0
0.596109 0.092738 0.080860 255 220 0
0.481618 0.132783 0.080635 255 220 0
0.513164 0.101276 0.038987 255 220 0
0.529938 0.151905 0.074480 255 220 0
0.554111 0.069678 0.064230 255 220 0
0.469929 0.069399 0.085316 255 220 0
0.543835 0.109371 0.121029 255 220 0
0.557611 0.150295 0.096969 255 220 0
0.568287 0.076121 0.104852 255 220 0
0.470300 0.131859 0.070626 255 220 0
0.430750 0.108944 0.077173 255 220 0
0.515806 0.101378 0.113568 255 220 0
0.482710 0.119651 0.093909 255 220 0
0.577741 0.076329 0.091314 255 220 0
0.518510 0.104317 0.114124 255 220 0
0.508550 0.068798 0.051634 255 220 0
0.572069 0.095832 0.120952 255 220 0
0.484858 0.126450 0.050587 255 220 0
0.451632 0.102255 0.087795 255 220 0
0.586142 0.146058 0.088351 255 220 0
0.522704 0.117513 0.112324 255 220 0
0.439286 0.097904 0.083012 255 220 0
0.506343 0.124451 0.102387 255 220 0
0.589030 0.083828 0.089075 255 220 0
0.438962 0.083733 0.071896 255 220 0
0.593228 0.126358 0.067977 255 220 0
0.455306 0.128237 0.064192 255 220 0
0.547062 0.068391 0.061770 255 220 0
0.576822 0.106217 0.122388 255 220 0
0.581532 0.147937 0.081505 255 220 0
0.478132 0.122945 0.089661 255 220 0
0.500818 0.137597 0.057673 255 220 0
0.593909 0.093875 0.074943 255 220 0
0.431816 0.111885 0.058665 255 220 0
0.499842 0.057569 0.088075 255 220 0
0.582631 0.139935 0.068682 255 220 0
0.577709 0.144713 0.102442 255 220 0
0.547921 0.127015 0.046121 255 220 0
0.601755 0.115758 0.074134 255 220 0
0.602662 0.128965 0.099756 255 220 0
0.506831 0.108045 0.040057 255 220 0
0.486520 0.112682 0.098926 255 220 0
0.528482 0.111384 0.116008 255 220 0
0.480943 0.133000 0.079639 255 220 0
0.526688 0.148499 0.064266 255 220 0
0.583433 0.086268 0.069320 255 220 0
0.568887 0.070960 0.088246 255 220 0
0.489230 0.126499 0.092349 255 220 0
0.586235 0.140601 0.072409 255 220 0
0.512760 0.107326 0.111337 255 220 0
0.459575 0.127183 0.077754 255 220 0
0.440354 0.081056 0.065057 255 220 0
0.466714 0.120907 0.086624 255 220 0
0.438879 0.124377 0.066333 255 220 0
0.506864 0.145484 0.071630 255 220 0
0.563344 0.128332 0.050345 255 220 0
0.601475 0.103789 0.105780 255 220 0
0.578649 0.083053 0.067742 255 220 0
0.441812 0.125560 0.066349 255 220 0
0.533015 0.145832 0.096663 255 220 0
0.524178 0.136844 0.102049 255 220 0
0.517947 0.057285 0.073947 255 220 0
0.469579 0.128795 0.079921 255 220 0
0.594593 0.089519 0.098770 255 220 0
0.480108 0.091911 0.041672 255 220 0
0.513733 0.056976 0.073641 255 220 0
0.498493 0.083378 0.042158 255 220 0
0.449031 0.117904 0.052056 255 220 0
0.475377 0.132667 0.074791 255 220 0
0.501136 0.119710 0.102547 255 220 0
0.514499 0.147471 0.080283 255 220 0
0.595454 0.119707 0.112948 255 220 0
0.444348 0.084080 0.056881 255 220 0
0.462902 0.105605 0.091416 255 220 0
0.531543 0.061971 0.097952 255 220 0
0.447634 0.079686 0.058396 255 220 0
0.569848 0.142232 0.107892 255 220 0
0.497723 0.133762 0.090621 255 220 0
0.587023 0.129253 0.113662 255 220 0
0.547984 0.085622 0.046311 255 220 0
0.587752 0.082988 0.087344 255 220 0
0.596961 0.134559 0.101193 255 220 0
0.563196 0.123667 0.048379 255 220 0
0.526112 0.109388 0.115713 255 220 0
0.549320 0.150524 0.066019 255 220 0
0.578526 0.079668 0.073831 255 220 0
0.597938 0.131899 0.103728 255 220 0
0.557980 0.140313 0.056331 255 220 0
0.473219 0.130621 0.078686 255 220 0
0.602487 0.128554 0.081836 255 220 0
0.473503 0.114621 0.045315 255 220 0
0.446332 0.078225 0.061212 255 220 0
0.561256 0.128047 0.118880 255 220 0
0.435628 0.089893 0.060181 255 220 0
0.590556 0.107879 0.117061 255 220 0
0.497302 0.062011 0.093679 255 220 0
0.545622 0.154012 0.076268 255 220 0
0.601938 0.110617 0.074970 255 220 0
0.527042 0.057212 0.080567 255 220 0
0.478081 0.130058 0.056749 255 220 0
0.449412 0.114284 0.084762 255 220 0
0.574812 0.079164 0.069152 255 220 0
0.513753 0.093632 0.039402 255 220 0
0.560723 0.136018 0.054004 255 220 0
0.479294 0.067718 0.056415 255 220 0
0.516339 0.092375 0.039662 255 220 0
0.481771 0.119702 0.093451 255 220 0
0.568209 0.075713 0.104255 255 220 0
0.498249 0.103753 0.039858 255 220 0
0.559330 0.075297 0.108958 255 220 0
0.559104 0.068029 0.073043 255 220 0
0.554921 0.074039 0.058550 255 220 0
0.518169 0.115152 0.111352 255 220 0
0.590108 0.130191 0.111415 255 220 0
0.588451 0.083686 0.094589 255 220 0
0.501726 0.083489 0.042008 255 220 0
0.512397 0.075321 0.046347 255 220 0
0.429606 0.114300 0.071974 255 220 0
0.491869 0.069403 0.097628 255 220 0
0.571665 0.108997 0.123438 255 220 0
0.535408 0.151253 0.087719 255 220 0
0.498126 0.121944 0.045351 255 220 0
0.447162 0.111678 0.085064 255 220 0
0.535924 0.073567 0.051499 255 220 0
0.512999 0.116475 0.041862 255 220 0
0.457637 0.112119 0.087906 255 220 0
0.500937 0.056548 0.074605 255 220 0
0.539537 0.136085 0.109038 255 220 0
0.589666 0.140613 0.076297 255 220 0
0.501306 0.057180 0.072253 255 220 0
0.603620 0.106515 0.079365 255 220 0
0.524247 0.076366 0.046971 255 220 0
0.608224 0.113078 0.092483 255 220 0
0.510375 0.056791 0.089826 255 220 0
0.450906 0.088200 0.049970 255 220 0
0.500709 0.143008 0.071174 255 220 0
0.584401 0.115606 0.119904 255 220 0
0.458929 0.118133 0.049824 255 220 0
0.495412 0.136189 0.058435 255 220 0
0.559387 0.108858 0.123592 255 220 0
0.489155 0.135858 0.081550 255 220 0
0.598519 0.135741 0.092991 255 220 0
0.584009 0.132307 0.063815 255 220 0
0.492337 0.098516 0.104429 255 220 0
0.519321 0.061987 0.062886 255 220 0
0.539110 0.110958 0.040798 255 220 0
0.483139 0.077539 0.098359 255 220 0
0.489507 0.066341 0.055807 255 220 0
0.510986 0.142457 0.088506 255 220 0
0.522967 0.140207 0.053554 255 220 0
0.598531 0.094508 0.100596 255 220 0
0.544468 0.074597 0.053048 255 220 0
0.479893 0.112214 0.043537 255 220 0
0.434851 0.120314 0.061632 255 220 0
0.478781 0.089806 0.099148 255 220 0
0.451296 0.106773 0.087173 255 220 0
0.582795 0.141139 0.070052 255 220 0
0.589850 0.100390 0.064544 255 220 0
0.593481 0.087429 0.091491 255 220 0
0.549449 0.136414 0.051368 255 220 0
0.533932 0.152694 0.079769 255 220 0
0.475523 0.069307 0.055404 255 220 0
0.476078 0.125387 0.086772 255 220 0
0.524737 0.080241 0.044515 255 220 0
0.496194 0.083431 0.042259 255 220 0
0.450094 0.077345 0.058910 255 220 0
0.576763 0.095826 0.055383 255 220 0
0.519946 0.057415 0.091488 255 220 0
0.564988 0.076496 0.107612 255 220 0
0.546393 0.150930 0.093560 255 220 0
0.573989 0.077096 0.072088 255 220 0
0.498528 0.112381 0.041655 255 220 0
0.570849 0.151684 0.081554 255 220 0
0.434860 0.097015 0.079206 255 220 0
0.572639 0.146427 0.069484 255 220 0
0.571762 0.081486 0.062355 255 220 0
0.446085 0.094196 0.085462 255 220 0
0.586755 0.117243 0.060119 255 220 0
0.548725 0.129423 0.047306 255 220 0
0.565017 0.150477 0.071559 255 220 0
0.561187 0.067522 0.091686 255 220 0
0.534221 0.077798 0.047546 255 220 0
0.580898 0.087864 0.064203 255 220 0
0.431490 0.118408 0.070073 255 220 0
0.541390 0.063252 0.096942 255 220 0
0.547729 0.101919 0.041886 255 220 0
0.551788 0.068638 0.103521 255 220 0
0.585932 0.106136 0.059732 255 220 0
0.568796 0.071728 0.093847 255 220 0
0.473235 0.067817 0.058405 255 220 0
0.578175 0.120772 0.120786 255 220 0
0.562781 0.119456 0.122409 255 220 0
0.533850 0.071076 0.108765 255 220 0
0.504676 0.144115 0.078345 255 220 0
0.568954 0.143047 0.063400 255 220 0
0.548123 0.109894 0.041984 255 220 0
0.539244 0.113332 0.041197 255 220 0
0.509780 0.058769 0.068012 255 220 0
0.466747 0.098603 0.043055 255 220 0
0.472478 0.114153 0.045279 255 220 0
0.518448 0.103740 0.039069 255 220 0
0.512603 0.133635 0.098958 255 220 0
0.541421 0.089481 0.118429 255 220 0
0.521440 0.103773 0.115235 255 220 0
0.464024 0.074360 0.085803 255 220 0
0.530429 0.110020 0.117003 255 220 0
0.539707 0.152195 0.070232 255 220 0
0.500062 0.062870 0.059774 255 220 0
0.470494 0.104962 0.042941 255 220 0
0.606368 0.105503 0.088437 255 220 0
0.522739 0.097323 0.115837 255 220 0
0.540739 0.147971 0.061460 255 220 0
0.476322 0.122337 0.049155 255 220 0
0.500126 0.062693 0.060068 255 220 0
0.493865 0.127115 0.094303 255 220 0
0.506777 0.065992 0.100491 255 220 0
0.436891 0.108764 0.053421 255 220 0
0.587365 0.100958 0.117333 255 220 0
0.540145 0.061416 0.072813 255 220 0
0.560759 0.074062 0.106792 255 220 0
0.523015 0.139571 0.052968 255 220 0
0.557840 0.150378 0.067703 255 220 0
0.448866 0.093964 0.048615 255 220 0
0.435417 0.087793 0.071410 255 220 0
0.430952 0.105837 0.059188 255 220 0
0.544564 0.072932 0.054802 255 220 0
0.568709 0.102192 0.049093 255 220 0
0.575173 0.118759 0.121980 255 220 0
0.567056 0.091670 0.051349 255 220 0
0.432860 0.108136 0.056618 255 220 0
0.556698 0.099410 0.122529 255 220 0
0.525618 0.142319 0.097394 255 220 0
0.496053 0.101377 0.039782 255 220 0
0.448487 0.127381 0.068652 255 220 0
0.583329 0.095818 0.060497 255 220 0
0.537569 0.083678 0.115954 255 220 0
0.438121 0.116257 0.055195 255 220 0
0.434981 0.118117 0.076996 255 220 0
0.451466 0.077594 0.079241 255 220 0
0.441981 0.108162 0.084421 255 220 0
0.571211 0.108271 0.050110 255 220 0
0.464166 0.087365 0.045701 255 220 0
0.520946 0.080420 0.044031 255 220 0
0.439179 0.124303 0.064927 255 220 0
0.468164 0.127923 0.057232 255 220 0
0.584693 0.116136 0.119701 255 220 0
0.582044 0.083225 0.072293 255 220 0
0.491399 0.120230 0.045375 255 220 0
0.502881 0.070178 0.050069 255 220 0
0.528413 0.150780 0.083913 255 220 0
0.557983 0.066519 0.093340 255 220 0
0.485113 0.113208 0.098125 255 220 0
0.536843 0.112052 0.040763 255 220 0
0.563171 0.146799 0.064757 255 220 0
0.607798 0.109881 0.092254 255 220 0
0.490392 0.086658 0.041680 255 220 0
0.607668 0.114206 0.096838 255 220 0
0.563233 0.118646 0.122645 255 220 0
0.506364 0.108445 0.040164 255 220 0
0.542970 0.147914 0.097864 255 220 0
0.606085 0.117763 0.081105 255 220 0
0.506604 0.067203 0.053392 255 220 0
0.505213 0.062800 0.097354 255 220 0
0.544670 0.069508 0.106763 255 220 0
0.552595 0.148728 0.099231 255 220 0
0.464776 0.130619 0.068263 255 220 0
0.535656 0.126156 0.113640 255 220 0
0.474726 0.130005 0.080755 255 220 0
0.512542 0.118984 0.042727 255 220 0
0.604604 0.104317 0.099840 255 220 0
0.569659 0.144250 0.105551 255 220 0
0.533175 0.143194 0.055592 255 220 0
0.574489 0.149452 0.076812 255 220 0
0.497304 0.132338 0.091777 255 220 0
0.580568 0.078399 0.082949 255 220 0
0.470113 0.128783 0.057896 255 220 0
0.573943 0.098245 0.052807 255 220 0
0.538459 0.088515 0.042674 255 220 0
0.509410 0.136406 0.052974 255 220 0
0.538789 0.067420 0.104969 255 220 0
0.497421 0.081917 0.105546 255 220 0
0.474477 0.132648 0.065516 255 220 0
0.578376 0.148672 0.093231 255 220 0
0.446647 0.101580 0.086233 255 220 0
0.460658 0.126266 0.057238 255 220 0
0.470673 0.093525 0.095618 255 220 0
0.501478 0.083891 0.107417 255 220 0
0.549105 0.062374 0.084460 255 220 0
0.541545 0.074978 0.111937 255 220 0
0.520250 0.074720 0.108809 255 220 0
0.592015 0.141189 0.082308 255 220 0
0.520802 0.062518 0.062246 255 220 0
0.524169 0.072558 0.108460 255 220 0
0.430450 0.108194 0.060031 255 220 0
0.536445 0.099574 0.119473 255 220 0
0.539621 0.090282 0.042333 255 220 0
0.449978 0.077951 0.078254 255 220 0
0.590524 0.100436 0.115219 255 220 0
0.525602 0.095136 0.116377 255 220 0
0.441311 0.105942 0.050754 255 220 0
0.511730 0.067365 0.053579 255 220 0
0.592927 0.139979 0.096011 255 220 0
0.606015 0.118648 0.101238 255 220 0
0.574492 0.143362 0.066823 255 220 0
0.599841 0.103685 0.075106 255 220 0
0.472126 0.080480 0.046832 255 220 0
0.530255 0.122529 0.113312 255 220 0
0.592242 0.096243 0.070031 255 220 0
0.569273 0.080774 0.061019 255 220 0
0.511346 0.085385 0.041356 255 220 0
0.428328 0.103290 0.069820 255 220 0
0.533124 0.134952 0.107508 255 220 0
0.461989 0.069684 0.060903 255 220 0
0.564101 0.136224 0.055441 255 220 0
0.508856 0.119657 0.105996 255 220 0
0.553818 0.086759 0.047876 255 220 0
0.505010 0.065038 0.056226 255 220 0
0.519475 0.141355 0.055344 255 220 0
0.527934 0.102945 0.117386 255 220 0
0.509751 0.073754 0.105893 255 220 0
0.452813 0.080549 0.082857 255 220 0
0.508356 0.055736 0.077781 255 220 0
0.589273 0.105245 0.062546 255 220 0
0.510170 0.061124 0.063029 255 220 0
0.487858 0.062124 0.063576 255 220 0
0.513485 0.056718 0.089977 255 220 0
0.553781 0.120854 0.044958 255 220 0
0.535125 0.085597 0.043190 255 220 0
0.473403 0.131983 0.063815 255 220 0
0.531564 0.082663 0.044020 255 220 0
0.580943 0.148347 0.090440 255 220 0
0.592580 0.102271 0.066658 255 220 0
0.505140 0.142713 0.083110 255 220 0
0.518392 0.135081 0.100699 255 220 0
0.587996 0.120647 0.117099 255 220 0
0.505739 0.098876 0.039149 255 220 0
0.499203 0.070251 0.050045 255 220 0
0.592484 0.136227 0.104182 255 220 0
0.505442 0.065977 0.100094 255 220 0
0.601308 0.126918 0.104393 255 220 0
0.491326 0.093460 0.104501 255 220 0
0.431181 0.095072 0.071564 255 220 0
0.486667 0.128805 0.088997 255 220 0
0.473576 0.131029 0.078047 255 220 0
0.485821 0.060527 0.085056 255 220 0
0.505989 0.116596 0.042409 255 220 0
0.551946 0.140260 0.054676 255 220 0
0.533225 0.122782 0.043437 255 220 0
0.520675 0.070072 0.106343 255 220 0
0.520086 0.137572 0.099396 255 220 0
0.581630 0.079593 0.080867 255 220 0
0.464642 0.070560 0.058127 255 220 0
0.588777 0.139834 0.102357 255 220 0
0.583083 0.144534 0.099306 255 220 0
0.578373 0.127506 0.117914 255 220 0
0.511402 0.106931 0.039643 255 220 0
0.518986 0.113333 0.112146 255 220 0
0.464580 0.124564 0.082981 255 220 0
0.496589 0.091657 0.040156 255 220 0
0.505686 0.070688 0.049621 255 220 0
0.566341 0.150983 0.073684 255 220 0
0.432819 0.118282 0.074016 255 220 0
0.488107 0.119497 0.096525 255 220 0
0.454675 0.112724 0.086772 255 220 0
0.500267 0.130028 0.049970 255 220 0
0.505302 0.055753 0.077784 255 220 0
0.503212 0.141436 0.083951 255 220 0
0.567102 0.096202 0.121668 255 220 0
0.530917 0.062818 0.099609 255 220 0
0.572252 0.126380 0.053449 255 220 0
0.600538 0.125046 0.106584 255 220 0
0.535176 0.060583 0.071855 255 220 0
0.579823 0.101092 0.120662 255 220 0
0.550360 0.111325 0.122221 255 220 0
0.518684 0.106331 0.039339 255 220 0
0.528073 0.076675 0.111376 255 220 0
0.595166 0.097321 0.073242 255 220 0
0.552156 0.121102 0.044707 255 220 0
0.528974 0.124063 0.112211 255 220 0
0.479873 0.067784 0.056129 255 220 0
0.604119 0.116473 0.077395 255 220 0
0.570140 0.074883 0.071223 255 220 0
0.527088 0.080968 0.044358 255 220 0
0.597803 0.091713 0.090795 255 220 0
0.592491 0.111786 0.064530 255 220 0
0.594761 0.129910 0.071442 255 220 0
0.577440 0.144115 0.103490 255 220 0
0.435656 0.115349 0.056318 255 220 0
0.557436 0.148472 0.064658 255 220 0
0.485916 0.108155 0.041716 255 220 0
0.492319 0.103844 0.103570 255 220 0
0.457167 0.075556 0.081951 255 220 0
0.576007 0.075242 0.084038 255 220 0
0.574405 0.084048 0.061816 255 220 0
0.523342 0.125902 0.109124 255 220 0
0.552737 0.113124 0.122413 255 220 0
0.537367 0.150786 0.090046 255 220 0
0.511250 0.144573 0.063196 255 220 0
0.573777 0.118443 0.122292 255 220 0
0.469373 0.104495 0.043028 255 220 0
0.592020 0.125372 0.066465 255 220 0
0.577012 0.076928 0.096420 255 220 0
0.453514 0.071152 0.065818 255 220 0
0.508931 0.063366 0.058940 255 220 0
0.515905 0.055905 0.079245 255 220 0
0.483762 0.118694 0.045678 255 220 0
0.496666 0.099344 0.106195 255 220 0
0.580192 0.088718 0.062596 255 220 0
0.572804 0.131037 0.116909 255 220 0
0.451037 0.127803 0.066120 255 220 0
0.482370 0.121623 0.047533 255 220 0
0.501899 0.140513 0.061735 255 220 0
0.460040 0.107399 0.089997 255 220 0
0.523753 0.086559 0.041500 255 220 0
0.511870 0.106679 0.039587 255 220 0
0.523870 0.092831 0.115587 255 220 0
0.512759 0.083564 0.110567 255 220 0
0.496837 0.063822 0.095319 255 220 0
0.546168 0.133666 0.112760 255 220 0
0.494240 0.139083 0.079587 255 220 0
0.497002 0.064318 0.057668 255 220 0
0.578550 0.132174 0.060174 255 220 0
0.577646 0.077008 0.079970 255 220 0
0.505578 0.118581 0.043142 255 220 0
0.582835 0.098273 0.118598 255 220 0
0.522276 0.073678 0.108705 255 220 0
0.445942 0.125463 0.073918 255 220 0
0.583194 0.113383 0.120623 255 220 0
0.467137 0.077735 0.049853 255 220 0
0.569370 0.152216 0.083779 255 220 0
0.566364 0.128411 0.118891 255 220 0
0.553524 0.099415 0.122281 255 220 0
0.493138 0.107333 0.103249 255 220 0
0.502986 0.056162 0.085430 255 220 0
0.555744 0.093360 0.120935 255 220 0
0.513013 0.058610 0.068862 255 220 0
0.461013 0.118835 0.085983 255 220 0
0.578651 0.116935 0.121588 255 220 0
0.528032 0.114556 0.115025 255 220 0
0.492659 0.138257 0.064625 255 220 0
0.511234 0.066022 0.055245 255 220 0
0.517361 0.071546 0.106535 255 220 0
0.558231 0.073134 0.106899 255 220 0
0.576994 0.146619 0.099535 255 220 0
0.591560 0.096437 0.068945 255 220 0
0.501108 0.091730 0.108475 255 220 0
0.463251 0.103485 0.043904 255 220 0
0.556288 0.104390 0.043810 255 220 0
0.443121 0.094846 0.084285 255 220 0
0.577764 0.107421 0.122269 255 220 0
0.497278 0.138196 0.060685 255 220 0
0.457916 0.102508 0.044937 255 220 0
0.576956 0.115000 0.053457 255 220 0
0.466831 0.131048 0.070457 255 220 0
0.607283 0.110933 0.097349 255 220 0
0.527666 0.128591 0.045793 255 220 0
0.521251 0.063846 0.060043 255 220 0
0.590805 0.126373 0.065848 255 220 0
0.440030 0.122767 0.060198 255 220 0
0.479438 0.086442 0.043041 255 220 0
0.489415 0.110476 0.041937 255 220 0
0.527931 0.148677 0.089156 255 220 0
0.506342 0.116348 0.106280 255 220 0
0.604737 0.108844 0.103164 255 220 0
0.525621 0.086933 0.114691 255 220 0
0.463731 0.108928 0.044882 255 220 0
0.543424 0.070805 0.108374 255 220 0
0.439100 0.124526 0.066742 255 220 0
0.453711 0.077616 0.056049 255 220 0
0.487676 0.065761 0.092868 255 220 0
0.592756 0.098551 0.068922 255 220 0
0.602764 0.110977 0.076030 255 220 0
0.563290 0.078099 0.059426 255 220 0
0.442349 0.123958 0.060611 255 220 0
0.553678 0.071796 0.107160 255 220 0
0.563942 0.142120 0.108504 255 220 0
0.453628 0.073181 0.075956 255 220 0
0.473487 0.125631 0.085435 255 220 0
0.469098 0.117467 0.047410 255 220 0
0.475009 0.062590 0.069183 255 220 0
0.554186 0.067731 0.068028 255 220 0
0.454862 0.107344 0.046327 255 220 0
0.553852 0.124145 0.046001 255 220 0
0.573854 0.077507 0.102308 255 220 0
0.605861 0.124332 0.085315 255 220 0
0.539758 0.133938 0.048731 255 220 0
0.474045 0.116763 0.091850 255 220 0
0.464292 0.126312 0.056148 255 220 0
0.582857 0.142660 0.102704 255 220 0
0.442916 0.096274 0.084502 255 220 0
0.476811 0.107837 0.096352 255 220 0
0.558677 0.080052 0.054625 255 220 0
0.547553 0.082814 0.047734 255 220 0
0.451745 0.072434 0.064930 255 220 0
0.532517 0.150117 0.088848 255 220 0
0.520407 0.074923 0.108942 255 220 0
0.550284 0.064047 0.074116 255 220 0
0.467197 0.126356 0.082110 255 220 0
0.434417 0.090737 0.073444 255 220 0
0.534702 0.088207 0.116946 255 220 0
0.549041 0.087016 0.045990 255 220 0
0.576773 0.120251 0.054007 255 220 0
0.543340 0.142040 0.105182 255 220 0
0.519046 0.080386 0.043882 255 220 0
0.541834 0.064353 0.066210 255 220 0
0.449384 0.126384 0.061805 255 220 0
0.540025 0.075624 0.112326 255 220 0
0.580471 0.090192 0.061563 255 220 0
0.558281 0.108140 0.044387 255 220 0
0.560450 0.121571 0.046859 255 220 0
0.470500 0.067694 0.083810 255 220 0
0.491441 0.095519 0.040088 255 220 0
0.507177 0.060696 0.095704 255 220 0
0.546270 0.064042 0.069932 255 220 0
0.497743 0.086793 0.106746 255 220 0
0.480724 0.086636 0.042785 255 220 0
0.545602 0.124628 0.117296 255 220 0
0.465973 0.081111 0.091195 255 220 0
0.557918 0.066193 0.091991 255 220 0
0.511754 0.143355 0.087612 255 220 0
0.496758 0.097058 0.039643 255 220 0
0.478496 0.099622 0.041373 255 220 0
0.574318 0.101716 0.122213 255 220 0
0.563005 0.131549 0.051937 255 220 0
0.571112 0.148472 0.071768 255 220 0
