ply
format ascii 1.0
element vertex 1024
property float x
property float y
property float z
property uchar red
property uchar green
property uchar blue
end_header
0.103748 0.195705 0.089401 255 220 0
0.108608 0.108835 0.058746 255 220 0
0.173099 0.069956 0.033375 255 220 0
0.153631 0.098295 0.099282 255 220 0
0.139437 0.177178 0.041625 255 220 0
0.124533 0.121685 0.099765 255 220 0
0.141532 0.165502 0.035358 255 220 0
0.108090 0.110446 0.048121 255 220 0
0.134657 0.161376 0.032740 255 220 0
0.134584 0.061013 0.031324 255 220 0
0.112776 0.145608 0.103808 255 220 0
0.187314 0.111311 0.084956 255 220 0
0.106408 0.135092 0.089685 255 220 0
0.140859 0.156245 0.114432 255 220 0
0.178075 0.088162 0.091036 255 220 0
0.134699 0.049254 0.050692 255 220 0
0.107179 0.182714 0.049403 255 220 0
0.098525 0.185054 0.089002 255 220 0
0.101987 0.123174 0.061277 255 220 0
0.124387 0.082989 0.038045 255 220 0
0.096296 0.161906 0.050506 255 220 0
0.146475 0.191112 0.098728 255 220 0
0.187107 0.118247 0.083282 255 220 0
0.111066 0.194744 0.099218 255 220 0
0.163299 0.049042 0.030695 255 220 0
0.148966 0.125950 0.027466 255 220 0
0.099584 0.191674 0.084305 255 220 0
0.110529 0.204103 0.079594 255 220 0
0.103732 0.130614 0.041327 255 220 0
0.141373 0.197712 0.095395 255 220 0
0.121660 0.178990 0.111761 255 220 0
0.124744 0.117828 0.097394 255 220 0
0.167793 0.073683 0.085236 255 220 0
0.140263 0.056881 0.027732 255 220 0
0.165338 0.111253 0.030934 255 220 0
0.110830 0.114156 0.076138 255 220 0
0.154211 0.165100 0.040219 255 220 0
0.109412 0.190581 0.100663 255 220 0
0.128531 0.112624 0.026987 255 220 0
0.163007 0.103626 0.102216 255 220 0
0.167548 0.139479 0.037830 255 220 0
0.176229 0.160263 0.065219 255 220 0
0.095373 0.166233 0.087215 255 220 0
0.167871 0.158556 0.100850 255 220 0
0.132540 0.193981 0.104713 255 220 0
0.132284 0.074477 0.068317 255 220 0
0.103698 0.123150 0.045739 255 220 0
0.101996 0.150203 0.093944 255 220 0
0.109651 0.203433 0.083908 255 220 0
0.152215 0.193008 0.082815 255 220 0
0.101734 0.123331 0.057012 255 220 0
0.094399 0.177888 0.081532 255 220 0
0.124566 0.086789 0.068982 255 220 0
0.130552 0.060300 0.051687 255 220 0
0.142293 0.055415 0.063666 255 220 0
0.139715 0.042515 0.053259 255 220 0
0.120103 0.202053 0.097129 255 220 0
0.160997 0.052783 0.028485 255 220 0
0.129839 0.066877 0.056797 255 220 0
0.146107 0.090817 0.025092 255 220 0
0.137908 0.203415 0.086416 255 220 0
0.101707 0.123413 0.056562 255 220 0
0.188432 0.105056 0.081062 255 220 0
0.182893 0.124532 0.050220 255 220 0
0.122358 0.087576 0.038522 255 220 0
0.120052 0.132769 0.028510 255 220 0
0.161703 0.069385 0.026949 255 220 0
0.094390 0.151129 0.055591 255 220 0
0.151924 0.190776 0.090980 255 220 0
0.117285 0.196175 0.101956 255 220 0
0.176309 0.127514 0.042005 255 220 0
0.185869 0.132975 0.076276 255 220 0
0.111516 0.158068 0.107241 255 220 0
0.154759 0.184813 0.095312 255 220 0
0.145417 0.049512 0.062293 255 220 0
0.146975 0.102344 0.025362 255 220 0
0.162373 0.172313 0.097618 255 220 0
0.135844 0.069073 0.067898 255 220 0
0.138623 0.122962 0.106837 255 220 0
0.173797 0.091525 0.033956 255 220 0
0.113168 0.123248 0.032823 255 220 0
0.116927 0.091863 0.053144 255 220 0
0.109491 0.191580 0.055306 255 220 0
0.113166 0.168856 0.038844 255 220 0
0.134065 0.050109 0.050072 255 220 0
0.105643 0.121904 0.074333 255 220 0
0.139676 0.120365 0.106044 255 220 0
0.132613 0.160247 0.114788 255 220 0
0.105428 0.121313 0.042953 255 220 0
0.183243 0.068512 0.047504 255 220 0
0.175691 0.161990 0.067115 255 220 0
0.108908 0.114811 0.072437 255 220 0
0.167766 0.174329 0.083388 255 220 0
0.131464 0.201544 0.096919 255 220 0
0.166775 0.057260 0.030561 255 220 0
0.184759 0.133166 0.083291 255 220 0
0.169976 0.103061 0.101059 255 220 0
0.134392 0.187672 0.049160 255 220 0
0.157066 0.186697 0.065256 255 220 0
0.109928 0.151080 0.034856 255 220 0
0.150402 0.056043 0.069636 255 220 0
0.122838 0.102287 0.082776 255 220 0
0.158517 0.157480 0.108935 255 220 0
0.124468 0.148244 0.111232 255 220 0
0.120883 0.190633 0.051060 255 220 0
0.144444 0.124979 0.026525 255 220 0
0.103271 0.183552 0.097923 255 220 0
0.132728 0.061662 0.033237 255 220 0
0.144285 0.191736 0.058606 255 220 0
0.161190 0.047669 0.066358 255 220 0
0.157198 0.153375 0.036390 255 220 0
0.129179 0.124508 0.104014 255 220 0
0.130293 0.075391 0.066313 255 220 0
0.113105 0.183688 0.047331 255 220 0
0.131744 0.178784 0.112623 255 220 0
0.156888 0.152742 0.110905 255 220 0
0.138038 0.197942 0.098145 255 220 0
0.099084 0.178829 0.054340 255 220 0
0.093696 0.173726 0.080882 255 220 0
0.096671 0.157335 0.048756 255 220 0
0.130370 0.162272 0.114776 255 220 0
0.120452 0.117583 0.092860 255 220 0
0.178544 0.152723 0.060597 255 220 0
0.186026 0.084674 0.079925 255 220 0
0.185897 0.097769 0.087193 255 220 0
0.142160 0.125289 0.108627 255 220 0
0.155540 0.159342 0.109921 255 220 0
0.113067 0.116234 0.082601 255 220 0
0.188806 0.116174 0.073299 255 220 0
0.133636 0.193660 0.104670 255 220 0
0.176172 0.051081 0.063722 255 220 0
0.177748 0.135233 0.097723 255 220 0
0.147872 0.174369 0.043103 255 220 0
0.188184 0.094849 0.053919 255 220 0
0.187307 0.124473 0.064176 255 220 0
0.145337 0.174624 0.109758 255 220 0
0.121264 0.125905 0.099791 255 220 0
0.122046 0.146361 0.029394 255 220 0
0.129318 0.206626 0.087161 255 220 0
0.153936 0.090090 0.095066 255 220 0
0.176582 0.155870 0.088174 255 220 0
0.134685 0.087876 0.027796 255 220 0
0.092622 0.157934 0.062154 255 220 0
0.133962 0.185758 0.047325 255 220 0
0.183775 0.137897 0.061873 255 220 0
0.172103 0.086511 0.032485 255 220 0
0.125917 0.142873 0.110162 255 220 0
0.141112 0.194098 0.059434 255 220 0
0.163344 0.130984 0.033089 255 220 0
0.123439 0.144774 0.109806 255 220 0
0.176547 0.079813 0.036027 255 220 0
0.099814 0.139575 0.081541 255 220 0
0.138042 0.116416 0.103795 255 220 0
0.114760 0.103736 0.070802 255 220 0
0.169334 0.075951 0.086521 255 220 0
0.122313 0.088183 0.038197 255 220 0
0.150482 0.110192 0.026281 255 220 0
0.148271 0.079620 0.086092 255 220 0
0.150412 0.109512 0.103778 255 220 0
0.172799 0.161930 0.090326 255 220 0
0.137478 0.193646 0.103158 255 220 0
0.116345 0.205825 0.074187 255 220 0
0.166174 0.168494 0.095741 255 220 0
0.100539 0.169214 0.097786 255 220 0
0.155034 0.047006 0.027769 255 220 0
0.109704 0.203650 0.081327 255 220 0
0.174271 0.052015 0.040388 255 220 0
0.174781 0.064842 0.035684 255 220 0
0.146412 0.042770 0.058670 255 220 0
0.150274 0.038596 0.031400 255 220 0
0.106395 0.114806 0.047237 255 220 0
0.112740 0.197617 0.060854 255 220 0
0.106506 0.112646 0.056401 255 220 0
0.101722 0.169164 0.045999 255 220 0
0.114773 0.097253 0.046050 255 220 0
0.146750 0.033536 0.043660 255 220 0
0.130869 0.156491 0.114364 255 220 0
0.185075 0.133652 0.081290 255 220 0
0.126064 0.206064 0.090485 255 220 0
0.116260 0.190697 0.051845 255 220 0
0.181957 0.148550 0.073003 255 220 0
0.136265 0.188766 0.107279 255 220 0
0.172813 0.068581 0.033270 255 220 0
0.164341 0.075624 0.027924 255 220 0
0.100580 0.137701 0.081442 255 220 0
0.173344 0.167240 0.075600 255 220 0
0.151621 0.042014 0.060615 255 220 0
0.179258 0.072382 0.080021 255 220 0
0.149754 0.062450 0.073935 255 220 0
0.136386 0.050115 0.031655 255 220 0
0.152849 0.168210 0.108233 255 220 0
0.101548 0.128834 0.072562 255 220 0
0.153367 0.074270 0.025177 255 220 0
0.182080 0.095220 0.091496 255 220 0
0.107530 0.125561 0.082933 255 220 0
0.170401 0.116361 0.034467 255 220 0
0.151514 0.074013 0.083564 255 220 0
0.181165 0.132786 0.050795 255 220 0
0.142379 0.171512 0.038747 255 220 0
0.137318 0.195088 0.101879 255 220 0
0.129777 0.099685 0.028472 255 220 0
0.124006 0.127837 0.027192 255 220 0
0.179944 0.113543 0.042482 255 220 0
0.178121 0.083469 0.037528 255 220 0
0.100794 0.132970 0.076384 255 220 0
0.104251 0.192865 0.061907 255 220 0
0.107096 0.169091 0.105304 255 220 0
0.118300 0.148962 0.030869 255 220 0
0.179808 0.130551 0.096350 255 220 0
0.179315 0.155525 0.074259 255 220 0
0.111918 0.143746 0.032914 255 220 0
0.146383 0.197867 0.084192 255 220 0
0.155689 0.163345 0.040061 255 220 0
0.099931 0.189899 0.087998 255 220 0
0.126943 0.153605 0.030340 255 220 0
0.111615 0.186820 0.050124 255 220 0
0.154723 0.134521 0.030272 255 220 0
0.137153 0.090262 0.086561 255 220 0
0.165948 0.107484 0.103461 255 220 0
0.142855 0.109454 0.025400 255 220 0
0.153680 0.166443 0.108462 255 220 0
0.135195 0.047216 0.049989 255 220 0
0.185690 0.067419 0.058150 255 220 0
0.166930 0.170211 0.092575 255 220 0
0.156928 0.065750 0.079373 255 220 0
0.117568 0.202129 0.096138 255 220 0
0.140942 0.084872 0.025881 255 220 0
0.179667 0.075370 0.081831 255 220 0
0.173373 0.163320 0.061272 255 220 0
0.113006 0.204317 0.073796 255 220 0
0.151193 0.134274 0.029176 255 220 0
0.176044 0.144941 0.096768 255 220 0
0.178630 0.157084 0.073188 255 220 0
0.146506 0.125811 0.109576 255 220 0
0.144154 0.095306 0.025184 255 220 0
0.107639 0.113495 0.065978 255 220 0
0.123047 0.146851 0.110293 255 220 0
0.141730 0.158366 0.032659 255 220 0
0.097604 0.185322 0.063323 255 220 0
0.161885 0.106658 0.028959 255 220 0
0.164778 0.096610 0.098998 255 220 0
0.157551 0.124494 0.109438 255 220 0
0.170138 0.100774 0.100099 255 220 0
0.138260 0.055240 0.029058 255 220 0
0.118861 0.143641 0.107197 255 220 0
0.143678 0.185598 0.050955 255 220 0
0.136788 0.202352 0.070745 255 220 0
0.118856 0.201085 0.097955 255 220 0
0.111979 0.137892 0.098383 255 220 0
0.176956 0.095208 0.095205 255 220 0
0.096257 0.165251 0.051715 255 220 0
0.178537 0.066559 0.076202 255 220 0
0.137653 0.054057 0.029660 255 220 0
0.151881 0.072440 0.082563 255 220 0
0.094019 0.178634 0.078683 255 220 0
0.134473 0.113220 0.025764 255 220 0
0.095972 0.175342 0.087985 255 220 0
0.167936 0.040660 0.056003 255 220 0
0.171363 0.142186 0.102858 255 220 0
0.151667 0.075651 0.025054 255 220 0
0.167081 0.176636 0.078160 255 220 0
0.157922 0.145232 0.033990 255 220 0
0.132356 0.051902 0.047196 255 220 0
0.140370 0.177147 0.041886 255 220 0
0.174805 0.164717 0.074557 255 220 0
0.164784 0.177762 0.085300 255 220 0
0.094069 0.178360 0.079381 255 220 0
0.189324 0.107742 0.061373 255 220 0
0.148832 0.178217 0.046883 255 220 0
0.156338 0.133241 0.111320 255 220 0
0.115921 0.182894 0.045978 255 220 0
0.175370 0.061548 0.037179 255 220 0
0.138697 0.165702 0.034900 255 220 0
0.183834 0.062254 0.055063 255 220 0
0.150474 0.095364 0.097213 255 220 0
0.148350 0.078047 0.025048 255 220 0
0.126789 0.100142 0.085242 255 220 0
0.188907 0.092652 0.074034 255 220 0
0.180695 0.131452 0.049298 255 220 0
0.107563 0.137887 0.093290 255 220 0
0.163980 0.165816 0.048037 255 220 0
0.169379 0.168303 0.089952 255 220 0
0.179054 0.139469 0.050366 255 220 0
0.106446 0.136179 0.090583 255 220 0
0.184791 0.074053 0.074650 255 220 0
0.158242 0.100651 0.027233 255 220 0
0.102241 0.138125 0.085394 255 220 0
0.165364 0.084150 0.028648 255 220 0
0.169377 0.129466 0.036406 255 220 0
0.123769 0.077577 0.044314 255 220 0
0.189080 0.101635 0.077236 255 220 0
0.117867 0.204081 0.093168 255 220 0
0.180751 0.088804 0.089545 255 220 0
0.166117 0.055920 0.072415 255 220 0
0.132276 0.103627 0.093336 255 220 0
0.160760 0.140258 0.110291 255 220 0
0.146600 0.150844 0.031498 255 220 0
0.136823 0.201050 0.067709 255 220 0
0.187783 0.078681 0.058202 255 220 0
0.110922 0.155530 0.035145 255 220 0
0.166868 0.052184 0.069221 255 220 0
0.103684 0.125858 0.074725 255 220 0
0.134607 0.086404 0.080983 255 220 0
0.129743 0.066172 0.036414 255 220 0
0.111435 0.120921 0.034777 255 220 0
0.151465 0.130046 0.028582 255 220 0
0.102461 0.143731 0.090314 255 220 0
0.167302 0.176175 0.069116 255 220 0
0.163932 0.170918 0.096749 255 220 0
0.133042 0.201763 0.095856 255 220 0
0.176401 0.136385 0.045046 255 220 0
0.185757 0.134259 0.070448 255 220 0
0.117611 0.165190 0.111633 255 220 0
0.183528 0.134562 0.086875 255 220 0
0.144746 0.159584 0.113599 255 220 0
0.120835 0.206315 0.089350 255 220 0
0.154755 0.182093 0.098291 255 220 0
0.148656 0.058318 0.070254 255 220 0
0.100503 0.194240 0.079538 255 220 0
0.162169 0.115833 0.106640 255 220 0
0.098350 0.154396 0.045607 255 220 0
0.093843 0.163899 0.057082 255 220 0
0.131471 0.118338 0.025913 255 220 0
0.177492 0.157754 0.065282 255 220 0
0.181417 0.105132 0.095470 255 220 0
0.150062 0.091772 0.025217 255 220 0
0.161107 0.141450 0.034465 255 220 0
0.154169 0.189654 0.066332 255 220 0
0.141378 0.104882 0.099341 255 220 0
0.134159 0.142803 0.027817 255 220 0
0.132209 0.201133 0.097186 255 220 0
0.142629 0.194750 0.061537 255 220 0
0.140021 0.151224 0.030255 255 220 0
0.158602 0.060599 0.026485 255 220 0
0.182435 0.123999 0.094040 255 220 0
0.100499 0.134218 0.077192 255 220 0
0.167345 0.063529 0.078045 255 220 0
0.107195 0.141328 0.095186 255 220 0
0.135277 0.043575 0.038553 255 220 0
0.157300 0.066212 0.079792 255 220 0
0.136028 0.077006 0.074577 255 220 0
0.138985 0.183105 0.046299 255 220 0
0.099428 0.192094 0.073662 255 220 0
0.136566 0.051487 0.031100 255 220 0
0.143273 0.138502 0.028133 255 220 0
0.175563 0.079903 0.087256 255 220 0
0.141487 0.049852 0.059427 255 220 0
0.120297 0.121387 0.028837 255 220 0
0.147697 0.122690 0.026860 255 220 0
0.133281 0.179548 0.112174 255 220 0
0.163374 0.168850 0.049893 255 220 0
0.108237 0.173702 0.043481 255 220 0
0.160708 0.167659 0.046268 255 220 0
0.138315 0.191959 0.055033 255 220 0
0.118027 0.117705 0.090279 255 220 0
0.094871 0.143307 0.064742 255 220 0
0.101591 0.126221 0.067650 255 220 0
0.137718 0.068748 0.069577 255 220 0
0.138841 0.136324 0.111683 255 220 0
0.157660 0.153878 0.036824 255 220 0
0.184536 0.101448 0.046473 255 220 0
0.140572 0.064010 0.068487 255 220 0
0.093462 0.153841 0.075056 255 220 0
0.142680 0.176421 0.110316 255 220 0
0.092175 0.162648 0.072939 255 220 0
0.150494 0.130883 0.028454 255 220 0
0.123053 0.143156 0.109093 255 220 0
0.104797 0.199559 0.079314 255 220 0
0.177933 0.063427 0.074145 255 220 0
0.142917 0.097398 0.025247 255 220 0
0.100268 0.130781 0.071056 255 220 0
0.156128 0.157147 0.037349 255 220 0
0.111718 0.106835 0.067382 255 220 0
0.170148 0.110820 0.033481 255 220 0
0.187310 0.123915 0.063358 255 220 0
0.163284 0.088650 0.094983 255 220 0
0.161080 0.183690 0.081650 255 220 0
0.133920 0.190367 0.107007 255 220 0
0.183296 0.137002 0.085855 255 220 0
0.101925 0.125192 0.066938 255 220 0
0.176860 0.153471 0.056902 255 220 0
0.146096 0.132848 0.027770 255 220 0
0.108287 0.166426 0.106203 255 220 0
0.155635 0.114788 0.106409 255 220 0
0.149676 0.054716 0.068343 255 220 0
0.178444 0.155895 0.065762 255 220 0
0.093869 0.167376 0.082679 255 220 0
0.171021 0.080028 0.031563 255 220 0
0.098454 0.131827 0.059358 255 220 0
0.163341 0.066391 0.080495 255 220 0
0.098784 0.179319 0.092826 255 220 0
0.170230 0.083502 0.031147 255 220 0
0.137298 0.079468 0.077674 255 220 0
0.106553 0.139025 0.036658 255 220 0
0.111137 0.200871 0.067784 255 220 0
0.186378 0.121178 0.056658 255 220 0
0.127776 0.145208 0.028341 255 220 0
0.176807 0.093902 0.036594 255 220 0
0.149525 0.138693 0.029516 255 220 0
0.154886 0.047900 0.027488 255 220 0
0.157498 0.182960 0.093261 255 220 0
0.110350 0.157340 0.035851 255 220 0
0.119625 0.133216 0.102800 255 220 0
0.104004 0.119343 0.063117 255 220 0
0.102512 0.185070 0.054908 255 220 0
0.168682 0.173061 0.065555 255 220 0
0.102033 0.155889 0.096990 255 220 0
0.115459 0.122796 0.031298 255 220 0
0.167986 0.149630 0.042195 255 220 0
0.139954 0.196256 0.061737 255 220 0
0.162908 0.100118 0.100699 255 220 0
0.112213 0.188259 0.104096 255 220 0
0.172295 0.168855 0.077193 255 220 0
0.173558 0.063063 0.076118 255 220 0
0.102509 0.187274 0.094795 255 220 0
0.164562 0.175933 0.089500 255 220 0
0.142511 0.134744 0.111866 255 220 0
0.165429 0.131812 0.107980 255 220 0
0.139278 0.048039 0.056324 255 220 0
0.127300 0.165674 0.114544 255 220 0
0.120088 0.151057 0.030811 255 220 0
0.134076 0.078102 0.073566 255 220 0
0.150710 0.113898 0.105611 255 220 0
0.123674 0.154746 0.112473 255 220 0
0.187043 0.073217 0.063303 255 220 0
0.136876 0.096238 0.026278 255 220 0
0.161626 0.088188 0.027426 255 220 0
0.147433 0.127134 0.110148 255 220 0
0.131772 0.095304 0.028218 255 220 0
0.173092 0.090390 0.033367 255 220 0
0.103277 0.126379 0.044224 255 220 0
0.171315 0.096912 0.032635 255 220 0
0.135542 0.183333 0.110270 255 220 0
0.159759 0.038478 0.056867 255 220 0
0.140360 0.160257 0.114314 255 220 0
0.157180 0.138435 0.031917 255 220 0
0.187365 0.077436 0.056269 255 220 0
0.180939 0.139085 0.090947 255 220 0
0.141193 0.057034 0.063837 255 220 0
0.182649 0.081923 0.043225 255 220 0
0.097679 0.135098 0.066791 255 220 0
0.143953 0.035323 0.048300 255 220 0
0.187535 0.078458 0.068602 255 220 0
0.116761 0.180606 0.044274 255 220 0
0.182746 0.143489 0.081467 255 220 0
0.114889 0.096030 0.054831 255 220 0
0.160352 0.070035 0.083008 255 220 0
0.129101 0.120684 0.102066 255 220 0
0.172282 0.064976 0.078021 255 220 0
0.187944 0.084292 0.072693 255 220 0
0.174338 0.139065 0.043732 255 220 0
0.093843 0.173033 0.081786 255 220 0
0.172530 0.089506 0.094102 255 220 0
0.104800 0.119718 0.046076 255 220 0
0.131806 0.056379 0.036395 255 220 0
0.107849 0.148005 0.100147 255 220 0
0.151954 0.136569 0.029784 255 220 0
0.159166 0.153757 0.109575 255 220 0
0.145980 0.074888 0.081024 255 220 0
0.139369 0.078571 0.026703 255 220 0
0.154387 0.150525 0.112223 255 220 0
0.132740 0.108694 0.026346 255 220 0
0.135996 0.047714 0.051921 255 220 0
0.189694 0.095959 0.064734 255 220 0
0.134180 0.173802 0.038550 255 220 0
0.156418 0.086840 0.093629 255 220 0
0.093587 0.155241 0.057522 255 220 0
0.149861 0.165432 0.038269 255 220 0
0.100397 0.127358 0.063372 255 220 0
0.161311 0.182551 0.084564 255 220 0
0.161195 0.128567 0.109487 255 220 0
0.106896 0.182155 0.049202 255 220 0
0.188440 0.118996 0.073503 255 220 0
0.186205 0.126830 0.060679 255 220 0
0.107815 0.171831 0.105777 255 220 0
0.178426 0.053680 0.064500 255 220 0
0.092576 0.160830 0.075261 255 220 0
0.167903 0.091078 0.030224 255 220 0
0.135669 0.075573 0.028690 255 220 0
0.161868 0.138868 0.034157 255 220 0
0.119037 0.088174 0.054819 255 220 0
0.171033 0.065531 0.032190 255 220 0
0.128517 0.201278 0.063466 255 220 0
0.109052 0.174472 0.106438 255 220 0
0.139982 0.169851 0.037131 255 220 0
0.128445 0.202654 0.065665 255 220 0
0.181473 0.134159 0.052125 255 220 0
0.098886 0.137386 0.076441 255 220 0
0.170298 0.148938 0.102340 255 220 0
0.163469 0.072872 0.027565 255 220 0
0.188863 0.086725 0.067610 255 220 0
0.170971 0.070825 0.031634 255 220 0
0.149946 0.163419 0.037274 255 220 0
0.133930 0.101180 0.092777 255 220 0
0.157065 0.117746 0.028625 255 220 0
0.136915 0.083341 0.080498 255 220 0
0.181214 0.066355 0.044224 255 220 0
0.167453 0.161105 0.099808 255 220 0
0.189288 0.106332 0.075753 255 220 0
0.147573 0.196557 0.086033 255 220 0
0.120476 0.084990 0.046914 255 220 0
0.167031 0.122028 0.033374 255 220 0
0.104428 0.134229 0.039410 255 220 0
0.178410 0.157213 0.077475 255 220 0
0.172820 0.070729 0.082024 255 220 0
0.115729 0.138875 0.102812 255 220 0
0.092463 0.157717 0.063479 255 220 0
0.150994 0.164635 0.110426 255 220 0
0.127141 0.075470 0.037214 255 220 0
0.145689 0.034692 0.048406 255 220 0
0.128115 0.112242 0.096296 255 220 0
0.124729 0.083454 0.065063 255 220 0
0.157263 0.176208 0.100454 255 220 0
0.125156 0.114905 0.095658 255 220 0
0.188455 0.114373 0.060179 255 220 0
0.125605 0.166296 0.114257 255 220 0
0.141261 0.092981 0.025521 255 220 0
0.144621 0.053301 0.064096 255 220 0
0.098815 0.187139 0.062959 255 220 0
0.114579 0.119747 0.087933 255 220 0
0.151560 0.041793 0.060404 255 220 0
0.114806 0.105487 0.073402 255 220 0
0.151343 0.187939 0.096450 255 220 0
0.169431 0.042882 0.058413 255 220 0
0.125752 0.196899 0.057254 255 220 0
0.134475 0.061648 0.031338 255 220 0
0.181211 0.150635 0.074969 255 220 0
0.115715 0.171064 0.110800 255 220 0
0.101042 0.183792 0.055511 255 220 0
0.124399 0.079750 0.059060 255 220 0
0.127112 0.107878 0.028174 255 220 0
0.149804 0.195408 0.080130 255 220 0
0.152712 0.038908 0.031517 255 220 0
0.179666 0.099387 0.095222 255 220 0
0.114449 0.186758 0.049098 255 220 0
0.093168 0.176445 0.074150 255 220 0
0.139271 0.155896 0.031431 255 220 0
0.131084 0.203953 0.069287 255 220 0
0.106480 0.200998 0.084040 255 220 0
0.161086 0.115818 0.029746 255 220 0
0.127840 0.086160 0.073504 255 220 0
0.117547 0.124640 0.095128 255 220 0
0.120849 0.084497 0.045858 255 220 0
0.112826 0.132618 0.032104 255 220 0
0.159843 0.185781 0.077726 255 220 0
0.163969 0.167825 0.099282 255 220 0
0.119301 0.090351 0.061215 255 220 0
0.111730 0.189711 0.052446 255 220 0
0.124383 0.109794 0.090845 255 220 0
0.128083 0.063569 0.043937 255 220 0
0.175175 0.045307 0.054290 255 220 0
0.128404 0.068937 0.055773 255 220 0
0.137653 0.044983 0.032554 255 220 0
0.112781 0.111763 0.036725 255 220 0
0.135022 0.170436 0.036720 255 220 0
0.124901 0.198047 0.102024 255 220 0
0.163694 0.181228 0.077321 255 220 0
0.136458 0.047907 0.032415 255 220 0
0.097920 0.133389 0.061667 255 220 0
0.103330 0.123505 0.069474 255 220 0
0.186136 0.119571 0.086377 255 220 0
0.124978 0.073120 0.046494 255 220 0
0.141125 0.191987 0.102494 255 220 0
0.175631 0.088712 0.035292 255 220 0
0.186814 0.115459 0.085616 255 220 0
0.181542 0.106487 0.043046 255 220 0
0.149961 0.057161 0.025554 255 220 0
0.123984 0.079807 0.041087 255 220 0
0.119083 0.100182 0.075184 255 220 0
0.106138 0.117911 0.044153 255 220 0
0.107973 0.191414 0.098791 255 220 0
0.176593 0.050696 0.046488 255 220 0
0.139203 0.063910 0.067166 255 220 0
0.168869 0.129128 0.106215 255 220 0
0.179356 0.053547 0.050566 255 220 0
0.092935 0.167714 0.078773 255 220 0
0.113488 0.099234 0.057320 255 220 0
0.099972 0.183282 0.093086 255 220 0
0.174474 0.154646 0.053170 255 220 0
0.153034 0.186941 0.095234 255 220 0
0.101309 0.195312 0.081430 255 220 0
0.140029 0.170473 0.037479 255 220 0
0.119545 0.122291 0.095547 255 220 0
0.108817 0.154697 0.036091 255 220 0
0.163432 0.179990 0.084174 255 220 0
0.102204 0.195772 0.085097 255 220 0
0.122025 0.164525 0.034652 255 220 0
0.123840 0.076969 0.045080 255 220 0
0.116132 0.203790 0.069195 255 220 0
0.154772 0.082299 0.025471 255 220 0
0.179221 0.051751 0.053484 255 220 0
0.099858 0.156980 0.094026 255 220 0
0.170453 0.041733 0.044851 255 220 0
0.116226 0.185537 0.107633 255 220 0
0.173126 0.096090 0.097208 255 220 0
0.100753 0.149456 0.042287 255 220 0
0.135024 0.203834 0.072696 255 220 0
0.182215 0.127432 0.093403 255 220 0
0.135400 0.085389 0.027740 255 220 0
0.136068 0.051989 0.054934 255 220 0
0.166513 0.177092 0.079926 255 220 0
0.173300 0.122303 0.037799 255 220 0
0.126728 0.167483 0.035371 255 220 0
0.188672 0.084711 0.060136 255 220 0
0.174080 0.124770 0.039080 255 220 0
0.124979 0.082607 0.064504 255 220 0
0.151656 0.164644 0.110126 255 220 0
0.165371 0.107259 0.030462 255 220 0
0.150112 0.155098 0.112887 255 220 0
0.174945 0.160619 0.086513 255 220 0
0.177587 0.159091 0.070566 255 220 0
0.117372 0.115365 0.087633 255 220 0
0.100150 0.186724 0.091199 255 220 0
0.148640 0.186448 0.101057 255 220 0
0.181329 0.109702 0.043373 255 220 0
0.185399 0.119246 0.052952 255 220 0
0.143885 0.034594 0.041074 255 220 0
0.165104 0.090308 0.095811 255 220 0
0.113112 0.165893 0.109418 255 220 0
0.097789 0.137400 0.051718 255 220 0
0.147014 0.106789 0.025570 255 220 0
0.138270 0.049641 0.056190 255 220 0
0.182797 0.141524 0.061900 255 220 0
0.152587 0.121858 0.027841 255 220 0
0.135786 0.059506 0.059997 255 220 0
0.187455 0.102674 0.084629 255 220 0
0.099422 0.137459 0.078155 255 220 0
0.109495 0.192447 0.056243 255 220 0
0.188113 0.103447 0.082385 255 220 0
0.136142 0.204635 0.078785 255 220 0
0.183466 0.130853 0.054801 255 220 0
0.123464 0.207196 0.087095 255 220 0
0.178783 0.109454 0.098759 255 220 0
0.176264 0.058436 0.039578 255 220 0
0.115503 0.105695 0.036662 255 220 0
0.108535 0.179237 0.105020 255 220 0
0.150322 0.067294 0.025124 255 220 0
0.128245 0.102381 0.028694 255 220 0
0.113895 0.153762 0.107682 255 220 0
0.116923 0.092362 0.047268 255 220 0
0.104459 0.198248 0.074180 255 220 0
0.123394 0.188689 0.049208 255 220 0
0.136717 0.090541 0.086419 255 220 0
0.187777 0.122909 0.074866 255 220 0
0.156260 0.147600 0.033943 255 220 0
0.158314 0.081834 0.090807 255 220 0
0.189542 0.094835 0.061955 255 220 0
0.106364 0.112927 0.053108 255 220 0
0.125678 0.130474 0.026853 255 220 0
0.135684 0.195720 0.102048 255 220 0
0.180598 0.149720 0.064011 255 220 0
0.157360 0.088818 0.026243 255 220 0
0.143800 0.041668 0.030093 255 220 0
0.147707 0.077787 0.084390 255 220 0
0.141111 0.053213 0.061167 255 220 0
0.112702 0.186729 0.049646 255 220 0
0.149886 0.193337 0.067373 255 220 0
0.146748 0.192036 0.097302 255 220 0
0.128441 0.156821 0.031175 255 220 0
0.100771 0.137312 0.044066 255 220 0
0.188069 0.081211 0.057865 255 220 0
0.123939 0.078281 0.055041 255 220 0
0.181404 0.131865 0.050799 255 220 0
0.181584 0.104206 0.042741 255 220 0
0.180937 0.055814 0.052605 255 220 0
0.159322 0.181818 0.060002 255 220 0
0.176809 0.118630 0.101338 255 220 0
0.149443 0.160936 0.112026 255 220 0
0.094369 0.147247 0.058519 255 220 0
0.166805 0.175729 0.083337 255 220 0
0.157063 0.107503 0.027517 255 220 0
0.098468 0.173370 0.051914 255 220 0
0.154560 0.038035 0.056976 255 220 0
0.109102 0.176977 0.044811 255 220 0
0.168242 0.175287 0.072534 255 220 0
0.153041 0.047971 0.065464 255 220 0
0.137994 0.191543 0.054391 255 220 0
0.136554 0.156566 0.031296 255 220 0
0.105033 0.169245 0.043239 255 220 0
0.165585 0.159559 0.102744 255 220 0
0.181342 0.140633 0.056110 255 220 0
0.161289 0.184182 0.072202 255 220 0
0.141253 0.036894 0.037636 255 220 0
0.167703 0.139040 0.106254 255 220 0
0.162883 0.155634 0.040925 255 220 0
0.159067 0.148363 0.110606 255 220 0
0.147717 0.190452 0.059724 255 220 0
0.160417 0.166828 0.103565 255 220 0
0.187922 0.078411 0.060798 255 220 0
0.104048 0.173114 0.102085 255 220 0
0.105263 0.157631 0.101703 255 220 0
0.155356 0.129886 0.110905 255 220 0
0.110600 0.108448 0.042725 255 220 0
0.115362 0.174252 0.040889 255 220 0
0.156007 0.156252 0.036914 255 220 0
0.154020 0.147739 0.033062 255 220 0
0.188443 0.112554 0.079337 255 220 0
0.170016 0.075520 0.030857 255 220 0
0.155252 0.081280 0.025523 255 220 0
0.164566 0.127298 0.032993 255 220 0
0.108371 0.112511 0.066728 255 220 0
0.134189 0.136312 0.110615 255 220 0
0.124866 0.117592 0.097335 255 220 0
0.168695 0.064982 0.078916 255 220 0
0.118076 0.126351 0.096981 255 220 0
0.105791 0.144574 0.037237 255 220 0
0.189805 0.104472 0.068757 255 220 0
0.164424 0.079429 0.028039 255 220 0
0.132134 0.205805 0.087356 255 220 0
0.129976 0.118572 0.101406 255 220 0
0.113879 0.146917 0.032244 255 220 0
0.146029 0.084678 0.025116 255 220 0
0.189800 0.104480 0.069106 255 220 0
0.117482 0.094614 0.063264 255 220 0
0.165624 0.104420 0.102342 255 220 0
0.157786 0.044685 0.029546 255 220 0
0.122182 0.182133 0.110963 255 220 0
0.181855 0.141766 0.086775 255 220 0
0.152201 0.156829 0.111939 255 220 0
0.126522 0.130600 0.026701 255 220 0
0.107552 0.162809 0.038923 255 220 0
0.172174 0.056828 0.035116 255 220 0
0.166435 0.039594 0.055330 255 220 0
0.157651 0.037783 0.034971 255 220 0
0.181103 0.149471 0.066364 255 220 0
0.157641 0.175123 0.050138 255 220 0
0.105328 0.169895 0.103662 255 220 0
0.165547 0.172793 0.057253 255 220 0
0.156908 0.040162 0.031919 255 220 0
0.122668 0.150995 0.111290 255 220 0
0.100986 0.125867 0.062944 255 220 0
0.167570 0.105034 0.031289 255 220 0
0.133306 0.054159 0.034450 255 220 0
0.156279 0.187440 0.065331 255 220 0
0.140655 0.132747 0.110954 255 220 0
0.150400 0.045835 0.027324 255 220 0
0.137701 0.039175 0.044145 255 220 0
0.170100 0.053795 0.069745 255 220 0
0.141917 0.044532 0.056665 255 220 0
0.151778 0.177608 0.048219 255 220 0
0.178386 0.072188 0.038525 255 220 0
0.181732 0.128214 0.049701 255 220 0
0.138427 0.045510 0.031461 255 220 0
0.137572 0.075468 0.027693 255 220 0
0.108170 0.179575 0.104619 255 220 0
0.160982 0.183824 0.081586 255 220 0
0.148872 0.100101 0.025423 255 220 0
0.188433 0.109089 0.057253 255 220 0
0.100589 0.131124 0.047668 255 220 0
0.165777 0.156095 0.104148 255 220 0
0.127893 0.084923 0.072335 255 220 0
0.155483 0.145405 0.032985 255 220 0
0.111809 0.168442 0.039159 255 220 0
0.126336 0.206716 0.088502 255 220 0
0.179484 0.098683 0.039659 255 220 0
0.120278 0.205959 0.090073 255 220 0
0.105804 0.158012 0.102394 255 220 0
0.160718 0.115352 0.029554 255 220 0
0.094918 0.143065 0.063160 255 220 0
0.125497 0.207123 0.074773 255 220 0
0.189022 0.112114 0.062178 255 220 0
0.170068 0.103301 0.101127 255 220 0
0.157076 0.140835 0.111749 255 220 0
0.092931 0.152349 0.065402 255 220 0
0.129758 0.070379 0.035006 255 220 0
0.105740 0.132561 0.086577 255 220 0
0.123202 0.078091 0.047374 255 220 0
0.150026 0.121341 0.027186 255 220 0
0.127341 0.202134 0.097260 255 220 0
0.092439 0.167979 0.075728 255 220 0
0.121455 0.140290 0.028617 255 220 0
0.102610 0.177676 0.049674 255 220 0
0.114128 0.098585 0.058966 255 220 0
0.159663 0.180448 0.092805 255 220 0
0.136376 0.077305 0.028110 255 220 0
0.158765 0.179542 0.056137 255 220 0
0.174470 0.145951 0.047108 255 220 0
0.130042 0.117091 0.026209 255 220 0
0.160143 0.135272 0.110404 255 220 0
0.149988 0.094851 0.096807 255 220 0
0.128863 0.080460 0.033175 255 220 0
0.094526 0.178755 0.064466 255 220 0
0.146309 0.048626 0.062351 255 220 0
0.139437 0.068018 0.027378 255 220 0
0.146856 0.070497 0.078211 255 220 0
0.147088 0.098600 0.097988 255 220 0
0.174456 0.148691 0.097459 255 220 0
0.149917 0.137064 0.112746 255 220 0
0.153051 0.116587 0.106897 255 220 0
0.105745 0.193781 0.061355 255 220 0
0.187566 0.124491 0.074286 255 220 0
0.154837 0.120441 0.108349 255 220 0
0.155235 0.037221 0.034372 255 220 0
0.125340 0.131547 0.105445 255 220 0
0.173068 0.147208 0.046085 255 220 0
0.170397 0.052504 0.068496 255 220 0
0.123531 0.185581 0.109961 255 220 0
0.131388 0.121237 0.103451 255 220 0
0.161307 0.049397 0.029477 255 220 0
0.188476 0.117140 0.063059 255 220 0
0.099617 0.192366 0.073623 255 220 0
0.114307 0.203737 0.091188 255 220 0
0.112983 0.179151 0.044469 255 220 0
0.140994 0.201531 0.076091 255 220 0
0.183189 0.079633 0.044317 255 220 0
0.109331 0.127180 0.087340 255 220 0
0.150433 0.194654 0.074514 255 220 0
0.169692 0.173034 0.071392 255 220 0
0.179467 0.119350 0.043356 255 220 0
0.154471 0.033351 0.044803 255 220 0
0.101571 0.131357 0.076451 255 220 0
0.185716 0.066969 0.060146 255 220 0
0.125602 0.170580 0.037002 255 220 0
0.116871 0.107215 0.079324 255 220 0
0.172339 0.160171 0.054809 255 220 0
0.189496 0.110005 0.065431 255 220 0
0.123982 0.126771 0.027206 255 220 0
0.124063 0.123609 0.100596 255 220 0
0.156023 0.106694 0.103297 255 220 0
0.165624 0.054614 0.071451 255 220 0
0.186051 0.109433 0.088886 255 220 0
0.146815 0.193250 0.063076 255 220 0
0.188994 0.113839 0.073992 255 220 0
0.189210 0.091788 0.070408 255 220 0
0.178579 0.112492 0.099414 255 220 0
0.144773 0.161675 0.034589 255 220 0
0.176893 0.142490 0.048535 255 220 0
0.130378 0.079663 0.031926 255 220 0
0.179181 0.138751 0.050199 255 220 0
0.096095 0.181738 0.062699 255 220 0
0.147020 0.195734 0.068597 255 220 0
0.109297 0.108069 0.047526 255 220 0
0.105884 0.117972 0.068348 255 220 0
0.105472 0.183403 0.100607 255 220 0
0.169444 0.114608 0.033590 255 220 0
0.188606 0.105470 0.056615 255 220 0
0.098608 0.190455 0.082362 255 220 0
0.165924 0.103170 0.101806 255 220 0
0.105903 0.198828 0.088782 255 220 0
0.141054 0.089375 0.088955 255 220 0
0.160403 0.035619 0.050998 255 220 0
0.119228 0.088454 0.056798 255 220 0
0.123802 0.077439 0.044388 255 220 0
0.179559 0.086162 0.088937 255 220 0
0.152625 0.114862 0.027130 255 220 0
0.123294 0.158851 0.032340 255 220 0
0.145164 0.141726 0.029066 255 220 0
0.158267 0.117272 0.107317 255 220 0
0.104332 0.119935 0.066224 255 220 0
0.159659 0.181878 0.090605 255 220 0
0.186248 0.070072 0.057779 255 220 0
0.096702 0.187216 0.078367 255 220 0
0.094621 0.182257 0.072460 255 220 0
0.099783 0.173995 0.096198 255 220 0
0.161975 0.120358 0.030701 255 220 0
0.118462 0.115983 0.089375 255 220 0
0.127304 0.067553 0.050475 255 220 0
0.175634 0.105200 0.036753 255 220 0
0.188061 0.111944 0.057054 255 220 0
0.103420 0.170213 0.044967 255 220 0
0.139236 0.037544 0.041219 255 220 0
0.123177 0.088334 0.068189 255 220 0
0.136038 0.056794 0.058263 255 220 0
0.137595 0.108381 0.025570 255 220 0
0.186220 0.106423 0.088399 255 220 0
0.110068 0.105991 0.048593 255 220 0
0.125219 0.161294 0.113881 255 220 0
0.167325 0.128261 0.107065 255 220 0
0.134537 0.178640 0.041747 255 220 0
0.106410 0.197647 0.091474 255 220 0
0.183363 0.137002 0.085622 255 220 0
0.120798 0.174150 0.112496 255 220 0
0.113049 0.145169 0.103823 255 220 0
0.162202 0.127566 0.031907 255 220 0
0.149578 0.123931 0.109265 255 220 0
0.147671 0.197036 0.077107 255 220 0
0.144790 0.160122 0.033994 255 220 0
0.108671 0.126148 0.085414 255 220 0
0.188728 0.085331 0.059954 255 220 0
0.128640 0.205763 0.072022 255 220 0
0.169373 0.172011 0.083157 255 220 0
0.180723 0.134230 0.050660 255 220 0
0.143193 0.196544 0.095168 255 220 0
0.140013 0.196295 0.061839 255 220 0
0.120833 0.197944 0.058551 255 220 0
0.093151 0.175986 0.075298 255 220 0
0.150741 0.043191 0.028350 255 220 0
0.110781 0.162858 0.037300 255 220 0
0.161401 0.094931 0.027781 255 220 0
0.132619 0.090830 0.082919 255 220 0
0.170087 0.058901 0.073980 255 220 0
0.162067 0.175674 0.094645 255 220 0
0.166175 0.178061 0.071164 255 220 0
0.109044 0.121167 0.080978 255 220 0
0.111271 0.147535 0.103422 255 220 0
0.096861 0.138930 0.054223 255 220 0
0.117665 0.117459 0.030817 255 220 0
0.105521 0.168458 0.103868 255 220 0
0.164845 0.078295 0.028178 255 220 0
0.127451 0.195929 0.056309 255 220 0
0.154148 0.174660 0.104311 255 220 0
0.182430 0.057845 0.062167 255 220 0
0.189277 0.113367 0.069198 255 220 0
0.184690 0.116635 0.091218 255 220 0
0.150488 0.092476 0.025272 255 220 0
0.134833 0.094539 0.088152 255 220 0
0.161437 0.183780 0.070297 255 220 0
0.097629 0.168782 0.092636 255 220 0
0.134104 0.057107 0.032509 255 220 0
0.147112 0.090886 0.025082 255 220 0
0.122453 0.108359 0.030232 255 220 0
0.138582 0.061381 0.064589 255 220 0
0.177638 0.131592 0.044823 255 220 0
0.162189 0.120820 0.030859 255 220 0
0.133869 0.119590 0.103716 255 220 0
0.145050 0.109186 0.102581 255 220 0
0.170760 0.095416 0.097566 255 220 0
0.099153 0.143300 0.083583 255 220 0
0.114881 0.097799 0.044743 255 220 0
0.189848 0.101850 0.065753 255 220 0
0.125727 0.183909 0.045362 255 220 0
0.162571 0.178021 0.090570 255 220 0
0.150576 0.114397 0.026646 255 220 0
0.124091 0.177374 0.112709 255 220 0
0.153870 0.118569 0.107672 255 220 0
0.132365 0.050717 0.039465 255 220 0
0.110132 0.177860 0.106590 255 220 0
0.184267 0.074129 0.047494 255 220 0
0.096951 0.171558 0.053270 255 220 0
0.099232 0.162024 0.094651 255 220 0
0.122984 0.147908 0.110578 255 220 0
0.129760 0.091799 0.080962 255 220 0
0.182047 0.102882 0.094233 255 220 0
0.128712 0.150133 0.112954 255 220 0
0.187942 0.115594 0.080643 255 220 0
0.130850 0.063361 0.055416 255 220 0
0.106876 0.173331 0.104832 255 220 0
0.115378 0.124458 0.092580 255 220 0
0.123439 0.098702 0.032374 255 220 0
0.188788 0.116332 0.065078 255 220 0
0.157111 0.114020 0.106187 255 220 0
0.153091 0.154290 0.112114 255 220 0
0.093093 0.176282 0.070605 255 220 0
0.150872 0.194168 0.073394 255 220 0
0.139876 0.098302 0.094733 255 220 0
0.165624 0.072084 0.028473 255 220 0
0.159260 0.163826 0.042602 255 220 0
0.153276 0.045266 0.063670 255 220 0
0.114693 0.172050 0.110221 255 220 0
0.125254 0.103907 0.029830 255 220 0
0.166245 0.066624 0.029007 255 220 0
0.143955 0.182922 0.048426 255 220 0
0.128130 0.072053 0.036948 255 220 0
0.122827 0.205394 0.092145 255 220 0
0.139325 0.136036 0.027139 255 220 0
0.187549 0.125341 0.071817 255 220 0
0.126990 0.194865 0.055078 255 220 0
0.142137 0.047086 0.028429 255 220 0
0.179626 0.087654 0.039184 255 220 0
0.159095 0.098415 0.027308 255 220 0
0.099694 0.129713 0.053086 255 220 0
0.119698 0.104588 0.080889 255 220 0
0.121749 0.201853 0.097710 255 220 0
0.139258 0.121282 0.106314 255 220 0
0.160445 0.072564 0.026532 255 220 0
0.155209 0.139379 0.112228 255 220 0
0.137300 0.045137 0.032854 255 220 0
0.181970 0.059863 0.050635 255 220 0
0.170932 0.086853 0.093055 255 220 0
0.149008 0.195416 0.072462 255 220 0
0.134117 0.204484 0.073528 255 220 0
0.173162 0.167319 0.070505 255 220 0
0.140767 0.049341 0.028521 255 220 0
0.154372 0.149718 0.112311 255 220 0
0.093072 0.161788 0.078413 255 220 0
0.175436 0.056335 0.069630 255 220 0
0.124580 0.075957 0.053384 255 220 0
0.151526 0.077697 0.025051 255 220 0
0.186685 0.078207 0.072841 255 220 0
0.178098 0.156596 0.081686 255 220 0
0.161585 0.063532 0.027171 255 220 0
0.141421 0.161673 0.033761 255 220 0
0.150794 0.170587 0.108449 255 220 0
0.117724 0.206406 0.074845 255 220 0
0.132507 0.147631 0.028725 255 220 0
0.128785 0.075166 0.063474 255 220 0
0.139743 0.071783 0.027013 255 220 0
0.094471 0.181412 0.076251 255 220 0
0.151958 0.045072 0.063075 255 220 0
0.133896 0.076869 0.072338 255 220 0
0.174266 0.163631 0.064732 255 220 0
0.176157 0.153898 0.055758 255 220 0
0.181904 0.056288 0.060474 255 220 0
0.098347 0.134328 0.052801 255 220 0
0.152798 0.116726 0.106928 255 220 0
0.178319 0.151624 0.088097 255 220 0
0.126068 0.070332 0.049225 255 220 0
0.162930 0.038362 0.055344 255 220 0
0.136452 0.129897 0.108974 255 220 0
0.173387 0.155784 0.052340 255 220 0
0.139202 0.182813 0.046122 255 220 0
0.096111 0.142031 0.072418 255 220 0
0.181954 0.126365 0.049295 255 220 0
0.182671 0.144619 0.079972 255 220 0
0.137652 0.056151 0.029368 255 220 0
0.149257 0.135522 0.112496 255 220 0
0.160699 0.184272 0.068707 255 220 0
0.155641 0.165812 0.041446 255 220 0
0.142771 0.167954 0.036863 255 220 0
0.175021 0.071489 0.081739 255 220 0
0.172688 0.100257 0.033871 255 220 0
0.172599 0.105446 0.101149 255 220 0
0.180737 0.148363 0.083957 255 220 0
0.145187 0.095121 0.095324 255 220 0
0.179515 0.088971 0.039071 255 220 0
0.104545 0.141709 0.092009 255 220 0
0.160023 0.066216 0.080229 255 220 0
0.166759 0.156245 0.103177 255 220 0
0.106015 0.113860 0.052011 255 220 0
0.171283 0.105619 0.033535 255 220 0
0.169306 0.087411 0.030768 255 220 0
0.119797 0.168486 0.112603 255 220 0
0.131473 0.169937 0.036326 255 220 0
0.106265 0.175156 0.045421 255 220 0
