ply
format ascii 1.0
element vertex 1024
property float x
property float y
property float z
property uchar red
property uchar green
property uchar blue
end_header
0.103371 0.195927 0.089679 255 220 0
0.108216 0.108799 0.059762 255 220 0
0.172498 0.070035 0.033697 255 220 0
0.153957 0.098889 0.099648 255 220 0
0.138373 0.177145 0.041497 255 220 0
0.124740 0.122123 0.100391 255 220 0
0.140432 0.165422 0.035305 255 220 0
0.107514 0.110307 0.049133 255 220 0
0.133537 0.161234 0.032840 255 220 0
0.134005 0.060863 0.032365 255 220 0
0.112917 0.146019 0.104403 255 220 0
0.187327 0.111953 0.084647 255 220 0
0.106376 0.135334 0.090487 255 220 0
0.141110 0.156909 0.114463 255 220 0
0.178319 0.088813 0.091094 255 220 0
0.134506 0.049288 0.051838 255 220 0
0.106217 0.182577 0.049754 255 220 0
0.098203 0.185245 0.089467 255 220 0
0.101557 0.123125 0.062268 255 220 0
0.123797 0.082845 0.039047 255 220 0
0.095471 0.161721 0.051231 255 220 0
0.146271 0.191656 0.098343 255 220 0
0.187053 0.118871 0.082912 255 220 0
0.110855 0.195099 0.099383 255 220 0
0.162773 0.049043 0.031374 255 220 0
0.147956 0.125838 0.027662 255 220 0
0.099147 0.191825 0.084691 255 220 0
0.109942 0.204269 0.079684 255 220 0
0.102931 0.130385 0.042223 255 220 0
0.141078 0.198196 0.095033 255 220 0
0.121743 0.179522 0.111896 255 220 0
0.124934 0.118245 0.098053 255 220 0
0.168025 0.074223 0.085601 255 220 0
0.139648 0.056728 0.028719 255 220 0
0.164466 0.111264 0.030998 255 220 0
0.110693 0.114296 0.077066 255 220 0
0.153190 0.165135 0.039960 255 220 0
0.109248 0.190941 0.100894 255 220 0
0.127592 0.112396 0.027646 255 220 0
0.163350 0.104299 0.102376 255 220 0
0.166630 0.139566 0.037592 255 220 0
0.175643 0.160655 0.064638 255 220 0
0.095128 0.166390 0.087907 255 220 0
0.167882 0.159239 0.100417 255 220 0
0.132421 0.194505 0.104530 255 220 0
0.132239 0.074662 0.069264 255 220 0
0.103012 0.122963 0.046705 255 220 0
0.101950 0.150461 0.094676 255 220 0
0.109140 0.203635 0.084018 255 220 0
0.151738 0.193433 0.082321 255 220 0
0.101232 0.123240 0.058006 255 220 0
0.093995 0.177986 0.082133 255 220 0
0.124463 0.086938 0.069940 255 220 0
0.130313 0.060320 0.052798 255 220 0
0.142277 0.055613 0.064627 255 220 0
0.139600 0.042601 0.054385 255 220 0
0.119816 0.202437 0.097077 255 220 0
0.160415 0.052751 0.029168 255 220 0
0.129648 0.066941 0.057857 255 220 0
0.145257 0.090669 0.025665 255 220 0
0.137434 0.203795 0.086059 255 220 0
0.101197 0.123318 0.057556 255 220 0
0.188415 0.105667 0.080793 255 220 0
0.182261 0.124821 0.049866 255 220 0
0.121751 0.087425 0.039515 255 220 0
0.119026 0.132508 0.029120 255 220 0
0.161001 0.069341 0.027465 255 220 0
0.093710 0.150983 0.056447 255 220 0
0.151594 0.191277 0.090510 255 220 0
0.117110 0.196590 0.102005 255 220 0
0.175526 0.127689 0.041734 255 220 0
0.185617 0.133525 0.075789 255 220 0
0.111644 0.158504 0.107741 255 220 0
0.154533 0.185371 0.094850 255 220 0
0.145411 0.049714 0.063257 255 220 0
0.146064 0.102203 0.025813 255 220 0
0.162254 0.172934 0.097146 255 220 0
0.135821 0.069274 0.068836 255 220 0
0.138937 0.123543 0.107218 255 220 0
0.173085 0.091612 0.034064 255 220 0
0.112267 0.122991 0.033634 255 220 0
0.116537 0.091820 0.054183 255 220 0
0.108576 0.191511 0.055534 255 220 0
0.112108 0.168653 0.039227 255 220 0
0.133857 0.050134 0.051220 255 220 0
0.105433 0.121999 0.075274 255 220 0
0.139991 0.120945 0.106432 255 220 0
0.132849 0.160869 0.114917 255 220 0
0.104705 0.121110 0.043908 255 220 0
0.182881 0.068780 0.047669 255 220 0
0.175126 0.162397 0.066526 255 220 0
0.108707 0.114906 0.073391 255 220 0
0.167401 0.174845 0.082811 255 220 0
0.131174 0.201988 0.096685 255 220 0
0.166200 0.057279 0.031107 255 220 0
0.184622 0.133777 0.082819 255 220 0
0.170302 0.103761 0.101110 255 220 0
0.133395 0.187682 0.049016 255 220 0
0.156335 0.186983 0.064744 255 220 0
0.108905 0.150822 0.035460 255 220 0
0.150479 0.056342 0.070456 255 220 0
0.122875 0.102556 0.083615 255 220 0
0.158668 0.158188 0.108664 255 220 0
0.124714 0.148788 0.111609 255 220 0
0.119902 0.190587 0.051110 255 220 0
0.143426 0.124833 0.026806 255 220 0
0.103103 0.183852 0.098322 255 220 0
0.132178 0.061519 0.034302 255 220 0
0.143418 0.191889 0.058259 255 220 0
0.161259 0.047996 0.067079 255 220 0
0.156180 0.153390 0.036192 255 220 0
0.129439 0.125011 0.104537 255 220 0
0.130210 0.075547 0.067283 255 220 0
0.112102 0.183564 0.047575 255 220 0
0.131840 0.179380 0.112593 255 220 0
0.157098 0.153460 0.110705 255 220 0
0.137788 0.198434 0.097835 255 220 0
0.098227 0.178695 0.054860 255 220 0
0.093305 0.173814 0.081533 255 220 0
0.095843 0.157137 0.049517 255 220 0
0.130595 0.162881 0.114923 255 220 0
0.120570 0.117934 0.093593 255 220 0
0.177924 0.153085 0.060049 255 220 0
0.186106 0.085263 0.079888 255 220 0
0.186023 0.098425 0.087033 255 220 0
0.142490 0.125907 0.108927 255 220 0
0.155698 0.160043 0.109682 255 220 0
0.113024 0.116448 0.083471 255 220 0
0.188600 0.116714 0.072921 255 220 0
0.133517 0.194190 0.104472 255 220 0
0.176176 0.051465 0.064164 255 220 0
0.177837 0.135942 0.097345 255 220 0
0.146847 0.174396 0.042861 255 220 0
0.187779 0.095204 0.053756 255 220 0
0.186903 0.124918 0.063747 255 220 0
0.145408 0.175267 0.109544 255 220 0
0.121448 0.126325 0.100432 255 220 0
0.120958 0.146119 0.029843 255 220 0
0.128840 0.206966 0.086916 255 220 0
0.154239 0.090647 0.095504 255 220 0
0.176399 0.156481 0.087624 255 220 0
0.133897 0.087691 0.028584 255 220 0
0.092012 0.157840 0.062974 255 220 0
0.132945 0.185748 0.047205 255 220 0
0.183259 0.138300 0.061377 255 220 0
0.171394 0.086575 0.032668 255 220 0
0.126176 0.143415 0.110566 255 220 0
0.140246 0.194241 0.059117 255 220 0
0.162397 0.131004 0.033000 255 220 0
0.123682 0.145299 0.110232 255 220 0
0.175934 0.079936 0.036199 255 220 0
0.099625 0.139704 0.082411 255 220 0
0.138343 0.116967 0.104247 255 220 0
0.114593 0.103847 0.071763 255 220 0
0.169574 0.076512 0.086839 255 220 0
0.121697 0.088029 0.039185 255 220 0
0.149542 0.110078 0.026600 255 220 0
0.148487 0.080061 0.086724 255 220 0
0.150750 0.110130 0.104091 255 220 0
0.172617 0.162540 0.089781 255 220 0
0.137334 0.194183 0.102896 255 220 0
0.115660 0.205971 0.074166 255 220 0
0.166045 0.169119 0.095243 255 220 0
0.100450 0.169499 0.098364 255 220 0
0.154473 0.046935 0.028605 255 220 0
0.109149 0.203827 0.081434 255 220 0
0.173886 0.052168 0.040857 255 220 0
0.174246 0.064953 0.036026 255 220 0
0.146384 0.042944 0.059682 255 220 0
0.149821 0.038534 0.032392 255 220 0
0.105779 0.114649 0.048237 255 220 0
0.111882 0.197618 0.060971 255 220 0
0.106053 0.112576 0.057417 255 220 0
0.100781 0.168966 0.046567 255 220 0
0.114236 0.097132 0.047076 255 220 0
0.146527 0.033571 0.044755 255 220 0
0.131119 0.157100 0.114558 255 220 0
0.184902 0.134245 0.080809 255 220 0
0.125644 0.206417 0.090298 255 220 0
0.115292 0.190632 0.051970 255 220 0
0.181565 0.149048 0.072435 255 220 0
0.136217 0.189335 0.107082 255 220 0
0.172218 0.068657 0.033609 255 220 0
0.163620 0.075603 0.028338 255 220 0
0.100399 0.137834 0.082317 255 220 0
0.172890 0.167714 0.074999 255 220 0
0.151628 0.042235 0.061547 255 220 0
0.179410 0.072936 0.080210 255 220 0
0.149866 0.062785 0.074704 255 220 0
0.135874 0.049978 0.032768 255 220 0
0.152930 0.168880 0.107955 255 220 0
0.101271 0.128889 0.073506 255 220 0
0.152610 0.074163 0.025785 255 220 0
0.182291 0.095896 0.091422 255 220 0
0.107441 0.125746 0.083807 255 220 0
0.169557 0.116433 0.034399 255 220 0
0.151719 0.074448 0.084195 255 220 0
0.180496 0.133070 0.050392 255 220 0
0.141300 0.171468 0.038624 255 220 0
0.137145 0.195611 0.101607 255 220 0
0.128935 0.099479 0.029230 255 220 0
0.122985 0.127586 0.027783 255 220 0
0.179247 0.113743 0.042281 255 220 0
0.177512 0.083614 0.037639 255 220 0
0.100556 0.133056 0.077301 255 220 0
0.103439 0.192830 0.062208 255 220 0
0.107130 0.169483 0.105773 255 220 0
0.117222 0.148713 0.031355 255 220 0
0.179901 0.131258 0.095982 255 220 0
0.178904 0.156020 0.073670 255 220 0
0.110903 0.143482 0.033554 255 220 0
0.145902 0.198273 0.083748 255 220 0
0.154675 0.163386 0.039794 255 220 0
0.099564 0.190087 0.088394 255 220 0
0.125828 0.153398 0.030641 255 220 0
0.110641 0.186714 0.050362 255 220 0
0.153710 0.134467 0.030293 255 220 0
0.137318 0.090646 0.087275 255 220 0
0.166289 0.108184 0.103537 255 220 0
0.141905 0.109290 0.025852 255 220 0
0.153774 0.167120 0.108187 255 220 0
0.135001 0.047246 0.051146 255 220 0
0.185508 0.067801 0.058283 255 220 0
0.166739 0.170810 0.092050 255 220 0
0.157109 0.066176 0.079992 255 220 0
0.117264 0.202489 0.096127 255 220 0
0.140139 0.084704 0.026595 255 220 0
0.179831 0.075943 0.081985 255 220 0
0.172706 0.163659 0.060710 255 220 0
0.112323 0.204441 0.073843 255 220 0
0.150164 0.134190 0.029257 255 220 0
0.176063 0.145631 0.096328 255 220 0
0.178192 0.157565 0.072596 255 220 0
0.146848 0.126462 0.109800 255 220 0
0.143280 0.095148 0.025747 255 220 0
0.107339 0.113521 0.066966 255 220 0
0.123286 0.147379 0.110706 255 220 0
0.140624 0.158261 0.032670 255 220 0
0.096858 0.185264 0.063805 255 220 0
0.161007 0.106632 0.029123 255 220 0
0.165107 0.097263 0.099195 255 220 0
0.157896 0.125204 0.109492 255 220 0
0.170461 0.101466 0.100169 255 220 0
0.137676 0.055088 0.030093 255 220 0
0.119067 0.144117 0.107711 255 220 0
0.142720 0.185675 0.050676 255 220 0
0.136062 0.202578 0.070419 255 220 0
0.118588 0.201471 0.097932 255 220 0
0.112075 0.138248 0.099065 255 220 0
0.177229 0.095891 0.095215 255 220 0
0.095433 0.165078 0.052409 255 220 0
0.178659 0.067072 0.076458 255 220 0
0.137085 0.053908 0.030716 255 220 0
0.152078 0.072868 0.083202 255 220 0
0.093564 0.178702 0.079283 255 220 0
0.133509 0.113014 0.026319 255 220 0
0.095688 0.175509 0.088582 255 220 0
0.167873 0.040927 0.056680 255 220 0
0.171498 0.142908 0.102520 255 220 0
0.150901 0.075534 0.025678 255 220 0
0.166618 0.177099 0.077575 255 220 0
0.156910 0.145230 0.033857 255 220 0
0.132090 0.051890 0.048356 255 220 0
0.139311 0.177121 0.041743 255 220 0
0.174348 0.165189 0.073956 255 220 0
0.164432 0.178280 0.084740 255 220 0
0.093627 0.178435 0.079983 255 220 0
0.188968 0.108172 0.061068 255 220 0
0.147848 0.178284 0.046589 255 220 0
0.156665 0.133961 0.111311 255 220 0
0.114900 0.182773 0.046184 255 220 0
0.174878 0.061676 0.037541 255 220 0
0.137588 0.165601 0.034892 255 220 0
0.183631 0.062597 0.055276 255 220 0
0.150783 0.095922 0.097658 255 220 0
0.147570 0.077912 0.025703 255 220 0
0.126878 0.100456 0.086036 255 220 0
0.188845 0.093201 0.073875 255 220 0
0.180009 0.131719 0.048916 255 220 0
0.107575 0.138170 0.094046 255 220 0
0.163083 0.165978 0.047609 255 220 0
0.169156 0.168891 0.089404 255 220 0
0.178340 0.139737 0.049935 255 220 0
0.106424 0.136431 0.091374 255 220 0
0.184845 0.074586 0.074733 255 220 0
0.157370 0.100589 0.027513 255 220 0
0.102122 0.138305 0.086237 255 220 0
0.164607 0.084142 0.028965 255 220 0
0.168491 0.129550 0.036231 255 220 0
0.123313 0.077489 0.045375 255 220 0
0.189020 0.102215 0.076990 255 220 0
0.117503 0.204415 0.093135 255 220 0
0.180967 0.089455 0.089554 255 220 0
0.166238 0.056331 0.072976 255 220 0
0.132478 0.104047 0.094005 255 220 0
0.161030 0.140993 0.110144 255 220 0
0.145517 0.150756 0.031500 255 220 0
0.136054 0.201248 0.067396 255 220 0
0.187540 0.079075 0.058196 255 220 0
0.109878 0.155281 0.035691 255 220 0
0.166958 0.052569 0.069805 255 220 0
0.103459 0.125945 0.075661 255 220 0
0.134702 0.086721 0.081777 255 220 0
0.129219 0.066043 0.037485 255 220 0
0.110580 0.120673 0.035638 255 220 0
0.150450 0.129957 0.028698 255 220 0
0.102392 0.143958 0.091100 255 220 0
0.166692 0.176554 0.068532 255 220 0
0.163807 0.171540 0.096265 255 220 0
0.132733 0.202206 0.095594 255 220 0
0.175618 0.136588 0.044689 255 220 0
0.185402 0.134754 0.069952 255 220 0
0.117769 0.165700 0.111964 255 220 0
0.183442 0.135200 0.086411 255 220 0
0.144965 0.160261 0.113534 255 220 0
0.120395 0.206629 0.089247 255 220 0
0.154594 0.182679 0.097854 255 220 0
0.148731 0.058613 0.071081 255 220 0
0.099973 0.194351 0.079885 255 220 0
0.162516 0.116542 0.106699 255 220 0
0.097486 0.154177 0.046368 255 220 0
0.093115 0.163763 0.057827 255 220 0
0.130481 0.118116 0.026470 255 220 0
0.176921 0.158153 0.064703 255 220 0
0.181638 0.105842 0.095314 255 220 0
0.149208 0.091646 0.025715 255 220 0
0.160123 0.141469 0.034315 255 220 0
0.153440 0.189934 0.065839 255 220 0
0.141670 0.105410 0.099847 255 220 0
0.133063 0.142612 0.028100 255 220 0
0.131926 0.201584 0.096942 255 220 0
0.141793 0.194921 0.061187 255 220 0
0.138917 0.151088 0.030362 255 220 0
0.157943 0.060534 0.027135 255 220 0
0.182526 0.124699 0.093691 255 220 0
0.100268 0.134311 0.078102 255 220 0
0.167516 0.063999 0.078513 255 220 0
0.107219 0.141627 0.095915 255 220 0
0.134915 0.043498 0.039745 255 220 0
0.157486 0.066644 0.080401 255 220 0
0.136071 0.077272 0.075436 255 220 0
0.137965 0.183113 0.046122 255 220 0
0.098813 0.192144 0.074048 255 220 0
0.136038 0.051346 0.032197 255 220 0
0.142205 0.138365 0.028306 255 220 0
0.175791 0.080505 0.087434 255 220 0
0.141433 0.050005 0.060453 255 220 0
0.119340 0.121131 0.029549 255 220 0
0.146696 0.122566 0.027108 255 220 0
0.133365 0.180148 0.112112 255 220 0
0.162490 0.169026 0.049446 255 220 0
0.107228 0.173516 0.043900 255 220 0
0.159771 0.167786 0.045877 255 220 0
0.137389 0.192045 0.054782 255 220 0
0.118101 0.118018 0.091052 255 220 0
0.094385 0.143250 0.065662 255 220 0
0.101248 0.126230 0.068618 255 220 0
0.137724 0.068976 0.070487 255 220 0
0.139159 0.136952 0.111934 255 220 0
0.156646 0.153901 0.036614 255 220 0
0.183971 0.101711 0.046309 255 220 0
0.140587 0.064243 0.069395 255 220 0
0.093087 0.153873 0.075899 255 220 0
0.142749 0.177055 0.110129 255 220 0
0.091715 0.162653 0.073720 255 220 0
0.149473 0.130788 0.028579 255 220 0
0.123293 0.143673 0.109542 255 220 0
0.104232 0.199691 0.079541 255 220 0
0.178039 0.063918 0.074441 255 220 0
0.142032 0.097234 0.025811 255 220 0
0.099955 0.130814 0.072002 255 220 0
0.155105 0.157165 0.037134 255 220 0
0.111479 0.106898 0.068365 255 220 0
0.169320 0.110881 0.033468 255 220 0
0.186896 0.124352 0.062934 255 220 0
0.163592 0.089257 0.095281 255 220 0
0.160635 0.184153 0.081096 255 220 0
0.133859 0.190921 0.106835 255 220 0
0.183179 0.137629 0.085372 255 220 0
0.101576 0.125196 0.067910 255 220 0
0.176176 0.153789 0.056376 255 220 0
0.145054 0.132723 0.027949 255 220 0
0.108351 0.166833 0.106678 255 220 0
0.155985 0.115459 0.106586 255 220 0
0.149740 0.054998 0.069187 255 220 0
0.177892 0.156305 0.065186 255 220 0
0.093543 0.167482 0.083386 255 220 0
0.170334 0.080078 0.031824 255 220 0
0.097943 0.131740 0.060327 255 220 0
0.163537 0.066862 0.081003 255 220 0
0.098557 0.179547 0.093339 255 220 0
0.169517 0.083544 0.031390 255 220 0
0.137377 0.079769 0.078489 255 220 0
0.105628 0.138767 0.037430 255 220 0
0.110375 0.200928 0.067896 255 220 0
0.185870 0.121547 0.056277 255 220 0
0.126676 0.144987 0.028707 255 220 0
0.176124 0.094030 0.036629 255 220 0
0.148478 0.138603 0.029583 255 220 0
0.154315 0.047825 0.028317 255 220 0
0.157248 0.183513 0.092772 255 220 0
0.109307 0.157094 0.036389 255 220 0
0.119818 0.133655 0.103399 255 220 0
0.103625 0.119322 0.064110 255 220 0
0.101628 0.184960 0.055313 255 220 0
0.168031 0.173414 0.064978 255 220 0
0.102006 0.156176 0.097668 255 220 0
0.114536 0.122537 0.032076 255 220 0
0.167082 0.149760 0.041854 255 220 0
0.139114 0.196415 0.061418 255 220 0
0.163246 0.100776 0.100894 255 220 0
0.112119 0.188667 0.104302 255 220 0
0.171859 0.169338 0.076594 255 220 0
0.173699 0.063549 0.076488 255 220 0
0.102268 0.187541 0.095172 255 220 0
0.164289 0.176490 0.088960 255 220 0
0.142840 0.135394 0.112071 255 220 0
0.165708 0.132550 0.107836 255 220 0
0.139182 0.048151 0.057405 255 220 0
0.127502 0.166264 0.114711 255 220 0
0.118997 0.150817 0.031249 255 220 0
0.134096 0.078348 0.074448 255 220 0
0.151053 0.114535 0.105878 255 220 0
0.123904 0.155297 0.112801 255 220 0
0.186914 0.073655 0.063359 255 220 0
0.136016 0.096050 0.026952 255 220 0
0.160827 0.088147 0.027767 255 220 0
0.147777 0.127795 0.110344 255 220 0
0.130950 0.095107 0.028985 255 220 0
0.172376 0.090468 0.033498 255 220 0
0.102548 0.126176 0.045167 255 220 0
0.170550 0.096973 0.032734 255 220 0
0.135573 0.183927 0.110136 255 220 0
0.159723 0.038708 0.057699 255 220 0
0.140587 0.160916 0.114316 255 220 0
0.156172 0.138410 0.031860 255 220 0
0.187096 0.077809 0.056282 255 220 0
0.180895 0.139747 0.090482 255 220 0
0.141171 0.057227 0.064801 255 220 0
0.182141 0.082147 0.043275 255 220 0
0.097272 0.135077 0.067741 255 220 0
0.143797 0.035385 0.049424 255 220 0
0.187463 0.078948 0.068600 255 220 0
0.115726 0.180474 0.044487 255 220 0
0.182521 0.144071 0.080932 255 220 0
0.114503 0.095992 0.055864 255 220 0
0.160568 0.070513 0.083530 255 220 0
0.129351 0.121168 0.102626 255 220 0
0.172444 0.065473 0.078394 255 220 0
0.187907 0.084823 0.072628 255 220 0
0.173519 0.139245 0.043384 255 220 0
0.093471 0.173130 0.082441 255 220 0
0.172818 0.090155 0.094239 255 220 0
0.104139 0.119541 0.047056 255 220 0
0.131338 0.056262 0.037525 255 220 0
0.107917 0.148354 0.100802 255 220 0
0.150923 0.136494 0.029831 255 220 0
0.159349 0.154475 0.109328 255 220 0
0.146139 0.075269 0.081738 255 220 0
0.138615 0.078402 0.027502 255 220 0
0.154632 0.151242 0.112085 255 220 0
0.131812 0.108483 0.026972 255 220 0
0.135831 0.047767 0.053060 255 220 0
0.189460 0.096423 0.064533 255 220 0
0.133086 0.173711 0.038541 255 220 0
0.156716 0.087396 0.094057 255 220 0
0.092915 0.155108 0.058352 255 220 0
0.148807 0.165425 0.038080 255 220 0
0.099977 0.127320 0.064350 255 220 0
0.160920 0.183043 0.084017 255 220 0
0.161517 0.129297 0.109442 255 220 0
0.105934 0.182015 0.049563 255 220 0
0.188220 0.119536 0.073105 255 220 0
0.185732 0.127236 0.060247 255 220 0
0.107842 0.172231 0.106209 255 220 0
0.178428 0.054083 0.064881 255 220 0
0.092164 0.160859 0.076053 255 220 0
0.167133 0.091098 0.030434 255 220 0
0.134965 0.075403 0.029577 255 220 0
0.160894 0.138889 0.034019 255 220 0
0.118695 0.088159 0.055858 255 220 0
0.170437 0.065588 0.032587 255 220 0
0.127679 0.201390 0.063288 255 220 0
0.109074 0.174885 0.106824 255 220 0
0.138886 0.169779 0.037063 255 220 0
0.127635 0.202786 0.065475 255 220 0
0.180818 0.134458 0.051704 255 220 0
0.098625 0.137462 0.077347 255 220 0
0.170387 0.149649 0.101956 255 220 0
0.162758 0.072843 0.028019 255 220 0
0.188729 0.087213 0.067508 255 220 0
0.170337 0.070876 0.031983 255 220 0
0.148887 0.163403 0.037102 255 220 0
0.134136 0.101605 0.093442 255 220 0
0.156120 0.117689 0.028765 255 220 0
0.137020 0.083666 0.081283 255 220 0
0.180810 0.066581 0.044443 255 220 0
0.167432 0.161776 0.099357 255 220 0
0.189177 0.106898 0.075459 255 220 0
0.147130 0.196987 0.085581 255 220 0
0.120022 0.084908 0.047960 255 220 0
0.166138 0.122071 0.033309 255 220 0
0.103575 0.133986 0.040262 255 220 0
0.178043 0.157733 0.076884 255 220 0
0.173015 0.071267 0.082334 255 220 0
0.115891 0.139293 0.103422 255 220 0
0.091876 0.157635 0.064304 255 220 0
0.151131 0.165316 0.110213 255 220 0
0.126579 0.075334 0.038241 255 220 0
0.145538 0.034765 0.049508 255 220 0
0.128317 0.112667 0.096952 255 220 0
0.124581 0.083568 0.066050 255 220 0
0.157169 0.176829 0.100030 255 220 0
0.125333 0.115308 0.096338 255 220 0
0.188042 0.114787 0.059827 255 220 0
0.125799 0.166875 0.114445 255 220 0
0.140406 0.092810 0.026153 255 220 0
0.144623 0.053516 0.065038 255 220 0
0.098053 0.187084 0.063404 255 220 0
0.114604 0.120018 0.088744 255 220 0
0.151566 0.042011 0.061339 255 220 0
0.114672 0.105624 0.074345 255 220 0
0.151119 0.188489 0.096014 255 220 0
0.169394 0.043179 0.059044 255 220 0
0.124837 0.196938 0.057164 255 220 0
0.133893 0.061497 0.032375 255 220 0
0.180839 0.151147 0.074394 255 220 0
0.115827 0.171555 0.111107 255 220 0
0.100175 0.183679 0.055952 255 220 0
0.124173 0.079805 0.060089 255 220 0
0.126219 0.107654 0.028900 255 220 0
0.149270 0.195794 0.079654 255 220 0
0.152259 0.038860 0.032466 255 220 0
0.179916 0.100085 0.095149 255 220 0
0.113458 0.186658 0.049291 255 220 0
0.092651 0.176466 0.074786 255 220 0
0.138160 0.155767 0.031506 255 220 0
0.130326 0.204133 0.069041 255 220 0
0.105985 0.201184 0.084224 255 220 0
0.160170 0.115794 0.029838 255 220 0
0.127815 0.086369 0.074413 255 220 0
0.117662 0.124995 0.095843 255 220 0
0.120380 0.084407 0.046903 255 220 0
0.111861 0.132352 0.032834 255 220 0
0.159322 0.186200 0.077174 255 220 0
0.163903 0.168471 0.098826 255 220 0
0.119051 0.090398 0.062228 255 220 0
0.110778 0.189628 0.052655 255 220 0
0.124510 0.110147 0.091587 255 220 0
0.127699 0.063502 0.045059 255 220 0
0.175057 0.045597 0.054805 255 220 0
0.128184 0.068984 0.056838 255 220 0
0.137185 0.044862 0.033694 255 220 0
0.112009 0.111541 0.037650 255 220 0
0.133917 0.170333 0.036729 255 220 0
0.124716 0.198504 0.101929 255 220 0
0.163191 0.181665 0.076749 255 220 0
0.135971 0.047778 0.033547 255 220 0
0.097439 0.133320 0.062630 255 220 0
0.103032 0.123540 0.070439 255 220 0
0.186126 0.120220 0.086009 255 220 0
0.124583 0.073060 0.047577 255 220 0
0.140979 0.192538 0.102189 255 220 0
0.174956 0.088822 0.035396 255 220 0
0.186814 0.116104 0.085276 255 220 0
0.180893 0.106702 0.042885 255 220 0
0.149307 0.057040 0.026378 255 220 0
0.123462 0.079689 0.042125 255 220 0
0.119008 0.100359 0.076107 255 220 0
0.105454 0.117723 0.045128 255 220 0
0.107775 0.191748 0.099039 255 220 0
0.176316 0.050920 0.046929 255 220 0
0.139197 0.064124 0.068097 255 220 0
0.169133 0.129869 0.106039 255 220 0
0.179129 0.053824 0.050935 255 220 0
0.092543 0.167778 0.079493 255 220 0
0.113125 0.099212 0.058347 255 220 0
0.099726 0.183519 0.093542 255 220 0
0.173722 0.154915 0.052672 255 220 0
0.152795 0.187488 0.094781 255 220 0
0.100804 0.195446 0.081754 255 220 0
0.138936 0.170404 0.037404 255 220 0
0.119681 0.122662 0.096251 255 220 0
0.107794 0.154445 0.036679 255 220 0
0.163049 0.180490 0.083616 255 220 0
0.101757 0.195945 0.085401 255 220 0
0.120920 0.164332 0.034930 255 220 0
0.123399 0.076889 0.046147 255 220 0
0.115376 0.203888 0.069197 255 220 0
0.153975 0.082202 0.025981 255 220 0
0.179052 0.052054 0.053871 255 220 0
0.099776 0.157227 0.094730 255 220 0
0.170200 0.041908 0.045478 255 220 0
0.116205 0.186000 0.107797 255 220 0
0.173428 0.096771 0.097273 255 220 0
0.099862 0.149219 0.043056 255 220 0
0.134322 0.204069 0.072385 255 220 0
0.182276 0.128125 0.093026 255 220 0
0.134625 0.085208 0.028540 255 220 0
0.135928 0.052070 0.056030 255 220 0
0.166076 0.177568 0.079345 255 220 0
0.172478 0.122422 0.037626 255 220 0
0.125619 0.167322 0.035544 255 220 0
0.188426 0.085127 0.060058 255 220 0
0.173264 0.124905 0.038872 255 220 0
0.124826 0.082716 0.065495 255 220 0
0.151788 0.165326 0.109901 255 220 0
0.164513 0.107266 0.030562 255 220 0
0.150343 0.155798 0.112776 255 220 0
0.174707 0.161206 0.085946 255 220 0
0.177096 0.159541 0.069972 255 220 0
0.117416 0.115649 0.088439 255 220 0
0.099854 0.186944 0.091620 255 220 0
0.148500 0.187026 0.100680 255 220 0
0.180668 0.109918 0.043185 255 220 0
0.184841 0.119574 0.052606 255 220 0
0.143615 0.034588 0.042207 255 220 0
0.165416 0.090932 0.096063 255 220 0
0.113230 0.166357 0.109817 255 220 0
0.097122 0.137237 0.052647 255 220 0
0.146082 0.106649 0.025979 255 220 0
0.138164 0.049746 0.057272 255 220 0
0.182261 0.141921 0.061387 255 220 0
0.151606 0.121770 0.028016 255 220 0
0.135687 0.059633 0.061027 255 220 0
0.187511 0.103314 0.084398 255 220 0
0.099188 0.137554 0.079052 255 220 0
0.108591 0.192387 0.056463 255 220 0
0.188127 0.104070 0.082137 255 220 0
0.135535 0.204934 0.078448 255 220 0
0.182874 0.131188 0.054377 255 220 0
0.122981 0.207503 0.086941 255 220 0
0.179034 0.110180 0.098605 255 220 0
0.175830 0.058592 0.039954 255 220 0
0.114764 0.105488 0.037598 255 220 0
0.108507 0.179634 0.105370 255 220 0
0.149604 0.067171 0.025848 255 220 0
0.127392 0.102168 0.029452 255 220 0
0.114053 0.154214 0.108183 255 220 0
0.116433 0.092264 0.048304 255 220 0
0.103817 0.198329 0.074426 255 220 0
0.122393 0.188639 0.049235 255 220 0
0.136878 0.090921 0.087138 255 220 0
0.187559 0.123457 0.074442 255 220 0
0.155234 0.147588 0.033815 255 220 0
0.158593 0.082374 0.091251 255 220 0
0.189269 0.095272 0.061767 255 220 0
0.105856 0.112825 0.054124 255 220 0
0.124637 0.130229 0.027392 255 220 0
0.135511 0.196236 0.101797 255 220 0
0.180051 0.150125 0.063457 255 220 0
0.156538 0.088743 0.026649 255 220 0
0.143309 0.041557 0.031163 255 220 0
0.147904 0.078209 0.085048 255 220 0
0.141066 0.053381 0.062168 255 220 0
0.111721 0.186624 0.049867 255 220 0
0.149154 0.193603 0.066916 255 220 0
0.146516 0.192568 0.096904 255 220 0
0.127322 0.156630 0.031421 255 220 0
0.099978 0.137093 0.044948 255 220 0
0.187805 0.081603 0.057830 255 220 0
0.123655 0.078295 0.056092 255 220 0
0.180740 0.132151 0.050401 255 220 0
0.180944 0.104419 0.042601 255 220 0
0.180730 0.056118 0.052927 255 220 0
0.158532 0.182067 0.059499 255 220 0
0.177051 0.119369 0.101130 255 220 0
0.149627 0.161624 0.111872 255 220 0
0.093759 0.147129 0.059411 255 220 0
0.166431 0.176240 0.082763 255 220 0
0.156157 0.107436 0.027752 255 220 0
0.097602 0.173210 0.052495 255 220 0
0.154530 0.038238 0.057898 255 220 0
0.108096 0.176808 0.045185 255 220 0
0.167693 0.175704 0.071942 255 220 0
0.153094 0.048245 0.066316 255 220 0
0.137060 0.191622 0.054150 255 220 0
0.135438 0.156421 0.031410 255 220 0
0.104046 0.169039 0.043752 255 220 0
0.165622 0.160247 0.102338 255 220 0
0.180716 0.140968 0.055630 255 220 0
0.160686 0.184557 0.071642 255 220 0
0.140913 0.036841 0.038792 255 220 0
0.167913 0.139775 0.106005 255 220 0
0.161926 0.155724 0.040612 255 220 0
0.159297 0.149090 0.110412 255 220 0
0.146876 0.190635 0.059332 255 220 0
0.160427 0.167496 0.103177 255 220 0
0.187723 0.078830 0.060791 255 220 0
0.104007 0.173459 0.102568 255 220 0
0.105303 0.157980 0.102311 255 220 0
0.155696 0.130597 0.110944 255 220 0
0.109946 0.108271 0.043716 255 220 0
0.114307 0.174080 0.041185 255 220 0
0.154981 0.156266 0.036709 255 220 0
0.152980 0.147706 0.032970 255 220 0
0.188356 0.113149 0.078998 255 220 0
0.169343 0.075558 0.031178 255 220 0
0.154462 0.081187 0.026035 255 220 0
0.163638 0.127324 0.032919 255 220 0
0.108089 0.112549 0.067713 255 220 0
0.134491 0.136904 0.110943 255 220 0
0.125056 0.118009 0.097995 255 220 0
0.168872 0.065468 0.079349 255 220 0
0.118212 0.126727 0.097671 255 220 0
0.104844 0.144317 0.037970 255 220 0
0.189589 0.104974 0.068473 255 220 0
0.163683 0.079410 0.028415 255 220 0
0.131663 0.206162 0.087072 255 220 0
0.130227 0.119056 0.101971 255 220 0
0.112836 0.146657 0.032822 255 220 0
0.145214 0.084531 0.025748 255 220 0
0.189590 0.104986 0.068822 255 220 0
0.117243 0.094670 0.064267 255 220 0
0.165965 0.105108 0.102452 255 220 0
0.157266 0.044646 0.030357 255 220 0
0.122233 0.182660 0.111060 255 220 0
0.181727 0.142394 0.086271 255 220 0
0.152406 0.157531 0.111778 255 220 0
0.125477 0.130357 0.027225 255 220 0
0.106530 0.162576 0.039456 255 220 0
0.171676 0.056920 0.035575 255 220 0
0.166367 0.039846 0.056042 255 220 0
0.157260 0.037795 0.035848 255 220 0
0.180596 0.149901 0.065803 255 220 0
0.156727 0.175269 0.049727 255 220 0
0.105331 0.170262 0.104153 255 220 0
0.164761 0.173051 0.056732 255 220 0
0.156453 0.040141 0.032787 255 220 0
0.122900 0.151530 0.111671 255 220 0
0.100568 0.125828 0.063926 255 220 0
0.166739 0.105061 0.031374 255 220 0
0.132818 0.054032 0.035576 255 220 0
0.155545 0.187723 0.064825 255 220 0
0.140982 0.133378 0.111209 255 220 0
0.149838 0.045734 0.028246 255 220 0
0.137455 0.039164 0.045337 255 220 0
0.170189 0.054203 0.070261 255 220 0
0.141847 0.044663 0.057735 255 220 0
0.150819 0.177704 0.047881 255 220 0
0.177857 0.072345 0.038737 255 220 0
0.181071 0.128491 0.049332 255 220 0
0.137938 0.045383 0.032584 255 220 0
0.136852 0.075299 0.028550 255 220 0
0.108134 0.179966 0.104973 255 220 0
0.160535 0.184285 0.081033 255 220 0
0.147975 0.099971 0.025863 255 220 0
0.188002 0.109475 0.056951 255 220 0
0.099890 0.130938 0.048610 255 220 0
0.165857 0.156798 0.103771 255 220 0
0.127855 0.085122 0.073256 255 220 0
0.154454 0.145380 0.032891 255 220 0
0.110759 0.168235 0.039568 255 220 0
0.125879 0.207052 0.088305 255 220 0
0.178824 0.098855 0.039605 255 220 0
0.119852 0.206277 0.089982 255 220 0
0.105853 0.158370 0.102989 255 220 0
0.159801 0.115325 0.029655 255 220 0
0.094407 0.142994 0.064082 255 220 0
0.124812 0.207325 0.074588 255 220 0
0.188655 0.112550 0.061837 255 220 0
0.170394 0.104002 0.101175 255 220 0
0.157367 0.141563 0.111657 255 220 0
0.092405 0.152287 0.066269 255 220 0
0.129188 0.070236 0.036038 255 220 0
0.105672 0.132771 0.087414 255 220 0
0.122793 0.078029 0.048440 255 220 0
0.149038 0.121233 0.027408 255 220 0
0.127054 0.202559 0.097088 255 220 0
0.091996 0.168012 0.076455 255 220 0
0.120388 0.140037 0.029133 255 220 0
0.101681 0.177517 0.050147 255 220 0
0.113796 0.098582 0.059988 255 220 0
0.159419 0.181009 0.092304 255 220 0
0.135653 0.077133 0.028969 255 220 0
0.157924 0.179751 0.055665 255 220 0
0.173667 0.146163 0.046693 255 220 0
0.129065 0.116864 0.026801 255 220 0
0.160443 0.136005 0.110315 255 220 0
0.150293 0.095402 0.097266 255 220 0
0.128207 0.080295 0.034128 255 220 0
0.093836 0.178692 0.065059 255 220 0
0.146309 0.048833 0.063309 255 220 0
0.138754 0.067856 0.028274 255 220 0
0.146993 0.070857 0.078953 255 220 0
0.147393 0.099146 0.098459 255 220 0
0.174465 0.149379 0.097010 255 220 0
0.150247 0.137762 0.112807 255 220 0
0.153399 0.117249 0.107099 255 220 0
0.104918 0.193749 0.061623 255 220 0
0.187329 0.125033 0.073851 255 220 0
0.155188 0.121126 0.108486 255 220 0
0.154837 0.037214 0.035294 255 220 0
0.125585 0.132042 0.105965 255 220 0
0.172242 0.147403 0.045682 255 220 0
0.170473 0.052901 0.069020 255 220 0
0.123547 0.186106 0.110004 255 220 0
0.131658 0.121747 0.103968 255 220 0
0.160759 0.049376 0.030186 255 220 0
0.188096 0.117581 0.062680 255 220 0
0.099001 0.192416 0.074004 255 220 0
0.113913 0.204033 0.091217 255 220 0
0.111960 0.178999 0.044758 255 220 0
0.140360 0.201830 0.075703 255 220 0
0.182712 0.079870 0.044379 255 220 0
0.109305 0.127417 0.088168 255 220 0
0.149810 0.194990 0.074035 255 220 0
0.169137 0.173448 0.070798 255 220 0
0.178751 0.119556 0.043108 255 220 0
0.154267 0.033439 0.045773 255 220 0
0.101343 0.131448 0.077370 255 220 0
0.185570 0.067370 0.060283 255 220 0
0.124502 0.170427 0.037164 255 220 0
0.116825 0.107419 0.080216 255 220 0
0.171583 0.160444 0.054295 255 220 0
0.189194 0.110475 0.065102 255 220 0
0.122968 0.126519 0.027807 255 220 0
0.124273 0.124052 0.101212 255 220 0
0.156368 0.107339 0.103544 255 220 0
0.165736 0.055013 0.072033 255 220 0
0.186138 0.110105 0.088615 255 220 0
0.146013 0.193459 0.062672 255 220 0
0.188811 0.114386 0.073633 255 220 0
0.189093 0.092304 0.070253 255 220 0
0.178824 0.113223 0.099235 255 220 0
0.143681 0.161605 0.034520 255 220 0
0.176133 0.142729 0.048112 255 220 0
0.129705 0.079494 0.032862 255 220 0
0.178469 0.139018 0.049773 255 220 0
0.095359 0.181667 0.063239 255 220 0
0.146295 0.195996 0.068165 255 220 0
0.108724 0.107931 0.048541 255 220 0
0.105598 0.118011 0.069322 255 220 0
0.105348 0.183741 0.100970 255 220 0
0.168596 0.114667 0.033554 255 220 0
0.188185 0.105852 0.056344 255 220 0
0.098146 0.190582 0.082775 255 220 0
0.166263 0.103855 0.101923 255 220 0
0.105498 0.199056 0.088996 255 220 0
0.141263 0.089803 0.089613 255 220 0
0.160287 0.035797 0.051847 255 220 0
0.118916 0.088458 0.057830 255 220 0
0.123348 0.077352 0.045451 255 220 0
0.179780 0.086800 0.088991 255 220 0
0.151672 0.114767 0.027370 255 220 0
0.122184 0.158643 0.032651 255 220 0
0.144093 0.141608 0.029178 255 220 0
0.158618 0.117966 0.107427 255 220 0
0.104000 0.119946 0.067206 255 220 0
0.159372 0.182418 0.090090 255 220 0
0.186046 0.070454 0.057878 255 220 0
0.096193 0.187296 0.078843 255 220 0
0.094043 0.182269 0.073018 255 220 0
0.099640 0.174261 0.096744 255 220 0
0.161048 0.120348 0.030735 255 220 0
0.118531 0.116290 0.090157 255 220 0
0.127004 0.067543 0.051572 255 220 0
0.174890 0.105323 0.036702 255 220 0
0.187611 0.112326 0.056731 255 220 0
0.102456 0.170015 0.045497 255 220 0
0.138952 0.037514 0.042401 255 220 0
0.123053 0.088468 0.069156 255 220 0
0.135926 0.056906 0.059314 255 220 0
0.136655 0.108190 0.026119 255 220 0
0.186317 0.107092 0.088153 255 220 0
0.109524 0.105867 0.049614 255 220 0
0.125436 0.161866 0.114123 255 220 0
0.167609 0.129002 0.106922 255 220 0
0.133469 0.178581 0.041686 255 220 0
0.106056 0.197903 0.091689 255 220 0
0.183243 0.137628 0.085137 255 220 0
0.120920 0.174685 0.112690 255 220 0
0.113193 0.145581 0.104419 255 220 0
0.161255 0.127569 0.031869 255 220 0
0.149925 0.124596 0.109456 255 220 0
0.147078 0.197382 0.076650 255 220 0
0.143696 0.160047 0.033938 255 220 0
0.108620 0.126363 0.086263 255 220 0
0.188475 0.085746 0.059869 255 220 0
0.127917 0.205956 0.071799 255 220 0
0.169017 0.172534 0.082576 255 220 0
0.180044 0.134511 0.050251 255 220 0
0.142901 0.197036 0.094787 255 220 0
0.139175 0.196455 0.061519 255 220 0
0.119934 0.197968 0.058532 255 220 0
0.092655 0.176018 0.075938 255 220 0
0.150212 0.043102 0.029292 255 220 0
0.109731 0.162628 0.037779 255 220 0
0.160569 0.094892 0.028063 255 220 0
0.132722 0.091155 0.083704 255 220 0
0.170217 0.059348 0.074447 255 220 0
0.161881 0.176266 0.094148 255 220 0
0.165588 0.178454 0.070581 255 220 0
0.108948 0.121343 0.081868 255 220 0
0.111394 0.147933 0.104024 255 220 0
0.096227 0.138785 0.055152 255 220 0
0.116763 0.117208 0.031609 255 220 0
0.105535 0.168828 0.104369 255 220 0
0.164113 0.078280 0.028559 255 220 0
0.126525 0.195968 0.056200 255 220 0
0.154128 0.175300 0.103952 255 220 0
0.182370 0.058248 0.062443 255 220 0
0.189018 0.113871 0.068840 255 220 0
0.184776 0.117322 0.090901 255 220 0
0.149631 0.092353 0.025757 255 220 0
0.135001 0.094926 0.088864 255 220 0
0.160804 0.184138 0.069739 255 220 0
0.097458 0.169003 0.093267 255 220 0
0.133567 0.056965 0.033594 255 220 0
0.146261 0.090744 0.025638 255 220 0
0.121592 0.108129 0.031030 255 220 0
0.138548 0.061567 0.065555 255 220 0
0.176878 0.131800 0.044491 255 220 0
0.161263 0.120813 0.030885 255 220 0
0.134151 0.120116 0.104207 255 220 0
0.145371 0.109763 0.102986 255 220 0
0.171071 0.096088 0.097676 255 220 0
0.098976 0.143445 0.084429 255 220 0
0.114319 0.097666 0.045762 255 220 0
0.189598 0.102325 0.065494 255 220 0
0.124689 0.183835 0.045396 255 220 0
0.162304 0.178577 0.090044 255 220 0
0.149618 0.114286 0.026924 255 220 0
0.124198 0.177929 0.112819 255 220 0
0.154220 0.119242 0.107842 255 220 0
0.131979 0.050632 0.040638 255 220 0
0.110137 0.178280 0.106927 255 220 0
0.183873 0.074403 0.047590 255 220 0
0.096117 0.171403 0.053893 255 220 0
0.099132 0.162273 0.095318 255 220 0
0.123222 0.148439 0.110983 255 220 0
0.129826 0.092090 0.081785 255 220 0
0.182260 0.103584 0.094088 255 220 0
0.128976 0.150717 0.113243 255 220 0
0.187859 0.116198 0.080284 255 220 0
0.130655 0.063418 0.056493 255 220 0
0.106879 0.173717 0.105265 255 220 0
0.115453 0.124778 0.093333 255 220 0
0.122667 0.098498 0.033246 255 220 0
0.188445 0.116794 0.064701 255 220 0
0.157462 0.114697 0.106347 255 220 0
0.153313 0.154999 0.111962 255 220 0
0.092518 0.176269 0.071244 255 220 0
0.150233 0.194497 0.072912 255 220 0
0.140130 0.098778 0.095326 255 220 0
0.164932 0.072076 0.028899 255 220 0
0.158285 0.163911 0.042271 255 220 0
0.153315 0.045525 0.064544 255 220 0
0.114790 0.172530 0.110536 255 220 0
0.124411 0.103689 0.030624 255 220 0
0.165592 0.066624 0.029474 255 220 0
0.142970 0.182978 0.048168 255 220 0
0.127583 0.071920 0.037991 255 220 0
0.122438 0.205746 0.092018 255 220 0
0.138255 0.135867 0.027400 255 220 0
0.187266 0.125860 0.071375 255 220 0
0.126050 0.194890 0.054987 255 220 0
0.141588 0.046950 0.029476 255 220 0
0.179020 0.087823 0.039232 255 220 0
0.158236 0.098359 0.027596 255 220 0
0.099092 0.129573 0.054055 255 220 0
0.119692 0.104822 0.081759 255 220 0
0.121471 0.202251 0.097633 255 220 0
0.139573 0.121862 0.106700 255 220 0
0.159719 0.072509 0.027039 255 220 0
0.155517 0.140102 0.112181 255 220 0
0.136836 0.045016 0.033998 255 220 0
0.181708 0.060154 0.050902 255 220 0
0.171218 0.087484 0.093243 255 220 0
0.148348 0.195726 0.072000 255 220 0
0.133426 0.204722 0.073226 255 220 0
0.172624 0.167743 0.069907 255 220 0
0.140207 0.049198 0.029569 255 220 0
0.154624 0.150436 0.112181 255 220 0
0.092707 0.161849 0.079187 255 220 0
0.175508 0.056771 0.070035 255 220 0
0.124282 0.075960 0.054446 255 220 0
0.150748 0.077579 0.025657 255 220 0
0.186684 0.078733 0.072855 255 220 0
0.177803 0.157154 0.081105 255 220 0
0.160920 0.063490 0.027743 255 220 0
0.140315 0.161577 0.033746 255 220 0
0.150865 0.171248 0.108183 255 220 0
0.117046 0.206567 0.074796 255 220 0
0.131399 0.147440 0.028989 255 220 0
0.128657 0.075287 0.064472 255 220 0
0.139032 0.071619 0.027868 255 220 0
0.093960 0.181459 0.076818 255 220 0
0.151989 0.045317 0.063973 255 220 0
0.133903 0.077101 0.073234 255 220 0
0.173653 0.164007 0.064152 255 220 0
0.175452 0.154200 0.055240 255 220 0
0.181824 0.056673 0.060774 255 220 0
0.097714 0.134178 0.053749 255 220 0
0.153147 0.117387 0.107133 255 220 0
0.178158 0.152244 0.087558 255 220 0
0.125733 0.070304 0.050316 255 220 0
0.162870 0.038595 0.056125 255 220 0
0.136762 0.130487 0.109326 255 220 0
0.172615 0.156039 0.051850 255 220 0
0.138181 0.182821 0.045944 255 220 0
0.095758 0.142054 0.073328 255 220 0
0.181296 0.126640 0.048940 255 220 0
0.182415 0.145186 0.079429 255 220 0
0.137069 0.055999 0.030404 255 220 0
0.149592 0.136215 0.112583 255 220 0
0.160038 0.184611 0.068156 255 220 0
0.154636 0.165866 0.041157 255 220 0
0.141681 0.167895 0.036767 255 220 0
0.175207 0.072036 0.082006 255 220 0
0.171925 0.100337 0.033916 255 220 0
0.172913 0.106161 0.101135 255 220 0
0.180526 0.148957 0.083410 255 220 0
0.145467 0.095631 0.095860 255 220 0
0.178900 0.089138 0.039107 255 220 0
0.104514 0.141963 0.092779 255 220 0
0.160216 0.066667 0.080793 255 220 0
0.166822 0.156944 0.102783 255 220 0
0.105484 0.113746 0.053025 255 220 0
0.170485 0.105687 0.033553 255 220 0
0.168565 0.087444 0.030990 255 220 0
0.119952 0.169016 0.112867 255 220 0
0.130365 0.169810 0.036398 255 220 0
0.105281 0.174977 0.045858 255 220 0
