ply
format ascii 1.0
element vertex 1024
property float x
property float y
property float z
property uchar red
property uchar green
property uchar blue
end_header
0.102109 0.193474 0.089114 255 220 0
0.110635 0.109112 0.052782 255 220 0
0.177698 0.071772 0.032225 255 220 0
0.150647 0.095236 0.097368 255 220 0
0.143146 0.178319 0.044552 255 220 0
0.121656 0.118737 0.096224 255 220 0
0.145974 0.167130 0.037710 255 220 0
0.111355 0.111518 0.042321 255 220 0
0.139457 0.163262 0.034008 255 220 0
0.139697 0.063290 0.025045 255 220 0
0.109473 0.142375 0.100662 255 220 0
0.185750 0.109043 0.088074 255 220 0
0.104808 0.132992 0.085144 255 220 0
0.136112 0.151980 0.115248 255 220 0
0.175900 0.085572 0.091279 255 220 0
0.137575 0.050112 0.043356 255 220 0
0.110193 0.183491 0.048923 255 220 0
0.096984 0.182922 0.087311 255 220 0
0.103743 0.123268 0.055599 255 220 0
0.128755 0.084774 0.032170 255 220 0
0.099287 0.162739 0.047185 255 220 0
0.143466 0.187884 0.102971 255 220 0
0.185729 0.116086 0.086914 255 220 0
0.108236 0.191728 0.099615 255 220 0
0.168308 0.051190 0.026858 255 220 0
0.154334 0.128227 0.027782 255 220 0
0.098573 0.189867 0.083280 255 220 0
0.109973 0.202534 0.080822 255 220 0
0.107788 0.132169 0.036603 255 220 0
0.138778 0.194752 0.099575 255 220 0
0.117321 0.175001 0.112083 255 220 0
0.122148 0.115066 0.093610 255 220 0
0.166385 0.071643 0.083251 255 220 0
0.145763 0.059397 0.021837 255 220 0
0.170214 0.113192 0.032014 255 220 0
0.110808 0.113098 0.070666 255 220 0
0.158001 0.166272 0.043967 255 220 0
0.106431 0.187480 0.100540 255 220 0
0.134114 0.115123 0.023930 255 220 0
0.159610 0.100265 0.101764 255 220 0
0.171564 0.140805 0.041224 255 220 0
0.176966 0.159416 0.070922 255 220 0
0.094090 0.164310 0.083758 255 220 0
0.164518 0.155105 0.105110 255 220 0
0.128926 0.190398 0.107495 255 220 0
0.133087 0.073961 0.062428 255 220 0
0.107251 0.124396 0.040407 255 220 0
0.099908 0.147774 0.089986 255 220 0
0.108601 0.201549 0.084942 255 220 0
0.151018 0.190925 0.088022 255 220 0
0.103988 0.123747 0.051357 255 220 0
0.093767 0.176366 0.078894 255 220 0
0.125325 0.086245 0.063116 255 220 0
0.133324 0.061082 0.044690 255 220 0
0.143597 0.055229 0.057551 255 220 0
0.142267 0.043164 0.045974 255 220 0
0.117444 0.199106 0.099146 255 220 0
0.166274 0.055103 0.024684 255 220 0
0.132011 0.067263 0.050163 255 220 0
0.151823 0.093392 0.022455 255 220 0
0.136373 0.201137 0.090708 255 220 0
0.104013 0.123862 0.050914 255 220 0
0.187323 0.103089 0.083876 255 220 0
0.185384 0.124861 0.054153 255 220 0
0.126678 0.089327 0.032752 255 220 0
0.125485 0.135158 0.025969 255 220 0
0.167129 0.071767 0.024494 255 220 0
0.096818 0.151625 0.051188 255 220 0
0.149781 0.188090 0.095906 255 220 0
0.114092 0.192904 0.103157 255 220 0
0.179797 0.128497 0.045477 255 220 0
0.185293 0.131306 0.080939 255 220 0
0.107804 0.154552 0.104854 255 220 0
0.152101 0.181799 0.100077 255 220 0
0.146868 0.049422 0.056110 255 220 0
0.152637 0.104860 0.023690 255 220 0
0.159413 0.169105 0.102305 255 220 0
0.136678 0.068578 0.062020 255 220 0
0.134825 0.119377 0.104962 255 220 0
0.178292 0.093232 0.034505 255 220 0
0.118160 0.125392 0.028724 255 220 0
0.119575 0.092546 0.046924 255 220 0
0.111789 0.191873 0.055704 255 220 0
0.117390 0.170420 0.038118 255 220 0
0.137016 0.051016 0.042732 255 220 0
0.105855 0.120998 0.068858 255 220 0
0.135967 0.116839 0.104103 255 220 0
0.127875 0.156005 0.114943 255 220 0
0.109296 0.122760 0.037711 255 220 0
0.186131 0.069200 0.047288 255 220 0
0.176207 0.161000 0.072867 255 220 0
0.109330 0.114043 0.066827 255 220 0
0.166424 0.172142 0.088990 255 220 0
0.128752 0.198531 0.100221 255 220 0
0.171764 0.059370 0.027749 255 220 0
0.183374 0.130980 0.087772 255 220 0
0.166667 0.099737 0.101385 255 220 0
0.137242 0.188255 0.052218 255 220 0
0.157889 0.185912 0.070721 255 220 0
0.114665 0.153016 0.032455 255 220 0
0.150955 0.055349 0.064453 255 220 0
0.121980 0.100678 0.077742 255 220 0
0.154288 0.153495 0.111949 255 220 0
0.120217 0.144362 0.109572 255 220 0
0.123599 0.191164 0.052752 255 220 0
0.149955 0.127362 0.026252 255 220 0
0.100662 0.180721 0.096585 255 220 0
0.137631 0.063807 0.026773 255 220 0
0.145962 0.191528 0.063028 255 220 0
0.162063 0.047165 0.061830 255 220 0
0.161431 0.154845 0.039640 255 220 0
0.125772 0.121199 0.101185 255 220 0
0.131341 0.075037 0.060280 255 220 0
0.116318 0.184574 0.047633 255 220 0
0.127236 0.174658 0.114093 255 220 0
0.152448 0.148635 0.113354 255 220 0
0.135145 0.194799 0.101927 255 220 0
0.101585 0.179306 0.052579 255 220 0
0.093151 0.172269 0.077855 255 220 0
0.099870 0.158310 0.045151 255 220 0
0.125646 0.158041 0.114823 255 220 0
0.118413 0.115193 0.088603 255 220 0
0.179814 0.152227 0.066046 255 220 0
0.185096 0.082868 0.080937 255 220 0
0.184102 0.095382 0.089105 255 220 0
0.138127 0.121538 0.107321 255 220 0
0.151214 0.155300 0.112720 255 220 0
0.112274 0.114671 0.077483 255 220 0
0.188582 0.114755 0.077068 255 220 0
0.130019 0.190073 0.107556 255 220 0
0.177245 0.050656 0.061217 255 220 0
0.174726 0.132011 0.101406 255 220 0
0.151355 0.175345 0.046784 255 220 0
0.190252 0.094947 0.056198 255 220 0
0.188142 0.123724 0.068483 255 220 0
0.141077 0.170624 0.112522 255 220 0
0.118400 0.122966 0.096188 255 220 0
0.127343 0.148632 0.028098 255 220 0
0.127750 0.204346 0.090690 255 220 0
0.151453 0.087369 0.092610 255 220 0
0.174650 0.153313 0.093366 255 220 0
0.140169 0.090340 0.023584 255 220 0
0.094288 0.157932 0.057995 255 220 0
0.137032 0.186487 0.050206 255 220 0
0.184883 0.137309 0.066802 255 220 0
0.176788 0.088355 0.032474 255 220 0
0.121789 0.139075 0.108276 255 220 0
0.142711 0.193844 0.063657 255 220 0
0.167953 0.132720 0.035401 255 220 0
0.119367 0.141015 0.107779 255 220 0
0.180799 0.081378 0.035995 255 220 0
0.099201 0.138121 0.076649 255 220 0
0.134612 0.113082 0.101389 255 220 0
0.115348 0.103078 0.065054 255 220 0
0.167762 0.073798 0.084874 255 220 0
0.126670 0.089958 0.032470 255 220 0
0.156002 0.112591 0.025598 255 220 0
0.146887 0.077641 0.082277 255 220 0
0.146910 0.106109 0.102290 255 220 0
0.170633 0.159222 0.095514 255 220 0
0.134011 0.190145 0.106503 255 220 0
0.116377 0.204613 0.076273 255 220 0
0.163413 0.165410 0.100601 255 220 0
0.097986 0.166454 0.095053 255 220 0
0.160443 0.049440 0.022847 255 220 0
0.108953 0.201958 0.082408 255 220 0
0.178072 0.053349 0.037957 255 220 0
0.179107 0.066489 0.034323 255 220 0
0.148288 0.042964 0.052130 255 220 0
0.155306 0.040817 0.025257 255 220 0
0.109767 0.115944 0.041577 255 220 0
0.114361 0.197454 0.062031 255 220 0
0.108814 0.113103 0.050503 255 220 0
0.105190 0.170275 0.043898 255 220 0
0.118253 0.098469 0.040054 255 220 0
0.150385 0.034878 0.036609 255 220 0
0.126197 0.152304 0.114038 255 220 0
0.183920 0.131611 0.085864 255 220 0
0.124132 0.203560 0.093561 255 220 0
0.118916 0.191202 0.052997 255 220 0
0.181766 0.147111 0.078415 255 220 0
0.132334 0.184978 0.110076 255 220 0
0.177429 0.070411 0.031985 255 220 0
0.169626 0.077897 0.026235 255 220 0
0.099976 0.136254 0.076500 255 220 0
0.172881 0.165617 0.081392 255 220 0
0.153236 0.042026 0.054604 255 220 0
0.178381 0.070653 0.079320 255 220 0
0.149801 0.061420 0.069117 255 220 0
0.141465 0.052384 0.024763 255 220 0
0.148725 0.164288 0.111402 255 220 0
0.101984 0.128070 0.067151 255 220 0
0.159049 0.076832 0.022138 255 220 0
0.179814 0.092546 0.092731 255 220 0
0.106723 0.123986 0.077870 255 220 0
0.174823 0.117984 0.036485 255 220 0
0.150411 0.072216 0.079728 255 220 0
0.183588 0.133061 0.055143 255 220 0
0.146412 0.172863 0.041617 255 220 0
0.133999 0.191679 0.105327 255 220 0
0.135198 0.102101 0.024572 255 220 0
0.129573 0.130311 0.024752 255 220 0
0.183372 0.114504 0.045320 255 220 0
0.182183 0.084900 0.037939 255 220 0
0.100784 0.131914 0.071159 255 220 0
0.105815 0.192698 0.061729 255 220 0
0.103622 0.165721 0.103251 255 220 0
0.123447 0.151143 0.029320 255 220 0
0.176940 0.127430 0.099933 255 220 0
0.178985 0.153992 0.079877 255 220 0
0.116877 0.145835 0.030211 255 220 0
0.145058 0.195710 0.089073 255 220 0
0.159489 0.164523 0.043850 255 220 0
0.098490 0.187818 0.086844 255 220 0
0.132085 0.155748 0.030150 255 220 0
0.114509 0.187499 0.050461 255 220 0
0.159713 0.136521 0.031875 255 220 0
0.135775 0.088300 0.082249 255 220 0
0.162380 0.103996 0.103629 255 220 0
0.148530 0.111976 0.023785 255 220 0
0.149526 0.162503 0.111593 255 220 0
0.138152 0.048129 0.042563 255 220 0
0.187323 0.067295 0.058034 255 220 0
0.164530 0.167354 0.097682 255 220 0
0.156288 0.064251 0.075584 255 220 0
0.115042 0.199274 0.097876 255 220 0
0.146611 0.087443 0.022189 255 220 0
0.178572 0.073494 0.081386 255 220 0
0.174584 0.162781 0.066911 255 220 0
0.113109 0.203163 0.075383 255 220 0
0.156335 0.136383 0.030360 255 220 0
0.173131 0.141775 0.100992 255 220 0
0.178427 0.155631 0.078854 255 220 0
0.142332 0.121956 0.108805 255 220 0
0.149866 0.097876 0.022657 255 220 0
0.108823 0.113223 0.060183 255 220 0
0.118917 0.143053 0.108372 255 220 0
0.146495 0.160214 0.034523 255 220 0
0.099059 0.185119 0.061792 255 220 0
0.167020 0.108783 0.029310 255 220 0
0.161754 0.093497 0.098255 255 220 0
0.153319 0.120572 0.109853 255 220 0
0.166943 0.097527 0.100282 255 220 0
0.143621 0.057676 0.022794 255 220 0
0.115124 0.140115 0.104578 255 220 0
0.146259 0.185985 0.054918 255 220 0
0.137087 0.201259 0.074978 255 220 0
0.116111 0.198089 0.099746 255 220 0
0.109325 0.135093 0.094617 255 220 0
0.174293 0.092294 0.095808 255 220 0
0.099102 0.165984 0.048630 255 220 0
0.178118 0.065137 0.075017 255 220 0
0.142949 0.056456 0.023231 255 220 0
0.150894 0.070720 0.078661 255 220 0
0.093720 0.177325 0.076084 255 220 0
0.140157 0.115766 0.023454 255 220 0
0.094582 0.173332 0.085276 255 220 0
0.169980 0.040903 0.051831 255 220 0
0.167777 0.138606 0.106272 255 220 0
0.157373 0.078231 0.021923 255 220 0
0.166349 0.174839 0.083907 255 220 0
0.162442 0.146900 0.036735 255 220 0
0.135650 0.053032 0.039820 255 220 0
0.144042 0.178261 0.044917 255 220 0
0.174457 0.163167 0.080340 255 220 0
0.163234 0.175444 0.090796 255 220 0
0.093689 0.177000 0.076761 255 220 0
0.190497 0.107236 0.064683 255 220 0
0.151863 0.178891 0.050930 255 220 0
0.151882 0.129162 0.112233 255 220 0
0.119274 0.183864 0.046561 255 220 0
0.179523 0.063087 0.035624 255 220 0
0.143211 0.167383 0.036942 255 220 0
0.185846 0.062389 0.054373 255 220 0
0.147757 0.092492 0.094731 255 220 0
0.154075 0.080646 0.021711 255 220 0
0.125619 0.098326 0.080483 255 220 0
0.188631 0.091244 0.076038 255 220 0
0.183297 0.131846 0.053505 255 220 0
0.105531 0.135501 0.089059 255 220 0
0.166793 0.166329 0.052899 255 220 0
0.167270 0.165630 0.095226 255 220 0
0.181531 0.139772 0.054975 255 220 0
0.104740 0.134009 0.086120 255 220 0
0.184500 0.072681 0.074770 255 220 0
0.163612 0.102950 0.026726 255 220 0
0.101164 0.136369 0.080638 255 220 0
0.170545 0.086337 0.027713 255 220 0
0.173560 0.130914 0.039272 255 220 0
0.127420 0.078913 0.037899 255 220 0
0.188417 0.099960 0.079906 255 220 0
0.115681 0.201441 0.095116 255 220 0
0.178731 0.086304 0.090162 255 220 0
0.166240 0.054903 0.069022 255 220 0
0.130122 0.101154 0.089398 255 220 0
0.156383 0.136204 0.112256 255 220 0
0.151479 0.152766 0.033373 255 220 0
0.137477 0.200188 0.071878 255 220 0
0.189379 0.078506 0.059177 255 220 0
0.115611 0.157425 0.033192 255 220 0
0.167363 0.051412 0.065665 255 220 0
0.103858 0.124925 0.069317 255 220 0
0.133901 0.084888 0.076139 255 220 0
0.134289 0.068088 0.029911 255 220 0
0.116215 0.122937 0.030282 255 220 0
0.156680 0.132209 0.029485 255 220 0
0.100802 0.141589 0.085958 255 220 0
0.167622 0.175056 0.074941 255 220 0
0.161066 0.167768 0.101520 255 220 0
0.130443 0.198818 0.099368 255 220 0
0.179521 0.137115 0.049166 255 220 0
0.185858 0.133024 0.075251 255 220 0
0.113335 0.161280 0.110447 255 220 0
0.181731 0.132112 0.091284 255 220 0
0.140065 0.155344 0.115126 255 220 0
0.119071 0.203933 0.091848 255 220 0
0.151755 0.178863 0.102822 255 220 0
0.149145 0.057584 0.065033 255 220 0
0.100038 0.192776 0.078859 255 220 0
0.158244 0.112111 0.106966 255 220 0
0.101908 0.155602 0.042006 255 220 0
0.096081 0.164252 0.053562 255 220 0
0.137150 0.120880 0.023638 255 220 0
0.178216 0.156899 0.070942 255 220 0
0.178678 0.102137 0.097336 255 220 0
0.155736 0.094306 0.023110 255 220 0
0.165555 0.143069 0.037291 255 220 0
0.154882 0.188800 0.071671 255 220 0
0.138461 0.101890 0.096498 255 220 0
0.139562 0.145114 0.027677 255 220 0
0.129463 0.198097 0.100540 255 220 0
0.143971 0.194326 0.065965 255 220 0
0.145088 0.153285 0.031406 255 220 0
0.164116 0.063064 0.023013 255 220 0
0.179827 0.121050 0.097458 255 220 0
0.100396 0.133100 0.072019 255 220 0
0.166793 0.062060 0.075313 255 220 0
0.104940 0.138793 0.091152 255 220 0
0.139570 0.045355 0.030973 255 220 0
0.156608 0.064678 0.076077 255 220 0
0.136072 0.075987 0.069253 255 220 0
0.142144 0.183882 0.049575 255 220 0
0.099656 0.191084 0.072753 255 220 0
0.141707 0.053793 0.024337 255 220 0
0.148584 0.140735 0.028726 255 220 0
0.173857 0.077638 0.086623 255 220 0
0.143298 0.050005 0.052840 255 220 0
0.125707 0.123782 0.025465 255 220 0
0.153150 0.125031 0.026789 255 220 0
0.128814 0.175442 0.113884 255 220 0
0.165970 0.169220 0.054895 255 220 0
0.111947 0.174941 0.042503 255 220 0
0.163746 0.168323 0.050906 255 220 0
0.140448 0.192061 0.058813 255 220 0
0.116304 0.115526 0.085774 255 220 0
0.096242 0.143137 0.059718 255 220 0
0.102602 0.125832 0.062094 255 220 0
0.138345 0.068115 0.063877 255 220 0
0.134457 0.132337 0.110791 255 220 0
0.161838 0.155311 0.040162 255 220 0
0.187486 0.102111 0.048896 255 220 0
0.141313 0.063451 0.062772 255 220 0
0.093626 0.152878 0.070563 255 220 0
0.138370 0.172394 0.112901 255 220 0
0.092581 0.161829 0.068978 255 220 0
0.155730 0.133060 0.029310 255 220 0
0.119068 0.139458 0.106907 255 220 0
0.104320 0.198065 0.079536 255 220 0
0.177762 0.062173 0.072674 255 220 0
0.148627 0.099966 0.022733 255 220 0
0.100885 0.130134 0.065656 255 220 0
0.160251 0.158542 0.040749 255 220 0
0.112721 0.106448 0.061547 255 220 0
0.174695 0.112534 0.035062 255 220 0
0.188241 0.123229 0.067631 255 220 0
0.160749 0.085870 0.093507 255 220 0
0.159972 0.181656 0.087196 255 220 0
0.130035 0.186613 0.109656 255 220 0
0.181616 0.134624 0.090430 255 220 0
0.103019 0.124857 0.061350 255 220 0
0.178571 0.153262 0.062247 255 220 0
0.151439 0.135103 0.028268 255 220 0
0.104705 0.162987 0.104079 255 220 0
0.151783 0.111134 0.105900 255 220 0
0.150386 0.054128 0.062988 255 220 0
0.179109 0.155003 0.071389 255 220 0
0.093123 0.165801 0.079177 255 220 0
0.175831 0.081967 0.030947 255 220 0
0.100444 0.132067 0.053939 255 220 0
0.162526 0.064759 0.077490 255 220 0
0.096805 0.176915 0.090696 255 220 0
0.175088 0.085469 0.030705 255 220 0
0.136969 0.078200 0.072653 255 220 0
0.111121 0.140886 0.032941 255 220 0
0.111958 0.200191 0.068952 255 220 0
0.188100 0.121009 0.060682 255 220 0
0.133158 0.147519 0.027635 255 220 0
0.180971 0.095383 0.037646 255 220 0
0.154633 0.140776 0.030836 255 220 0
0.160327 0.050353 0.022619 255 220 0
0.155063 0.180085 0.098225 255 220 0
0.114958 0.159181 0.033960 255 220 0
0.116411 0.130043 0.099528 255 220 0
0.105538 0.119296 0.057367 255 220 0
0.104913 0.185462 0.054010 255 220 0
0.169412 0.172207 0.071340 255 220 0
0.099582 0.153215 0.093435 255 220 0
0.120614 0.125039 0.027446 255 220 0
0.171475 0.150598 0.046361 255 220 0
0.141290 0.195832 0.065966 255 220 0
0.159693 0.096881 0.099986 255 220 0
0.108817 0.184887 0.104091 255 220 0
0.171652 0.167115 0.082970 255 220 0
0.173188 0.061694 0.074091 255 220 0
0.100263 0.184672 0.093678 255 220 0
0.162527 0.173307 0.094792 255 220 0
0.138083 0.130721 0.111280 255 220 0
0.161303 0.127921 0.109875 255 220 0
0.141468 0.048445 0.049374 255 220 0
0.122618 0.161473 0.114493 255 220 0
0.125227 0.153222 0.029628 255 220 0
0.134249 0.077170 0.068107 255 220 0
0.146986 0.110343 0.104470 255 220 0
0.119274 0.150758 0.111197 255 220 0
0.188059 0.072681 0.063731 255 220 0
0.142509 0.098776 0.022964 255 220 0
0.166970 0.090482 0.026372 255 220 0
0.143183 0.123225 0.109579 255 220 0
0.137216 0.097737 0.024222 255 220 0
0.177662 0.092150 0.033755 255 220 0
0.107005 0.127733 0.039101 255 220 0
0.175973 0.098721 0.033314 255 220 0
0.131276 0.179342 0.112546 255 220 0
0.161760 0.038722 0.051572 255 220 0
0.135624 0.155993 0.115375 255 220 0
0.161956 0.140283 0.034084 255 220 0
0.189190 0.077413 0.057120 255 220 0
0.178679 0.136336 0.095356 255 220 0
0.142482 0.056838 0.057714 255 220 0
0.186019 0.082898 0.043991 255 220 0
0.098804 0.134777 0.061456 255 220 0
0.147065 0.036332 0.041014 255 220 0
0.187922 0.077506 0.069431 255 220 0
0.120311 0.181704 0.044798 255 220 0
0.181571 0.141425 0.086508 255 220 0
0.117347 0.096590 0.048671 255 220 0
0.159259 0.068227 0.079905 255 220 0
0.125927 0.117532 0.098958 255 220 0
0.171697 0.063469 0.075972 255 220 0
0.187844 0.083015 0.073969 255 220 0
0.177621 0.139901 0.047827 255 220 0
0.093192 0.171509 0.078715 255 220 0
0.170034 0.086723 0.093773 255 220 0
0.108312 0.120941 0.040611 255 220 0
0.136355 0.058309 0.029396 255 220 0
0.105002 0.145075 0.096644 255 220 0
0.157017 0.138620 0.031224 255 220 0
0.154864 0.149730 0.112378 255 220 0
0.145209 0.073319 0.076635 255 220 0
0.144962 0.081109 0.022346 255 220 0
0.149813 0.146343 0.114202 255 220 0
0.138375 0.111221 0.023488 255 220 0
0.138722 0.048475 0.044608 255 220 0
0.190490 0.095232 0.067168 255 220 0
0.138287 0.175220 0.040642 255 220 0
0.154091 0.084217 0.091231 255 220 0
0.095789 0.155587 0.053316 255 220 0
0.153907 0.166781 0.041556 255 220 0
0.101913 0.127296 0.057804 255 220 0
0.159863 0.180300 0.090024 255 220 0
0.156926 0.124604 0.110631 255 220 0
0.109937 0.182951 0.048649 255 220 0
0.188190 0.117556 0.077440 255 220 0
0.187452 0.126345 0.065069 255 220 0
0.104278 0.168411 0.104009 255 220 0
0.179390 0.053172 0.062446 255 220 0
0.092711 0.159838 0.071188 255 220 0
0.172874 0.093109 0.030090 255 220 0
0.141060 0.077998 0.023658 255 220 0
0.166350 0.140513 0.036880 255 220 0
0.121481 0.088727 0.048551 255 220 0
0.175791 0.067464 0.030478 255 220 0
0.129721 0.200794 0.066727 255 220 0
0.105425 0.170987 0.105006 255 220 0
0.144222 0.171345 0.039614 255 220 0
0.129392 0.202002 0.068999 255 220 0
0.183737 0.134329 0.056599 255 220 0
0.098876 0.136327 0.071325 255 220 0
0.166769 0.145386 0.106144 255 220 0
0.168807 0.075186 0.025571 255 220 0
0.189345 0.085815 0.069224 255 220 0
0.175787 0.072786 0.030320 255 220 0
0.154110 0.164847 0.040429 255 220 0
0.131833 0.098744 0.088853 255 220 0
0.162256 0.119900 0.029254 255 220 0
0.136255 0.081854 0.075697 255 220 0
0.184500 0.067310 0.043642 255 220 0
0.164221 0.157728 0.104221 255 220 0
0.188789 0.104754 0.078814 255 220 0
0.146027 0.194257 0.090936 255 220 0
0.123835 0.086134 0.040649 255 220 0
0.171594 0.123741 0.035438 255 220 0
0.108696 0.135913 0.035058 255 220 0
0.177710 0.155440 0.083083 255 220 0
0.171756 0.068902 0.080432 255 220 0
0.112532 0.135714 0.099512 255 220 0
0.093976 0.157618 0.059272 255 220 0
0.146632 0.160573 0.113090 255 220 0
0.131598 0.077319 0.031101 255 220 0
0.148777 0.035682 0.041273 255 220 0
0.125631 0.109554 0.092494 255 220 0
0.125948 0.083212 0.059002 255 220 0
0.154002 0.172815 0.104813 255 220 0
0.122763 0.112278 0.091719 255 220 0
0.189763 0.113944 0.063898 255 220 0
0.120967 0.162128 0.114058 255 220 0
0.146957 0.095553 0.022479 255 220 0
0.145862 0.053071 0.058088 255 220 0
0.100302 0.186949 0.061709 255 220 0
0.113150 0.117762 0.083204 255 220 0
0.153201 0.041822 0.054372 255 220 0
0.115089 0.104630 0.067766 255 220 0
0.148571 0.184856 0.101042 255 220 0
0.171180 0.042927 0.054559 255 220 0
0.127705 0.196913 0.059924 255 220 0
0.139586 0.063923 0.025094 255 220 0
0.180793 0.149048 0.080433 255 220 0
0.111540 0.167213 0.109843 255 220 0
0.103385 0.184153 0.054340 255 220 0
0.126325 0.079970 0.052741 255 220 0
0.132574 0.110312 0.024583 255 220 0
0.148932 0.193536 0.085263 255 220 0
0.157713 0.041101 0.025680 255 220 0
0.176976 0.096440 0.096455 255 220 0
0.117443 0.187493 0.049769 255 220 0
0.093406 0.175488 0.071331 255 220 0
0.144200 0.157861 0.032835 255 220 0
0.131589 0.203006 0.072991 255 220 0
0.105439 0.199134 0.084520 255 220 0
0.166122 0.117864 0.030687 255 220 0
0.128051 0.085255 0.067927 255 220 0
0.115253 0.122081 0.091043 255 220 0
0.124329 0.085718 0.039610 255 220 0
0.117890 0.134792 0.028677 255 220 0
0.159197 0.184044 0.083324 255 220 0
0.160812 0.164494 0.103801 255 220 0
0.120995 0.090417 0.055079 255 220 0
0.114349 0.190208 0.052991 255 220 0
0.122563 0.107548 0.086478 255 220 0
0.131769 0.064941 0.036974 255 220 0
0.177362 0.045612 0.051326 255 220 0
0.130702 0.069405 0.049137 255 220 0
0.142626 0.047190 0.025414 255 220 0
0.117339 0.113650 0.031680 255 220 0
0.139342 0.171995 0.038674 255 220 0
0.121645 0.194710 0.104250 255 220 0
0.163076 0.179506 0.083028 255 220 0
0.141451 0.050125 0.025357 255 220 0
0.099643 0.133454 0.056281 255 220 0
0.104121 0.122974 0.063898 255 220 0
0.184402 0.117182 0.089965 255 220 0
0.128373 0.074296 0.039863 255 220 0
0.137713 0.188514 0.106146 255 220 0
0.179962 0.090313 0.035830 255 220 0
0.185170 0.113133 0.088981 255 220 0
0.184904 0.107414 0.045533 255 220 0
0.155647 0.059768 0.020828 255 220 0
0.128005 0.081376 0.034897 255 220 0
0.119137 0.099175 0.069629 255 220 0
0.109867 0.119273 0.038726 255 220 0
0.105219 0.188462 0.098583 255 220 0
0.179671 0.051560 0.044169 255 220 0
0.140108 0.063460 0.061297 255 220 0
0.164928 0.125352 0.108325 255 220 0
0.181935 0.054077 0.048744 255 220 0
0.092649 0.166438 0.075226 255 220 0
0.115661 0.099609 0.051216 255 220 0
0.097948 0.180838 0.091390 255 220 0
0.176634 0.154730 0.058362 255 220 0
0.150394 0.183939 0.099960 255 220 0
0.100616 0.193698 0.080908 255 220 0
0.144227 0.171939 0.040010 255 220 0
0.117193 0.119693 0.091513 255 220 0
0.113412 0.156538 0.033821 255 220 0
0.162019 0.177760 0.089691 255 220 0
0.101077 0.193874 0.084677 255 220 0
0.126683 0.166351 0.034670 255 220 0
0.127401 0.078248 0.038621 255 220 0
0.116750 0.202960 0.071151 255 220 0
0.160399 0.084806 0.023197 255 220 0
0.181464 0.052068 0.051482 255 220 0
0.097765 0.154541 0.090329 255 220 0
0.173776 0.042789 0.041160 255 220 0
0.112395 0.181879 0.107856 255 220 0
0.170254 0.093051 0.097413 255 220 0
0.104689 0.150907 0.038626 255 220 0
0.135105 0.202604 0.076817 255 220 0
0.179678 0.124523 0.097060 255 220 0
0.140889 0.087859 0.023424 255 220 0
0.138436 0.052511 0.047921 255 220 0
0.165578 0.175166 0.085624 255 220 0
0.177306 0.123638 0.040569 255 220 0
0.131266 0.169212 0.036151 255 220 0
0.190028 0.084368 0.061649 255 220 0
0.177927 0.125997 0.042114 255 220 0
0.126263 0.082407 0.058414 255 220 0
0.147325 0.160600 0.112870 255 220 0
0.170307 0.109245 0.031249 255 220 0
0.145484 0.150885 0.114707 255 220 0
0.173210 0.158185 0.091889 255 220 0
0.177694 0.157836 0.076287 255 220 0
0.115966 0.113395 0.082902 255 220 0
0.098340 0.184411 0.089801 255 220 0
0.145353 0.183043 0.105179 255 220 0
0.184649 0.110597 0.046075 255 220 0
0.187562 0.119366 0.056753 255 220 0
0.147840 0.036147 0.033794 255 220 0
0.162458 0.087448 0.094662 255 220 0
0.109123 0.162179 0.107783 255 220 0
0.100665 0.138201 0.046714 255 220 0
0.152645 0.109276 0.024236 255 220 0
0.140481 0.050060 0.049245 255 220 0
0.183903 0.140930 0.066988 255 220 0
0.157893 0.124092 0.028266 255 220 0
0.137555 0.059630 0.053468 255 220 0
0.185941 0.100454 0.087116 255 220 0
0.099208 0.136267 0.073091 255 220 0
0.111683 0.192668 0.056698 255 220 0
0.186854 0.101388 0.085029 255 220 0
0.135506 0.202938 0.083038 255 220 0
0.185410 0.130817 0.059232 255 220 0
0.121942 0.204961 0.089987 255 220 0
0.175673 0.106220 0.100612 255 220 0
0.180137 0.059798 0.037870 255 220 0
0.120058 0.107584 0.031476 255 220 0
0.105069 0.175848 0.103900 255 220 0
0.156042 0.069903 0.021207 255 220 0
0.133647 0.104783 0.024816 255 220 0
0.110121 0.150207 0.105243 255 220 0
0.120253 0.093484 0.041142 255 220 0
0.104584 0.197145 0.074314 255 220 0
0.126312 0.189345 0.051063 255 220 0
0.135358 0.088591 0.082079 255 220 0
0.187368 0.121361 0.079007 255 220 0
0.160793 0.149277 0.036673 255 220 0
0.156310 0.079423 0.088280 255 220 0
0.190665 0.094320 0.064313 255 220 0
0.109056 0.113630 0.047246 255 220 0
0.131270 0.132954 0.024809 255 220 0
0.132356 0.192309 0.105352 255 220 0
0.181461 0.148961 0.069439 255 220 0
0.162869 0.091230 0.024752 255 220 0
0.149023 0.044024 0.023442 255 220 0
0.146527 0.075945 0.080387 255 220 0
0.142717 0.053229 0.054772 255 220 0
0.115645 0.187436 0.050107 255 220 0
0.150502 0.192427 0.072482 255 220 0
0.143903 0.188910 0.101661 255 220 0
0.133472 0.158882 0.031393 255 220 0
0.104518 0.138665 0.039476 255 220 0
0.189698 0.081052 0.059066 255 220 0
0.126338 0.078810 0.048596 255 220 0
0.183826 0.132141 0.055105 255 220 0
0.184985 0.105163 0.045065 255 220 0
0.183265 0.056173 0.051117 255 220 0
0.160749 0.181424 0.065412 255 220 0
0.173398 0.115191 0.103627 255 220 0
0.144911 0.156776 0.114215 255 220 0
0.096462 0.147535 0.053794 255 220 0
0.165473 0.173549 0.088933 255 220 0
0.162398 0.109769 0.027385 255 220 0
0.101263 0.174049 0.049694 255 220 0
0.156585 0.038310 0.051043 255 220 0
0.112646 0.178101 0.044167 255 220 0
0.168158 0.173907 0.078368 255 220 0
0.154073 0.047593 0.060020 255 220 0
0.140205 0.191697 0.058108 255 220 0
0.141516 0.158560 0.032437 255 220 0
0.108800 0.170538 0.041555 255 220 0
0.162026 0.155980 0.106795 255 220 0
0.183133 0.140486 0.061018 255 220 0
0.161279 0.182853 0.077901 255 220 0
0.145622 0.038717 0.030257 255 220 0
0.163751 0.135242 0.108974 255 220 0
0.166546 0.156717 0.044962 255 220 0
0.154653 0.144274 0.112982 255 220 0
0.149243 0.190139 0.064438 255 220 0
0.156786 0.163205 0.107555 255 220 0
0.189216 0.078041 0.061743 255 220 0
0.100964 0.169995 0.100011 255 220 0
0.102239 0.154576 0.098609 255 220 0
0.150961 0.125855 0.111456 255 220 0
0.114479 0.109911 0.037119 255 220 0
0.119325 0.175631 0.040804 255 220 0
0.160182 0.157684 0.040238 255 220 0
0.158671 0.149498 0.035551 255 220 0
0.187523 0.110695 0.082733 255 220 0
0.174922 0.077532 0.029792 255 220 0
0.160871 0.083783 0.023228 255 220 0
0.169183 0.129043 0.035171 255 220 0
0.109464 0.112181 0.060937 255 220 0
0.129961 0.132439 0.109192 255 220 0
0.122276 0.114835 0.093548 255 220 0
0.168030 0.063434 0.076442 255 220 0
0.115560 0.123644 0.093068 255 220 0
0.110288 0.146380 0.033843 255 220 0
0.190120 0.103418 0.071805 255 220 0
0.169690 0.081682 0.026645 255 220 0
0.130526 0.203492 0.091148 255 220 0
0.126876 0.115470 0.098248 255 220 0
0.118899 0.149032 0.030014 255 220 0
0.151752 0.087270 0.022008 255 220 0
0.190075 0.103401 0.072151 255 220 0
0.118944 0.094527 0.057218 255 220 0
0.162193 0.101028 0.102253 255 220 0
0.162973 0.046972 0.024752 255 220 0
0.117927 0.178191 0.111590 255 220 0
0.180071 0.139316 0.091533 255 220 0
0.147666 0.152667 0.114141 255 220 0
0.132125 0.133084 0.024766 255 220 0
0.111814 0.164425 0.037090 255 220 0
0.176597 0.058559 0.032854 255 220 0
0.168568 0.039901 0.050910 255 220 0
0.162218 0.039684 0.029590 255 220 0
0.181689 0.148533 0.071810 255 220 0
0.160238 0.175498 0.054944 255 220 0
0.102057 0.166658 0.101479 255 220 0
0.167265 0.172585 0.062734 255 220 0
0.161831 0.042290 0.026660 255 220 0
0.118418 0.147114 0.109627 255 220 0
0.102550 0.125836 0.057336 255 220 0
0.172398 0.106948 0.032157 255 220 0
0.138074 0.056231 0.027477 255 220 0
0.157098 0.186653 0.070760 255 220 0
0.136350 0.128811 0.110012 255 220 0
0.155894 0.048339 0.021779 255 220 0
0.141333 0.040530 0.036462 255 220 0
0.170510 0.052956 0.066681 255 220 0
0.144055 0.044904 0.049755 255 220 0
0.154634 0.178163 0.052548 255 220 0
0.182347 0.073575 0.038108 255 220 0
0.184286 0.128580 0.053781 255 220 0
0.143522 0.047792 0.024461 255 220 0
0.143066 0.077954 0.022884 255 220 0
0.104754 0.176218 0.103486 255 220 0
0.159882 0.181795 0.087132 255 220 0
0.154518 0.102605 0.023802 255 220 0
0.190090 0.108894 0.060600 255 220 0
0.103927 0.132226 0.042556 255 220 0
0.162059 0.152419 0.107948 255 220 0
0.128241 0.084108 0.066683 255 220 0
0.160136 0.147166 0.035469 255 220 0
0.116006 0.169994 0.038241 255 220 0
0.124632 0.204356 0.091677 255 220 0
0.183266 0.099901 0.041352 255 220 0
0.118433 0.203528 0.092472 255 220 0
0.102695 0.154900 0.099385 255 220 0
0.165779 0.117417 0.030418 255 220 0
0.096472 0.143014 0.058139 255 220 0
0.125396 0.205797 0.078014 255 220 0
0.190097 0.111538 0.065774 255 220 0
0.166750 0.099970 0.101482 255 220 0
0.152554 0.136697 0.113316 255 220 0
0.094225 0.152118 0.060827 255 220 0
0.134462 0.072388 0.028836 255 220 0
0.104510 0.130706 0.081797 255 220 0
0.126499 0.079200 0.040903 255 220 0
0.155427 0.123644 0.027281 255 220 0
0.124618 0.199125 0.100124 255 220 0
0.092511 0.166934 0.072172 255 220 0
0.126855 0.142640 0.026803 255 220 0
0.105631 0.178481 0.048281 255 220 0
0.116107 0.098834 0.052871 255 220 0
0.157270 0.177598 0.097836 255 220 0
0.141827 0.079764 0.023296 255 220 0
0.160650 0.179447 0.061348 255 220 0
0.177349 0.146514 0.051704 255 220 0
0.135699 0.119625 0.023672 255 220 0
0.155765 0.131228 0.111922 255 220 0
0.147322 0.092015 0.094234 255 220 0
0.133771 0.082585 0.027677 255 220 0
0.095879 0.178507 0.062072 255 220 0
0.147749 0.048528 0.056204 255 220 0
0.144967 0.070535 0.022228 255 220 0
0.146413 0.069146 0.073621 255 220 0
0.144299 0.095686 0.095349 255 220 0
0.171468 0.145475 0.101775 255 220 0
0.145333 0.132914 0.113187 255 220 0
0.149157 0.112911 0.106218 255 220 0
0.107361 0.193642 0.061425 255 220 0
0.187223 0.122983 0.078527 255 220 0
0.150757 0.116632 0.108154 255 220 0
0.159889 0.039186 0.028673 255 220 0
0.121782 0.128139 0.102686 255 220 0
0.176074 0.147854 0.050622 255 220 0
0.170952 0.051759 0.065381 255 220 0
0.119379 0.181695 0.111013 255 220 0
0.128036 0.117963 0.100638 255 220 0
0.166471 0.051650 0.025447 255 220 0
0.189445 0.116488 0.066962 255 220 0
0.099849 0.191356 0.072757 255 220 0
0.112377 0.201272 0.092716 255 220 0
0.116538 0.180265 0.044443 255 220 0
0.140643 0.200009 0.080699 255 220 0
0.186431 0.080529 0.044963 255 220 0
0.107996 0.125258 0.082566 255 220 0
0.150212 0.193201 0.079717 255 220 0
0.169735 0.171736 0.077236 255 220 0
0.182787 0.120233 0.046567 255 220 0
0.157921 0.034552 0.038624 255 220 0
0.101550 0.130295 0.071194 255 220 0
0.187117 0.066697 0.059980 255 220 0
0.129953 0.172186 0.037869 255 220 0
0.116448 0.105895 0.074001 255 220 0
0.174314 0.160132 0.060153 255 220 0
0.190192 0.109188 0.068892 255 220 0
0.129550 0.129247 0.024683 255 220 0
0.121090 0.120596 0.097137 255 220 0
0.152543 0.103294 0.102254 255 220 0
0.165864 0.053676 0.067912 255 220 0
0.184040 0.106885 0.091678 255 220 0
0.147953 0.192684 0.067863 255 220 0
0.188691 0.112373 0.077600 255 220 0
0.189356 0.090651 0.072417 255 220 0
0.175390 0.109201 0.101466 255 220 0
0.149288 0.163347 0.037038 255 220 0
0.179594 0.142937 0.053138 255 220 0
0.135422 0.081873 0.026556 255 220 0
0.181678 0.139068 0.054771 255 220 0
0.097638 0.181603 0.060729 255 220 0
0.147510 0.194746 0.073541 255 220 0
0.112627 0.109183 0.041693 255 220 0
0.106797 0.117523 0.062663 255 220 0
0.102535 0.180355 0.099487 255 220 0
0.173977 0.116309 0.035373 255 220 0
0.190341 0.105333 0.059716 255 220 0
0.097832 0.188804 0.081150 255 220 0
0.162556 0.099819 0.101663 255 220 0
0.104317 0.196620 0.088987 255 220 0
0.139371 0.087207 0.085007 255 220 0
0.163088 0.036305 0.045619 255 220 0
0.121439 0.088856 0.050554 255 220 0
0.127444 0.078769 0.037966 255 220 0
0.177621 0.083724 0.089223 255 220 0
0.158024 0.117168 0.027040 255 220 0
0.128221 0.160857 0.032101 255 220 0
0.150349 0.143866 0.030112 255 220 0
0.154288 0.113524 0.107292 255 220 0
0.105500 0.119651 0.060527 255 220 0
0.157521 0.179189 0.095764 255 220 0
0.187917 0.069965 0.057931 255 220 0
0.096409 0.185888 0.076729 255 220 0
0.095037 0.181400 0.070264 255 220 0
0.097412 0.171346 0.093752 255 220 0
0.166886 0.122313 0.032077 255 220 0
0.116845 0.113873 0.084800 255 220 0
0.130227 0.068430 0.043658 255 220 0
0.179771 0.106645 0.038517 255 220 0
0.189739 0.111759 0.060574 255 220 0
0.106995 0.171386 0.043152 255 220 0
0.143201 0.039112 0.033620 255 220 0
0.124035 0.087855 0.062285 255 220 0
0.138011 0.057054 0.051576 255 220 0
0.143287 0.110933 0.023261 255 220 0
0.184270 0.103919 0.090988 255 220 0
0.113271 0.107025 0.042683 255 220 0
0.120635 0.157170 0.113264 255 220 0
0.163298 0.124435 0.108922 255 220 0
0.138263 0.179803 0.044213 255 220 0
0.104509 0.195237 0.091623 255 220 0
0.181710 0.134641 0.090207 255 220 0
0.116387 0.170126 0.112346 255 220 0
0.109743 0.141933 0.100676 255 220 0
0.166961 0.129409 0.033840 255 220 0
0.145421 0.120082 0.108713 255 220 0
0.147163 0.195402 0.082143 255 220 0
0.149376 0.161843 0.036333 255 220 0
0.107567 0.124377 0.080504 255 220 0
0.190104 0.084999 0.061521 255 220 0
0.128840 0.204624 0.075553 255 220 0
0.168050 0.169837 0.088774 255 220 0
0.183163 0.134514 0.055066 255 220 0
0.140614 0.193591 0.099473 255 220 0
0.141336 0.195863 0.066077 255 220 0
0.122667 0.197893 0.060715 255 220 0
0.093256 0.174945 0.072431 255 220 0
0.156118 0.045623 0.022636 255 220 0
0.115210 0.164572 0.035860 255 220 0
0.166694 0.097182 0.027205 255 220 0
0.131695 0.089172 0.078159 255 220 0
0.169996 0.057729 0.071258 255 220 0
0.159451 0.172683 0.099578 255 220 0
0.166261 0.176792 0.076980 255 220 0
0.108461 0.119740 0.075779 255 220 0
0.108020 0.144336 0.100250 255 220 0
0.099450 0.139546 0.049202 255 220 0
0.122869 0.119737 0.026825 255 220 0
0.102226 0.165208 0.101598 255 220 0
0.170094 0.080538 0.026747 255 220 0
0.129503 0.196004 0.059112 255 220 0
0.150462 0.171005 0.108154 255 220 0
0.183632 0.057471 0.060913 255 220 0
0.189531 0.112259 0.072850 255 220 0
0.182407 0.113902 0.094371 255 220 0
0.156152 0.095001 0.023267 255 220 0
0.133279 0.092463 0.083877 255 220 0
0.161648 0.182593 0.076001 255 220 0
0.095695 0.166430 0.089582 255 220 0
0.139088 0.059309 0.025869 255 220 0
0.152823 0.093454 0.022567 255 220 0
0.127706 0.110672 0.026117 255 220 0
0.139795 0.061136 0.058483 255 220 0
0.180783 0.132343 0.048728 255 220 0
0.167081 0.122761 0.032293 255 220 0
0.130471 0.116283 0.101065 255 220 0
0.141724 0.105912 0.100457 255 220 0
0.167863 0.092370 0.097442 255 220 0
0.098301 0.141688 0.078875 255 220 0
0.118512 0.099110 0.038814 255 220 0
0.190517 0.101029 0.068638 255 220 0
0.129084 0.184850 0.047166 255 220 0
0.160423 0.175324 0.095778 255 220 0
0.156047 0.116756 0.026288 255 220 0
0.119628 0.173301 0.113182 255 220 0
0.149878 0.114823 0.107230 255 220 0
0.136562 0.052429 0.032075 255 220 0
0.106475 0.174346 0.105537 255 220 0
0.187140 0.074795 0.047821 255 220 0
0.099601 0.172152 0.050724 255 220 0
0.097063 0.159529 0.091254 255 220 0
0.118820 0.144087 0.108727 255 220 0
0.129082 0.090305 0.075961 255 220 0
0.179451 0.099982 0.096015 255 220 0
0.124229 0.146085 0.111913 255 220 0
0.186869 0.113632 0.084197 255 220 0
0.133181 0.063854 0.048648 255 220 0
0.103453 0.169985 0.103077 255 220 0
0.113396 0.122106 0.088254 255 220 0
0.128450 0.100874 0.027626 255 220 0
0.189521 0.115529 0.068936 255 220 0
0.153276 0.110374 0.105794 255 220 0
0.148533 0.150116 0.114226 255 220 0
0.093744 0.175592 0.067799 255 220 0
0.150779 0.192797 0.078622 255 220 0
0.137515 0.095685 0.091264 255 220 0
0.170842 0.074317 0.026662 255 220 0
0.162740 0.164787 0.046818 255 220 0
0.154520 0.045029 0.058067 255 220 0
0.110591 0.168247 0.109226 255 220 0
0.130541 0.106242 0.025709 255 220 0
0.171405 0.068827 0.026852 255 220 0
0.146832 0.183504 0.052245 255 220 0
0.132616 0.073924 0.030695 255 220 0
0.120725 0.202791 0.094779 255 220 0
0.144782 0.138379 0.027096 255 220 0
0.187492 0.124016 0.076144 255 220 0
0.129191 0.195039 0.057759 255 220 0
0.147557 0.049564 0.022008 255 220 0
0.183478 0.088938 0.040069 255 220 0
0.164454 0.100708 0.026731 255 220 0
0.102409 0.130419 0.047712 255 220 0
0.119078 0.103137 0.075682 255 220 0
0.119011 0.198851 0.099898 255 220 0
0.135519 0.117736 0.104391 255 220 0
0.165923 0.074978 0.024174 255 220 0
0.150647 0.135223 0.113464 255 220 0
0.142241 0.047324 0.025682 255 220 0
0.184515 0.060350 0.049591 255 220 0
0.168573 0.084168 0.092350 255 220 0
0.149034 0.194125 0.077577 255 220 0
0.134107 0.203196 0.077584 255 220 0
0.173294 0.166078 0.076331 255 220 0
0.146182 0.051815 0.022109 255 220 0
0.149790 0.145532 0.114227 255 220 0
0.092835 0.160554 0.074439 255 220 0
0.175819 0.055458 0.067379 255 220 0
0.127171 0.076612 0.046855 255 220 0
0.157230 0.080273 0.022057 255 220 0
0.186584 0.076945 0.073511 255 220 0
0.176910 0.154512 0.087171 255 220 0
0.166995 0.065916 0.024259 255 220 0
0.146055 0.163431 0.035827 255 220 0
0.146655 0.166658 0.111556 255 220 0
0.117669 0.205134 0.077128 255 220 0
0.137809 0.149872 0.028747 255 220 0
0.130174 0.075037 0.057277 255 220 0
0.145307 0.074314 0.022185 255 220 0
0.094448 0.180274 0.073937 255 220 0
0.153281 0.044889 0.057311 255 220 0
0.134216 0.076033 0.066777 255 220 0
0.175067 0.162824 0.070464 255 220 0
0.178005 0.153777 0.061065 255 220 0
0.183308 0.056050 0.059059 255 220 0
0.101097 0.135053 0.047621 255 220 0
0.148903 0.113049 0.106230 255 220 0
0.176391 0.149072 0.093172 255 220 0
0.129141 0.071304 0.042485 255 220 0
0.165088 0.038697 0.050424 255 220 0
0.132410 0.126148 0.107348 255 220 0
0.175649 0.155935 0.057500 255 220 0
0.142381 0.183602 0.049402 255 220 0
0.096582 0.141281 0.067369 255 220 0
0.184556 0.126765 0.053266 255 220 0
0.181669 0.142663 0.085105 255 220 0
0.142980 0.058566 0.023098 255 220 0
0.144709 0.131400 0.112747 255 220 0
0.161099 0.183209 0.074377 255 220 0
0.159277 0.166879 0.045402 255 220 0
0.147026 0.169453 0.039529 255 220 0
0.173974 0.069665 0.080463 255 220 0
0.177187 0.101953 0.034949 255 220 0
0.169258 0.102089 0.101959 255 220 0
0.179279 0.146113 0.089108 255 220 0
0.142726 0.092429 0.092228 255 220 0
0.183380 0.090260 0.040043 255 220 0
0.102677 0.139430 0.087727 255 220 0
0.159262 0.064629 0.076827 255 220 0
0.163147 0.152635 0.107111 255 220 0
0.108836 0.114646 0.046190 255 220 0
0.175824 0.107335 0.034856 255 220 0
0.174209 0.089402 0.030517 255 220 0
0.115388 0.164477 0.111910 255 220 0
0.135864 0.171553 0.037834 255 220 0
0.109761 0.176260 0.044304 255 220 0
