ply
format ascii 1.0
element vertex 1024
property float x
property float y
property float z
property uchar red
property uchar green
property uchar blue
end_header
0.104229 0.195369 0.090167 255 220 0
0.108471 0.108506 0.059401 255 220 0
0.172450 0.069611 0.032789 255 220 0
0.154258 0.097939 0.099065 255 220 0
0.138990 0.176843 0.041712 255 220 0
0.125183 0.121340 0.100111 255 220 0
0.140961 0.165168 0.035402 255 220 0
0.107750 0.110120 0.048789 255 220 0
0.134035 0.161046 0.032915 255 220 0
0.133899 0.060683 0.031474 255 220 0
0.113515 0.145266 0.104385 255 220 0
0.187665 0.110948 0.084099 255 220 0
0.106873 0.134755 0.090385 255 220 0
0.141799 0.155889 0.114472 255 220 0
0.178536 0.087800 0.090349 255 220 0
0.134382 0.048918 0.050834 255 220 0
0.106888 0.182388 0.050108 255 220 0
0.098996 0.184720 0.089866 255 220 0
0.101905 0.122847 0.062063 255 220 0
0.123841 0.082660 0.038395 255 220 0
0.096021 0.161583 0.051414 255 220 0
0.147125 0.190759 0.098673 255 220 0
0.187429 0.117884 0.082432 255 220 0
0.111734 0.194403 0.099842 255 220 0
0.162593 0.048702 0.030291 255 220 0
0.148227 0.125616 0.027358 255 220 0
0.099968 0.191341 0.085151 255 220 0
0.110824 0.203768 0.080235 255 220 0
0.103269 0.130291 0.042085 255 220 0
0.141964 0.197361 0.095440 255 220 0
0.122561 0.178641 0.112176 255 220 0
0.125348 0.117483 0.097735 255 220 0
0.168140 0.073326 0.084744 255 220 0
0.139508 0.056550 0.027773 255 220 0
0.164658 0.110912 0.030508 255 220 0
0.111027 0.113821 0.076750 255 220 0
0.153730 0.164760 0.040019 255 220 0
0.110106 0.190241 0.101317 255 220 0
0.127783 0.112296 0.027268 255 220 0
0.163691 0.103266 0.101820 255 220 0
0.167010 0.139135 0.037369 255 220 0
0.176221 0.159909 0.064591 255 220 0
0.095804 0.165900 0.088134 255 220 0
0.168547 0.158195 0.100376 255 220 0
0.133309 0.193631 0.104924 255 220 0
0.132314 0.074137 0.068508 255 220 0
0.103317 0.122826 0.046495 255 220 0
0.102548 0.149867 0.094731 255 220 0
0.110029 0.203097 0.084565 255 220 0
0.152561 0.192657 0.082653 255 220 0
0.101570 0.123005 0.057803 255 220 0
0.094725 0.177558 0.082474 255 220 0
0.124614 0.086452 0.069324 255 220 0
0.130259 0.059965 0.051911 255 220 0
0.142225 0.055073 0.063661 255 220 0
0.139443 0.042177 0.053302 255 220 0
0.120732 0.201710 0.097583 255 220 0
0.160251 0.052444 0.028128 255 220 0
0.129646 0.066541 0.057035 255 220 0
0.145311 0.090485 0.025030 255 220 0
0.138329 0.203068 0.086531 255 220 0
0.101534 0.123087 0.057354 255 220 0
0.188706 0.104693 0.080182 255 220 0
0.182584 0.124180 0.049458 255 220 0
0.121823 0.087247 0.038913 255 220 0
0.119341 0.132444 0.028959 255 220 0
0.160932 0.069046 0.026583 255 220 0
0.094210 0.150806 0.056531 255 220 0
0.152426 0.190423 0.090822 255 220 0
0.118005 0.195831 0.102461 255 220 0
0.175845 0.127166 0.041372 255 220 0
0.186062 0.132614 0.075454 255 220 0
0.112325 0.157725 0.107846 255 220 0
0.155341 0.184458 0.095097 255 220 0
0.145320 0.049169 0.062227 255 220 0
0.146188 0.102011 0.025287 255 220 0
0.162993 0.171954 0.097253 255 220 0
0.135863 0.068732 0.068020 255 220 0
0.139406 0.122609 0.106913 255 220 0
0.173167 0.091180 0.033362 255 220 0
0.112538 0.122924 0.033400 255 220 0
0.116675 0.091532 0.053636 255 220 0
0.109316 0.191252 0.055967 255 220 0
0.112668 0.168531 0.039432 255 220 0
0.133736 0.049774 0.050226 255 220 0
0.105809 0.121572 0.075046 255 220 0
0.140443 0.120012 0.106099 255 220 0
0.133564 0.159895 0.114987 255 220 0
0.104992 0.120990 0.043675 255 220 0
0.182863 0.068160 0.046720 255 220 0
0.175720 0.161636 0.066498 255 220 0
0.109035 0.114479 0.073086 255 220 0
0.168113 0.173973 0.082923 255 220 0
0.132086 0.201196 0.097155 255 220 0
0.166068 0.056919 0.030094 255 220 0
0.185087 0.132804 0.082489 255 220 0
0.170636 0.102699 0.100529 255 220 0
0.134094 0.187337 0.049345 255 220 0
0.157072 0.186350 0.065003 255 220 0
0.109348 0.150757 0.035503 255 220 0
0.150447 0.055697 0.069475 255 220 0
0.123156 0.101946 0.083153 255 220 0
0.159349 0.157120 0.108638 255 220 0
0.125347 0.147895 0.111585 255 220 0
0.120625 0.190302 0.051504 255 220 0
0.143689 0.124646 0.026504 255 220 0
0.103912 0.183214 0.098694 255 220 0
0.132081 0.061332 0.033423 255 220 0
0.144167 0.191395 0.058601 255 220 0
0.161167 0.047320 0.065989 255 220 0
0.156639 0.153035 0.036130 255 220 0
0.129911 0.124159 0.104272 255 220 0
0.130285 0.075052 0.066542 255 220 0
0.112774 0.183360 0.047923 255 220 0
0.132659 0.178432 0.112844 255 220 0
0.157757 0.152382 0.110638 255 220 0
0.138682 0.197591 0.098253 255 220 0
0.098889 0.178504 0.055198 255 220 0
0.094009 0.173396 0.081836 255 220 0
0.096361 0.157013 0.049655 255 220 0
0.131321 0.161920 0.115019 255 220 0
0.120970 0.117241 0.093284 255 220 0
0.178445 0.152370 0.059924 255 220 0
0.186272 0.084313 0.079087 255 220 0
0.186287 0.097405 0.086359 255 220 0
0.142979 0.124935 0.108635 255 220 0
0.156393 0.158983 0.109682 255 220 0
0.113388 0.115897 0.083169 255 220 0
0.188936 0.115814 0.072417 255 220 0
0.134404 0.193310 0.104861 255 220 0
0.176097 0.050727 0.063066 255 220 0
0.178354 0.134869 0.097054 255 220 0
0.147450 0.174030 0.043027 255 220 0
0.187935 0.094494 0.053047 255 220 0
0.187264 0.124115 0.063326 255 220 0
0.146194 0.174268 0.109718 255 220 0
0.121916 0.125560 0.100202 255 220 0
0.121357 0.146035 0.029807 255 220 0
0.129756 0.206282 0.087441 255 220 0
0.154480 0.089736 0.094841 255 220 0
0.177013 0.155509 0.087534 255 220 0
0.133942 0.087547 0.027952 255 220 0
0.092570 0.157609 0.063129 255 220 0
0.133628 0.185423 0.047517 255 220 0
0.183694 0.137541 0.061095 255 220 0
0.171443 0.086167 0.031923 255 220 0
0.126774 0.142524 0.110486 255 220 0
0.141012 0.193758 0.059490 255 220 0
0.162713 0.130643 0.032706 255 220 0
0.124290 0.144425 0.110177 255 220 0
0.175951 0.079467 0.035378 255 220 0
0.100126 0.139243 0.082369 255 220 0
0.138766 0.116065 0.103880 255 220 0
0.114850 0.103401 0.071336 255 220 0
0.169706 0.075594 0.086000 255 220 0
0.121772 0.087855 0.038588 255 220 0
0.149715 0.109858 0.026140 255 220 0
0.148641 0.079269 0.085975 255 220 0
0.151130 0.109156 0.103625 255 220 0
0.173274 0.161570 0.089760 255 220 0
0.138216 0.193295 0.103275 255 220 0
0.116536 0.205489 0.074718 255 220 0
0.166756 0.168135 0.095303 255 220 0
0.101173 0.168877 0.098606 255 220 0
0.154272 0.046670 0.027524 255 220 0
0.110032 0.203314 0.081983 255 220 0
0.173749 0.051668 0.039774 255 220 0
0.174174 0.064497 0.035064 255 220 0
0.146243 0.042428 0.058584 255 220 0
0.149580 0.038260 0.031243 255 220 0
0.106039 0.114481 0.047939 255 220 0
0.112673 0.197286 0.061454 255 220 0
0.106325 0.112319 0.057098 255 220 0
0.101362 0.168841 0.046805 255 220 0
0.114387 0.096926 0.046587 255 220 0
0.146289 0.033198 0.043568 255 220 0
0.131810 0.156139 0.114596 255 220 0
0.185365 0.133290 0.080483 255 220 0
0.126566 0.205720 0.090826 255 220 0
0.116018 0.190367 0.052377 255 220 0
0.182094 0.148192 0.072261 255 220 0
0.137081 0.188414 0.107417 255 220 0
0.172162 0.068236 0.032689 255 220 0
0.163591 0.075284 0.027508 255 220 0
0.100889 0.137368 0.082255 255 220 0
0.173538 0.166884 0.075027 255 220 0
0.151488 0.041670 0.060428 255 220 0
0.179503 0.072023 0.079309 255 220 0
0.149884 0.062102 0.073787 255 220 0
0.135704 0.049784 0.031768 255 220 0
0.153673 0.167852 0.108048 255 220 0
0.101683 0.128504 0.073356 255 220 0
0.152566 0.073934 0.024972 255 220 0
0.182552 0.094856 0.090734 255 220 0
0.107862 0.125225 0.083609 255 220 0
0.169789 0.116018 0.033945 255 220 0
0.151832 0.073662 0.083384 255 220 0
0.180870 0.132434 0.050068 255 220 0
0.141875 0.171177 0.038776 255 220 0
0.138032 0.194737 0.102000 255 220 0
0.129052 0.099357 0.028725 255 220 0
0.123268 0.127512 0.027564 255 220 0
0.179483 0.113194 0.041775 255 220 0
0.177555 0.083122 0.036848 255 220 0
0.101004 0.132639 0.077193 255 220 0
0.104205 0.192537 0.062668 255 220 0
0.107872 0.168750 0.105996 255 220 0
0.117641 0.148638 0.031355 255 220 0
0.180386 0.130187 0.095640 255 220 0
0.179478 0.155167 0.073569 255 220 0
0.111297 0.143423 0.033520 255 220 0
0.146758 0.197518 0.084143 255 220 0
0.155203 0.163005 0.039832 255 220 0
0.100384 0.189565 0.088836 255 220 0
0.126273 0.153277 0.030662 255 220 0
0.111339 0.186492 0.050744 255 220 0
0.154040 0.134184 0.030056 255 220 0
0.137537 0.089916 0.086659 255 220 0
0.166656 0.107122 0.103009 255 220 0
0.142072 0.109122 0.025406 255 220 0
0.154508 0.166085 0.108261 255 220 0
0.134864 0.046880 0.050120 255 220 0
0.185512 0.067063 0.057318 255 220 0
0.167451 0.169852 0.092124 255 220 0
0.157161 0.065399 0.079087 255 220 0
0.118179 0.201786 0.096640 255 220 0
0.140160 0.084541 0.025917 255 220 0
0.179947 0.075010 0.081112 255 220 0
0.173291 0.162968 0.060701 255 220 0
0.113190 0.203982 0.074390 255 220 0
0.150490 0.133938 0.029028 255 220 0
0.176635 0.144578 0.096134 255 220 0
0.178773 0.156727 0.072512 255 220 0
0.147342 0.125455 0.109501 255 220 0
0.143362 0.094974 0.025161 255 220 0
0.107642 0.113164 0.066652 255 220 0
0.123908 0.146503 0.110672 255 220 0
0.141103 0.158032 0.032698 255 220 0
0.097583 0.184995 0.064210 255 220 0
0.161166 0.106319 0.028598 255 220 0
0.165397 0.096251 0.098566 255 220 0
0.158381 0.124134 0.109151 255 220 0
0.170779 0.100413 0.099566 255 220 0
0.137529 0.054909 0.029136 255 220 0
0.119662 0.143295 0.107657 255 220 0
0.143412 0.185259 0.050961 255 220 0
0.136908 0.202010 0.070883 255 220 0
0.119501 0.200742 0.098432 255 220 0
0.112611 0.137551 0.098975 255 220 0
0.177500 0.094845 0.094540 255 220 0
0.096007 0.164928 0.052624 255 220 0
0.178706 0.066201 0.075503 255 220 0
0.136933 0.053726 0.029750 255 220 0
0.152179 0.072089 0.082375 255 220 0
0.094291 0.178304 0.079633 255 220 0
0.133700 0.112891 0.025931 255 220 0
0.096421 0.175009 0.088895 255 220 0
0.167711 0.040312 0.055504 255 220 0
0.172071 0.141823 0.102312 255 220 0
0.150865 0.075316 0.024882 255 220 0
0.167329 0.176281 0.077710 255 220 0
0.157314 0.144893 0.033715 255 220 0
0.131973 0.051568 0.047383 255 220 0
0.139927 0.176811 0.041955 255 220 0
0.174978 0.164360 0.073956 255 220 0
0.165169 0.177406 0.084892 255 220 0
0.094354 0.178030 0.080330 255 220 0
0.189221 0.107384 0.060481 255 220 0
0.148484 0.177877 0.046789 255 220 0
0.157208 0.132881 0.111058 255 220 0
0.115563 0.182566 0.046516 255 220 0
0.174790 0.061202 0.036546 255 220 0
0.138117 0.165369 0.034998 255 220 0
0.183595 0.061899 0.054265 255 220 0
0.151061 0.095010 0.097055 255 220 0
0.147548 0.077714 0.024940 255 220 0
0.127153 0.099800 0.085543 255 220 0
0.189042 0.092291 0.073143 255 220 0
0.180371 0.131100 0.048580 255 220 0
0.108098 0.137549 0.093968 255 220 0
0.163648 0.165470 0.047648 255 220 0
0.169849 0.167945 0.089453 255 220 0
0.178754 0.139117 0.049681 255 220 0
0.106929 0.135842 0.091282 255 220 0
0.184933 0.073693 0.073834 255 220 0
0.157489 0.100314 0.026941 255 220 0
0.102626 0.137791 0.086175 255 220 0
0.164631 0.083810 0.028215 255 220 0
0.168807 0.129122 0.035907 255 220 0
0.123342 0.077247 0.044673 255 220 0
0.189280 0.101273 0.076345 255 220 0
0.118421 0.203739 0.093666 255 220 0
0.181184 0.088441 0.088807 255 220 0
0.166213 0.055568 0.071952 255 220 0
0.132795 0.103280 0.093530 255 220 0
0.161611 0.139897 0.109946 255 220 0
0.145948 0.150510 0.031442 255 220 0
0.136884 0.200709 0.067847 255 220 0
0.187610 0.078325 0.057333 255 220 0
0.110348 0.155207 0.035774 255 220 0
0.166901 0.051832 0.068743 255 220 0
0.103860 0.125527 0.075477 255 220 0
0.134883 0.086059 0.081130 255 220 0
0.129158 0.065842 0.036657 255 220 0
0.110842 0.120597 0.035386 255 220 0
0.150749 0.129710 0.028427 255 220 0
0.102942 0.143396 0.091091 255 220 0
0.167376 0.175823 0.068663 255 220 0
0.164535 0.170559 0.096354 255 220 0
0.133644 0.201415 0.096062 255 220 0
0.175999 0.136036 0.044412 255 220 0
0.185838 0.133900 0.069630 255 220 0
0.118505 0.164844 0.112122 255 220 0
0.183925 0.134199 0.086097 255 220 0
0.145671 0.159227 0.113565 255 220 0
0.121316 0.205973 0.089792 255 220 0
0.155393 0.181737 0.098074 255 220 0
0.148714 0.057972 0.070127 255 220 0
0.100796 0.193908 0.080368 255 220 0
0.162942 0.115472 0.106262 255 220 0
0.097978 0.154074 0.046473 255 220 0
0.093695 0.163576 0.058036 255 220 0
0.130703 0.118010 0.026139 255 220 0
0.177484 0.157399 0.064629 255 220 0
0.181969 0.104768 0.094722 255 220 0
0.149269 0.091437 0.025079 255 220 0
0.160506 0.141109 0.034128 255 220 0
0.154197 0.189307 0.066134 255 220 0
0.142011 0.104531 0.099360 255 220 0
0.133436 0.142474 0.027998 255 220 0
0.132837 0.200786 0.097407 255 220 0
0.142569 0.194409 0.061563 255 220 0
0.139347 0.150892 0.030325 255 220 0
0.157820 0.060262 0.026176 255 220 0
0.182966 0.123635 0.093279 255 220 0
0.100726 0.133887 0.078006 255 220 0
0.167551 0.063174 0.077559 255 220 0
0.107767 0.140990 0.095870 255 220 0
0.134725 0.043242 0.038684 255 220 0
0.157542 0.065860 0.079499 255 220 0
0.136178 0.076664 0.074696 255 220 0
0.138629 0.182769 0.046395 255 220 0
0.099607 0.191765 0.074513 255 220 0
0.135874 0.051156 0.031209 255 220 0
0.142553 0.138169 0.028138 255 220 0
0.175949 0.079543 0.086616 255 220 0
0.141336 0.049511 0.059436 255 220 0
0.119588 0.121062 0.029278 255 220 0
0.146946 0.122356 0.026776 255 220 0
0.134188 0.179196 0.112366 255 220 0
0.163078 0.168504 0.049516 255 220 0
0.107830 0.173378 0.044164 255 220 0
0.160342 0.167315 0.045943 255 220 0
0.138130 0.191620 0.055142 255 220 0
0.118495 0.117364 0.090751 255 220 0
0.094863 0.142981 0.065669 255 220 0
0.101631 0.125892 0.068443 255 220 0
0.137768 0.068406 0.069663 255 220 0
0.139722 0.135970 0.111757 255 220 0
0.157109 0.153538 0.036556 255 220 0
0.184146 0.101096 0.045674 255 220 0
0.140600 0.063667 0.068517 255 220 0
0.093656 0.153513 0.076012 255 220 0
0.143548 0.176066 0.110327 255 220 0
0.092331 0.162321 0.073921 255 220 0
0.149776 0.130547 0.028319 255 220 0
0.123890 0.142808 0.109472 255 220 0
0.105086 0.199226 0.080063 255 220 0
0.178062 0.063070 0.073458 255 220 0
0.142127 0.097066 0.025248 255 220 0
0.100376 0.130451 0.071875 255 220 0
0.155589 0.156807 0.037111 255 220 0
0.111745 0.106503 0.067976 255 220 0
0.169516 0.110476 0.032962 255 220 0
0.187251 0.123557 0.062508 255 220 0
0.163824 0.088292 0.094579 255 220 0
0.161398 0.183336 0.081316 255 220 0
0.134732 0.190016 0.107191 255 220 0
0.183674 0.136640 0.085082 255 220 0
0.101952 0.124863 0.067724 255 220 0
0.176691 0.153119 0.056262 255 220 0
0.145367 0.132515 0.027719 255 220 0
0.109080 0.166084 0.106872 255 220 0
0.156404 0.114430 0.106156 255 220 0
0.149696 0.054370 0.068195 255 220 0
0.178445 0.155540 0.065091 255 220 0
0.094214 0.167045 0.083628 255 220 0
0.170341 0.079685 0.031019 255 220 0
0.098338 0.131501 0.060214 255 220 0
0.163596 0.066037 0.080087 255 220 0
0.099326 0.178984 0.093683 255 220 0
0.169543 0.083160 0.030620 255 220 0
0.137508 0.079124 0.077768 255 220 0
0.106003 0.138703 0.037365 255 220 0
0.111205 0.200538 0.068414 255 220 0
0.186191 0.120823 0.055827 255 220 0
0.127065 0.144880 0.028645 255 220 0
0.176227 0.093555 0.035943 255 220 0
0.148831 0.138358 0.029400 255 220 0
0.154119 0.047563 0.027246 255 220 0
0.158039 0.182605 0.092994 255 220 0
0.109790 0.157017 0.036490 255 220 0
0.120339 0.132871 0.103243 255 220 0
0.103955 0.119014 0.063863 255 220 0
0.102329 0.184744 0.055702 255 220 0
0.168687 0.172709 0.065075 255 220 0
0.102647 0.155552 0.097778 255 220 0
0.114800 0.122472 0.031832 255 220 0
0.167534 0.149285 0.041727 255 220 0
0.139899 0.195916 0.061815 255 220 0
0.163561 0.099759 0.100304 255 220 0
0.112972 0.187916 0.104696 255 220 0
0.172521 0.168499 0.076641 255 220 0
0.173726 0.062706 0.075513 255 220 0
0.103091 0.186937 0.095582 255 220 0
0.165027 0.175576 0.089095 255 220 0
0.143394 0.134389 0.111869 255 220 0
0.166233 0.131449 0.107544 255 220 0
0.139067 0.047700 0.056377 255 220 0
0.128248 0.165323 0.114847 255 220 0
0.119428 0.150731 0.031264 255 220 0
0.134207 0.077761 0.073723 255 220 0
0.151465 0.113542 0.105453 255 220 0
0.124579 0.154397 0.112842 255 220 0
0.186966 0.072859 0.062445 255 220 0
0.136106 0.095908 0.026394 255 220 0
0.160872 0.087849 0.027066 255 220 0
0.148280 0.126778 0.110055 255 220 0
0.131041 0.094976 0.028432 255 220 0
0.172450 0.090046 0.032787 255 220 0
0.102869 0.126056 0.044989 255 220 0
0.170661 0.096569 0.032091 255 220 0
0.136413 0.182980 0.110420 255 220 0
0.159551 0.038132 0.056524 255 220 0
0.141300 0.159901 0.114365 255 220 0
0.156530 0.138097 0.031655 255 220 0
0.187154 0.077080 0.055408 255 220 0
0.181416 0.138722 0.090219 255 220 0
0.141129 0.056692 0.063854 255 220 0
0.182191 0.081573 0.042457 255 220 0
0.097707 0.134771 0.067662 255 220 0
0.143583 0.034984 0.048261 255 220 0
0.187561 0.078099 0.067735 255 220 0
0.116370 0.180278 0.044796 255 220 0
0.183042 0.143128 0.080707 255 220 0
0.114670 0.095700 0.055363 255 220 0
0.160656 0.069681 0.082657 255 220 0
0.129795 0.120336 0.102324 255 220 0
0.172487 0.064620 0.077441 255 220 0
0.188051 0.083932 0.071819 255 220 0
0.173912 0.138717 0.043139 255 220 0
0.094173 0.172703 0.082737 255 220 0
0.173052 0.089145 0.093521 255 220 0
0.104425 0.119394 0.046810 255 220 0
0.131218 0.056048 0.036597 255 220 0
0.108519 0.147665 0.100820 255 220 0
0.151263 0.136233 0.029621 255 220 0
0.160009 0.153396 0.109265 255 220 0
0.146250 0.074540 0.080950 255 220 0
0.138601 0.078240 0.026767 255 220 0
0.155280 0.150165 0.112003 255 220 0
0.131977 0.108365 0.026545 255 220 0
0.135701 0.047377 0.052037 255 220 0
0.189651 0.095600 0.063832 255 220 0
0.133673 0.173469 0.038737 255 220 0
0.156933 0.086484 0.093356 255 220 0
0.093445 0.154917 0.058478 255 220 0
0.149344 0.165094 0.038153 255 220 0
0.100356 0.127031 0.064190 255 220 0
0.161684 0.182197 0.084225 255 220 0
0.162027 0.128206 0.109131 255 220 0
0.106602 0.181829 0.049912 255 220 0
0.188574 0.118635 0.072629 255 220 0
0.186097 0.126474 0.059852 255 220 0
0.108602 0.171489 0.106456 255 220 0
0.178367 0.053325 0.063802 255 220 0
0.092776 0.160502 0.076235 255 220 0
0.167202 0.090736 0.029744 255 220 0
0.134939 0.075243 0.028824 255 220 0
0.161260 0.138527 0.033805 255 220 0
0.118816 0.087842 0.055270 255 220 0
0.170359 0.065187 0.031642 255 220 0
0.128499 0.200941 0.063764 255 220 0
0.109852 0.174130 0.107094 255 220 0
0.139446 0.169517 0.037206 255 220 0
0.128469 0.202316 0.065964 255 220 0
0.181204 0.133807 0.051393 255 220 0
0.099100 0.137055 0.077287 255 220 0
0.170998 0.148576 0.101816 255 220 0
0.162712 0.072533 0.027165 255 220 0
0.188873 0.086366 0.066720 255 220 0
0.170290 0.070482 0.031090 255 220 0
0.149409 0.163081 0.037156 255 220 0
0.134437 0.100833 0.092939 255 220 0
0.156345 0.117408 0.028360 255 220 0
0.137181 0.082996 0.080601 255 220 0
0.180770 0.066005 0.043479 255 220 0
0.168110 0.160744 0.099342 255 220 0
0.189461 0.105971 0.074859 255 220 0
0.147982 0.196207 0.085961 255 220 0
0.120102 0.084660 0.047338 255 220 0
0.166401 0.121685 0.032919 255 220 0
0.103929 0.133907 0.040156 255 220 0
0.178636 0.156855 0.076802 255 220 0
0.173104 0.070372 0.081435 255 220 0
0.116446 0.138532 0.103331 255 220 0
0.092437 0.157393 0.064457 255 220 0
0.151859 0.164277 0.110275 255 220 0
0.126575 0.075140 0.037510 255 220 0
0.145320 0.034352 0.048334 255 220 0
0.128694 0.111896 0.096572 255 220 0
0.124701 0.083118 0.065402 255 220 0
0.157939 0.175851 0.100188 255 220 0
0.125725 0.114560 0.095991 255 220 0
0.188332 0.114016 0.059306 255 220 0
0.126548 0.165946 0.114592 255 220 0
0.140475 0.092649 0.025553 255 220 0
0.144560 0.052958 0.064046 255 220 0
0.098788 0.186812 0.063823 255 220 0
0.115003 0.119407 0.088472 255 220 0
0.151423 0.041448 0.060218 255 220 0
0.114947 0.105152 0.073935 255 220 0
0.151948 0.187585 0.096300 255 220 0
0.169252 0.042532 0.057885 255 220 0
0.125614 0.196565 0.057605 255 220 0
0.133791 0.061317 0.031491 255 220 0
0.181386 0.150276 0.074242 255 220 0
0.116595 0.170718 0.111326 255 220 0
0.100870 0.183466 0.056333 255 220 0
0.124255 0.079415 0.059406 255 220 0
0.126385 0.107551 0.028480 255 220 0
0.150100 0.195059 0.080016 255 220 0
0.152020 0.038571 0.031314 255 220 0
0.180212 0.099024 0.094507 255 220 0
0.114152 0.186429 0.049664 255 220 0
0.093353 0.176117 0.075117 255 220 0
0.138621 0.155564 0.031516 255 220 0
0.131178 0.203613 0.069535 255 220 0
0.106860 0.200662 0.084756 255 220 0
0.160386 0.115479 0.029404 255 220 0
0.127974 0.085820 0.073782 255 220 0
0.118110 0.124297 0.095610 255 220 0
0.120454 0.084167 0.046275 255 220 0
0.112185 0.132295 0.032691 255 220 0
0.160087 0.185429 0.077417 255 220 0
0.164619 0.167466 0.098885 255 220 0
0.119202 0.090018 0.061660 255 220 0
0.111499 0.189383 0.053064 255 220 0
0.124858 0.109450 0.091193 255 220 0
0.127643 0.063238 0.044210 255 220 0
0.174918 0.044957 0.053654 255 220 0
0.128192 0.068602 0.056040 255 220 0
0.136986 0.044651 0.032641 255 220 0
0.112222 0.111438 0.037306 255 220 0
0.134479 0.170104 0.036890 255 220 0
0.125621 0.197700 0.102383 255 220 0
0.163928 0.180875 0.076937 255 220 0
0.135790 0.047575 0.032525 255 220 0
0.097849 0.133062 0.062533 255 220 0
0.103404 0.123175 0.070233 255 220 0
0.186518 0.119208 0.085544 255 220 0
0.124590 0.072788 0.046828 255 220 0
0.141849 0.191635 0.102541 255 220 0
0.175025 0.088366 0.034662 255 220 0
0.187179 0.115095 0.084770 255 220 0
0.181089 0.106137 0.042306 255 220 0
0.149161 0.056826 0.025409 255 220 0
0.123495 0.079477 0.041444 255 220 0
0.119256 0.099845 0.075634 255 220 0
0.105724 0.117587 0.044861 255 220 0
0.108633 0.191075 0.099474 255 220 0
0.176188 0.050347 0.045827 255 220 0
0.139206 0.063568 0.067222 255 220 0
0.169637 0.128765 0.105712 255 220 0
0.179029 0.053195 0.049853 255 220 0
0.093205 0.167385 0.079741 255 220 0
0.113319 0.098904 0.057880 255 220 0
0.100520 0.182946 0.093921 255 220 0
0.174234 0.154295 0.052576 255 220 0
0.153615 0.186586 0.095053 255 220 0
0.101638 0.194980 0.082245 255 220 0
0.139500 0.170139 0.037553 255 220 0
0.120116 0.121948 0.095990 255 220 0
0.108262 0.154374 0.036759 255 220 0
0.163797 0.179635 0.083793 255 220 0
0.102604 0.195438 0.085894 255 220 0
0.121443 0.164198 0.035070 255 220 0
0.123426 0.076638 0.045438 255 220 0
0.116227 0.203455 0.069730 255 220 0
0.153979 0.081963 0.025241 255 220 0
0.178949 0.051398 0.052772 255 220 0
0.100415 0.156645 0.094856 255 220 0
0.170014 0.041386 0.044306 255 220 0
0.117051 0.185192 0.108154 255 220 0
0.173709 0.095728 0.096616 255 220 0
0.100316 0.149134 0.043107 255 220 0
0.135182 0.203492 0.072868 255 220 0
0.182734 0.127068 0.092647 255 220 0
0.134655 0.085059 0.027881 255 220 0
0.135833 0.051651 0.055049 255 220 0
0.166795 0.176737 0.079486 255 220 0
0.172754 0.121957 0.037222 255 220 0
0.126160 0.167154 0.035699 255 220 0
0.188538 0.084354 0.059251 255 220 0
0.173559 0.124423 0.038489 255 220 0
0.124940 0.082270 0.064838 255 220 0
0.152515 0.164286 0.109962 255 220 0
0.164680 0.106918 0.030034 255 220 0
0.151021 0.154740 0.112750 255 220 0
0.175346 0.160260 0.085907 255 220 0
0.177681 0.158735 0.069911 255 220 0
0.117789 0.115025 0.088118 255 220 0
0.100664 0.186389 0.092032 255 220 0
0.149333 0.186094 0.100959 255 220 0
0.180884 0.109352 0.042638 255 220 0
0.185140 0.118892 0.052140 255 220 0
0.143377 0.034257 0.041037 255 220 0
0.165660 0.089949 0.095372 255 220 0
0.113965 0.165548 0.109993 255 220 0
0.097529 0.137077 0.052590 255 220 0
0.146233 0.106455 0.025496 255 220 0
0.138058 0.049302 0.056262 255 220 0
0.182718 0.141168 0.061142 255 220 0
0.151853 0.121522 0.027663 255 220 0
0.135650 0.059167 0.060118 255 220 0
0.187797 0.102311 0.083767 255 220 0
0.099668 0.137128 0.078991 255 220 0
0.109339 0.192118 0.056904 255 220 0
0.188412 0.103084 0.081512 255 220 0
0.136417 0.204291 0.078935 255 220 0
0.183247 0.130500 0.054028 255 220 0
0.123901 0.206854 0.087488 255 220 0
0.179400 0.109090 0.098063 255 220 0
0.175730 0.058089 0.038927 255 220 0
0.114940 0.105370 0.037189 255 220 0
0.109309 0.178896 0.105687 255 220 0
0.149518 0.066960 0.024975 255 220 0
0.127526 0.102053 0.028977 255 220 0
0.114710 0.153417 0.108240 255 220 0
0.116558 0.092033 0.047762 255 220 0
0.104649 0.197916 0.074936 255 220 0
0.123099 0.188357 0.049603 255 220 0
0.137098 0.090194 0.086526 255 220 0
0.187939 0.122548 0.074005 255 220 0
0.155652 0.147261 0.033700 255 220 0
0.158772 0.081479 0.090497 255 220 0
0.189446 0.094477 0.061055 255 220 0
0.106120 0.112600 0.053809 255 220 0
0.124934 0.130148 0.027194 255 220 0
0.136402 0.195370 0.102200 255 220 0
0.180562 0.149364 0.063297 255 220 0
0.156583 0.088481 0.025965 255 220 0
0.143083 0.041334 0.030062 255 220 0
0.148042 0.077437 0.084283 255 220 0
0.140994 0.052872 0.061184 255 220 0
0.112417 0.186401 0.050245 255 220 0
0.149936 0.192991 0.067258 255 220 0
0.147372 0.191683 0.097242 255 220 0
0.127789 0.156493 0.031469 255 220 0
0.100364 0.136990 0.044882 255 220 0
0.187890 0.080854 0.056991 255 220 0
0.123717 0.077948 0.055395 255 220 0
0.181109 0.131513 0.050067 255 220 0
0.181125 0.103856 0.042000 255 220 0
0.180650 0.055461 0.051862 255 220 0
0.159225 0.181472 0.059705 255 220 0
0.177479 0.118266 0.100681 255 220 0
0.150338 0.160578 0.111903 255 220 0
0.094244 0.146923 0.059458 255 220 0
0.167151 0.175373 0.082890 255 220 0
0.156318 0.107165 0.027249 255 220 0
0.098224 0.173046 0.052782 255 220 0
0.154355 0.037691 0.056733 255 220 0
0.108721 0.176652 0.045478 255 220 0
0.168381 0.174934 0.072062 255 220 0
0.153003 0.047625 0.065251 255 220 0
0.137796 0.191205 0.054506 255 220 0
0.135902 0.156235 0.031434 255 220 0
0.104621 0.168921 0.043982 255 220 0
0.166298 0.159198 0.102313 255 220 0
0.181152 0.140280 0.055381 255 220 0
0.161426 0.183831 0.071866 255 220 0
0.140680 0.036559 0.037651 255 220 0
0.168476 0.138678 0.105777 255 220 0
0.162411 0.155291 0.040556 255 220 0
0.159928 0.148002 0.110296 255 220 0
0.147620 0.190110 0.059652 255 220 0
0.161149 0.166469 0.103235 255 220 0
0.187799 0.078054 0.059925 255 220 0
0.104765 0.172774 0.102837 255 220 0
0.105967 0.157291 0.102428 255 220 0
0.156217 0.129526 0.110661 255 220 0
0.110155 0.108123 0.043346 255 220 0
0.114904 0.173925 0.041436 255 220 0
0.155459 0.155913 0.036678 255 220 0
0.153396 0.147401 0.032862 255 220 0
0.188687 0.112191 0.078460 255 220 0
0.169321 0.075177 0.030332 255 220 0
0.154460 0.080944 0.025284 255 220 0
0.163932 0.126957 0.032586 255 220 0
0.108388 0.112180 0.067388 255 220 0
0.135050 0.135960 0.110778 255 220 0
0.125468 0.117247 0.097674 255 220 0
0.168918 0.064627 0.078405 255 220 0
0.118676 0.126008 0.097453 255 220 0
0.105254 0.144251 0.037960 255 220 0
0.189843 0.104112 0.067853 255 220 0
0.163677 0.079089 0.027622 255 220 0
0.132575 0.205460 0.087581 255 220 0
0.130656 0.118224 0.101647 255 220 0
0.113246 0.146593 0.032814 255 220 0
0.145232 0.084346 0.025055 255 220 0
0.189845 0.104120 0.068202 255 220 0
0.117425 0.094280 0.063745 255 220 0
0.166310 0.104060 0.101896 255 220 0
0.157057 0.044347 0.029247 255 220 0
0.123068 0.181785 0.111369 255 220 0
0.182253 0.141404 0.086031 255 220 0
0.153092 0.156470 0.111763 255 220 0
0.125775 0.130273 0.027025 255 220 0
0.107054 0.162486 0.039617 255 220 0
0.171554 0.056484 0.034544 255 220 0
0.166197 0.039246 0.054860 255 220 0
0.157024 0.037444 0.034672 255 220 0
0.181112 0.149115 0.065640 255 220 0
0.157353 0.174779 0.049873 255 220 0
0.106074 0.169555 0.104389 255 220 0
0.165393 0.172445 0.056835 255 220 0
0.156223 0.039824 0.031636 255 220 0
0.123549 0.150647 0.111678 255 220 0
0.100936 0.125539 0.063750 255 220 0
0.166895 0.104692 0.030819 255 220 0
0.132679 0.053828 0.034623 255 220 0
0.156287 0.187093 0.065093 255 220 0
0.141521 0.132393 0.110993 255 220 0
0.149630 0.045500 0.027167 255 220 0
0.137253 0.038840 0.044228 255 220 0
0.170143 0.053442 0.069206 255 220 0
0.141711 0.044192 0.056666 255 220 0
0.151455 0.177267 0.048067 255 220 0
0.177835 0.071841 0.037837 255 220 0
0.181415 0.127862 0.048963 255 220 0
0.137739 0.045178 0.031534 255 220 0
0.136822 0.075138 0.027791 255 220 0
0.108937 0.179234 0.105294 255 220 0
0.161299 0.183470 0.081254 255 220 0
0.148086 0.099767 0.025311 255 220 0
0.188253 0.108732 0.056379 255 220 0
0.100249 0.130801 0.048485 255 220 0
0.166516 0.155733 0.103713 255 220 0
0.128004 0.084583 0.072613 255 220 0
0.154856 0.145067 0.032757 255 220 0
0.111317 0.168118 0.039773 255 220 0
0.126799 0.206372 0.088839 255 220 0
0.178964 0.098335 0.038957 255 220 0
0.120773 0.205617 0.090525 255 220 0
0.106521 0.157672 0.103109 255 220 0
0.160014 0.115013 0.029218 255 220 0
0.094879 0.142740 0.064087 255 220 0
0.125698 0.206784 0.075128 255 220 0
0.188936 0.111757 0.061293 255 220 0
0.170730 0.102939 0.100596 255 220 0
0.157956 0.140475 0.111475 255 220 0
0.092939 0.152024 0.066368 255 220 0
0.129148 0.070049 0.035251 255 220 0
0.106145 0.132225 0.087289 255 220 0
0.122833 0.077760 0.047744 255 220 0
0.149280 0.121007 0.027057 255 220 0
0.127971 0.201788 0.097575 255 220 0
0.092651 0.167651 0.076706 255 220 0
0.120749 0.139964 0.029040 255 220 0
0.102324 0.177352 0.050465 255 220 0
0.113990 0.098254 0.059513 255 220 0
0.160194 0.180092 0.092496 255 220 0
0.135635 0.076975 0.028231 255 220 0
0.158593 0.179196 0.055850 255 220 0
0.174111 0.145603 0.046514 255 220 0
0.129280 0.116764 0.026462 255 220 0
0.160996 0.134911 0.110070 255 220 0
0.150567 0.094498 0.096659 255 220 0
0.128222 0.080131 0.033440 255 220 0
0.094525 0.178429 0.065409 255 220 0
0.146213 0.048283 0.062268 255 220 0
0.138678 0.067687 0.027438 255 220 0
0.147071 0.070150 0.078120 255 220 0
0.147692 0.098247 0.097897 255 220 0
0.175062 0.148329 0.096857 255 220 0
0.150817 0.136706 0.112607 255 220 0
0.153831 0.116229 0.106694 255 220 0
0.105688 0.193452 0.062087 255 220 0
0.187717 0.124130 0.073430 255 220 0
0.155646 0.120082 0.108113 255 220 0
0.154597 0.036882 0.034119 255 220 0
0.126103 0.131199 0.105778 255 220 0
0.172690 0.146860 0.045518 255 220 0
0.170416 0.052151 0.067951 255 220 0
0.124400 0.185233 0.110341 255 220 0
0.132108 0.120887 0.103665 255 220 0
0.160578 0.049058 0.029112 255 220 0
0.188410 0.116782 0.062186 255 220 0
0.099796 0.192036 0.074471 255 220 0
0.114824 0.203397 0.091754 255 220 0
0.112596 0.178824 0.045063 255 220 0
0.141215 0.201186 0.076148 255 220 0
0.182751 0.079282 0.043538 255 220 0
0.109748 0.126843 0.087981 255 220 0
0.150620 0.194306 0.074388 255 220 0
0.169808 0.172681 0.070891 255 220 0
0.179025 0.119001 0.042659 255 220 0
0.154031 0.033010 0.044562 255 220 0
0.101782 0.131026 0.077244 255 220 0
0.185577 0.066613 0.059312 255 220 0
0.125067 0.170251 0.037352 255 220 0
0.117126 0.106878 0.079817 255 220 0
0.172132 0.159821 0.054258 255 220 0
0.189472 0.109646 0.064536 255 220 0
0.123244 0.126445 0.027577 255 220 0
0.124730 0.123263 0.100952 255 220 0
0.156730 0.106336 0.103036 255 220 0
0.165700 0.054261 0.070997 255 220 0
0.186477 0.109069 0.088053 255 220 0
0.146784 0.192907 0.063022 255 220 0
0.189135 0.113478 0.073106 255 220 0
0.189276 0.091428 0.069513 255 220 0
0.179210 0.112127 0.098722 255 220 0
0.144185 0.161340 0.034571 255 220 0
0.176559 0.142140 0.047893 255 220 0
0.129712 0.079334 0.032162 255 220 0
0.178878 0.138399 0.049512 255 220 0
0.096061 0.181412 0.063613 255 220 0
0.147095 0.195389 0.068538 255 220 0
0.108944 0.107743 0.048171 255 220 0
0.105934 0.117641 0.069056 255 220 0
0.106163 0.183064 0.101335 255 220 0
0.168815 0.114265 0.033086 255 220 0
0.188412 0.105114 0.055737 255 220 0
0.098954 0.190123 0.083227 255 220 0
0.166600 0.102810 0.101354 255 220 0
0.106373 0.198492 0.089508 255 220 0
0.141483 0.089026 0.088978 255 220 0
0.160082 0.035274 0.050643 255 220 0
0.119044 0.088122 0.057245 255 220 0
0.123376 0.077109 0.044747 255 220 0
0.179979 0.085800 0.088222 255 220 0
0.151875 0.114526 0.026950 255 220 0
0.122665 0.158524 0.032732 255 220 0
0.144463 0.141393 0.029036 255 220 0
0.159055 0.116913 0.107015 255 220 0
0.104342 0.119606 0.066963 255 220 0
0.160149 0.181523 0.090296 255 220 0
0.186064 0.069717 0.056937 255 220 0
0.096970 0.186886 0.079268 255 220 0
0.094775 0.181929 0.073401 255 220 0
0.100387 0.173659 0.097034 255 220 0
0.161294 0.120018 0.030342 255 220 0
0.118912 0.115642 0.089838 255 220 0
0.126990 0.067220 0.050763 255 220 0
0.175062 0.104854 0.036127 255 220 0
0.187877 0.111588 0.056188 255 220 0
0.103041 0.169890 0.045741 255 220 0
0.138732 0.037209 0.041272 255 220 0
0.123211 0.087997 0.068558 255 220 0
0.135868 0.056455 0.058379 255 220 0
0.136816 0.108051 0.025676 255 220 0
0.186636 0.106059 0.087561 255 220 0
0.109734 0.105664 0.049222 255 220 0
0.126154 0.160944 0.114222 255 220 0
0.168110 0.127898 0.106591 255 220 0
0.134094 0.178307 0.041928 255 220 0
0.106932 0.197310 0.092189 255 220 0
0.183737 0.136640 0.084848 255 220 0
0.121712 0.173802 0.112926 255 220 0
0.113788 0.144826 0.104395 255 220 0
0.161547 0.127226 0.031545 255 220 0
0.150406 0.123574 0.109131 255 220 0
0.147910 0.196689 0.077034 255 220 0
0.144189 0.159787 0.033974 255 220 0
0.109051 0.125811 0.086069 255 220 0
0.188591 0.084974 0.059067 255 220 0
0.128787 0.205423 0.072318 255 220 0
0.169715 0.171654 0.082661 255 220 0
0.180427 0.133878 0.049942 255 220 0
0.143778 0.196193 0.095178 255 220 0
0.139960 0.195954 0.061916 255 220 0
0.120721 0.197611 0.058996 255 220 0
0.093357 0.175658 0.076264 255 220 0
0.149991 0.042855 0.028186 255 220 0
0.110251 0.162534 0.037932 255 220 0
0.160655 0.094593 0.027427 255 220 0
0.132935 0.090486 0.083106 255 220 0
0.170213 0.058546 0.073441 255 220 0
0.162632 0.175317 0.094287 255 220 0
0.166289 0.177709 0.070733 255 220 0
0.109337 0.120832 0.081625 255 220 0
0.112002 0.147193 0.104028 255 220 0
0.096650 0.138607 0.055112 255 220 0
0.116994 0.117134 0.031307 255 220 0
0.106270 0.168117 0.104590 255 220 0
0.164101 0.077955 0.027754 255 220 0
0.127293 0.195594 0.056627 255 220 0
0.154899 0.174303 0.104103 255 220 0
0.182327 0.057489 0.061394 255 220 0
0.189327 0.113007 0.068307 255 220 0
0.185164 0.116271 0.090412 255 220 0
0.149696 0.092141 0.025127 255 220 0
0.135250 0.094193 0.088296 255 220 0
0.161537 0.183429 0.069958 255 220 0
0.098164 0.168448 0.093512 255 220 0
0.133440 0.056776 0.032667 255 220 0
0.146316 0.090553 0.025001 255 220 0
0.121766 0.108033 0.030628 255 220 0
0.138534 0.061040 0.064657 255 220 0
0.177230 0.131243 0.044164 255 220 0
0.161512 0.120480 0.030496 255 220 0
0.134592 0.119240 0.103882 255 220 0
0.145746 0.108832 0.102530 255 220 0
0.171350 0.095055 0.097020 255 220 0
0.099506 0.142968 0.084425 255 220 0
0.114470 0.097472 0.045278 255 220 0
0.189828 0.101491 0.064848 255 220 0
0.125356 0.183577 0.045712 255 220 0
0.163058 0.177665 0.090205 255 220 0
0.149818 0.114062 0.026505 255 220 0
0.125009 0.177025 0.113076 255 220 0
0.154665 0.118211 0.107454 255 220 0
0.131834 0.050385 0.039654 255 220 0
0.110935 0.177517 0.107227 255 220 0
0.183888 0.073777 0.046693 255 220 0
0.096733 0.171235 0.054167 255 220 0
0.099803 0.161689 0.095494 255 220 0
0.123851 0.147560 0.110959 255 220 0
0.130039 0.091457 0.081204 255 220 0
0.182574 0.102518 0.093473 255 220 0
0.129625 0.149782 0.113226 255 220 0
0.188212 0.115231 0.079776 255 220 0
0.130629 0.063025 0.055634 255 220 0
0.107645 0.172990 0.105530 255 220 0
0.115893 0.124117 0.093104 255 220 0
0.122790 0.098375 0.032748 255 220 0
0.188760 0.115974 0.064198 255 220 0
0.157876 0.113661 0.105906 255 220 0
0.153984 0.153931 0.111919 255 220 0
0.093209 0.175955 0.071574 255 220 0
0.151037 0.193821 0.073260 255 220 0
0.140419 0.097953 0.094780 255 220 0
0.164883 0.071744 0.028032 255 220 0
0.158823 0.163484 0.042304 255 220 0
0.153202 0.044921 0.063451 255 220 0
0.115563 0.171705 0.110767 255 220 0
0.124557 0.103580 0.030171 255 220 0
0.165512 0.066283 0.028552 255 220 0
0.143639 0.182584 0.048426 255 220 0
0.127558 0.071723 0.037223 255 220 0
0.123361 0.205051 0.092548 255 220 0
0.138586 0.135705 0.027219 255 220 0
0.187653 0.124981 0.070962 255 220 0
0.126809 0.194531 0.055405 255 220 0
0.141391 0.046754 0.028431 255 220 0
0.179093 0.087306 0.038477 255 220 0
0.158342 0.098077 0.027000 255 220 0
0.099457 0.129388 0.053919 255 220 0
0.119982 0.104249 0.081327 255 220 0
0.122388 0.201509 0.098132 255 220 0
0.140031 0.120929 0.106377 255 220 0
0.159668 0.072225 0.026191 255 220 0
0.156099 0.139019 0.111989 255 220 0
0.136639 0.044805 0.032948 255 220 0
0.181646 0.059510 0.049873 255 220 0
0.171433 0.086493 0.092504 255 220 0
0.149156 0.195069 0.072364 255 220 0
0.134292 0.204142 0.073717 255 220 0
0.173259 0.166964 0.069937 255 220 0
0.140023 0.049009 0.028550 255 220 0
0.155267 0.149358 0.112091 255 220 0
0.093332 0.161459 0.079377 255 220 0
0.175477 0.055980 0.068989 255 220 0
0.124326 0.075624 0.053726 255 220 0
0.150724 0.077363 0.024882 255 220 0
0.186792 0.077847 0.071990 255 220 0
0.178404 0.156237 0.081018 255 220 0
0.160817 0.063194 0.026805 255 220 0
0.140817 0.161339 0.033806 255 220 0
0.151623 0.170230 0.108303 255 220 0
0.117928 0.206070 0.075350 255 220 0
0.131804 0.147302 0.028938 255 220 0
0.128723 0.074829 0.063733 255 220 0
0.138978 0.071452 0.027068 255 220 0
0.094697 0.181083 0.077194 255 220 0
0.151874 0.044726 0.062882 255 220 0
0.134003 0.076527 0.072498 255 220 0
0.174250 0.163277 0.064143 255 220 0
0.175966 0.153546 0.055132 255 220 0
0.181768 0.055934 0.059711 255 220 0
0.098106 0.134004 0.053661 255 220 0
0.153579 0.116368 0.106730 255 220 0
0.178747 0.151263 0.087423 255 220 0
0.125731 0.070000 0.049537 255 220 0
0.162693 0.038015 0.054940 255 220 0
0.137279 0.129544 0.109093 255 220 0
0.173131 0.155434 0.051768 255 220 0
0.138843 0.182477 0.046213 255 220 0
0.096250 0.141703 0.073320 255 220 0
0.181628 0.126013 0.048552 255 220 0
0.182939 0.144258 0.079215 255 220 0
0.136928 0.055820 0.029458 255 220 0
0.150151 0.135164 0.112370 255 220 0
0.160769 0.183922 0.068382 255 220 0
0.155183 0.165471 0.041219 255 220 0
0.142229 0.167619 0.036884 255 220 0
0.175299 0.071131 0.081108 255 220 0
0.172059 0.099912 0.033301 255 220 0
0.173261 0.105083 0.100570 255 220 0
0.181084 0.148002 0.083236 255 220 0
0.145739 0.094769 0.095269 255 220 0
0.178981 0.088622 0.038366 255 220 0
0.105057 0.141372 0.092745 255 220 0
0.160273 0.065863 0.079884 255 220 0
0.167480 0.155883 0.102722 255 220 0
0.105751 0.113534 0.052719 255 220 0
0.170650 0.105275 0.032993 255 220 0
0.168614 0.087069 0.030260 255 220 0
0.120710 0.168138 0.113050 255 220 0
0.130923 0.169606 0.036564 255 220 0
0.105896 0.174832 0.046142 255 220 0
