ply
format ascii 1.0
element vertex 256
property float x
property float y
property float z
end_header
0.568783 -0.006980 0.187172
0.601770 0.113767 0.247560
0.488437 0.090487 0.197150
0.471066 -0.024576 0.207390
0.533704 0.031605 0.265030
0.598885 0.074997 0.167879
0.598786 0.042189 0.233988
0.550807 0.112073 0.202482
0.515682 0.023517 0.203335
0.518395 -0.024743 0.177006
0.542124 -0.008383 0.234052
0.583326 0.071878 0.270303
0.469868 0.041614 0.205373
0.497320 0.007648 0.242952
0.606193 0.082960 0.213567
0.555926 0.031718 0.224627
0.611841 0.047064 0.195785
0.508682 0.058511 0.182962
0.592804 0.007946 0.214574
0.474864 0.003264 0.180079
0.523544 0.087291 0.209451
0.513443 0.043834 0.234547
0.506271 -0.022412 0.218276
0.552925 0.059397 0.250372
0.479224 0.009589 0.213865
0.540432 -0.027708 0.203038
0.581115 0.071924 0.232654
0.573673 0.033381 0.252457
0.548496 0.017100 0.196876
0.569184 -0.015722 0.218607
0.513984 0.094931 0.178771
0.494984 0.064252 0.213747
0.490588 -0.036253 0.185808
0.594996 0.110838 0.209151
0.507603 0.003863 0.181759
0.482971 0.044131 0.178594
0.566733 0.007361 0.239374
0.604677 0.084597 0.254748
0.585545 0.034269 0.204496
0.601329 0.095044 0.187049
0.493418 0.033087 0.217494
0.540483 -0.008817 0.172917
0.594007 0.059422 0.211809
0.485331 0.070361 0.180135
0.525344 0.110573 0.196600
0.610603 0.028402 0.215383
0.489903 -0.014840 0.169063
0.614001 0.072017 0.188588
0.529345 0.008814 0.219796
0.532215 0.010788 0.247473
0.491493 -0.013321 0.196447
0.586160 0.055757 0.251232
0.567717 0.051311 0.268699
0.594510 0.093622 0.232755
0.568602 0.010750 0.212143
0.587080 0.020842 0.236059
0.517772 -0.005790 0.235389
0.610753 0.064159 0.228586
0.532764 0.038597 0.221011
0.487892 -0.009172 0.226136
0.576855 0.046877 0.226879
0.514000 -0.033046 0.198908
0.535289 0.045581 0.243037
0.513308 0.029921 0.252838
0.552901 0.016654 0.255443
0.507922 0.105180 0.210433
0.499037 0.044314 0.197696
0.476731 0.064799 0.200173
0.583205 0.092644 0.251943
0.507744 0.074258 0.198524
0.534390 0.109349 0.216627
0.485120 0.026113 0.198950
0.499564 0.008901 0.207116
0.596469 0.059841 0.188080
0.569105 0.073692 0.254697
0.532390 0.092122 0.189664
0.560664 -0.024888 0.201685
0.488927 -0.034504 0.207991
0.552502 0.010899 0.225361
0.537057 -0.030090 0.182339
0.613548 0.048421 0.215792
0.552919 0.036531 0.246529
0.592433 0.076988 0.200235
0.469474 0.000236 0.199071
0.503655 0.077392 0.176940
0.579974 -0.007308 0.203505
0.588377 0.091560 0.214181
0.617537 0.065014 0.206633
0.520093 -0.006543 0.170685
0.484850 0.017806 0.230395
0.530735 -0.019817 0.217509
0.597822 0.070425 0.241625
0.578979 0.028083 0.220876
0.540259 0.022446 0.235376
0.552861 -0.016160 0.184914
0.606641 0.100399 0.218817
0.548419 0.042742 0.262870
0.483485 0.050235 0.213329
0.551650 -0.020847 0.216591
0.539595 0.094252 0.206091
0.535631 0.026422 0.208420
0.505720 0.087810 0.213160
0.532748 0.010123 0.193517
0.569803 0.032134 0.235400
0.500622 0.024677 0.242115
0.501864 -0.019604 0.180701
0.571025 0.050653 0.244565
0.595643 0.020579 0.201661
0.558449 0.025407 0.208804
0.590063 0.057225 0.232118
0.509796 0.096428 0.195313
0.513254 0.031281 0.218215
0.595369 0.043153 0.215928
0.606313 0.097868 0.243869
0.529263 0.029520 0.247815
0.595314 0.024676 0.221729
0.576538 0.007744 0.197195
0.577608 0.010098 0.226147
0.548053 0.006017 0.243602
0.598023 0.069462 0.262986
0.597774 0.078340 0.227173
0.590454 0.086365 0.265288
0.585136 0.041111 0.243601
0.482902 0.043360 0.195185
0.484435 0.079539 0.208602
0.490518 0.005308 0.184113
0.552422 0.000169 0.179110
0.600308 0.095263 0.203176
0.598537 0.076360 0.183944
0.542412 0.106277 0.190036
0.595851 0.100128 0.258448
0.503777 -0.010564 0.229285
0.564467 -0.006148 0.230510
0.493966 0.033928 0.183942
0.518307 0.078714 0.187529
0.493888 0.056414 0.177725
0.595684 0.047949 0.200865
0.583264 0.056494 0.267688
0.612252 0.084285 0.199265
0.583515 0.070827 0.249410
0.593114 0.108662 0.235721
0.598612 0.034068 0.194966
0.543806 0.039749 0.231742
0.473324 0.026207 0.208600
0.492781 0.076001 0.192170
0.478604 0.057481 0.184621
0.565394 0.018839 0.228525
0.606149 0.064099 0.175455
0.517800 0.006454 0.248664
0.603644 0.063429 0.201117
0.495637 0.012886 0.221347
0.523983 0.020802 0.258662
0.484596 -0.015221 0.212995
0.562129 0.037515 0.260849
0.567631 0.056924 0.232001
0.524395 0.104066 0.183858
0.521381 0.103362 0.216073
0.522279 0.003961 0.186138
0.539591 0.019625 0.259414
0.563417 0.062013 0.260440
0.580289 -0.008145 0.223016
0.496038 -0.032025 0.173542
0.582342 0.047942 0.213862
0.493948 0.088090 0.184473
0.536786 0.116346 0.202259
0.499325 0.035327 0.233200
0.520618 0.045228 0.246425
0.595339 0.073480 0.214454
0.493829 -0.003630 0.207763
0.591683 0.104132 0.220709
0.487495 0.021627 0.212770
0.521519 -0.016384 0.227100
0.506189 0.072119 0.212805
0.500268 -0.007368 0.186492
0.553414 0.019287 0.236996
0.486328 0.008181 0.202340
0.502089 0.044732 0.183624
0.590262 0.084977 0.243331
0.583588 0.021315 0.210170
0.527621 -0.024015 0.205010
0.563859 -0.000155 0.218461
0.610235 0.076884 0.176539
0.503617 0.019864 0.198709
0.503476 0.056010 0.202564
0.608008 0.050483 0.228916
0.568831 0.064993 0.244553
0.482724 0.002349 0.230446
0.576416 0.048978 0.258870
0.607941 0.087990 0.225756
0.523841 0.098642 0.202244
0.542790 0.027042 0.247573
0.480163 0.037042 0.212340
0.620246 0.058767 0.195295
0.501662 -0.030001 0.202506
0.610921 0.057562 0.185888
0.614561 0.038117 0.207516
0.607015 0.060895 0.216537
0.603441 0.018041 0.212044
0.579615 0.079978 0.258859
0.591665 0.089816 0.195374
0.589101 0.104316 0.248382
0.549292 -0.027330 0.190086
0.588265 0.010053 0.202813
0.578941 0.061097 0.226268
0.487438 0.064685 0.192603
0.565060 0.004803 0.185388
0.555781 0.046578 0.253655
0.594915 0.075587 0.252675
0.514876 -0.013647 0.217149
0.532786 0.046377 0.231057
0.539819 0.038530 0.255226
0.597907 0.063385 0.224315
0.521657 0.013503 0.197370
0.472263 0.051642 0.198845
0.499710 0.096735 0.207355
0.605843 0.038999 0.220516
0.481086 -0.004101 0.216462
0.499801 0.023544 0.213508
0.544098 0.050908 0.249482
0.513380 -0.029402 0.187340
0.572492 0.038359 0.219415
0.484004 0.061754 0.209292
0.482530 -0.007363 0.201855
0.544947 0.113922 0.213095
0.581707 0.031419 0.233968
0.596460 0.056471 0.245112
0.593152 0.068721 0.176418
0.575614 0.017345 0.235564
0.561488 0.047799 0.236751
0.588184 0.015192 0.223147
0.563678 -0.019306 0.191578
0.620693 0.048921 0.203555
0.476256 0.033065 0.195121
0.509207 -0.011184 0.171654
0.553963 -0.010489 0.227221
0.495391 0.082681 0.205494
0.609188 0.073421 0.204100
0.503358 -0.000322 0.235077
0.572707 -0.016407 0.205185
0.556646 0.001871 0.236719
0.601144 0.085018 0.237264
0.490401 0.003255 0.217160
0.522197 0.112455 0.208744
0.588730 0.033399 0.217207
0.494687 0.026297 0.226897
0.519018 0.092857 0.189142
0.506131 0.011550 0.249493
0.510833 -0.030194 0.209743
0.494967 0.052939 0.216134
0.496417 -0.027049 0.212650
0.480284 0.006871 0.192624
0.564148 0.039497 0.244248
0.587570 0.082350 0.232479
0.604300 0.107600 0.238038
0.590909 0.036295 0.228164
0.605692 0.053211 0.205776
