ply
format ascii 1.0
element vertex 256
property float x
property float y
property float z
end_header
0.572119 -0.010619 0.162643
0.611422 0.109843 0.226711
0.482258 0.085493 0.191657
0.476611 -0.030229 0.190225
0.542263 0.027311 0.242961
0.602752 0.073628 0.143408
0.605693 0.038967 0.207676
0.542365 0.113857 0.193963
0.519775 0.018780 0.182812
0.521486 -0.029441 0.156330
0.471434 0.033778 0.194721
0.549136 -0.012527 0.211413
0.591158 0.067645 0.246512
0.504814 0.002575 0.223703
0.612539 0.082639 0.189259
0.561341 0.027843 0.200985
0.506465 0.057739 0.171111
0.617491 0.045228 0.169919
0.597786 0.004492 0.188365
0.477739 -0.002346 0.162718
0.513983 0.097719 0.175719
0.519492 0.039080 0.214114
0.512489 -0.027319 0.198403
0.559947 0.055538 0.227630
0.586611 0.068481 0.207529
0.545495 -0.031917 0.180609
0.486288 0.003073 0.195572
0.581052 0.029701 0.227487
0.552130 0.013042 0.173873
0.575091 -0.019317 0.193952
0.515672 0.100811 0.207279
0.494635 0.058481 0.202781
0.494675 -0.041520 0.167215
0.475398 0.059254 0.176182
0.510490 -0.001062 0.161903
0.623947 0.108302 0.199583
0.573745 0.003733 0.214856
0.592620 0.032908 0.181892
0.612767 0.081051 0.231975
0.604757 0.094000 0.163827
0.492385 0.032669 0.169052
0.498457 0.027899 0.198628
0.542860 -0.013062 0.150580
0.492271 -0.020145 0.150581
0.534954 0.004384 0.198179
0.619464 0.058553 0.193829
0.615754 0.024810 0.188772
0.539879 0.006448 0.225558
0.495907 -0.018562 0.177766
0.593140 0.052248 0.225579
0.610401 0.069877 0.167573
0.575545 0.047067 0.245095
0.593869 0.093021 0.221481
0.494621 0.079043 0.167614
0.582275 0.043424 0.201860
0.573466 0.007131 0.187563
0.524909 -0.010441 0.214600
0.590606 0.019160 0.206966
0.537832 0.034233 0.199145
0.505899 0.081497 0.191390
0.518943 -0.037810 0.178499
0.541782 0.041304 0.220941
0.619919 0.087987 0.211069
0.609123 0.067500 0.213764
0.521039 0.025188 0.232356
0.560984 0.012753 0.231935
0.494488 -0.014457 0.207645
0.528745 0.092054 0.191598
0.595265 0.054306 0.187847
0.497670 0.102031 0.195190
0.521250 0.113662 0.188378
0.576266 0.069782 0.231589
0.496353 0.005503 0.175992
0.473644 0.058171 0.196730
0.604805 0.099162 0.202646
0.565502 -0.028677 0.177722
0.494670 -0.039781 0.189461
0.558419 0.006958 0.201968
0.506359 0.007121 0.193417
0.540606 -0.034392 0.160225
0.559866 0.032787 0.223260
0.487726 0.045363 0.183840
0.473873 -0.005465 0.182063
0.484778 0.021569 0.185582
0.584523 -0.010695 0.178076
0.491216 0.012457 0.212136
0.596175 0.078337 0.178058
0.595266 0.073047 0.226287
0.606862 0.057063 0.153399
0.522317 -0.011217 0.149906
0.536765 -0.024214 0.195779
0.595909 0.016443 0.173160
0.546734 0.018258 0.212891
0.599876 0.081234 0.204938
0.556267 -0.020132 0.161598
0.488983 0.054240 0.165195
0.556263 0.038876 0.239867
0.485028 0.043127 0.201852
0.624560 0.040668 0.185764
0.475939 0.042145 0.170763
0.557566 -0.024809 0.193273
0.528517 0.113591 0.205104
0.539987 0.022106 0.186367
0.487283 0.071064 0.181945
0.536320 0.005735 0.171718
0.576019 0.028528 0.210730
0.496554 0.099308 0.176578
0.604547 0.095757 0.236402
0.507686 0.019668 0.222626
0.505180 -0.024645 0.161274
0.577643 0.046994 0.219939
0.562785 0.021568 0.185014
0.595684 0.053906 0.206253
0.606725 0.032022 0.170617
0.586743 0.018091 0.187940
0.500196 0.060467 0.186861
0.603195 0.066333 0.196823
0.518323 0.026509 0.197837
0.536565 0.025075 0.226087
0.580304 0.004275 0.172054
0.624772 0.061566 0.166171
0.555473 0.002004 0.220492
0.510220 0.076303 0.176193
0.490717 0.074615 0.202343
0.605528 0.065456 0.238506
0.617601 0.070155 0.152786
0.609469 0.056474 0.179882
0.591772 0.037646 0.217919
0.598234 0.081845 0.242053
0.555046 -0.003822 0.155851
0.615888 0.087241 0.174195
0.533279 0.103384 0.181164
0.583998 -0.007203 0.199475
0.600012 0.024731 0.195285
0.510592 -0.015513 0.209575
0.591380 0.052695 0.241424
0.500422 0.089607 0.204295
0.604684 0.042614 0.191959
0.571345 0.015169 0.204146
0.549632 0.035628 0.209006
0.617191 0.069431 0.182615
0.600226 0.044838 0.175611
0.566144 -0.014495 0.205266
0.613977 0.095091 0.223016
0.525690 0.001815 0.227840
0.612347 0.052481 0.206860
0.498894 -0.008812 0.188877
0.507460 0.107524 0.185070
0.579596 0.029526 0.196194
0.532314 0.016300 0.237346
0.490330 -0.020588 0.194789
0.617355 0.096050 0.194654
0.476242 0.020145 0.197690
0.569046 0.032757 0.235497
0.517795 0.087299 0.200248
0.584151 0.008286 0.199428
0.500758 0.043550 0.174331
0.605779 0.079114 0.157121
0.602297 0.107501 0.215511
0.616650 0.102901 0.210988
0.477234 0.072268 0.196296
0.582455 0.062038 0.221006
0.628181 0.053292 0.179660
0.495097 0.086428 0.182959
0.573304 0.053311 0.207693
0.510233 0.008492 0.179628
0.606754 0.082299 0.217518
0.525452 -0.000652 0.165154
0.547956 0.015450 0.236908
0.570862 0.057949 0.237291
0.499087 -0.037193 0.154573
0.505493 0.030279 0.213840
0.527519 0.040637 0.225412
0.511727 0.093961 0.188875
0.530920 0.099190 0.203230
0.528234 -0.020964 0.206045
0.474056 0.046495 0.184598
0.603063 0.091017 0.177322
0.504479 0.067950 0.201457
0.596971 0.068046 0.154527
0.491938 0.015471 0.196134
0.503773 -0.012438 0.167176
0.560037 0.015376 0.213503
0.606931 0.014314 0.186141
0.602450 0.054913 0.166856
0.532797 -0.028490 0.183551
0.569446 -0.003865 0.194219
0.503888 0.089420 0.171269
0.550114 0.023001 0.224956
0.489423 -0.003041 0.212341
0.506854 -0.035020 0.183025
0.492776 0.033999 0.187957
0.484020 0.001387 0.174816
0.589827 -0.014408 0.189389
0.612826 0.079488 0.201899
0.481130 0.067967 0.168372
0.583779 0.046629 0.232576
0.598627 0.061653 0.218763
0.587539 0.076628 0.237274
0.553335 -0.031369 0.167021
0.584134 0.057674 0.201221
0.600628 0.012518 0.198840
0.602385 0.066897 0.178153
0.503161 0.069538 0.168272
0.482924 0.059440 0.188425
0.587420 0.044653 0.189056
0.568025 0.001082 0.161152
0.521286 0.087273 0.182808
0.564437 -0.006386 0.214579
0.480377 0.035483 0.185734
0.536132 0.115542 0.183360
0.562888 0.042921 0.230192
0.520798 -0.018377 0.196629
0.538456 0.042023 0.209165
0.547310 0.034402 0.232799
0.487695 0.008684 0.184044
0.525487 0.008887 0.176406
0.597757 0.084786 0.167623
0.616600 0.036296 0.193867
0.486861 -0.009540 0.198519
0.485582 0.031736 0.197653
0.550833 0.046897 0.226799
0.517369 -0.034193 0.167013
0.493608 0.000029 0.165551
0.487259 -0.012787 0.183842
0.496973 0.006296 0.202083
0.519189 0.108527 0.176508
0.567622 0.044072 0.212783
0.594931 0.087806 0.232212
0.567622 -0.023045 0.167418
0.571487 0.057373 0.220526
0.511636 -0.016083 0.151698
0.624982 0.096574 0.203735
0.591337 0.065588 0.234641
0.613853 0.041405 0.180495
0.515792 0.111589 0.198652
0.582338 0.059184 0.245337
0.510401 -0.005275 0.215388
0.577597 -0.019943 0.180301
0.595712 0.074255 0.213424
0.494901 0.076860 0.189735
0.608020 0.092555 0.211772
0.483452 0.078992 0.171560
0.587731 0.000246 0.180690
0.500579 0.021147 0.207904
0.530995 0.116794 0.194178
0.514014 0.006667 0.229557
0.488476 0.044370 0.172263
0.516551 -0.035013 0.189545
0.527512 0.104698 0.193596
0.614543 0.063776 0.204204
0.588777 0.031814 0.208388
0.496399 0.047067 0.203335
0.502335 -0.032167 0.193540
0.600431 0.028725 0.207507
0.504716 0.018487 0.194163
