ply
format ascii 1.0
element vertex 256
property float x
property float y
property float z
end_header
0.565660 -0.031208 0.150237
0.621222 0.082640 0.210556
0.493621 0.078621 0.168032
0.467589 -0.034500 0.175500
0.540400 0.012776 0.229031
0.615808 0.041837 0.134838
0.603467 0.007682 0.196359
0.556917 0.098045 0.171250
0.518306 0.006704 0.168439
0.512812 -0.041717 0.142851
0.581264 0.048725 0.217947
0.541484 -0.028319 0.198378
0.473966 0.030071 0.175618
0.499915 -0.005981 0.209173
0.620003 0.047740 0.181151
0.560335 0.009308 0.187596
0.513722 0.045129 0.152135
0.473903 -0.007767 0.147557
0.594170 -0.008131 0.161710
0.624766 0.013731 0.165364
0.578688 -0.033633 0.185491
0.527454 0.083949 0.153028
0.520556 0.027452 0.199365
0.503251 -0.037261 0.184617
0.616271 0.082243 0.174404
0.535499 -0.047523 0.167824
0.574220 0.015842 0.222828
0.615270 0.049926 0.217265
0.480984 -0.002628 0.181232
0.504739 0.051221 0.184074
0.549509 -0.004387 0.160499
0.587384 0.035022 0.189616
0.527983 0.090458 0.184106
0.484138 -0.049060 0.153198
0.483158 0.052301 0.154887
0.506438 -0.011819 0.147627
0.623740 0.062932 0.153933
0.559371 -0.007873 0.215766
0.495680 0.022650 0.151690
0.551882 0.028040 0.207736
0.498370 0.019492 0.183498
0.536697 -0.029142 0.137413
0.581051 -0.006540 0.195833
0.596653 0.031162 0.229678
0.485645 -0.027940 0.136136
0.594918 0.017515 0.172207
0.530565 -0.009625 0.184467
0.629118 0.037387 0.156361
0.602599 0.064749 0.188699
0.488822 -0.026382 0.163380
0.601880 -0.014624 0.184595
0.534760 -0.011072 0.215346
0.609811 0.032051 0.201023
0.569260 -0.013377 0.174874
0.505890 0.067565 0.145676
0.517846 -0.022271 0.200856
0.538227 0.019378 0.184996
0.516330 0.070948 0.169801
0.508402 -0.049085 0.165082
0.483556 0.059720 0.177102
0.487357 -0.021458 0.193133
0.519379 0.013889 0.217880
0.602480 0.069775 0.213658
0.608062 0.047244 0.161837
0.540423 0.078204 0.170376
0.557181 -0.046459 0.170871
0.538254 0.010614 0.204949
0.510977 0.092724 0.170787
0.587117 0.028292 0.210207
0.536303 0.100110 0.164330
0.610546 0.026686 0.153594
0.620598 0.026215 0.182405
0.500541 -0.004740 0.172699
0.617143 0.001063 0.181879
0.554036 -0.010802 0.188858
0.581465 0.013982 0.194215
0.483869 -0.046864 0.175402
0.622914 0.066746 0.187539
0.530774 -0.049612 0.147359
0.485084 0.014886 0.168616
0.492526 0.037518 0.164750
0.469109 -0.009802 0.166839
0.577505 -0.032959 0.166007
0.598629 0.050541 0.229794
0.488389 0.005720 0.197065
0.516750 -0.024010 0.136139
0.599226 0.048163 0.199728
0.565098 0.034202 0.220323
0.562355 0.008781 0.206741
0.608055 0.004949 0.160206
0.527766 -0.038184 0.182612
0.581955 0.000640 0.178251
0.603848 0.038206 0.179813
0.560724 -0.022131 0.201951
0.548504 -0.038050 0.148918
0.620635 0.064765 0.206136
0.496219 0.043916 0.145425
0.615352 0.061827 0.169957
0.488584 0.037793 0.182669
0.481034 0.034837 0.151294
0.542633 0.101001 0.181409
0.538697 0.006790 0.172493
0.496584 0.062563 0.160212
0.591148 -0.024607 0.174705
0.532780 -0.009083 0.158033
0.510417 0.088017 0.152550
0.499547 0.067768 0.180327
0.557125 0.018291 0.225215
0.505550 0.010395 0.207881
0.497386 -0.034239 0.147258
0.545524 -0.039581 0.181560
0.561131 0.002540 0.171781
0.507229 0.050604 0.167057
0.584899 0.010190 0.210667
0.569283 0.024545 0.199641
0.517761 0.014888 0.183282
0.562494 -0.038262 0.186544
0.580265 0.035596 0.228350
0.520339 0.063273 0.155538
0.575922 -0.017636 0.159612
0.608603 0.076512 0.199704
0.599770 0.003201 0.181062
0.611975 0.063725 0.225522
0.627542 0.050418 0.166938
0.489873 -0.007932 0.150787
0.550089 -0.021885 0.142859
0.596879 0.043034 0.215573
0.618402 0.050351 0.196956
0.535843 0.026805 0.204333
0.596709 0.023131 0.198293
0.520520 -0.008178 0.208480
0.547067 0.087497 0.159093
0.503023 -0.025066 0.195526
0.611154 0.023583 0.170023
0.511442 0.081194 0.181354
0.550421 0.006891 0.216958
0.549852 0.019057 0.195154
0.615974 0.051221 0.146832
0.574749 0.036979 0.206473
0.528936 0.003402 0.223333
0.606002 -0.008115 0.171229
0.521955 0.095589 0.160801
0.478690 0.043183 0.170044
0.586972 -0.013293 0.183800
0.613288 0.018602 0.193732
0.497897 -0.000779 0.187589
0.482575 -0.027111 0.180275
0.528480 0.076052 0.178746
0.505517 0.032527 0.156390
0.616529 0.037132 0.168225
0.493080 -0.017007 0.174399
0.485188 0.001691 0.162712
0.475839 0.016484 0.180170
0.506851 0.076446 0.160183
0.542686 0.020385 0.217126
0.521183 -0.013767 0.151283
0.570781 -0.041596 0.175024
0.556717 -0.002511 0.200287
0.549872 -0.014813 0.207377
0.582440 0.014737 0.179010
0.489502 -0.045777 0.140609
0.607617 0.040806 0.225068
0.628796 0.030592 0.171898
0.595365 -0.003383 0.193448
0.606041 0.059957 0.202960
0.627742 0.041667 0.143138
0.602195 0.028246 0.212086
0.505325 0.021029 0.198856
0.569498 -0.001111 0.188918
0.490294 0.008630 0.180171
0.607634 0.040197 0.148520
0.524018 0.082107 0.166337
0.585834 0.023353 0.223738
0.620142 0.037187 0.193049
0.543019 0.086286 0.181279
0.611008 0.075705 0.185316
0.519627 -0.033375 0.192580
0.610129 0.061662 0.155090
0.565494 0.022552 0.213174
0.497835 -0.021842 0.152907
0.606223 0.016237 0.180382
0.605939 0.055006 0.179873
0.489981 0.052618 0.167533
0.618146 0.031056 0.143357
0.523458 -0.042024 0.170354
0.563346 -0.023431 0.181605
0.505626 0.004760 0.164471
0.570517 -0.001836 0.202699
0.516502 0.076658 0.148849
0.624373 0.023102 0.155863
0.484099 -0.009275 0.197489
0.496819 -0.044277 0.169224
0.619187 0.014105 0.177450
0.608069 0.042302 0.191977
0.599115 0.057401 0.216461
0.495343 0.026013 0.170342
0.559089 -0.042636 0.155100
0.490681 0.059017 0.146638
0.593374 0.004597 0.164185
0.591679 0.027911 0.179210
0.615995 0.072248 0.216808
0.543654 -0.048544 0.154451
0.608772 0.041892 0.209812
0.606155 0.029539 0.189186
0.512633 0.056917 0.147885
0.622796 0.075521 0.200037
0.624877 0.073233 0.175537
0.568896 -0.025075 0.192685
0.552544 -0.032160 0.191016
0.607960 0.071955 0.173802
0.563558 -0.019033 0.148432
0.532803 0.073500 0.161682
0.590797 0.039680 0.203281
0.483509 0.029260 0.167136
0.551534 0.099318 0.160136
0.513559 0.065215 0.180388
0.487355 0.025905 0.179714
0.542579 -0.002339 0.219159
0.480925 -0.011597 0.163978
0.574543 0.025036 0.230974
0.512943 -0.029823 0.182919
0.579624 -0.008244 0.170144
0.595604 0.017771 0.209249
0.522491 -0.004119 0.162365
0.591633 0.007008 0.199238
0.480856 -0.015569 0.183716
0.503126 0.009097 0.179372
0.613809 0.016579 0.159485
0.507719 -0.045509 0.153497
0.551017 0.015975 0.206892
0.500372 0.039948 0.184516
0.590069 0.041932 0.231262
0.534122 0.093952 0.152979
0.630011 0.018998 0.175684
0.615225 0.057546 0.187375
0.576800 0.032560 0.194863
0.505379 -0.027044 0.137719
0.489187 0.049479 0.179154
0.530093 0.100031 0.174383
0.565411 -0.012132 0.206122
0.504355 -0.014809 0.201153
0.521418 0.023205 0.211009
0.491143 -0.009608 0.183830
0.576272 0.021470 0.208681
0.504681 0.067862 0.167872
0.494693 0.069797 0.148833
0.499140 0.012687 0.192945
0.546095 0.102527 0.170388
0.496796 0.014398 0.171151
0.509511 -0.003307 0.215208
0.493676 0.035121 0.153413
0.506225 -0.045700 0.176008
0.616965 0.041625 0.156943
0.540933 0.091043 0.170897
0.488437 -0.006798 0.171343
0.492567 -0.040505 0.179559
