ply
format ascii 1.0
element vertex 256
property float x
property float y
property float z
end_header
0.476487 0.002956 0.238911
0.476109 0.127026 0.172583
0.420752 0.092189 0.258087
0.513128 0.035311 0.150691
0.538865 0.082325 0.235461
0.409493 0.019036 0.275764
0.484105 0.063517 0.276565
0.545913 0.096319 0.166830
0.533788 0.020128 0.213277
0.425317 0.096217 0.195391
0.449576 0.047348 0.245952
0.499247 0.044752 0.235601
0.432570 0.061809 0.292127
0.526563 0.063354 0.193482
0.470676 0.091326 0.244710
0.460751 0.017903 0.277595
0.448953 0.128662 0.204751
0.401735 0.057020 0.260485
0.430211 0.074912 0.226161
0.495825 0.027767 0.268541
0.556288 0.085542 0.203063
0.432252 0.011557 0.247865
0.505253 0.084049 0.254436
0.525634 0.068822 0.156037
0.533868 0.027497 0.178462
0.451175 0.088443 0.275903
0.459366 0.099562 0.188071
0.511470 0.010300 0.238200
0.436452 0.113129 0.232992
0.510239 0.038537 0.205309
0.528990 0.055166 0.224675
0.459587 0.048124 0.287718
0.476577 0.062369 0.242434
0.432499 0.032581 0.288486
0.511456 0.079606 0.225905
0.413340 0.097946 0.224441
0.511014 0.058124 0.264258
0.445785 0.074959 0.251872
0.423894 0.039644 0.263056
0.511424 0.051961 0.173276
0.470100 0.034821 0.233488
0.530745 0.091739 0.209269
0.438223 0.115481 0.181969
0.425663 0.065919 0.266569
0.543412 0.070368 0.174596
0.481807 0.006594 0.265154
0.444681 0.099746 0.213019
0.469942 0.046564 0.261178
0.414837 0.045917 0.300759
0.480575 0.091875 0.267686
0.455528 0.002040 0.259044
0.424709 0.116151 0.211224
0.521911 0.032094 0.232251
0.539600 0.041777 0.197995
0.531070 0.088861 0.185259
0.462191 0.108957 0.165196
0.507697 0.027896 0.172796
0.510377 0.015146 0.210347
0.433864 0.013172 0.274925
0.545418 0.062071 0.208493
0.407266 0.062609 0.282521
0.468886 0.118843 0.195987
0.514150 0.064970 0.242835
0.531716 0.046680 0.166203
0.502191 0.008607 0.258187
0.451414 0.007376 0.238665
0.497472 0.080613 0.274261
0.489222 0.082560 0.239276
0.437172 0.095176 0.245048
0.519162 0.021823 0.192204
0.477712 0.037383 0.278261
0.499936 0.024625 0.228949
0.511952 0.062234 0.214964
0.458091 0.068200 0.283906
0.454962 0.127290 0.184021
0.511460 0.055433 0.150575
0.503409 0.041544 0.255609
0.481685 0.107722 0.172816
0.551165 0.087475 0.183869
0.520782 0.087863 0.241480
0.523548 0.042359 0.186167
0.491367 0.069336 0.259251
0.419003 0.103867 0.242708
0.435130 0.083636 0.208182
0.521983 0.069278 0.175817
0.412939 0.077569 0.233749
0.527707 0.072924 0.209824
0.527271 0.039082 0.213461
0.470807 0.082039 0.282110
0.546164 0.079369 0.217718
0.404000 0.031215 0.262553
0.540716 0.076083 0.196889
0.439757 0.078729 0.286610
0.539689 0.022314 0.195109
0.523426 0.026719 0.163236
0.449494 0.117056 0.218889
0.489286 0.048038 0.268389
0.538794 0.051591 0.182272
0.457813 0.065577 0.241901
0.459221 0.090934 0.259787
0.428282 0.078106 0.248650
0.426234 0.029785 0.248251
0.443060 0.066065 0.270218
0.444134 0.112437 0.198340
0.493463 0.004550 0.242842
0.535760 0.081094 0.163166
0.443288 0.093447 0.196417
0.524624 0.014738 0.227831
0.488840 0.048506 0.248762
0.510379 0.029892 0.244713
0.418511 0.084412 0.215360
0.477288 0.020641 0.273442
0.420257 0.053247 0.277290
0.439569 0.058751 0.255464
0.524496 0.052054 0.241106
0.416481 0.031052 0.292390
0.447634 0.100098 0.233223
0.427852 0.091743 0.231872
0.483560 0.047624 0.231763
0.487433 0.029302 0.238378
0.449910 0.105769 0.176360
0.416459 0.051960 0.255677
0.440016 0.089199 0.259757
0.465482 0.115879 0.179370
0.528864 0.056960 0.208420
0.512002 0.052767 0.227944
0.417490 0.099224 0.209014
0.465270 0.051269 0.244472
0.510321 0.033619 0.220838
0.542902 0.092769 0.198265
0.515491 0.051045 0.196983
0.499791 0.071520 0.244472
0.425707 0.081542 0.268851
0.527503 0.073352 0.243338
0.523508 0.069577 0.227719
0.493521 0.026601 0.253071
0.504334 0.087024 0.239196
0.471020 0.057419 0.282202
0.445688 0.041888 0.290206
0.522591 0.090282 0.225848
0.444724 0.019446 0.283773
0.417377 0.062562 0.294103
0.515906 0.039657 0.165225
0.490633 0.085792 0.257664
0.438245 0.006297 0.262288
0.541917 0.061795 0.192783
0.427384 0.112759 0.196952
0.421911 0.022369 0.260391
0.435674 0.122163 0.221215
0.479406 0.114978 0.186386
0.524556 0.049299 0.153510
0.441749 0.034860 0.246586
0.509162 0.051427 0.246326
0.421904 0.036761 0.277256
0.490525 0.013624 0.230755
0.447148 0.062254 0.291813
0.457899 0.117359 0.207120
0.463651 0.040166 0.276352
0.427960 0.105341 0.224299
0.522642 0.033917 0.199210
0.537956 0.068222 0.221582
0.523527 0.055981 0.180978
0.438635 0.101657 0.185568
0.442429 0.090692 0.223785
0.416913 0.089941 0.244505
0.497406 0.059217 0.271417
0.505094 0.012572 0.223752
0.503063 0.035925 0.160866
0.480402 0.117685 0.162977
0.473958 0.000025 0.252417
0.532922 0.096328 0.173510
0.458415 0.084657 0.245848
0.533770 0.072337 0.184505
0.522771 0.058916 0.165320
0.505994 0.048218 0.216305
0.431163 0.048200 0.252330
0.549288 0.091881 0.212888
0.433017 0.056813 0.274451
0.482922 0.094532 0.249482
0.454270 0.036776 0.238986
0.453716 0.029186 0.279746
0.519317 0.031012 0.180323
0.442634 0.079948 0.269974
0.546988 0.082873 0.171326
0.457402 0.114881 0.190641
0.536632 0.065993 0.164060
0.461553 0.006171 0.271525
0.434700 0.048758 0.292857
0.507817 0.019936 0.254387
0.476349 0.080015 0.238141
0.467842 0.089730 0.270277
0.434633 0.019494 0.258870
0.440967 0.123761 0.191656
0.522226 0.078279 0.166430
0.522417 0.016508 0.205641
0.509747 0.025410 0.202457
0.437149 0.117443 0.207933
0.428655 0.076149 0.280682
0.534022 0.030513 0.204101
0.531019 0.040717 0.225626
0.511513 0.024425 0.159228
0.425781 0.039474 0.299437
0.460423 0.128265 0.197325
0.467751 0.101454 0.173831
0.518997 0.063983 0.203638
0.504381 0.072181 0.258631
0.519162 0.080356 0.216004
0.435868 0.022685 0.243315
0.486829 0.078696 0.267235
0.473909 0.011724 0.230402
0.470701 0.104594 0.186669
0.484937 0.072387 0.245082
0.500935 0.039136 0.268366
0.490140 0.015785 0.264108
0.538825 0.034403 0.188008
0.504070 0.088304 0.266041
0.543205 0.096758 0.181880
0.489854 0.004182 0.254676
0.515619 0.074092 0.250990
0.526721 0.029021 0.221341
0.414292 0.063043 0.262895
0.437774 0.071815 0.260540
0.541586 0.088794 0.225482
0.520693 0.044918 0.231230
0.528620 0.038349 0.174480
0.517199 0.021174 0.234944
0.473319 0.069012 0.277191
0.537533 0.079994 0.209268
0.535486 0.047938 0.213968
0.499187 0.031833 0.239190
0.532336 0.061340 0.234466
0.516492 0.076405 0.239207
0.434331 0.100549 0.202080
0.451419 0.102940 0.197232
0.468854 0.118774 0.166728
0.532501 0.062439 0.176464
0.449214 0.003214 0.269102
0.515450 0.040639 0.245388
0.496038 0.091044 0.246693
0.458024 0.080045 0.283378
0.499708 0.054746 0.252589
0.536150 0.079642 0.175331
0.474726 0.125685 0.184747
0.425630 0.090627 0.208006
0.503674 0.022795 0.216256
0.430999 0.024132 0.280462
0.424156 0.110916 0.234856
0.530977 0.019674 0.186695
0.516898 0.051461 0.213543
0.512589 0.050765 0.161240
0.483077 0.068309 0.234349
0.428734 0.105341 0.211140
0.519071 0.021678 0.173676
0.421905 0.083461 0.226248
0.520531 0.014390 0.217160
0.438073 0.087460 0.234540
