ply
format ascii 1.0
element vertex 256
property float x
property float y
property float z
end_header
0.562115 -0.023921 0.122509
0.640767 0.087418 0.178663
0.500169 0.099757 0.154388
0.471148 -0.025340 0.167117
0.551816 0.027666 0.200059
0.618766 0.047962 0.097823
0.605926 0.016519 0.158452
0.489406 0.033862 0.137466
0.527471 -0.020460 0.174366
0.500458 -0.021491 0.121981
0.601655 0.054634 0.194628
0.550175 0.109694 0.147477
0.611255 0.068259 0.142292
0.540160 0.020015 0.149147
0.501203 0.017278 0.185036
0.489940 0.060864 0.170950
0.573551 -0.013478 0.162636
0.634971 0.024238 0.130035
0.532267 -0.044763 0.135066
0.471046 -0.001542 0.135988
0.575508 0.038623 0.172156
0.485905 0.071046 0.132842
0.594368 0.000348 0.127472
0.636109 0.069938 0.118427
0.506081 0.006039 0.149203
0.530164 0.042184 0.177834
0.499354 -0.038146 0.149941
0.474677 0.030398 0.165990
0.555653 -0.000284 0.185695
0.615263 0.046371 0.164618
0.528973 0.087746 0.157616
0.607116 0.037693 0.134608
0.633959 0.088568 0.143325
0.523232 0.107069 0.135495
0.496291 -0.015704 0.178979
0.551413 -0.031875 0.156766
0.614032 0.075719 0.177945
0.531137 -0.023381 0.115612
0.575069 0.017266 0.153655
0.558535 0.005335 0.133663
0.531111 0.000474 0.131508
0.507507 0.071896 0.151511
0.528833 0.004586 0.186070
0.485110 0.005272 0.167251
0.473891 0.051410 0.150443
0.632502 0.049084 0.137071
0.591219 0.052099 0.156861
0.596095 -0.006771 0.152133
0.584159 0.034333 0.195894
0.617554 0.007014 0.137798
0.537665 -0.003026 0.159213
0.555610 0.023357 0.172298
0.501409 0.029409 0.163440
0.574811 -0.032159 0.146453
0.485993 -0.039948 0.129821
0.530980 0.111521 0.161817
0.598845 0.031009 0.176242
0.503617 0.055091 0.134685
0.482513 0.078713 0.155229
0.615525 0.058961 0.121280
0.505477 0.089452 0.134470
0.618749 0.029101 0.114720
0.629501 0.059432 0.181890
0.584639 0.058013 0.180000
0.625965 0.069021 0.159474
0.623523 0.031856 0.148903
0.489318 -0.018342 0.150249
0.591496 0.019347 0.138553
0.577258 -0.011449 0.133551
0.525066 -0.032941 0.151641
0.511439 -0.041482 0.131332
0.528975 0.027485 0.193294
0.557819 0.041113 0.183772
0.548197 -0.016966 0.171260
0.632961 0.043897 0.112957
0.510192 0.084547 0.167452
0.557840 0.000223 0.160482
0.554481 -0.038715 0.137805
0.586029 0.015228 0.170525
0.484853 0.009490 0.147569
0.503998 0.052525 0.155231
0.506870 -0.029733 0.166471
0.520488 0.024947 0.159795
0.605795 0.017689 0.124674
0.470237 -0.001640 0.155944
0.597271 0.033085 0.151649
0.487418 -0.037531 0.164972
0.544109 0.038517 0.165475
0.572451 0.000740 0.175160
0.511722 -0.002874 0.182819
0.480835 -0.022687 0.124483
0.515661 0.030543 0.179799
0.604679 0.059984 0.174239
0.488691 0.044600 0.162231
0.538717 0.094715 0.143583
0.482455 0.051666 0.134140
0.517074 -0.012852 0.120852
0.579120 0.000233 0.148687
0.503046 -0.005329 0.129932
0.629253 0.069867 0.140213
0.507019 0.065851 0.168801
0.566542 0.026152 0.188342
0.617151 0.048718 0.145996
0.515705 0.108651 0.153246
0.628476 0.085946 0.165962
0.617287 0.048476 0.188117
0.618790 0.084009 0.135892
0.545234 -0.030986 0.125335
0.502314 0.009656 0.169514
0.487225 0.027236 0.153109
0.520639 0.085383 0.141262
0.514822 -0.030954 0.118344
0.526516 0.009655 0.145104
0.486628 0.063280 0.147941
0.544266 0.012663 0.197603
0.638291 0.071698 0.172846
0.490998 0.002111 0.182764
0.543587 0.031281 0.185841
0.611484 0.044055 0.114805
0.628024 0.076885 0.186804
0.605154 0.061059 0.157058
0.520442 0.099031 0.166223
0.533845 0.114489 0.145850
0.573057 0.046542 0.186527
0.499369 -0.004638 0.159693
0.493919 0.083840 0.166171
0.622408 0.037267 0.128978
0.545139 -0.015510 0.117523
0.616240 0.066443 0.190977
0.605413 -0.003507 0.139411
0.487338 -0.001262 0.135951
0.566422 -0.027267 0.159228
0.601917 0.039207 0.191096
0.536159 -0.009657 0.181799
0.495816 0.083001 0.148015
0.624020 0.059042 0.107654
0.507194 0.072397 0.135815
0.621206 0.074702 0.117991
0.488616 0.021972 0.168342
0.593861 0.003956 0.163187
0.590370 -0.016111 0.141180
0.594796 0.048234 0.172661
0.610318 0.023314 0.138637
0.556108 0.015810 0.144457
0.626988 0.016730 0.144746
0.513883 0.012396 0.191689
0.543199 0.102786 0.160062
0.583055 0.026321 0.180297
0.556889 0.014698 0.186379
0.622310 0.080961 0.150157
0.611383 0.032129 0.157623
0.494313 0.044358 0.147459
0.619155 0.062921 0.171190
0.501593 0.048966 0.169436
0.597927 0.007084 0.147301
0.482367 -0.015776 0.166049
0.476120 0.055483 0.164474
0.531074 -0.036976 0.122698
0.564195 -0.012224 0.173824
0.513796 -0.042088 0.150408
0.507831 0.102593 0.140224
0.586046 0.025196 0.158808
0.483728 -0.040431 0.151368
0.494720 -0.027736 0.133589
0.601354 0.046661 0.148248
0.581951 -0.022651 0.154501
0.509460 0.090244 0.149026
0.569482 0.021120 0.175097
0.568306 -0.011110 0.121018
0.516926 -0.019602 0.164797
0.630806 0.057835 0.123784
0.562510 0.009653 0.170271
0.619539 0.059568 0.134845
0.585140 0.039831 0.154365
0.574771 0.006029 0.162583
0.621617 0.022534 0.127077
0.546977 -0.001268 0.137144
0.589619 0.048096 0.193492
0.575123 -0.024892 0.131645
0.626423 0.057579 0.151896
0.495943 -0.014826 0.137788
0.531616 -0.027843 0.162349
0.536511 -0.038581 0.147301
0.494338 -0.025481 0.168962
0.503631 0.098377 0.167317
0.522713 0.098566 0.147865
0.606599 0.042099 0.174314
0.610781 0.005076 0.149906
0.543778 0.005423 0.186477
0.562319 0.035552 0.172771
0.587994 0.004160 0.139268
0.606364 0.005466 0.129316
0.489931 0.083787 0.136362
0.500060 0.017687 0.157923
0.585049 0.027996 0.145593
0.569650 0.036435 0.195428
0.623332 0.047074 0.120676
0.476794 0.036043 0.154765
0.597580 0.062170 0.184560
0.518802 -0.006050 0.131361
0.586221 0.011948 0.151089
0.543564 0.115031 0.157103
0.491699 0.059938 0.135976
0.485821 0.074286 0.166746
0.565868 -0.013010 0.152786
0.599683 0.029742 0.163852
0.540756 0.029738 0.156922
0.536232 0.107879 0.135577
0.563207 0.020146 0.156014
0.630367 0.074756 0.128291
0.511696 -0.012590 0.175135
0.641042 0.088176 0.166305
0.588175 0.037874 0.172234
0.481293 -0.003631 0.150963
0.630906 0.032559 0.116943
0.482929 0.015320 0.158103
0.476408 0.062752 0.154725
0.568333 0.005913 0.185354
0.487142 0.034678 0.169006
0.631163 0.032297 0.139582
0.482729 0.045148 0.144307
0.582816 0.048957 0.171913
0.496759 0.045074 0.135725
0.480761 0.074214 0.144256
0.590282 0.035145 0.185681
0.533049 0.102479 0.153877
0.539005 0.018046 0.188467
0.515750 0.095429 0.135225
0.557394 -0.020815 0.164982
0.515707 0.005618 0.142424
0.613819 0.023498 0.149879
0.620604 0.037034 0.106277
0.478409 0.062035 0.137847
0.545454 0.038932 0.177105
0.563651 -0.002233 0.140988
0.615123 0.067250 0.155479
0.504226 0.023606 0.173163
0.517434 0.023158 0.188656
0.630323 0.087291 0.132334
0.545067 0.023029 0.177200
0.625249 0.084750 0.177064
0.617131 0.032693 0.139149
0.612897 0.058436 0.183297
0.621517 0.076756 0.167084
0.489936 0.002579 0.155410
0.531684 0.096891 0.164048
0.502818 0.079301 0.160422
0.596399 0.038089 0.141380
0.575465 0.027251 0.162658
0.623718 0.055757 0.162851
0.636513 0.078958 0.137777
0.485257 -0.005575 0.170607
0.595006 0.013123 0.129737
0.631763 0.060203 0.134856
0.564285 0.008347 0.155922
0.632995 0.041214 0.123958
