ply
format ascii 1.0
element vertex 256
property float x
property float y
property float z
end_header
0.327812 0.114327 0.178447
0.456470 0.163935 0.127535
0.339354 0.252195 0.156131
0.284136 0.187795 0.232869
0.382508 0.185226 0.206066
0.392944 0.110954 0.118215
0.387318 0.222461 0.120278
0.323252 0.177440 0.181076
0.410952 0.143147 0.169142
0.286444 0.141613 0.200852
0.309037 0.227682 0.194739
0.348395 0.148042 0.215190
0.377570 0.105349 0.171906
0.337276 0.194682 0.221874
0.323001 0.211758 0.152627
0.415815 0.147696 0.123266
0.363947 0.156170 0.175447
0.276174 0.192070 0.194742
0.399529 0.180492 0.171691
0.411608 0.108621 0.151491
0.434154 0.170448 0.157777
0.351381 0.230430 0.128190
0.353346 0.199147 0.184971
0.311987 0.164260 0.227126
0.380218 0.134303 0.152474
0.316729 0.130036 0.211847
0.356071 0.118161 0.201181
0.306313 0.199127 0.210990
0.333470 0.146184 0.172228
0.341514 0.228182 0.176753
0.385254 0.135185 0.185879
0.372835 0.243913 0.146989
0.273836 0.159867 0.223011
0.312759 0.238041 0.164342
0.295166 0.167003 0.185470
0.357227 0.127415 0.172621
0.413124 0.133619 0.097807
0.439998 0.149517 0.108389
0.378343 0.154502 0.205106
0.325683 0.204270 0.188948
0.298896 0.215206 0.172245
0.301234 0.131619 0.179886
0.428591 0.143323 0.148152
0.391574 0.158975 0.156945
0.420356 0.166178 0.181344
0.372380 0.181092 0.179532
0.326620 0.234108 0.139302
0.399694 0.130879 0.135370
0.269000 0.167224 0.197284
0.337367 0.163383 0.197718
0.291087 0.174623 0.211850
0.361778 0.169264 0.216231
0.432343 0.166747 0.132591
0.397408 0.165991 0.194186
0.416848 0.123135 0.119852
0.337379 0.169073 0.221339
0.377242 0.110535 0.148564
0.396600 0.123707 0.168246
0.346280 0.224692 0.153953
0.297453 0.146850 0.221330
0.361769 0.196945 0.206239
0.369020 0.222018 0.141858
0.343017 0.168015 0.175559
0.410526 0.103084 0.129751
0.411960 0.170530 0.156208
0.332710 0.116729 0.204914
0.372128 0.237904 0.123078
0.317181 0.188090 0.226831
0.408741 0.112570 0.103301
0.349060 0.249507 0.137470
0.360150 0.166602 0.193441
0.299544 0.186312 0.192502
0.405724 0.151174 0.143708
0.445732 0.154697 0.145276
0.435720 0.144161 0.128680
0.325509 0.242716 0.179899
0.290350 0.168472 0.235306
0.361624 0.136508 0.194369
0.357109 0.241098 0.159579
0.318407 0.185405 0.199554
0.415062 0.128636 0.150850
0.298402 0.125493 0.202413
0.357960 0.109846 0.182963
0.318527 0.221552 0.174260
0.325012 0.206450 0.210585
0.395795 0.103826 0.163749
0.381639 0.146964 0.170099
0.286467 0.200120 0.209847
0.386092 0.233374 0.136651
0.397613 0.155573 0.177719
0.401195 0.134853 0.116368
0.393833 0.105303 0.140076
0.289521 0.148326 0.182976
0.303426 0.207098 0.193675
0.325472 0.146114 0.217394
0.425160 0.155001 0.165195
0.378279 0.160656 0.186769
0.373030 0.120694 0.182302
0.314101 0.121288 0.188763
0.366060 0.220378 0.123453
0.328467 0.225728 0.189108
0.309391 0.222588 0.156119
0.328789 0.237508 0.156813
0.393502 0.121243 0.148744
0.394682 0.140152 0.160527
0.319860 0.153888 0.180189
0.299160 0.183775 0.225118
0.344901 0.201062 0.207635
0.282356 0.158518 0.204143
0.335304 0.132620 0.211097
0.362517 0.111275 0.165941
0.350954 0.146231 0.170069
0.421373 0.134224 0.132137
0.372934 0.132336 0.168154
0.336139 0.187823 0.184780
0.365190 0.182616 0.194916
0.332239 0.215686 0.166739
0.429121 0.157424 0.118252
0.340019 0.246662 0.171492
0.362633 0.148830 0.207389
0.389962 0.169824 0.180217
0.315711 0.128825 0.173234
0.337771 0.240859 0.129747
0.421013 0.154882 0.139819
0.348887 0.178815 0.215291
0.357210 0.184179 0.175681
0.317424 0.214936 0.199349
0.378377 0.170879 0.198965
0.342103 0.108941 0.182959
0.353148 0.131662 0.208863
0.407547 0.116856 0.138644
0.314250 0.206938 0.164794
0.340237 0.239642 0.146302
0.422433 0.134952 0.111263
0.397101 0.122983 0.107199
0.338058 0.223075 0.140877
0.442867 0.164672 0.120080
0.355034 0.152848 0.188425
0.360690 0.235003 0.141543
0.445866 0.169128 0.139550
0.405788 0.170910 0.181727
0.368391 0.185232 0.213310
0.305126 0.230164 0.174850
0.371927 0.141964 0.183542
0.304566 0.181264 0.210577
0.313400 0.210495 0.183177
0.413812 0.143011 0.154582
0.357198 0.252160 0.149736
0.345130 0.119044 0.171016
0.323554 0.173865 0.221772
0.365294 0.246018 0.133256
0.393009 0.179587 0.192165
0.311387 0.178350 0.189164
0.383961 0.118160 0.173247
0.432107 0.157029 0.150601
0.395424 0.141420 0.146287
0.415785 0.175018 0.169185
0.394645 0.136285 0.174660
0.449032 0.152477 0.131481
0.306350 0.156711 0.183584
0.411035 0.156533 0.158481
0.405826 0.105515 0.115824
0.269107 0.154343 0.210963
0.409994 0.142797 0.107926
0.393945 0.119456 0.129699
0.341542 0.205308 0.194779
0.366672 0.197629 0.188793
0.402505 0.128599 0.156761
0.333339 0.160888 0.182225
0.329090 0.158001 0.223253
0.318137 0.231554 0.150719
0.290536 0.168067 0.198878
0.347427 0.135049 0.178230
0.412653 0.158567 0.173164
0.385168 0.162890 0.169609
0.432269 0.165021 0.170817
0.312778 0.142725 0.214087
0.409452 0.138417 0.140714
0.350595 0.234478 0.169185
0.386548 0.235411 0.123412
0.424594 0.147903 0.108875
0.397029 0.170165 0.163745
0.317207 0.198041 0.203295
0.360833 0.172900 0.181852
0.294734 0.159279 0.224874
0.388236 0.147701 0.182517
0.388577 0.183079 0.180291
0.374414 0.225161 0.114510
0.377480 0.185061 0.191043
0.367197 0.154957 0.192820
0.313212 0.234674 0.184114
0.360328 0.234263 0.118716
0.323709 0.112942 0.191814
0.289909 0.193330 0.197828
0.357779 0.124911 0.185393
0.373257 0.235058 0.136338
0.381676 0.123287 0.159079
0.445030 0.165160 0.152777
0.311837 0.119535 0.201255
0.405824 0.140289 0.128580
0.324577 0.197156 0.221742
0.368353 0.120000 0.158693
0.355337 0.221320 0.136133
0.401273 0.101263 0.151720
0.401010 0.113764 0.156202
0.352729 0.242894 0.126325
0.303489 0.218542 0.188047
0.386797 0.105345 0.154885
0.412683 0.127471 0.108751
0.325505 0.234847 0.170163
0.328968 0.123145 0.169684
0.343810 0.122330 0.204253
0.424479 0.166768 0.149224
0.339904 0.111269 0.194975
0.407039 0.119270 0.126491
0.331525 0.183339 0.221380
0.372077 0.170763 0.209625
0.435823 0.141420 0.116661
0.319076 0.161887 0.217315
0.434055 0.151726 0.138184
0.318129 0.165586 0.183260
0.343312 0.178292 0.182156
0.437531 0.155274 0.161371
0.373827 0.144523 0.199848
0.289784 0.146006 0.211952
0.371414 0.231781 0.148670
0.288363 0.181961 0.190901
0.292648 0.186481 0.213269
0.439898 0.152109 0.120195
0.326676 0.224354 0.146167
0.377226 0.170287 0.178351
0.373774 0.108466 0.161076
0.282664 0.154691 0.190289
0.313567 0.192715 0.191576
0.323116 0.243314 0.145881
0.307505 0.196603 0.222491
0.366309 0.160441 0.209212
0.408209 0.117082 0.114600
0.435603 0.170209 0.145229
0.351386 0.130865 0.193299
0.303302 0.191937 0.202087
0.367848 0.130715 0.179156
0.351518 0.241201 0.148868
0.330866 0.202277 0.199209
0.348407 0.191704 0.220174
0.305021 0.153997 0.226546
0.363018 0.232859 0.129940
0.374631 0.108934 0.182508
0.337629 0.219851 0.183767
0.300709 0.167925 0.230229
0.344953 0.241580 0.162037
0.421131 0.154525 0.153164
0.388070 0.131178 0.144608
0.396177 0.123272 0.118692
0.400355 0.110126 0.131799
0.310474 0.218100 0.166591
