ply
format ascii 1.0
element vertex 256
property float x
property float y
property float z
end_header
0.479909 0.008937 0.243129
0.468998 0.133587 0.178996
0.410545 0.091191 0.257555
0.542674 0.093197 0.241307
0.513518 0.048254 0.160461
0.408010 0.014939 0.273119
0.482477 0.075435 0.284769
0.531949 0.110983 0.180373
0.536891 0.033927 0.217898
0.423084 0.093982 0.197799
0.432931 0.058751 0.296988
0.455815 0.056781 0.246172
0.513408 0.049962 0.256354
0.462216 0.027065 0.280417
0.527462 0.070380 0.195209
0.441949 0.107823 0.233593
0.501139 0.089871 0.248811
0.437900 0.017990 0.243968
0.397612 0.052926 0.259508
0.437984 0.129851 0.201719
0.444476 0.087455 0.274493
0.427795 0.073434 0.229107
0.550205 0.098096 0.207266
0.448599 0.106077 0.178638
0.498806 0.020555 0.268577
0.519881 0.067428 0.227868
0.513176 0.021955 0.238213
0.486100 0.048453 0.238251
0.468451 0.099110 0.256874
0.520687 0.035322 0.188732
0.411232 0.103769 0.225648
0.407584 0.040266 0.300217
0.433078 0.061185 0.265893
0.521837 0.076329 0.166211
0.484988 0.045548 0.281759
0.457190 0.004267 0.260665
0.434890 0.030305 0.292433
0.463898 0.115272 0.200824
0.518339 0.099782 0.228159
0.461300 0.058282 0.289466
0.420469 0.037644 0.259425
0.510807 0.042410 0.220731
0.479426 0.074777 0.243507
0.542965 0.074980 0.218228
0.505039 0.065394 0.275674
0.523226 0.073788 0.254398
0.432742 0.009322 0.270138
0.491084 0.096377 0.273297
0.444321 0.099797 0.209987
0.528300 0.109501 0.204723
0.539136 0.087075 0.179790
0.465994 0.049805 0.267070
0.413979 0.053964 0.278922
0.541615 0.051138 0.199055
0.487637 0.057263 0.260503
0.523140 0.099211 0.253037
0.460707 0.083461 0.290351
0.527879 0.047312 0.235363
0.418086 0.076656 0.273644
0.526538 0.054601 0.178305
0.478626 0.010788 0.270738
0.424347 0.120167 0.217570
0.446565 0.075625 0.255234
0.522138 0.083546 0.212711
0.406120 0.083011 0.231245
0.468622 0.114074 0.168876
0.429707 0.094383 0.248429
0.539436 0.105812 0.224366
0.437072 0.044715 0.248382
0.481377 0.079999 0.264176
0.521328 0.052440 0.205545
0.521100 0.092588 0.187619
0.498540 0.034170 0.245870
0.431419 0.113683 0.186585
0.433238 0.082894 0.211660
0.423257 0.074674 0.254222
0.501131 0.061763 0.245553
0.437000 0.077292 0.290373
0.448558 0.043896 0.283675
0.470749 0.095347 0.277779
0.413390 0.085393 0.212720
0.537788 0.056110 0.220334
0.505330 0.083654 0.267004
0.470765 0.038409 0.245195
0.462733 0.016692 0.237778
0.447337 0.124955 0.183338
0.511250 0.067001 0.179603
0.497741 0.012836 0.250805
0.544404 0.112124 0.194914
0.526062 0.082858 0.238109
0.402582 0.027428 0.260173
0.506512 0.041434 0.176479
0.417573 0.107535 0.242946
0.437757 0.090846 0.227872
0.418087 0.033722 0.277129
0.517633 0.029530 0.210038
0.534406 0.091549 0.201454
0.525836 0.093745 0.168348
0.529112 0.029089 0.234152
0.450926 0.119927 0.212234
0.455197 0.133251 0.198220
0.446148 0.019592 0.282747
0.509405 0.048072 0.237998
0.417094 0.106425 0.209198
0.464031 0.072380 0.251397
0.498973 0.042706 0.262749
0.408890 0.057543 0.294963
0.411789 0.026337 0.291159
0.460883 0.010772 0.275871
0.421515 0.020733 0.259492
0.454087 0.040089 0.242842
0.523255 0.039539 0.171361
0.509933 0.080993 0.229095
0.432021 0.112230 0.203348
0.533382 0.034526 0.199721
0.518516 0.037090 0.246949
0.469919 0.108859 0.184605
0.442386 0.100167 0.192867
0.422087 0.068952 0.289779
0.422418 0.089704 0.234385
0.532509 0.090575 0.223427
0.480905 0.122491 0.176401
0.398084 0.059492 0.274520
0.552963 0.096639 0.224360
0.533004 0.069760 0.179887
0.483348 0.089187 0.249994
0.466709 0.043502 0.285797
0.519317 0.059532 0.243560
0.544046 0.080413 0.194943
0.493416 0.021629 0.237308
0.527664 0.068241 0.211066
0.428177 0.021930 0.280534
0.497274 0.071334 0.257582
0.512087 0.062683 0.214917
0.509185 0.075385 0.244937
0.431824 0.088968 0.265160
0.493055 0.033353 0.276273
0.476728 0.032583 0.279334
0.534972 0.041722 0.181231
0.446951 0.118058 0.197271
0.449538 0.068248 0.289814
0.542700 0.064568 0.206537
0.437550 0.073497 0.273961
0.419687 0.057434 0.259317
0.491769 0.061203 0.281975
0.426907 0.112157 0.231785
0.519724 0.089056 0.263728
0.510026 0.100189 0.242537
0.518790 0.057497 0.190720
0.498768 0.048823 0.277096
0.540378 0.099389 0.188286
0.537280 0.074683 0.232752
0.426216 0.029466 0.248415
0.438121 0.119475 0.222947
0.542510 0.111566 0.209554
0.512841 0.025460 0.223363
0.453083 0.095354 0.265529
0.420284 0.047514 0.298634
0.470812 0.124195 0.191402
0.456761 0.103156 0.193091
0.408533 0.096268 0.240664
0.506934 0.059865 0.229859
0.494858 0.075503 0.273846
0.433613 0.062619 0.251802
0.465195 0.071186 0.284929
0.515583 0.063701 0.165055
0.523848 0.080523 0.180352
0.526051 0.102697 0.239626
0.482386 0.059288 0.246462
0.476324 0.004738 0.256049
0.457862 0.121720 0.173416
0.492226 0.092957 0.259946
0.529998 0.068901 0.243413
0.533347 0.045270 0.210942
0.413548 0.082009 0.247776
0.530006 0.087096 0.250563
0.508990 0.021213 0.251185
0.545139 0.088042 0.215177
0.511817 0.053704 0.174378
0.531967 0.061426 0.231199
0.537935 0.099363 0.212666
0.525385 0.105777 0.190827
0.507381 0.035380 0.234377
0.525987 0.039397 0.224788
0.427067 0.055001 0.276880
0.508433 0.096634 0.257570
0.535975 0.078864 0.207667
0.451984 0.087482 0.253161
0.482860 0.088567 0.283647
0.513323 0.085679 0.252114
0.471042 0.085377 0.247251
0.458143 0.091666 0.278771
0.434571 0.019355 0.259239
0.530443 0.051639 0.190706
0.511912 0.062908 0.255892
0.444175 0.005711 0.265060
0.415382 0.076581 0.224841
0.468346 0.055445 0.243148
0.522010 0.082985 0.196261
0.479910 0.092512 0.267168
0.511318 0.045620 0.187635
0.527741 0.065217 0.169190
0.513637 0.042051 0.208297
0.437993 0.090790 0.202982
0.523914 0.048062 0.249749
0.455853 0.114976 0.183798
0.423899 0.036516 0.293856
0.507287 0.027941 0.263097
0.439444 0.048425 0.294264
0.501294 0.051580 0.253731
0.477257 0.017998 0.234959
0.421963 0.101418 0.219344
0.515790 0.074639 0.218767
0.457669 0.131439 0.184619
0.521499 0.049041 0.218685
0.538034 0.103501 0.236224
0.433594 0.086643 0.279789
0.533141 0.097916 0.178684
0.438294 0.101177 0.243016
0.421403 0.064579 0.268894
0.533601 0.078887 0.189130
0.421025 0.056164 0.290280
0.414939 0.078390 0.262158
0.448319 0.012016 0.243438
0.505860 0.054924 0.269564
0.542987 0.090325 0.229686
0.489899 0.079308 0.251680
0.446818 0.056185 0.289091
0.533927 0.056879 0.208478
0.410631 0.097369 0.215763
0.409074 0.060054 0.263701
0.491314 0.010384 0.260350
0.528530 0.102811 0.221133
0.492542 0.033123 0.260600
0.429788 0.066566 0.279384
0.430618 0.099546 0.205351
0.537739 0.060448 0.193073
0.449392 0.080882 0.291347
0.447507 0.049543 0.249892
0.531734 0.084048 0.171401
0.507033 0.089703 0.238669
0.509866 0.038861 0.254371
0.483848 0.068775 0.263305
0.526426 0.028245 0.222030
0.421835 0.090717 0.259522
0.488069 0.084716 0.273637
0.534519 0.099807 0.246697
0.432819 0.086945 0.238144
0.469465 0.006357 0.246719
0.432637 0.074486 0.260589
0.494908 0.080816 0.263636
0.440811 0.110938 0.210350
0.518375 0.073018 0.186775
0.480700 0.022356 0.276712
0.511364 0.073999 0.257850
0.424337 0.078325 0.218217
