ply
format ascii 1.0
element vertex 256
property float x
property float y
property float z
end_header
0.327785 0.114331 0.178427
0.456407 0.163841 0.127452
0.339271 0.252255 0.156126
0.284113 0.187799 0.232853
0.382482 0.185231 0.206040
0.392933 0.110967 0.118097
0.387244 0.222536 0.120253
0.323224 0.177444 0.181056
0.410908 0.143166 0.169063
0.286418 0.141616 0.200836
0.309002 0.227676 0.194730
0.348371 0.148046 0.215167
0.377537 0.105361 0.171850
0.337252 0.194686 0.221853
0.322961 0.211802 0.152597
0.415703 0.147736 0.123182
0.363919 0.156175 0.175423
0.276147 0.192074 0.194726
0.399475 0.180470 0.171637
0.411545 0.108649 0.151387
0.434068 0.170402 0.157667
0.351307 0.230505 0.128169
0.353318 0.199151 0.184948
0.311963 0.164264 0.227107
0.380224 0.134293 0.152465
0.316704 0.130040 0.211828
0.356046 0.118165 0.201157
0.306287 0.199131 0.210972
0.333441 0.146188 0.172206
0.341469 0.228227 0.176728
0.385219 0.135189 0.185876
0.372763 0.243987 0.146966
0.273812 0.159870 0.222996
0.312696 0.238065 0.164339
0.295138 0.167007 0.185453
0.357190 0.127421 0.172605
0.415736 0.129201 0.100699
0.439863 0.149570 0.108269
0.378318 0.154506 0.205080
0.325655 0.204275 0.188928
0.298863 0.215207 0.172231
0.301206 0.131623 0.179867
0.428516 0.143356 0.148047
0.391508 0.158994 0.156901
0.420307 0.166137 0.181251
0.372349 0.181089 0.179506
0.326548 0.234167 0.139289
0.399722 0.130858 0.135388
0.268973 0.167227 0.197270
0.337341 0.163387 0.197696
0.291062 0.174626 0.211833
0.361753 0.169269 0.216207
0.432279 0.166686 0.132482
0.397381 0.165965 0.194131
0.337355 0.169077 0.221317
0.377174 0.110557 0.148511
0.396584 0.123701 0.168263
0.346226 0.224761 0.153922
0.297429 0.146854 0.221313
0.418822 0.123972 0.123806
0.361743 0.196949 0.206216
0.368948 0.222093 0.141835
0.342989 0.168019 0.175537
0.410482 0.103099 0.129686
0.411872 0.170503 0.156130
0.332685 0.116734 0.204893
0.372054 0.237979 0.123055
0.317157 0.188094 0.226812
0.348988 0.249582 0.137449
0.360123 0.166606 0.193417
0.299517 0.186316 0.192485
0.405641 0.151202 0.143639
0.435616 0.144203 0.128565
0.445640 0.154628 0.145189
0.325450 0.242741 0.179894
0.290327 0.168476 0.235289
0.408521 0.109804 0.105022
0.361597 0.136512 0.194345
0.357038 0.241173 0.159557
0.318381 0.185409 0.199534
0.415070 0.128618 0.150888
0.298377 0.125496 0.202395
0.357942 0.109848 0.182938
0.318488 0.221573 0.174241
0.324986 0.206454 0.210565
0.381595 0.146976 0.170064
0.395750 0.103845 0.163666
0.286441 0.200124 0.209831
0.386020 0.233449 0.136627
0.397578 0.155585 0.177665
0.401178 0.134841 0.116409
0.393762 0.105335 0.139966
0.289493 0.148330 0.182959
0.303399 0.207101 0.193657
0.325447 0.146118 0.217374
0.425074 0.154961 0.165090
0.378256 0.160659 0.186745
0.373008 0.120700 0.182260
0.314074 0.121292 0.188744
0.365986 0.220452 0.123431
0.328432 0.225749 0.189087
0.309341 0.222614 0.156106
0.328723 0.237555 0.156801
0.395034 0.120371 0.150972
0.394680 0.140142 0.160534
0.319832 0.153892 0.180170
0.299137 0.183779 0.225100
0.344875 0.201066 0.207613
0.282330 0.158522 0.204127
0.335279 0.132624 0.211075
0.362474 0.111285 0.165910
0.350925 0.146236 0.170046
0.372920 0.132335 0.168137
0.336111 0.187827 0.184758
0.365166 0.182623 0.194892
0.332202 0.215729 0.166708
0.428999 0.157469 0.118152
0.339951 0.246710 0.171482
0.362608 0.148835 0.207365
0.389920 0.169803 0.180187
0.315683 0.128829 0.173215
0.337697 0.240933 0.129728
0.420922 0.154916 0.139730
0.418385 0.136333 0.137119
0.348862 0.178819 0.215268
0.357181 0.184184 0.175658
0.317397 0.214940 0.199330
0.378342 0.170873 0.198939
0.342076 0.108945 0.182937
0.404419 0.117489 0.126937
0.353123 0.131666 0.208840
0.314222 0.206963 0.164765
0.340162 0.239711 0.146287
0.395947 0.119152 0.104601
0.337999 0.223146 0.140848
0.442812 0.164589 0.119983
0.355007 0.152852 0.188402
0.360618 0.235077 0.141521
0.445798 0.169055 0.139453
0.420590 0.139916 0.110963
0.405744 0.170880 0.181660
0.368366 0.185237 0.213286
0.305077 0.230170 0.174846
0.371896 0.141970 0.183520
0.304541 0.181268 0.210559
0.313372 0.210499 0.183159
0.413746 0.143037 0.154498
0.357127 0.252235 0.149714
0.345102 0.119049 0.170994
0.323530 0.173869 0.221752
0.408213 0.122489 0.112149
0.365221 0.246093 0.133234
0.392981 0.179566 0.192133
0.311360 0.178354 0.189145
0.383927 0.118173 0.173188
0.406163 0.118660 0.142037
0.395440 0.141404 0.146294
0.432013 0.156980 0.150499
0.415723 0.174984 0.169102
0.394624 0.136282 0.174669
0.448952 0.152395 0.131399
0.306323 0.156715 0.183566
0.410972 0.156556 0.158407
0.269082 0.154347 0.210948
0.341515 0.205312 0.194758
0.366645 0.197633 0.188769
0.333311 0.160893 0.182204
0.329066 0.158005 0.223233
0.406695 0.139073 0.103704
0.318074 0.231595 0.150708
0.290510 0.168071 0.198862
0.347399 0.135053 0.178207
0.403479 0.130091 0.158055
0.412584 0.158534 0.173082
0.385120 0.162902 0.169576
0.432201 0.164974 0.170703
0.312753 0.142729 0.214068
0.350539 0.234540 0.169159
0.386474 0.235486 0.123388
0.396954 0.170147 0.163692
0.317181 0.198045 0.203275
0.360805 0.172905 0.181829
0.294710 0.159283 0.224856
0.388210 0.147708 0.182473
0.388548 0.183060 0.180260
0.374340 0.225236 0.114486
0.377458 0.185055 0.191015
0.405824 0.140273 0.128616
0.367170 0.154961 0.192795
0.313164 0.234682 0.184109
0.360254 0.234338 0.118694
0.323683 0.112946 0.191794
0.289883 0.193334 0.197811
0.357762 0.124912 0.185375
0.373184 0.235133 0.136315
0.389563 0.129702 0.143299
0.444943 0.165097 0.152682
0.381620 0.123305 0.159025
0.311812 0.119539 0.201236
0.324553 0.197159 0.221722
0.410582 0.110657 0.118099
0.368297 0.120014 0.158657
0.396170 0.123284 0.118572
0.355265 0.221395 0.136112
0.407192 0.136928 0.144460
0.401212 0.101289 0.151628
0.352655 0.242968 0.126304
0.303461 0.218546 0.188030
0.386739 0.105366 0.154816
0.325449 0.234880 0.170152
0.328939 0.123149 0.169663
0.424377 0.166733 0.149124
0.343785 0.122334 0.204230
0.339878 0.111273 0.194953
0.331500 0.183343 0.221360
0.372052 0.170768 0.209600
0.435702 0.141467 0.116545
0.319052 0.161891 0.217295
0.433963 0.151763 0.138074
0.421709 0.137055 0.123254
0.318101 0.165590 0.183241
0.343284 0.178296 0.182134
0.437440 0.155225 0.161246
0.373801 0.144528 0.199823
0.289759 0.146010 0.211935
0.371342 0.231855 0.148647
0.288336 0.181965 0.190885
0.292623 0.186485 0.213252
0.439780 0.152156 0.120077
0.326618 0.224408 0.146146
0.377184 0.170279 0.178325
0.373725 0.108482 0.161027
0.282637 0.154694 0.190273
0.401258 0.113685 0.160005
0.313540 0.192719 0.191558
0.323038 0.243364 0.145878
0.307481 0.196607 0.222473
0.366284 0.160446 0.209188
0.411282 0.128121 0.131903
0.435530 0.170153 0.145121
0.351359 0.130870 0.193276
0.303276 0.191941 0.202069
0.367820 0.130719 0.179133
0.351446 0.241276 0.148847
0.330840 0.202281 0.199189
0.427420 0.149101 0.108771
0.348383 0.191708 0.220152
0.304998 0.154001 0.226527
0.362945 0.232934 0.129918
0.392271 0.115793 0.128651
0.419133 0.128456 0.112137
0.374613 0.108940 0.182458
0.337597 0.219886 0.183737
0.300685 0.167929 0.230211
0.344885 0.241641 0.162020
0.421060 0.154553 0.153075
