ply
format ascii 1.0
element vertex 256
property float x
property float y
property float z
end_header
0.327809 0.114330 0.178453
0.456233 0.164077 0.127226
0.339267 0.252096 0.155954
0.284130 0.187796 0.232876
0.382502 0.185232 0.206071
0.399311 0.104309 0.137353
0.387227 0.222302 0.120145
0.323246 0.177443 0.181081
0.411178 0.154855 0.164793
0.286440 0.141614 0.200858
0.308998 0.227664 0.194652
0.414519 0.138375 0.098526
0.348391 0.148046 0.215195
0.378342 0.115981 0.183212
0.337270 0.194685 0.221880
0.322942 0.211637 0.152572
0.363942 0.156176 0.175452
0.276168 0.192071 0.194748
0.428909 0.137901 0.133488
0.351289 0.230265 0.128064
0.353339 0.199151 0.184977
0.311982 0.164263 0.227132
0.380213 0.134309 0.152479
0.316725 0.130039 0.211853
0.392757 0.181171 0.174860
0.306308 0.199152 0.210982
0.351815 0.117270 0.202006
0.333465 0.146187 0.172233
0.434544 0.171553 0.150619
0.402979 0.109086 0.105995
0.341461 0.228140 0.176640
0.372747 0.243815 0.146810
0.273831 0.159867 0.223018
0.378339 0.154507 0.205111
0.312689 0.237944 0.164224
0.295160 0.167005 0.185477
0.407861 0.125244 0.160158
0.400623 0.131984 0.125546
0.439941 0.149547 0.108363
0.390936 0.142215 0.180704
0.353821 0.118973 0.168855
0.325675 0.204274 0.188954
0.298850 0.215119 0.172200
0.301229 0.131621 0.179892
0.377906 0.107761 0.157447
0.326534 0.233953 0.139185
0.268994 0.167224 0.197291
0.409705 0.166413 0.187968
0.337362 0.163387 0.197723
0.291082 0.174624 0.211856
0.362458 0.177007 0.191505
0.361773 0.169269 0.216236
0.410004 0.152211 0.140423
0.337374 0.169077 0.221344
0.346212 0.224592 0.153846
0.297449 0.146852 0.221336
0.359692 0.133815 0.185738
0.389016 0.158303 0.159059
0.429835 0.165626 0.172840
0.361762 0.196950 0.206244
0.368945 0.221903 0.141740
0.401010 0.103622 0.160154
0.413028 0.177088 0.161266
0.419577 0.151997 0.117811
0.343011 0.168019 0.175565
0.444578 0.152637 0.142254
0.419899 0.126442 0.116543
0.372027 0.237741 0.122915
0.317175 0.188093 0.226837
0.413268 0.121031 0.139024
0.433677 0.165973 0.129559
0.348961 0.249365 0.137294
0.388996 0.167746 0.192052
0.422991 0.141025 0.154069
0.299537 0.186314 0.192509
0.325448 0.242671 0.179759
0.327592 0.115192 0.202875
0.290345 0.168473 0.235312
0.357033 0.241022 0.159419
0.376985 0.189983 0.186238
0.318401 0.185408 0.199560
0.298399 0.125494 0.202419
0.318477 0.221486 0.174183
0.325004 0.206453 0.210591
0.375100 0.132428 0.171779
0.286460 0.200121 0.209854
0.364819 0.139931 0.205948
0.386005 0.233258 0.136490
0.345986 0.109981 0.184993
0.412067 0.108426 0.123399
0.289516 0.148328 0.182983
0.303402 0.207073 0.193648
0.325467 0.146117 0.217400
0.400193 0.143721 0.154137
0.392189 0.116054 0.119702
0.395911 0.127301 0.143065
0.390311 0.117603 0.169102
0.314097 0.121291 0.188769
0.365973 0.220211 0.123343
0.377220 0.170293 0.178356
0.374528 0.148282 0.188489
0.328426 0.225711 0.189012
0.357203 0.184184 0.175686
0.335560 0.128768 0.211358
0.433785 0.155284 0.157794
0.309326 0.222466 0.156046
0.328714 0.237402 0.156684
0.394022 0.158967 0.176402
0.319855 0.153891 0.180195
0.299154 0.183777 0.225124
0.344894 0.201066 0.207641
0.282351 0.158519 0.204149
0.350948 0.146236 0.170074
0.358037 0.154513 0.191437
0.336132 0.187827 0.184785
0.394378 0.133735 0.166518
0.426751 0.152910 0.140691
0.332188 0.215610 0.166667
0.438285 0.149802 0.126817
0.362026 0.108873 0.181201
0.339948 0.246606 0.171330
0.315707 0.128828 0.173240
0.368361 0.120287 0.161900
0.337672 0.240687 0.129603
0.348881 0.178819 0.215296
0.317398 0.214937 0.199290
0.403750 0.123899 0.112058
0.448117 0.168209 0.140236
0.418026 0.165385 0.151987
0.314204 0.206844 0.164759
0.405413 0.142948 0.174641
0.340152 0.239517 0.146159
0.413481 0.139590 0.130177
0.377519 0.147829 0.172818
0.384261 0.112461 0.143986
0.337981 0.222933 0.140780
0.366950 0.182331 0.205516
0.360605 0.234880 0.141397
0.411782 0.106502 0.149536
0.411548 0.135786 0.144967
0.416923 0.173051 0.176262
0.305070 0.230089 0.174760
0.403531 0.139078 0.112031
0.380644 0.105159 0.172958
0.304560 0.181266 0.210583
0.396936 0.170212 0.163688
0.372007 0.166803 0.196953
0.313366 0.210450 0.183134
0.443908 0.163618 0.119025
0.357106 0.252058 0.149546
0.387401 0.127535 0.181580
0.347345 0.131701 0.172603
0.428957 0.140657 0.118751
0.399553 0.177691 0.187466
0.323549 0.173868 0.221778
0.353144 0.131667 0.208868
0.365194 0.245877 0.133077
0.376846 0.172480 0.209961
0.311381 0.178353 0.189170
0.400313 0.118640 0.132508
0.336523 0.118507 0.167904
0.390114 0.121335 0.154681
0.306345 0.156714 0.183590
0.364253 0.153896 0.208274
0.269103 0.154344 0.210970
0.341534 0.205312 0.194785
0.365000 0.192079 0.193648
0.417001 0.159217 0.176869
0.333333 0.160892 0.182230
0.329085 0.158004 0.223259
0.402405 0.116505 0.148670
0.318062 0.231424 0.150615
0.290530 0.168068 0.198885
0.414453 0.140813 0.164859
0.312773 0.142727 0.214093
0.399672 0.159495 0.151018
0.350532 0.234423 0.169048
0.386449 0.235260 0.123246
0.317198 0.198053 0.203282
0.294729 0.159281 0.224880
0.416694 0.140049 0.113147
0.374316 0.224977 0.114380
0.392650 0.104310 0.149950
0.364486 0.125861 0.176495
0.313160 0.234631 0.184005
0.360226 0.234079 0.118572
0.289902 0.193331 0.197834
0.355666 0.107816 0.193448
0.392987 0.153583 0.188160
0.373168 0.234932 0.136182
0.444925 0.164070 0.152586
0.385156 0.180065 0.185857
0.415229 0.126666 0.104578
0.379140 0.160236 0.187660
0.311834 0.119537 0.201261
0.385560 0.142553 0.163610
0.389874 0.140786 0.147159
0.324571 0.197159 0.221748
0.429244 0.156219 0.110277
0.377237 0.135957 0.186777
0.355259 0.221179 0.136028
0.362303 0.129457 0.199219
0.352626 0.242724 0.126164
0.303452 0.218502 0.187989
0.426614 0.170917 0.160287
0.325442 0.234776 0.170045
0.424556 0.156321 0.166082
0.375569 0.179824 0.196907
0.410011 0.123895 0.124642
0.331519 0.183342 0.221386
0.367487 0.108957 0.170153
0.368262 0.182150 0.180680
0.400550 0.106574 0.119502
0.319071 0.161890 0.217321
0.424180 0.149507 0.128907
0.401958 0.119997 0.100511
0.318123 0.165589 0.183266
0.343306 0.178296 0.182162
0.289780 0.146008 0.211958
0.371337 0.231686 0.148524
0.288356 0.181962 0.190908
0.365682 0.144338 0.181309
0.389956 0.169830 0.180222
0.292641 0.186483 0.213276
0.405963 0.178307 0.170849
0.323706 0.112945 0.191819
0.388577 0.104229 0.161439
0.326602 0.224218 0.146076
0.282659 0.154692 0.190296
0.307499 0.196605 0.222497
0.323028 0.243175 0.145741
0.313553 0.192693 0.191581
0.385162 0.162896 0.169613
0.419098 0.153845 0.149685
0.373822 0.144529 0.199853
0.339901 0.111272 0.194981
0.448820 0.152609 0.131186
0.303295 0.191939 0.202093
0.401890 0.139287 0.139317
0.429966 0.164144 0.141399
0.351434 0.241092 0.148712
0.330859 0.202281 0.199215
0.348401 0.191708 0.220180
0.305017 0.153999 0.226552
0.362926 0.232707 0.129798
0.379959 0.121572 0.172603
0.351382 0.130870 0.193304
0.426908 0.145066 0.108238
0.337588 0.219826 0.183680
0.300703 0.167927 0.230235
0.344879 0.241501 0.161885
0.357442 0.172913 0.173435
0.310421 0.218008 0.166529
0.418769 0.143714 0.140996
0.393023 0.108809 0.128937
0.419013 0.128809 0.129623
