ply
format ascii 1.0
element vertex 1024
property float x
property float y
property float z
property uchar red
property uchar green
property uchar blue
end_header
0.603377 0.052827 0.088253 255 220 0
0.555254 0.048793 0.040026 255 220 0
0.642065 0.025701 0.040977 255 220 0
0.599778 -0.004583 0.055165 255 220 0
0.631701 0.052004 0.019254 255 220 0
0.577755 0.049351 0.002841 255 220 0
0.608987 0.041949 0.085161 255 220 0
0.613162 0.124621 0.090560 255 220 0
0.646983 0.059542 0.071317 255 220 0
0.610925 0.037692 0.000263 255 220 0
0.598175 -0.003426 0.056722 255 220 0
0.611396 -0.007270 0.004068 255 220 0
0.599320 0.053358 0.003482 255 220 0
0.612159 0.034910 0.082079 255 220 0
0.635322 0.020325 0.057108 255 220 0
0.561974 0.073353 0.048232 255 220 0
0.568091 -0.000352 0.005463 255 220 0
0.616034 0.083747 0.093997 255 220 0
0.566087 0.075805 0.058187 255 220 0
0.604843 0.018941 0.074758 255 220 0
0.608731 0.010962 0.068428 255 220 0
0.614868 0.037388 0.082523 255 220 0
0.553571 0.036154 0.028799 255 220 0
0.584086 -0.010387 0.000016 255 220 0
0.580273 0.052795 0.003793 255 220 0
0.581923 0.046858 0.000667 255 220 0
0.617682 0.125448 0.048595 255 220 0
0.638005 0.027599 0.024377 255 220 0
0.596797 0.000436 -0.005284 255 220 0
0.599247 0.141922 0.052485 255 220 0
0.644706 0.034281 0.042435 255 220 0
0.629391 0.133338 0.080958 255 220 0
0.647098 0.075645 0.051344 255 220 0
0.601305 0.145447 0.054337 255 220 0
0.591490 0.069397 0.086988 255 220 0
0.613790 -0.014108 0.027767 255 220 0
0.613205 0.089475 0.026993 255 220 0
0.586237 0.023112 0.073854 255 220 0
0.629309 0.131756 0.082927 255 220 0
0.647828 0.078093 0.054891 255 220 0
0.584565 0.094613 0.029528 255 220 0
0.637589 0.118993 0.078049 255 220 0
0.639257 0.028873 0.026530 255 220 0
0.634216 0.025487 0.017940 255 220 0
0.592921 0.129759 0.080282 255 220 0
0.614476 0.079486 0.021700 255 220 0
0.602497 0.016494 0.073256 255 220 0
0.641245 0.025723 0.034241 255 220 0
0.587249 0.046382 0.081999 255 220 0
0.579933 -0.012852 0.004183 255 220 0
0.642022 0.055620 0.033933 255 220 0
0.626608 0.112420 0.091180 255 220 0
0.597458 0.032732 0.081404 255 220 0
0.586395 0.064812 0.083751 255 220 0
0.596800 0.023293 0.076872 255 220 0
0.560759 0.066231 0.050952 255 220 0
0.632693 0.008315 0.034055 255 220 0
0.578106 -0.010995 0.039384 255 220 0
0.581949 0.067178 0.011378 255 220 0
0.569348 0.035476 0.001400 255 220 0
0.643812 0.074719 0.043893 255 220 0
0.572136 -0.004060 0.042073 255 220 0
0.606057 0.127643 0.088796 255 220 0
0.619179 0.010048 0.063023 255 220 0
0.622400 -0.004788 0.017019 255 220 0
0.627674 0.137590 0.076550 255 220 0
0.572622 0.020330 0.063495 255 220 0
0.618987 0.094755 0.032731 255 220 0
0.634908 0.027869 0.065525 255 220 0
0.644725 0.072703 0.044680 255 220 0
0.636503 0.015199 0.044332 255 220 0
0.611738 0.109460 0.037917 255 220 0
0.643179 0.086098 0.049011 255 220 0
0.638461 0.113818 0.064758 255 220 0
0.609100 0.026213 0.078516 255 220 0
0.626692 0.124533 0.054535 255 220 0
0.578506 0.001064 0.053660 255 220 0
0.617843 0.029254 0.077958 255 220 0
0.645007 0.055877 0.039387 255 220 0
0.578469 0.085949 0.074983 255 220 0
0.589561 0.118427 0.080759 255 220 0
0.563250 0.056580 0.058865 255 220 0
0.625609 0.027660 0.007036 255 220 0
0.627004 0.050770 0.083609 255 220 0
0.574310 0.094702 0.038655 255 220 0
0.626788 0.062895 0.019284 255 220 0
0.568714 -0.002710 0.006608 255 220 0
0.640045 0.109256 0.081029 255 220 0
0.611729 0.061324 0.090758 255 220 0
0.606922 0.089077 0.093445 255 220 0
0.645966 0.038673 0.049285 255 220 0
0.581749 0.100927 0.036659 255 220 0
0.591777 -0.008350 0.050535 255 220 0
0.620614 0.089416 0.030459 255 220 0
0.578619 -0.006066 0.046297 255 220 0
0.578048 0.032280 -0.003284 255 220 0
0.628013 0.025744 0.009440 255 220 0
0.614556 -0.008605 0.041168 255 220 0
0.613392 0.097093 0.031555 255 220 0
0.628231 0.013700 0.059056 255 220 0
0.610615 0.015945 0.071820 255 220 0
0.570169 -0.011501 0.021716 255 220 0
0.622344 0.014600 0.003786 255 220 0
0.599922 -0.009253 0.049048 255 220 0
0.628249 0.015490 0.010413 255 220 0
0.600043 0.090256 0.024792 255 220 0
0.616634 -0.002220 0.004756 255 220 0
0.638604 0.029463 0.061527 255 220 0
0.616785 0.037332 0.002687 255 220 0
0.629669 0.025252 0.068773 255 220 0
0.554061 0.032148 0.022245 255 220 0
0.631869 0.012268 0.019111 255 220 0
0.587435 0.046756 0.082169 255 220 0
0.570683 0.027396 0.064926 255 220 0
0.613170 0.042322 0.003010 255 220 0
0.587860 0.041645 0.081197 255 220 0
0.610837 0.001273 -0.001266 255 220 0
0.569030 0.077015 0.063299 255 220 0
0.627914 0.049743 0.014777 255 220 0
0.559389 0.062892 0.048899 255 220 0
0.564901 0.077813 0.032394 255 220 0
0.576707 -0.006868 0.043610 255 220 0
0.620516 0.100850 0.037046 255 220 0
0.628543 0.055347 0.084523 255 220 0
0.604416 0.073006 0.014975 255 220 0
0.607207 0.035755 -0.001827 255 220 0
0.646840 0.041526 0.048863 255 220 0
0.612964 0.106479 0.036677 255 220 0
0.623116 0.138434 0.082711 255 220 0
0.602394 0.044762 0.086076 255 220 0
0.600706 -0.000633 0.059448 255 220 0
0.584705 0.053485 0.081719 255 220 0
0.612466 0.116261 0.092408 255 220 0
0.572504 -0.013950 0.019327 255 220 0
0.647983 0.045623 0.054105 255 220 0
0.560259 0.008233 0.033529 255 220 0
0.591929 0.143416 0.068265 255 220 0
0.593533 0.068664 0.087928 255 220 0
0.605378 0.059013 0.089890 255 220 0
0.560328 0.012125 0.009271 255 220 0
0.628857 0.008731 0.051174 255 220 0
0.579600 0.032979 -0.003564 255 220 0
0.594818 0.087033 0.089048 255 220 0
0.647926 0.052713 0.045816 255 220 0
0.579270 0.077262 0.018622 255 220 0
0.560262 0.021048 0.047434 255 220 0
0.564483 -0.002916 0.015239 255 220 0
0.608683 -0.015528 0.012080 255 220 0
0.624801 0.000964 0.013464 255 220 0
0.596828 0.109464 0.036512 255 220 0
0.649542 0.076833 0.061701 255 220 0
0.591021 0.134474 0.075659 255 220 0
0.559906 0.016419 0.008748 255 220 0
0.580361 0.005849 0.059402 255 220 0
0.631195 0.072080 0.027200 255 220 0
0.578379 -0.013844 0.035112 255 220 0
0.608836 0.013279 0.070252 255 220 0
0.574066 0.061271 0.072869 255 220 0
0.556349 0.015270 0.023056 255 220 0
0.580466 0.115820 0.061540 255 220 0
0.614413 0.125397 0.046936 255 220 0
0.588223 0.117737 0.044735 255 220 0
0.629575 0.029991 0.072175 255 220 0
0.628476 0.005373 0.045235 255 220 0
0.586019 0.001550 0.059190 255 220 0
0.610881 0.123312 0.044619 255 220 0
0.583287 -0.009435 -0.000341 255 220 0
0.641108 0.095761 0.082755 255 220 0
0.626686 0.097443 0.092138 255 220 0
0.610855 0.041321 0.001665 255 220 0
0.618042 0.110221 0.093268 255 220 0
0.610116 0.042155 0.085124 255 220 0
0.640065 0.035857 0.026896 255 220 0
0.601311 0.059308 0.006815 255 220 0
0.611230 0.150960 0.064891 255 220 0
0.608588 0.053128 0.005828 255 220 0
0.626997 0.083335 0.030527 255 220 0
0.605618 -0.018924 0.025527 255 220 0
0.606922 0.093297 0.027503 255 220 0
0.587933 0.099998 0.032391 255 220 0
0.603534 0.147794 0.075796 255 220 0
0.625782 0.001868 0.043575 255 220 0
0.588838 0.105682 0.036225 255 220 0
0.600863 0.034290 0.082439 255 220 0
0.593076 0.032819 -0.005187 255 220 0
0.614389 0.030969 -0.000518 255 220 0
0.620684 0.003526 0.053967 255 220 0
0.562755 0.039883 0.058300 255 220 0
0.603306 0.092728 0.026615 255 220 0
0.604090 -0.018763 0.029162 255 220 0
0.634673 0.014733 0.024813 255 220 0
0.587333 -0.017003 0.036134 255 220 0
0.598478 0.033648 -0.004557 255 220 0
0.606790 -0.004059 0.053638 255 220 0
0.626412 0.054590 0.085259 255 220 0
0.593088 0.104187 0.086713 255 220 0
0.624569 0.001455 0.012376 255 220 0
0.572570 0.084007 0.028035 255 220 0
0.618823 0.110224 0.041233 255 220 0
0.644590 0.045873 0.066655 255 220 0
0.607697 0.047422 0.087001 255 220 0
0.624107 0.013516 0.062915 255 220 0
0.556252 0.056878 0.034830 255 220 0
0.614545 0.036912 0.082403 255 220 0
0.574714 0.046615 0.073171 255 220 0
0.622307 0.062083 0.016155 255 220 0
0.622917 0.080554 0.026468 255 220 0
0.626723 -0.000408 0.025618 255 220 0
0.619436 -0.009525 0.023330 255 220 0
0.560783 0.004343 0.029029 255 220 0
0.578076 0.109611 0.056715 255 220 0
0.644457 0.055167 0.038120 255 220 0
0.616069 -0.012541 0.020447 255 220 0
0.582274 0.018821 0.069902 255 220 0
0.596680 -0.015988 0.004306 255 220 0
0.637726 0.029940 0.023292 255 220 0
0.554910 0.034609 0.018641 255 220 0
0.579784 -0.002160 0.051460 255 220 0
0.617092 0.000586 0.053231 255 220 0
0.569966 0.062962 0.067801 255 220 0
0.577315 0.101665 0.043213 255 220 0
0.601890 0.127626 0.087364 255 220 0
0.593630 0.077033 0.088387 255 220 0
0.593154 0.081695 0.019233 255 220 0
0.643037 0.064695 0.077994 255 220 0
0.594919 0.008005 -0.007216 255 220 0
0.635674 0.023777 0.020976 255 220 0
0.603593 0.151085 0.062771 255 220 0
0.616726 0.116931 0.092302 255 220 0
0.598830 0.080117 0.090816 255 220 0
0.600843 0.093888 0.091616 255 220 0
0.582236 0.118931 0.055750 255 220 0
0.555518 0.053273 0.036707 255 220 0
0.615216 0.149537 0.067427 255 220 0
0.589775 0.060677 0.006687 255 220 0
0.596977 -0.021123 0.014425 255 220 0
0.572916 0.059713 0.071684 255 220 0
0.629589 0.099422 0.041996 255 220 0
0.563736 0.037460 0.006092 255 220 0
0.601597 0.082670 0.091874 255 220 0
0.641934 0.039527 0.030358 255 220 0
0.607272 0.108380 0.036309 255 220 0
0.635839 0.099509 0.047438 255 220 0
0.568790 0.078485 0.026615 255 220 0
0.578601 0.068010 0.012796 255 220 0
0.599150 0.047736 0.000871 255 220 0
0.630771 0.100628 0.090332 255 220 0
0.620415 -0.007754 0.031066 255 220 0
0.586133 0.037360 -0.003525 255 220 0
0.642574 0.027817 0.046389 255 220 0
0.626695 0.098454 0.039454 255 220 0
0.625370 0.021664 0.069370 255 220 0
0.606453 -0.018601 0.018938 255 220 0
0.645043 0.072720 0.077832 255 220 0
0.626567 0.139604 0.072687 255 220 0
0.571035 0.040449 0.068715 255 220 0
0.582870 0.122427 0.062349 255 220 0
0.636928 0.076302 0.034836 255 220 0
0.637269 0.023841 0.057807 255 220 0
0.593694 0.131029 0.080524 255 220 0
0.586430 0.007061 0.064172 255 220 0
0.646886 0.071980 0.048910 255 220 0
0.641895 0.050443 0.073166 255 220 0
0.636290 0.046766 0.022984 255 220 0
0.610228 0.124513 0.044961 255 220 0
0.582816 0.056065 0.080727 255 220 0
0.601587 0.045293 0.086154 255 220 0
0.610234 0.150023 0.060154 255 220 0
0.603280 0.027550 -0.005381 255 220 0
0.632622 0.020536 0.016261 255 220 0
0.641153 0.045032 0.029684 255 220 0
0.575214 0.065617 0.012564 255 220 0
0.579193 0.053852 0.077797 255 220 0
0.637902 0.040586 0.023825 255 220 0
0.588500 0.088577 0.084840 255 220 0
0.565323 0.047736 0.062472 255 220 0
0.644165 0.071319 0.078542 255 220 0
0.558515 0.035135 0.049872 255 220 0
0.582711 0.120128 0.067053 255 220 0
0.613284 0.065527 0.013750 255 220 0
0.560087 0.010141 0.035692 255 220 0
0.649011 0.067012 0.052371 255 220 0
0.602621 0.062395 0.008707 255 220 0
0.581274 -0.004913 0.049658 255 220 0
0.583384 -0.018042 0.031911 255 220 0
0.620549 0.084262 0.093417 255 220 0
0.557921 0.020937 0.011805 255 220 0
0.617876 0.076255 0.093058 255 220 0
0.555013 0.050429 0.031962 255 220 0
0.636089 0.013745 0.035589 255 220 0
0.632316 0.008157 0.029312 255 220 0
0.590071 0.026723 -0.006500 255 220 0
0.561140 0.011168 0.040084 255 220 0
0.635360 0.022308 0.059404 255 220 0
0.576224 0.020326 0.066636 255 220 0
0.621677 0.023082 0.003060 255 220 0
0.559255 0.033625 0.010000 255 220 0
0.563868 -0.000950 0.029868 255 220 0
0.626284 -0.001101 0.026373 255 220 0
0.635897 0.087655 0.086936 255 220 0
0.554054 0.038725 0.023646 255 220 0
0.569434 0.075856 0.023548 255 220 0
0.624353 0.124416 0.052512 255 220 0
0.563448 0.056639 0.015256 255 220 0
0.560095 0.064337 0.027060 255 220 0
0.631377 0.006507 0.036281 255 220 0
0.587734 -0.021624 0.015740 255 220 0
0.609664 0.130219 0.088632 255 220 0
0.622036 0.066632 0.090371 255 220 0
0.638021 0.073119 0.034615 255 220 0
0.587487 0.098835 0.082769 255 220 0
0.621517 0.060387 0.088914 255 220 0
0.606331 0.080908 0.019953 255 220 0
0.570740 0.092075 0.054802 255 220 0
0.592064 0.000586 -0.005621 255 220 0
0.632674 0.008667 0.039141 255 220 0
0.620766 0.039421 0.005704 255 220 0
0.556307 0.047037 0.045021 255 220 0
0.641410 0.051870 0.031817 255 220 0
0.590877 0.094262 0.027636 255 220 0
0.595104 0.012419 -0.007631 255 220 0
0.563332 0.025585 0.055621 255 220 0
0.616540 0.038884 0.082723 255 220 0
0.579418 0.051904 0.003570 255 220 0
0.572837 0.058612 0.071641 255 220 0
0.621297 0.052785 0.086557 255 220 0
0.642482 0.054484 0.074557 255 220 0
0.628509 0.003516 0.021031 255 220 0
0.631942 0.010795 0.020955 255 220 0
0.636634 0.026195 0.061519 255 220 0
0.587842 -0.021555 0.025642 255 220 0
0.557903 0.030238 0.046869 255 220 0
0.582773 -0.020265 0.025376 255 220 0
0.610609 0.075732 0.018172 255 220 0
0.586595 0.111875 0.041991 255 220 0
0.612487 0.139676 0.084543 255 220 0
0.576077 0.055237 0.075087 255 220 0
0.609616 0.082700 0.021833 255 220 0
0.570765 0.061862 0.012551 255 220 0
0.561797 0.057320 0.056299 255 220 0
0.586680 0.133103 0.063000 255 220 0
0.593450 0.116292 0.040922 255 220 0
0.646644 0.040915 0.050275 255 220 0
0.624619 0.000139 0.014141 255 220 0
0.640887 0.025397 0.033191 255 220 0
0.635308 0.103878 0.049830 255 220 0
0.613663 0.104779 0.093872 255 220 0
0.562125 0.002198 0.030037 255 220 0
0.564516 0.028836 0.058532 255 220 0
0.647358 0.078541 0.053796 255 220 0
0.613771 0.122792 0.091053 255 220 0
0.577923 0.037440 0.074129 255 220 0
0.626786 0.071027 0.023364 255 220 0
0.610608 0.118059 0.091917 255 220 0
0.641268 0.041404 0.029265 255 220 0
0.608338 0.084643 0.022618 255 220 0
0.584161 0.085119 0.022630 255 220 0
0.569083 0.073424 0.021833 255 220 0
0.633814 0.094845 0.088561 255 220 0
0.621705 0.105153 0.093304 255 220 0
0.561554 0.072821 0.046956 255 220 0
0.608720 0.150554 0.060656 255 220 0
0.571822 0.032376 0.067692 255 220 0
0.614065 0.074826 0.018961 255 220 0
0.589133 0.063961 0.008583 255 220 0
0.592547 0.125364 0.081638 255 220 0
0.571602 -0.009691 0.032688 255 220 0
0.581969 -0.007438 0.047271 255 220 0
0.573059 0.002876 -0.000679 255 220 0
0.590447 0.094162 0.027634 255 220 0
0.578113 0.095904 0.034928 255 220 0
0.611146 -0.015319 0.015833 255 220 0
0.639425 0.021809 0.048945 255 220 0
0.591320 0.138772 0.073097 255 220 0
0.557214 0.016237 0.032931 255 220 0
0.590039 -0.018721 0.033718 255 220 0
0.584677 0.048390 0.080963 255 220 0
0.561956 0.055062 0.056869 255 220 0
0.617899 0.106927 0.093653 255 220 0
0.605990 0.141620 0.082688 255 220 0
0.576655 -0.017230 0.016719 255 220 0
0.635323 0.116308 0.059632 255 220 0
0.555961 0.017245 0.021772 255 220 0
0.603771 0.010875 0.069250 255 220 0
0.586015 0.130565 0.060146 255 220 0
0.578988 0.068229 0.012811 255 220 0
0.624162 0.103373 0.040666 255 220 0
0.629386 0.104625 0.090887 255 220 0
0.611164 0.027299 0.078720 255 220 0
0.589726 -0.014230 0.001927 255 220 0
0.573165 0.046001 0.071612 255 220 0
0.624093 0.133356 0.056826 255 220 0
0.631572 0.009485 0.046790 255 220 0
0.565237 0.028536 0.059372 255 220 0
0.585549 0.077794 0.083102 255 220 0
0.617723 0.121706 0.046766 255 220 0
0.587645 0.079660 0.018292 255 220 0
0.599231 0.047939 0.086494 255 220 0
0.601464 0.130331 0.086267 255 220 0
0.572864 0.086798 0.030617 255 220 0
0.586242 0.128025 0.055648 255 220 0
0.572841 0.091034 0.063959 255 220 0
0.571284 0.085458 0.063779 255 220 0
0.573744 0.092099 0.035906 255 220 0
0.610170 -0.000141 0.056899 255 220 0
0.608448 0.047088 0.003108 255 220 0
0.645899 0.041741 0.040800 255 220 0
0.581445 0.092288 0.077412 255 220 0
0.631001 0.061015 0.021940 255 220 0
0.555128 0.025650 0.033972 255 220 0
0.614280 0.000093 0.001440 255 220 0
0.606438 0.065552 0.011339 255 220 0
0.641174 0.031276 0.058000 255 220 0
0.648912 0.061404 0.050101 255 220 0
0.559661 0.039594 0.010939 255 220 0
0.644553 0.034963 0.039550 255 220 0
0.635250 0.124755 0.076211 255 220 0
0.584305 0.126252 0.064501 255 220 0
0.631278 0.015294 0.015659 255 220 0
0.611185 0.035683 0.082563 255 220 0
0.598625 0.035547 0.082671 255 220 0
0.571680 -0.000980 0.045167 255 220 0
0.645267 0.051805 0.038959 255 220 0
0.574668 0.087673 0.029697 255 220 0
0.566613 0.053205 0.064126 255 220 0
0.616739 0.144204 0.057205 255 220 0
0.636179 0.110548 0.056023 255 220 0
0.609337 -0.017205 0.025105 255 220 0
0.596897 0.061516 0.007358 255 220 0
0.570746 -0.008359 0.033501 255 220 0
0.599598 0.115468 0.039404 255 220 0
0.603949 0.092421 0.026497 255 220 0
0.620066 0.125452 0.089672 255 220 0
0.640761 0.036226 0.064500 255 220 0
0.601467 0.021593 -0.006736 255 220 0
0.583389 0.103418 0.037638 255 220 0
0.605044 0.114351 0.091389 255 220 0
0.625461 0.017562 0.065803 255 220 0
0.614846 -0.012903 0.029807 255 220 0
0.592585 0.020520 0.074535 255 220 0
0.631214 0.006881 0.026203 255 220 0
0.601215 0.075682 0.091379 255 220 0
0.584330 -0.021332 0.021761 255 220 0
0.580063 0.113965 0.063876 255 220 0
0.643284 0.062474 0.038243 255 220 0
0.597109 0.039793 0.083856 255 220 0
0.588285 0.059776 0.006277 255 220 0
0.558278 0.057466 0.024678 255 220 0
0.650497 0.063714 0.059047 255 220 0
0.591104 0.000203 -0.005506 255 220 0
0.639837 0.058193 0.031345 255 220 0
0.561509 0.047976 0.012394 255 220 0
0.570337 -0.004556 0.006180 255 220 0
0.610587 0.067340 0.092027 255 220 0
0.642121 0.057378 0.034636 255 220 0
0.598116 0.051906 0.002610 255 220 0
0.582343 -0.013525 0.039113 255 220 0
0.644248 0.069823 0.078150 255 220 0
0.646938 0.044997 0.059846 255 220 0
0.608467 0.132805 0.047964 255 220 0
0.587544 0.135282 0.065256 255 220 0
0.604957 0.005648 0.064769 255 220 0
0.611385 0.082505 0.022270 255 220 0
0.625706 0.078927 0.027118 255 220 0
0.638915 0.028453 0.059847 255 220 0
0.564894 0.060330 0.060951 255 220 0
0.632023 0.007307 0.033467 255 220 0
0.624817 0.018933 0.005925 255 220 0
0.569842 0.028419 -0.000485 255 220 0
0.638208 0.044391 0.073451 255 220 0
0.617637 0.132856 0.087292 255 220 0
0.584338 0.118986 0.050453 255 220 0
0.566169 0.023756 0.058582 255 220 0
0.615549 0.051034 0.087379 255 220 0
0.566570 -0.005585 0.014399 255 220 0
0.621103 0.016987 0.068333 255 220 0
0.558021 0.063820 0.039783 255 220 0
0.573514 0.012112 0.058878 255 220 0
0.602972 0.076024 0.016450 255 220 0
0.581575 0.118854 0.061371 255 220 0
0.629262 0.119133 0.088824 255 220 0
0.582505 0.018168 -0.006418 255 220 0
0.631189 0.012514 0.017137 255 220 0
0.579845 0.038476 -0.002063 255 220 0
0.560700 0.071977 0.041329 255 220 0
0.555274 0.037673 0.041333 255 220 0
0.554157 0.043320 0.035073 255 220 0
0.631822 0.052711 0.019623 255 220 0
0.649650 0.076915 0.063024 255 220 0
0.634413 0.120684 0.084591 255 220 0
0.635769 0.103444 0.050060 255 220 0
0.619621 -0.008712 0.018644 255 220 0
0.619277 0.139975 0.083204 255 220 0
0.630601 0.014641 0.057225 255 220 0
0.621252 0.034684 0.079359 255 220 0
0.598638 0.004597 0.064641 255 220 0
0.575167 0.026083 0.068480 255 220 0
0.606864 0.057769 0.007440 255 220 0
0.600067 0.069739 0.090503 255 220 0
0.617193 -0.007580 0.010447 255 220 0
0.607656 0.053836 0.005823 255 220 0
0.615608 0.018799 0.072353 255 220 0
0.600953 0.119256 0.089042 255 220 0
0.592251 -0.022257 0.023059 255 220 0
0.583721 0.111274 0.075234 255 220 0
0.630634 0.051568 0.082035 255 220 0
0.593157 0.054238 0.003299 255 220 0
0.620650 -0.003427 0.042421 255 220 0
0.637971 0.022977 0.055193 255 220 0
0.627719 0.098874 0.040384 255 220 0
0.558033 0.053848 0.048768 255 220 0
0.594581 0.108887 0.036526 255 220 0
0.605093 0.147972 0.075994 255 220 0
0.617754 0.134499 0.052566 255 220 0
0.578721 -0.001669 -0.002254 255 220 0
0.588459 0.004637 0.063058 255 220 0
0.631188 0.006099 0.034522 255 220 0
0.603093 -0.005125 0.053688 255 220 0
0.591382 0.112080 0.084116 255 220 0
0.572187 0.069750 0.069741 255 220 0
0.576121 -0.017150 0.021963 255 220 0
0.629019 0.020086 0.010785 255 220 0
0.607076 0.140076 0.083907 255 220 0
0.615347 0.143072 0.055170 255 220 0
0.623351 0.095798 0.035804 255 220 0
0.593545 0.033105 0.080671 255 220 0
0.636795 0.109981 0.056579 255 220 0
0.611864 -0.015830 0.022596 255 220 0
0.567467 0.021802 0.059088 255 220 0
0.602161 0.011940 -0.006863 255 220 0
0.602698 0.020374 -0.006653 255 220 0
0.613743 0.033551 0.081153 255 220 0
0.556906 0.013637 0.025996 255 220 0
0.563765 0.008288 0.043114 255 220 0
0.624778 0.053388 0.085528 255 220 0
0.568415 0.030831 0.063778 255 220 0
0.582467 0.012934 0.066444 255 220 0
0.645622 0.081981 0.051582 255 220 0
0.614876 0.026537 0.077430 255 220 0
0.581379 -0.001825 -0.003326 255 220 0
0.592753 0.062678 0.087000 255 220 0
0.634344 0.125556 0.079795 255 220 0
0.597092 0.037881 -0.003351 255 220 0
0.568252 0.075446 0.024373 255 220 0
0.620813 0.093625 0.033065 255 220 0
0.634682 0.125610 0.071378 255 220 0
0.567846 0.026150 0.000440 255 220 0
0.635335 0.019520 0.022253 255 220 0
0.638383 0.018949 0.046547 255 220 0
0.643751 0.088259 0.051740 255 220 0
0.573825 0.053887 0.006515 255 220 0
0.562484 0.058212 0.057375 255 220 0
0.643339 0.083137 0.080661 255 220 0
0.636719 0.085747 0.086267 255 220 0
0.589453 -0.001465 -0.004943 255 220 0
0.599776 -0.016200 0.038002 255 220 0
0.587381 -0.005894 0.052199 255 220 0
0.565332 0.001565 0.007576 255 220 0
0.575647 0.098390 0.065749 255 220 0
0.563430 0.063104 0.019835 255 220 0
0.601355 0.121449 0.088755 255 220 0
0.628666 0.122863 0.087973 255 220 0
0.615425 0.149207 0.070085 255 220 0
0.554527 0.047273 0.034891 255 220 0
0.588811 0.131473 0.073833 255 220 0
0.629079 0.107193 0.090843 255 220 0
0.622137 0.066673 0.090351 255 220 0
0.636926 0.026754 0.022501 255 220 0
0.561323 0.072579 0.046036 255 220 0
0.630527 0.007957 0.020246 255 220 0
0.581312 0.004562 -0.005060 255 220 0
0.592344 -0.020784 0.029442 255 220 0
0.639065 0.114765 0.078711 255 220 0
0.579127 0.047538 0.077047 255 220 0
0.599926 0.134142 0.048182 255 220 0
0.553711 0.036150 0.025123 255 220 0
0.610184 0.146740 0.078003 255 220 0
0.593184 0.098479 0.030164 255 220 0
0.574947 0.036289 0.071498 255 220 0
0.559997 0.024246 0.048892 255 220 0
0.625781 0.113967 0.047813 255 220 0
0.643791 0.031899 0.048321 255 220 0
0.576549 -0.015181 0.030126 255 220 0
0.575161 0.034367 -0.001787 255 220 0
0.639775 0.046201 0.027749 255 220 0
0.604803 0.007591 -0.005624 255 220 0
0.573838 0.012651 -0.003335 255 220 0
0.636259 0.093718 0.044116 255 220 0
0.557974 0.020355 0.011793 255 220 0
0.568989 0.053880 0.067223 255 220 0
0.641542 0.045436 0.070662 255 220 0
0.581111 -0.013747 0.004316 255 220 0
0.558494 0.047031 0.016020 255 220 0
0.556358 0.015299 0.022169 255 220 0
0.607287 0.107712 0.092750 255 220 0
0.602250 0.042509 -0.000695 255 220 0
0.584022 0.065617 0.010075 255 220 0
0.576475 0.047496 0.074863 255 220 0
0.582056 0.010109 0.064101 255 220 0
0.634920 0.068501 0.029038 255 220 0
0.646282 0.049768 0.041027 255 220 0
0.615006 0.131771 0.088072 255 220 0
0.573670 -0.014308 0.026350 255 220 0
0.560145 0.025576 0.049941 255 220 0
0.578171 0.016194 0.065695 255 220 0
0.569179 0.013764 -0.000714 255 220 0
0.594698 0.030280 0.079841 255 220 0
0.627654 0.073543 0.025304 255 220 0
0.631858 0.106948 0.048394 255 220 0
0.627510 0.043216 0.012288 255 220 0
0.632572 0.010428 0.023903 255 220 0
0.569061 -0.010065 0.018696 255 220 0
0.632095 0.007675 0.030032 255 220 0
0.636553 0.060775 0.081770 255 220 0
0.582170 0.025344 0.072892 255 220 0
0.580739 0.084305 0.023144 255 220 0
0.586367 0.086130 0.022810 255 220 0
0.594714 0.038292 0.082803 255 220 0
0.646843 0.067780 0.046955 255 220 0
0.557384 0.027919 0.044323 255 220 0
0.589388 0.115952 0.081249 255 220 0
0.595992 -0.001523 -0.004704 255 220 0
0.594615 -0.016213 0.004098 255 220 0
0.581568 0.075680 0.079664 255 220 0
0.612453 0.149805 0.061525 255 220 0
0.624699 0.085242 0.092333 255 220 0
0.566189 0.026049 0.059606 255 220 0
0.576923 0.046380 0.001790 255 220 0
0.579939 0.062984 0.009385 255 220 0
0.617611 0.040430 0.004232 255 220 0
0.616431 -0.000104 0.052828 255 220 0
0.637316 0.084548 0.039630 255 220 0
0.610323 -0.015309 0.031550 255 220 0
0.570490 0.057784 0.010329 255 220 0
0.612290 0.131590 0.048677 255 220 0
0.613559 0.147659 0.058337 255 220 0
0.576089 0.081981 0.072634 255 220 0
0.590014 -0.010930 0.046550 255 220 0
0.593981 -0.003128 0.057045 255 220 0
0.614997 -0.007992 0.008131 255 220 0
0.619071 0.036642 0.081049 255 220 0
0.564201 0.010211 0.004373 255 220 0
0.575973 0.043541 0.073863 255 220 0
0.647863 0.082202 0.073183 255 220 0
0.609144 0.033086 0.081770 255 220 0
0.558485 0.025954 0.046236 255 220 0
0.645063 0.097707 0.071411 255 220 0
0.639760 0.056110 0.030554 255 220 0
0.584651 0.122723 0.070715 255 220 0
0.614589 0.111311 0.093251 255 220 0
0.579286 -0.011282 0.040078 255 220 0
0.587515 0.111867 0.041271 255 220 0
0.631445 0.130897 0.079732 255 220 0
0.627590 0.015417 0.061706 255 220 0
0.599763 0.053750 0.087894 255 220 0
0.599421 0.141699 0.052281 255 220 0
0.563695 0.034299 0.005285 255 220 0
0.640513 0.066492 0.080644 255 220 0
0.577067 0.104775 0.064140 255 220 0
0.615068 0.113535 0.041247 255 220 0
0.639368 0.046067 0.027098 255 220 0
0.569934 0.059381 0.068113 255 220 0
0.574119 0.034202 -0.001407 255 220 0
0.606054 -0.018872 0.024441 255 220 0
0.607728 0.136188 0.085995 255 220 0
0.555071 0.028439 0.036182 255 220 0
0.616658 0.101203 0.035234 255 220 0
0.607918 0.100511 0.032015 255 220 0
0.601906 0.107896 0.035494 255 220 0
0.646823 0.082687 0.075678 255 220 0
0.618893 0.101762 0.036647 255 220 0
0.580345 0.092101 0.029561 255 220 0
0.632886 0.056953 0.022260 255 220 0
0.618275 0.020549 0.000258 255 220 0
0.562989 0.018426 0.004265 255 220 0
0.636949 0.119447 0.080337 255 220 0
0.592505 0.134791 0.051957 255 220 0
0.622588 0.025945 0.004078 255 220 0
0.606115 0.057055 0.089519 255 220 0
0.586446 0.010396 0.066682 255 220 0
0.578097 0.102572 0.042973 255 220 0
0.565690 0.054285 0.062775 255 220 0
0.616948 -0.011062 0.030600 255 220 0
0.588024 0.077565 0.084997 255 220 0
0.640472 0.025814 0.052435 255 220 0
0.586974 0.131050 0.057207 255 220 0
0.619642 0.002366 0.004881 255 220 0
0.589107 0.095031 0.028479 255 220 0
0.623431 0.022288 0.071110 255 220 0
0.585824 -0.021487 0.016965 255 220 0
0.642838 0.101612 0.062974 255 220 0
0.601401 0.146645 0.055411 255 220 0
0.599097 0.096193 0.028465 255 220 0
0.621682 0.016233 0.067323 255 220 0
0.554672 0.048466 0.031693 255 220 0
0.617883 0.144565 0.058745 255 220 0
0.639134 0.019244 0.037394 255 220 0
0.569551 0.090438 0.047854 255 220 0
0.649824 0.058252 0.063196 255 220 0
0.627068 0.074037 0.025189 255 220 0
0.605161 0.084470 0.021825 255 220 0
0.646817 0.063547 0.073193 255 220 0
0.649033 0.050732 0.051452 255 220 0
0.565644 0.079533 0.053970 255 220 0
0.596899 0.081373 0.019062 255 220 0
0.585557 0.127854 0.057443 255 220 0
0.561386 0.017929 0.047548 255 220 0
0.603697 0.145917 0.054146 255 220 0
0.623655 0.001693 0.010457 255 220 0
0.592843 -0.014629 0.041359 255 220 0
0.583813 0.039270 0.078453 255 220 0
0.593497 0.043894 -0.001345 255 220 0
0.575506 0.098456 0.042179 255 220 0
0.640890 0.094591 0.083071 255 220 0
0.578768 0.081042 0.021531 255 220 0
0.581397 0.009940 0.063533 255 220 0
0.581920 -0.000682 0.054550 255 220 0
0.579549 0.034328 0.074424 255 220 0
0.629949 0.007464 0.046375 255 220 0
0.575116 0.101236 0.049061 255 220 0
0.560994 0.072760 0.041232 255 220 0
0.594459 0.063723 0.008394 255 220 0
0.623544 0.005527 0.007621 255 220 0
0.585746 -0.004389 0.053100 255 220 0
0.644692 0.041500 0.062071 255 220 0
0.578155 -0.004820 -0.000509 255 220 0
0.569750 0.005645 0.049763 255 220 0
0.591124 0.141979 0.061076 255 220 0
0.592715 0.141525 0.072972 255 220 0
0.603282 -0.011531 0.044654 255 220 0
0.588174 0.133747 0.057205 255 220 0
0.600128 -0.004705 0.054950 255 220 0
0.573442 0.054267 0.006887 255 220 0
0.623520 0.059749 0.015687 255 220 0
0.580283 0.025786 0.071992 255 220 0
0.564094 0.070548 0.056768 255 220 0
0.609114 -0.009969 0.043884 255 220 0
0.587399 -0.002193 0.056228 255 220 0
0.569869 0.028705 0.064602 255 220 0
0.610141 -0.002706 0.053690 255 220 0
0.643459 0.100579 0.077158 255 220 0
0.622067 0.112509 0.044409 255 220 0
0.641627 0.059043 0.077309 255 220 0
0.595517 0.087012 0.022580 255 220 0
0.590129 0.138422 0.070945 255 220 0
0.583487 0.044240 -0.000694 255 220 0
0.568946 0.055938 0.010270 255 220 0
0.605520 0.094616 0.093057 255 220 0
0.634167 0.121088 0.061949 255 220 0
0.641958 0.029544 0.033074 255 220 0
0.618346 0.086262 0.093935 255 220 0
0.582143 0.104059 0.075370 255 220 0
0.558077 0.058116 0.047350 255 220 0
0.573012 0.095151 0.060687 255 220 0
0.562419 0.072535 0.051036 255 220 0
0.640030 0.108315 0.062300 255 220 0
0.608710 0.078180 0.093254 255 220 0
0.570054 0.053624 0.068531 255 220 0
0.623811 0.033793 0.077808 255 220 0
0.576867 0.093283 0.033398 255 220 0
0.626465 0.044343 0.011687 255 220 0
0.579026 0.002228 -0.003676 255 220 0
0.563366 0.020021 0.003809 255 220 0
0.633874 0.020815 0.018491 255 220 0
0.644561 0.098410 0.074514 255 220 0
0.619679 0.023854 0.074112 255 220 0
0.623504 0.086744 0.092833 255 220 0
0.632320 0.083757 0.088746 255 220 0
0.567459 0.012073 0.052680 255 220 0
0.640832 0.063541 0.034666 255 220 0
0.564988 -0.004763 0.019460 255 220 0
0.569530 -0.006467 0.034436 255 220 0
0.640094 0.112623 0.070263 255 220 0
0.588496 0.123056 0.048067 255 220 0
0.564720 0.078453 0.033951 255 220 0
0.648134 0.085346 0.069637 255 220 0
0.648158 0.061715 0.070172 255 220 0
0.568850 0.040497 0.003295 255 220 0
0.602267 0.049760 0.002394 255 220 0
0.582391 0.053455 0.080183 255 220 0
0.607004 0.086605 0.023471 255 220 0
0.577147 -0.017526 0.016420 255 220 0
0.643392 0.066323 0.078136 255 220 0
0.587291 0.096564 0.082908 255 220 0
0.648107 0.059671 0.047321 255 220 0
0.574050 0.019396 0.064279 255 220 0
0.579852 0.113732 0.062972 255 220 0
0.635537 0.090488 0.087302 255 220 0
0.629714 0.064398 0.022262 255 220 0
0.568200 0.017775 -0.000296 255 220 0
0.582532 0.020046 -0.006320 255 220 0
0.574577 0.100177 0.059896 255 220 0
0.647477 0.045226 0.046462 255 220 0
0.571991 -0.011577 0.012823 255 220 0
0.632585 0.045161 0.078185 255 220 0
0.590424 0.075376 0.086577 255 220 0
0.642004 0.098646 0.056891 255 220 0
0.607669 0.119794 0.091114 255 220 0
0.636118 0.116713 0.084334 255 220 0
0.640390 0.022787 0.046664 255 220 0
0.638519 0.099489 0.085166 255 220 0
0.648195 0.074330 0.053596 255 220 0
0.581655 0.118475 0.064227 255 220 0
0.590990 0.107562 0.036666 255 220 0
0.574165 0.093990 0.037868 255 220 0
0.631951 0.122273 0.086282 255 220 0
0.570856 0.091140 0.040870 255 220 0
0.618985 0.008459 0.001923 255 220 0
0.588754 0.135791 0.058181 255 220 0
0.637643 0.040992 0.023517 255 220 0
0.629455 0.134860 0.077495 255 220 0
0.561642 0.016713 0.047088 255 220 0
0.648339 0.084837 0.065719 255 220 0
0.583595 -0.007405 -0.001617 255 220 0
0.629632 0.069541 0.088029 255 220 0
0.639983 0.035707 0.026757 255 220 0
0.580520 0.012542 0.064901 255 220 0
0.615209 0.017163 0.071305 255 220 0
0.558254 0.049873 0.018306 255 220 0
0.626894 0.110312 0.091369 255 220 0
0.589793 -0.015760 0.003440 255 220 0
0.599126 0.112892 0.089302 255 220 0
0.589363 0.112762 0.040696 255 220 0
0.621611 0.020812 0.071077 255 220 0
0.589701 0.057203 0.004816 255 220 0
0.559266 0.037617 0.051927 255 220 0
0.563889 0.049322 0.060382 255 220 0
0.560054 0.003914 0.020165 255 220 0
0.645553 0.087045 0.055299 255 220 0
0.566279 0.011462 0.001938 255 220 0
0.602975 0.148854 0.073937 255 220 0
0.621936 -0.006750 0.023395 255 220 0
0.574889 0.027854 0.068929 255 220 0
0.585487 0.016029 0.069870 255 220 0
0.573038 -0.000562 0.047114 255 220 0
0.556262 0.050276 0.023843 255 220 0
0.575677 -0.010341 0.005494 255 220 0
0.604702 0.084590 0.092821 255 220 0
0.603108 0.140297 0.082525 255 220 0
0.641922 0.032995 0.031219 255 220 0
0.634382 0.011748 0.029783 255 220 0
0.590487 0.078046 0.086635 255 220 0
0.590089 0.008481 -0.007200 255 220 0
0.585514 0.000096 -0.004981 255 220 0
0.602292 0.133343 0.085500 255 220 0
0.649979 0.074565 0.065156 255 220 0
0.587486 0.028211 -0.006026 255 220 0
0.607334 0.123215 0.043656 255 220 0
0.555907 0.055291 0.034406 255 220 0
0.578107 0.067280 0.076775 255 220 0
0.588506 0.015670 0.070723 255 220 0
0.577364 0.016996 0.065586 255 220 0
0.638125 0.057119 0.079373 255 220 0
0.643261 0.103055 0.075204 255 220 0
0.643668 0.030962 0.039951 255 220 0
0.634277 0.021639 0.018980 255 220 0
0.583438 0.030979 -0.004893 255 220 0
0.571175 -0.007447 0.035820 255 220 0
0.644145 0.066063 0.040966 255 220 0
0.583369 0.016849 -0.006654 255 220 0
0.633947 0.123855 0.064582 255 220 0
0.608583 -0.004801 0.051801 255 220 0
0.640962 0.085370 0.044806 255 220 0
0.618008 0.137295 0.053904 255 220 0
0.626160 0.136776 0.061718 255 220 0
0.563104 0.067256 0.023755 255 220 0
0.628816 0.027744 0.071258 255 220 0
0.617424 -0.009939 0.033114 255 220 0
0.585207 0.036158 0.078326 255 220 0
0.606251 0.137635 0.085000 255 220 0
0.589715 -0.008951 0.049259 255 220 0
0.555982 0.038982 0.044009 255 220 0
0.637785 0.053425 0.026926 255 220 0
0.604838 0.135024 0.085771 255 220 0
0.616339 0.026471 0.076955 255 220 0
0.569400 -0.010607 0.021402 255 220 0
0.614736 -0.011997 0.033191 255 220 0
0.631570 0.052589 0.019316 255 220 0
0.646510 0.085607 0.075802 255 220 0
0.586417 -0.018849 0.008902 255 220 0
0.588457 0.036634 -0.003946 255 220 0
0.591810 0.143761 0.063914 255 220 0
0.580995 -0.016313 0.033294 255 220 0
0.641955 0.041034 0.030478 255 220 0
0.631041 0.132729 0.071208 255 220 0
0.638135 0.118159 0.075747 255 220 0
0.576996 -0.005508 0.045511 255 220 0
0.634515 0.112811 0.055341 255 220 0
0.606281 -0.012715 0.005479 255 220 0
0.615784 0.021445 0.074097 255 220 0
0.605586 0.100768 0.092844 255 220 0
0.643717 0.052329 0.035975 255 220 0
0.626319 0.028458 0.007849 255 220 0
0.610505 0.050849 0.087900 255 220 0
0.568672 0.061645 0.066230 255 220 0
0.640635 0.090219 0.083430 255 220 0
0.615629 0.002599 0.057008 255 220 0
0.625369 0.140015 0.064682 255 220 0
0.563612 0.053723 0.059743 255 220 0
0.554445 0.030714 0.020474 255 220 0
0.589014 0.070568 0.085635 255 220 0
0.612936 0.109422 0.093418 255 220 0
0.606024 0.013720 0.071095 255 220 0
0.619755 0.021415 0.001403 255 220 0
0.613569 0.075793 0.019285 255 220 0
0.625266 0.136185 0.059866 255 220 0
0.608053 0.109003 0.092791 255 220 0
0.624798 -0.002046 0.018983 255 220 0
0.643968 0.089535 0.053261 255 220 0
0.616557 0.067501 0.091754 255 220 0
0.583401 0.123673 0.064239 255 220 0
0.582638 0.115444 0.050012 255 220 0
0.567513 0.069484 0.020189 255 220 0
0.648900 0.082186 0.066799 255 220 0
0.555285 0.040514 0.041766 255 220 0
0.575318 0.094785 0.037069 255 220 0
0.629378 0.121112 0.088221 255 220 0
0.627792 0.135425 0.063358 255 220 0
0.597823 -0.016404 0.038150 255 220 0
0.627382 0.127954 0.057138 255 220 0
0.575486 0.025810 0.068624 255 220 0
0.571588 -0.012395 0.016122 255 220 0
0.556185 0.055218 0.040584 255 220 0
0.584915 0.116860 0.047641 255 220 0
0.585783 0.129345 0.067584 255 220 0
0.598762 0.144767 0.054803 255 220 0
0.590590 -0.020249 0.030596 255 220 0
0.634403 0.069357 0.085469 255 220 0
0.634897 0.040545 0.019714 255 220 0
0.595674 -0.021560 0.015338 255 220 0
0.620232 0.066687 0.017479 255 220 0
0.612711 -0.002911 0.051804 255 220 0
0.608418 0.081289 0.093444 255 220 0
0.606668 0.067782 0.091736 255 220 0
0.634140 0.122049 0.062897 255 220 0
0.644792 0.038247 0.056677 255 220 0
0.600096 -0.005154 -0.002476 255 220 0
0.612173 0.103753 0.093836 255 220 0
0.565751 0.075965 0.057324 255 220 0
0.572075 0.037236 0.069147 255 220 0
0.609305 0.064144 0.011489 255 220 0
0.560155 0.055319 0.053465 255 220 0
0.553714 0.031682 0.027414 255 220 0
0.580589 0.092741 0.029963 255 220 0
0.571527 0.038296 0.068829 255 220 0
0.560225 0.017675 0.044539 255 220 0
0.633565 0.035256 0.017100 255 220 0
0.586228 0.089147 0.024958 255 220 0
0.561873 0.012139 0.043079 255 220 0
0.592603 -0.007035 0.052351 255 220 0
0.604209 0.070144 0.091620 255 220 0
0.581047 0.006732 0.060655 255 220 0
0.563319 0.022827 0.054308 255 220 0
0.629777 0.011248 0.014800 255 220 0
0.592680 0.033259 -0.005069 255 220 0
0.613286 0.009038 -0.002211 255 220 0
0.600791 0.043847 0.085660 255 220 0
0.616837 0.143991 0.057102 255 220 0
0.589437 0.009384 -0.007256 255 220 0
0.636383 0.107461 0.086439 255 220 0
0.579341 0.112286 0.055585 255 220 0
0.640958 0.040246 0.028603 255 220 0
0.628799 0.030338 0.072966 255 220 0
0.603104 0.011619 0.069856 255 220 0
0.593273 0.005865 0.065311 255 220 0
0.632637 0.010183 0.045282 255 220 0
0.586258 0.063374 0.008471 255 220 0
0.637256 0.118626 0.068087 255 220 0
0.584749 0.083001 0.020995 255 220 0
0.612007 -0.011238 0.039090 255 220 0
0.619086 0.047607 0.007860 255 220 0
0.628287 0.030779 0.073594 255 220 0
0.592847 -0.006227 0.053378 255 220 0
0.629826 0.017919 0.062011 255 220 0
0.649672 0.062663 0.053211 255 220 0
0.613933 0.033403 -0.000019 255 220 0
0.582830 0.092910 0.078887 255 220 0
0.594737 0.019379 0.074337 255 220 0
0.577512 0.068179 0.076101 255 220 0
0.581646 -0.011633 0.001957 255 220 0
0.575798 0.041759 0.000339 255 220 0
0.572366 0.087643 0.032164 255 220 0
0.576088 0.024441 0.068525 255 220 0
0.559513 0.022629 0.046765 255 220 0
0.622837 0.060485 0.088518 255 220 0
0.626623 0.002437 0.016160 255 220 0
0.583058 0.035188 0.076851 255 220 0
0.582397 0.040768 0.077996 255 220 0
0.629142 0.004109 0.022600 255 220 0
0.593041 0.090347 0.087901 255 220 0
0.632344 0.007800 0.035052 255 220 0
0.638311 0.110077 0.083806 255 220 0
0.575029 0.017727 -0.004074 255 220 0
0.634625 0.050841 0.079296 255 220 0
0.623715 0.026257 0.073641 255 220 0
0.566742 -0.004960 0.030595 255 220 0
0.616272 0.145158 0.057711 255 220 0
0.578662 0.096771 0.072467 255 220 0
0.564545 0.034968 0.060139 255 220 0
0.560164 0.011974 0.009644 255 220 0
0.610888 0.006141 0.063433 255 220 0
0.624948 0.067557 0.089598 255 220 0
0.579174 -0.015103 0.007615 255 220 0
0.586192 0.107550 0.039034 255 220 0
0.640355 0.044421 0.028252 255 220 0
0.558334 0.034820 0.011507 255 220 0
0.566828 -0.006604 0.016085 255 220 0
0.616247 0.141442 0.054771 255 220 0
0.647761 0.065162 0.072216 255 220 0
0.558723 0.010613 0.031301 255 220 0
0.592420 0.033649 -0.004962 255 220 0
0.605408 0.014891 -0.006245 255 220 0
0.618019 0.102253 0.036466 255 220 0
0.648515 0.081643 0.060893 255 220 0
0.634563 0.077186 0.032815 255 220 0
0.636102 0.054661 0.025151 255 220 0
0.614063 0.145237 0.055967 255 220 0
0.628950 0.085784 0.033257 255 220 0
0.611312 0.138922 0.051024 255 220 0
0.647012 0.084224 0.057258 255 220 0
0.637248 0.041776 0.023096 255 220 0
0.633384 0.119136 0.058745 255 220 0
0.637130 0.078662 0.036253 255 220 0
0.603061 0.139774 0.050440 255 220 0
