ply
format ascii 1.0
element vertex 1024
property float x
property float y
property float z
property uchar red
property uchar green
property uchar blue
end_header
0.470071 0.093168 0.089715 255 220 0
0.417609 0.081237 0.047724 255 220 0
0.506427 0.072260 0.037669 255 220 0
0.471562 0.035718 0.056533 255 220 0
0.489415 0.096447 0.017750 255 220 0
0.434964 0.085145 0.008064 255 220 0
0.476911 0.083302 0.085806 255 220 0
0.468553 0.165616 0.091789 255 220 0
0.509628 0.106633 0.067637 255 220 0
0.468986 0.078897 0.001264 255 220 0
0.470002 0.036614 0.058291 255 220 0
0.477051 0.034606 0.004362 255 220 0
0.455531 0.092536 0.006103 255 220 0
0.480753 0.076839 0.082260 255 220 0
0.502669 0.065976 0.054431 255 220 0
0.421310 0.106602 0.055378 255 220 0
0.433706 0.034553 0.011170 255 220 0
0.478275 0.125742 0.094283 255 220 0
0.426181 0.109738 0.064784 255 220 0
0.475215 0.059866 0.075676 255 220 0
0.479506 0.052569 0.068807 255 220 0
0.483069 0.079719 0.082403 255 220 0
0.416577 0.068423 0.036617 255 220 0
0.450293 0.027159 0.003659 255 220 0
0.437001 0.088950 0.008747 255 220 0
0.439172 0.083333 0.005360 255 220 0
0.467659 0.166899 0.049602 255 220 0
0.500096 0.073387 0.021722 255 220 0
0.460371 0.039835 -0.003015 255 220 0
0.447469 0.180253 0.055958 255 220 0
0.507833 0.081159 0.038909 255 220 0
0.481879 0.176747 0.080385 255 220 0
0.504716 0.122429 0.048024 255 220 0
0.449155 0.184071 0.057591 255 220 0
0.455643 0.107627 0.090151 255 220 0
0.483412 0.028379 0.027491 255 220 0
0.466310 0.130543 0.028221 255 220 0
0.456216 0.061018 0.077126 255 220 0
0.482294 0.175184 0.082326 255 220 0
0.505480 0.124984 0.051489 255 220 0
0.437754 0.131073 0.034332 255 220 0
0.491826 0.163872 0.076291 255 220 0
0.501386 0.074857 0.023722 255 220 0
0.495923 0.070661 0.015771 255 220 0
0.446639 0.167406 0.084151 255 220 0
0.468485 0.120852 0.022675 255 220 0
0.473119 0.057068 0.074441 255 220 0
0.504787 0.072110 0.031086 255 220 0
0.454522 0.084201 0.085404 255 220 0
0.447131 0.024089 0.008271 255 220 0
0.500767 0.101747 0.031096 255 220 0
0.483736 0.155714 0.090582 255 220 0
0.466615 0.072346 0.083370 255 220 0
0.450979 0.102270 0.087502 255 220 0
0.466908 0.062895 0.078823 255 220 0
0.421586 0.099394 0.058129 255 220 0
0.499148 0.053562 0.031713 255 220 0
0.449399 0.025844 0.043451 255 220 0
0.437299 0.103462 0.016266 255 220 0
0.428751 0.070100 0.007478 255 220 0
0.500721 0.120948 0.041022 255 220 0
0.442783 0.031757 0.046950 255 220 0
0.460895 0.167458 0.090954 255 220 0
0.489217 0.053296 0.062145 255 220 0
0.489038 0.038886 0.015894 255 220 0
0.478978 0.180645 0.076280 255 220 0
0.442039 0.056042 0.068484 255 220 0
0.471846 0.136710 0.033277 255 220 0
0.502107 0.073408 0.062938 255 220 0
0.502034 0.119107 0.041663 255 220 0
0.503059 0.061026 0.041538 255 220 0
0.463053 0.150106 0.039517 255 220 0
0.498929 0.132111 0.046336 255 220 0
0.491858 0.158822 0.062924 255 220 0
0.478696 0.067745 0.078982 255 220 0
0.477365 0.167466 0.054376 255 220 0
0.449643 0.037899 0.057734 255 220 0
0.486709 0.072135 0.077394 255 220 0
0.504325 0.102508 0.036144 255 220 0
0.438778 0.121823 0.080067 255 220 0
0.445205 0.155687 0.084882 255 220 0
0.426536 0.090310 0.065541 255 220 0
0.485799 0.071370 0.006041 255 220 0
0.492968 0.094868 0.082171 255 220 0
0.428822 0.129584 0.044652 255 220 0
0.482879 0.106417 0.018534 255 220 0
0.434832 0.032331 0.012197 255 220 0
0.496145 0.154668 0.078812 255 220 0
0.477215 0.102900 0.091290 255 220 0
0.468435 0.129550 0.094930 255 220 0
0.509217 0.085737 0.045612 255 220 0
0.434876 0.136902 0.041841 255 220 0
0.463750 0.030698 0.052871 255 220 0
0.474005 0.131684 0.030749 255 220 0
0.449975 0.030833 0.050316 255 220 0
0.437201 0.068301 0.001715 255 220 0
0.488755 0.069875 0.008104 255 220 0
0.484946 0.034014 0.040770 255 220 0
0.465849 0.138121 0.032831 255 220 0
0.497015 0.058319 0.057145 255 220 0
0.480981 0.057808 0.072009 255 220 0
0.439520 0.023976 0.026889 255 220 0
0.484270 0.057938 0.003037 255 220 0
0.471687 0.031094 0.050381 255 220 0
0.490733 0.059796 0.008899 255 220 0
0.453021 0.129206 0.027668 255 220 0
0.481466 0.040429 0.004470 255 220 0
0.504981 0.075546 0.058538 255 220 0
0.475083 0.079488 0.002943 255 220 0
0.497792 0.070011 0.066770 255 220 0
0.416882 0.064507 0.029997 255 220 0
0.495866 0.057243 0.017041 255 220 0
0.454666 0.084601 0.085555 255 220 0
0.439196 0.062718 0.070239 255 220 0
0.470790 0.083842 0.003778 255 220 0
0.455774 0.079616 0.084468 255 220 0
0.474488 0.042919 -0.000744 255 220 0
0.429504 0.111431 0.069511 255 220 0
0.485511 0.093585 0.013743 255 220 0
0.420519 0.095867 0.056214 255 220 0
0.421511 0.111376 0.039364 255 220 0
0.447896 0.029722 0.047874 255 220 0
0.472910 0.142997 0.037455 255 220 0
0.493862 0.099637 0.082951 255 220 0
0.458827 0.112813 0.017150 255 220 0
0.465393 0.076380 -0.000378 255 220 0
0.509569 0.088689 0.045125 255 220 0
0.464574 0.147350 0.038095 255 220 0
0.475141 0.180789 0.082966 255 220 0
0.470119 0.085036 0.087564 255 220 0
0.472374 0.039791 0.060723 255 220 0
0.450869 0.090806 0.085537 255 220 0
0.469426 0.157264 0.093593 255 220 0
0.441901 0.021915 0.024197 255 220 0
0.510687 0.092948 0.050242 255 220 0
0.428142 0.041951 0.040102 255 220 0
0.442015 0.180658 0.072537 255 220 0
0.457876 0.107234 0.090821 255 220 0
0.471253 0.099602 0.091178 255 220 0
0.424593 0.045659 0.016076 255 220 0
0.497441 0.053465 0.049179 255 220 0
0.438576 0.069236 0.001256 255 220 0
0.456360 0.125579 0.092028 255 220 0
0.508481 0.099888 0.042121 255 220 0
0.433971 0.113036 0.023922 255 220 0
0.427832 0.054687 0.054076 255 220 0
0.431787 0.031507 0.021280 255 220 0
0.476694 0.026070 0.012533 255 220 0
0.490037 0.044925 0.012151 255 220 0
0.448274 0.147728 0.039958 255 220 0
0.508201 0.124053 0.058018 255 220 0
0.443459 0.171731 0.079863 255 220 0
0.423434 0.049828 0.015668 255 220 0
0.451411 0.042953 0.063270 255 220 0
0.486717 0.116233 0.025974 255 220 0
0.449591 0.023049 0.039139 255 220 0
0.479467 0.054884 0.070636 255 220 0
0.438118 0.096747 0.078172 255 220 0
0.421901 0.048213 0.030288 255 220 0
0.434332 0.151550 0.066894 255 220 0
0.464260 0.166318 0.048358 255 220 0
0.439549 0.154576 0.049290 255 220 0
0.497369 0.074695 0.070222 255 220 0
0.496866 0.050054 0.043285 255 220 0
0.457610 0.039608 0.062305 255 220 0
0.460845 0.163685 0.046464 255 220 0
0.449314 0.027969 0.003416 255 220 0
0.499541 0.141524 0.080209 255 220 0
0.486307 0.140947 0.091316 255 220 0
0.468515 0.082477 0.002714 255 220 0
0.475952 0.152193 0.093678 255 220 0
0.477979 0.083685 0.085633 255 220 0
0.501115 0.081883 0.024082 255 220 0
0.456950 0.098747 0.009246 255 220 0
0.459307 0.191157 0.066919 255 220 0
0.464936 0.093797 0.007287 255 220 0
0.481231 0.126697 0.029947 255 220 0
0.475893 0.022311 0.026207 255 220 0
0.459612 0.133319 0.029553 255 220 0
0.440552 0.136943 0.036832 255 220 0
0.453620 0.186873 0.078642 255 220 0
0.494579 0.046155 0.041922 255 220 0
0.441011 0.142721 0.040604 255 220 0
0.469831 0.074432 0.083999 255 220 0
0.451601 0.071213 -0.002015 255 220 0
0.473349 0.072806 -0.000030 255 220 0
0.490607 0.047043 0.052884 255 220 0
0.428629 0.073744 0.064811 255 220 0
0.456050 0.132177 0.029109 255 220 0
0.474820 0.022249 0.030005 255 220 0
0.498927 0.060158 0.022387 255 220 0
0.458989 0.021361 0.039008 255 220 0
0.456839 0.072895 -0.002043 255 220 0
0.478159 0.037342 0.054162 255 220 0
0.491986 0.098555 0.083934 255 220 0
0.451655 0.142226 0.090160 255 220 0
0.489598 0.045366 0.011106 255 220 0
0.427502 0.118684 0.034180 255 220 0
0.470282 0.152007 0.041947 255 220 0
0.508875 0.092731 0.063116 255 220 0
0.475006 0.088511 0.087867 255 220 0
0.493482 0.057504 0.061480 255 220 0
0.416661 0.089346 0.042557 255 220 0
0.482813 0.079198 0.082316 255 220 0
0.441115 0.082383 0.078190 255 220 0
0.478231 0.104883 0.015969 255 220 0
0.477174 0.123278 0.026383 255 220 0
0.493641 0.043950 0.023956 255 220 0
0.487666 0.033775 0.022456 255 220 0
0.428717 0.038167 0.035518 255 220 0
0.432380 0.145011 0.062314 255 220 0
0.503741 0.101713 0.034945 255 220 0
0.484490 0.030245 0.019968 255 220 0
0.452526 0.056127 0.073633 255 220 0
0.464049 0.023659 0.006289 255 220 0
0.499317 0.075647 0.020711 255 220 0
0.416877 0.067050 0.026351 255 220 0
0.451135 0.034907 0.055350 255 220 0
0.487464 0.043564 0.052555 255 220 0
0.433207 0.097733 0.073670 255 220 0
0.431225 0.136964 0.048901 255 220 0
0.456639 0.166769 0.090046 255 220 0
0.456701 0.115514 0.091380 255 220 0
0.446943 0.119625 0.022881 255 220 0
0.505770 0.111133 0.074819 255 220 0
0.457092 0.046997 -0.004596 255 220 0
0.497998 0.069222 0.018581 255 220 0
0.451545 0.190053 0.065756 255 220 0
0.473479 0.158602 0.092973 255 220 0
0.461605 0.119401 0.093194 255 220 0
0.461491 0.133322 0.093929 255 220 0
0.434857 0.154868 0.060973 255 220 0
0.416746 0.085682 0.044459 255 220 0
0.463751 0.190402 0.068925 255 220 0
0.445417 0.098261 0.010558 255 220 0
0.466405 0.018698 0.016223 255 220 0
0.437092 0.095018 0.077116 255 220 0
0.482636 0.143061 0.041231 255 220 0
0.423519 0.071194 0.012851 255 220 0
0.464041 0.122368 0.093938 255 220 0
0.502792 0.085824 0.027338 255 220 0
0.458651 0.148319 0.038457 255 220 0
0.489417 0.144174 0.045863 255 220 0
0.424499 0.112623 0.033160 255 220 0
0.434063 0.103760 0.018096 255 220 0
0.455934 0.086942 0.003454 255 220 0
0.489579 0.144730 0.089066 255 220 0
0.489301 0.035726 0.030037 255 220 0
0.444285 0.074601 0.000552 255 220 0
0.507259 0.074462 0.043006 255 220 0
0.479640 0.141629 0.039051 255 220 0
0.494224 0.065788 0.067842 255 220 0
0.475845 0.022723 0.019570 255 220 0
0.506442 0.119374 0.074522 255 220 0
0.477096 0.182433 0.072611 255 220 0
0.437939 0.075683 0.074136 255 220 0
0.435739 0.158460 0.067492 255 220 0
0.492608 0.121360 0.032904 255 220 0
0.504104 0.069761 0.054934 255 220 0
0.447225 0.168784 0.084314 255 220 0
0.457754 0.045143 0.067273 255 220 0
0.504788 0.118762 0.045585 255 220 0
0.506315 0.096853 0.069971 255 220 0
0.495203 0.092028 0.020815 255 220 0
0.460057 0.164768 0.046901 255 220 0
0.448487 0.093047 0.084821 255 220 0
0.469254 0.085432 0.087748 255 220 0
0.457895 0.190045 0.062327 255 220 0
0.462408 0.067633 -0.003535 255 220 0
0.494940 0.065508 0.014233 255 220 0
0.501069 0.091130 0.026841 255 220 0
0.431096 0.100857 0.018250 255 220 0
0.444926 0.090268 0.082328 255 220 0
0.497867 0.086188 0.021365 255 220 0
0.449406 0.126074 0.088650 255 220 0
0.430415 0.081931 0.068743 255 220 0
0.505892 0.117855 0.075315 255 220 0
0.424188 0.068331 0.056905 255 220 0
0.436530 0.156193 0.072148 255 220 0
0.468549 0.106833 0.014741 255 220 0
0.427939 0.043821 0.042296 255 220 0
0.508086 0.114217 0.048689 255 220 0
0.457977 0.102014 0.011005 255 220 0
0.452808 0.032414 0.053340 255 220 0
0.454764 0.019682 0.035290 255 220 0
0.482544 0.126964 0.093160 255 220 0
0.421150 0.053991 0.019009 255 220 0
0.481152 0.118633 0.093022 255 220 0
0.416116 0.082765 0.039774 255 220 0
0.501803 0.059472 0.032893 255 220 0
0.498218 0.053317 0.027051 255 220 0
0.449462 0.064709 -0.003032 255 220 0
0.429351 0.045028 0.046539 255 220 0
0.502676 0.067953 0.056732 255 220 0
0.445956 0.056630 0.071157 255 220 0
0.482182 0.066201 0.002515 255 220 0
0.420222 0.066718 0.017227 255 220 0
0.432682 0.033438 0.035899 255 220 0
0.493414 0.043200 0.024749 255 220 0
0.496239 0.132718 0.084887 255 220 0
0.416005 0.071008 0.031479 255 220 0
0.425168 0.110112 0.030001 255 220 0
0.474842 0.166965 0.052655 255 220 0
0.421328 0.090138 0.022244 255 220 0
0.418282 0.097275 0.034476 255 220 0
0.498421 0.051581 0.034059 255 220 0
0.457593 0.016741 0.018659 255 220 0
0.463999 0.170574 0.090383 255 220 0
0.486421 0.109778 0.089711 255 220 0
0.494156 0.118391 0.032507 255 220 0
0.446529 0.136027 0.086862 255 220 0
0.486723 0.103522 0.088243 255 220 0
0.460065 0.120949 0.021963 255 220 0
0.427739 0.126519 0.061077 255 220 0
0.455670 0.039227 -0.002765 255 220 0
0.499703 0.053937 0.036768 255 220 0
0.479025 0.082203 0.005477 255 220 0
0.419537 0.079701 0.052527 255 220 0
0.500501 0.097935 0.029020 255 220 0
0.443758 0.131720 0.031673 255 220 0
0.456521 0.051381 -0.004970 255 220 0
0.431132 0.059704 0.061885 255 220 0
0.484494 0.081464 0.082415 255 220 0
0.436277 0.087934 0.008618 255 220 0
0.437184 0.093918 0.077068 255 220 0
0.487423 0.095967 0.085826 255 220 0
0.506421 0.100943 0.071336 255 220 0
0.494200 0.048079 0.019239 255 220 0
0.496399 0.055812 0.018841 255 220 0
0.503568 0.072007 0.058727 255 220 0
0.458912 0.016886 0.028471 255 220 0
0.423993 0.063381 0.053932 255 220 0
0.453709 0.017350 0.028849 255 220 0
0.464857 0.116509 0.019599 255 220 0
0.438545 0.148513 0.046686 255 220 0
0.464759 0.180336 0.086109 255 220 0
0.441320 0.091124 0.080042 255 220 0
0.463231 0.123252 0.023450 255 220 0
0.427332 0.096441 0.018732 255 220 0
0.424678 0.090794 0.063184 255 220 0
0.437858 0.169610 0.067816 255 220 0
0.444427 0.153958 0.044844 255 220 0
0.509648 0.088064 0.046541 255 220 0
0.490074 0.044086 0.012833 255 220 0
0.504358 0.071725 0.030084 255 220 0
0.488500 0.148417 0.048362 255 220 0
0.472601 0.146127 0.094741 255 220 0
0.430496 0.036269 0.036325 255 220 0
0.432136 0.063120 0.064673 255 220 0
0.504814 0.125344 0.050466 255 220 0
0.469501 0.163910 0.092178 255 220 0
0.445833 0.073842 0.078619 255 220 0
0.482091 0.114470 0.022695 255 220 0
0.467260 0.158739 0.093359 255 220 0
0.501706 0.087564 0.026361 255 220 0
0.461768 0.124972 0.024412 255 220 0
0.438011 0.121594 0.027405 255 220 0
0.424998 0.107644 0.028309 255 220 0
0.493259 0.139495 0.086854 255 220 0
0.480349 0.147772 0.093192 255 220 0
0.420826 0.106003 0.054156 255 220 0
0.456389 0.190331 0.063019 255 220 0
0.439864 0.067832 0.072912 255 220 0
0.468483 0.116169 0.019944 255 220 0
0.444501 0.101413 0.012564 255 220 0
0.447138 0.163016 0.085482 255 220 0
0.441993 0.026056 0.037625 255 220 0
0.453594 0.030018 0.050851 255 220 0
0.437301 0.038494 0.004509 255 220 0
0.443352 0.131552 0.031722 255 220 0
0.431897 0.131354 0.040501 255 220 0
0.479537 0.026691 0.015957 255 220 0
0.505444 0.068044 0.045847 255 220 0
0.442753 0.176006 0.077343 255 220 0
0.423817 0.049365 0.039994 255 220 0
0.461613 0.020082 0.036254 255 220 0
0.451556 0.085767 0.084720 255 220 0
0.425262 0.088594 0.063699 255 220 0
0.476382 0.148920 0.094031 255 220 0
0.457857 0.181210 0.085094 255 220 0
0.446165 0.019321 0.021054 255 220 0
0.487755 0.160750 0.058258 255 220 0
0.421049 0.050093 0.029088 255 220 0
0.474764 0.051699 0.070231 255 220 0
0.437257 0.166981 0.065031 255 220 0
0.434409 0.104037 0.018066 255 220 0
0.476529 0.146089 0.040633 255 220 0
0.487657 0.148459 0.089842 255 220 0
0.480571 0.069147 0.078945 255 220 0
0.456663 0.024274 0.004808 255 220 0
0.439502 0.081521 0.076825 255 220 0
0.473703 0.175776 0.057091 255 220 0
0.499439 0.054615 0.044505 255 220 0
0.432994 0.062943 0.065413 255 220 0
0.448011 0.114948 0.087140 255 220 0
0.468067 0.163201 0.047731 255 220 0
0.441754 0.116734 0.022598 255 220 0
0.466568 0.087671 0.088412 255 220 0
0.455657 0.169366 0.089047 255 220 0
0.427667 0.121503 0.036745 255 220 0
0.437325 0.164483 0.060504 255 220 0
0.431095 0.125882 0.069891 255 220 0
0.430432 0.120128 0.069827 255 220 0
0.428341 0.126908 0.041957 255 220 0
0.481251 0.041767 0.057036 255 220 0
0.465421 0.087796 0.004521 255 220 0
0.507616 0.088704 0.037242 255 220 0
0.440988 0.128570 0.082199 255 220 0
0.487632 0.105247 0.020626 255 220 0
0.420408 0.058333 0.041413 255 220 0
0.478383 0.042319 0.001501 255 220 0
0.461541 0.105754 0.013191 255 220 0
0.506774 0.077724 0.054747 255 220 0
0.508598 0.108651 0.046372 255 220 0
0.419788 0.072681 0.018192 255 220 0
0.507218 0.081790 0.036075 255 220 0
0.488393 0.169177 0.074835 255 220 0
0.436805 0.162478 0.069504 255 220 0
0.494380 0.060116 0.013729 255 220 0
0.479737 0.077450 0.082872 255 220 0
0.467468 0.075318 0.084523 255 220 0
0.442231 0.034743 0.050119 255 220 0
0.505172 0.098527 0.035631 255 220 0
0.429180 0.122648 0.035622 255 220 0
0.431016 0.087545 0.070301 255 220 0
0.464825 0.185318 0.058520 255 220 0
0.489061 0.155178 0.054493 255 220 0
0.479211 0.024597 0.025355 255 220 0
0.452342 0.100227 0.010359 255 220 0
0.441044 0.027240 0.038555 255 220 0
0.450392 0.154113 0.042570 255 220 0
0.456715 0.131975 0.028909 255 220 0
0.475074 0.167530 0.090070 255 220 0
0.506388 0.082584 0.061316 255 220 0
0.461410 0.061456 -0.004739 255 220 0
0.436207 0.139628 0.042646 255 220 0
0.462332 0.154191 0.093469 255 220 0
0.494523 0.061731 0.064234 255 220 0
0.484507 0.029749 0.029402 255 220 0
0.462929 0.059473 0.076985 255 220 0
0.496956 0.051864 0.024084 255 220 0
0.464714 0.115406 0.093398 255 220 0
0.454957 0.016523 0.025056 255 220 0
0.434521 0.149669 0.069236 255 220 0
0.501449 0.108740 0.035312 255 220 0
0.465456 0.079276 0.085943 255 220 0
0.444049 0.097133 0.010322 255 220 0
0.417297 0.090188 0.032241 255 220 0
0.510890 0.111238 0.055086 255 220 0
0.454804 0.038697 -0.002538 255 220 0
0.497899 0.103924 0.028833 255 220 0
0.420449 0.081259 0.019523 255 220 0
0.436661 0.030764 0.011548 255 220 0
0.475298 0.108665 0.092772 255 220 0
0.500672 0.103503 0.031806 255 220 0
0.454474 0.090905 0.005365 255 220 0
0.453918 0.024019 0.042627 255 220 0
0.506162 0.116390 0.074895 255 220 0
0.510472 0.092198 0.056059 255 220 0
0.457388 0.172692 0.050211 255 220 0
0.438637 0.171912 0.069979 255 220 0
0.476200 0.046700 0.065567 255 220 0
0.465049 0.123343 0.023663 255 220 0
0.480244 0.122119 0.026662 255 220 0
0.505238 0.074589 0.056819 255 220 0
0.427809 0.094287 0.067461 255 220 0
0.498579 0.052457 0.031199 255 220 0
0.486271 0.062622 0.004915 255 220 0
0.430121 0.063200 0.005449 255 220 0
0.503699 0.090293 0.070624 255 220 0
0.471225 0.174439 0.088109 255 220 0
0.436252 0.155225 0.055459 255 220 0
0.434567 0.058368 0.064449 255 220 0
0.482171 0.093329 0.087325 255 220 0
0.434151 0.029199 0.020152 255 220 0
0.490658 0.060485 0.067273 255 220 0
0.417905 0.096511 0.047349 255 220 0
0.443646 0.048043 0.063678 255 220 0
0.457117 0.115572 0.018834 255 220 0
0.434917 0.154721 0.066632 255 220 0
0.484980 0.162750 0.088010 255 220 0
0.443418 0.055059 -0.002138 255 220 0
0.494917 0.057366 0.015169 255 220 0
0.438129 0.074711 0.002791 255 220 0
0.419426 0.104999 0.048666 255 220 0
0.419554 0.070270 0.048865 255 220 0
0.416790 0.075629 0.042868 255 220 0
0.489467 0.097166 0.018112 255 220 0
0.508457 0.124160 0.059319 255 220 0
0.489255 0.165075 0.083197 255 220 0
0.489049 0.148063 0.048528 255 220 0
0.487139 0.034579 0.017794 255 220 0
0.471197 0.181703 0.083949 255 220 0
0.498961 0.059614 0.055050 255 220 0
0.489360 0.078047 0.078440 255 220 0
0.470161 0.044657 0.066203 255 220 0
0.444236 0.062157 0.073197 255 220 0
0.462711 0.098115 0.009163 255 220 0
0.464425 0.109351 0.092587 255 220 0
0.483567 0.035261 0.009975 255 220 0
0.463910 0.094348 0.007406 255 220 0
0.485485 0.061424 0.071963 255 220 0
0.457256 0.158368 0.091711 255 220 0
0.463023 0.016879 0.025357 255 220 0
0.439936 0.147662 0.080019 255 220 0
0.496203 0.096225 0.080174 255 220 0
0.449332 0.092422 0.006691 255 220 0
0.490249 0.040104 0.041335 255 220 0
0.504606 0.069004 0.052241 255 220 0
0.480692 0.142212 0.039854 255 220 0
0.420610 0.086722 0.056126 255 220 0
0.446166 0.146801 0.040240 255 220 0
0.455143 0.187298 0.078649 255 220 0
0.466785 0.175870 0.053659 255 220 0
0.443373 0.034899 0.002187 255 220 0
0.459988 0.043067 0.065885 255 220 0
0.498083 0.051138 0.032331 255 220 0
0.474713 0.035701 0.054652 255 220 0
0.448411 0.149731 0.087902 255 220 0
0.434545 0.104800 0.075415 255 220 0
0.446277 0.019347 0.026324 255 220 0
0.490805 0.064458 0.009237 255 220 0
0.459316 0.179866 0.086149 255 220 0
0.463389 0.183967 0.056656 255 220 0
0.476334 0.138453 0.035804 255 220 0
0.462632 0.072087 0.083129 255 220 0
0.489823 0.154719 0.054960 255 220 0
0.481158 0.026342 0.022572 255 220 0
0.436211 0.056648 0.064765 255 220 0
0.463606 0.052036 -0.005083 255 220 0
0.462819 0.060449 -0.004824 255 220 0
0.482406 0.075744 0.081128 255 220 0
0.423069 0.046708 0.033114 255 220 0
0.432754 0.042621 0.049183 255 220 0
0.490609 0.097111 0.084385 255 220 0
0.436287 0.065741 0.069426 255 220 0
0.453221 0.050324 0.070096 255 220 0
0.502293 0.128451 0.048530 255 220 0
0.484168 0.068977 0.077198 255 220 0
0.445869 0.035161 0.000794 255 220 0
0.457948 0.101194 0.089914 255 220 0
0.487822 0.169845 0.078513 255 220 0
0.454959 0.076860 -0.000618 255 220 0
0.424177 0.109524 0.030960 255 220 0
0.473855 0.135887 0.033368 255 220 0
0.487104 0.169902 0.070121 255 220 0
0.428640 0.060648 0.006581 255 220 0
0.498499 0.064973 0.019832 255 220 0
0.504580 0.065041 0.043556 255 220 0
0.499484 0.134352 0.049003 255 220 0
0.430848 0.089019 0.012256 255 220 0
0.425342 0.091791 0.064179 255 220 0
0.503470 0.129404 0.077682 255 220 0
0.497264 0.130961 0.084095 255 220 0
0.453521 0.036791 -0.001799 255 220 0
0.471281 0.024145 0.039342 255 220 0
0.459260 0.032433 0.055097 255 220 0
0.430961 0.036019 0.013633 255 220 0
0.432898 0.133601 0.071423 255 220 0
0.420851 0.096544 0.026880 255 220 0
0.457267 0.160595 0.091407 255 220 0
0.483698 0.166332 0.087290 255 220 0
0.464337 0.190126 0.071532 255 220 0
0.416503 0.079589 0.042697 255 220 0
0.441544 0.168406 0.078282 255 220 0
0.486944 0.150945 0.089872 255 220 0
0.486511 0.109835 0.089679 255 220 0
0.498941 0.072370 0.019981 255 220 0
0.420523 0.105721 0.053269 255 220 0
0.495375 0.052781 0.018272 255 220 0
0.444576 0.041446 -0.000831 255 220 0
0.463670 0.018386 0.031699 255 220 0
0.494025 0.159937 0.076708 255 220 0
0.445771 0.084020 0.081505 255 220 0
0.448836 0.172655 0.051497 255 220 0
0.416261 0.068420 0.032951 255 220 0
0.460574 0.186904 0.079999 255 220 0
0.445661 0.136265 0.033956 255 220 0
0.442774 0.072215 0.076358 255 220 0
0.427246 0.057811 0.055599 255 220 0
0.477318 0.156849 0.047672 255 220 0
0.508042 0.078696 0.044829 255 220 0
0.447393 0.021408 0.034399 255 220 0
0.434227 0.069911 0.003585 255 220 0
0.499295 0.092053 0.025107 255 220 0
0.467036 0.048170 -0.004239 255 220 0
0.436185 0.048252 0.001912 255 220 0
0.490337 0.138504 0.042435 255 220 0
0.421293 0.053424 0.018982 255 220 0
0.433619 0.088608 0.073091 255 220 0
0.506454 0.091838 0.067461 255 220 0
0.448443 0.023394 0.008246 255 220 0
0.418094 0.079868 0.023480 255 220 0
0.421796 0.048239 0.029407 255 220 0
0.465751 0.148002 0.094453 255 220 0
0.459605 0.082267 0.001447 255 220 0
0.439416 0.102243 0.014695 255 220 0
0.442909 0.083543 0.079665 255 220 0
0.452977 0.047456 0.067783 255 220 0
0.491162 0.113304 0.027290 255 220 0
0.506745 0.096690 0.037531 255 220 0
0.468917 0.172954 0.089192 255 220 0
0.443968 0.021789 0.031018 255 220 0
0.427309 0.059154 0.056641 255 220 0
0.448403 0.052855 0.069926 255 220 0
0.431768 0.048625 0.005101 255 220 0
0.464107 0.069476 0.082124 255 220 0
0.482783 0.117103 0.024548 255 220 0
0.484456 0.150890 0.047404 255 220 0
0.485843 0.087062 0.011233 255 220 0
0.497439 0.055568 0.021683 255 220 0
0.437834 0.025198 0.024048 255 220 0
0.498167 0.052810 0.027786 255 220 0
0.500507 0.106254 0.079309 255 220 0
0.451759 0.062567 0.076702 255 220 0
0.434851 0.120250 0.028326 255 220 0
0.440033 0.122944 0.027327 255 220 0
0.463217 0.077406 0.085172 255 220 0
0.505171 0.114598 0.043593 255 220 0
0.423538 0.060994 0.051438 255 220 0
0.445488 0.153218 0.085356 255 220 0
0.459965 0.037776 -0.002368 255 220 0
0.462035 0.023108 0.006334 255 220 0
0.444021 0.112207 0.084189 255 220 0
0.460272 0.190191 0.063412 255 220 0
0.486320 0.128587 0.091586 255 220 0
0.434350 0.060641 0.065495 255 220 0
0.434490 0.082072 0.007083 255 220 0
0.435749 0.098990 0.014477 255 220 0
0.475592 0.082688 0.004418 255 220 0
0.486876 0.042776 0.052227 255 220 0
0.492272 0.129592 0.037727 255 220 0
0.480674 0.026665 0.031655 255 220 0
0.427434 0.092359 0.016505 255 220 0
0.461413 0.172105 0.050432 255 220 0
0.461302 0.188230 0.060083 255 220 0
0.436785 0.117513 0.077975 255 220 0
0.461939 0.027846 0.049098 255 220 0
0.465886 0.036243 0.059132 255 220 0
0.481195 0.034491 0.007941 255 220 0
0.487122 0.079643 0.080412 255 220 0
0.428085 0.044356 0.010713 255 220 0
0.442922 0.079553 0.078679 255 220 0
0.507125 0.129156 0.069692 255 220 0
0.478051 0.074557 0.082300 255 220 0
0.425165 0.059241 0.053173 255 220 0
0.501703 0.144007 0.068492 255 220 0
0.498056 0.101850 0.028029 255 220 0
0.438472 0.159086 0.075579 255 220 0
0.472395 0.152719 0.094100 255 220 0
0.450687 0.025753 0.043991 255 220 0
0.439358 0.148647 0.045859 255 220 0
0.484127 0.174656 0.078881 255 220 0
0.496442 0.059928 0.059878 255 220 0
0.466341 0.093501 0.089816 255 220 0
0.447649 0.180059 0.055731 255 220 0
0.423881 0.068061 0.012012 255 220 0
0.503340 0.112522 0.077784 255 220 0
0.433077 0.140121 0.069740 255 220 0
0.466081 0.154678 0.042468 255 220 0
0.498837 0.091852 0.024508 255 220 0
0.433782 0.094195 0.073935 255 220 0
0.433279 0.069584 0.004088 255 220 0
0.476178 0.022425 0.025076 255 220 0
0.460830 0.176143 0.088087 255 220 0
0.420183 0.061091 0.043652 255 220 0
0.468850 0.142720 0.036136 255 220 0
0.460001 0.140627 0.034008 255 220 0
0.453371 0.146982 0.038301 255 220 0
0.506338 0.129484 0.072303 255 220 0
0.471126 0.143636 0.037271 255 220 0
0.434022 0.127922 0.034849 255 220 0
0.490163 0.101539 0.020656 255 220 0
0.478905 0.063143 0.000119 255 220 0
0.425581 0.052273 0.010867 255 220 0
0.491410 0.164231 0.078647 255 220 0
0.441931 0.172137 0.056165 255 220 0
0.482746 0.069179 0.003453 255 220 0
0.472239 0.097785 0.090693 255 220 0
0.457550 0.048454 0.069808 255 220 0
0.431818 0.137982 0.048579 255 220 0
0.429773 0.088456 0.069090 255 220 0
0.486372 0.031906 0.029955 255 220 0
0.450705 0.115127 0.088714 255 220 0
0.506265 0.072186 0.049236 255 220 0
0.437756 0.167595 0.062004 255 220 0
0.483700 0.045436 0.004288 255 220 0
0.442007 0.132202 0.032738 255 220 0
0.492440 0.066106 0.069815 255 220 0
0.455852 0.016579 0.020111 255 220 0
0.497861 0.147457 0.060448 255 220 0
0.449192 0.185276 0.058661 255 220 0
0.451606 0.134939 0.031511 255 220 0
0.491220 0.059827 0.066190 255 220 0
0.416060 0.080771 0.039522 255 220 0
0.466079 0.185866 0.059913 255 220 0
0.504136 0.065397 0.034385 255 220 0
0.425975 0.124672 0.054306 255 220 0
0.511611 0.105763 0.059211 255 220 0
0.482115 0.117497 0.024513 255 220 0
0.458585 0.124290 0.024014 255 220 0
0.509061 0.110573 0.069574 255 220 0
0.510576 0.098143 0.047551 255 220 0
0.424634 0.113322 0.060706 255 220 0
0.450642 0.119901 0.022246 255 220 0
0.436903 0.164216 0.062368 255 220 0
0.429442 0.051788 0.054009 255 220 0
0.451399 0.184915 0.057113 255 220 0
0.488428 0.045445 0.009318 255 220 0
0.464656 0.024613 0.043548 255 220 0
0.451847 0.076611 0.082210 255 220 0
0.450731 0.082236 0.001899 255 220 0
0.429834 0.133502 0.048053 255 220 0
0.499552 0.140337 0.080533 255 220 0
0.433239 0.116705 0.026923 255 220 0
0.452288 0.047181 0.067299 255 220 0
0.453374 0.036723 0.058173 255 220 0
0.447956 0.071029 0.078668 255 220 0
0.498119 0.052359 0.044265 255 220 0
0.429862 0.136226 0.054968 255 220 0
0.419579 0.105818 0.048545 255 220 0
0.449732 0.102024 0.011718 255 220 0
0.487360 0.049194 0.006570 255 220 0
0.457531 0.033664 0.056213 255 220 0
0.509102 0.088402 0.058495 255 220 0
0.443534 0.031708 0.003944 255 220 0
0.439857 0.041004 0.055008 255 220 0
0.440566 0.179068 0.065483 255 220 0
0.443667 0.178945 0.077085 255 220 0
0.474797 0.029353 0.045577 255 220 0
0.438503 0.170449 0.061891 255 220 0
0.471899 0.035652 0.056275 255 220 0
0.430459 0.089336 0.012678 255 220 0
0.479732 0.102769 0.015324 255 220 0
0.449729 0.062698 0.076048 255 220 0
0.424887 0.104222 0.063549 255 220 0
0.480167 0.031818 0.044116 255 220 0
0.459189 0.036114 0.059144 255 220 0
0.438151 0.063878 0.070035 255 220 0
0.481234 0.039211 0.053820 255 220 0
0.500387 0.146622 0.074432 255 220 0
0.473490 0.154798 0.044731 255 220 0
0.505201 0.105324 0.074234 255 220 0
0.448828 0.125270 0.025985 255 220 0
0.441375 0.175458 0.075349 255 220 0
0.440952 0.080990 0.003781 255 220 0
0.426208 0.090290 0.016611 255 220 0
0.466135 0.134793 0.094794 255 220 0
0.486150 0.165298 0.060765 255 220 0
0.504734 0.075988 0.029892 255 220 0
0.480133 0.128592 0.093972 255 220 0
0.439551 0.140289 0.080249 255 220 0
0.419801 0.090934 0.054772 255 220 0
0.430204 0.129954 0.066680 255 220 0
0.422222 0.105883 0.058095 255 220 0
0.493964 0.153624 0.060216 255 220 0
0.471892 0.119075 0.094371 255 220 0
0.434865 0.088533 0.074255 255 220 0
0.491816 0.077565 0.076574 255 220 0
0.430902 0.128558 0.039100 255 220 0
0.484566 0.088004 0.010780 255 220 0
0.442878 0.038785 0.000792 255 220 0
0.425641 0.053905 0.010391 255 220 0
0.496397 0.065996 0.016296 255 220 0
0.501484 0.144640 0.071643 255 220 0
0.488889 0.067073 0.073277 255 220 0
0.484973 0.129882 0.092250 255 220 0
0.493577 0.128311 0.087069 255 220 0
0.436955 0.047004 0.058273 255 220 0
0.498435 0.109382 0.032080 255 220 0
0.433097 0.029789 0.025380 255 220 0
0.439668 0.028920 0.039659 255 220 0
0.494327 0.157935 0.068170 255 220 0
0.439385 0.159891 0.052636 255 220 0
0.421424 0.111988 0.040939 255 220 0
0.506453 0.132281 0.066183 255 220 0
0.510292 0.108959 0.066386 255 220 0
0.427701 0.074989 0.009489 255 220 0
0.458854 0.089446 0.004611 255 220 0
0.448417 0.090399 0.084297 255 220 0
0.460255 0.126701 0.025450 255 220 0
0.446656 0.019106 0.020692 255 220 0
0.505877 0.112798 0.074938 255 220 0
0.446715 0.133755 0.086993 255 220 0
0.507740 0.106795 0.043689 255 220 0
0.443684 0.055352 0.069073 255 220 0
0.434239 0.149400 0.068362 255 220 0
0.495482 0.135459 0.085333 255 220 0
0.485874 0.108384 0.021150 255 220 0
0.430225 0.052431 0.005692 255 220 0
0.443158 0.056919 -0.002018 255 220 0
0.430842 0.135159 0.065772 255 220 0
0.509309 0.092429 0.042714 255 220 0
0.440218 0.024137 0.017839 255 220 0
0.498654 0.090186 0.076025 255 220 0
0.453599 0.113357 0.089956 255 220 0
0.496762 0.144360 0.054473 255 220 0
0.464006 0.159980 0.092948 255 220 0
0.491524 0.161424 0.082678 255 220 0
0.505951 0.069150 0.043478 255 220 0
0.496711 0.144808 0.082971 255 220 0
0.506276 0.121319 0.050106 255 220 0
0.435408 0.154377 0.069451 255 220 0
0.442876 0.144922 0.040803 255 220 0
0.428697 0.128853 0.043879 255 220 0
0.486801 0.166262 0.085200 255 220 0
0.426278 0.125531 0.047226 255 220 0
0.481724 0.051330 0.001517 255 220 0
0.438868 0.172565 0.062816 255 220 0
0.497510 0.086546 0.021098 255 220 0
0.481273 0.178239 0.076962 255 220 0
0.429829 0.050626 0.053504 255 220 0
0.506250 0.131788 0.062263 255 220 0
0.449136 0.030014 0.002140 255 220 0
0.493111 0.113845 0.086492 255 220 0
0.501041 0.081721 0.023952 255 220 0
0.451185 0.049619 0.068799 255 220 0
0.485224 0.059739 0.070950 255 220 0
0.417690 0.082649 0.025817 255 220 0
0.484374 0.153680 0.090705 255 220 0
0.457159 0.022783 0.006280 255 220 0
0.456508 0.151796 0.092106 255 220 0
0.440955 0.149821 0.045073 255 220 0
0.490888 0.064359 0.069986 255 220 0
0.445664 0.094809 0.008662 255 220 0
0.424783 0.070913 0.058885 255 220 0
0.428501 0.083256 0.066868 255 220 0
0.426975 0.037575 0.026807 255 220 0
0.501882 0.133462 0.052297 255 220 0
0.429621 0.045907 0.008058 255 220 0
0.452674 0.187819 0.076881 255 220 0
0.489683 0.036913 0.022251 255 220 0
0.443738 0.063863 0.073700 255 220 0
0.456112 0.053881 0.073168 255 220 0
0.443736 0.035385 0.051889 255 220 0
0.416360 0.082764 0.031562 255 220 0
0.442726 0.025899 0.010130 255 220 0
0.466896 0.124764 0.094522 255 220 0
0.455223 0.179443 0.085269 255 220 0
0.503923 0.079379 0.028103 255 220 0
0.499730 0.057194 0.027314 255 220 0
0.453244 0.116004 0.090043 255 220 0
0.452287 0.046698 -0.003980 255 220 0
0.449411 0.037706 -0.001331 255 220 0
0.455895 0.172467 0.088226 255 220 0
0.509417 0.121905 0.061361 255 220 0
0.446752 0.065769 -0.002223 255 220 0
0.457266 0.163019 0.045943 255 220 0
0.416522 0.087722 0.042156 255 220 0
0.441606 0.103346 0.081633 255 220 0
0.459231 0.054012 0.073638 255 220 0
0.447472 0.053518 0.069929 255 220 0
0.502330 0.102881 0.076687 255 220 0
0.499559 0.149022 0.072551 255 220 0
0.507035 0.077702 0.036526 255 220 0
0.496722 0.066877 0.016743 255 220 0
0.442489 0.067864 -0.000563 255 220 0
0.441607 0.028222 0.040816 255 220 0
0.502060 0.112437 0.037958 255 220 0
0.444444 0.053893 -0.002496 255 220 0
0.485822 0.168011 0.063443 255 220 0
0.479806 0.036883 0.052109 255 220 0
0.496354 0.131015 0.042426 255 220 0
0.466756 0.178679 0.054993 255 220 0
0.475790 0.179511 0.061737 255 220 0
0.420357 0.100615 0.030867 255 220 0
0.496869 0.072350 0.069375 255 220 0
0.486970 0.033105 0.032407 255 220 0
0.453690 0.073760 0.081870 255 220 0
0.459030 0.177330 0.087301 255 220 0
0.461667 0.029769 0.051850 255 220 0
0.420371 0.071691 0.051452 255 220 0
0.496098 0.098864 0.024635 255 220 0
0.458156 0.174533 0.088205 255 220 0
0.485553 0.069142 0.076546 255 220 0
0.438586 0.024733 0.026685 255 220 0
0.484673 0.030647 0.032786 255 220 0
0.489202 0.097003 0.017836 255 220 0
0.505583 0.132318 0.072504 255 220 0
0.455017 0.019229 0.012073 255 220 0
0.446624 0.074252 -0.000163 255 220 0
0.441305 0.180954 0.068239 255 220 0
0.452320 0.021017 0.036980 255 220 0
0.502588 0.087316 0.027475 255 220 0
0.482387 0.176350 0.070498 255 220 0
0.492208 0.163122 0.073929 255 220 0
0.448199 0.031121 0.049743 255 220 0
0.486988 0.157143 0.054051 255 220 0
0.473079 0.028425 0.006317 255 220 0
0.485453 0.064075 0.073709 255 220 0
0.465198 0.140876 0.094659 255 220 0
0.503201 0.098780 0.032869 255 220 0
0.486468 0.072275 0.006771 255 220 0
0.477324 0.092346 0.088460 255 220 0
0.431954 0.096217 0.072253 255 220 0
0.500039 0.135982 0.080860 255 220 0
0.486178 0.045341 0.056511 255 220 0
0.474868 0.182600 0.064821 255 220 0
0.427452 0.087553 0.066329 255 220 0
0.417267 0.063142 0.028173 255 220 0
0.452864 0.108381 0.089128 255 220 0
0.471096 0.150593 0.094444 255 220 0
0.476747 0.054877 0.071824 255 220 0
0.480359 0.064240 0.001085 255 220 0
0.467884 0.117047 0.020340 255 220 0
0.474779 0.178774 0.060002 255 220 0
0.466301 0.149398 0.094417 255 220 0
0.491195 0.041986 0.017586 255 220 0
0.499683 0.135655 0.050504 255 220 0
0.481087 0.109772 0.091770 255 220 0
0.436295 0.159786 0.069320 255 220 0
0.435095 0.151455 0.055183 255 220 0
0.423882 0.103495 0.026817 255 220 0
0.507354 0.129266 0.063230 255 220 0
0.419167 0.073079 0.049333 255 220 0
0.429601 0.129817 0.042955 255 220 0
0.484704 0.164718 0.087424 255 220 0
0.477806 0.178446 0.063145 255 220 0
0.469419 0.023635 0.039726 255 220 0
0.477820 0.170968 0.056921 255 220 0
0.444610 0.061939 0.073296 255 220 0
0.440360 0.023285 0.021151 255 220 0
0.417571 0.087731 0.048251 255 220 0
0.436807 0.153201 0.052569 255 220 0
0.438142 0.165785 0.072423 255 220 0
0.446829 0.182998 0.058356 255 220 0
0.462009 0.018642 0.033068 255 220 0
0.497497 0.114407 0.083362 255 220 0
0.494420 0.085645 0.017656 255 220 0
0.465310 0.018064 0.017283 255 220 0
0.475632 0.109106 0.017602 255 220 0
0.483550 0.039406 0.051630 255 220 0
0.471136 0.122100 0.094638 255 220 0
0.471354 0.108476 0.092972 255 220 0
0.486089 0.166248 0.061722 255 220 0
0.509049 0.085174 0.053085 255 220 0
0.464836 0.034858 -0.000711 255 220 0
0.471300 0.144877 0.094874 255 220 0
0.425719 0.109837 0.063972 255 220 0
0.439520 0.072680 0.074392 255 220 0
0.464590 0.104821 0.012967 255 220 0
0.423036 0.088540 0.060546 255 220 0
0.417255 0.064023 0.035162 255 220 0
0.434210 0.128595 0.035227 255 220 0
0.438776 0.073636 0.074158 255 220 0
0.427972 0.051334 0.051162 255 220 0
0.493632 0.080196 0.015153 255 220 0
0.439685 0.125914 0.029517 255 220 0
0.430285 0.046122 0.049434 255 220 0
0.464575 0.032139 0.054589 255 220 0
0.468556 0.110416 0.093192 255 220 0
0.452098 0.043941 0.064441 255 220 0
0.431394 0.056971 0.060546 255 220 0
0.493446 0.055877 0.013005 255 220 0
0.451158 0.071585 -0.001843 255 220 0
0.475539 0.050970 -0.001876 255 220 0
0.468643 0.083875 0.087336 255 220 0
0.464943 0.185122 0.058403 255 220 0
0.451498 0.047485 -0.003943 255 220 0
0.493512 0.152346 0.084607 255 220 0
0.433055 0.147847 0.061074 255 220 0
0.501504 0.086368 0.025726 255 220 0
0.496652 0.074918 0.071108 255 220 0
0.474067 0.052331 0.070925 255 220 0
0.464788 0.045058 0.067545 255 220 0
0.500186 0.055465 0.042887 255 220 0
0.441763 0.100375 0.012798 255 220 0
0.490326 0.163396 0.066442 255 220 0
0.438721 0.119587 0.025682 255 220 0
0.482609 0.030997 0.038986 255 220 0
0.476346 0.090029 0.007935 255 220 0
0.496158 0.075276 0.071800 255 220 0
0.464813 0.032981 0.055590 255 220 0
0.498273 0.062755 0.059940 255 220 0
0.509527 0.110033 0.049382 255 220 0
0.472578 0.075140 0.000555 255 220 0
0.442428 0.129412 0.083501 255 220 0
0.465194 0.058688 0.076508 255 220 0
0.440798 0.104135 0.081050 255 220 0
0.448340 0.025552 0.005868 255 220 0
0.433942 0.077323 0.005718 255 220 0
0.427236 0.122266 0.038353 255 220 0
0.445404 0.060682 0.073105 255 220 0
0.426765 0.056125 0.053526 255 220 0
0.487952 0.103825 0.087689 255 220 0
0.491922 0.046686 0.014622 255 220 0
0.451556 0.072451 0.080657 255 220 0
0.450165 0.077862 0.081952 255 220 0
0.494920 0.048776 0.020725 255 220 0
0.453951 0.128562 0.091154 255 220 0
0.499011 0.053004 0.032739 255 220 0
0.494660 0.155220 0.081792 255 220 0
0.436455 0.053448 0.001102 255 220 0
0.499889 0.096125 0.076954 255 220 0
0.492402 0.070085 0.072347 255 220 0
0.436223 0.029941 0.036212 255 220 0
0.464279 0.186188 0.059093 255 220 0
0.436938 0.132523 0.077697 255 220 0
0.431391 0.069188 0.066349 255 220 0
0.424502 0.045486 0.016465 255 220 0
0.481767 0.048123 0.063518 255 220 0
0.489031 0.111150 0.088598 255 220 0
0.447168 0.021767 0.011739 255 220 0
0.438470 0.144161 0.043742 255 220 0
0.500208 0.090392 0.025509 255 220 0
0.419316 0.067760 0.018853 255 220 0
0.434774 0.028245 0.021780 255 220 0
0.464480 0.182498 0.056127 255 220 0
0.509608 0.112311 0.068510 255 220 0
0.425985 0.044043 0.038113 255 220 0
0.450854 0.071929 -0.001699 255 220 0
0.466395 0.055470 -0.004829 255 220 0
0.470170 0.143981 0.037206 255 220 0
0.506333 0.128633 0.057408 255 220 0
0.489901 0.121844 0.031202 255 220 0
0.494035 0.099805 0.023097 255 220 0
0.461887 0.185905 0.057636 255 220 0
0.483093 0.129443 0.032450 255 220 0
0.459583 0.179202 0.052982 255 220 0
0.504002 0.130920 0.054022 255 220 0
0.496947 0.087255 0.020739 255 220 0
0.485297 0.163228 0.057656 255 220 0
0.492607 0.123730 0.034318 255 220 0
0.451293 0.178727 0.053430 255 220 0
