ply
format ascii 1.0
element vertex 1024
property float x
property float y
property float z
property uchar red
property uchar green
property uchar blue
end_header
0.577426 0.058305 0.086131 255 220 0
0.539279 0.058550 0.029539 255 220 0
0.623027 0.030490 0.045950 255 220 0
0.577333 0.002257 0.050601 255 220 0
0.618351 0.058010 0.023770 255 220 0
0.568478 0.058974 -0.002657 255 220 0
0.582969 0.047223 0.083707 255 220 0
0.590198 0.129310 0.093233 255 220 0
0.623749 0.063028 0.078053 255 220 0
0.600897 0.045515 0.000610 255 220 0
0.575523 0.003454 0.051873 255 220 0
0.598363 0.000503 0.002561 255 220 0
0.589696 0.061714 0.002223 255 220 0
0.586312 0.040114 0.080991 255 220 0
0.613059 0.025009 0.060274 255 220 0
0.545535 0.082414 0.039883 255 220 0
0.555996 0.009851 -0.003982 255 220 0
0.590293 0.088252 0.095449 255 220 0
0.547786 0.084314 0.050530 255 220 0
0.579736 0.024828 0.071760 255 220 0
0.584355 0.016840 0.065955 255 220 0
0.589008 0.042417 0.082044 255 220 0
0.539140 0.046384 0.017681 255 220 0
0.572211 -0.000912 -0.006714 255 220 0
0.570937 0.062236 -0.001103 255 220 0
0.572854 0.056315 -0.004104 255 220 0
0.602699 0.131186 0.052955 255 220 0
0.622319 0.033136 0.028974 255 220 0
0.586231 0.009324 -0.009057 255 220 0
0.584716 0.148563 0.053966 255 220 0
0.625769 0.038855 0.048237 255 220 0
0.608382 0.137376 0.087249 255 220 0
0.628496 0.079714 0.059150 255 220 0
0.586557 0.151904 0.056319 255 220 0
0.566852 0.075561 0.083329 255 220 0
0.595830 -0.007198 0.025980 255 220 0
0.600630 0.096222 0.029418 255 220 0
0.561881 0.030087 0.067524 255 220 0
0.607846 0.135741 0.089099 255 220 0
0.628656 0.082004 0.062870 255 220 0
0.572330 0.102915 0.026696 255 220 0
0.616251 0.122682 0.085351 255 220 0
0.623198 0.034268 0.031376 255 220 0
0.619729 0.031447 0.021854 255 220 0
0.572582 0.135921 0.079531 255 220 0
0.602384 0.086347 0.024051 255 220 0
0.577600 0.022568 0.069741 255 220 0
0.623513 0.030769 0.039187 255 220 0
0.562488 0.052995 0.076673 255 220 0
0.567218 -0.003263 -0.003515 255 220 0
0.625841 0.060567 0.040275 255 220 0
0.602644 0.116344 0.095880 255 220 0
0.571921 0.038806 0.077455 255 220 0
0.562246 0.071380 0.078997 255 220 0
0.571667 0.029566 0.072492 255 220 0
0.543464 0.075292 0.042026 255 220 0
0.614287 0.013896 0.036660 255 220 0
0.558786 -0.002404 0.030749 255 220 0
0.571855 0.076255 0.007254 255 220 0
0.559813 0.045656 -0.006239 255 220 0
0.626653 0.079212 0.051179 255 220 0
0.552769 0.004775 0.032545 255 220 0
0.583723 0.132789 0.090283 255 220 0
0.595585 0.015496 0.062592 255 220 0
0.606797 0.001944 0.017454 255 220 0
0.607757 0.141856 0.082776 255 220 0
0.550377 0.028416 0.054668 255 220 0
0.605466 0.100979 0.036362 255 220 0
0.611424 0.032298 0.068767 255 220 0
0.627297 0.077123 0.052041 255 220 0
0.616403 0.020225 0.047751 255 220 0
0.598110 0.115908 0.040688 255 220 0
0.625628 0.090443 0.056554 255 220 0
0.619389 0.117883 0.072262 255 220 0
0.583556 0.031722 0.076555 255 220 0
0.610349 0.129570 0.060450 255 220 0
0.557054 0.009161 0.045331 255 220 0
0.592387 0.034272 0.077789 255 220 0
0.627737 0.060481 0.046201 255 220 0
0.557221 0.093200 0.069774 255 220 0
0.568627 0.124791 0.078892 255 220 0
0.543905 0.065272 0.049858 255 220 0
0.613489 0.034449 0.009618 255 220 0
0.601371 0.055039 0.085963 255 220 0
0.560536 0.103308 0.033712 255 220 0
0.614079 0.069159 0.023322 255 220 0
0.556269 0.007426 -0.002838 255 220 0
0.617598 0.112731 0.088334 255 220 0
0.585562 0.066225 0.090523 255 220 0
0.581736 0.094111 0.093404 255 220 0
0.625915 0.042951 0.055378 255 220 0
0.568524 0.109155 0.033421 255 220 0
0.570186 -0.000898 0.044388 255 220 0
0.607226 0.095629 0.034219 255 220 0
0.558215 0.002269 0.037833 255 220 0
0.569076 0.042114 -0.009320 255 220 0
0.615289 0.032324 0.012351 255 220 0
0.594295 -0.002169 0.039500 255 220 0
0.600325 0.103670 0.034246 255 220 0
0.605402 0.018745 0.060567 255 220 0
0.585805 0.021598 0.069846 255 220 0
0.554361 -0.001901 0.011892 255 220 0
0.610251 0.021707 0.005268 255 220 0
0.578409 -0.002220 0.044433 255 220 0
0.614816 0.022048 0.012924 255 220 0
0.588188 0.097826 0.024800 255 220 0
0.603621 0.005220 0.004439 255 220 0
0.615892 0.033801 0.065611 255 220 0
0.606160 0.044743 0.004082 255 220 0
0.605534 0.029886 0.070852 255 220 0
0.540672 0.042563 0.011177 255 220 0
0.616538 0.018354 0.022009 255 220 0
0.562657 0.053352 0.076891 255 220 0
0.548559 0.035534 0.055998 255 220 0
0.602806 0.049921 0.003923 255 220 0
0.563002 0.048258 0.075805 255 220 0
0.599267 0.009227 -0.002422 255 220 0
0.549753 0.085193 0.056152 255 220 0
0.615381 0.056111 0.018567 255 220 0
0.542345 0.072103 0.039613 255 220 0
0.551659 0.087191 0.025086 255 220 0
0.556814 0.001663 0.034802 255 220 0
0.606446 0.106839 0.041138 255 220 0
0.602935 0.059489 0.087341 255 220 0
0.593483 0.080669 0.015279 255 220 0
0.597555 0.043861 -0.002224 255 220 0
0.626997 0.045760 0.055248 255 220 0
0.599399 0.112901 0.039581 255 220 0
0.602153 0.142767 0.087992 255 220 0
0.576472 0.050381 0.083474 255 220 0
0.577623 0.006011 0.055143 255 220 0
0.560407 0.060237 0.076212 255 220 0
0.588741 0.120951 0.094566 255 220 0
0.556984 -0.004405 0.009889 255 220 0
0.627321 0.049619 0.060777 255 220 0
0.543382 0.017991 0.022425 255 220 0
0.574599 0.149981 0.068122 255 220 0
0.568638 0.074683 0.084607 255 220 0
0.579387 0.064310 0.088373 255 220 0
0.548288 0.022629 -0.001197 255 220 0
0.607273 0.013997 0.052746 255 220 0
0.570686 0.042731 -0.009272 255 220 0
0.570610 0.092904 0.086713 255 220 0
0.629208 0.056956 0.052930 255 220 0
0.568352 0.086246 0.014273 255 220 0
0.541371 0.030344 0.036600 255 220 0
0.550459 0.007195 0.004819 255 220 0
0.593754 -0.007831 0.009565 255 220 0
0.610120 0.007656 0.014660 255 220 0
0.583764 0.116812 0.036487 255 220 0
0.628970 0.080436 0.069823 255 220 0
0.571843 0.140880 0.074832 255 220 0
0.548191 0.026954 -0.001611 255 220 0
0.558016 0.013650 0.051515 255 220 0
0.617347 0.077824 0.032305 255 220 0
0.559727 -0.005129 0.026491 255 220 0
0.584226 0.019089 0.067860 255 220 0
0.552064 0.068894 0.065840 255 220 0
0.541908 0.025565 0.011703 255 220 0
0.563257 0.123312 0.058206 255 220 0
0.599810 0.131375 0.050706 255 220 0
0.574173 0.125305 0.043269 255 220 0
0.605031 0.034514 0.074369 255 220 0
0.607866 0.010853 0.046707 255 220 0
0.563386 0.009041 0.052200 255 220 0
0.596686 0.129570 0.047677 255 220 0
0.571544 0.000095 -0.007176 255 220 0
0.617629 0.099150 0.089668 255 220 0
0.601781 0.101365 0.096211 255 220 0
0.600744 0.049097 0.002123 255 220 0
0.593737 0.114577 0.096215 255 220 0
0.584093 0.047365 0.083893 255 220 0
0.624272 0.041179 0.032179 255 220 0
0.591311 0.067433 0.006116 255 220 0
0.594544 0.156506 0.068781 255 220 0
0.598320 0.060878 0.006269 255 220 0
0.613163 0.089192 0.035242 255 220 0
0.588005 -0.011464 0.022035 255 220 0
0.594567 0.100380 0.028888 255 220 0
0.575356 0.108006 0.030366 255 220 0
0.584754 0.153448 0.077890 255 220 0
0.605366 0.007562 0.044424 255 220 0
0.575795 0.113506 0.034536 255 220 0
0.575140 0.040133 0.079180 255 220 0
0.584199 0.041848 -0.008319 255 220 0
0.604103 0.038632 0.000220 255 220 0
0.598465 0.009185 0.053722 255 220 0
0.542685 0.048657 0.048515 255 220 0
0.591163 0.100048 0.027308 255 220 0
0.585820 -0.011329 0.025319 255 220 0
0.618321 0.020475 0.028236 255 220 0
0.568150 -0.008828 0.029058 255 220 0
0.589415 0.042346 -0.006644 255 220 0
0.584526 0.002425 0.050452 255 220 0
0.600667 0.058833 0.087629 255 220 0
0.570226 0.110193 0.084808 255 220 0
0.610126 0.008193 0.013569 255 220 0
0.560323 0.093067 0.022519 255 220 0
0.604458 0.116159 0.045316 255 220 0
0.621606 0.049672 0.072457 255 220 0
0.581627 0.052702 0.085496 255 220 0
0.600612 0.018678 0.063564 255 220 0
0.541659 0.066722 0.024967 255 220 0
0.588690 0.041965 0.081845 255 220 0
0.551902 0.054223 0.065650 255 220 0
0.610244 0.068704 0.019370 255 220 0
0.609800 0.086779 0.030371 255 220 0
0.609610 0.005798 0.026891 255 220 0
0.602444 -0.002810 0.022887 255 220 0
0.544560 0.014219 0.017948 255 220 0
0.561524 0.117405 0.052762 255 220 0
0.627404 0.059845 0.044825 255 220 0
0.599544 -0.005536 0.019296 255 220 0
0.558536 0.026156 0.062718 255 220 0
0.583453 -0.007358 -0.000354 255 220 0
0.622371 0.035521 0.027954 255 220 0
0.542317 0.045082 0.007905 255 220 0
0.558566 0.005939 0.043281 255 220 0
0.594936 0.006480 0.052197 255 220 0
0.549101 0.070975 0.060162 255 220 0
0.562960 0.109941 0.039042 255 220 0
0.579911 0.133056 0.088089 255 220 0
0.569068 0.083014 0.085423 255 220 0
0.582068 0.089853 0.017685 255 220 0
0.618863 0.068189 0.084070 255 220 0
0.585141 0.017045 -0.010992 255 220 0
0.620492 0.029561 0.025038 255 220 0
0.587470 0.157136 0.065260 255 220 0
0.592970 0.121378 0.095297 255 220 0
0.573855 0.085717 0.088920 255 220 0
0.576370 0.099318 0.090658 255 220 0
0.566256 0.126496 0.052991 255 220 0
0.540399 0.063108 0.026519 255 220 0
0.597894 0.154777 0.071965 255 220 0
0.580096 0.069465 0.003864 255 220 0
0.581548 -0.012815 0.009416 255 220 0
0.551085 0.067443 0.064395 255 220 0
0.614321 0.104738 0.047653 255 220 0
0.553514 0.047812 -0.002617 255 220 0
0.576494 0.088073 0.090587 255 220 0
0.625627 0.044625 0.036082 255 220 0
0.593985 0.115137 0.038221 255 220 0
0.619410 0.104296 0.054179 255 220 0
0.556611 0.087819 0.020180 255 220 0
0.568344 0.077234 0.008046 255 220 0
0.589746 0.056195 -0.000606 255 220 0
0.606291 0.104364 0.095346 255 220 0
0.602013 -0.001341 0.030736 255 220 0
0.577303 0.046726 -0.007814 255 220 0
0.622597 0.032403 0.051443 255 220 0
0.611922 0.104018 0.044571 255 220 0
0.601025 0.026534 0.070475 255 220 0
0.590101 -0.010984 0.015743 255 220 0
0.621266 0.076086 0.084625 255 220 0
0.607513 0.144049 0.078861 255 220 0
0.548838 0.048421 0.060325 255 220 0
0.565792 0.129742 0.059730 255 220 0
0.621719 0.081469 0.041057 255 220 0
0.615011 0.028384 0.061475 255 220 0
0.573358 0.137136 0.079968 255 220 0
0.563113 0.014361 0.057394 255 220 0
0.628569 0.076145 0.056570 255 220 0
0.617950 0.054184 0.078524 255 220 0
0.621871 0.052403 0.028081 255 220 0
0.596041 0.130795 0.047939 255 220 0
0.558875 0.062951 0.074989 255 220 0
0.575693 0.050955 0.083420 255 220 0
0.594427 0.155775 0.063906 255 220 0
0.593972 0.036010 -0.006796 255 220 0
0.618239 0.026650 0.019699 255 220 0
0.625268 0.050184 0.035502 255 220 0
0.564948 0.075048 0.007078 255 220 0
0.555773 0.061043 0.071336 255 220 0
0.622979 0.046117 0.028953 255 220 0
0.565300 0.094939 0.081452 255 220 0
0.544801 0.056215 0.053421 255 220 0
0.620198 0.074716 0.085097 255 220 0
0.539903 0.044426 0.039247 255 220 0
0.564620 0.127310 0.064219 255 220 0
0.602033 0.072734 0.015446 255 220 0
0.542895 0.019837 0.024594 255 220 0
0.629739 0.070958 0.060161 255 220 0
0.592388 0.070379 0.008349 255 220 0
0.560232 0.003162 0.041681 255 220 0
0.565034 -0.009506 0.024124 255 220 0
0.594856 0.088524 0.095756 255 220 0
0.545887 0.031480 0.001200 255 220 0
0.591901 0.080699 0.094565 255 220 0
0.540668 0.060447 0.021650 255 220 0
0.617596 0.019071 0.039035 255 220 0
0.614818 0.013907 0.031930 255 220 0
0.581196 0.035979 -0.010430 255 220 0
0.543139 0.020664 0.029145 255 220 0
0.612758 0.026914 0.062616 255 220 0
0.553306 0.028107 0.058431 255 220 0
0.610165 0.030232 0.004782 255 220 0
0.548181 0.044121 0.000209 255 220 0
0.547157 0.008735 0.019135 255 220 0
0.609000 0.005107 0.027519 255 220 0
0.611312 0.091230 0.092446 255 220 0
0.540729 0.049083 0.012824 255 220 0
0.557696 0.085254 0.017184 255 220 0
0.608437 0.129650 0.058018 255 220 0
0.552446 0.066681 0.007117 255 220 0
0.547290 0.074187 0.018382 255 220 0
0.612480 0.012097 0.038520 255 220 0
0.572212 -0.012825 0.008935 255 220 0
0.587420 0.135157 0.090912 255 220 0
0.596007 0.070942 0.092316 255 220 0
0.622672 0.078237 0.040915 255 220 0
0.565220 0.105298 0.079656 255 220 0
0.595462 0.064785 0.090529 255 220 0
0.594807 0.088288 0.020854 255 220 0
0.553815 0.100387 0.048767 255 220 0
0.581663 0.009755 -0.010277 255 220 0
0.613313 0.014089 0.041662 255 220 0
0.609590 0.046506 0.007883 255 220 0
0.539267 0.056581 0.034565 255 220 0
0.625458 0.056927 0.037928 255 220 0
0.578861 0.102261 0.026020 255 220 0
0.585624 0.021451 -0.011181 255 220 0
0.543043 0.034439 0.045402 255 220 0
0.590684 0.043808 0.082618 255 220 0
0.570098 0.061403 -0.001521 255 220 0
0.550960 0.066349 0.064292 255 220 0
0.595315 0.057285 0.087858 255 220 0
0.618462 0.058139 0.080169 255 220 0
0.612435 0.009753 0.022892 255 220 0
0.616183 0.016822 0.023770 255 220 0
0.613797 0.030654 0.065094 255 220 0
0.570426 -0.013071 0.018672 255 220 0
0.539630 0.039668 0.035981 255 220 0
0.565573 -0.011485 0.017505 255 220 0
0.599080 0.082932 0.019702 255 220 0
0.572806 0.119634 0.040025 255 220 0
0.591447 0.144560 0.087829 255 220 0
0.553307 0.062689 0.068146 255 220 0
0.597758 0.089829 0.023395 255 220 0
0.560400 0.071556 0.006066 255 220 0
0.543009 0.066174 0.047097 255 220 0
0.569941 0.140156 0.061534 255 220 0
0.579953 0.123682 0.040459 255 220 0
0.626503 0.045118 0.056570 255 220 0
0.609771 0.006823 0.015255 255 220 0
0.623346 0.030497 0.038076 255 220 0
0.618652 0.108611 0.056606 255 220 0
0.589054 0.109379 0.095752 255 220 0
0.545575 0.011971 0.019102 255 220 0
0.543810 0.037525 0.048618 255 220 0
0.628428 0.082512 0.061725 255 220 0
0.590609 0.127434 0.093756 255 220 0
0.554402 0.044854 0.066815 255 220 0
0.613707 0.077147 0.027662 255 220 0
0.587104 0.122866 0.093808 255 220 0
0.625278 0.046570 0.034961 255 220 0
0.596453 0.091817 0.024004 255 220 0
0.572776 0.093680 0.019457 255 220 0
0.557558 0.082900 0.015334 255 220 0
0.609322 0.098474 0.093944 255 220 0
0.597065 0.109307 0.096733 255 220 0
0.545341 0.081947 0.038529 255 220 0
0.592873 0.156376 0.064134 255 220 0
0.549398 0.040352 0.059134 255 220 0
0.602271 0.081805 0.021093 255 220 0
0.579269 0.072720 0.005738 255 220 0
0.571735 0.131515 0.080608 255 220 0
0.553757 -0.000520 0.023003 255 220 0
0.561243 0.000678 0.039366 255 220 0
0.562204 0.012978 -0.008932 255 220 0
0.578435 0.102186 0.025933 255 220 0
0.565038 0.104405 0.030825 255 220 0
0.595460 -0.007881 0.013722 255 220 0
0.618718 0.026509 0.053105 255 220 0
0.572843 0.145231 0.072554 255 220 0
0.540916 0.026172 0.021595 255 220 0
0.571177 -0.010622 0.027129 255 220 0
0.560267 0.055178 0.075254 255 220 0
0.542942 0.063894 0.047592 255 220 0
0.593357 0.111285 0.096428 255 220 0
0.585531 0.146931 0.084860 255 220 0
0.561386 -0.007835 0.007980 255 220 0
0.617419 0.120708 0.066743 255 220 0
0.541873 0.027597 0.010452 255 220 0
0.579333 0.017012 0.065818 255 220 0
0.569707 0.137750 0.058503 255 220 0
0.568731 0.077429 0.008143 255 220 0
0.609455 0.109034 0.045485 255 220 0
0.605029 0.108415 0.095794 255 220 0
0.585596 0.032681 0.077191 255 220 0
0.577180 -0.005130 -0.003932 255 220 0
0.550651 0.053748 0.063801 255 220 0
0.607807 0.138452 0.062573 255 220 0
0.610810 0.014729 0.048990 255 220 0
0.544341 0.037158 0.049565 255 220 0
0.562196 0.084403 0.078740 255 220 0
0.602901 0.127507 0.051013 255 220 0
0.576745 0.088168 0.015635 255 220 0
0.573452 0.053720 0.083417 255 220 0
0.579841 0.135814 0.087044 255 220 0
0.560259 0.095755 0.025224 255 220 0
0.570661 0.135344 0.054027 255 220 0
0.554070 0.098942 0.058105 255 220 0
0.552297 0.093473 0.057402 255 220 0
0.560376 0.100829 0.030799 255 220 0
0.587412 0.006038 0.054454 255 220 0
0.598399 0.054945 0.003323 255 220 0
0.627628 0.046281 0.047169 255 220 0
0.559993 0.099279 0.072984 255 220 0
0.617605 0.066958 0.026647 255 220 0
0.539146 0.035652 0.022613 255 220 0
0.602065 0.007768 0.000836 255 220 0
0.595786 0.073227 0.011785 255 220 0
0.619177 0.035572 0.062713 255 220 0
0.629794 0.065438 0.057682 255 220 0
0.548700 0.050024 0.001456 255 220 0
0.626205 0.039633 0.045406 255 220 0
0.614601 0.128623 0.083344 255 220 0
0.566980 0.133409 0.062273 255 220 0
0.616772 0.021515 0.018636 255 220 0
0.585304 0.040926 0.081315 255 220 0
0.572964 0.041509 0.079036 255 220 0
0.551886 0.007778 0.035623 255 220 0
0.627868 0.056417 0.045661 255 220 0
0.562246 0.096553 0.024699 255 220 0
0.546025 0.061546 0.055516 255 220 0
0.601074 0.149687 0.062003 255 220 0
0.618658 0.115024 0.063125 255 220 0
0.591818 -0.009948 0.022397 255 220 0
0.586991 0.069873 0.005905 255 220 0
0.552830 0.000834 0.023693 255 220 0
0.586228 0.122553 0.040099 255 220 0
0.591801 0.099708 0.027302 255 220 0
0.597177 0.129771 0.093704 255 220 0
0.617779 0.040333 0.069217 255 220 0
0.592154 0.030212 -0.008717 255 220 0
0.570069 0.111516 0.034796 255 220 0
0.581564 0.119503 0.092082 255 220 0
0.601590 0.022547 0.066821 255 220 0
0.596536 -0.006120 0.028232 255 220 0
0.567842 0.027115 0.069286 255 220 0
0.614267 0.012795 0.028618 255 220 0
0.575861 0.081137 0.089739 255 220 0
0.567738 -0.012526 0.014209 255 220 0
0.562321 0.121412 0.060345 255 220 0
0.626600 0.067199 0.045028 255 220 0
0.571466 0.045796 0.080088 255 220 0
0.578668 0.068665 0.003141 255 220 0
0.545617 0.067509 0.015415 255 220 0
0.629752 0.067373 0.066854 255 220 0
0.580681 0.009425 -0.010362 255 220 0
0.624325 0.063341 0.037430 255 220 0
0.550656 0.058237 0.003581 255 220 0
0.557848 0.005504 -0.003028 255 220 0
0.584503 0.072254 0.091802 255 220 0
0.625893 0.062294 0.041057 255 220 0
0.588610 0.060361 0.001078 255 220 0
0.562864 -0.005163 0.031181 255 220 0
0.620280 0.073232 0.084666 255 220 0
0.625166 0.048875 0.066186 255 220 0
0.594159 0.139076 0.050897 255 220 0
0.570465 0.142210 0.064002 255 220 0
0.581088 0.011868 0.061429 255 220 0
0.599398 0.089518 0.024151 255 220 0
0.612327 0.084974 0.031470 255 220 0
0.616468 0.032828 0.063979 255 220 0
0.545306 0.068855 0.052372 255 220 0
0.613692 0.012947 0.035915 255 220 0
0.612485 0.025821 0.008015 255 220 0
0.560302 0.038646 -0.008289 255 220 0
0.613975 0.048348 0.077854 255 220 0
0.595625 0.137373 0.091217 255 220 0
0.569334 0.126595 0.048194 255 220 0
0.545165 0.032359 0.048768 255 220 0
0.589434 0.055843 0.087504 255 220 0
0.552532 0.004437 0.004278 255 220 0
0.596805 0.022144 0.068455 255 220 0
0.542795 0.073393 0.030449 255 220 0
0.551721 0.020309 0.049965 255 220 0
0.591938 0.083717 0.016579 255 220 0
0.564529 0.126282 0.058377 255 220 0
0.606035 0.122963 0.094350 255 220 0
0.573333 0.027874 -0.012138 255 220 0
0.616262 0.018700 0.019954 255 220 0
0.570916 0.048156 -0.007525 255 220 0
0.545537 0.081330 0.032813 255 220 0
0.538488 0.047411 0.030362 255 220 0
0.538876 0.053305 0.024244 255 220 0
0.618434 0.058698 0.024185 255 220 0
0.628826 0.080471 0.071145 255 220 0
0.611972 0.124347 0.091238 255 220 0
0.619039 0.108145 0.056902 255 220 0
0.603564 -0.001863 0.018358 255 220 0
0.598373 0.144510 0.087813 255 220 0
0.608123 0.019604 0.059258 255 220 0
0.595734 0.039451 0.080036 255 220 0
0.574866 0.011187 0.060063 255 220 0
0.552208 0.033856 0.060279 255 220 0
0.596556 0.065558 0.007717 255 220 0
0.574605 0.075300 0.088415 255 220 0
0.602809 -0.000338 0.009905 255 220 0
0.597443 0.061639 0.006117 255 220 0
0.590741 0.024143 0.071433 255 220 0
0.578250 0.124706 0.089209 255 220 0
0.575207 -0.013944 0.016944 255 220 0
0.563598 0.118162 0.072068 255 220 0
0.605271 0.055676 0.085140 255 220 0
0.583735 0.062951 0.000912 255 220 0
0.600289 0.002609 0.042099 255 220 0
0.616157 0.027563 0.059007 255 220 0
0.612769 0.104349 0.045695 255 220 0
0.540585 0.063161 0.038851 255 220 0
0.581530 0.116365 0.036052 255 220 0
0.586254 0.153530 0.078387 255 220 0
0.602467 0.140090 0.057241 255 220 0
0.567826 0.008167 -0.009595 255 220 0
0.565193 0.011861 0.056585 255 220 0
0.612611 0.011756 0.036741 255 220 0
0.580838 0.001571 0.049758 255 220 0
0.569449 0.118249 0.082266 255 220 0
0.551248 0.077561 0.062768 255 220 0
0.559863 -0.007888 0.013027 255 220 0
0.615733 0.026579 0.013627 255 220 0
0.586285 0.145290 0.086197 255 220 0
0.600042 0.148701 0.059695 255 220 0
0.609208 0.101673 0.040247 255 220 0
0.568244 0.039426 0.076011 255 220 0
0.619127 0.114405 0.063763 255 220 0
0.594845 -0.008643 0.020470 255 220 0
0.546241 0.030319 0.049429 255 220 0
0.592372 0.020544 -0.009111 255 220 0
0.593283 0.028923 -0.008452 255 220 0
0.587974 0.038696 0.080327 255 220 0
0.541809 0.023811 0.014626 255 220 0
0.544988 0.017545 0.032495 255 220 0
0.598953 0.057720 0.087533 255 220 0
0.546729 0.039127 0.054585 255 220 0
0.559090 0.020378 0.059117 255 220 0
0.627323 0.086114 0.059367 255 220 0
0.589443 0.031747 0.076597 255 220 0
0.570629 0.007892 -0.010150 255 220 0
0.567749 0.068783 0.083300 255 220 0
0.613068 0.129363 0.086722 255 220 0
0.588039 0.046611 -0.005547 255 220 0
0.556359 0.084887 0.017753 255 220 0
0.607135 0.099737 0.036988 255 220 0
0.615013 0.129660 0.078531 255 220 0
0.558054 0.036467 -0.007854 255 220 0
0.619700 0.025293 0.026049 255 220 0
0.618011 0.023790 0.050436 255 220 0
0.625775 0.092481 0.059430 255 220 0
0.564151 0.063612 0.000392 255 220 0
0.543522 0.066991 0.048319 255 220 0
0.619579 0.086491 0.087511 255 220 0
0.612149 0.089300 0.091865 255 220 0
0.578870 0.007838 -0.010192 255 220 0
0.580029 -0.008800 0.033280 255 220 0
0.565683 0.001753 0.045289 255 220 0
0.552985 0.011856 -0.002352 255 220 0
0.556849 0.106065 0.060698 255 220 0
0.551878 0.072990 0.011874 255 220 0
0.578810 0.126880 0.089095 255 220 0
0.605801 0.126746 0.093557 255 220 0
0.597574 0.154353 0.074598 255 220 0
0.539472 0.057234 0.024300 255 220 0
0.569875 0.138069 0.072498 255 220 0
0.604867 0.110996 0.095800 255 220 0
0.596112 0.070978 0.092317 255 220 0
0.621578 0.032413 0.026894 255 220 0
0.545277 0.081747 0.037573 255 220 0
0.614788 0.014094 0.022689 255 220 0
0.571218 0.014324 -0.011597 255 220 0
0.574151 -0.012679 0.023284 255 220 0
0.617359 0.118358 0.086104 255 220 0
0.555533 0.054770 0.070326 255 220 0
0.585812 0.140895 0.049549 255 220 0
0.539981 0.046487 0.014100 255 220 0
0.590797 0.151945 0.081270 255 220 0
0.580852 0.106258 0.029113 255 220 0
0.551930 0.043958 0.063622 255 220 0
0.540994 0.033505 0.038113 255 220 0
0.610209 0.119289 0.053244 255 220 0
0.623626 0.036346 0.053739 255 220 0
0.558819 -0.006202 0.021198 255 220 0
0.566065 0.044316 -0.008311 255 220 0
0.624347 0.051490 0.033391 255 220 0
0.594504 0.016014 -0.007577 255 220 0
0.563969 0.022771 -0.010984 255 220 0
0.620166 0.098597 0.050759 255 220 0
0.545912 0.030897 0.001174 255 220 0
0.547795 0.061987 0.059032 255 220 0
0.617829 0.049286 0.075793 255 220 0
0.568302 -0.004227 -0.003199 255 220 0
0.546959 0.057354 0.006529 255 220 0
0.542089 0.025621 0.010836 255 220 0
0.583167 0.112707 0.093566 255 220 0
0.592820 0.050851 -0.001772 255 220 0
0.574057 0.074619 0.006303 255 220 0
0.553349 0.054948 0.067680 255 220 0
0.558994 0.017656 0.056623 255 220 0
0.620467 0.073981 0.034664 255 220 0
0.628365 0.054261 0.047798 255 220 0
0.592842 0.136417 0.091439 255 220 0
0.556765 -0.005048 0.016985 255 220 0
0.541005 0.034791 0.039226 255 220 0
0.555187 0.023902 0.057704 255 220 0
0.558957 0.024067 -0.009249 255 220 0
0.569391 0.036566 0.075297 255 220 0
0.614313 0.079546 0.029835 255 220 0
0.615700 0.111918 0.054673 255 220 0
0.615133 0.049699 0.015777 255 220 0
0.616218 0.016328 0.026766 255 220 0
0.553925 -0.000311 0.008780 255 220 0
0.614439 0.013416 0.032575 255 220 0
0.611587 0.064532 0.086383 255 220 0
0.558191 0.032577 0.065902 255 220 0
0.569281 0.093048 0.019280 255 220 0
0.574954 0.094556 0.020094 255 220 0
0.569244 0.044468 0.078539 255 220 0
0.628689 0.072018 0.054469 255 220 0
0.539492 0.037463 0.033290 255 220 0
0.568238 0.122316 0.079237 255 220 0
0.585232 0.007397 -0.008722 255 220 0
0.581457 -0.007457 -0.000958 255 220 0
0.558845 0.082629 0.074525 255 220 0
0.596328 0.155387 0.065662 255 220 0
0.599181 0.089298 0.095519 255 220 0
0.545104 0.034614 0.049872 255 220 0
0.567714 0.056090 -0.003969 255 220 0
0.570055 0.072248 0.004744 255 220 0
0.606830 0.047739 0.005883 255 220 0
0.594330 0.005843 0.051648 255 220 0
0.621597 0.089526 0.046176 255 220 0
0.591648 -0.008315 0.028985 255 220 0
0.560349 0.067573 0.003664 255 220 0
0.597708 0.137622 0.052270 255 220 0
0.597915 0.153282 0.062655 255 220 0
0.555136 0.089451 0.066854 255 220 0
0.569090 -0.003247 0.040036 255 220 0
0.571365 0.003983 0.051409 255 220 0
0.601079 -0.000551 0.007199 255 220 0
0.593372 0.041478 0.081362 255 220 0
0.552924 0.020648 -0.005349 255 220 0
0.552849 0.051062 0.066439 255 220 0
0.625398 0.085532 0.080993 255 220 0
0.583324 0.038476 0.080042 255 220 0
0.540106 0.035380 0.035292 255 220 0
0.623774 0.101220 0.079369 255 220 0
0.624296 0.061291 0.036553 255 220 0
0.565952 0.129674 0.068287 255 220 0
0.590410 0.115863 0.095590 255 220 0
0.559796 -0.002779 0.031642 255 220 0
0.573845 0.119596 0.039492 255 220 0
0.610507 0.134861 0.086333 255 220 0
0.604352 0.020412 0.063117 255 220 0
0.573998 0.059444 0.085133 255 220 0
0.584914 0.148336 0.053789 255 220 0
0.553469 0.044685 -0.003547 255 220 0
0.615973 0.070045 0.086267 255 220 0
0.558871 0.112405 0.059655 255 220 0
0.600943 0.119678 0.044756 255 220 0
0.624066 0.051400 0.032670 255 220 0
0.548829 0.067394 0.060313 255 220 0
0.564962 0.044199 -0.008143 255 220 0
0.588643 -0.011403 0.021054 255 220 0
0.586328 0.141307 0.088207 255 220 0
0.538808 0.038370 0.024886 255 220 0
0.603029 0.107469 0.038644 255 220 0
0.595043 0.107382 0.033803 255 220 0
0.588857 0.114987 0.036384 255 220 0
0.623926 0.085997 0.083263 255 220 0
0.604978 0.107854 0.040478 255 220 0
0.568060 0.100650 0.025824 255 220 0
0.619187 0.062787 0.027150 255 220 0
0.607238 0.027987 0.001284 255 220 0
0.552172 0.028920 -0.005343 255 220 0
0.615210 0.123100 0.087493 255 220 0
0.577849 0.141851 0.051874 255 220 0
0.611007 0.033004 0.006073 255 220 0
0.580081 0.062326 0.088067 255 220 0
0.562817 0.017610 0.059998 255 220 0
0.563819 0.110809 0.038993 255 220 0
0.545433 0.062719 0.054061 255 220 0
0.598537 -0.004428 0.029483 255 220 0
0.564247 0.083973 0.081059 255 220 0
0.619279 0.030336 0.056893 255 220 0
0.571234 0.138272 0.055822 255 220 0
0.606777 0.009619 0.005322 255 220 0
0.577004 0.103104 0.026545 255 220 0
0.598823 0.027214 0.071840 255 220 0
0.570112 -0.012617 0.009781 255 220 0
0.623404 0.105507 0.070833 255 220 0
0.586506 0.153060 0.057440 255 220 0
0.586858 0.103690 0.028471 255 220 0
0.597528 0.021391 0.067542 255 220 0
0.540286 0.058516 0.021240 255 220 0
0.601919 0.149934 0.063746 255 220 0
0.620513 0.024327 0.041611 255 220 0
0.553896 0.099039 0.041658 255 220 0
0.628023 0.061831 0.070570 255 220 0
0.613785 0.080077 0.029631 255 220 0
0.593481 0.091851 0.022617 255 220 0
0.623430 0.066976 0.080028 255 220 0
0.629115 0.054740 0.058586 255 220 0
0.548346 0.088191 0.046464 255 220 0
0.585755 0.089321 0.018213 255 220 0
0.569638 0.135156 0.055651 255 220 0
0.542293 0.027164 0.036796 255 220 0
0.588961 0.152242 0.056604 255 220 0
0.609610 0.008544 0.011524 255 220 0
0.572671 -0.006939 0.035326 255 220 0
0.559440 0.046206 0.072248 255 220 0
0.584434 0.052755 -0.004009 255 220 0
0.561224 0.106875 0.037551 255 220 0
0.617296 0.097986 0.089888 255 220 0
0.567493 0.089956 0.017189 255 220 0
0.558447 0.017543 0.055934 255 220 0
0.560143 0.007194 0.046778 255 220 0
0.555782 0.041645 0.067282 255 220 0
0.609198 0.012819 0.048192 255 220 0
0.559664 0.109457 0.044345 255 220 0
0.545884 0.082097 0.032806 255 220 0
0.584514 0.072182 0.006552 255 220 0
0.610237 0.012464 0.008880 255 220 0
0.563984 0.003321 0.045926 255 220 0
0.622363 0.045445 0.067798 255 220 0
0.566778 0.005001 -0.008121 255 220 0
0.549448 0.014356 0.040041 255 220 0
0.575113 0.148817 0.060858 255 220 0
0.574373 0.147902 0.072810 255 220 0
0.582429 -0.004550 0.040665 255 220 0
0.572546 0.140894 0.056159 255 220 0
0.577712 0.002121 0.050452 255 220 0
0.563724 0.064001 0.000700 255 220 0
0.611405 0.066319 0.019044 255 220 0
0.556536 0.033155 0.064681 255 220 0
0.545838 0.079227 0.048542 255 220 0
0.588371 -0.003302 0.041078 255 220 0
0.565117 0.005319 0.049400 255 220 0
0.547889 0.036897 0.055580 255 220 0
0.587869 0.003581 0.051194 255 220 0
0.621247 0.103998 0.084823 255 220 0
0.607146 0.118154 0.049141 255 220 0
0.617327 0.062651 0.082896 255 220 0
0.584011 0.094918 0.021638 255 220 0
0.572069 0.145017 0.070203 255 220 0
0.574515 0.053656 -0.005252 255 220 0
0.558754 0.065821 0.003237 255 220 0
0.580715 0.099731 0.092988 255 220 0
0.616083 0.125472 0.068995 255 220 0
0.624627 0.034577 0.038335 255 220 0
0.592698 0.090631 0.095930 255 220 0
0.561661 0.111049 0.071602 255 220 0
0.541115 0.067461 0.037646 255 220 0
0.555071 0.103143 0.055099 255 220 0
0.545393 0.081485 0.042684 255 220 0
0.621119 0.112378 0.069919 255 220 0
0.582975 0.083140 0.093102 255 220 0
0.548576 0.061630 0.060507 255 220 0
0.598494 0.038463 0.078961 255 220 0
0.563977 0.101909 0.028979 255 220 0
0.614280 0.050902 0.015036 255 220 0
0.568594 0.012082 -0.010770 255 220 0
0.552709 0.030504 -0.005652 255 220 0
0.619053 0.026787 0.022136 255 220 0
0.622724 0.101853 0.082347 255 220 0
0.594650 0.028898 0.074140 255 220 0
0.597990 0.090850 0.095846 255 220 0
0.607262 0.087490 0.093381 255 220 0
0.546969 0.020812 0.042736 255 220 0
0.624934 0.068517 0.041099 255 220 0
0.550054 0.005191 0.008978 255 220 0
0.551554 0.002762 0.024459 255 220 0
0.619875 0.116425 0.077922 255 220 0
0.574071 0.130493 0.046811 255 220 0
0.551216 0.087792 0.026605 255 220 0
0.626500 0.088764 0.077696 255 220 0
0.625230 0.065165 0.077243 255 220 0
0.559216 0.050636 -0.004266 255 220 0
0.592612 0.057988 0.001563 255 220 0
0.558430 0.060388 0.074266 255 220 0
0.595081 0.093824 0.024669 255 220 0
0.561911 -0.008149 0.007768 255 220 0
0.619266 0.069788 0.084345 255 220 0
0.564887 0.103039 0.079661 255 220 0
0.629449 0.063841 0.054730 255 220 0
0.551580 0.027378 0.055668 255 220 0
0.562275 0.121220 0.059409 255 220 0
0.611032 0.094067 0.092854 255 220 0
0.616452 0.070398 0.026860 255 220 0
0.558120 0.028112 -0.008857 255 220 0
0.573435 0.029744 -0.011959 255 220 0
0.557010 0.108093 0.054828 255 220 0
0.628267 0.049490 0.053167 255 220 0
0.557845 -0.001804 0.003510 255 220 0
0.607596 0.049291 0.081466 255 220 0
0.566187 0.081601 0.082972 255 220 0
0.623601 0.102785 0.064584 255 220 0
0.584464 0.124792 0.092536 255 220 0
0.613492 0.120295 0.091143 255 220 0
0.620149 0.027501 0.051090 255 220 0
0.614818 0.102944 0.091698 255 220 0
0.629073 0.078269 0.061512 255 220 0
0.564042 0.125810 0.061178 255 220 0
0.577916 0.115244 0.035454 255 220 0
0.560509 0.102630 0.032883 255 220 0
0.609315 0.126022 0.092497 255 220 0
0.556547 0.099883 0.035083 255 220 0
0.607006 0.015830 0.002549 255 220 0
0.573031 0.142870 0.057311 255 220 0
0.622804 0.046547 0.028619 255 220 0
0.609185 0.139000 0.083928 255 220 0
0.542571 0.025951 0.036342 255 220 0
0.627425 0.088366 0.073869 255 220 0
0.572192 0.002143 -0.008285 255 220 0
0.604048 0.073482 0.091578 255 220 0
0.624212 0.041038 0.032021 255 220 0
0.557457 0.020148 0.057218 255 220 0
0.590468 0.022566 0.070262 255 220 0
0.546429 0.060132 0.008844 255 220 0
0.602782 0.114218 0.096032 255 220 0
0.576879 -0.006708 -0.002498 255 220 0
0.576088 0.118452 0.088854 255 220 0
0.575812 0.120401 0.039315 255 220 0
0.596971 0.025846 0.071402 255 220 0
0.580206 0.066062 0.001869 255 220 0
0.540370 0.046795 0.041508 255 220 0
0.543875 0.057945 0.051166 255 220 0
0.545521 0.014110 0.009097 255 220 0
0.626800 0.091055 0.063212 255 220 0
0.555490 0.021854 -0.007292 255 220 0
0.584615 0.154595 0.076004 255 220 0
0.605023 -0.000187 0.023539 255 220 0
0.551939 0.035625 0.060740 255 220 0
0.561551 0.023186 0.063179 255 220 0
0.552866 0.008057 0.037807 255 220 0
0.543438 0.060476 0.013916 255 220 0
0.562923 -0.000553 -0.002930 255 220 0
0.579453 0.089781 0.092184 255 220 0
0.582670 0.145781 0.084099 255 220 0
0.625122 0.038081 0.036653 255 220 0
0.616933 0.017358 0.032933 255 220 0
0.566372 0.084261 0.083152 255 220 0
0.580428 0.017797 -0.011872 255 220 0
0.575096 0.009623 -0.010910 255 220 0
0.580950 0.138797 0.086574 255 220 0
0.628623 0.078040 0.073201 255 220 0
0.578647 0.037597 -0.010392 255 220 0
0.593388 0.129707 0.046057 255 220 0
0.541322 0.065171 0.024419 255 220 0
0.555581 0.074536 0.070687 255 220 0
0.564329 0.022628 0.064572 255 220 0
0.554457 0.024752 0.057478 255 220 0
0.613402 0.060868 0.084178 255 220 0
0.621552 0.106541 0.082971 255 220 0
0.625060 0.035679 0.045465 255 220 0
0.619397 0.027570 0.022726 255 220 0
0.574602 0.040556 -0.009933 255 220 0
0.552853 0.001646 0.026088 255 220 0
0.627104 0.070646 0.048011 255 220 0
0.574158 0.026516 -0.012261 255 220 0
0.615503 0.128163 0.071652 255 220 0
0.586597 0.001638 0.048959 255 220 0
0.624223 0.089975 0.051979 255 220 0
0.602601 0.142823 0.058717 255 220 0
0.609070 0.141593 0.067905 255 220 0
0.551018 0.077030 0.015831 255 220 0
0.604349 0.032344 0.073232 255 220 0
0.598579 -0.003413 0.032087 255 220 0
0.560674 0.043025 0.072258 255 220 0
0.585143 0.142867 0.087011 255 220 0
0.568379 -0.001339 0.042720 255 220 0
0.538735 0.048593 0.033176 255 220 0
0.622918 0.058839 0.032508 255 220 0
0.583479 0.140319 0.087392 255 220 0
0.590964 0.031613 0.076406 255 220 0
0.553712 -0.000955 0.011476 255 220 0
0.595826 -0.005314 0.031568 255 220 0
0.618240 0.058599 0.023831 255 220 0
0.623742 0.088925 0.083447 255 220 0
0.572369 -0.009767 0.002093 255 220 0
0.579625 0.045882 -0.007818 255 220 0
0.575331 0.150468 0.063846 255 220 0
0.562515 -0.007686 0.025100 255 220 0
0.625702 0.046124 0.036266 255 220 0
0.611836 0.136979 0.077971 255 220 0
0.617185 0.121890 0.083162 255 220 0
0.556802 0.002944 0.036778 255 220 0
0.617271 0.117398 0.062235 255 220 0
0.592804 -0.004680 0.002751 255 220 0
0.590713 0.026719 0.073288 255 220 0
0.581131 0.105872 0.093047 255 220 0
0.626946 0.057122 0.042462 255 220 0
0.614069 0.035179 0.010583 255 220 0
0.584381 0.055932 0.087052 255 220 0
0.548066 0.069784 0.058321 255 220 0
0.616756 0.093627 0.090009 255 220 0
0.592880 0.008455 0.055710 255 220 0
0.607891 0.144778 0.070798 255 220 0
0.543947 0.062373 0.050670 255 220 0
0.541315 0.041166 0.009453 255 220 0
0.564743 0.076914 0.081581 255 220 0
0.588663 0.114068 0.095362 255 220 0
0.581331 0.019664 0.068173 255 220 0
0.608514 0.028730 0.002724 255 220 0
0.601771 0.082789 0.021357 255 220 0
0.608518 0.141113 0.065895 255 220 0
0.583975 0.113949 0.093805 255 220 0
0.608910 0.004481 0.019949 255 220 0
0.625762 0.093694 0.061016 255 220 0
0.590415 0.072080 0.092672 255 220 0
0.566013 0.130896 0.061737 255 220 0
0.567573 0.123172 0.047293 255 220 0
0.556135 0.079111 0.013260 255 220 0
0.627635 0.085655 0.074926 255 220 0
0.538559 0.050232 0.030907 255 220 0
0.561832 0.103382 0.032350 255 220 0
0.606363 0.124950 0.093863 255 220 0
0.610289 0.140100 0.069767 255 220 0
0.578077 -0.008895 0.033047 255 220 0
0.610700 0.132863 0.063277 255 220 0
0.552480 0.033560 0.060470 255 220 0
0.556777 -0.002700 0.006636 255 220 0
0.540409 0.064889 0.030529 255 220 0
0.570330 0.124529 0.045457 255 220 0
0.567994 0.136315 0.065705 255 220 0
0.583940 0.151357 0.056266 255 220 0
0.572238 -0.012080 0.024107 255 220 0
0.609205 0.073103 0.089962 255 220 0
0.620817 0.046377 0.024350 255 220 0
0.580074 -0.013205 0.010046 255 220 0
0.608189 0.073376 0.020467 255 220 0
0.590738 0.003287 0.049822 255 220 0
0.582810 0.086254 0.093362 255 220 0
0.580740 0.072929 0.090793 255 220 0
0.615925 0.126402 0.069960 255 220 0
0.623328 0.042362 0.062390 255 220 0
0.588645 0.003469 -0.005909 255 220 0
0.587549 0.108442 0.095392 255 220 0
0.547629 0.084520 0.049627 255 220 0
0.549613 0.045142 0.060811 255 220 0
0.598495 0.071653 0.012416 255 220 0
0.541840 0.064360 0.043922 255 220 0
0.539319 0.041957 0.016162 255 220 0
0.568255 0.101262 0.026292 255 220 0
0.549189 0.046240 0.060440 255 220 0
0.541718 0.027072 0.033613 255 220 0
0.619745 0.041258 0.021314 255 220 0
0.574559 0.097507 0.022300 255 220 0
0.543334 0.021497 0.032263 255 220 0
0.570715 0.000310 0.046380 255 220 0
0.578471 0.075431 0.090312 255 220 0
0.558493 0.014453 0.052911 255 220 0
0.543142 0.031729 0.043997 255 220 0
0.615261 0.017591 0.017341 255 220 0
0.583810 0.042307 -0.008260 255 220 0
0.602240 0.016864 -0.002562 255 220 0
0.574935 0.049573 0.082724 255 220 0
0.601179 0.149472 0.061912 255 220 0
0.579845 0.018737 -0.012013 255 220 0
0.612883 0.110982 0.092874 255 220 0
0.563116 0.120037 0.052005 255 220 0
0.625042 0.045454 0.034205 255 220 0
0.604136 0.034880 0.075013 255 220 0
0.578600 0.017774 0.066317 255 220 0
0.569543 0.012739 0.059757 255 220 0
0.612179 0.015412 0.047742 255 220 0
0.576443 0.072303 0.005059 255 220 0
0.617813 0.122645 0.075500 255 220 0
0.573557 0.091583 0.017877 255 220 0
0.592060 -0.004584 0.036870 255 220 0
0.607943 0.054703 0.010020 255 220 0
0.603536 0.035330 0.075550 255 220 0
0.570798 0.001071 0.047467 255 220 0
0.606612 0.022771 0.063943 255 220 0
0.630007 0.066553 0.060930 255 220 0
0.603683 0.041072 0.000724 255 220 0
0.561100 0.099774 0.074719 255 220 0
0.569932 0.025859 0.069451 255 220 0
0.555172 0.075489 0.069951 255 220 0
0.569385 -0.002075 -0.005324 255 220 0
0.566656 0.051589 -0.005797 255 220 0
0.559516 0.096578 0.026682 255 220 0
0.553019 0.032163 0.060429 255 220 0
0.540845 0.031986 0.035868 255 220 0
0.596837 0.064819 0.090394 255 220 0
0.611465 0.008938 0.017712 255 220 0
0.558800 0.042226 0.070364 255 220 0
0.558215 0.047796 0.071594 255 220 0
0.612786 0.010260 0.024575 255 220 0
0.569254 0.096349 0.085389 255 220 0
0.613728 0.013371 0.037552 255 220 0
0.615408 0.113564 0.090764 255 220 0
0.565534 0.027790 -0.011272 255 220 0
0.609670 0.054807 0.083178 255 220 0
0.598817 0.031079 0.074542 255 220 0
0.549633 0.004545 0.020226 255 220 0
0.600568 0.150650 0.062450 255 220 0
0.558437 0.104067 0.067792 255 220 0
0.543841 0.043592 0.050455 255 220 0
0.548047 0.022476 -0.000868 255 220 0
0.587183 0.012062 0.061262 255 220 0
0.599056 0.071722 0.092147 255 220 0
0.565704 -0.005572 -0.000386 255 220 0
0.572759 0.115434 0.036868 255 220 0
0.624730 0.049666 0.033920 255 220 0
0.547050 0.045319 0.001563 255 220 0
0.552410 0.003354 0.005939 255 220 0
0.600918 0.147036 0.059407 255 220 0
0.624623 0.068564 0.079315 255 220 0
0.542423 0.020524 0.020048 255 220 0
0.583554 0.042707 -0.008188 255 220 0
0.595585 0.023283 -0.007768 255 220 0
0.604180 0.108400 0.040155 255 220 0
0.628360 0.085319 0.069035 255 220 0
0.619832 0.082550 0.038663 255 220 0
0.621671 0.060224 0.030499 255 220 0
0.598740 0.150911 0.060325 255 220 0
0.614679 0.091439 0.038392 255 220 0
0.596671 0.144921 0.054692 255 220 0
0.627713 0.088095 0.065292 255 220 0
0.622537 0.047365 0.028164 255 220 0
0.615831 0.123669 0.065623 255 220 0
0.621765 0.083768 0.042584 255 220 0
0.588737 0.146264 0.052592 255 220 0
