ply
format ascii 1.0
element vertex 1024
property float x
property float y
property float z
property uchar red
property uchar green
property uchar blue
end_header
0.629742 0.073938 0.231924 255 220 0
0.570361 0.072677 0.198306 255 220 0
0.654564 0.054068 0.173131 255 220 0
0.618368 0.020318 0.194520 255 220 0
0.638142 0.081995 0.158247 255 220 0
0.581828 0.078381 0.156770 255 220 0
0.634507 0.063756 0.226180 255 220 0
0.638370 0.145470 0.239930 255 220 0
0.666919 0.084650 0.204785 255 220 0
0.613253 0.068772 0.144005 255 220 0
0.617230 0.021217 0.196575 255 220 0
0.615631 0.023744 0.142233 255 220 0
0.602664 0.083389 0.152048 255 220 0
0.636853 0.057261 0.221553 255 220 0
0.652593 0.046649 0.189734 255 220 0
0.578582 0.096520 0.207227 255 220 0
0.574228 0.028257 0.156038 255 220 0
0.642875 0.104664 0.237640 255 220 0
0.585211 0.098092 0.215923 255 220 0
0.628131 0.041822 0.214649 255 220 0
0.630297 0.034779 0.206614 255 220 0
0.639532 0.059811 0.221540 255 220 0
0.565922 0.061250 0.186543 255 220 0
0.588320 0.019695 0.145346 255 220 0
0.584441 0.081826 0.157407 255 220 0
0.585291 0.076352 0.153277 255 220 0
0.631232 0.151042 0.198697 255 220 0
0.646085 0.057533 0.158579 255 220 0
0.598883 0.031660 0.138129 255 220 0
0.614242 0.166041 0.209315 255 220 0
0.657333 0.062564 0.174822 255 220 0
0.651182 0.155986 0.227408 255 220 0
0.661254 0.102795 0.187553 255 220 0
0.616657 0.169445 0.210945 255 220 0
0.617639 0.089921 0.235862 255 220 0
0.624545 0.014524 0.163439 255 220 0
0.621732 0.117423 0.175026 255 220 0
0.609908 0.045113 0.219283 255 220 0
0.651673 0.154199 0.229125 255 220 0
0.662877 0.104881 0.191036 255 220 0
0.594779 0.120793 0.185764 255 220 0
0.658553 0.142474 0.220734 255 220 0
0.647852 0.058630 0.160450 255 220 0
0.640723 0.055937 0.153198 255 220 0
0.615993 0.150648 0.236159 255 220 0
0.621703 0.108141 0.168451 255 220 0
0.625512 0.039435 0.213557 255 220 0
0.651934 0.054773 0.166916 255 220 0
0.612649 0.067392 0.229531 255 220 0
0.585513 0.016587 0.150158 255 220 0
0.652009 0.084530 0.169925 255 220 0
0.651711 0.133975 0.235470 255 220 0
0.622574 0.054422 0.224610 255 220 0
0.611944 0.085458 0.233601 255 220 0
0.620888 0.045505 0.219345 255 220 0
0.578298 0.089093 0.209317 255 220 0
0.644001 0.037074 0.166994 255 220 0
0.593339 0.014547 0.184515 255 220 0
0.587843 0.095375 0.165896 255 220 0
0.573622 0.064331 0.156025 255 220 0
0.656075 0.102512 0.181207 255 220 0
0.588196 0.020839 0.189508 255 220 0
0.630995 0.148299 0.240512 255 220 0
0.638886 0.034986 0.198527 255 220 0
0.629704 0.025374 0.151942 255 220 0
0.648242 0.160595 0.224156 255 220 0
0.594038 0.042772 0.212720 255 220 0
0.628756 0.122343 0.179575 255 220 0
0.654347 0.053212 0.198778 255 220 0
0.657209 0.100472 0.181477 255 220 0
0.650338 0.042996 0.176602 255 220 0
0.622912 0.136015 0.188212 255 220 0
0.656641 0.113226 0.187607 255 220 0
0.655862 0.138812 0.207187 255 220 0
0.633109 0.048854 0.217949 255 220 0
0.641539 0.149952 0.201842 255 220 0
0.597388 0.025003 0.199471 255 220 0
0.641305 0.052379 0.215419 255 220 0
0.656365 0.084349 0.174364 255 220 0
0.601509 0.106985 0.229836 255 220 0
0.613116 0.139174 0.236188 255 220 0
0.583045 0.078786 0.215076 255 220 0
0.629423 0.058830 0.145348 255 220 0
0.651236 0.073599 0.220882 255 220 0
0.587408 0.119376 0.197260 255 220 0
0.633211 0.092554 0.160878 255 220 0
0.575187 0.025825 0.156687 255 220 0
0.661922 0.132611 0.221777 255 220 0
0.638292 0.082530 0.233069 255 220 0
0.633856 0.109551 0.240192 255 220 0
0.660330 0.066251 0.181547 255 220 0
0.593895 0.126151 0.194080 255 220 0
0.609483 0.016669 0.191805 255 220 0
0.629805 0.117369 0.176338 255 220 0
0.595625 0.018722 0.191565 255 220 0
0.580772 0.062106 0.148830 255 220 0
0.632430 0.056791 0.146773 255 220 0
0.628835 0.018584 0.176688 255 220 0
0.623008 0.124505 0.180232 255 220 0
0.646436 0.039500 0.192727 255 220 0
0.632938 0.039457 0.209934 255 220 0
0.580887 0.015544 0.169704 255 220 0
0.625652 0.046047 0.141586 255 220 0
0.616927 0.016347 0.188085 255 220 0
0.633124 0.046517 0.146435 255 220 0
0.608456 0.117765 0.176558 255 220 0
0.620757 0.028951 0.142074 255 220 0
0.656777 0.055413 0.194148 255 220 0
0.619558 0.068452 0.144702 255 220 0
0.650247 0.049997 0.202986 255 220 0
0.564682 0.058004 0.179675 255 220 0
0.639047 0.042566 0.153397 255 220 0
0.612867 0.067754 0.229687 255 220 0
0.592425 0.049536 0.215440 255 220 0
0.616072 0.073188 0.146571 255 220 0
0.613111 0.062805 0.228043 255 220 0
0.613467 0.032773 0.138288 255 220 0
0.589414 0.098892 0.220159 255 220 0
0.633321 0.080039 0.154721 255 220 0
0.576484 0.085930 0.207331 255 220 0
0.576982 0.102803 0.191824 255 220 0
0.593067 0.018119 0.189417 255 220 0
0.631286 0.128007 0.184005 255 220 0
0.652876 0.078123 0.221879 255 220 0
0.610318 0.101919 0.163970 255 220 0
0.609145 0.066885 0.142781 255 220 0
0.661000 0.069173 0.181243 255 220 0
0.623812 0.133251 0.186346 255 220 0
0.645525 0.160537 0.231371 255 220 0
0.628361 0.066115 0.229160 255 220 0
0.620354 0.023825 0.198827 255 220 0
0.609986 0.074344 0.230782 255 220 0
0.638370 0.136936 0.240902 255 220 0
0.582529 0.013488 0.166504 255 220 0
0.663451 0.072735 0.186427 255 220 0
0.574196 0.033360 0.185983 255 220 0
0.611487 0.165451 0.226544 255 220 0
0.619874 0.089196 0.236124 255 220 0
0.631993 0.080005 0.233677 255 220 0
0.567558 0.039841 0.163233 255 220 0
0.644982 0.035447 0.184440 255 220 0
0.582174 0.062909 0.148227 255 220 0
0.621055 0.107379 0.239008 255 220 0
0.660991 0.080664 0.179352 255 220 0
0.587048 0.104471 0.174726 255 220 0
0.577747 0.044586 0.200779 255 220 0
0.573480 0.024476 0.166053 255 220 0
0.615374 0.014544 0.149652 255 220 0
0.630928 0.031590 0.148573 255 220 0
0.608189 0.135411 0.190883 255 220 0
0.666411 0.102984 0.196936 255 220 0
0.612810 0.155731 0.232805 255 220 0
0.566924 0.044138 0.163352 255 220 0
0.600647 0.029230 0.205022 255 220 0
0.639431 0.101046 0.168338 255 220 0
0.592491 0.012192 0.180023 255 220 0
0.630851 0.036889 0.208601 255 220 0
0.597182 0.082486 0.226102 255 220 0
0.567435 0.041275 0.177851 255 220 0
0.599167 0.138192 0.219959 255 220 0
0.627636 0.151003 0.197986 255 220 0
0.601998 0.142301 0.202032 255 220 0
0.650994 0.054331 0.206819 255 220 0
0.643058 0.032733 0.178471 255 220 0
0.606116 0.025273 0.202792 255 220 0
0.623647 0.149003 0.196476 255 220 0
0.587435 0.020638 0.145332 255 220 0
0.663682 0.119080 0.221556 255 220 0
0.652342 0.119005 0.234605 255 220 0
0.613497 0.072221 0.145791 255 220 0
0.644087 0.131130 0.239513 255 220 0
0.635578 0.064022 0.225865 255 220 0
0.648592 0.065566 0.161403 255 220 0
0.605372 0.089039 0.155396 255 220 0
0.628978 0.174288 0.219009 255 220 0
0.612222 0.083379 0.151768 255 220 0
0.636082 0.111649 0.173971 255 220 0
0.616168 0.009568 0.162932 255 220 0
0.615753 0.120843 0.177655 255 220 0
0.598694 0.126003 0.188227 255 220 0
0.624619 0.169579 0.231132 255 220 0
0.640083 0.029295 0.177198 255 220 0
0.600500 0.131280 0.192316 255 220 0
0.626101 0.056031 0.224865 255 220 0
0.594694 0.063612 0.143028 255 220 0
0.616503 0.062357 0.141536 255 220 0
0.637988 0.029562 0.188699 255 220 0
0.582743 0.062244 0.212708 255 220 0
0.612044 0.120190 0.177712 255 220 0
0.615688 0.009259 0.166837 255 220 0
0.643254 0.044542 0.158381 255 220 0
0.601444 0.009401 0.178219 255 220 0
0.600045 0.064642 0.142274 255 220 0
0.624685 0.021359 0.191233 255 220 0
0.651043 0.077184 0.223068 255 220 0
0.618415 0.124574 0.239256 255 220 0
0.630398 0.032183 0.147653 255 220 0
0.583044 0.109812 0.186320 255 220 0
0.630617 0.136777 0.189564 255 220 0
0.663612 0.071459 0.199366 255 220 0
0.633661 0.068927 0.228930 255 220 0
0.643529 0.038692 0.197505 255 220 0
0.569741 0.081314 0.194021 255 220 0
0.639197 0.059336 0.221456 255 220 0
0.598177 0.067935 0.224495 255 220 0
0.628062 0.091857 0.158998 255 220 0
0.631104 0.109117 0.170862 255 220 0
0.636126 0.029017 0.159512 255 220 0
0.628671 0.019840 0.158216 255 220 0
0.573547 0.030008 0.181083 255 220 0
0.595673 0.132426 0.215261 255 220 0
0.655503 0.083753 0.173218 255 220 0
0.624705 0.016985 0.156012 255 220 0
0.605101 0.041076 0.216068 255 220 0
0.601715 0.014313 0.145398 255 220 0
0.645474 0.059960 0.157892 255 220 0
0.564464 0.060878 0.176291 255 220 0
0.598080 0.022104 0.196645 255 220 0
0.634390 0.026540 0.188616 255 220 0
0.591821 0.084502 0.222560 255 220 0
0.591407 0.125952 0.201626 255 220 0
0.626596 0.148224 0.240264 255 220 0
0.619928 0.097461 0.237520 255 220 0
0.600480 0.109514 0.172093 255 220 0
0.664847 0.088847 0.212836 255 220 0
0.596400 0.039287 0.137678 255 220 0
0.642989 0.053985 0.155507 255 220 0
0.621052 0.174252 0.219053 255 220 0
0.642425 0.137830 0.239733 255 220 0
0.625532 0.100526 0.238805 255 220 0
0.627416 0.114216 0.240645 255 220 0
0.599226 0.141995 0.214313 255 220 0
0.569619 0.077495 0.195589 255 220 0
0.633533 0.172805 0.220193 255 220 0
0.594216 0.089824 0.158541 255 220 0
0.604866 0.008140 0.154387 255 220 0
0.595783 0.081008 0.225096 255 220 0
0.641392 0.126518 0.186126 255 220 0
0.569467 0.065510 0.162254 255 220 0
0.628432 0.103088 0.239371 255 220 0
0.651264 0.068932 0.164640 255 220 0
0.618199 0.134889 0.187751 255 220 0
0.648888 0.126337 0.189656 255 220 0
0.579129 0.104291 0.185331 255 220 0
0.584994 0.095878 0.168250 255 220 0
0.601897 0.078079 0.148936 255 220 0
0.655714 0.122570 0.232153 255 220 0
0.631693 0.020815 0.165555 255 220 0
0.588381 0.067587 0.147020 255 220 0
0.656491 0.055612 0.178416 255 220 0
0.637933 0.125684 0.184361 255 220 0
0.646347 0.046151 0.204292 255 220 0
0.615164 0.010641 0.156446 255 220 0
0.666574 0.096934 0.213083 255 220 0
0.646082 0.162955 0.220997 255 220 0
0.593542 0.062106 0.220501 255 220 0
0.601570 0.144788 0.220861 255 220 0
0.646949 0.104708 0.174589 255 220 0
0.654587 0.050164 0.190291 255 220 0
0.616778 0.151922 0.236331 255 220 0
0.607764 0.030229 0.208091 255 220 0
0.660457 0.099408 0.184854 255 220 0
0.662710 0.075158 0.206852 255 220 0
0.643678 0.076626 0.159962 255 220 0
0.623088 0.150125 0.197121 255 220 0
0.607848 0.076917 0.230646 255 220 0
0.627596 0.066593 0.229514 255 220 0
0.626744 0.173817 0.214638 255 220 0
0.604558 0.058920 0.139477 255 220 0
0.638830 0.051120 0.151440 255 220 0
0.650220 0.074431 0.164853 255 220 0
0.581721 0.093355 0.168659 255 220 0
0.603606 0.074851 0.228560 255 220 0
0.645580 0.070481 0.159605 255 220 0
0.613798 0.109044 0.236867 255 220 0
0.586199 0.069722 0.216927 255 220 0
0.665951 0.095421 0.213833 255 220 0
0.576456 0.058221 0.205235 255 220 0
0.602749 0.141990 0.225131 255 220 0
0.618659 0.095076 0.159533 255 220 0
0.574584 0.035012 0.188321 255 220 0
0.663545 0.094211 0.187006 255 220 0
0.607088 0.091967 0.157215 255 220 0
0.599074 0.019640 0.194198 255 220 0
0.596512 0.008624 0.175123 255 220 0
0.647049 0.105467 0.235931 255 220 0
0.565761 0.048194 0.167340 255 220 0
0.644539 0.097421 0.235367 255 220 0
0.567892 0.075157 0.190855 255 220 0
0.647579 0.042473 0.168185 255 220 0
0.642346 0.037408 0.162544 255 220 0
0.591564 0.057548 0.141866 255 220 0
0.576778 0.035612 0.192356 255 220 0
0.653218 0.048372 0.192151 255 220 0
0.598360 0.042614 0.214752 255 220 0
0.624646 0.054513 0.142067 255 220 0
0.566302 0.061054 0.166745 255 220 0
0.576848 0.024821 0.180432 255 220 0
0.635924 0.028225 0.160270 255 220 0
0.659972 0.110316 0.226003 255 220 0
0.564929 0.064383 0.181789 255 220 0
0.578961 0.102043 0.181918 255 220 0
0.638738 0.149934 0.200525 255 220 0
0.571317 0.083552 0.173345 255 220 0
0.571167 0.089753 0.186435 255 220 0
0.643379 0.034972 0.169264 255 220 0
0.596347 0.007031 0.158074 255 220 0
0.634368 0.151058 0.239687 255 220 0
0.647994 0.088367 0.230547 255 220 0
0.648003 0.101627 0.173710 255 220 0
0.612055 0.119400 0.236366 255 220 0
0.647220 0.082297 0.228561 255 220 0
0.613365 0.109326 0.169141 255 220 0
0.588440 0.114847 0.213347 255 220 0
0.594236 0.031603 0.139099 255 220 0
0.645366 0.036874 0.171903 255 220 0
0.624171 0.070404 0.146760 255 220 0
0.572773 0.070449 0.202591 255 220 0
0.650916 0.081003 0.167626 255 220 0
0.600339 0.120970 0.182215 255 220 0
0.596377 0.043723 0.137750 255 220 0
0.582848 0.048365 0.208312 255 220 0
0.641165 0.061361 0.221456 255 220 0
0.583576 0.080922 0.157318 255 220 0
0.595717 0.079915 0.224947 255 220 0
0.646514 0.074991 0.225473 255 220 0
0.663575 0.079050 0.208500 255 220 0
0.636512 0.033498 0.155108 255 220 0
0.639650 0.040909 0.154966 255 220 0
0.654944 0.052069 0.194287 255 220 0
0.599155 0.006039 0.167518 255 220 0
0.575143 0.053651 0.201954 255 220 0
0.594182 0.007089 0.168780 255 220 0
0.617095 0.104596 0.165679 255 220 0
0.599797 0.136693 0.199159 255 220 0
0.635780 0.161033 0.236130 255 220 0
0.599842 0.076359 0.226972 255 220 0
0.617003 0.111070 0.170265 255 220 0
0.577512 0.089401 0.169403 255 220 0
0.580932 0.079723 0.213102 255 220 0
0.605203 0.155512 0.221712 255 220 0
0.606011 0.141544 0.196811 255 220 0
0.661209 0.068405 0.182573 255 220 0
0.630955 0.030689 0.149172 255 220 0
0.651309 0.054544 0.165970 255 220 0
0.648945 0.130390 0.192598 255 220 0
0.640147 0.125439 0.240630 255 220 0
0.575156 0.027839 0.181434 255 220 0
0.584718 0.051340 0.211158 255 220 0
0.662118 0.105420 0.190168 255 220 0
0.639127 0.143632 0.240023 255 220 0
0.601705 0.058886 0.223468 255 220 0
0.634164 0.100190 0.165734 255 220 0
0.636414 0.138679 0.241144 255 220 0
0.650287 0.070879 0.163995 255 220 0
0.615950 0.112849 0.171587 255 220 0
0.592692 0.112089 0.178163 255 220 0
0.578203 0.099795 0.180087 255 220 0
0.658271 0.117174 0.228961 255 220 0
0.647719 0.126280 0.237966 255 220 0
0.577841 0.096108 0.206057 255 220 0
0.625415 0.174213 0.215588 255 220 0
0.594178 0.054240 0.218362 255 220 0
0.620652 0.103788 0.165396 255 220 0
0.594051 0.092848 0.160912 255 220 0
0.616091 0.146120 0.237039 255 220 0
0.585229 0.016231 0.180019 255 220 0
0.599140 0.017426 0.191433 255 220 0
0.577264 0.032377 0.149209 255 220 0
0.599926 0.120849 0.182317 255 220 0
0.590024 0.121165 0.192814 255 220 0
0.618764 0.014473 0.152601 255 220 0
0.654279 0.049210 0.181001 255 220 0
0.612313 0.160289 0.230781 255 220 0
0.570948 0.041216 0.187171 255 220 0
0.603419 0.008094 0.174979 255 220 0
0.609853 0.069365 0.229469 255 220 0
0.581286 0.077428 0.213338 255 220 0
0.644119 0.127810 0.239532 255 220 0
0.628986 0.162831 0.236334 255 220 0
0.585873 0.010723 0.162509 255 220 0
0.651395 0.141677 0.203424 255 220 0
0.566672 0.043354 0.176960 255 220 0
0.625754 0.034351 0.208724 255 220 0
0.603833 0.153265 0.218865 255 220 0
0.585366 0.096113 0.168186 255 220 0
0.635732 0.130308 0.186780 255 220 0
0.654456 0.126408 0.233526 255 220 0
0.635129 0.050015 0.217716 255 220 0
0.594342 0.015961 0.145202 255 220 0
0.596272 0.067414 0.223349 255 220 0
0.639491 0.158333 0.205769 255 220 0
0.646380 0.036806 0.179607 255 220 0
0.585647 0.050988 0.211731 255 220 0
0.610697 0.098374 0.234733 255 220 0
0.630846 0.147525 0.196498 255 220 0
0.594965 0.107314 0.172438 255 220 0
0.625370 0.069063 0.230785 255 220 0
0.625834 0.151006 0.239647 255 220 0
0.583978 0.112321 0.189037 255 220 0
0.602872 0.151239 0.214206 255 220 0
0.592983 0.112935 0.221412 255 220 0
0.591547 0.107338 0.221004 255 220 0
0.586164 0.117059 0.194479 255 220 0
0.628749 0.025070 0.193901 255 220 0
0.611463 0.077669 0.148495 255 220 0
0.657887 0.070208 0.173814 255 220 0
0.604910 0.113169 0.232102 255 220 0
0.638025 0.090616 0.162062 255 220 0
0.569040 0.050344 0.189834 255 220 0
0.617542 0.031485 0.139809 255 220 0
0.611416 0.095012 0.159074 255 220 0
0.658249 0.057724 0.190298 255 220 0
0.662940 0.088882 0.184204 255 220 0
0.566831 0.066900 0.168236 255 220 0
0.656384 0.063544 0.172186 255 220 0
0.655688 0.148274 0.220284 255 220 0
0.603464 0.148427 0.222982 255 220 0
0.637475 0.045912 0.150612 255 220 0
0.636034 0.057927 0.222369 255 220 0
0.623986 0.057141 0.225838 255 220 0
0.588543 0.023540 0.192950 255 220 0
0.656578 0.080366 0.173407 255 220 0
0.585443 0.113380 0.187775 255 220 0
0.587784 0.075039 0.218803 255 220 0
0.632309 0.168689 0.209385 255 220 0
0.651345 0.136390 0.199068 255 220 0
0.619595 0.011510 0.161729 255 220 0
0.601231 0.090948 0.157363 255 220 0
0.584601 0.017423 0.181183 255 220 0
0.611525 0.141201 0.193608 255 220 0
0.612636 0.119930 0.177391 255 220 0
0.644751 0.146743 0.237321 255 220 0
0.659531 0.061917 0.197204 255 220 0
0.602561 0.053060 0.137970 255 220 0
0.595690 0.128602 0.194868 255 220 0
0.630991 0.134771 0.241702 255 220 0
0.645540 0.042467 0.200375 255 220 0
0.626094 0.015555 0.165246 255 220 0
0.616250 0.042789 0.217921 255 220 0
0.640461 0.036420 0.159719 255 220 0
0.628067 0.096184 0.238180 255 220 0
0.594713 0.006499 0.164780 255 220 0
0.599455 0.136079 0.222082 255 220 0
0.654265 0.090935 0.174510 255 220 0
0.622769 0.061151 0.227877 255 220 0
0.592688 0.088898 0.158444 255 220 0
0.568903 0.083094 0.183840 255 220 0
0.666863 0.090293 0.192600 255 220 0
0.593352 0.031162 0.139423 255 220 0
0.649150 0.087252 0.168341 255 220 0
0.568841 0.075159 0.170113 255 220 0
0.576667 0.024120 0.155625 255 220 0
0.637421 0.088308 0.235296 255 220 0
0.652261 0.086205 0.170777 255 220 0
0.601296 0.081980 0.151367 255 220 0
0.597390 0.012280 0.182819 255 220 0
0.665954 0.093983 0.213261 255 220 0
0.664027 0.071442 0.192123 255 220 0
0.622053 0.157945 0.201439 255 220 0
0.606607 0.157476 0.223893 255 220 0
0.625772 0.029705 0.203508 255 220 0
0.618827 0.110919 0.170183 255 220 0
0.633995 0.107574 0.170542 255 220 0
0.656637 0.054607 0.192340 255 220 0
0.585123 0.082369 0.217069 255 220 0
0.643216 0.036102 0.166495 255 220 0
0.628530 0.050244 0.143473 255 220 0
0.573720 0.057553 0.153261 255 220 0
0.659361 0.068931 0.207406 255 220 0
0.641618 0.154227 0.236570 255 220 0
0.599799 0.142727 0.208690 255 220 0
0.586422 0.046375 0.210163 255 220 0
0.641245 0.072872 0.227601 255 220 0
0.575310 0.022022 0.164374 255 220 0
0.642052 0.041401 0.203900 255 220 0
0.572659 0.087764 0.199095 255 220 0
0.593796 0.035156 0.207100 255 220 0
0.609274 0.104683 0.166124 255 220 0
0.600128 0.141280 0.219855 255 220 0
0.653488 0.141029 0.233291 255 220 0
0.584479 0.048659 0.142976 255 220 0
0.637848 0.042988 0.151721 255 220 0
0.582711 0.068219 0.150241 255 220 0
0.575497 0.095832 0.200810 255 220 0
0.570956 0.061496 0.198244 255 220 0
0.568060 0.067719 0.193224 255 220 0
0.638345 0.082664 0.158650 255 220 0
0.666875 0.102929 0.198181 255 220 0
0.657254 0.143287 0.228041 255 220 0
0.649460 0.129958 0.192643 255 220 0
0.627553 0.021162 0.153782 255 220 0
0.641938 0.161819 0.233057 255 220 0
0.648197 0.040752 0.190449 255 220 0
0.644860 0.057793 0.216479 255 220 0
0.619681 0.028354 0.204963 255 220 0
0.597734 0.048078 0.217476 255 220 0
0.610914 0.087726 0.154319 255 220 0
0.626841 0.090319 0.236953 255 220 0
0.622955 0.023044 0.146734 255 220 0
0.611310 0.084036 0.152097 255 220 0
0.637830 0.042488 0.209435 255 220 0
0.626318 0.139686 0.241136 255 220 0
0.602704 0.005844 0.163780 255 220 0
0.606130 0.132370 0.231638 255 220 0
0.654282 0.074746 0.218495 255 220 0
0.596669 0.083968 0.153635 255 220 0
0.634936 0.023900 0.176854 255 220 0
0.654566 0.049624 0.187502 255 220 0
0.639164 0.126053 0.185024 255 220 0
0.575322 0.076895 0.206508 255 220 0
0.606043 0.134722 0.191434 255 220 0
0.626170 0.169814 0.230923 255 220 0
0.632208 0.159604 0.203537 255 220 0
0.582368 0.028323 0.145645 255 220 0
0.609458 0.028045 0.206195 255 220 0
0.642725 0.034746 0.167586 255 220 0
0.621163 0.020107 0.192152 255 220 0
0.615910 0.132604 0.238161 255 220 0
0.594353 0.091146 0.224614 255 220 0
0.586791 0.010211 0.167675 255 220 0
0.633877 0.051080 0.147124 255 220 0
0.630394 0.161223 0.237025 255 220 0
0.630436 0.167713 0.207681 255 220 0
0.633772 0.123269 0.181461 255 220 0
0.618602 0.054672 0.225007 255 220 0
0.652100 0.135798 0.199366 255 220 0
0.621313 0.013274 0.158811 255 220 0
0.587846 0.044446 0.210068 255 220 0
0.603384 0.043525 0.136527 255 220 0
0.603792 0.051904 0.137575 255 220 0
0.638151 0.056092 0.220082 255 220 0
0.568807 0.039366 0.180320 255 220 0
0.580187 0.032560 0.194207 255 220 0
0.649568 0.075879 0.223624 255 220 0
0.589862 0.052954 0.215356 255 220 0
0.604457 0.035613 0.212019 255 220 0
0.659775 0.108986 0.188923 255 220 0
0.638361 0.049586 0.215394 255 220 0
0.584634 0.028418 0.143886 255 220 0
0.618989 0.083313 0.234744 255 220 0
0.655781 0.148637 0.224047 255 220 0
0.598958 0.068644 0.144297 255 220 0
0.578059 0.101487 0.182977 255 220 0
0.630626 0.121278 0.179270 255 220 0
0.653805 0.149615 0.215917 255 220 0
0.572098 0.055099 0.154416 255 220 0
0.643096 0.049604 0.156319 255 220 0
0.652678 0.046576 0.178653 255 220 0
0.657895 0.115107 0.190316 255 220 0
0.578962 0.082289 0.161872 255 220 0
0.581870 0.080528 0.214050 255 220 0
0.665503 0.106885 0.217470 255 220 0
0.660617 0.108535 0.224917 255 220 0
0.591950 0.029361 0.140209 255 220 0
0.613905 0.010631 0.176749 255 220 0
0.605662 0.018704 0.194867 255 220 0
0.572115 0.029792 0.159025 255 220 0
0.596027 0.120188 0.223232 255 220 0
0.572424 0.089476 0.178486 255 220 0
0.626584 0.141914 0.241011 255 220 0
0.652608 0.144793 0.233077 255 220 0
0.634467 0.172202 0.222638 255 220 0
0.568288 0.071683 0.193415 255 220 0
0.610245 0.152835 0.231303 255 220 0
0.654099 0.128947 0.233869 255 220 0
0.648085 0.088415 0.230506 255 220 0
0.644552 0.056841 0.156977 255 220 0
0.577371 0.095954 0.205212 255 220 0
0.638151 0.038095 0.154336 255 220 0
0.583971 0.034943 0.142997 255 220 0
0.604508 0.006624 0.170029 255 220 0
0.660238 0.138281 0.220472 255 220 0
0.603462 0.068659 0.227119 255 220 0
0.613872 0.158814 0.204105 255 220 0
0.565053 0.061650 0.182990 255 220 0
0.631639 0.168633 0.231328 255 220 0
0.603165 0.125002 0.184506 255 220 0
0.598146 0.057874 0.221619 255 220 0
0.577828 0.047591 0.202620 255 220 0
0.639034 0.140139 0.194420 255 220 0
0.658109 0.059518 0.180415 255 220 0
0.589394 0.011308 0.175594 255 220 0
0.578363 0.063870 0.151284 255 220 0
0.648343 0.075729 0.163512 255 220 0
0.606349 0.039208 0.136489 255 220 0
0.577095 0.042408 0.147609 255 220 0
0.648499 0.120967 0.185686 255 220 0
0.565820 0.047619 0.167245 255 220 0
0.590902 0.075497 0.221203 255 220 0
0.661785 0.070438 0.203966 255 220 0
0.586700 0.015745 0.149863 255 220 0
0.566951 0.073677 0.174280 255 220 0
0.567202 0.041400 0.177004 255 220 0
0.633651 0.128147 0.241619 255 220 0
0.604553 0.073217 0.145991 255 220 0
0.589511 0.094071 0.163908 255 220 0
0.600315 0.068717 0.225741 255 220 0
0.603478 0.033039 0.209558 255 220 0
0.643587 0.097484 0.168671 255 220 0
0.658159 0.078172 0.174872 255 220 0
0.639323 0.152932 0.237896 255 220 0
0.585577 0.012436 0.172862 255 220 0
0.578231 0.048805 0.203739 255 220 0
0.600057 0.038712 0.212843 255 220 0
0.573308 0.042993 0.151498 255 220 0
0.619540 0.052015 0.223570 255 220 0
0.635480 0.102522 0.167650 255 220 0
0.645175 0.133417 0.192515 255 220 0
0.632381 0.073806 0.151684 255 220 0
0.641068 0.040259 0.157571 255 220 0
0.578969 0.017237 0.167284 255 220 0
0.642339 0.036840 0.163235 255 220 0
0.659720 0.084217 0.217729 255 220 0
0.605690 0.047225 0.219721 255 220 0
0.589557 0.111052 0.179481 255 220 0
0.594843 0.113186 0.177860 255 220 0
0.620207 0.059652 0.227339 255 220 0
0.659965 0.095446 0.182503 255 220 0
0.573995 0.051596 0.199388 255 220 0
0.613132 0.136655 0.236413 255 220 0
0.598306 0.029611 0.138670 255 220 0
0.599676 0.014008 0.145729 255 220 0
0.605971 0.096443 0.232270 255 220 0
0.629257 0.173566 0.215326 255 220 0
0.650725 0.106769 0.233892 255 220 0
0.586676 0.048542 0.211406 255 220 0
0.580799 0.075502 0.155640 255 220 0
0.585448 0.091323 0.164039 255 220 0
0.620714 0.071404 0.146321 255 220 0
0.633658 0.025865 0.188328 255 220 0
0.648470 0.112399 0.180036 255 220 0
0.622268 0.012748 0.167847 255 220 0
0.576720 0.085578 0.166874 255 220 0
0.625948 0.156856 0.200949 255 220 0
0.629492 0.171835 0.211729 255 220 0
0.598656 0.103177 0.227767 255 220 0
0.606749 0.014446 0.188167 255 220 0
0.613279 0.021264 0.198048 255 220 0
0.620219 0.022773 0.145062 255 220 0
0.643185 0.059444 0.218911 255 220 0
0.569981 0.038664 0.157284 255 220 0
0.599638 0.064873 0.224456 255 220 0
0.667829 0.106993 0.208994 255 220 0
0.633905 0.055330 0.221855 255 220 0
0.575615 0.049496 0.200689 255 220 0
0.664347 0.122436 0.209876 255 220 0
0.648901 0.085265 0.167362 255 220 0
0.605564 0.144271 0.228414 255 220 0
0.640740 0.132038 0.240555 255 220 0
0.594670 0.014248 0.184828 255 220 0
0.600485 0.136810 0.198222 255 220 0
0.652870 0.153799 0.225395 255 220 0
0.646510 0.040887 0.195635 255 220 0
0.626150 0.074709 0.232662 255 220 0
0.614357 0.165850 0.209046 255 220 0
0.569270 0.062456 0.161123 255 220 0
0.663109 0.090217 0.216259 255 220 0
0.596827 0.126773 0.222062 255 220 0
0.626945 0.139872 0.190977 255 220 0
0.647776 0.075646 0.162983 255 220 0
0.591946 0.080911 0.222446 255 220 0
0.577468 0.063612 0.151908 255 220 0
0.616289 0.009758 0.161782 255 220 0
0.631668 0.157170 0.238389 255 220 0
0.569534 0.052872 0.192290 255 220 0
0.627073 0.128356 0.183352 255 220 0
0.617802 0.127571 0.182547 255 220 0
0.612825 0.134222 0.188358 255 220 0
0.667501 0.107152 0.211716 255 220 0
0.629598 0.128873 0.184167 255 220 0
0.590778 0.118081 0.186636 255 220 0
0.640006 0.086645 0.161383 255 220 0
0.620658 0.052126 0.140008 255 220 0
0.568624 0.046771 0.158472 255 220 0
0.658555 0.142646 0.223147 255 220 0
0.607754 0.158674 0.209786 255 220 0
0.625744 0.057292 0.143132 255 220 0
0.632638 0.078139 0.232894 255 220 0
0.608399 0.033270 0.210877 255 220 0
0.592076 0.126918 0.201293 255 220 0
0.586506 0.076210 0.217888 255 220 0
0.628295 0.017404 0.165654 255 220 0
0.613600 0.098069 0.235852 255 220 0
0.656161 0.052864 0.184525 255 220 0
0.603943 0.154113 0.215855 255 220 0
0.623594 0.033644 0.141922 255 220 0
0.598852 0.121553 0.183588 255 220 0
0.644945 0.046484 0.206550 255 220 0
0.594842 0.006937 0.159775 255 220 0
0.659824 0.127108 0.202869 255 220 0
0.617020 0.170524 0.212086 255 220 0
0.608433 0.123216 0.181021 255 220 0
0.642347 0.040792 0.202690 255 220 0
0.567530 0.073219 0.190459 255 220 0
0.633823 0.168940 0.210592 255 220 0
0.650893 0.047893 0.169736 255 220 0
0.585430 0.113909 0.206833 255 220 0
0.667457 0.084388 0.196106 255 220 0
0.634874 0.102996 0.167756 255 220 0
0.612681 0.112601 0.171664 255 220 0
0.667193 0.088416 0.207093 255 220 0
0.663635 0.078147 0.184209 255 220 0
0.583559 0.102225 0.212450 255 220 0
0.604041 0.109402 0.170883 255 220 0
0.602707 0.150841 0.216086 255 220 0
0.578921 0.041534 0.200220 255 220 0
0.618896 0.170055 0.210174 255 220 0
0.628991 0.032580 0.146093 255 220 0
0.608124 0.011476 0.182009 255 220 0
0.608515 0.060536 0.226230 255 220 0
0.595930 0.074215 0.147890 255 220 0
0.589448 0.122785 0.200747 255 220 0
0.663582 0.117874 0.221779 255 220 0
0.587285 0.107885 0.178086 255 220 0
0.602692 0.032899 0.209173 255 220 0
0.600949 0.023347 0.199197 255 220 0
0.603411 0.055846 0.222946 255 220 0
0.644746 0.034762 0.179410 255 220 0
0.590899 0.124784 0.207757 255 220 0
0.575739 0.096634 0.200730 255 220 0
0.599126 0.092903 0.159269 255 220 0
0.628033 0.036686 0.143862 255 220 0
0.604305 0.020017 0.196346 255 220 0
0.662544 0.067616 0.194443 255 220 0
0.582363 0.024977 0.147095 255 220 0
0.587812 0.029525 0.198641 255 220 0
0.608776 0.164758 0.219720 255 220 0
0.613566 0.163107 0.230609 255 220 0
0.619003 0.014729 0.182713 255 220 0
0.605043 0.156852 0.215846 255 220 0
0.618649 0.020237 0.194205 255 220 0
0.578688 0.082607 0.162376 255 220 0
0.629147 0.089652 0.157950 255 220 0
0.603621 0.047665 0.219421 255 220 0
0.583009 0.092923 0.214486 255 220 0
0.624370 0.016660 0.180590 255 220 0
0.606707 0.021945 0.199149 255 220 0
0.591528 0.050828 0.215503 255 220 0
0.627895 0.022868 0.190540 255 220 0
0.664318 0.124587 0.216139 255 220 0
0.634560 0.138869 0.191995 255 220 0
0.663415 0.083236 0.211896 255 220 0
0.603562 0.114552 0.175281 255 220 0
0.610586 0.160113 0.229004 255 220 0
0.586475 0.073979 0.151247 255 220 0
0.575256 0.083672 0.167016 255 220 0
0.632293 0.115021 0.240849 255 220 0
0.650821 0.146114 0.206512 255 220 0
0.652225 0.058729 0.166057 255 220 0
0.645032 0.107286 0.237254 255 220 0
0.604791 0.125111 0.231345 255 220 0
0.574893 0.081288 0.205642 255 220 0
0.592172 0.117383 0.218722 255 220 0
0.579793 0.095428 0.209691 255 220 0
0.656808 0.133693 0.203768 255 220 0
0.635738 0.098843 0.238248 255 220 0
0.592289 0.075157 0.222137 255 220 0
0.646914 0.057206 0.214202 255 220 0
0.588459 0.118663 0.191379 255 220 0
0.631189 0.074936 0.151523 255 220 0
0.582196 0.032360 0.144661 255 220 0
0.568831 0.048423 0.158123 255 220 0
0.640637 0.051221 0.153268 255 220 0
0.664698 0.122774 0.213060 255 220 0
0.642126 0.047525 0.210614 255 220 0
0.649683 0.108146 0.234869 255 220 0
0.657103 0.106069 0.228238 255 220 0
0.586280 0.035477 0.202801 255 220 0
0.650909 0.092255 0.171877 255 220 0
0.575155 0.022213 0.169734 255 220 0
0.583650 0.019139 0.182627 255 220 0
0.658960 0.137116 0.211869 255 220 0
0.603066 0.147238 0.205769 255 220 0
0.577220 0.103262 0.193435 255 220 0
0.667058 0.110510 0.205901 255 220 0
0.667694 0.086991 0.203629 255 220 0
0.573562 0.069087 0.158561 255 220 0
0.605271 0.080084 0.149791 255 220 0
0.607341 0.074362 0.229933 255 220 0
0.614861 0.114637 0.172992 255 220 0
0.586270 0.010487 0.162055 255 220 0
0.665195 0.090465 0.213067 255 220 0
0.611950 0.117120 0.236285 255 220 0
0.661439 0.087419 0.181560 255 220 0
0.595644 0.041834 0.212975 255 220 0
0.599009 0.135934 0.221248 255 220 0
0.659670 0.113071 0.226782 255 220 0
0.636809 0.093875 0.163113 255 220 0
0.572403 0.046881 0.152633 255 220 0
0.584494 0.050515 0.143284 255 220 0
0.593363 0.122538 0.218135 255 220 0
0.660884 0.073138 0.179211 255 220 0
0.580212 0.016518 0.160704 255 220 0
0.655232 0.068898 0.213537 255 220 0
0.616383 0.095847 0.236459 255 220 0
0.657418 0.124776 0.196930 255 220 0
0.633333 0.140339 0.241372 255 220 0
0.658901 0.139458 0.226870 255 220 0
0.654564 0.050477 0.178675 255 220 0
0.661777 0.122391 0.224995 255 220 0
0.662950 0.101303 0.189257 255 220 0
0.600993 0.140600 0.222520 255 220 0
0.602654 0.133208 0.192379 255 220 0
0.587069 0.118747 0.196463 255 220 0
0.655317 0.144557 0.230507 255 220 0
0.584763 0.115425 0.199889 255 220 0
0.622034 0.039979 0.139987 255 220 0
0.605828 0.158805 0.216863 255 220 0
0.645238 0.070905 0.159428 255 220 0
0.650267 0.157874 0.224259 255 220 0
0.579066 0.040390 0.199568 255 220 0
0.666195 0.110437 0.202040 255 220 0
0.587343 0.022806 0.144268 255 220 0
0.654602 0.091895 0.226605 255 220 0
0.648479 0.065428 0.161274 255 220 0
0.602171 0.035291 0.211022 255 220 0
0.637192 0.040956 0.208348 255 220 0
0.567288 0.076240 0.176864 255 220 0
0.652079 0.131876 0.235325 255 220 0
0.594850 0.014282 0.146451 255 220 0
0.624758 0.133246 0.241129 255 220 0
0.602088 0.137855 0.197280 255 220 0
0.643215 0.044929 0.206835 255 220 0
0.593701 0.086573 0.156364 255 220 0
0.577691 0.060502 0.207289 255 220 0
0.584218 0.071449 0.215502 255 220 0
0.570433 0.030500 0.172756 255 220 0
0.660625 0.113610 0.193090 255 220 0
0.571289 0.040274 0.154544 255 220 0
0.623553 0.170802 0.229630 255 220 0
0.631039 0.022716 0.157931 255 220 0
0.597555 0.049773 0.218188 255 220 0
0.608237 0.038470 0.214845 255 220 0
0.590373 0.023815 0.194495 255 220 0
0.566878 0.075943 0.182740 255 220 0
0.581729 0.018723 0.152852 255 220 0
0.631639 0.105051 0.239666 255 220 0
0.626196 0.161388 0.236799 255 220 0
0.651616 0.062353 0.164699 255 220 0
0.644390 0.041028 0.162860 255 220 0
0.616406 0.098496 0.236811 255 220 0
0.591750 0.039512 0.139049 255 220 0
0.588122 0.030715 0.141417 255 220 0
0.626361 0.154122 0.239046 255 220 0
0.667821 0.100382 0.199854 255 220 0
0.589179 0.058842 0.143190 255 220 0
0.619974 0.148830 0.196499 255 220 0
0.569324 0.079766 0.193521 255 220 0
0.602018 0.088238 0.229453 255 220 0
0.611381 0.038176 0.214806 255 220 0
0.599236 0.039479 0.213050 255 220 0
0.660649 0.080926 0.214586 255 220 0
0.663545 0.127245 0.214615 255 220 0
0.655722 0.059483 0.172337 255 220 0
0.641143 0.052006 0.153724 255 220 0
0.585541 0.061262 0.145688 255 220 0
0.585630 0.018100 0.183391 255 220 0
0.655767 0.094249 0.177303 255 220 0
0.585271 0.047419 0.142363 255 220 0
0.651275 0.148566 0.209413 255 220 0
0.625922 0.020911 0.188908 255 220 0
0.653375 0.112843 0.184099 255 220 0
0.632763 0.162249 0.205076 255 220 0
0.642749 0.161308 0.210290 255 220 0
0.573100 0.093160 0.182809 255 220 0
0.650057 0.052160 0.205883 255 220 0
0.629418 0.018273 0.168061 255 220 0
0.609883 0.057532 0.225368 255 220 0
0.629947 0.158638 0.238005 255 220 0
0.607162 0.016104 0.191070 255 220 0
0.572342 0.062543 0.200765 255 220 0
0.646062 0.082890 0.164110 255 220 0
0.628851 0.155891 0.238817 255 220 0
0.639639 0.049647 0.214539 255 220 0
0.580045 0.016425 0.169716 255 220 0
0.626895 0.016085 0.168617 255 220 0
0.638022 0.082562 0.158411 255 220 0
0.667176 0.110023 0.212262 255 220 0
0.593157 0.010455 0.152218 255 220 0
0.590515 0.067031 0.145906 255 220 0
0.610176 0.166256 0.222458 255 220 0
0.594558 0.010070 0.177292 255 220 0
0.651287 0.070417 0.164926 255 220 0
0.650117 0.156516 0.217571 255 220 0
0.658466 0.141922 0.218289 255 220 0
0.593838 0.019279 0.191316 255 220 0
0.649513 0.138625 0.199129 255 220 0
0.611204 0.017926 0.144319 255 220 0
0.638424 0.044936 0.211365 255 220 0
0.632177 0.121156 0.241350 255 220 0
0.654261 0.081128 0.171034 255 220 0
0.630312 0.059570 0.146028 255 220 0
0.636540 0.072375 0.229435 255 220 0
0.590173 0.083297 0.221252 255 220 0
0.663520 0.113481 0.221677 255 220 0
0.633975 0.028057 0.192858 255 220 0
0.642734 0.164164 0.213717 255 220 0
0.583690 0.075874 0.215483 255 220 0
0.564595 0.056791 0.177711 255 220 0
0.614864 0.091103 0.235373 255 220 0
0.639233 0.130061 0.240938 255 220 0
0.628368 0.037092 0.210215 255 220 0
0.622378 0.052938 0.140806 255 220 0
0.620244 0.104688 0.165953 255 220 0
0.641394 0.160875 0.208691 255 220 0
0.634373 0.129463 0.241604 255 220 0
0.632493 0.028008 0.153495 255 220 0
0.658495 0.116220 0.191861 255 220 0
0.643085 0.088802 0.233447 255 220 0
0.602573 0.145848 0.222672 255 220 0
0.598114 0.139171 0.208311 255 220 0
0.576322 0.095981 0.178475 255 220 0
0.667082 0.107717 0.202611 255 220 0
0.571029 0.064271 0.198988 255 220 0
0.587943 0.119681 0.195482 255 220 0
0.653395 0.143064 0.232917 255 220 0
0.644794 0.159872 0.211259 255 220 0
0.612071 0.010314 0.177392 255 220 0
0.642846 0.153104 0.204546 255 220 0
0.598086 0.047808 0.217496 255 220 0
0.580741 0.015331 0.163870 255 220 0
0.571282 0.079043 0.199344 255 220 0
0.599628 0.140949 0.205598 255 220 0
0.605666 0.151241 0.225894 255 220 0
0.614352 0.168591 0.211995 255 220 0
0.603126 0.006941 0.171667 255 220 0
0.658495 0.092230 0.222852 255 220 0
0.641567 0.070730 0.156480 255 220 0
0.603871 0.007541 0.155559 255 220 0
0.626338 0.096180 0.161363 255 220 0
0.629855 0.022998 0.188021 255 220 0
0.635449 0.101895 0.238873 255 220 0
0.633564 0.088579 0.236125 255 220 0
0.651036 0.146964 0.207538 255 220 0
0.661230 0.064972 0.188879 255 220 0
0.602933 0.025975 0.139269 255 220 0
0.638725 0.124349 0.240877 255 220 0
0.584648 0.098327 0.215208 255 220 0
0.594723 0.058922 0.220256 255 220 0
0.614242 0.093744 0.158280 255 220 0
0.578618 0.077958 0.210599 255 220 0
0.565769 0.056967 0.184655 255 220 0
0.591111 0.118685 0.187031 255 220 0
0.594088 0.059980 0.220224 255 220 0
0.576987 0.041547 0.197626 255 220 0
0.639676 0.065693 0.153719 255 220 0
0.595237 0.115943 0.180305 255 220 0
0.578282 0.036291 0.195136 255 220 0
0.610747 0.017821 0.193473 255 220 0
0.631122 0.090811 0.236953 255 220 0
0.601632 0.030007 0.206139 255 220 0
0.582531 0.045767 0.206736 255 220 0
0.635877 0.041911 0.149718 255 220 0
0.594336 0.064016 0.143300 255 220 0
0.615412 0.040709 0.137638 255 220 0
0.626723 0.065170 0.229086 255 220 0
0.632380 0.168493 0.209235 255 220 0
0.591089 0.040381 0.139277 255 220 0
0.659914 0.130059 0.227724 255 220 0
0.596528 0.135268 0.214154 255 220 0
0.649831 0.069785 0.163310 255 220 0
0.650456 0.054550 0.207825 255 220 0
0.625263 0.034991 0.209570 255 220 0
0.614680 0.029267 0.207196 255 220 0
0.646979 0.037716 0.177961 255 220 0
0.591267 0.092131 0.161510 255 220 0
0.655518 0.143165 0.211258 255 220 0
0.592852 0.110192 0.176194 255 220 0
0.625867 0.016064 0.175079 255 220 0
0.622982 0.078214 0.150235 255 220 0
0.650127 0.054895 0.208615 255 220 0
0.611246 0.018525 0.194484 255 220 0
0.648694 0.043452 0.195618 255 220 0
0.664495 0.089835 0.187121 255 220 0
0.616153 0.064697 0.142422 255 220 0
0.606633 0.113698 0.233212 255 220 0
0.618288 0.041787 0.217018 255 220 0
0.601244 0.089172 0.229076 255 220 0
0.586528 0.018125 0.147712 255 220 0
0.579411 0.071013 0.154013 255 220 0
0.583904 0.112967 0.190749 255 220 0
0.598665 0.046489 0.217078 255 220 0
0.576813 0.046189 0.200527 255 220 0
0.648379 0.082504 0.227838 255 220 0
0.633388 0.032856 0.150833 255 220 0
0.607432 0.056618 0.224423 255 220 0
0.606999 0.062001 0.226351 255 220 0
0.637538 0.033950 0.156507 255 220 0
0.618967 0.110702 0.238779 255 220 0
0.643948 0.036437 0.167981 255 220 0
0.660997 0.133039 0.224995 255 220 0
0.577938 0.047588 0.147178 255 220 0
0.657386 0.074522 0.214716 255 220 0
0.645831 0.050167 0.209360 255 220 0
0.579890 0.020907 0.179883 255 220 0
0.631980 0.169558 0.210106 255 220 0
0.600794 0.118011 0.228652 255 220 0
0.585065 0.057257 0.213407 255 220 0
0.567504 0.039642 0.163617 255 220 0
0.631102 0.030640 0.200691 255 220 0
0.650565 0.089517 0.229133 255 220 0
0.585765 0.013944 0.153378 255 220 0
0.598686 0.132697 0.195932 255 220 0
0.649073 0.073938 0.163627 255 220 0
0.565804 0.062031 0.168575 255 220 0
0.576039 0.020842 0.165797 255 220 0
0.631225 0.166184 0.206866 255 220 0
0.667802 0.090173 0.206095 255 220 0
0.572064 0.035884 0.184547 255 220 0
0.594108 0.064378 0.143518 255 220 0
0.606618 0.046554 0.136590 255 220 0
0.628698 0.129335 0.184287 255 220 0
0.665108 0.107794 0.197005 255 220 0
0.644105 0.105683 0.173398 255 220 0
0.643934 0.084222 0.163011 255 220 0
0.629377 0.169712 0.209043 255 220 0
0.638658 0.113886 0.176342 255 220 0
0.625505 0.163833 0.204317 255 220 0
0.662619 0.110672 0.194238 255 220 0
0.644728 0.071708 0.159224 255 220 0
0.649231 0.144481 0.203431 255 220 0
0.647484 0.106908 0.176167 255 220 0
0.617393 0.164322 0.206081 255 220 0
