ply
format ascii 1.0
element vertex 1024
property float x
property float y
property float z
property uchar red
property uchar green
property uchar blue
end_header
0.169967 0.128322 0.099396 255 220 0
0.118243 0.085994 0.085580 255 220 0
0.188320 0.113871 0.036771 255 220 0
0.185977 0.071205 0.069647 255 220 0
0.155539 0.123292 0.026386 255 220 0
0.114527 0.087925 0.042316 255 220 0
0.178576 0.121732 0.092927 255 220 0
0.134579 0.191565 0.101224 255 220 0
0.185888 0.152071 0.061766 255 220 0
0.141580 0.095481 0.021013 255 220 0
0.185005 0.071717 0.071909 255 220 0
0.170510 0.060852 0.020588 255 220 0
0.126322 0.102753 0.031248 255 220 0
0.183331 0.116921 0.088096 255 220 0
0.194935 0.110530 0.053494 255 220 0
0.111870 0.111505 0.090507 255 220 0
0.139193 0.043793 0.046149 255 220 0
0.162440 0.161376 0.099473 255 220 0
0.117836 0.118448 0.096689 255 220 0
0.184626 0.098212 0.084870 255 220 0
0.188843 0.092116 0.076876 255 220 0
0.183812 0.120465 0.087155 255 220 0
0.119301 0.071838 0.076247 255 220 0
0.152850 0.042727 0.032058 255 220 0
0.114552 0.092281 0.041973 255 220 0
0.117650 0.087532 0.038026 255 220 0
0.116837 0.182824 0.063929 255 220 0
0.176603 0.108565 0.025359 255 220 0
0.152032 0.056636 0.021443 255 220 0
0.097025 0.187306 0.078549 255 220 0
0.185606 0.122543 0.037159 255 220 0
0.135213 0.204448 0.084940 255 220 0
0.166769 0.159389 0.046300 255 220 0
0.097137 0.191737 0.079213 255 220 0
0.151835 0.134906 0.106128 255 220 0
0.187511 0.063321 0.038450 255 220 0
0.125022 0.145611 0.045791 255 220 0
0.169734 0.091418 0.094691 255 220 0
0.137049 0.203693 0.086503 255 220 0
0.167484 0.162732 0.049026 255 220 0
0.104749 0.135232 0.064078 255 220 0
0.147641 0.196511 0.076939 255 220 0
0.177683 0.110853 0.026552 255 220 0
0.172331 0.103055 0.021946 255 220 0
0.113556 0.182040 0.104232 255 220 0
0.129250 0.136810 0.039954 255 220 0
0.183853 0.094588 0.084735 255 220 0
0.184544 0.111559 0.031629 255 220 0
0.160427 0.112851 0.102621 255 220 0
0.153649 0.039724 0.037629 255 220 0
0.167076 0.135788 0.033155 255 220 0
0.150801 0.189121 0.093419 255 220 0
0.174847 0.107188 0.095485 255 220 0
0.149735 0.127626 0.105911 255 220 0
0.177873 0.098017 0.091384 255 220 0
0.116640 0.105931 0.092910 255 220 0
0.189328 0.093049 0.034904 255 220 0
0.168274 0.050138 0.068017 255 220 0
0.110701 0.106804 0.048413 255 220 0
0.116696 0.071963 0.044730 255 220 0
0.161627 0.154809 0.041855 255 220 0
0.161591 0.053271 0.074059 255 220 0
0.127358 0.189715 0.103902 255 220 0
0.193514 0.095409 0.066554 255 220 0
0.182333 0.072319 0.025461 255 220 0
0.129456 0.205697 0.082539 255 220 0
0.157657 0.079054 0.093391 255 220 0
0.128351 0.154515 0.047759 255 220 0
0.194214 0.118710 0.061273 255 220 0
0.163795 0.153904 0.041856 255 220 0
0.192613 0.103466 0.041850 255 220 0
0.117413 0.163884 0.057154 255 220 0
0.156896 0.165011 0.047298 255 220 0
0.144902 0.189099 0.065033 255 220 0
0.184836 0.107342 0.086181 255 220 0
0.126033 0.188545 0.063825 255 220 0
0.168201 0.064007 0.080549 255 220 0
0.188381 0.114257 0.081118 255 220 0
0.171463 0.139111 0.036058 255 220 0
0.127825 0.137853 0.104562 255 220 0
0.118378 0.171332 0.105644 255 220 0
0.127795 0.101762 0.097396 255 220 0
0.160262 0.097158 0.017797 255 220 0
0.184165 0.137910 0.082351 255 220 0
0.102482 0.132427 0.077324 255 220 0
0.145902 0.129400 0.029927 255 220 0
0.141551 0.042561 0.046582 255 220 0
0.156456 0.190867 0.077339 255 220 0
0.171480 0.140253 0.097498 255 220 0
0.153136 0.160646 0.104435 255 220 0
0.187089 0.128649 0.042481 255 220 0
0.102599 0.140792 0.072022 255 220 0
0.180851 0.062646 0.069936 255 220 0
0.131489 0.150470 0.044579 255 220 0
0.168988 0.056296 0.073842 255 220 0
0.121949 0.072708 0.035803 255 220 0
0.164105 0.097578 0.018326 255 220 0
0.191160 0.071896 0.049567 255 220 0
0.122793 0.153084 0.050042 255 220 0
0.195256 0.102018 0.058534 255 220 0
0.188715 0.098053 0.079023 255 220 0
0.154982 0.040553 0.057681 255 220 0
0.164384 0.084070 0.015932 255 220 0
0.185915 0.065828 0.064140 255 220 0
0.170836 0.089778 0.018246 255 220 0
0.115030 0.138631 0.051282 255 220 0
0.171202 0.067863 0.018644 255 220 0
0.193722 0.120821 0.056031 255 220 0
0.146730 0.098985 0.019767 255 220 0
0.193963 0.114750 0.066669 255 220 0
0.118856 0.067052 0.070235 255 220 0
0.179264 0.091570 0.023237 255 220 0
0.160406 0.113297 0.102687 255 220 0
0.152884 0.084077 0.096172 255 220 0
0.141585 0.101147 0.022399 255 220 0
0.163259 0.109162 0.101267 255 220 0
0.162496 0.065886 0.017097 255 220 0
0.121464 0.122415 0.099402 255 220 0
0.152300 0.118215 0.024589 255 220 0
0.116762 0.101956 0.091713 255 220 0
0.103487 0.112170 0.076064 255 220 0
0.166944 0.053885 0.072606 255 220 0
0.127774 0.161413 0.050952 255 220 0
0.182866 0.142644 0.082600 255 220 0
0.123410 0.124399 0.039438 255 220 0
0.139339 0.091372 0.021184 255 220 0
0.185749 0.131275 0.041858 255 220 0
0.119384 0.161802 0.055227 255 220 0
0.128980 0.205685 0.090234 255 220 0
0.173097 0.120740 0.097533 255 220 0
0.186277 0.076060 0.072984 255 220 0
0.154423 0.117100 0.104317 255 220 0
0.140002 0.185032 0.102525 255 220 0
0.156798 0.039162 0.054227 255 220 0
0.186559 0.136632 0.045885 255 220 0
0.142518 0.054394 0.074422 255 220 0
0.099005 0.189054 0.095806 255 220 0
0.154038 0.135668 0.105728 255 220 0
0.168355 0.134790 0.100109 255 220 0
0.128591 0.050721 0.054518 255 220 0
0.194835 0.096161 0.051274 255 220 0
0.122396 0.074012 0.034766 255 220 0
0.144454 0.151352 0.107309 255 220 0
0.178315 0.139939 0.039555 255 220 0
0.106446 0.115483 0.056655 255 220 0
0.141561 0.068552 0.086919 255 220 0
0.143096 0.042578 0.056072 255 220 0
0.177536 0.055064 0.028131 255 220 0
0.178741 0.077192 0.021608 255 220 0
0.107142 0.155579 0.064213 255 220 0
0.172608 0.164549 0.053645 255 220 0
0.107303 0.183503 0.101789 255 220 0
0.125509 0.053783 0.054635 255 220 0
0.169301 0.070433 0.084650 255 220 0
0.147065 0.141308 0.034753 255 220 0
0.168097 0.046804 0.064107 255 220 0
0.188406 0.094537 0.078505 255 220 0
0.138686 0.115191 0.103410 255 220 0
0.130777 0.054999 0.068398 255 220 0
0.104848 0.159015 0.094502 255 220 0
0.113967 0.180581 0.064351 255 220 0
0.100624 0.159939 0.076403 255 220 0
0.192713 0.119446 0.069896 255 220 0
0.193738 0.091603 0.046301 255 220 0
0.175403 0.069939 0.081034 255 220 0
0.111824 0.176389 0.064219 255 220 0
0.151597 0.042963 0.032273 255 220 0
0.166013 0.181128 0.077189 255 220 0
0.160238 0.177457 0.093064 255 220 0
0.140046 0.098740 0.022484 255 220 0
0.147603 0.183404 0.099717 255 220 0
0.179162 0.122486 0.092289 255 220 0
0.174216 0.116969 0.026927 255 220 0
0.125657 0.109504 0.033358 255 220 0
0.105307 0.204380 0.082914 255 220 0
0.133550 0.108147 0.028067 255 220 0
0.139254 0.149015 0.040665 255 220 0
0.184047 0.054503 0.040741 255 220 0
0.118946 0.145475 0.049964 255 220 0
0.105082 0.142130 0.064996 255 220 0
0.107480 0.200832 0.095984 255 220 0
0.193297 0.086905 0.046149 255 220 0
0.104118 0.148233 0.068103 255 220 0
0.176607 0.110532 0.094581 255 220 0
0.130383 0.080580 0.025971 255 220 0
0.147441 0.091724 0.017955 255 220 0
0.194020 0.088447 0.057718 255 220 0
0.137157 0.087990 0.095964 255 220 0
0.116532 0.142852 0.051179 255 220 0
0.184714 0.054843 0.044617 255 220 0
0.182337 0.096633 0.026608 255 220 0
0.176232 0.049318 0.059783 255 220 0
0.133667 0.084287 0.023576 255 220 0
0.189443 0.074916 0.064548 255 220 0
0.182300 0.141114 0.084331 255 220 0
0.131995 0.163493 0.107591 255 220 0
0.177777 0.077156 0.020868 255 220 0
0.102636 0.119966 0.068670 255 220 0
0.123109 0.169187 0.056058 255 220 0
0.190255 0.138561 0.058202 255 220 0
0.175367 0.125941 0.095573 255 220 0
0.194566 0.100768 0.064002 255 220 0
0.111570 0.091527 0.081311 255 220 0
0.183829 0.119879 0.087198 255 220 0
0.147983 0.103902 0.102220 255 220 0
0.141999 0.125492 0.029740 255 220 0
0.136336 0.143485 0.039338 255 220 0
0.186634 0.080534 0.030544 255 220 0
0.186280 0.068733 0.031988 255 220 0
0.143013 0.050296 0.070106 255 220 0
0.104693 0.151426 0.091353 255 220 0
0.170924 0.137896 0.035257 255 220 0
0.184527 0.063725 0.031227 255 220 0
0.167844 0.084772 0.093277 255 220 0
0.166353 0.046139 0.028259 255 220 0
0.174507 0.109983 0.024785 255 220 0
0.116204 0.068456 0.066955 255 220 0
0.169889 0.061490 0.077778 255 220 0
0.193108 0.083983 0.058870 255 220 0
0.132605 0.112942 0.101586 255 220 0
0.102454 0.140871 0.079968 255 220 0
0.124000 0.187087 0.105011 255 220 0
0.149333 0.142540 0.106674 255 220 0
0.113030 0.126567 0.049831 255 220 0
0.183484 0.155974 0.069872 255 220 0
0.145384 0.061147 0.021434 255 220 0
0.175748 0.103315 0.023538 255 220 0
0.099300 0.199831 0.085375 255 220 0
0.142292 0.187799 0.100137 255 220 0
0.152006 0.148449 0.106053 255 220 0
0.145478 0.160753 0.106625 255 220 0
0.101351 0.160813 0.088946 255 220 0
0.114148 0.088783 0.083008 255 220 0
0.109938 0.206071 0.082716 255 220 0
0.117358 0.104440 0.039718 255 220 0
0.174465 0.045036 0.036123 255 220 0
0.138305 0.113002 0.102945 255 220 0
0.136841 0.166479 0.049953 255 220 0
0.114156 0.071891 0.051871 255 220 0
0.152773 0.152256 0.105593 255 220 0
0.174895 0.121869 0.029044 255 220 0
0.114411 0.160198 0.058203 255 220 0
0.143424 0.171395 0.051033 255 220 0
0.102813 0.113146 0.069167 255 220 0
0.108731 0.106092 0.051500 255 220 0
0.128309 0.097433 0.028756 255 220 0
0.160100 0.181663 0.089546 255 220 0
0.189571 0.072845 0.038006 255 220 0
0.124007 0.080993 0.031519 255 220 0
0.189986 0.117355 0.041143 255 220 0
0.134335 0.163454 0.049366 255 220 0
0.193623 0.109768 0.069271 255 220 0
0.181227 0.053352 0.034831 255 220 0
0.179914 0.163409 0.069223 255 220 0
0.125688 0.205633 0.080089 255 220 0
0.147151 0.095767 0.100091 255 220 0
0.102845 0.165801 0.094337 255 220 0
0.151905 0.149874 0.038245 255 220 0
0.194427 0.114571 0.053261 255 220 0
0.113413 0.183534 0.104101 255 220 0
0.174775 0.075964 0.085354 255 220 0
0.167648 0.155662 0.044125 255 220 0
0.188925 0.142616 0.065436 255 220 0
0.163407 0.122588 0.026567 255 220 0
0.110853 0.177098 0.064953 255 220 0
0.151193 0.117883 0.104726 255 220 0
0.172298 0.120758 0.098082 255 220 0
0.102949 0.201770 0.079458 255 220 0
0.139996 0.081728 0.019791 255 220 0
0.173451 0.097778 0.021064 255 220 0
0.170787 0.125666 0.029322 255 220 0
0.107867 0.102316 0.052999 255 220 0
0.148773 0.113366 0.104127 255 220 0
0.168531 0.118738 0.025918 255 220 0
0.137447 0.148050 0.107412 255 220 0
0.136133 0.096805 0.098594 255 220 0
0.180525 0.162022 0.070194 255 220 0
0.133212 0.079574 0.090951 255 220 0
0.106373 0.165202 0.098162 255 220 0
0.132986 0.122781 0.032975 255 220 0
0.142309 0.056436 0.076455 255 220 0
0.173639 0.153791 0.045460 255 220 0
0.125569 0.113200 0.034436 255 220 0
0.171623 0.059572 0.075255 255 220 0
0.172282 0.045204 0.058376 255 220 0
0.164760 0.164021 0.096538 255 220 0
0.123007 0.057201 0.058604 255 220 0
0.167640 0.156100 0.097122 255 220 0
0.113239 0.084906 0.079135 255 220 0
0.189014 0.099625 0.034707 255 220 0
0.186902 0.091389 0.031160 255 220 0
0.131452 0.073742 0.026087 255 220 0
0.144485 0.059051 0.079598 255 220 0
0.194880 0.112781 0.055527 255 220 0
0.161485 0.081846 0.094013 255 220 0
0.158550 0.090293 0.016324 255 220 0
0.115436 0.067546 0.057306 255 220 0
0.148555 0.047938 0.068709 255 220 0
0.187127 0.079959 0.031361 255 220 0
0.169500 0.173057 0.082938 255 220 0
0.115605 0.072701 0.071890 255 220 0
0.103321 0.110523 0.066070 255 220 0
0.123626 0.186640 0.063427 255 220 0
0.106941 0.089650 0.061062 255 220 0
0.105865 0.097345 0.073287 255 220 0
0.190628 0.091531 0.037346 255 220 0
0.169448 0.040101 0.042277 255 220 0
0.128066 0.193642 0.101967 255 220 0
0.174762 0.149858 0.091883 255 220 0
0.154399 0.147848 0.037223 255 220 0
0.129686 0.155131 0.107009 255 220 0
0.177450 0.144180 0.090497 255 220 0
0.122323 0.133133 0.043101 255 220 0
0.109507 0.132973 0.092513 255 220 0
0.148736 0.054149 0.023785 255 220 0
0.191549 0.094751 0.039167 255 220 0
0.149495 0.103617 0.020232 255 220 0
0.122366 0.086554 0.089019 255 220 0
0.167901 0.131870 0.031457 255 220 0
0.108110 0.137769 0.058998 255 220 0
0.142673 0.064658 0.021314 255 220 0
0.144765 0.076111 0.092363 255 220 0
0.184091 0.122605 0.086509 255 220 0
0.114425 0.091053 0.042193 255 220 0
0.138890 0.112067 0.102872 255 220 0
0.180708 0.137322 0.088097 255 220 0
0.187562 0.146549 0.066567 255 220 0
0.183241 0.083329 0.026038 255 220 0
0.181074 0.090950 0.024619 255 220 0
0.194398 0.117160 0.056869 255 220 0
0.174232 0.042998 0.050449 255 220 0
0.134294 0.074488 0.088431 255 220 0
0.170074 0.041264 0.053120 255 220 0
0.127306 0.130765 0.038879 255 220 0
0.101753 0.153616 0.074588 255 220 0
0.122280 0.201552 0.097712 255 220 0
0.144641 0.112058 0.103697 255 220 0
0.124272 0.136839 0.042984 255 220 0
0.107237 0.096948 0.055164 255 220 0
0.125187 0.100861 0.096120 255 220 0
0.099246 0.176542 0.093565 255 220 0
0.103018 0.160486 0.070245 255 220 0
0.186664 0.131080 0.043094 255 220 0
0.179441 0.076627 0.022209 255 220 0
0.184004 0.110813 0.030930 255 220 0
0.141628 0.175279 0.053636 255 220 0
0.148319 0.176898 0.102232 255 220 0
0.145639 0.049577 0.070045 255 220 0
0.144987 0.080158 0.094369 255 220 0
0.166389 0.162532 0.048409 255 220 0
0.136298 0.190565 0.101162 255 220 0
0.155977 0.098539 0.100566 255 220 0
0.143013 0.137049 0.033919 255 220 0
0.137499 0.185345 0.103275 255 220 0
0.172822 0.122709 0.028642 255 220 0
0.122669 0.137934 0.044484 255 220 0
0.106835 0.125487 0.057867 255 220 0
0.103721 0.107910 0.064659 255 220 0
0.164655 0.178157 0.085968 255 220 0
0.152998 0.181305 0.097351 255 220 0
0.111304 0.110498 0.089639 255 220 0
0.101899 0.201532 0.080750 255 220 0
0.151978 0.089441 0.098210 255 220 0
0.130449 0.132096 0.037561 255 220 0
0.115897 0.107259 0.041890 255 220 0
0.116586 0.178710 0.105240 255 220 0
0.160096 0.045846 0.066139 255 220 0
0.172428 0.057251 0.072702 255 220 0
0.137516 0.047284 0.038545 255 220 0
0.107893 0.137460 0.059226 255 220 0
0.102422 0.134359 0.072218 255 220 0
0.180798 0.057593 0.029905 255 220 0
0.192769 0.111599 0.044559 255 220 0
0.103703 0.186377 0.099813 255 220 0
0.135501 0.059009 0.076196 255 220 0
0.177836 0.048701 0.056156 255 220 0
0.157079 0.112799 0.103328 255 220 0
0.126909 0.099300 0.096339 255 220 0
0.149659 0.180802 0.099872 255 220 0
0.116051 0.199137 0.099899 255 220 0
0.160171 0.038010 0.049527 255 220 0
0.138937 0.187983 0.062690 255 220 0
0.128734 0.056011 0.067691 255 220 0
0.186099 0.089645 0.080288 255 220 0
0.098960 0.173357 0.091373 255 220 0
0.108857 0.106476 0.051315 255 220 0
0.130356 0.166383 0.052134 255 220 0
0.157093 0.184281 0.091067 255 220 0
0.185615 0.109363 0.085292 255 220 0
0.159688 0.043185 0.030249 255 220 0
0.146603 0.102150 0.101734 255 220 0
0.120202 0.194863 0.067816 255 220 0
0.194026 0.096971 0.046189 255 220 0
0.146033 0.080537 0.094646 255 220 0
0.141141 0.137374 0.106798 255 220 0
0.118215 0.179340 0.062110 255 220 0
0.110247 0.121752 0.051938 255 220 0
0.169368 0.121718 0.099860 255 220 0
0.121587 0.188715 0.104534 255 220 0
0.102402 0.123081 0.070859 255 220 0
0.098459 0.170182 0.087324 255 220 0
0.115877 0.135832 0.098885 255 220 0
0.118113 0.130497 0.099182 255 220 0
0.102348 0.129273 0.075160 255 220 0
0.190849 0.080759 0.065682 255 220 0
0.135753 0.102479 0.025437 255 220 0
0.181142 0.128681 0.035695 255 220 0
0.127128 0.145184 0.105407 255 220 0
0.151009 0.130879 0.029671 255 220 0
0.129048 0.065721 0.078908 255 220 0
0.166715 0.067532 0.017358 255 220 0
0.127408 0.118490 0.034750 255 220 0
0.192601 0.122642 0.051817 255 220 0
0.175828 0.148616 0.043214 255 220 0
0.112590 0.072797 0.058304 255 220 0
0.183715 0.122195 0.034898 255 220 0
0.141819 0.199359 0.077128 255 220 0
0.102523 0.170227 0.095616 255 220 0
0.175422 0.092704 0.020919 255 220 0
0.182477 0.117159 0.089093 255 220 0
0.174528 0.110414 0.096102 255 220 0
0.160949 0.056362 0.077108 255 220 0
0.173852 0.135873 0.035258 255 220 0
0.102599 0.124478 0.069165 255 220 0
0.134499 0.102327 0.099661 255 220 0
0.109186 0.199741 0.072989 255 220 0
0.141188 0.182817 0.058794 255 220 0
0.185212 0.057733 0.038467 255 220 0
0.121762 0.109080 0.036408 255 220 0
0.159142 0.046686 0.067385 255 220 0
0.106735 0.162662 0.065532 255 220 0
0.117073 0.142914 0.050704 255 220 0
0.138100 0.195644 0.096740 255 220 0
0.192507 0.128209 0.057811 255 220 0
0.141729 0.075621 0.019225 255 220 0
0.102640 0.143929 0.072116 255 220 0
0.135875 0.179279 0.105632 255 220 0
0.194413 0.105533 0.065953 255 220 0
0.188452 0.065418 0.039651 255 220 0
0.175691 0.092906 0.091564 255 220 0
0.185459 0.088910 0.029091 255 220 0
0.156455 0.146327 0.104876 255 220 0
0.169976 0.040221 0.049178 255 220 0
0.106816 0.157975 0.096528 255 220 0
0.165873 0.143150 0.036547 255 220 0
0.171591 0.113338 0.098237 255 220 0
0.116739 0.102814 0.040132 255 220 0
0.107647 0.090217 0.071803 255 220 0
0.179768 0.153820 0.049942 255 220 0
0.148402 0.053366 0.024382 255 220 0
0.162894 0.135958 0.032401 255 220 0
0.109482 0.080889 0.059113 255 220 0
0.143489 0.041825 0.045195 255 220 0
0.167768 0.144813 0.099627 255 220 0
0.166430 0.137444 0.033815 255 220 0
0.125994 0.100708 0.031080 255 220 0
0.172379 0.050289 0.065268 255 220 0
0.181282 0.160761 0.069712 255 220 0
0.189018 0.137191 0.051186 255 220 0
0.106220 0.183638 0.069032 255 220 0
0.099587 0.179377 0.095125 255 220 0
0.187825 0.084835 0.075525 255 220 0
0.125737 0.137744 0.042356 255 220 0
0.139412 0.143847 0.038219 255 220 0
0.193717 0.119707 0.054388 255 220 0
0.127620 0.106220 0.098500 255 220 0
0.189215 0.091723 0.034711 255 220 0
0.164420 0.089448 0.016665 255 220 0
0.120314 0.066053 0.042370 255 220 0
0.190297 0.135900 0.067259 255 220 0
0.130980 0.199606 0.096650 255 220 0
0.100127 0.160483 0.083389 255 220 0
0.149103 0.076987 0.093123 255 220 0
0.178448 0.133102 0.091823 255 220 0
0.145626 0.041315 0.054025 255 220 0
0.193167 0.103472 0.070417 255 220 0
0.110950 0.099409 0.084964 255 220 0
0.160911 0.071659 0.088455 255 220 0
0.121391 0.126461 0.041683 255 220 0
0.103672 0.161982 0.093974 255 220 0
0.147375 0.195234 0.090494 255 220 0
0.131722 0.062909 0.029697 255 220 0
0.177731 0.090850 0.021990 255 220 0
0.119998 0.078959 0.036284 255 220 0
0.108554 0.107787 0.085373 255 220 0
0.125512 0.077482 0.085832 255 220 0
0.118421 0.079643 0.081665 255 220 0
0.155373 0.124025 0.026679 255 220 0
0.173264 0.165044 0.054691 255 220 0
0.147732 0.198017 0.084251 255 220 0
0.142294 0.175242 0.053540 255 220 0
0.183663 0.068164 0.028053 255 220 0
0.125828 0.205018 0.092876 255 220 0
0.195341 0.103513 0.055775 255 220 0
0.188011 0.120802 0.080804 255 220 0
0.184324 0.080605 0.078827 255 220 0
0.158259 0.086407 0.096554 255 220 0
0.130448 0.111397 0.030701 255 220 0
0.158838 0.140720 0.104341 255 220 0
0.177489 0.065475 0.022667 255 220 0
0.132525 0.108217 0.028629 255 220 0
0.190482 0.103135 0.076922 255 220 0
0.129191 0.180370 0.106302 255 220 0
0.176247 0.044051 0.045819 255 220 0
0.116230 0.160959 0.103747 255 220 0
0.185269 0.140033 0.079100 255 220 0
0.121744 0.100134 0.034561 255 220 0
0.192597 0.079622 0.047630 255 220 0
0.194138 0.113518 0.050638 255 220 0
0.135190 0.164595 0.049605 255 220 0
0.121217 0.093969 0.091684 255 220 0
0.106047 0.153929 0.065422 255 220 0
0.108472 0.201857 0.095302 255 220 0
0.113396 0.191216 0.067858 255 220 0
0.143111 0.046212 0.033776 255 220 0
0.176990 0.074790 0.083130 255 220 0
0.189905 0.090610 0.035958 255 220 0
0.187724 0.072116 0.066551 255 220 0
0.124945 0.168168 0.106959 255 220 0
0.130920 0.120093 0.102475 255 220 0
0.162299 0.039265 0.054185 255 220 0
0.168771 0.093967 0.018470 255 220 0
0.118255 0.198822 0.100198 255 220 0
0.107988 0.197525 0.071983 255 220 0
0.132013 0.158529 0.047982 255 220 0
0.171754 0.105203 0.097063 255 220 0
0.142189 0.182846 0.058873 255 220 0
0.184813 0.059468 0.035089 255 220 0
0.151345 0.076256 0.092683 255 220 0
0.147868 0.068237 0.018022 255 220 0
0.143287 0.075324 0.018525 255 220 0
0.184716 0.116415 0.086353 255 220 0
0.133522 0.054816 0.070413 255 220 0
0.149346 0.058994 0.080454 255 220 0
0.182094 0.139362 0.085367 255 220 0
0.148826 0.085297 0.096723 255 220 0
0.169816 0.079195 0.089862 255 220 0
0.162157 0.163738 0.047781 255 220 0
0.187838 0.110361 0.082116 255 220 0
0.144399 0.047196 0.031408 255 220 0
0.156659 0.130208 0.104945 255 220 0
0.142480 0.200527 0.080664 255 220 0
0.130832 0.087274 0.025655 255 220 0
0.103201 0.109800 0.067377 255 220 0
0.130360 0.154675 0.046946 255 220 0
0.138622 0.198383 0.073490 255 220 0
0.120826 0.063440 0.044072 255 220 0
0.178681 0.100091 0.024471 255 220 0
0.192651 0.108085 0.042930 255 220 0
0.157287 0.167810 0.049409 255 220 0
0.111059 0.090498 0.047872 255 220 0
0.125614 0.102241 0.096701 255 220 0
0.173967 0.171629 0.073285 255 220 0
0.170845 0.171779 0.081786 255 220 0
0.148603 0.051314 0.025637 255 220 0
0.184657 0.057089 0.054529 255 220 0
0.177358 0.062744 0.073924 255 220 0
0.137291 0.044456 0.049568 255 220 0
0.114158 0.143706 0.099368 255 220 0
0.105275 0.096097 0.065354 255 220 0
0.128006 0.182256 0.106004 255 220 0
0.144359 0.197660 0.090392 255 220 0
0.111546 0.206666 0.084784 255 220 0
0.116215 0.082949 0.081603 255 220 0
0.106792 0.179417 0.101269 255 220 0
0.155345 0.186159 0.091390 255 220 0
0.174793 0.149939 0.091814 255 220 0
0.175511 0.106789 0.024334 255 220 0
0.110857 0.109922 0.088985 255 220 0
0.181515 0.087730 0.024601 255 220 0
0.139717 0.051780 0.030476 255 220 0
0.178495 0.047073 0.051179 255 220 0
0.151429 0.194101 0.076361 255 220 0
0.152134 0.108072 0.103073 255 220 0
0.100032 0.180236 0.074025 255 220 0
0.117628 0.070876 0.073115 255 220 0
0.113447 0.204139 0.094071 255 220 0
0.108296 0.143076 0.060138 255 220 0
0.153484 0.095299 0.099937 255 220 0
0.140185 0.071379 0.088513 255 220 0
0.128516 0.177723 0.057962 255 220 0
0.189264 0.121807 0.042378 255 220 0
0.165321 0.043362 0.060876 255 220 0
0.119566 0.073266 0.038794 255 220 0
0.168274 0.125325 0.028561 255 220 0
0.152755 0.066510 0.017272 255 220 0
0.130915 0.054766 0.036632 255 220 0
0.145551 0.166054 0.047612 255 220 0
0.123382 0.056760 0.058521 255 220 0
0.137112 0.104999 0.100973 255 220 0
0.190479 0.137720 0.063180 255 220 0
0.155004 0.039671 0.037023 255 220 0
0.109847 0.079554 0.063719 255 220 0
0.130340 0.054779 0.067658 255 220 0
0.141929 0.175545 0.105035 255 220 0
0.132667 0.094459 0.025359 255 220 0
0.112339 0.106289 0.046071 255 220 0
0.149404 0.106016 0.102719 255 220 0
0.170110 0.076060 0.087933 255 220 0
0.152478 0.140941 0.033959 255 220 0
0.176713 0.135365 0.036266 255 220 0
0.130308 0.197562 0.098669 255 220 0
0.161135 0.041470 0.059392 255 220 0
0.139992 0.072815 0.089402 255 220 0
0.164749 0.079312 0.091851 255 220 0
0.128513 0.053919 0.041461 255 220 0
0.173781 0.103323 0.095527 255 220 0
0.143004 0.140066 0.035239 255 220 0
0.136888 0.175500 0.054573 255 220 0
0.154735 0.112082 0.022262 255 220 0
0.183114 0.091819 0.026693 255 220 0
0.151964 0.040264 0.055889 255 220 0
0.187393 0.091089 0.031845 255 220 0
0.183462 0.150460 0.076295 255 220 0
0.165325 0.090773 0.096301 255 220 0
0.105365 0.123165 0.060122 255 220 0
0.107738 0.127516 0.056875 255 220 0
0.170439 0.110570 0.098572 255 220 0
0.169185 0.151732 0.042213 255 220 0
0.134120 0.071644 0.086431 255 220 0
0.119977 0.169398 0.105964 255 220 0
0.152960 0.054805 0.022223 255 220 0
0.165058 0.044805 0.029210 255 220 0
0.138188 0.132604 0.105982 255 220 0
0.105165 0.203159 0.079357 255 220 0
0.166325 0.166703 0.093420 255 220 0
0.148241 0.079120 0.094132 255 220 0
0.115258 0.084811 0.041682 255 220 0
0.110950 0.101824 0.047556 255 220 0
0.146157 0.102335 0.020824 255 220 0
0.192900 0.082968 0.058849 255 220 0
0.149542 0.158022 0.042624 255 220 0
0.187813 0.061585 0.043417 255 220 0
0.108422 0.092917 0.053169 255 220 0
0.109746 0.184896 0.067426 255 220 0
0.105625 0.201134 0.075940 255 220 0
0.127530 0.132757 0.103631 255 220 0
0.179340 0.058525 0.067406 255 220 0
0.182284 0.069821 0.074514 255 220 0
0.175210 0.063329 0.021923 255 220 0
0.186252 0.121685 0.083556 255 220 0
0.129871 0.049867 0.048171 255 220 0
0.150958 0.102307 0.101872 255 220 0
0.173843 0.171180 0.064507 255 220 0
0.182331 0.113776 0.089368 255 220 0
0.136918 0.071195 0.087267 255 220 0
0.161949 0.181592 0.065727 255 220 0
0.163706 0.134029 0.031632 255 220 0
0.107834 0.169336 0.100327 255 220 0
0.144723 0.182438 0.101688 255 220 0
0.169538 0.050731 0.067922 255 220 0
0.102003 0.153895 0.073482 255 220 0
0.137400 0.203241 0.082607 255 220 0
0.195093 0.103796 0.061217 255 220 0
0.166919 0.127041 0.101160 255 220 0
0.097171 0.187162 0.078267 255 220 0
0.115627 0.069115 0.050990 255 220 0
0.182062 0.156817 0.073599 255 220 0
0.110494 0.149112 0.097721 255 220 0
0.118727 0.169845 0.058385 255 220 0
0.167779 0.124819 0.028234 255 220 0
0.134869 0.110150 0.101599 255 220 0
0.119176 0.072688 0.039672 255 220 0
0.183775 0.054470 0.039603 255 220 0
0.121995 0.196646 0.101286 255 220 0
0.128410 0.068542 0.080982 255 220 0
0.124211 0.159138 0.051600 255 220 0
0.117454 0.153041 0.053697 255 220 0
0.110855 0.156733 0.060449 255 220 0
0.174084 0.171717 0.067189 255 220 0
0.125995 0.161168 0.051583 255 220 0
0.103546 0.130993 0.066247 255 220 0
0.154797 0.128723 0.028596 255 220 0
0.156525 0.085675 0.015686 255 220 0
0.124143 0.055763 0.049357 255 220 0
0.148058 0.197178 0.079226 255 220 0
0.096683 0.177878 0.081302 255 220 0
0.157919 0.093352 0.016879 255 220 0
0.169817 0.133511 0.099250 255 220 0
0.174003 0.079345 0.087677 255 220 0
0.102302 0.141945 0.079405 255 220 0
0.132612 0.102321 0.099129 255 220 0
0.189087 0.068228 0.039287 255 220 0
0.143780 0.139037 0.106991 255 220 0
0.192732 0.116338 0.047177 255 220 0
0.097876 0.173428 0.088439 255 220 0
0.170464 0.073162 0.017427 255 220 0
0.106919 0.137682 0.060732 255 220 0
0.192839 0.109727 0.071832 255 220 0
0.168726 0.039541 0.044359 255 220 0
0.154137 0.181161 0.060234 255 220 0
0.097001 0.193047 0.080141 255 220 0
0.112647 0.143908 0.055295 255 220 0
0.193503 0.102893 0.069203 255 220 0
0.114061 0.083080 0.078954 255 220 0
0.110447 0.201070 0.073665 255 220 0
0.188562 0.106145 0.034933 255 220 0
0.106380 0.129080 0.087276 255 220 0
0.184584 0.150263 0.053357 255 220 0
0.142276 0.140118 0.035503 255 220 0
0.120347 0.135887 0.045566 255 220 0
0.184294 0.155712 0.063712 255 220 0
0.182916 0.140528 0.043480 255 220 0
0.113304 0.120008 0.093706 255 220 0
0.115550 0.128248 0.047599 255 220 0
0.098982 0.170186 0.089180 255 220 0
0.144198 0.066687 0.086164 255 220 0
0.098304 0.193329 0.077770 255 220 0
0.176125 0.076322 0.019796 255 220 0
0.180872 0.055610 0.061259 255 220 0
0.160753 0.104343 0.101044 255 220 0
0.125898 0.090738 0.029751 255 220 0
0.102706 0.137055 0.079870 255 220 0
0.166722 0.180166 0.077485 255 220 0
0.105267 0.119056 0.059629 255 220 0
0.169514 0.075415 0.087813 255 220 0
0.171866 0.064673 0.079276 255 220 0
0.159020 0.096996 0.099684 255 220 0
0.193988 0.094378 0.046590 255 220 0
0.104104 0.141006 0.086008 255 220 0
0.108231 0.108542 0.085188 255 220 0
0.119376 0.109841 0.038777 255 220 0
0.172406 0.078530 0.017784 255 220 0
0.175842 0.063332 0.075686 255 220 0
0.190726 0.133829 0.054014 255 220 0
0.145463 0.043883 0.035305 255 220 0
0.157966 0.061927 0.082481 255 220 0
0.095891 0.185456 0.090172 255 220 0
0.102899 0.189283 0.099143 255 220 0
0.187325 0.064553 0.058468 255 220 0
0.097040 0.176221 0.087974 255 220 0
0.186173 0.071233 0.069265 255 220 0
0.110765 0.090704 0.048420 255 220 0
0.143947 0.124139 0.028509 255 220 0
0.163416 0.089872 0.096627 255 220 0
0.119006 0.112788 0.096221 255 220 0
0.189776 0.068681 0.054726 255 220 0
0.177099 0.066846 0.077535 255 220 0
0.151425 0.084601 0.096448 255 220 0
0.190818 0.077791 0.062842 255 220 0
0.161965 0.184654 0.071599 255 220 0
0.125360 0.173628 0.057076 255 220 0
0.185617 0.150514 0.069662 255 220 0
0.112989 0.133013 0.051701 255 220 0
0.102111 0.184859 0.098657 255 220 0
0.119563 0.085886 0.035839 255 220 0
0.108502 0.090605 0.053835 255 220 0
0.148745 0.164222 0.105296 255 220 0
0.136457 0.191842 0.065606 255 220 0
0.182164 0.114664 0.030548 255 220 0
0.162399 0.164597 0.098331 255 220 0
0.119580 0.154391 0.104197 255 220 0
0.118020 0.097006 0.090797 255 220 0
0.111962 0.138294 0.096377 255 220 0
0.113990 0.111876 0.092530 255 220 0
0.148011 0.184840 0.061718 255 220 0
0.160689 0.152829 0.102484 255 220 0
0.138579 0.105728 0.101454 255 220 0
0.189443 0.121011 0.078038 255 220 0
0.102448 0.131171 0.071441 255 220 0
0.153103 0.112259 0.022422 255 220 0
0.140302 0.049089 0.032715 255 220 0
0.123215 0.057110 0.048889 255 220 0
0.175161 0.099293 0.022247 255 220 0
0.162697 0.182760 0.068633 255 220 0
0.190934 0.109832 0.076511 255 220 0
0.164901 0.167410 0.094606 255 220 0
0.170391 0.168550 0.086126 255 220 0
0.154061 0.066671 0.086643 255 220 0
0.161941 0.141696 0.035007 255 220 0
0.146549 0.042556 0.059163 255 220 0
0.157681 0.047816 0.068973 255 220 0
0.149310 0.190558 0.068618 255 220 0
0.099230 0.165274 0.079414 255 220 0
0.103736 0.113023 0.077505 255 220 0
0.170440 0.172840 0.061644 255 220 0
0.184798 0.154110 0.060327 255 220 0
0.114293 0.076247 0.046951 255 220 0
0.129840 0.101135 0.028452 255 220 0
0.152214 0.115416 0.104315 255 220 0
0.121051 0.139035 0.046074 255 220 0
0.160520 0.037950 0.048986 255 220 0
0.182810 0.157504 0.069914 255 220 0
0.130980 0.153251 0.107065 255 220 0
0.175008 0.146021 0.041221 255 220 0
0.159509 0.079287 0.093185 255 220 0
0.106385 0.157423 0.095877 255 220 0
0.167755 0.175233 0.083649 255 220 0
0.148318 0.132991 0.030899 255 220 0
0.125694 0.056725 0.042645 255 220 0
0.130667 0.064453 0.029902 255 220 0
0.109593 0.142920 0.095228 255 220 0
0.182800 0.133896 0.039786 255 220 0
0.151929 0.038959 0.049282 255 220 0
0.188494 0.134863 0.074351 255 220 0
0.147388 0.139005 0.106817 255 220 0
0.152446 0.176636 0.055421 255 220 0
0.134188 0.184947 0.104358 255 220 0
0.151072 0.195675 0.082803 255 220 0
0.191711 0.112251 0.042204 255 220 0
0.163283 0.183413 0.080896 255 220 0
0.169340 0.159553 0.047469 255 220 0
0.105321 0.162525 0.096275 255 220 0
0.104594 0.151003 0.067421 255 220 0
0.102435 0.131560 0.076698 255 220 0
0.146013 0.198457 0.087132 255 220 0
0.103447 0.128370 0.080807 255 220 0
0.164988 0.076853 0.015783 255 220 0
0.096664 0.178437 0.088616 255 220 0
0.167974 0.118839 0.025836 255 220 0
0.132684 0.204725 0.082140 255 220 0
0.144866 0.065722 0.085550 255 220 0
0.168994 0.171440 0.058238 255 220 0
0.149973 0.044391 0.031193 255 220 0
0.176790 0.155557 0.085962 255 220 0
0.174186 0.116767 0.026845 255 220 0
0.168055 0.077415 0.089626 255 220 0
0.190697 0.101320 0.076151 255 220 0
0.109097 0.082341 0.065961 255 220 0
0.152332 0.187641 0.093262 255 220 0
0.161370 0.042423 0.031356 255 220 0
0.131934 0.174385 0.107056 255 220 0
0.102383 0.155430 0.072051 255 220 0
0.192532 0.107571 0.072699 255 220 0
0.118482 0.101098 0.037947 255 220 0
0.133202 0.082534 0.092427 255 220 0
0.133262 0.096725 0.097767 255 220 0
0.138542 0.047074 0.063112 255 220 0
0.160880 0.168797 0.051282 255 220 0
0.129293 0.051286 0.045094 255 220 0
0.105596 0.200859 0.094827 255 220 0
0.186266 0.072297 0.030868 255 220 0
0.157240 0.087802 0.097211 255 220 0
0.171560 0.084236 0.091272 255 220 0
0.162508 0.057965 0.078007 255 220 0
0.110235 0.083163 0.071690 255 220 0
0.150044 0.039842 0.041251 255 220 0
0.154082 0.155706 0.104809 255 220 0
0.114907 0.196503 0.101255 255 220 0
0.179194 0.116882 0.029282 255 220 0
0.186316 0.095489 0.030678 255 220 0
0.145864 0.141190 0.107028 255 220 0
0.142000 0.058969 0.024147 255 220 0
0.145121 0.050462 0.027894 255 220 0
0.119955 0.191348 0.103663 255 220 0
0.175901 0.163940 0.056106 255 220 0
0.129130 0.073692 0.028018 255 220 0
0.109137 0.174158 0.065369 255 220 0
0.112090 0.089955 0.081031 255 220 0
0.139580 0.123239 0.104870 255 220 0
0.174126 0.085791 0.090289 255 220 0
0.163699 0.079494 0.092265 255 220 0
0.185501 0.147698 0.073167 255 220 0
0.159424 0.185978 0.070267 255 220 0
0.185723 0.118639 0.035423 255 220 0
0.175165 0.100303 0.022492 255 220 0
0.125420 0.074076 0.031396 255 220 0
0.159989 0.048295 0.069143 255 220 0
0.165596 0.147242 0.038599 255 220 0
0.132951 0.062247 0.028927 255 220 0
0.135931 0.194678 0.068120 255 220 0
0.190157 0.074758 0.061978 255 220 0
0.153884 0.162070 0.044974 255 220 0
0.112535 0.193962 0.069036 255 220 0
0.121843 0.200071 0.070992 255 220 0
0.104474 0.100346 0.069098 255 220 0
0.193123 0.116989 0.069388 255 220 0
0.189932 0.070086 0.041196 255 220 0
0.163444 0.102560 0.099939 255 220 0
0.119705 0.196739 0.101381 255 220 0
0.179269 0.060711 0.069969 255 220 0
0.126473 0.079656 0.087762 255 220 0
0.162292 0.129814 0.029509 255 220 0
0.120722 0.194119 0.102608 255 220 0
0.188590 0.110951 0.080910 255 220 0
0.153805 0.040771 0.057911 255 220 0
0.189466 0.067036 0.042591 255 220 0
0.155137 0.123707 0.026554 255 220 0
0.172201 0.173921 0.067681 255 220 0
0.163662 0.039697 0.037528 255 220 0
0.125732 0.081527 0.029833 255 220 0
0.096633 0.188043 0.092283 255 220 0
0.170378 0.045707 0.060971 255 220 0
0.174067 0.123119 0.029243 255 220 0
0.131954 0.202095 0.075883 255 220 0
0.147384 0.195487 0.074664 255 220 0
0.167233 0.055660 0.074126 255 220 0
0.138440 0.183551 0.059312 255 220 0
0.171143 0.054181 0.024180 255 220 0
0.189856 0.105835 0.078470 255 220 0
0.145019 0.169116 0.105537 255 220 0
0.171109 0.134630 0.033673 255 220 0
0.160633 0.098401 0.018140 255 220 0
0.175563 0.130424 0.095023 255 220 0
0.131803 0.110760 0.100898 255 220 0
0.169336 0.176635 0.077600 255 220 0
0.192781 0.085878 0.062964 255 220 0
0.120827 0.203074 0.074130 255 220 0
0.130153 0.099917 0.097715 255 220 0
0.119107 0.065611 0.068446 255 220 0
0.148894 0.134147 0.106457 255 220 0
0.144865 0.180098 0.102600 255 220 0
0.186739 0.093634 0.080789 255 220 0
0.157512 0.087475 0.015885 255 220 0
0.129709 0.132697 0.038175 255 220 0
0.120731 0.198603 0.069903 255 220 0
0.141672 0.176994 0.104742 255 220 0
0.183184 0.076337 0.025972 255 220 0
0.157398 0.169373 0.050648 255 220 0
0.171383 0.148033 0.096119 255 220 0
0.103352 0.167610 0.095706 255 220 0
0.100933 0.156625 0.083699 255 220 0
0.104270 0.103464 0.063868 255 220 0
0.171454 0.169922 0.058630 255 220 0
0.124033 0.079881 0.086396 255 220 0
0.102319 0.132583 0.075457 255 220 0
0.145981 0.196708 0.090076 255 220 0
0.124487 0.200318 0.071354 255 220 0
0.183592 0.055932 0.055714 255 220 0
0.125688 0.192378 0.065860 255 220 0
0.158697 0.086399 0.096477 255 220 0
0.153742 0.039018 0.052185 255 220 0
0.115281 0.091782 0.086005 255 220 0
0.100415 0.158299 0.080578 255 220 0
0.103110 0.174350 0.097590 255 220 0
0.096130 0.189974 0.080953 255 220 0
0.177602 0.046894 0.053146 255 220 0
0.178741 0.157221 0.081189 255 220 0
0.164647 0.115955 0.024159 255 220 0
0.174325 0.044252 0.037567 255 220 0
0.138556 0.128445 0.032325 255 220 0
0.191688 0.078460 0.059843 255 220 0
0.158740 0.155214 0.103033 255 220 0
0.164844 0.143005 0.101580 255 220 0
0.136323 0.192863 0.066479 255 220 0
0.190138 0.129764 0.049237 255 220 0
0.158835 0.054707 0.021543 255 220 0
0.147954 0.175278 0.102949 255 220 0
0.117110 0.118155 0.096170 255 220 0
0.149942 0.093871 0.099638 255 220 0
0.130163 0.118928 0.033189 255 220 0
0.123962 0.097592 0.094524 255 220 0
0.121393 0.067948 0.074686 255 220 0
0.103516 0.131748 0.066494 255 220 0
0.148805 0.094338 0.099755 255 220 0
0.142157 0.065022 0.084286 255 220 0
0.165687 0.110285 0.022330 255 220 0
0.106882 0.130459 0.058959 255 220 0
0.145816 0.061059 0.081754 255 220 0
0.181471 0.064645 0.071085 255 220 0
0.161799 0.143556 0.103015 255 220 0
0.169818 0.071855 0.085378 255 220 0
0.145770 0.073530 0.091076 255 220 0
0.176455 0.088432 0.020733 255 220 0
0.129922 0.080755 0.026321 255 220 0
0.158990 0.073129 0.015535 255 220 0
0.172411 0.119041 0.098004 255 220 0
0.109328 0.199593 0.072834 255 220 0
0.141016 0.059329 0.024527 255 220 0
0.157769 0.189011 0.083721 255 220 0
0.103370 0.153918 0.089914 255 220 0
0.172995 0.121432 0.028177 255 220 0
0.192386 0.119534 0.071008 255 220 0
0.185517 0.090056 0.081215 255 220 0
0.180438 0.078960 0.082437 255 220 0
0.193572 0.097671 0.044400 255 220 0
0.114343 0.105232 0.043339 255 220 0
0.142861 0.193239 0.068819 255 220 0
0.107690 0.123645 0.056028 255 220 0
0.190091 0.067854 0.049053 255 220 0
0.144570 0.109876 0.023555 255 220 0
0.192096 0.119792 0.071845 255 220 0
0.181639 0.065710 0.071864 255 220 0
0.195187 0.107069 0.060422 255 220 0
0.177061 0.150901 0.045472 255 220 0
0.145936 0.093569 0.018801 255 220 0
0.128357 0.146831 0.105914 255 220 0
0.177660 0.093080 0.090127 255 220 0
0.138338 0.123452 0.104705 255 220 0
0.152955 0.040982 0.034925 255 220 0
0.116591 0.080112 0.040755 255 220 0
0.102321 0.123926 0.072482 255 220 0
0.159852 0.085596 0.095962 255 220 0
0.139815 0.069230 0.086893 255 220 0
0.178052 0.144847 0.089447 255 220 0
0.180330 0.080096 0.022952 255 220 0
0.161930 0.100229 0.099828 255 220 0
0.158729 0.104661 0.101557 255 220 0
0.184048 0.084580 0.027036 255 220 0
0.140784 0.152736 0.107581 255 220 0
0.189889 0.092733 0.035887 255 220 0
0.156185 0.191385 0.080663 255 220 0
0.128301 0.059248 0.035736 255 220 0
0.186955 0.140799 0.074568 255 220 0
0.191871 0.113763 0.074071 255 220 0
0.153144 0.046461 0.067432 255 220 0
0.108560 0.200398 0.073737 255 220 0
0.120290 0.145901 0.103167 255 220 0
0.142123 0.085528 0.096141 255 220 0
0.128755 0.050617 0.054908 255 220 0
0.190705 0.088001 0.071179 255 220 0
0.175713 0.151926 0.089702 255 220 0
0.156150 0.038487 0.040732 255 220 0
0.102651 0.149112 0.072034 255 220 0
0.169950 0.124352 0.028526 255 220 0
0.114855 0.068436 0.059155 255 220 0
0.147209 0.041112 0.055208 255 220 0
0.109346 0.196587 0.071034 255 220 0
0.183469 0.157230 0.062500 255 220 0
0.139042 0.054855 0.073594 255 220 0
0.129574 0.080958 0.026582 255 220 0
0.148495 0.072493 0.016963 255 220 0
0.125053 0.161046 0.051951 255 220 0
0.168693 0.167622 0.053895 255 220 0
0.148885 0.148758 0.037937 255 220 0
0.159621 0.129410 0.029054 255 220 0
0.106254 0.198799 0.073513 255 220 0
0.140361 0.152778 0.042036 255 220 0
0.105874 0.190899 0.070458 255 220 0
0.164442 0.167866 0.051896 255 220 0
0.167051 0.119138 0.025762 255 220 0
0.135578 0.188965 0.063232 255 220 0
0.151309 0.152267 0.039486 255 220 0
0.099777 0.187037 0.074588 255 220 0
