ply
format ascii 1.0
element vertex 1024
property float x
property float y
property float z
property uchar red
property uchar green
property uchar blue
end_header
0.462010 0.095963 0.092280 255 220 0
0.405906 0.081181 0.056340 255 220 0
0.493455 0.074373 0.037392 255 220 0
0.461879 0.037511 0.060863 255 220 0
0.473735 0.097400 0.018630 255 220 0
0.418957 0.084259 0.014994 255 220 0
0.468717 0.086169 0.087980 255 220 0
0.458443 0.168369 0.092325 255 220 0
0.498643 0.109796 0.065820 255 220 0
0.452278 0.078747 0.004889 255 220 0
0.460480 0.038421 0.062745 255 220 0
0.462003 0.034827 0.008461 255 220 0
0.438972 0.092156 0.010687 255 220 0
0.472375 0.079703 0.084251 255 220 0
0.491641 0.068544 0.054635 255 220 0
0.409578 0.106879 0.062804 255 220 0
0.419611 0.033783 0.019731 255 220 0
0.469615 0.128888 0.094992 255 220 0
0.415290 0.110460 0.071555 255 220 0
0.466723 0.062373 0.078790 255 220 0
0.470512 0.054976 0.071734 255 220 0
0.474601 0.082650 0.084065 255 220 0
0.404139 0.067983 0.045790 255 220 0
0.435561 0.026612 0.010763 255 220 0
0.420933 0.088141 0.015347 255 220 0
0.422920 0.082478 0.011923 255 220 0
0.453174 0.168230 0.050440 255 220 0
0.485485 0.074794 0.022162 255 220 0
0.444498 0.039339 0.002702 255 220 0
0.433336 0.181215 0.058453 255 220 0
0.494701 0.083344 0.038212 255 220 0
0.470170 0.179486 0.079270 255 220 0
0.491247 0.124790 0.046359 255 220 0
0.435060 0.185130 0.059787 255 220 0
0.447257 0.110018 0.093777 255 220 0
0.470902 0.029550 0.030981 255 220 0
0.450773 0.131162 0.030416 255 220 0
0.447947 0.063037 0.082169 255 220 0
0.470831 0.178000 0.081204 255 220 0
0.492284 0.127478 0.049647 255 220 0
0.422994 0.131092 0.039439 255 220 0
0.480041 0.166767 0.074554 255 220 0
0.486927 0.076364 0.023972 255 220 0
0.480809 0.071755 0.016762 255 220 0
0.435814 0.169289 0.086953 255 220 0
0.452667 0.121358 0.024967 255 220 0
0.464600 0.059477 0.077863 255 220 0
0.491152 0.073959 0.031023 255 220 0
0.446389 0.086425 0.089878 255 220 0
0.432988 0.023610 0.015769 255 220 0
0.486228 0.103456 0.030561 255 220 0
0.473724 0.158863 0.089846 255 220 0
0.458574 0.074853 0.086956 255 220 0
0.442515 0.104448 0.091789 255 220 0
0.458693 0.065269 0.082690 255 220 0
0.410361 0.099776 0.065727 255 220 0
0.486192 0.055291 0.032788 255 220 0
0.438808 0.026591 0.050455 255 220 0
0.421549 0.102897 0.022355 255 220 0
0.413192 0.069034 0.015507 255 220 0
0.486602 0.122965 0.039857 255 220 0
0.432405 0.032428 0.054443 255 220 0
0.450686 0.169967 0.092235 255 220 0
0.479458 0.055754 0.064081 255 220 0
0.474973 0.039821 0.018553 255 220 0
0.466740 0.183163 0.075374 255 220 0
0.433120 0.057382 0.075198 255 220 0
0.456603 0.137646 0.034682 255 220 0
0.491725 0.076235 0.062927 255 220 0
0.488030 0.121185 0.040413 255 220 0
0.490857 0.063183 0.041925 255 220 0
0.448083 0.150989 0.041396 255 220 0
0.485017 0.134244 0.044990 255 220 0
0.478856 0.161280 0.061414 255 220 0
0.470277 0.070451 0.081478 255 220 0
0.463297 0.169226 0.054160 255 220 0
0.440142 0.039114 0.064267 255 220 0
0.477943 0.075010 0.078935 255 220 0
0.490260 0.104483 0.035187 255 220 0
0.429007 0.123394 0.085078 255 220 0
0.434831 0.157565 0.088181 255 220 0
0.416329 0.091086 0.072854 255 220 0
0.469721 0.071858 0.008118 255 220 0
0.483944 0.098055 0.082352 255 220 0
0.415223 0.129695 0.050671 255 220 0
0.467005 0.107203 0.019789 255 220 0
0.420907 0.031629 0.020702 255 220 0
0.484883 0.157776 0.076888 255 220 0
0.468969 0.105939 0.092812 255 220 0
0.459780 0.132438 0.096543 255 220 0
0.496624 0.088178 0.044595 255 220 0
0.420722 0.137083 0.047028 255 220 0
0.453893 0.032156 0.058184 255 220 0
0.458647 0.132602 0.032095 255 220 0
0.439931 0.031819 0.057070 255 220 0
0.421056 0.067284 0.008956 255 220 0
0.472919 0.070516 0.009906 255 220 0
0.473617 0.035663 0.043853 255 220 0
0.450550 0.138872 0.034818 255 220 0
0.486539 0.060826 0.058150 255 220 0
0.472143 0.060357 0.074607 255 220 0
0.427341 0.023899 0.035071 255 220 0
0.468313 0.058296 0.005694 255 220 0
0.461516 0.032691 0.054872 255 220 0
0.475283 0.060527 0.010794 255 220 0
0.437545 0.129435 0.031285 255 220 0
0.466221 0.040772 0.007935 255 220 0
0.494061 0.078306 0.058191 255 220 0
0.458494 0.079565 0.005907 255 220 0
0.487935 0.072847 0.067287 255 220 0
0.403884 0.063859 0.039295 255 220 0
0.481304 0.058391 0.018432 255 220 0
0.446535 0.086834 0.090002 255 220 0
0.430264 0.064030 0.077038 255 220 0
0.454176 0.083821 0.007052 255 220 0
0.447680 0.081849 0.088955 255 220 0
0.458670 0.042892 0.003401 255 220 0
0.419027 0.112401 0.075859 255 220 0
0.469531 0.094298 0.015137 255 220 0
0.409214 0.096160 0.064039 255 220 0
0.407981 0.111124 0.046719 255 220 0
0.437648 0.030569 0.054891 255 220 0
0.457893 0.144095 0.038536 255 220 0
0.484764 0.102870 0.082892 255 220 0
0.442749 0.112873 0.020718 255 220 0
0.448616 0.076078 0.003704 255 220 0
0.496831 0.091122 0.043985 255 220 0
0.449536 0.148231 0.039907 255 220 0
0.463609 0.183421 0.082414 255 220 0
0.462091 0.087769 0.090382 255 220 0
0.462990 0.041742 0.064821 255 220 0
0.442563 0.092926 0.090192 255 220 0
0.459758 0.160109 0.094279 255 220 0
0.429496 0.021817 0.032210 255 220 0
0.498335 0.095577 0.048828 255 220 0
0.416825 0.041976 0.048849 255 220 0
0.429607 0.182015 0.075490 255 220 0
0.449559 0.109710 0.094224 255 220 0
0.463134 0.102473 0.093419 255 220 0
0.410709 0.044785 0.025220 255 220 0
0.486295 0.055725 0.050332 255 220 0
0.422347 0.068242 0.008328 255 220 0
0.447600 0.128036 0.095031 255 220 0
0.495089 0.102180 0.040776 255 220 0
0.418728 0.112621 0.030025 255 220 0
0.417555 0.055153 0.062391 255 220 0
0.418840 0.031021 0.030072 255 220 0
0.462757 0.026560 0.016878 255 220 0
0.475392 0.045758 0.014546 255 220 0
0.433509 0.148213 0.043440 255 220 0
0.495690 0.126841 0.055883 255 220 0
0.432075 0.173379 0.082890 255 220 0
0.409384 0.048904 0.024811 255 220 0
0.442311 0.044396 0.069435 255 220 0
0.471278 0.117364 0.026493 255 220 0
0.438643 0.023661 0.046232 255 220 0
0.470588 0.057348 0.073487 255 220 0
0.428942 0.098259 0.084015 255 220 0
0.409414 0.047732 0.039552 255 220 0
0.422300 0.152531 0.071551 255 220 0
0.449685 0.167513 0.049573 255 220 0
0.425581 0.155118 0.053418 255 220 0
0.487723 0.077629 0.070622 255 220 0
0.485224 0.052105 0.044635 255 220 0
0.448480 0.041196 0.067932 255 220 0
0.446177 0.164723 0.048124 255 220 0
0.434538 0.027386 0.010599 255 220 0
0.488815 0.144787 0.078319 255 220 0
0.476818 0.144206 0.090753 255 220 0
0.451847 0.082359 0.006272 255 220 0
0.466414 0.155229 0.093837 255 220 0
0.469750 0.086576 0.087686 255 220 0
0.486474 0.083388 0.024148 255 220 0
0.440511 0.098505 0.013478 255 220 0
0.445891 0.192804 0.067794 255 220 0
0.448405 0.093719 0.010850 255 220 0
0.465905 0.127796 0.030698 255 220 0
0.463485 0.023234 0.030667 255 220 0
0.444164 0.133791 0.032352 255 220 0
0.425849 0.137118 0.041458 255 220 0
0.441577 0.188751 0.080168 255 220 0
0.482932 0.048101 0.043634 255 220 0
0.426512 0.143028 0.044987 255 220 0
0.461771 0.077049 0.087186 255 220 0
0.434898 0.070474 0.003665 255 220 0
0.456674 0.072742 0.003332 255 220 0
0.480083 0.049239 0.054918 255 220 0
0.418855 0.074570 0.072408 255 220 0
0.440612 0.132535 0.032314 255 220 0
0.462811 0.023268 0.034556 255 220 0
0.484806 0.061566 0.023342 255 220 0
0.448026 0.022235 0.045177 255 220 0
0.440050 0.072301 0.003042 255 220 0
0.468143 0.039240 0.057772 255 220 0
0.483034 0.101769 0.084097 255 220 0
0.442209 0.144472 0.093162 255 220 0
0.474834 0.046152 0.013539 255 220 0
0.413174 0.118422 0.040725 255 220 0
0.455461 0.153171 0.043004 255 220 0
0.497866 0.095735 0.061821 255 220 0
0.466872 0.091388 0.090070 255 220 0
0.483497 0.060056 0.062851 255 220 0
0.404178 0.089085 0.051058 255 220 0
0.474354 0.082119 0.084022 255 220 0
0.432374 0.083994 0.084153 255 220 0
0.462168 0.105456 0.017768 255 220 0
0.461612 0.124148 0.027678 255 220 0
0.480220 0.045276 0.025937 255 220 0
0.474444 0.034894 0.025372 255 220 0
0.417043 0.038059 0.044346 255 220 0
0.420093 0.145792 0.067397 255 220 0
0.489582 0.103632 0.034079 255 220 0
0.471142 0.031195 0.023334 255 220 0
0.444073 0.057932 0.079226 255 220 0
0.449618 0.023590 0.012055 255 220 0
0.484536 0.076996 0.021171 255 220 0
0.403424 0.066279 0.035594 255 220 0
0.441474 0.036088 0.061832 255 220 0
0.477033 0.045665 0.055021 255 220 0
0.423566 0.098958 0.080020 255 220 0
0.417817 0.137276 0.054424 255 220 0
0.446382 0.169129 0.091795 255 220 0
0.448188 0.117968 0.094653 255 220 0
0.431310 0.119534 0.027445 255 220 0
0.495405 0.114421 0.073226 255 220 0
0.440850 0.046349 0.001255 255 220 0
0.483207 0.070469 0.019383 255 220 0
0.438089 0.191444 0.067477 255 220 0
0.463682 0.161540 0.093202 255 220 0
0.453128 0.122049 0.095830 255 220 0
0.452655 0.135978 0.096155 255 220 0
0.422108 0.155665 0.065511 255 220 0
0.404573 0.085489 0.053051 255 220 0
0.450540 0.192240 0.069350 255 220 0
0.429195 0.097739 0.015994 255 220 0
0.453138 0.019027 0.021835 255 220 0
0.427868 0.096469 0.083124 255 220 0
0.467950 0.144557 0.041278 255 220 0
0.408508 0.070158 0.021360 255 220 0
0.455534 0.125107 0.096228 255 220 0
0.488353 0.087480 0.027092 255 220 0
0.443654 0.149045 0.040853 255 220 0
0.475133 0.146012 0.045146 255 220 0
0.410274 0.112249 0.040204 255 220 0
0.418510 0.103164 0.024501 255 220 0
0.439275 0.086491 0.008180 255 220 0
0.479722 0.148003 0.088062 255 220 0
0.476789 0.037140 0.032680 255 220 0
0.427782 0.073738 0.006874 255 220 0
0.494762 0.076773 0.042545 255 220 0
0.464792 0.142970 0.039464 255 220 0
0.484631 0.068563 0.068850 255 220 0
0.462742 0.023425 0.024062 255 220 0
0.495785 0.122663 0.072613 255 220 0
0.464436 0.184776 0.071867 255 220 0
0.429009 0.077077 0.080653 255 220 0
0.423544 0.159495 0.071792 255 220 0
0.477687 0.122881 0.032616 255 220 0
0.493001 0.072382 0.054872 255 220 0
0.436370 0.170688 0.087013 255 220 0
0.448960 0.046895 0.072691 255 220 0
0.491183 0.121048 0.044037 255 220 0
0.495897 0.100008 0.068779 255 220 0
0.479943 0.093249 0.021209 255 220 0
0.445404 0.165797 0.048607 255 220 0
0.440051 0.095074 0.089660 255 220 0
0.461238 0.088147 0.090642 255 220 0
0.444050 0.191500 0.063409 255 220 0
0.445598 0.067151 0.001139 255 220 0
0.479835 0.066529 0.015489 255 220 0
0.486424 0.092717 0.026617 255 220 0
0.415667 0.100186 0.025049 255 220 0
0.436342 0.092116 0.087635 255 220 0
0.482831 0.087508 0.021655 255 220 0
0.440323 0.128223 0.092380 255 220 0
0.420778 0.082929 0.075886 255 220 0
0.495367 0.121156 0.073504 255 220 0
0.413795 0.068776 0.065172 255 220 0
0.424881 0.157406 0.076406 255 220 0
0.452354 0.107091 0.017493 255 220 0
0.416790 0.043910 0.050995 255 220 0
0.494923 0.116702 0.046916 255 220 0
0.441611 0.101857 0.015022 255 220 0
0.443009 0.033578 0.059735 255 220 0
0.443495 0.020315 0.041969 255 220 0
0.473706 0.130192 0.093395 255 220 0
0.407326 0.053109 0.028243 255 220 0
0.472569 0.121825 0.093653 255 220 0
0.403555 0.082402 0.048547 255 220 0
0.488768 0.061309 0.033508 255 220 0
0.484795 0.054866 0.028258 255 220 0
0.432870 0.063882 0.003070 255 220 0
0.418592 0.045297 0.055030 255 220 0
0.491822 0.070596 0.056862 255 220 0
0.437271 0.058168 0.077432 255 220 0
0.465925 0.066476 0.005144 255 220 0
0.405821 0.065740 0.026187 255 220 0
0.421173 0.033459 0.044454 255 220 0
0.480100 0.044547 0.026771 255 220 0
0.486290 0.136051 0.083577 255 220 0
0.402961 0.070378 0.040664 255 220 0
0.410692 0.109654 0.037070 255 220 0
0.460627 0.168598 0.052726 255 220 0
0.406702 0.089334 0.030357 255 220 0
0.404709 0.096784 0.042618 255 220 0
0.485773 0.053369 0.035256 255 220 0
0.444689 0.016906 0.025230 255 220 0
0.453616 0.173148 0.091252 255 220 0
0.477744 0.113017 0.090080 255 220 0
0.479279 0.119945 0.032149 255 220 0
0.436967 0.138026 0.090602 255 220 0
0.478090 0.106726 0.088777 255 220 0
0.444220 0.121195 0.025130 255 220 0
0.415932 0.127147 0.067204 255 220 0
0.439868 0.038608 0.003457 255 220 0
0.487252 0.055848 0.037745 255 220 0
0.462588 0.082472 0.007935 255 220 0
0.408365 0.079859 0.060961 255 220 0
0.485869 0.099571 0.028639 255 220 0
0.428669 0.131819 0.036153 255 220 0
0.440107 0.050701 0.000811 255 220 0
0.421482 0.060516 0.069661 255 220 0
0.475965 0.084434 0.083878 255 220 0
0.420233 0.087101 0.015324 255 220 0
0.427989 0.095371 0.083099 255 220 0
0.478773 0.099118 0.086529 255 220 0
0.496014 0.104143 0.070002 255 220 0
0.480161 0.049262 0.021065 255 220 0
0.482065 0.057036 0.020209 255 220 0
0.492787 0.074736 0.058632 255 220 0
0.447006 0.017413 0.034844 255 220 0
0.413451 0.063726 0.062386 255 220 0
0.441857 0.017743 0.035746 255 220 0
0.448880 0.116815 0.022416 255 220 0
0.424504 0.148946 0.051116 255 220 0
0.453625 0.182781 0.086630 255 220 0
0.432494 0.092793 0.085711 255 220 0
0.447449 0.123634 0.026210 255 220 0
0.412113 0.095684 0.026052 255 220 0
0.414225 0.091439 0.070689 255 220 0
0.425335 0.170704 0.071559 255 220 0
0.429993 0.154491 0.048510 255 220 0
0.497075 0.090546 0.045404 255 220 0
0.475525 0.044944 0.015245 255 220 0
0.490635 0.073529 0.030082 255 220 0
0.474345 0.150308 0.047598 255 220 0
0.463382 0.149110 0.095424 255 220 0
0.418955 0.036240 0.045020 255 220 0
0.422660 0.064049 0.072226 255 220 0
0.491505 0.127785 0.048688 255 220 0
0.459479 0.166704 0.092665 255 220 0
0.437376 0.075607 0.084346 255 220 0
0.466397 0.115364 0.023766 255 220 0
0.457535 0.161515 0.094227 255 220 0
0.487119 0.089156 0.026181 255 220 0
0.446039 0.125343 0.027267 255 220 0
0.422834 0.121400 0.032811 255 220 0
0.410427 0.107128 0.035480 255 220 0
0.483317 0.142802 0.085638 255 220 0
0.470874 0.150920 0.093031 255 220 0
0.408989 0.106226 0.061657 255 220 0
0.442615 0.191767 0.064244 255 220 0
0.431043 0.069247 0.079473 255 220 0
0.452532 0.116589 0.022392 255 220 0
0.428391 0.100929 0.017988 255 220 0
0.436585 0.164962 0.088357 255 220 0
0.430839 0.026402 0.045426 255 220 0
0.443610 0.031124 0.057251 255 220 0
0.422377 0.037600 0.012617 255 220 0
0.428276 0.131641 0.036249 255 220 0
0.417797 0.131412 0.046172 255 220 0
0.465916 0.027373 0.019967 255 220 0
0.493451 0.070404 0.045751 255 220 0
0.430981 0.177546 0.080330 255 220 0
0.412281 0.049258 0.048968 255 220 0
0.450392 0.020939 0.042205 255 220 0
0.443321 0.087884 0.089459 255 220 0
0.414928 0.089274 0.071206 255 220 0
0.466981 0.151983 0.094243 255 220 0
0.446631 0.183426 0.086312 255 220 0
0.433493 0.019242 0.028720 255 220 0
0.474237 0.162937 0.057143 255 220 0
0.408384 0.049546 0.038392 255 220 0
0.465970 0.054020 0.073669 255 220 0
0.424533 0.167969 0.068932 255 220 0
0.418842 0.103450 0.024428 255 220 0
0.461722 0.147391 0.041227 255 220 0
0.477774 0.151700 0.088921 255 220 0
0.472094 0.071903 0.081204 255 220 0
0.442104 0.023947 0.011331 255 220 0
0.430657 0.083042 0.082989 255 220 0
0.459674 0.177515 0.056990 255 220 0
0.487764 0.056774 0.045443 255 220 0
0.423595 0.063922 0.072878 255 220 0
0.439130 0.117018 0.091358 255 220 0
0.453503 0.164484 0.048648 255 220 0
0.426213 0.116490 0.027789 255 220 0
0.458565 0.090330 0.091514 255 220 0
0.445222 0.171663 0.090825 255 220 0
0.413513 0.121328 0.043172 255 220 0
0.424213 0.165325 0.064500 255 220 0
0.420194 0.126896 0.075638 255 220 0
0.419710 0.121126 0.075816 255 220 0
0.414551 0.126919 0.048122 255 220 0
0.471374 0.043843 0.060175 255 220 0
0.448790 0.087646 0.008230 255 220 0
0.494078 0.090820 0.036351 255 220 0
0.431212 0.130267 0.086765 255 220 0
0.471982 0.106237 0.021410 255 220 0
0.408758 0.058168 0.050464 255 220 0
0.462792 0.042476 0.005247 255 220 0
0.445262 0.105765 0.016712 255 220 0
0.495386 0.080406 0.054171 255 220 0
0.495369 0.111078 0.044727 255 220 0
0.405302 0.071716 0.027012 255 220 0
0.493779 0.083863 0.035439 255 220 0
0.476312 0.171922 0.073303 255 220 0
0.424684 0.163605 0.073561 255 220 0
0.479396 0.061109 0.015208 255 220 0
0.471408 0.080305 0.084946 255 220 0
0.459447 0.077885 0.087925 255 220 0
0.432089 0.035501 0.057561 255 220 0
0.491175 0.100513 0.034708 255 220 0
0.414867 0.122477 0.041865 255 220 0
0.421360 0.088606 0.077204 255 220 0
0.450696 0.186846 0.059047 255 220 0
0.475322 0.157282 0.053431 255 220 0
0.466625 0.025584 0.029406 255 220 0
0.435998 0.099891 0.015018 255 220 0
0.429954 0.027589 0.046413 255 220 0
0.435684 0.154738 0.045625 255 220 0
0.441258 0.132346 0.032053 255 220 0
0.464689 0.170407 0.089882 255 220 0
0.495526 0.085469 0.060595 255 220 0
0.444675 0.060911 0.000231 255 220 0
0.422043 0.139870 0.047608 255 220 0
0.452789 0.156836 0.094984 255 220 0
0.484683 0.064399 0.065354 255 220 0
0.472145 0.031013 0.032725 255 220 0
0.454655 0.061678 0.081378 255 220 0
0.483281 0.053280 0.025483 255 220 0
0.456366 0.118152 0.095830 255 220 0
0.442733 0.016826 0.031870 255 220 0
0.422788 0.150735 0.073916 255 220 0
0.487120 0.110601 0.034471 255 220 0
0.457469 0.081830 0.089427 255 220 0
0.427846 0.096566 0.015935 255 220 0
0.403722 0.089602 0.040712 255 220 0
0.498463 0.114016 0.053074 255 220 0
0.439048 0.038062 0.003788 255 220 0
0.483075 0.105476 0.028543 255 220 0
0.405827 0.080349 0.028009 255 220 0
0.422708 0.030093 0.019913 255 220 0
0.467035 0.111694 0.094312 255 220 0
0.486151 0.105231 0.031223 255 220 0
0.437896 0.090473 0.010112 255 220 0
0.443273 0.024868 0.049221 255 220 0
0.495639 0.119686 0.073103 255 220 0
0.498744 0.095014 0.054656 255 220 0
0.442843 0.173749 0.051938 255 220 0
0.426260 0.173098 0.073560 255 220 0
0.467075 0.048912 0.069032 255 220 0
0.449275 0.123783 0.026231 255 220 0
0.464729 0.123086 0.027672 255 220 0
0.494171 0.077300 0.056483 255 220 0
0.417668 0.095158 0.074511 255 220 0
0.485608 0.054154 0.032369 255 220 0
0.470348 0.063094 0.007212 255 220 0
0.414561 0.062113 0.013555 255 220 0
0.493569 0.093403 0.069897 255 220 0
0.460445 0.177136 0.088125 255 220 0
0.422918 0.155878 0.059873 255 220 0
0.425204 0.059363 0.071894 255 220 0
0.473789 0.096384 0.088644 255 220 0
0.421146 0.028744 0.028775 255 220 0
0.481193 0.063146 0.068814 255 220 0
0.405683 0.096436 0.055479 255 220 0
0.434474 0.049277 0.070495 255 220 0
0.441136 0.115636 0.022487 255 220 0
0.422755 0.155707 0.071134 255 220 0
0.474476 0.165842 0.086948 255 220 0
0.427256 0.054102 0.004877 255 220 0
0.480164 0.058425 0.016666 255 220 0
0.421888 0.073750 0.009736 255 220 0
0.407065 0.105003 0.056375 255 220 0
0.408301 0.070317 0.057602 255 220 0
0.404768 0.075394 0.051767 255 220 0
0.473801 0.098132 0.018963 255 220 0
0.496075 0.126997 0.057146 255 220 0
0.478158 0.168125 0.081651 255 220 0
0.474919 0.149976 0.047716 255 220 0
0.473415 0.035528 0.020768 255 220 0
0.459761 0.184255 0.083773 255 220 0
0.488217 0.062104 0.055826 255 220 0
0.480501 0.081025 0.079523 255 220 0
0.461201 0.046722 0.070353 255 220 0
0.435597 0.063709 0.079472 255 220 0
0.446249 0.098032 0.012816 255 220 0
0.456185 0.112067 0.095236 255 220 0
0.469039 0.035850 0.013345 255 220 0
0.447379 0.094245 0.011058 255 220 0
0.476503 0.064095 0.073985 255 220 0
0.447431 0.160808 0.093638 255 220 0
0.450773 0.017418 0.031321 255 220 0
0.429344 0.149239 0.084134 255 220 0
0.486913 0.099435 0.079990 255 220 0
0.432873 0.091888 0.011918 255 220 0
0.478756 0.041914 0.043682 255 220 0
0.493247 0.071552 0.052166 255 220 0
0.465902 0.143609 0.040136 255 220 0
0.409582 0.087023 0.064217 255 220 0
0.431472 0.147237 0.043968 255 220 0
0.443079 0.189219 0.080004 255 220 0
0.452441 0.177302 0.054294 255 220 0
0.428288 0.034102 0.009786 255 220 0
0.451104 0.044837 0.071141 255 220 0
0.485273 0.052860 0.033586 255 220 0
0.464818 0.037520 0.058666 255 220 0
0.438516 0.151805 0.091029 255 220 0
0.424854 0.106113 0.081404 255 220 0
0.434146 0.019445 0.033947 255 220 0
0.475243 0.065199 0.010983 255 220 0
0.448233 0.182159 0.087249 255 220 0
0.449119 0.185394 0.057384 255 220 0
0.461271 0.139597 0.036675 255 220 0
0.454597 0.074475 0.087138 255 220 0
0.476142 0.156860 0.053831 255 220 0
0.468220 0.027289 0.026386 255 220 0
0.426924 0.057701 0.072088 255 220 0
0.447118 0.051551 -0.000057 255 220 0
0.446099 0.059943 0.000030 255 220 0
0.473936 0.078618 0.082986 255 220 0
0.410914 0.046354 0.042286 255 220 0
0.422323 0.043075 0.057377 255 220 0
0.481757 0.100302 0.084731 255 220 0
0.427194 0.066942 0.076441 255 220 0
0.444582 0.052038 0.075812 255 220 0
0.488702 0.130754 0.046932 255 220 0
0.475496 0.071777 0.079099 255 220 0
0.430618 0.034388 0.008134 255 220 0
0.449726 0.103648 0.093496 255 220 0
0.476102 0.172696 0.077000 255 220 0
0.438203 0.076256 0.004535 255 220 0
0.409824 0.109070 0.038143 255 220 0
0.458635 0.136884 0.034588 255 220 0
0.474523 0.172454 0.068729 255 220 0
0.413285 0.059559 0.014911 255 220 0
0.483967 0.066280 0.020701 255 220 0
0.492451 0.067304 0.043653 255 220 0
0.485773 0.136587 0.047517 255 220 0
0.415175 0.088154 0.019472 255 220 0
0.414957 0.092487 0.071579 255 220 0
0.492841 0.132704 0.075763 255 220 0
0.487282 0.134298 0.082735 255 220 0
0.437907 0.036146 0.004713 255 220 0
0.460194 0.025372 0.044149 255 220 0
0.449604 0.033836 0.060811 255 220 0
0.417090 0.035252 0.022420 255 220 0
0.421903 0.134709 0.076741 255 220 0
0.406504 0.095875 0.034822 255 220 0
0.447340 0.163023 0.093268 255 220 0
0.473015 0.169361 0.086258 255 220 0
0.451399 0.192067 0.071889 255 220 0
0.404341 0.079337 0.051507 255 220 0
0.430114 0.169951 0.081617 255 220 0
0.476990 0.154165 0.088950 255 220 0
0.477828 0.113075 0.090038 255 220 0
0.484190 0.073687 0.020582 255 220 0
0.408606 0.105907 0.060815 255 220 0
0.481083 0.053960 0.019841 255 220 0
0.428968 0.040577 0.006465 255 220 0
0.452021 0.019152 0.037514 255 220 0
0.482393 0.162911 0.074859 255 220 0
0.437293 0.085870 0.086917 255 220 0
0.434475 0.173514 0.054105 255 220 0
0.403447 0.067849 0.042179 255 220 0
0.448630 0.189023 0.080794 255 220 0
0.430654 0.136489 0.038089 255 220 0
0.434154 0.073822 0.082465 255 220 0
0.417031 0.058308 0.063872 255 220 0
0.462893 0.158396 0.047819 255 220 0
0.495596 0.081086 0.044150 255 220 0
0.436021 0.021803 0.041797 255 220 0
0.418241 0.068871 0.011074 255 220 0
0.484452 0.093531 0.025050 255 220 0
0.450737 0.047813 0.000542 255 220 0
0.420694 0.047232 0.009859 255 220 0
0.475873 0.140260 0.041812 255 220 0
0.407483 0.052546 0.028219 255 220 0
0.424202 0.089834 0.079676 255 220 0
0.495934 0.094920 0.066420 255 220 0
0.434312 0.022952 0.015629 255 220 0
0.403936 0.079025 0.032229 255 220 0
0.409218 0.047725 0.038686 255 220 0
0.456483 0.150781 0.095793 255 220 0
0.442865 0.081857 0.005944 255 220 0
0.423530 0.101686 0.020610 255 220 0
0.434273 0.085252 0.085398 255 220 0
0.444192 0.049088 0.073623 255 220 0
0.475924 0.114606 0.027427 255 220 0
0.492992 0.098784 0.036489 255 220 0
0.458308 0.175624 0.089485 255 220 0
0.432256 0.021976 0.038780 255 220 0
0.417160 0.059686 0.064861 255 220 0
0.439695 0.054425 0.076068 255 220 0
0.416620 0.047586 0.013476 255 220 0
0.456042 0.071875 0.086065 255 220 0
0.467193 0.118075 0.025457 255 220 0
0.470149 0.152635 0.046991 255 220 0
0.469807 0.087708 0.012804 255 220 0
0.483398 0.056915 0.022935 255 220 0
0.425334 0.024979 0.032386 255 220 0
0.484836 0.054383 0.029009 255 220 0
0.490788 0.109547 0.078383 255 220 0
0.443424 0.064447 0.082164 255 220 0
0.419830 0.119999 0.034094 255 220 0
0.424794 0.122803 0.032482 255 220 0
0.455223 0.079874 0.088949 255 220 0
0.491489 0.116831 0.042141 255 220 0
0.412818 0.061246 0.060025 255 220 0
0.435239 0.155123 0.088697 255 220 0
0.444225 0.037292 0.003449 255 220 0
0.447638 0.022983 0.012326 255 220 0
0.434946 0.114070 0.088920 255 220 0
0.446520 0.191749 0.064236 255 220 0
0.477247 0.131867 0.091390 255 220 0
0.425024 0.061662 0.072887 255 220 0
0.418481 0.081144 0.014159 255 220 0
0.419964 0.098326 0.020872 255 220 0
0.459051 0.082825 0.007224 255 220 0
0.476440 0.044850 0.054780 255 220 0
0.477591 0.131255 0.037198 255 220 0
0.468662 0.027899 0.035456 255 220 0
0.412114 0.091535 0.023950 255 220 0
0.446886 0.173283 0.051756 255 220 0
0.447263 0.189708 0.060879 255 220 0
0.426946 0.118962 0.083335 255 220 0
0.451794 0.029130 0.054706 255 220 0
0.456487 0.037963 0.064020 255 220 0
0.466496 0.034947 0.011592 255 220 0
0.478428 0.082622 0.081668 255 220 0
0.413669 0.043403 0.019566 255 220 0
0.434310 0.081233 0.084537 255 220 0
0.495661 0.132295 0.067448 255 220 0
0.469764 0.077348 0.084639 255 220 0
0.414668 0.059598 0.061634 255 220 0
0.489681 0.146940 0.066371 255 220 0
0.483214 0.103381 0.027789 255 220 0
0.427073 0.160464 0.079529 255 220 0
0.462905 0.155669 0.094611 255 220 0
0.440147 0.026554 0.050861 255 220 0
0.425224 0.149076 0.050205 255 220 0
0.472315 0.177411 0.077605 255 220 0
0.486199 0.062507 0.060878 255 220 0
0.458301 0.096194 0.092758 255 220 0
0.433498 0.181018 0.058215 255 220 0
0.408880 0.067011 0.020582 255 220 0
0.493251 0.115838 0.076384 255 220 0
0.421704 0.141172 0.074854 255 220 0
0.451254 0.155739 0.043878 255 220 0
0.483941 0.093298 0.024509 255 220 0
0.424276 0.095448 0.080329 255 220 0
0.417361 0.068535 0.011683 255 220 0
0.463648 0.023318 0.029510 255 220 0
0.450054 0.178547 0.089131 255 220 0
0.408677 0.060991 0.052629 255 220 0
0.453731 0.143661 0.037654 255 220 0
0.444779 0.141251 0.036520 255 220 0
0.438430 0.147556 0.041286 255 220 0
0.495137 0.132687 0.070114 255 220 0
0.456081 0.144677 0.038519 255 220 0
0.419435 0.127856 0.040435 255 220 0
0.474618 0.102605 0.021288 255 220 0
0.462515 0.063248 0.003194 255 220 0
0.410948 0.051248 0.019741 255 220 0
0.479859 0.167192 0.076928 255 220 0
0.428106 0.172958 0.059478 255 220 0
0.466488 0.069497 0.005928 255 220 0
0.464121 0.100669 0.092889 255 220 0
0.448915 0.050281 0.075132 255 220 0
0.418342 0.138300 0.054012 255 220 0
0.419972 0.089442 0.076101 255 220 0
0.473988 0.033238 0.033017 255 220 0
0.441965 0.117325 0.092637 255 220 0
0.494487 0.074677 0.048910 255 220 0
0.424698 0.168496 0.065852 255 220 0
0.468267 0.045831 0.007371 255 220 0
0.427023 0.132287 0.037379 255 220 0
0.483050 0.068896 0.070987 255 220 0
0.443112 0.016743 0.026860 255 220 0
0.484925 0.150013 0.058670 255 220 0
0.435169 0.186370 0.060811 255 220 0
0.436354 0.135250 0.035080 255 220 0
0.481660 0.062469 0.067698 255 220 0
0.403537 0.080400 0.048361 255 220 0
0.452069 0.187475 0.060285 255 220 0
0.491055 0.067343 0.034571 255 220 0
0.413539 0.125028 0.060712 255 220 0
0.499775 0.108703 0.057264 255 220 0
0.466513 0.118449 0.025480 255 220 0
0.442855 0.124559 0.027223 255 220 0
0.498156 0.113780 0.067686 255 220 0
0.497786 0.100675 0.046008 255 220 0
0.413220 0.113862 0.067554 255 220 0
0.434914 0.119893 0.026422 255 220 0
0.423994 0.165108 0.066404 255 220 0
0.419240 0.052299 0.062244 255 220 0
0.437216 0.186021 0.059054 255 220 0
0.473484 0.046139 0.011881 255 220 0
0.454025 0.025793 0.049004 255 220 0
0.443638 0.078662 0.087209 255 220 0
0.434090 0.081592 0.007315 255 220 0
0.416456 0.133750 0.053829 255 220 0
0.488896 0.143612 0.078675 255 220 0
0.418193 0.116365 0.032974 255 220 0
0.443465 0.048778 0.073222 255 220 0
0.443934 0.038059 0.064351 255 220 0
0.439580 0.072859 0.084259 255 220 0
0.486498 0.054476 0.045409 255 220 0
0.417109 0.136701 0.060619 255 220 0
0.407178 0.105821 0.056214 255 220 0
0.433487 0.101658 0.016586 255 220 0
0.472022 0.049764 0.009147 255 220 0
0.447961 0.035054 0.062063 255 220 0
0.497752 0.091264 0.057334 255 220 0
0.428729 0.030977 0.011612 255 220 0
0.430036 0.041852 0.062480 255 220 0
0.427490 0.180152 0.068675 255 220 0
0.431771 0.180500 0.079891 255 220 0
0.464168 0.030880 0.049826 255 220 0
0.425340 0.171364 0.065577 255 220 0
0.462189 0.037446 0.060573 255 220 0
0.414821 0.088473 0.019922 255 220 0
0.463660 0.103364 0.017034 255 220 0
0.441335 0.064499 0.081720 255 220 0
0.414049 0.104872 0.070627 255 220 0
0.469279 0.033445 0.047742 255 220 0
0.449834 0.037646 0.064731 255 220 0
0.429168 0.065154 0.076910 255 220 0
0.471106 0.041183 0.057056 255 220 0
0.488902 0.149712 0.072335 255 220 0
0.458849 0.156142 0.045355 255 220 0
0.494962 0.108582 0.072878 255 220 0
0.433327 0.125329 0.030166 255 220 0
0.429423 0.176894 0.078508 255 220 0
0.424600 0.080134 0.010239 255 220 0
0.410970 0.089437 0.024245 255 220 0
0.457315 0.137607 0.096489 255 220 0
0.472756 0.167519 0.059666 255 220 0
0.490856 0.077793 0.029725 255 220 0
0.471341 0.131777 0.094404 255 220 0
0.429216 0.141870 0.084624 255 220 0
0.408506 0.091164 0.062829 255 220 0
0.418851 0.130833 0.072415 255 220 0
0.410787 0.106276 0.065432 255 220 0
0.480834 0.156057 0.058659 255 220 0
0.463487 0.122051 0.095942 255 220 0
0.425563 0.089833 0.080706 255 220 0
0.482765 0.080551 0.077427 255 220 0
0.416751 0.128545 0.044967 255 220 0
0.468461 0.088598 0.012458 255 220 0
0.427530 0.037925 0.008334 255 220 0
0.410907 0.052864 0.019213 255 220 0
0.481481 0.067126 0.017374 255 220 0
0.489767 0.147670 0.069507 255 220 0
0.479845 0.069877 0.074769 255 220 0
0.475936 0.133145 0.092152 255 220 0
0.484005 0.131646 0.086154 255 220 0
0.427298 0.047872 0.065846 255 220 0
0.483772 0.111051 0.031551 255 220 0
0.420617 0.029477 0.034064 255 220 0
0.428647 0.029265 0.047603 255 220 0
0.481878 0.160637 0.066399 255 220 0
0.425595 0.160534 0.056602 255 220 0
0.408037 0.111786 0.048276 255 220 0
0.494533 0.135282 0.063935 255 220 0
0.499102 0.112096 0.064438 255 220 0
0.412202 0.073956 0.017469 255 220 0
0.442219 0.089113 0.008951 255 220 0
0.440010 0.092409 0.089226 255 220 0
0.444588 0.127062 0.028404 255 220 0
0.433951 0.019029 0.028316 255 220 0
0.495472 0.116090 0.073284 255 220 0
0.437237 0.135766 0.090781 255 220 0
0.494298 0.109111 0.042204 255 220 0
0.434837 0.056759 0.075634 255 220 0
0.422426 0.150429 0.073085 255 220 0
0.485497 0.138783 0.084016 255 220 0
0.470190 0.109339 0.022020 255 220 0
0.415028 0.051365 0.014110 255 220 0
0.426952 0.055956 0.004967 255 220 0
0.419229 0.136021 0.071290 255 220 0
0.496208 0.094771 0.041503 255 220 0
0.427098 0.023780 0.025998 255 220 0
0.489112 0.093334 0.075793 255 220 0
0.445025 0.115679 0.093624 255 220 0
0.483316 0.146690 0.052937 255 220 0
0.454218 0.162649 0.094119 255 220 0
0.480475 0.164525 0.081008 255 220 0
0.493677 0.071445 0.043310 255 220 0
0.486183 0.148079 0.081260 255 220 0
0.493048 0.123793 0.048300 255 220 0
0.423545 0.155470 0.073896 255 220 0
0.428318 0.145286 0.044925 255 220 0
0.415041 0.128936 0.049937 255 220 0
0.475887 0.169309 0.083861 255 220 0
0.413085 0.125660 0.053615 255 220 0
0.465833 0.051572 0.004645 255 220 0
0.425731 0.173519 0.066395 255 220 0
0.482437 0.087847 0.021415 255 220 0
0.469168 0.180846 0.075885 255 220 0
0.419609 0.051133 0.061736 255 220 0
0.493944 0.134654 0.060073 255 220 0
0.434166 0.029383 0.009288 255 220 0
0.483936 0.117161 0.086064 255 220 0
0.486393 0.083220 0.024030 255 220 0
0.442446 0.051233 0.074755 255 220 0
0.476192 0.062370 0.073056 255 220 0
0.403688 0.081869 0.034511 255 220 0
0.474435 0.156853 0.089963 255 220 0
0.442794 0.022520 0.012788 255 220 0
0.446934 0.154234 0.094306 255 220 0
0.426694 0.150268 0.049222 255 220 0
0.481580 0.067112 0.071371 255 220 0
0.429353 0.094235 0.014187 255 220 0
0.414510 0.071438 0.067002 255 220 0
0.418641 0.084137 0.074181 255 220 0
0.414434 0.037130 0.035884 255 220 0
0.488524 0.135874 0.050569 255 220 0
0.414874 0.044908 0.016720 255 220 0
0.440426 0.189611 0.078486 255 220 0
0.476330 0.038079 0.024864 255 220 0
0.435100 0.065417 0.079973 255 220 0
0.447661 0.055774 0.078459 255 220 0
0.433747 0.036243 0.059145 255 220 0
0.402953 0.082136 0.040357 255 220 0
0.428744 0.025356 0.018020 255 220 0
0.458357 0.127599 0.096441 255 220 0
0.444086 0.181593 0.086812 255 220 0
0.489759 0.081098 0.027929 255 220 0
0.486204 0.058791 0.028246 255 220 0
0.444598 0.118316 0.093668 255 220 0
0.436146 0.045937 0.002376 255 220 0
0.433841 0.036960 0.005578 255 220 0
0.445277 0.174740 0.089892 255 220 0
0.497310 0.124839 0.059145 255 220 0
0.430226 0.064892 0.004125 255 220 0
0.442586 0.163940 0.047998 255 220 0
0.404049 0.087445 0.050723 255 220 0
0.432560 0.105065 0.086895 255 220 0
0.450806 0.056008 0.078598 255 220 0
0.438749 0.055061 0.076147 255 220 0
0.492437 0.106141 0.075688 255 220 0
0.487810 0.152025 0.070478 255 220 0
0.493772 0.079789 0.036029 255 220 0
0.481823 0.068030 0.017758 255 220 0
0.426092 0.066921 0.006154 255 220 0
0.430715 0.028661 0.048573 255 220 0
0.487884 0.114399 0.036927 255 220 0
0.428276 0.052954 0.004449 255 220 0
0.472620 0.170308 0.062281 255 220 0
0.469584 0.038760 0.055573 255 220 0
0.482088 0.132947 0.041404 255 220 0
0.452461 0.180151 0.055539 255 220 0
0.462110 0.181459 0.061281 255 220 0
0.406297 0.100060 0.038715 255 220 0
0.487212 0.075244 0.069902 255 220 0
0.474798 0.034535 0.035357 255 220 0
0.445525 0.075854 0.086764 255 220 0
0.448147 0.179657 0.088501 255 220 0
0.451746 0.031135 0.057413 255 220 0
0.409334 0.071844 0.060046 255 220 0
0.481012 0.100230 0.024708 255 220 0
0.447458 0.176867 0.089574 255 220 0
0.476800 0.071959 0.078302 255 220 0
0.426368 0.024623 0.034943 255 220 0
0.472630 0.032026 0.036045 255 220 0
0.473514 0.097953 0.018721 255 220 0
0.494318 0.135504 0.070308 255 220 0
0.441373 0.019101 0.018876 255 220 0
0.430045 0.073431 0.005931 255 220 0
0.428450 0.182148 0.071282 255 220 0
0.441197 0.021636 0.043863 255 220 0
0.488118 0.088970 0.027204 255 220 0
0.469670 0.178776 0.069400 255 220 0
0.480202 0.165950 0.072188 255 220 0
0.438097 0.032038 0.056676 255 220 0
0.473154 0.159172 0.053149 255 220 0
0.458449 0.028606 0.011002 255 220 0
0.476568 0.066800 0.075644 255 220 0
0.456178 0.143653 0.096269 255 220 0
0.488923 0.100618 0.032159 255 220 0
0.470433 0.072805 0.008747 255 220 0
0.469118 0.095305 0.090304 255 220 0
0.422222 0.097362 0.078786 255 220 0
0.489551 0.139285 0.079080 255 220 0
0.476106 0.047535 0.059034 255 220 0
0.461414 0.184622 0.064349 255 220 0
0.417408 0.088383 0.073625 255 220 0
0.404121 0.062446 0.037483 255 220 0
0.444365 0.110659 0.093027 255 220 0
0.461715 0.153519 0.095151 255 220 0
0.468006 0.057304 0.074951 255 220 0
0.464026 0.064417 0.003970 255 220 0
0.451949 0.117462 0.022822 255 220 0
0.460950 0.180637 0.059683 255 220 0
0.456983 0.152190 0.095658 255 220 0
0.477194 0.043035 0.019917 255 220 0
0.486084 0.137944 0.048949 255 220 0
0.472653 0.112929 0.092681 255 220 0
0.424243 0.160895 0.073511 255 220 0
0.421856 0.152070 0.059832 255 220 0
0.409293 0.102902 0.034236 255 220 0
0.495220 0.132198 0.060996 255 220 0
0.407876 0.073127 0.058023 255 220 0
0.415815 0.129894 0.048896 255 220 0
0.474080 0.167781 0.086336 255 220 0
0.464293 0.180499 0.062503 255 220 0
0.458398 0.024822 0.044739 255 220 0
0.463902 0.172822 0.056538 255 220 0
0.435986 0.063506 0.079539 255 220 0
0.427607 0.023042 0.029301 255 220 0
0.405718 0.087685 0.056674 255 220 0
0.423235 0.153776 0.057004 255 220 0
0.426211 0.167043 0.076225 255 220 0
0.432860 0.184018 0.060822 255 220 0
0.450503 0.019406 0.039039 255 220 0
0.487958 0.117741 0.082480 255 220 0
0.479040 0.086746 0.018341 255 220 0
0.452179 0.018399 0.023022 255 220 0
0.459619 0.109656 0.019534 255 220 0
0.473178 0.041370 0.054633 255 220 0
0.462668 0.125061 0.096195 255 220 0
0.463140 0.111401 0.094926 255 220 0
0.472765 0.168498 0.060595 255 220 0
0.497243 0.087858 0.052059 255 220 0
0.449330 0.034568 0.004678 255 220 0
0.462141 0.147829 0.095730 255 220 0
0.414744 0.110519 0.070793 255 220 0
0.430702 0.074129 0.080834 255 220 0
0.448300 0.104911 0.016202 255 220 0
0.412391 0.089053 0.068305 255 220 0
0.404801 0.063557 0.044406 255 220 0
0.419640 0.128547 0.040771 255 220 0
0.429908 0.075057 0.080650 255 220 0
0.417500 0.051711 0.059580 255 220 0
0.478169 0.081197 0.016098 255 220 0
0.424580 0.125832 0.034607 255 220 0
0.419785 0.046511 0.057778 255 220 0
0.454845 0.033674 0.059763 255 220 0
0.460321 0.113267 0.095376 255 220 0
0.443084 0.045442 0.070499 255 220 0
0.421691 0.057749 0.068385 255 220 0
0.478525 0.056825 0.014713 255 220 0
0.434463 0.070839 0.003870 255 220 0
0.459345 0.050926 0.001925 255 220 0
0.460636 0.086560 0.090342 255 220 0
0.450807 0.186650 0.058924 255 220 0
0.435341 0.046702 0.002471 255 220 0
0.482934 0.155574 0.082992 255 220 0
0.420548 0.148603 0.066009 255 220 0
0.486890 0.087934 0.025607 255 220 0
0.487094 0.077861 0.071571 255 220 0
0.465329 0.054655 0.074412 255 220 0
0.455984 0.047017 0.072233 255 220 0
0.488314 0.057591 0.043732 255 220 0
0.425727 0.099823 0.018536 255 220 0
0.477552 0.165924 0.064933 255 220 0
0.423425 0.119357 0.031084 255 220 0
0.471205 0.032524 0.042413 255 220 0
0.459933 0.090297 0.010422 255 220 0
0.486663 0.078228 0.072299 255 220 0
0.455157 0.034556 0.060708 255 220 0
0.487938 0.065386 0.060665 255 220 0
0.496559 0.112585 0.047581 255 220 0
0.455894 0.075071 0.003924 255 220 0
0.432752 0.131192 0.087884 255 220 0
0.456883 0.060941 0.080692 255 220 0
0.431671 0.105811 0.086377 255 220 0
0.433897 0.025026 0.013211 255 220 0
0.417945 0.076339 0.013002 255 220 0
0.413226 0.122132 0.044793 255 220 0
0.436795 0.062266 0.079304 255 220 0
0.416393 0.056541 0.061912 255 220 0
0.479244 0.107046 0.088090 255 220 0
0.477465 0.047653 0.016754 255 220 0
0.443320 0.074447 0.085820 255 220 0
0.441901 0.079856 0.087089 255 220 0
0.481008 0.050027 0.022447 255 220 0
0.445022 0.130919 0.094322 255 220 0
0.486179 0.054764 0.033839 255 220 0
0.483696 0.158384 0.079988 255 220 0
0.420716 0.052404 0.008869 255 220 0
0.490249 0.099332 0.076410 255 220 0
0.483148 0.072954 0.073388 255 220 0
0.424836 0.030074 0.044503 255 220 0
0.450185 0.187720 0.059647 255 220 0
0.426599 0.133953 0.082591 255 220 0
0.421901 0.070147 0.073787 255 220 0
0.410664 0.044622 0.025622 255 220 0
0.472354 0.050422 0.066375 255 220 0
0.480181 0.114424 0.088662 255 220 0
0.433455 0.021406 0.019283 255 220 0
0.424264 0.144499 0.048327 255 220 0
0.485454 0.091911 0.025405 255 220 0
0.405055 0.066809 0.027866 255 220 0
0.421963 0.027861 0.030357 255 220 0
0.450195 0.183941 0.056788 255 220 0
0.498536 0.115497 0.066520 255 220 0
0.414410 0.043939 0.047033 255 220 0
0.434165 0.071179 0.004034 255 220 0
0.449809 0.055068 -0.000197 255 220 0
0.455113 0.144993 0.038543 255 220 0
0.493625 0.131344 0.055333 255 220 0
0.474805 0.123233 0.031190 255 220 0
0.478772 0.101062 0.023366 255 220 0
0.447666 0.187321 0.058455 255 220 0
0.467928 0.130674 0.032910 255 220 0
0.445107 0.180406 0.054269 255 220 0
0.490888 0.133451 0.052140 255 220 0
0.481818 0.088527 0.021096 255 220 0
0.471653 0.165323 0.056725 255 220 0
0.477757 0.125296 0.033951 255 220 0
0.436926 0.179713 0.055589 255 220 0
