ply
format ascii 1.0
element vertex 1024
property float x
property float y
property float z
property uchar red
property uchar green
property uchar blue
end_header
0.518690 0.096533 0.309404 255 220 0
0.450659 0.096722 0.314837 255 220 0
0.505731 0.086664 0.244579 255 220 0
0.486576 0.048227 0.277173 255 220 0
0.484733 0.115455 0.245743 255 220 0
0.437130 0.108918 0.275371 255 220 0
0.519089 0.087557 0.300535 255 220 0
0.532692 0.166569 0.321826 255 220 0
0.534678 0.113077 0.268122 255 220 0
0.455711 0.103011 0.246001 255 220 0
0.486812 0.048758 0.279620 255 220 0
0.455194 0.058900 0.236499 255 220 0
0.451920 0.115714 0.260654 255 220 0
0.518230 0.081929 0.294477 255 220 0
0.513132 0.076858 0.258131 255 220 0
0.463250 0.119478 0.321106 255 220 0
0.428758 0.059061 0.271517 255 220 0
0.533788 0.126823 0.311347 255 220 0
0.473655 0.120168 0.324752 255 220 0
0.506632 0.067163 0.291390 255 220 0
0.503701 0.061469 0.282567 255 220 0
0.520527 0.084602 0.293356 255 220 0
0.440026 0.086855 0.305994 255 220 0
0.434173 0.052916 0.253652 255 220 0
0.439766 0.112379 0.274950 255 220 0
0.437979 0.107605 0.270286 255 220 0
0.503914 0.177540 0.292953 255 220 0
0.490686 0.091682 0.237933 255 220 0
0.439288 0.066362 0.243660 255 220 0
0.496271 0.189894 0.313334 255 220 0
0.509252 0.094976 0.245687 255 220 0
0.536656 0.179465 0.306030 255 220 0
0.520955 0.133142 0.259914 255 220 0
0.499297 0.193162 0.313828 255 220 0
0.511396 0.111084 0.321752 255 220 0
0.474127 0.047273 0.247477 255 220 0
0.481694 0.147152 0.273887 255 220 0
0.494234 0.068728 0.305820 255 220 0
0.537964 0.177482 0.306893 255 220 0
0.524316 0.134799 0.262167 255 220 0
0.465478 0.147434 0.298178 255 220 0
0.538584 0.167478 0.294452 255 220 0
0.493232 0.092599 0.238641 255 220 0
0.483183 0.090567 0.236287 255 220 0
0.512216 0.170960 0.331986 255 220 0
0.477686 0.138913 0.267144 255 220 0
0.503772 0.064811 0.291601 255 220 0
0.500101 0.088097 0.241072 255 220 0
0.502973 0.089440 0.315993 255 220 0
0.434434 0.049002 0.258683 255 220 0
0.502833 0.117079 0.247936 255 220 0
0.540869 0.156595 0.309032 255 220 0
0.508014 0.077884 0.304506 255 220 0
0.505265 0.106674 0.322411 255 220 0
0.503379 0.069726 0.299812 255 220 0
0.463936 0.111826 0.321863 255 220 0
0.492983 0.070148 0.242912 255 220 0
0.460055 0.042536 0.282083 255 220 0
0.447780 0.124752 0.282014 255 220 0
0.429448 0.094677 0.277235 255 220 0
0.513107 0.133472 0.257573 255 220 0
0.458794 0.047753 0.289968 255 220 0
0.527001 0.168865 0.326833 255 220 0
0.506303 0.063308 0.271207 255 220 0
0.472335 0.059923 0.236833 255 220 0
0.532556 0.184317 0.305700 255 220 0
0.477339 0.066454 0.308952 255 220 0
0.490220 0.151762 0.274424 255 220 0
0.519858 0.082155 0.265522 255 220 0
0.514129 0.131482 0.256857 255 220 0
0.503801 0.074990 0.248114 255 220 0
0.490661 0.163714 0.286778 255 220 0
0.517510 0.143181 0.264087 255 220 0
0.528660 0.165636 0.284338 255 220 0
0.512834 0.073923 0.292364 255 220 0
0.514175 0.176597 0.289617 255 220 0
0.472117 0.050969 0.293607 255 220 0
0.518328 0.078228 0.286257 255 220 0
0.508918 0.116514 0.249108 255 220 0
0.495231 0.127895 0.328366 255 220 0
0.509468 0.159455 0.331898 255 220 0
0.470746 0.101088 0.322382 255 220 0
0.469529 0.093906 0.236602 255 220 0
0.530315 0.098981 0.288358 255 220 0
0.465750 0.143982 0.311463 255 220 0
0.482469 0.125237 0.252217 255 220 0
0.429836 0.056618 0.271150 255 220 0
0.541630 0.157772 0.291954 255 220 0
0.526699 0.105342 0.306859 255 220 0
0.527905 0.130781 0.319187 255 220 0
0.515617 0.097831 0.250062 255 220 0
0.469573 0.151495 0.306264 255 220 0
0.477576 0.044506 0.279361 255 220 0
0.489114 0.147366 0.270452 255 220 0
0.466029 0.045788 0.287192 255 220 0
0.431276 0.093905 0.267042 255 220 0
0.472749 0.091858 0.235786 255 220 0
0.485223 0.049641 0.256517 255 220 0
0.485897 0.153481 0.278486 255 220 0
0.509466 0.069021 0.262937 255 220 0
0.507900 0.065768 0.284507 255 220 0
0.441493 0.044927 0.277071 255 220 0
0.463876 0.081597 0.233720 255 220 0
0.481653 0.045138 0.272126 255 220 0
0.472794 0.081793 0.233588 255 220 0
0.471563 0.146523 0.282586 255 220 0
0.459525 0.064357 0.234291 255 220 0
0.519357 0.085127 0.260715 255 220 0
0.461314 0.102951 0.243009 255 220 0
0.518707 0.078148 0.270763 255 220 0
0.435051 0.084554 0.300589 255 220 0
0.481460 0.077231 0.235385 255 220 0
0.503254 0.089788 0.316054 255 220 0
0.477747 0.072660 0.313082 255 220 0
0.459628 0.107168 0.247185 255 220 0
0.502372 0.085146 0.313835 255 220 0
0.451497 0.068262 0.235831 255 220 0
0.479532 0.120593 0.325990 255 220 0
0.478703 0.113752 0.245257 255 220 0
0.461218 0.108880 0.320778 255 220 0
0.453522 0.127790 0.310355 255 220 0
0.462689 0.045353 0.286772 255 220 0
0.494980 0.156872 0.277479 255 220 0
0.532381 0.103403 0.288935 255 220 0
0.465542 0.132760 0.268897 255 220 0
0.451561 0.101088 0.247007 255 220 0
0.516099 0.100799 0.249877 255 220 0
0.490271 0.161299 0.284340 255 220 0
0.534336 0.183080 0.313099 255 220 0
0.515741 0.089117 0.306746 255 220 0
0.490746 0.051192 0.280110 255 220 0
0.501698 0.095982 0.319538 255 220 0
0.532952 0.157997 0.321344 255 220 0
0.440996 0.043444 0.273235 255 220 0
0.521146 0.103720 0.253278 255 220 0
0.445641 0.059839 0.296758 255 220 0
0.503600 0.186703 0.328854 255 220 0
0.513370 0.110456 0.320612 255 220 0
0.521737 0.102406 0.310488 255 220 0
0.427639 0.069107 0.282842 255 220 0
0.503494 0.066113 0.256373 255 220 0
0.432127 0.094864 0.265888 255 220 0
0.516564 0.128081 0.325027 255 220 0
0.515417 0.112424 0.250055 255 220 0
0.452360 0.132439 0.291029 255 220 0
0.457227 0.069027 0.308544 255 220 0
0.433611 0.053856 0.279550 255 220 0
0.458823 0.048738 0.241328 255 220 0
0.471673 0.066614 0.234328 255 220 0
0.479936 0.161907 0.297073 255 220 0
0.530478 0.132284 0.264733 255 220 0
0.507874 0.176281 0.331779 255 220 0
0.427324 0.073302 0.283935 255 220 0
0.478061 0.054540 0.296957 255 220 0
0.492075 0.132917 0.256115 255 220 0
0.456763 0.040801 0.278535 255 220 0
0.505341 0.063302 0.284197 255 220 0
0.488745 0.103972 0.324065 255 220 0
0.435757 0.068438 0.295066 255 220 0
0.488807 0.160008 0.326266 255 220 0
0.500536 0.177401 0.294370 255 220 0
0.481267 0.166780 0.310659 255 220 0
0.521612 0.081928 0.274126 255 220 0
0.498473 0.064172 0.252163 255 220 0
0.481214 0.051255 0.291497 255 220 0
0.496321 0.175414 0.295060 255 220 0
0.433463 0.053799 0.254275 255 220 0
0.542514 0.144532 0.288771 255 220 0
0.540411 0.141961 0.305736 255 220 0
0.457027 0.106179 0.247838 255 220 0
0.536719 0.152779 0.316157 255 220 0
0.519809 0.087925 0.299720 255 220 0
0.494609 0.099359 0.240044 255 220 0
0.456223 0.120973 0.262724 255 220 0
0.514174 0.197495 0.314275 255 220 0
0.459683 0.116283 0.255098 255 220 0
0.492801 0.142404 0.264166 255 220 0
0.466738 0.041975 0.250989 255 220 0
0.478323 0.149820 0.279876 255 220 0
0.470271 0.152453 0.298787 255 220 0
0.517183 0.190869 0.325903 255 220 0
0.495183 0.060788 0.252267 255 220 0
0.474229 0.157187 0.301909 255 220 0
0.511133 0.079636 0.302990 255 220 0
0.439618 0.097004 0.254771 255 220 0
0.456810 0.097206 0.241214 255 220 0
0.499885 0.059297 0.262869 255 220 0
0.468621 0.085061 0.318143 255 220 0
0.475261 0.148957 0.281892 255 220 0
0.468514 0.041087 0.254401 255 220 0
0.487798 0.078712 0.237408 255 220 0
0.463079 0.038805 0.271656 255 220 0
0.443663 0.098432 0.251328 255 220 0
0.490007 0.050080 0.271125 255 220 0
0.531496 0.102201 0.290787 255 220 0
0.515088 0.144890 0.329270 255 220 0
0.470739 0.067301 0.233960 255 220 0
0.455701 0.135841 0.303529 255 220 0
0.497826 0.164709 0.283704 255 220 0
0.528470 0.100627 0.263567 255 220 0
0.520097 0.092227 0.304025 255 220 0
0.509701 0.067378 0.268339 255 220 0
0.448037 0.105833 0.312973 255 220 0
0.520187 0.084125 0.293402 255 220 0
0.488186 0.089878 0.320024 255 220 0
0.477129 0.124525 0.253446 255 220 0
0.486855 0.140065 0.264022 255 220 0
0.482009 0.062807 0.239984 255 220 0
0.474803 0.053502 0.241706 255 220 0
0.442253 0.057188 0.292616 255 220 0
0.483093 0.154782 0.323513 255 220 0
0.507544 0.116040 0.248563 255 220 0
0.470190 0.050771 0.241689 255 220 0
0.488320 0.064925 0.305269 255 220 0
0.445121 0.048346 0.245428 255 220 0
0.489877 0.094143 0.238075 255 220 0
0.433075 0.087864 0.298376 255 220 0
0.471015 0.048546 0.290480 255 220 0
0.496757 0.056119 0.264354 255 220 0
0.482390 0.106167 0.324460 255 220 0
0.471722 0.150084 0.313784 255 220 0
0.523215 0.168578 0.329069 255 220 0
0.514470 0.118428 0.322957 255 220 0
0.462184 0.138555 0.282149 255 220 0
0.537600 0.115962 0.276480 255 220 0
0.437231 0.073824 0.245815 255 220 0
0.486286 0.088438 0.236619 255 220 0
0.507630 0.197006 0.318722 255 220 0
0.535687 0.159275 0.318264 255 220 0
0.519933 0.121591 0.321343 255 220 0
0.522977 0.134963 0.323842 255 220 0
0.485826 0.164573 0.322190 255 220 0
0.448685 0.101829 0.313751 255 220 0
0.518560 0.196118 0.312483 255 220 0
0.448764 0.120672 0.271626 255 220 0
0.452551 0.041143 0.250093 255 220 0
0.486974 0.102576 0.323802 255 220 0
0.504490 0.155668 0.273359 255 220 0
0.429527 0.094722 0.284814 255 220 0
0.522737 0.124205 0.320572 255 220 0
0.498744 0.102375 0.241703 255 220 0
0.486461 0.162401 0.288859 255 220 0
0.512667 0.155409 0.272039 255 220 0
0.451721 0.130305 0.304078 255 220 0
0.446753 0.124754 0.285599 255 220 0
0.449369 0.110866 0.257746 255 220 0
0.541953 0.146023 0.302387 255 220 0
0.481441 0.053592 0.246164 255 220 0
0.436751 0.100009 0.262143 255 220 0
0.510332 0.087546 0.248053 255 220 0
0.500610 0.154899 0.273720 255 220 0
0.516078 0.073942 0.273428 255 220 0
0.462317 0.043902 0.246412 255 220 0
0.539439 0.124015 0.276928 255 220 0
0.529079 0.186976 0.304676 255 220 0
0.481920 0.084424 0.318472 255 220 0
0.491521 0.166534 0.326650 255 220 0
0.501919 0.136070 0.257580 255 220 0
0.515212 0.080365 0.258000 255 220 0
0.513005 0.172239 0.331880 255 220 0
0.485706 0.055491 0.295648 255 220 0
0.518673 0.130133 0.257647 255 220 0
0.532030 0.103166 0.270738 255 220 0
0.490100 0.110217 0.243257 255 220 0
0.496256 0.176399 0.296066 255 220 0
0.499936 0.098423 0.321003 255 220 0
0.515321 0.089496 0.307533 255 220 0
0.509864 0.197525 0.311879 255 220 0
0.445649 0.093430 0.245674 255 220 0
0.480471 0.085951 0.235186 255 220 0
0.498180 0.107720 0.243280 255 220 0
0.444186 0.122017 0.287381 255 220 0
0.495187 0.096439 0.321354 255 220 0
0.491271 0.104303 0.240988 255 220 0
0.509411 0.129622 0.327570 255 220 0
0.474091 0.092046 0.320782 255 220 0
0.539292 0.122379 0.277663 255 220 0
0.459102 0.081795 0.314941 255 220 0
0.494791 0.163227 0.329062 255 220 0
0.469745 0.127100 0.259603 255 220 0
0.447325 0.061161 0.298699 255 220 0
0.522261 0.124866 0.256908 255 220 0
0.458759 0.123705 0.263691 255 220 0
0.470388 0.046515 0.287559 255 220 0
0.457237 0.038199 0.271758 255 220 0
0.536318 0.128096 0.307746 255 220 0
0.428724 0.076676 0.288446 255 220 0
0.533655 0.120083 0.307481 255 220 0
0.444531 0.100095 0.310497 255 220 0
0.496793 0.075515 0.242697 255 220 0
0.489136 0.071018 0.240248 255 220 0
0.436173 0.091000 0.254659 255 220 0
0.451417 0.061304 0.300863 255 220 0
0.515058 0.078252 0.260014 255 220 0
0.482051 0.066252 0.308180 255 220 0
0.463593 0.089838 0.235939 255 220 0
0.429267 0.089500 0.289581 255 220 0
0.444452 0.052340 0.289471 255 220 0
0.482238 0.061905 0.240597 255 220 0
0.541636 0.135029 0.293160 255 220 0
0.436650 0.090571 0.303132 255 220 0
0.449600 0.128560 0.301047 255 220 0
0.511118 0.176609 0.290099 255 220 0
0.437860 0.111076 0.295539 255 220 0
0.445258 0.115333 0.307242 255 220 0
0.493667 0.067712 0.244798 255 220 0
0.447517 0.039042 0.257685 255 220 0
0.529426 0.171899 0.324691 255 220 0
0.533523 0.112016 0.300266 255 220 0
0.502199 0.133210 0.255814 255 220 0
0.508031 0.139829 0.329679 255 220 0
0.531569 0.106257 0.298168 255 220 0
0.471203 0.139516 0.272531 255 220 0
0.475447 0.137274 0.323352 255 220 0
0.435978 0.065906 0.247033 255 220 0
0.496852 0.069329 0.246131 255 220 0
0.466351 0.104848 0.242412 255 220 0
0.454978 0.094047 0.316660 255 220 0
0.500526 0.113860 0.246140 255 220 0
0.468106 0.148427 0.292208 255 220 0
0.437400 0.078196 0.246549 255 220 0
0.465790 0.071977 0.312420 255 220 0
0.521885 0.086237 0.292609 255 220 0
0.438970 0.111449 0.275225 255 220 0
0.486799 0.101514 0.323554 255 220 0
0.529015 0.099437 0.294947 255 220 0
0.533797 0.106826 0.272183 255 220 0
0.480016 0.067884 0.236840 255 220 0
0.482782 0.075404 0.236083 255 220 0
0.517805 0.081699 0.261350 255 220 0
0.455089 0.036876 0.263687 255 220 0
0.456028 0.077671 0.312309 255 220 0
0.451710 0.037454 0.267646 255 220 0
0.472201 0.135544 0.266918 255 220 0
0.477651 0.161523 0.308700 255 220 0
0.528939 0.182342 0.322490 255 220 0
0.491230 0.097944 0.322378 255 220 0
0.474903 0.141284 0.271682 255 220 0
0.440983 0.117766 0.289742 255 220 0
0.467922 0.102176 0.322086 255 220 0
0.495363 0.177214 0.326923 255 220 0
0.481649 0.167001 0.304044 255 220 0
0.516990 0.099863 0.250733 255 220 0
0.472000 0.065640 0.234667 255 220 0
0.499047 0.087971 0.240614 255 220 0
0.514494 0.158999 0.275016 255 220 0
0.533890 0.146773 0.318414 255 220 0
0.443710 0.055085 0.291683 255 220 0
0.469029 0.074618 0.314148 255 220 0
0.523219 0.135411 0.261961 255 220 0
0.533309 0.164782 0.321205 255 220 0
0.490235 0.081280 0.315867 255 220 0
0.486227 0.132145 0.256794 255 220 0
0.531524 0.159574 0.322892 255 220 0
0.497639 0.104336 0.242011 255 220 0
0.474829 0.142795 0.273615 255 220 0
0.459211 0.139797 0.291831 255 220 0
0.447874 0.126556 0.299638 255 220 0
0.542108 0.141289 0.297549 255 220 0
0.538702 0.148412 0.312145 255 220 0
0.461968 0.119196 0.320503 255 220 0
0.509307 0.197707 0.313455 255 220 0
0.480990 0.076992 0.315196 255 220 0
0.474963 0.134986 0.264584 255 220 0
0.450054 0.123314 0.274107 255 220 0
0.512640 0.166366 0.331974 255 220 0
0.450878 0.044384 0.283181 255 220 0
0.468824 0.044724 0.284932 255 220 0
0.427594 0.064275 0.264863 255 220 0
0.467817 0.148269 0.292502 255 220 0
0.465492 0.146530 0.306641 255 220 0
0.463277 0.048439 0.241837 255 220 0
0.509732 0.080727 0.250440 255 220 0
0.506482 0.181046 0.331084 255 220 0
0.443875 0.067251 0.300713 255 220 0
0.462862 0.038085 0.267713 255 220 0
0.500688 0.091241 0.317795 255 220 0
0.468271 0.099894 0.321740 255 220 0
0.536646 0.149498 0.315659 255 220 0
0.523484 0.183707 0.326710 255 220 0
0.441441 0.041469 0.267695 255 220 0
0.522950 0.168750 0.284182 255 220 0
0.434696 0.070576 0.295073 255 220 0
0.501102 0.060490 0.286758 255 220 0
0.492562 0.175322 0.325024 255 220 0
0.447033 0.125016 0.285376 255 220 0
0.500292 0.159001 0.277613 255 220 0
0.541806 0.149550 0.304784 255 220 0
0.514416 0.075218 0.291221 255 220 0
0.438958 0.049585 0.249622 255 220 0
0.485951 0.089419 0.320071 255 220 0
0.514952 0.184205 0.295218 255 220 0
0.501996 0.068222 0.251849 255 220 0
0.470107 0.074241 0.314046 255 220 0
0.505294 0.119207 0.325960 255 220 0
0.502248 0.174357 0.290847 255 220 0
0.457735 0.136021 0.285174 255 220 0
0.514269 0.091631 0.310180 255 220 0
0.522332 0.171373 0.329406 255 220 0
0.458077 0.137987 0.305603 255 220 0
0.489093 0.173929 0.321452 255 220 0
0.483656 0.134493 0.327124 255 220 0
0.482052 0.128939 0.326754 255 220 0
0.463088 0.142018 0.309538 255 220 0
0.494989 0.053596 0.271594 255 220 0
0.457034 0.111063 0.251995 255 220 0
0.509402 0.102704 0.245697 255 220 0
0.499521 0.133876 0.329246 255 220 0
0.487055 0.123425 0.250213 255 220 0
0.444087 0.075784 0.305315 255 220 0
0.455680 0.067003 0.234611 255 220 0
0.463485 0.126694 0.263254 255 220 0
0.518501 0.088041 0.257095 255 220 0
0.520017 0.119964 0.254160 255 220 0
0.430733 0.095094 0.291377 255 220 0
0.507025 0.096265 0.244209 255 220 0
0.536151 0.173112 0.296548 255 220 0
0.494396 0.169934 0.327870 255 220 0
0.478713 0.080845 0.234486 255 220 0
0.518030 0.082425 0.295700 255 220 0
0.509962 0.080475 0.305128 255 220 0
0.461096 0.049953 0.292990 255 220 0
0.508427 0.112726 0.247612 255 220 0
0.458621 0.139296 0.303914 255 220 0
0.476630 0.097122 0.322226 255 220 0
0.511367 0.193519 0.303721 255 220 0
0.520298 0.164143 0.279861 255 220 0
0.468970 0.044259 0.248388 255 220 0
0.453956 0.122346 0.266923 255 220 0
0.451049 0.045361 0.284659 255 220 0
0.484415 0.167429 0.298305 255 220 0
0.475563 0.148779 0.281260 255 220 0
0.536562 0.168557 0.316330 255 220 0
0.523563 0.091275 0.262649 255 220 0
0.442957 0.087740 0.244679 255 220 0
0.471582 0.153906 0.306274 255 220 0
0.527213 0.155328 0.325785 255 220 0
0.513097 0.070813 0.270128 255 220 0
0.476455 0.048122 0.248244 255 220 0
0.498649 0.066983 0.300827 255 220 0
0.485962 0.070338 0.238843 255 220 0
0.521539 0.117531 0.318771 255 220 0
0.449894 0.037469 0.263994 255 220 0
0.490162 0.157634 0.327524 255 220 0
0.507479 0.122883 0.251381 255 220 0
0.510226 0.084079 0.308072 255 220 0
0.447413 0.119685 0.272260 255 220 0
0.441711 0.108994 0.305389 255 220 0
0.528007 0.120385 0.259043 255 220 0
0.435412 0.065374 0.247724 255 220 0
0.499670 0.119834 0.248642 255 220 0
0.433722 0.103103 0.293025 255 220 0
0.430411 0.055169 0.269203 255 220 0
0.527415 0.110687 0.310027 255 220 0
0.503575 0.118627 0.248741 255 220 0
0.450359 0.114341 0.260649 255 220 0
0.462388 0.040766 0.278102 255 220 0
0.538926 0.121039 0.276979 255 220 0
0.524764 0.101663 0.257417 255 220 0
0.498071 0.183454 0.301339 255 220 0
0.497810 0.178925 0.328216 255 220 0
0.498047 0.056641 0.281793 255 220 0
0.476364 0.141249 0.270577 255 220 0
0.489020 0.138748 0.261919 255 220 0
0.518203 0.084580 0.259195 255 220 0
0.473700 0.104462 0.323388 255 220 0
0.492021 0.069214 0.242796 255 220 0
0.467456 0.085639 0.234286 255 220 0
0.427759 0.088378 0.273910 255 220 0
0.529359 0.096744 0.272126 255 220 0
0.533796 0.175883 0.318580 255 220 0
0.483182 0.166129 0.317386 255 220 0
0.469720 0.069948 0.311644 255 220 0
0.525769 0.096742 0.299305 255 220 0
0.434108 0.051773 0.276792 255 220 0
0.512142 0.069062 0.274791 255 220 0
0.453505 0.111649 0.316456 255 220 0
0.473744 0.059714 0.303357 255 220 0
0.465972 0.135126 0.271651 255 220 0
0.489648 0.163129 0.326107 255 220 0
0.541358 0.163977 0.307316 255 220 0
0.430628 0.081659 0.258185 255 220 0
0.479545 0.077819 0.234747 255 220 0
0.433875 0.099854 0.268028 255 220 0
0.457084 0.119538 0.317481 255 220 0
0.450746 0.085716 0.312784 255 220 0
0.445747 0.092417 0.311227 255 220 0
0.485149 0.116069 0.246059 255 220 0
0.531557 0.132078 0.265484 255 220 0
0.541619 0.167167 0.301267 255 220 0
0.514931 0.158595 0.274701 255 220 0
0.471441 0.055377 0.238905 255 220 0
0.532349 0.183904 0.316666 255 220 0
0.509693 0.070681 0.260283 255 220 0
0.522045 0.083628 0.285951 255 220 0
0.493769 0.054755 0.286173 255 220 0
0.483236 0.071229 0.311570 255 220 0
0.460168 0.120142 0.258561 255 220 0
0.519643 0.111841 0.317575 255 220 0
0.463755 0.057981 0.235990 255 220 0
0.459132 0.116833 0.255973 255 220 0
0.511775 0.069110 0.281827 255 220 0
0.523189 0.160001 0.328661 255 220 0
0.455934 0.037415 0.258627 255 220 0
0.500911 0.152985 0.331057 255 220 0
0.531542 0.100626 0.284882 255 220 0
0.447860 0.115722 0.265377 255 220 0
0.490547 0.055216 0.254048 255 220 0
0.513617 0.080227 0.255653 255 220 0
0.502012 0.155239 0.273631 255 220 0
0.459495 0.100004 0.319403 255 220 0
0.478443 0.161027 0.298615 255 220 0
0.518358 0.191219 0.324903 255 220 0
0.507713 0.185368 0.297643 255 220 0
0.429695 0.061064 0.258502 255 220 0
0.485977 0.053699 0.292829 255 220 0
0.492179 0.067692 0.243758 255 220 0
0.487561 0.048513 0.273650 255 220 0
0.512667 0.152839 0.330972 255 220 0
0.485856 0.112583 0.325720 255 220 0
0.445072 0.040279 0.271327 255 220 0
0.473954 0.086246 0.234413 255 220 0
0.524984 0.182099 0.326250 255 220 0
0.508831 0.192692 0.303227 255 220 0
0.495460 0.152692 0.273308 255 220 0
0.504954 0.077850 0.307080 255 220 0
0.521071 0.163558 0.279595 255 220 0
0.468821 0.046514 0.245311 255 220 0
0.470782 0.068137 0.310485 255 220 0
0.442516 0.078569 0.241617 255 220 0
0.443718 0.086723 0.243498 255 220 0
0.518444 0.081057 0.292378 255 220 0
0.438210 0.066276 0.296033 255 220 0
0.455176 0.058216 0.300019 255 220 0
0.530541 0.100750 0.291867 255 220 0
0.475691 0.075905 0.314953 255 220 0
0.485342 0.060067 0.301504 255 220 0
0.520700 0.138980 0.262782 255 220 0
0.515782 0.075307 0.287459 255 220 0
0.430593 0.061536 0.255817 255 220 0
0.511669 0.104789 0.319099 255 220 0
0.538344 0.172940 0.299624 255 220 0
0.444027 0.102037 0.254183 255 220 0
0.449425 0.127809 0.302331 255 220 0
0.491563 0.150858 0.272974 255 220 0
0.532195 0.174952 0.294231 255 220 0
0.426979 0.085697 0.275390 255 220 0
0.486683 0.083999 0.236568 255 220 0
0.507005 0.078369 0.249021 255 220 0
0.520125 0.144725 0.265882 255 220 0
0.437738 0.111892 0.281720 255 220 0
0.469256 0.102890 0.322459 255 220 0
0.541334 0.133165 0.282596 255 220 0
0.541504 0.133460 0.291648 255 220 0
0.434630 0.063404 0.248878 255 220 0
0.472623 0.040932 0.263696 255 220 0
0.476189 0.045866 0.284295 255 220 0
0.428729 0.060034 0.275364 255 220 0
0.487436 0.141574 0.327998 255 220 0
0.441848 0.116261 0.300008 255 220 0
0.523413 0.162236 0.328744 255 220 0
0.540634 0.167678 0.308194 255 220 0
0.520681 0.195226 0.313870 255 220 0
0.446174 0.096320 0.311848 255 220 0
0.504812 0.173489 0.331548 255 220 0
0.541785 0.151989 0.305642 255 220 0
0.533576 0.112075 0.300189 255 220 0
0.488497 0.091139 0.237376 255 220 0
0.461101 0.119138 0.320051 255 220 0
0.481095 0.072629 0.235983 255 220 0
0.429763 0.068074 0.256435 255 220 0
0.460947 0.037398 0.262843 255 220 0
0.539694 0.163466 0.292674 255 220 0
0.494056 0.090518 0.319331 255 220 0
0.492812 0.183473 0.308204 255 220 0
0.437333 0.087706 0.303636 255 220 0
0.523076 0.190303 0.322010 255 220 0
0.471863 0.152245 0.293107 255 220 0
0.486219 0.080343 0.316188 255 220 0
0.458423 0.071740 0.310451 255 220 0
0.507625 0.167815 0.283484 255 220 0
0.512920 0.091213 0.249368 255 220 0
0.451692 0.040383 0.276510 255 220 0
0.430710 0.095164 0.270652 255 220 0
0.495919 0.109088 0.243424 255 220 0
0.444807 0.074476 0.239289 255 220 0
0.426892 0.074406 0.265149 255 220 0
0.509947 0.150645 0.268211 255 220 0
0.428701 0.076125 0.288250 255 220 0
0.480571 0.097409 0.322518 255 220 0
0.529493 0.098860 0.268191 255 220 0
0.435224 0.048278 0.257655 255 220 0
0.434437 0.100939 0.297261 255 220 0
0.435094 0.068669 0.294522 255 220 0
0.529151 0.148943 0.323246 255 220 0
0.449761 0.106630 0.253134 255 220 0
0.448008 0.123840 0.279266 255 220 0
0.490681 0.090593 0.319968 255 220 0
0.483069 0.057818 0.299654 255 220 0
0.495586 0.129584 0.253539 255 220 0
0.510483 0.110439 0.247600 255 220 0
0.532592 0.174286 0.320748 255 220 0
0.447040 0.041671 0.276573 255 220 0
0.459423 0.072803 0.311323 255 220 0
0.482259 0.062764 0.305091 255 220 0
0.425949 0.074217 0.270524 255 220 0
0.504840 0.075482 0.304988 255 220 0
0.488466 0.134251 0.257975 255 220 0
0.511425 0.161790 0.277502 255 220 0
0.476019 0.107972 0.242368 255 220 0
0.485392 0.074471 0.237324 255 220 0
0.438607 0.046837 0.276416 255 220 0
0.489498 0.070359 0.240732 255 220 0
0.535934 0.110401 0.282642 255 220 0
0.491054 0.070515 0.308844 255 220 0
0.457316 0.138407 0.294499 255 220 0
0.460860 0.141045 0.290549 255 220 0
0.507753 0.082530 0.308836 255 220 0
0.516819 0.126525 0.255409 255 220 0
0.453573 0.075942 0.310546 255 220 0
0.509523 0.156935 0.331696 255 220 0
0.439044 0.064228 0.244117 255 220 0
0.443606 0.047881 0.246789 255 220 0
0.499937 0.117382 0.326293 255 220 0
0.512322 0.197321 0.311003 255 220 0
0.538267 0.129880 0.304227 255 220 0
0.470697 0.071928 0.312842 255 220 0
0.435550 0.106175 0.274591 255 220 0
0.444623 0.120877 0.281226 255 220 0
0.463275 0.105703 0.244128 255 220 0
0.495967 0.055452 0.264426 255 220 0
0.506480 0.142981 0.262332 255 220 0
0.474646 0.044763 0.252081 255 220 0
0.438786 0.114304 0.287546 255 220 0
0.500988 0.182668 0.298606 255 220 0
0.510449 0.196136 0.307675 255 220 0
0.491583 0.124266 0.327696 255 220 0
0.473203 0.042673 0.277580 255 220 0
0.484364 0.048373 0.283033 255 220 0
0.460544 0.057797 0.236109 255 220 0
0.522072 0.084819 0.289118 255 220 0
0.426282 0.068928 0.276457 255 220 0
0.489273 0.086939 0.318720 255 220 0
0.538527 0.134609 0.274393 255 220 0
0.515893 0.079811 0.296078 255 220 0
0.455573 0.073772 0.310392 255 220 0
0.536648 0.149548 0.279361 255 220 0
0.498850 0.117995 0.247683 255 220 0
0.499035 0.165173 0.330517 255 220 0
0.534558 0.153340 0.319008 255 220 0
0.461323 0.042271 0.281552 255 220 0
0.477702 0.161810 0.307569 255 220 0
0.536857 0.177686 0.303119 255 220 0
0.511198 0.069982 0.265479 255 220 0
0.516153 0.096986 0.312123 255 220 0
0.496211 0.189749 0.313022 255 220 0
0.428630 0.091853 0.283544 255 220 0
0.538119 0.116730 0.280450 255 220 0
0.487664 0.148292 0.327581 255 220 0
0.495676 0.167359 0.287366 255 220 0
0.495151 0.109049 0.243296 255 220 0
0.482310 0.102642 0.323761 255 220 0
0.430309 0.094769 0.271622 255 220 0
0.466202 0.042334 0.250012 255 220 0
0.526667 0.177972 0.326049 255 220 0
0.445953 0.077961 0.307424 255 220 0
0.491137 0.157072 0.279346 255 220 0
0.482979 0.155888 0.283736 255 220 0
0.482326 0.161353 0.292250 255 220 0
0.539782 0.134361 0.276822 255 220 0
0.493702 0.157608 0.278682 255 220 0
0.462561 0.144404 0.300714 255 220 0
0.488185 0.119709 0.247961 255 220 0
0.459059 0.087548 0.236122 255 220 0
0.426092 0.076694 0.279394 255 220 0
0.539939 0.167304 0.296448 255 220 0
0.490915 0.182181 0.316233 255 220 0
0.465190 0.092495 0.236613 255 220 0
0.521772 0.100709 0.309210 255 220 0
0.487891 0.058136 0.298025 255 220 0
0.472123 0.151124 0.313284 255 220 0
0.475099 0.098337 0.322365 255 220 0
0.478568 0.050016 0.247627 255 220 0
0.508315 0.118909 0.325212 255 220 0
0.513383 0.083943 0.252817 255 220 0
0.490998 0.176594 0.322632 255 220 0
0.461947 0.069176 0.233288 255 220 0
0.467661 0.148724 0.294244 255 220 0
0.516190 0.073871 0.276104 255 220 0
0.447218 0.038622 0.259900 255 220 0
0.529140 0.154907 0.276855 255 220 0
0.500271 0.194086 0.314720 255 220 0
0.474219 0.151273 0.287059 255 220 0
0.511690 0.068648 0.273547 255 220 0
0.443945 0.098216 0.310085 255 220 0
0.513305 0.193681 0.303901 255 220 0
0.500586 0.080838 0.242929 255 220 0
0.469281 0.137105 0.319568 255 220 0
0.530263 0.114084 0.260694 255 220 0
0.488039 0.134670 0.258470 255 220 0
0.472156 0.142354 0.275462 255 220 0
0.536320 0.116486 0.270418 255 220 0
0.520238 0.109394 0.252172 255 220 0
0.470482 0.124653 0.323453 255 220 0
0.464455 0.138817 0.279160 255 220 0
0.489995 0.173259 0.323020 255 220 0
0.457786 0.066157 0.306977 255 220 0
0.500741 0.194001 0.312042 255 220 0
0.468714 0.067836 0.233529 255 220 0
0.470802 0.040692 0.271340 255 220 0
0.497476 0.082902 0.314576 255 220 0
0.443712 0.106860 0.259638 255 220 0
0.469503 0.146969 0.313685 255 220 0
0.542516 0.143302 0.288828 255 220 0
0.454548 0.135348 0.294152 255 220 0
0.482198 0.057690 0.299757 255 220 0
0.474860 0.049572 0.291152 255 220 0
0.491255 0.078447 0.314036 255 220 0
0.500464 0.066138 0.252293 255 220 0
0.474690 0.148029 0.318902 255 220 0
0.457266 0.120356 0.317401 255 220 0
0.453342 0.123888 0.269945 255 220 0
0.466810 0.072157 0.232854 255 220 0
0.475936 0.046877 0.286455 255 220 0
0.524706 0.097469 0.259567 255 220 0
0.430390 0.057551 0.259190 255 220 0
0.463870 0.055015 0.298940 255 220 0
0.497517 0.186836 0.324686 255 220 0
0.507518 0.183925 0.330666 255 220 0
0.480316 0.044420 0.266340 255 220 0
0.491996 0.179365 0.322421 255 220 0
0.486630 0.048207 0.276748 255 220 0
0.437803 0.112119 0.282331 255 220 0
0.477369 0.122556 0.251656 255 220 0
0.489186 0.070876 0.309817 255 220 0
0.470855 0.115141 0.324032 255 220 0
0.483640 0.046933 0.261904 255 220 0
0.479557 0.048519 0.287695 255 220 0
0.477083 0.073878 0.313827 255 220 0
0.492329 0.051850 0.268995 255 220 0
0.540197 0.150780 0.284814 255 220 0
0.502521 0.166653 0.283806 255 220 0
0.535702 0.110470 0.275672 255 220 0
0.466688 0.143253 0.283789 255 220 0
0.504052 0.181027 0.330568 255 220 0
0.437747 0.105616 0.267613 255 220 0
0.437589 0.112318 0.288193 255 220 0
0.527159 0.136005 0.321412 255 220 0
0.524348 0.172663 0.287687 255 220 0
0.499993 0.092145 0.240800 255 220 0
0.535447 0.129591 0.310222 255 220 0
0.499396 0.145778 0.330479 255 220 0
0.458801 0.104443 0.319591 255 220 0
0.481628 0.139226 0.326043 255 220 0
0.465594 0.118117 0.322282 255 220 0
0.527362 0.161117 0.280254 255 220 0
0.528022 0.120582 0.314950 255 220 0
0.482231 0.097018 0.322457 255 220 0
0.522455 0.083488 0.282860 255 220 0
0.463310 0.144173 0.305968 255 220 0
0.474979 0.109044 0.243069 255 220 0
0.429137 0.065183 0.258398 255 220 0
0.426123 0.078388 0.279241 255 220 0
0.482994 0.085892 0.235687 255 220 0
0.538730 0.149448 0.281816 255 220 0
0.516161 0.074162 0.281149 255 220 0
0.537995 0.131042 0.305811 255 220 0
0.540366 0.130352 0.295950 255 220 0
0.465124 0.060219 0.304081 255 220 0
0.503270 0.124373 0.251297 255 220 0
0.436982 0.051190 0.281285 255 220 0
0.451125 0.046796 0.286625 255 220 0
0.533787 0.163467 0.286184 255 220 0
0.484405 0.171186 0.313854 255 220 0
0.454635 0.128027 0.311608 255 220 0
0.536276 0.138481 0.272821 255 220 0
0.534751 0.115598 0.267097 255 220 0
0.430974 0.099013 0.280051 255 220 0
0.452709 0.112916 0.256864 255 220 0
0.499033 0.095971 0.320321 255 220 0
0.474772 0.144301 0.275636 255 220 0
0.441509 0.041323 0.267068 255 220 0
0.538072 0.117548 0.276717 255 220 0
0.507823 0.137582 0.329331 255 220 0
0.517247 0.118810 0.252618 255 220 0
0.478781 0.065581 0.308124 255 220 0
0.489322 0.157584 0.327069 255 220 0
0.541912 0.137623 0.294377 255 220 0
0.486743 0.126427 0.252236 255 220 0
0.425962 0.077846 0.272536 255 220 0
0.430875 0.083450 0.258705 255 220 0
0.482458 0.144471 0.325671 255 220 0
0.514998 0.105000 0.248874 255 220 0
0.435935 0.047133 0.270241 255 220 0
0.529363 0.095607 0.279429 255 220 0
0.510886 0.116785 0.323824 255 220 0
0.523749 0.153312 0.272996 255 220 0
0.529154 0.161008 0.325043 255 220 0
0.542202 0.163644 0.298820 255 220 0
0.508710 0.082326 0.248571 255 220 0
0.542969 0.147206 0.293136 255 220 0
0.523262 0.131520 0.260138 255 220 0
0.491831 0.162126 0.327700 255 220 0
0.476113 0.159205 0.301049 255 220 0
0.465002 0.143454 0.310907 255 220 0
0.541435 0.167963 0.304550 255 220 0
0.464896 0.139554 0.314494 255 220 0
0.459783 0.075624 0.233524 255 220 0
0.493280 0.181195 0.323107 255 220 0
0.490904 0.104727 0.241097 255 220 0
0.534201 0.181727 0.304249 255 220 0
0.457503 0.065127 0.306193 255 220 0
0.533400 0.138910 0.270137 255 220 0
0.432864 0.056089 0.253781 255 220 0
0.536911 0.116436 0.293892 255 220 0
0.494438 0.099235 0.239981 255 220 0
0.482879 0.059762 0.301915 255 220 0
0.510588 0.067714 0.281066 255 220 0
0.436245 0.103123 0.299566 255 220 0
0.541024 0.154563 0.308395 255 220 0
0.440020 0.047778 0.250108 255 220 0
0.521678 0.153550 0.328562 255 220 0
0.478538 0.163067 0.306062 255 220 0
0.514864 0.072196 0.277068 255 220 0
0.447013 0.117741 0.269649 255 220 0
0.461349 0.083826 0.316272 255 220 0
0.471711 0.093843 0.320980 255 220 0
0.435034 0.058684 0.287623 255 220 0
0.523888 0.143005 0.266404 255 220 0
0.425889 0.070983 0.273730 255 220 0
0.515500 0.192232 0.325453 255 220 0
0.476701 0.056519 0.240584 255 220 0
0.483542 0.072793 0.312505 255 220 0
0.490148 0.062701 0.302133 255 220 0
0.463484 0.050108 0.293273 255 220 0
0.439181 0.101969 0.304550 255 220 0
0.432875 0.050515 0.263310 255 220 0
0.525625 0.126283 0.319320 255 220 0
0.521384 0.182058 0.328429 255 220 0
0.498850 0.095886 0.240571 255 220 0
0.491126 0.074666 0.239909 255 220 0
0.511190 0.119353 0.324495 255 220 0
0.434153 0.073589 0.249559 255 220 0
0.432178 0.064354 0.252200 255 220 0
0.522536 0.174567 0.329087 255 220 0
0.533191 0.129377 0.265943 255 220 0
0.434980 0.091956 0.257263 255 220 0
0.493285 0.175033 0.297100 255 220 0
0.447361 0.104351 0.312566 255 220 0
0.494816 0.109452 0.324968 255 220 0
0.492720 0.062593 0.300306 255 220 0
0.481720 0.063446 0.305833 255 220 0
0.534837 0.107648 0.279065 255 220 0
0.538792 0.153580 0.284397 255 220 0
0.506425 0.092194 0.244094 255 220 0
0.483694 0.086632 0.235895 255 220 0
0.433443 0.093787 0.261691 255 220 0
0.453158 0.045773 0.285991 255 220 0
0.510395 0.125846 0.253321 255 220 0
0.430901 0.080566 0.257058 255 220 0
0.526428 0.174699 0.290170 255 220 0
0.489717 0.050038 0.268469 255 220 0
0.512830 0.143118 0.262984 255 220 0
0.509121 0.187794 0.298986 255 220 0
0.520277 0.186685 0.297540 255 220 0
0.444947 0.119324 0.303713 255 220 0
0.520241 0.079863 0.273559 255 220 0
0.480873 0.050595 0.249098 255 220 0
0.498027 0.080133 0.312660 255 220 0
0.525075 0.179380 0.326914 255 220 0
0.475223 0.043922 0.279969 255 220 0
0.453338 0.086470 0.314227 255 220 0
0.494602 0.115950 0.246254 255 220 0
0.524529 0.176488 0.327777 255 220 0
0.516364 0.075560 0.286058 255 220 0
0.440831 0.045749 0.277682 255 220 0
0.479020 0.048211 0.250631 255 220 0
0.484743 0.115984 0.246029 255 220 0
0.539913 0.137101 0.277878 255 220 0
0.441714 0.043079 0.255191 255 220 0
0.437878 0.099737 0.259961 255 220 0
0.500257 0.188007 0.326367 255 220 0
0.456878 0.039209 0.274834 255 220 0
0.498972 0.103803 0.242145 255 220 0
0.530293 0.181329 0.298668 255 220 0
0.537126 0.167275 0.292421 255 220 0
0.464427 0.046273 0.288067 255 220 0
0.518889 0.166240 0.281266 255 220 0
0.452499 0.052604 0.239800 255 220 0
0.513427 0.071288 0.283439 255 220 0
0.527547 0.141989 0.322803 255 220 0
0.505206 0.113687 0.247078 255 220 0
0.470670 0.094592 0.236773 255 220 0
0.522879 0.095725 0.303349 255 220 0
0.480253 0.105069 0.324129 255 220 0
0.542262 0.138972 0.288123 255 220 0
0.498835 0.056991 0.268277 255 220 0
0.522276 0.189018 0.300775 255 220 0
0.471410 0.098189 0.321920 255 220 0
0.433841 0.083630 0.298852 255 220 0
0.508862 0.112166 0.323075 255 220 0
0.533458 0.151246 0.319865 255 220 0
0.504193 0.063133 0.286930 255 220 0
0.460956 0.088334 0.235937 255 220 0
0.474966 0.135773 0.265401 255 220 0
0.518247 0.186408 0.296925 255 220 0
0.529784 0.150286 0.323028 255 220 0
0.475602 0.062461 0.236941 255 220 0
0.521523 0.145639 0.266977 255 220 0
0.531091 0.111756 0.305434 255 220 0
0.493399 0.167380 0.327728 255 220 0
0.481455 0.162574 0.317484 255 220 0
0.445287 0.122910 0.298799 255 220 0
0.534364 0.136191 0.269702 255 220 0
0.451314 0.088356 0.313766 255 220 0
0.465210 0.144566 0.309758 255 220 0
0.541139 0.166036 0.307366 255 220 0
0.522466 0.185243 0.296979 255 220 0
0.471452 0.040423 0.265195 255 220 0
0.516875 0.179400 0.291568 255 220 0
0.483530 0.070979 0.311349 255 220 0
0.438103 0.045539 0.272355 255 220 0
0.452214 0.102918 0.316123 255 220 0
0.481252 0.164802 0.314690 255 220 0
0.497942 0.172425 0.329443 255 220 0
0.497946 0.192038 0.315842 255 220 0
0.460729 0.037401 0.264999 255 220 0
0.538049 0.117521 0.288707 255 220 0
0.486208 0.104767 0.240709 255 220 0
0.452362 0.040329 0.251515 255 220 0
0.477166 0.128363 0.256985 255 220 0
0.492550 0.052448 0.265865 255 220 0
0.528232 0.123493 0.316078 255 220 0
0.524693 0.110619 0.312893 255 220 0
0.525128 0.173369 0.288532 255 220 0
0.520418 0.095574 0.255358 255 220 0
0.443091 0.060811 0.241486 255 220 0
0.532813 0.145581 0.319245 255 220 0
0.472797 0.120470 0.324517 255 220 0
0.482656 0.081380 0.317138 255 220 0
0.465340 0.125713 0.260842 255 220 0
0.464547 0.100657 0.321068 255 220 0
0.438701 0.082882 0.303896 255 220 0
0.463077 0.144964 0.300941 255 220 0
0.482147 0.082394 0.317624 255 220 0
0.454734 0.066430 0.305938 255 220 0
0.482931 0.100076 0.238753 255 220 0
0.462645 0.143443 0.292739 255 220 0
0.454240 0.061664 0.302397 255 220 0
0.479594 0.045478 0.280191 255 220 0
0.523206 0.112569 0.315264 255 220 0
0.479527 0.055204 0.297437 255 220 0
0.464560 0.069617 0.310922 255 220 0
0.476756 0.076929 0.234049 255 220 0
0.439487 0.097345 0.255252 255 220 0
0.453008 0.076307 0.235403 255 220 0
0.514312 0.088101 0.307457 255 220 0
0.511336 0.193351 0.303530 255 220 0
0.433762 0.074378 0.250244 255 220 0
0.543206 0.154291 0.297549 255 220 0
0.483278 0.157796 0.322557 255 220 0
0.496841 0.103327 0.241542 255 220 0
0.521737 0.081971 0.275280 255 220 0
0.501190 0.060974 0.287819 255 220 0
0.490904 0.055058 0.290921 255 220 0
0.501602 0.069390 0.250307 255 220 0
0.448057 0.122363 0.276039 255 220 0
0.530795 0.169339 0.288506 255 220 0
0.458179 0.138211 0.289849 255 220 0
0.481781 0.047213 0.256479 255 220 0
0.467568 0.112003 0.247080 255 220 0
0.521917 0.082181 0.276160 255 220 0
0.480596 0.046058 0.280844 255 220 0
0.513084 0.072642 0.264632 255 220 0
0.522967 0.120579 0.255818 255 220 0
0.457093 0.099373 0.242482 255 220 0
0.501586 0.134337 0.329272 255 220 0
0.499800 0.066236 0.298804 255 220 0
0.493994 0.110386 0.325230 255 220 0
0.433958 0.050926 0.256349 255 220 0
0.433342 0.101893 0.273365 255 220 0
0.458995 0.138377 0.307139 255 220 0
0.483732 0.069768 0.310489 255 220 0
0.456366 0.070595 0.309098 255 220 0
0.532132 0.106629 0.296963 255 220 0
0.475017 0.067682 0.234992 255 220 0
0.495438 0.079226 0.313118 255 220 0
0.496336 0.084247 0.315738 255 220 0
0.481662 0.068190 0.237479 255 220 0
0.514817 0.131280 0.326500 255 220 0
0.493470 0.069375 0.243652 255 220 0
0.542676 0.157685 0.295161 255 220 0
0.427522 0.079634 0.265101 255 220 0
0.531994 0.101118 0.280033 255 220 0
0.518617 0.077161 0.278455 255 220 0
0.446535 0.048722 0.286743 255 220 0
0.511527 0.194257 0.304623 255 220 0
0.494343 0.138919 0.329445 255 220 0
0.470770 0.080164 0.316676 255 220 0
0.427803 0.068853 0.283156 255 220 0
0.500919 0.058267 0.276663 255 220 0
0.534900 0.113499 0.297850 255 220 0
0.436355 0.045946 0.260778 255 220 0
0.474795 0.157970 0.306086 255 220 0
0.496529 0.107343 0.242843 255 220 0
0.429910 0.090177 0.291498 255 220 0
0.435468 0.050446 0.277372 255 220 0
0.508978 0.191341 0.301893 255 220 0
0.536325 0.118399 0.269526 255 220 0
0.443156 0.062418 0.297150 255 220 0
0.439431 0.097658 0.255612 255 220 0
0.445331 0.081736 0.240320 255 220 0
0.493038 0.157998 0.279351 255 220 0
0.529597 0.136954 0.266234 255 220 0
0.498930 0.137043 0.258337 255 220 0
0.492269 0.117303 0.246741 255 220 0
0.508782 0.194413 0.305228 255 220 0
0.496336 0.144424 0.265002 255 220 0
0.502736 0.189058 0.302646 255 220 0
0.526084 0.140051 0.265791 255 220 0
0.490394 0.105521 0.241335 255 220 0
0.521255 0.171398 0.285811 255 220 0
0.503318 0.138050 0.258899 255 220 0
0.497017 0.188833 0.308679 255 220 0
