ply
format ascii 1.0
element vertex 1024
property float x
property float y
property float z
property uchar red
property uchar green
property uchar blue
end_header
0.316008 0.110882 0.097088 255 220 0
0.262520 0.093842 0.058273 255 220 0
0.350803 0.096499 0.041860 255 220 0
0.322182 0.055232 0.061469 255 220 0
0.329533 0.119002 0.024183 255 220 0
0.276339 0.101245 0.017733 255 220 0
0.323714 0.102096 0.092309 255 220 0
0.305699 0.182447 0.102337 255 220 0
0.351892 0.129972 0.072976 255 220 0
0.310290 0.099577 0.008387 255 220 0
0.320654 0.055864 0.063365 255 220 0
0.323972 0.056581 0.009047 255 220 0
0.295639 0.111236 0.014700 255 220 0
0.328058 0.096294 0.088240 255 220 0
0.349075 0.089230 0.058556 255 220 0
0.263602 0.119199 0.066731 255 220 0
0.281573 0.050824 0.018763 255 220 0
0.320431 0.144058 0.102471 255 220 0
0.268716 0.122606 0.075911 255 220 0
0.324198 0.078989 0.081331 255 220 0
0.328850 0.072528 0.073883 255 220 0
0.330004 0.099437 0.088348 255 220 0
0.262278 0.081382 0.046727 255 220 0
0.298359 0.045841 0.009839 255 220 0
0.277934 0.105252 0.018437 255 220 0
0.280533 0.100072 0.014675 255 220 0
0.301600 0.185028 0.060400 255 220 0
0.343242 0.097355 0.026440 255 220 0
0.306283 0.059907 0.003044 255 220 0
0.280428 0.195503 0.068669 255 220 0
0.351183 0.105458 0.043378 255 220 0
0.316686 0.195550 0.090541 255 220 0
0.343657 0.145673 0.054430 255 220 0
0.281742 0.199446 0.070345 255 220 0
0.299973 0.123380 0.099113 255 220 0
0.332712 0.050431 0.031406 255 220 0
0.303210 0.149533 0.037634 255 220 0
0.305358 0.077682 0.084110 255 220 0
0.317430 0.193987 0.092382 255 220 0
0.344349 0.148185 0.057940 255 220 0
0.275326 0.146246 0.045679 255 220 0
0.327825 0.184179 0.085240 255 220 0
0.344482 0.098908 0.028409 255 220 0
0.339018 0.094325 0.020675 255 220 0
0.283237 0.181710 0.096282 255 220 0
0.306158 0.140387 0.031546 255 220 0
0.322380 0.075991 0.080122 255 220 0
0.348721 0.096365 0.035402 255 220 0
0.301416 0.100173 0.093462 255 220 0
0.295944 0.042243 0.014521 255 220 0
0.341080 0.125240 0.036944 255 220 0
0.321862 0.174588 0.099686 255 220 0
0.314702 0.090015 0.090112 255 220 0
0.295827 0.117569 0.096561 255 220 0
0.315830 0.080836 0.085158 255 220 0
0.264965 0.111995 0.069148 255 220 0
0.345479 0.077243 0.035621 255 220 0
0.300520 0.043084 0.049509 255 220 0
0.276980 0.119424 0.026528 255 220 0
0.272009 0.085564 0.016929 255 220 0
0.339380 0.143936 0.047658 255 220 0
0.293495 0.047992 0.053696 255 220 0
0.297832 0.183334 0.102102 255 220 0
0.337888 0.074700 0.066616 255 220 0
0.336141 0.061949 0.019913 255 220 0
0.313035 0.199186 0.086811 255 220 0
0.291317 0.071249 0.076243 255 220 0
0.308293 0.156177 0.042561 255 220 0
0.348216 0.096241 0.067389 255 220 0
0.340953 0.142255 0.048130 255 220 0
0.349138 0.084807 0.045466 255 220 0
0.298387 0.168136 0.049945 255 220 0
0.336611 0.154598 0.053550 255 220 0
0.327512 0.179627 0.071699 255 220 0
0.326909 0.087128 0.084725 255 220 0
0.311481 0.186654 0.064526 255 220 0
0.300306 0.054585 0.064242 255 220 0
0.334181 0.092546 0.082786 255 220 0
0.344872 0.126274 0.041768 255 220 0
0.280796 0.135664 0.090806 255 220 0
0.283319 0.169886 0.096610 255 220 0
0.271524 0.103365 0.075815 255 220 0
0.328206 0.094078 0.011691 255 220 0
0.337911 0.115714 0.088091 255 220 0
0.267418 0.143294 0.056507 255 220 0
0.321889 0.128034 0.025831 255 220 0
0.283038 0.048729 0.019617 255 220 0
0.333420 0.175515 0.087069 255 220 0
0.321989 0.121380 0.098588 255 220 0
0.310269 0.146569 0.103944 255 220 0
0.352473 0.109945 0.050161 255 220 0
0.272301 0.151408 0.053607 255 220 0
0.314806 0.049392 0.058135 255 220 0
0.310868 0.151552 0.039681 255 220 0
0.300971 0.047872 0.056525 255 220 0
0.280176 0.085042 0.010537 255 220 0
0.331466 0.092899 0.013483 255 220 0
0.334496 0.055764 0.044778 255 220 0
0.302151 0.156832 0.042582 255 220 0
0.344622 0.080833 0.061318 255 220 0
0.329893 0.077800 0.077198 255 220 0
0.289774 0.040542 0.033589 255 220 0
0.328136 0.080669 0.008229 255 220 0
0.322432 0.050870 0.055132 255 220 0
0.334727 0.083129 0.013714 255 220 0
0.290183 0.146548 0.037925 255 220 0
0.327629 0.062908 0.009103 255 220 0
0.350477 0.098871 0.062900 255 220 0
0.316373 0.100877 0.009673 255 220 0
0.344643 0.092198 0.071357 255 220 0
0.262585 0.077761 0.039941 255 220 0
0.340713 0.080973 0.021374 255 220 0
0.301520 0.100583 0.093619 255 220 0
0.287805 0.077450 0.078469 255 220 0
0.311647 0.104623 0.010980 255 220 0
0.303153 0.095817 0.092249 255 220 0
0.320038 0.064671 0.004483 255 220 0
0.272138 0.124545 0.080470 255 220 0
0.325733 0.115806 0.020331 255 220 0
0.264207 0.108428 0.067161 255 220 0
0.262050 0.124497 0.050957 255 220 0
0.298874 0.046589 0.054184 255 220 0
0.308871 0.162403 0.046920 255 220 0
0.338264 0.120529 0.089011 255 220 0
0.297194 0.131384 0.026351 255 220 0
0.306927 0.096684 0.006885 255 220 0
0.352421 0.112933 0.049777 255 220 0
0.300130 0.165644 0.048308 255 220 0
0.309704 0.198619 0.093741 255 220 0
0.316905 0.102898 0.094595 255 220 0
0.322786 0.059231 0.065764 255 220 0
0.296993 0.106256 0.094122 255 220 0
0.307726 0.174216 0.103721 255 220 0
0.292190 0.038890 0.030657 255 220 0
0.353372 0.117124 0.054983 255 220 0
0.277249 0.056481 0.048294 255 220 0
0.276181 0.194657 0.085582 255 220 0
0.302280 0.123249 0.099614 255 220 0
0.316489 0.117361 0.098740 255 220 0
0.271538 0.060518 0.024742 255 220 0
0.345067 0.076343 0.053142 255 220 0
0.281388 0.086158 0.010025 255 220 0
0.298599 0.141205 0.101699 255 220 0
0.349742 0.124000 0.047333 255 220 0
0.273058 0.128237 0.034792 255 220 0
0.276380 0.068597 0.062785 255 220 0
0.280784 0.047221 0.028841 255 220 0
0.325266 0.047798 0.016853 255 220 0
0.336113 0.068188 0.016370 255 220 0
0.284086 0.163898 0.051283 255 220 0
0.347630 0.147387 0.064225 255 220 0
0.279244 0.185741 0.092407 255 220 0
0.269845 0.064518 0.024591 255 220 0
0.301832 0.059632 0.069856 255 220 0
0.325013 0.138000 0.033405 255 220 0
0.300743 0.040482 0.045079 255 220 0
0.328658 0.074757 0.075807 255 220 0
0.283106 0.110783 0.087896 255 220 0
0.269587 0.062231 0.039199 255 220 0
0.271767 0.165018 0.079239 255 220 0
0.298217 0.184065 0.059365 255 220 0
0.275281 0.169270 0.061467 255 220 0
0.343896 0.096672 0.075025 255 220 0
0.344493 0.073087 0.047161 255 220 0
0.308311 0.057131 0.068332 255 220 0
0.295026 0.181086 0.057596 255 220 0
0.297273 0.046529 0.009698 255 220 0
0.338507 0.162866 0.087673 255 220 0
0.326285 0.160248 0.099616 255 220 0
0.309487 0.103018 0.010016 255 220 0
0.314818 0.170010 0.103149 255 220 0
0.324711 0.102617 0.092081 255 220 0
0.343371 0.105827 0.029085 255 220 0
0.296503 0.117467 0.018001 255 220 0
0.291590 0.207439 0.079257 255 220 0
0.304877 0.113635 0.015298 255 220 0
0.318578 0.147547 0.038181 255 220 0
0.325929 0.043508 0.030377 255 220 0
0.296335 0.151395 0.039533 255 220 0
0.277551 0.152335 0.048232 255 220 0
0.287340 0.202078 0.091146 255 220 0
0.342612 0.068979 0.045791 255 220 0
0.277564 0.157994 0.052206 255 220 0
0.317673 0.092469 0.090610 255 220 0
0.293797 0.089874 0.005968 255 220 0
0.315267 0.094133 0.006543 255 220 0
0.339366 0.068988 0.057025 255 220 0
0.275591 0.087230 0.074242 255 220 0
0.292919 0.149827 0.039282 255 220 0
0.325150 0.043183 0.034233 255 220 0
0.343769 0.084069 0.026620 255 220 0
0.310244 0.040000 0.044241 255 220 0
0.298771 0.092204 0.005657 255 220 0
0.328338 0.057755 0.058728 255 220 0
0.336612 0.119186 0.090072 255 220 0
0.291749 0.157177 0.100862 255 220 0
0.335548 0.068606 0.015377 255 220 0
0.266700 0.132674 0.045695 255 220 0
0.305482 0.170852 0.051959 255 220 0
0.352538 0.116246 0.067930 255 220 0
0.321333 0.106951 0.094714 255 220 0
0.341540 0.079433 0.065843 255 220 0
0.260205 0.101936 0.053532 255 220 0
0.329809 0.098890 0.088257 255 220 0
0.287849 0.096920 0.087101 255 220 0
0.317293 0.126013 0.023524 255 220 0
0.314727 0.143765 0.034757 255 220 0
0.340655 0.067279 0.027852 255 220 0
0.335891 0.056488 0.026329 255 220 0
0.277953 0.052956 0.043525 255 220 0
0.270311 0.158443 0.074529 255 220 0
0.344306 0.125452 0.040578 255 220 0
0.333004 0.052670 0.023914 255 220 0
0.302058 0.072484 0.080670 255 220 0
0.312596 0.044021 0.011382 255 220 0
0.342119 0.099531 0.025581 255 220 0
0.262001 0.080404 0.036415 255 220 0
0.301980 0.051887 0.061638 255 220 0
0.336661 0.065153 0.056761 255 220 0
0.277798 0.111293 0.083782 255 220 0
0.269191 0.150771 0.060894 255 220 0
0.293639 0.182144 0.101455 255 220 0
0.300134 0.131291 0.100602 255 220 0
0.285006 0.136443 0.033157 255 220 0
0.348038 0.133704 0.080588 255 220 0
0.302038 0.066646 0.001994 255 220 0
0.341453 0.093066 0.023274 255 220 0
0.283959 0.205403 0.078577 255 220 0
0.311527 0.176076 0.102886 255 220 0
0.304638 0.135704 0.102243 255 220 0
0.302858 0.149466 0.103575 255 220 0
0.271447 0.168573 0.073443 255 220 0
0.260880 0.098250 0.055267 255 220 0
0.296227 0.207184 0.080925 255 220 0
0.285244 0.115485 0.020069 255 220 0
0.316261 0.039064 0.020914 255 220 0
0.282228 0.108976 0.086839 255 220 0
0.318763 0.163567 0.050029 255 220 0
0.267084 0.085806 0.022685 255 220 0
0.306736 0.138928 0.102946 255 220 0
0.344780 0.109836 0.032384 255 220 0
0.294174 0.165845 0.049110 255 220 0
0.325672 0.165371 0.054235 255 220 0
0.264404 0.126320 0.044624 255 220 0
0.273873 0.119249 0.028584 255 220 0
0.296536 0.105831 0.011795 255 220 0
0.328893 0.164488 0.097312 255 220 0
0.337817 0.058373 0.033858 255 220 0
0.286324 0.092222 0.009165 255 220 0
0.351740 0.098608 0.047217 255 220 0
0.315817 0.161843 0.047998 255 220 0
0.341712 0.087525 0.072487 255 220 0
0.325350 0.044135 0.023783 255 220 0
0.347663 0.141969 0.080596 255 220 0
0.310686 0.200845 0.083357 255 220 0
0.285240 0.090014 0.082989 255 220 0
0.272348 0.172027 0.080034 255 220 0
0.330711 0.143593 0.040132 255 220 0
0.350064 0.093147 0.059120 255 220 0
0.283658 0.183145 0.096463 255 220 0
0.308129 0.062470 0.073510 255 220 0
0.344005 0.142129 0.051838 255 220 0
0.349992 0.119778 0.075112 255 220 0
0.336030 0.115248 0.026659 255 220 0
0.294143 0.182045 0.058131 255 220 0
0.294307 0.108201 0.093665 255 220 0
0.316013 0.103176 0.094854 255 220 0
0.289996 0.206312 0.074729 255 220 0
0.304825 0.087741 0.003569 255 220 0
0.338571 0.089145 0.018989 255 220 0
0.342383 0.114896 0.032231 255 220 0
0.271307 0.115991 0.028815 255 220 0
0.290946 0.105080 0.091303 255 220 0
0.339428 0.109776 0.026779 255 220 0
0.291411 0.140931 0.098824 255 220 0
0.276631 0.095439 0.078389 255 220 0
0.347364 0.140367 0.081359 255 220 0
0.271291 0.081569 0.066431 255 220 0
0.273749 0.169722 0.084525 255 220 0
0.307380 0.126764 0.023037 255 220 0
0.276975 0.058234 0.050574 255 220 0
0.348056 0.137935 0.054516 255 220 0
0.297243 0.120778 0.019824 255 220 0
0.303798 0.049695 0.059415 255 220 0
0.306000 0.037927 0.040749 255 220 0
0.324424 0.145848 0.101114 255 220 0
0.267313 0.068244 0.028252 255 220 0
0.324066 0.137417 0.100717 255 220 0
0.260277 0.095436 0.050515 255 220 0
0.347461 0.083399 0.036868 255 220 0
0.344251 0.077040 0.031026 255 220 0
0.292410 0.083189 0.004822 255 220 0
0.278531 0.059467 0.054759 255 220 0
0.349004 0.091113 0.060932 255 220 0
0.295315 0.072237 0.078668 255 220 0
0.325010 0.088615 0.008201 255 220 0
0.264691 0.080806 0.027081 255 220 0
0.282490 0.048756 0.043435 255 220 0
0.340581 0.066480 0.028626 255 220 0
0.336667 0.153560 0.092186 255 220 0
0.261021 0.084045 0.041754 255 220 0
0.265147 0.124021 0.041323 255 220 0
0.308922 0.185897 0.062960 255 220 0
0.263254 0.103995 0.033002 255 220 0
0.260243 0.110274 0.045704 255 220 0
0.345174 0.075108 0.037924 255 220 0
0.307959 0.035929 0.023855 255 220 0
0.300478 0.186834 0.101455 255 220 0
0.330136 0.129415 0.096683 255 220 0
0.332582 0.140858 0.039505 255 220 0
0.287204 0.150495 0.097658 255 220 0
0.331102 0.123300 0.094934 255 220 0
0.297762 0.139444 0.031410 255 220 0
0.267915 0.139565 0.072823 255 220 0
0.301724 0.058702 0.003586 255 220 0
0.346348 0.077515 0.040638 255 220 0
0.320122 0.103981 0.012047 255 220 0
0.264965 0.092401 0.062865 255 220 0
0.341137 0.121497 0.034731 255 220 0
0.280995 0.147735 0.042650 255 220 0
0.300904 0.070933 0.001846 255 220 0
0.279591 0.073725 0.070559 255 220 0
0.331200 0.101346 0.088338 255 220 0
0.277335 0.104157 0.018314 255 220 0
0.282451 0.107898 0.086738 255 220 0
0.332553 0.115980 0.092156 255 220 0
0.349690 0.123801 0.076639 255 220 0
0.340356 0.071603 0.023288 255 220 0
0.341548 0.079561 0.023071 255 220 0
0.349530 0.095177 0.063034 255 220 0
0.309957 0.035909 0.033553 255 220 0
0.271496 0.076736 0.063271 255 220 0
0.304778 0.035700 0.034301 255 220 0
0.302882 0.135727 0.028541 255 220 0
0.274847 0.163220 0.058682 255 220 0
0.299713 0.196752 0.097557 255 220 0
0.287105 0.105549 0.089304 255 220 0
0.300719 0.142077 0.032776 255 220 0
0.268163 0.111121 0.029362 255 220 0
0.269454 0.103689 0.073612 255 220 0
0.273091 0.183337 0.080687 255 220 0
0.279863 0.169424 0.056679 255 220 0
0.352679 0.112276 0.051157 255 220 0
0.336302 0.067338 0.017012 255 220 0
0.348272 0.095964 0.034416 255 220 0
0.324420 0.169378 0.056968 255 220 0
0.312328 0.163537 0.104177 255 220 0
0.280007 0.051272 0.044128 255 220 0
0.280365 0.077144 0.073416 255 220 0
0.343571 0.148493 0.056981 255 220 0
0.306876 0.180862 0.102588 255 220 0
0.293605 0.089034 0.086846 255 220 0
0.320415 0.135778 0.030374 255 220 0
0.305384 0.175413 0.103698 255 220 0
0.343419 0.111457 0.031558 255 220 0
0.299128 0.143565 0.033907 255 220 0
0.276250 0.137115 0.038355 255 220 0
0.265161 0.121610 0.039543 255 220 0
0.333022 0.159836 0.094637 255 220 0
0.319681 0.166199 0.102180 255 220 0
0.263108 0.118585 0.065520 255 220 0
0.288521 0.206383 0.075532 255 220 0
0.288027 0.082514 0.081306 255 220 0
0.306538 0.135837 0.028625 255 220 0
0.284092 0.118427 0.022264 255 220 0
0.284370 0.177377 0.097389 255 220 0
0.292743 0.042555 0.044212 255 220 0
0.304692 0.047503 0.056779 255 220 0
0.284162 0.055409 0.012048 255 220 0
0.280618 0.147516 0.042720 255 220 0
0.269941 0.145577 0.052237 255 220 0
0.328251 0.048657 0.020100 255 220 0
0.350943 0.091920 0.049899 255 220 0
0.277834 0.189975 0.090124 255 220 0
0.272044 0.063288 0.048793 255 220 0
0.312800 0.039156 0.041264 255 220 0
0.298237 0.101374 0.093047 255 220 0
0.270342 0.101564 0.073992 255 220 0
0.315674 0.166807 0.103333 255 220 0
0.292701 0.196781 0.097050 255 220 0
0.296503 0.036963 0.027125 255 220 0
0.322876 0.181178 0.067407 255 220 0
0.268424 0.064028 0.038141 255 220 0
0.324367 0.071018 0.075586 255 220 0
0.272619 0.180749 0.077840 255 220 0
0.274179 0.119568 0.028543 255 220 0
0.312301 0.165819 0.049975 255 220 0
0.326586 0.167916 0.098375 255 220 0
0.328589 0.088756 0.084621 255 220 0
0.305104 0.043747 0.010431 255 220 0
0.286260 0.095908 0.085812 255 220 0
0.307026 0.194339 0.067833 255 220 0
0.346563 0.077893 0.048396 255 220 0
0.281289 0.077052 0.074088 255 220 0
0.291296 0.129775 0.096940 255 220 0
0.302326 0.181475 0.058350 255 220 0
0.280207 0.132931 0.033103 255 220 0
0.313126 0.105034 0.095792 255 220 0
0.292275 0.184628 0.100636 255 220 0
0.266700 0.135403 0.048360 255 220 0
0.272667 0.178433 0.073217 255 220 0
0.271953 0.139060 0.081355 255 220 0
0.272004 0.133274 0.081092 255 220 0
0.267077 0.140671 0.053740 255 220 0
0.331060 0.062436 0.061572 255 220 0
0.305898 0.107840 0.012253 255 220 0
0.349916 0.112967 0.042053 255 220 0
0.282303 0.142560 0.093068 255 220 0
0.326889 0.127404 0.027545 255 220 0
0.267665 0.071701 0.050820 255 220 0
0.324129 0.064492 0.006433 255 220 0
0.300466 0.124862 0.021920 255 220 0
0.351708 0.101384 0.059092 255 220 0
0.349083 0.132559 0.051935 255 220 0
0.263595 0.086630 0.028325 255 220 0
0.350292 0.106102 0.040622 255 220 0
0.323666 0.189054 0.084246 255 220 0
0.273052 0.176076 0.082138 255 220 0
0.338647 0.083744 0.018296 255 220 0
0.327021 0.096751 0.088945 255 220 0
0.315262 0.093032 0.091329 255 220 0
0.292809 0.050777 0.057019 255 220 0
0.346166 0.122451 0.041030 255 220 0
0.267976 0.136767 0.047187 255 220 0
0.276645 0.101028 0.080140 255 220 0
0.297164 0.202630 0.070264 255 220 0
0.324584 0.175945 0.063329 255 220 0
0.328868 0.046223 0.029400 255 220 0
0.291840 0.118316 0.019485 255 220 0
0.291724 0.043578 0.045254 255 220 0
0.285582 0.170407 0.054015 255 220 0
0.293586 0.149718 0.039030 255 220 0
0.311792 0.185226 0.100264 255 220 0
0.351201 0.105933 0.065873 255 220 0
0.304514 0.081531 0.002174 255 220 0
0.273340 0.154252 0.054435 255 220 0
0.301077 0.170277 0.103947 255 220 0
0.342247 0.083662 0.068698 255 220 0
0.333766 0.051863 0.033295 255 220 0
0.312183 0.077003 0.083450 255 220 0
0.342966 0.075540 0.028092 255 220 0
0.308224 0.132128 0.102066 255 220 0
0.305840 0.035165 0.030400 255 220 0
0.272356 0.163098 0.081481 255 220 0
0.341195 0.132117 0.041398 255 220 0
0.312884 0.096653 0.093050 255 220 0
0.284012 0.114201 0.019877 255 220 0
0.259983 0.103198 0.043242 255 220 0
0.351663 0.135120 0.060576 255 220 0
0.300949 0.058059 0.003848 255 220 0
0.337808 0.127113 0.034974 255 220 0
0.263285 0.095173 0.029972 255 220 0
0.284995 0.047428 0.018779 255 220 0
0.319487 0.126803 0.100440 255 220 0
0.340820 0.126945 0.037733 255 220 0
0.294741 0.109511 0.013967 255 220 0
0.305158 0.041873 0.048304 255 220 0
0.347782 0.138963 0.080861 255 220 0
0.353673 0.116157 0.060765 255 220 0
0.290763 0.189453 0.061948 255 220 0
0.273734 0.185645 0.082888 255 220 0
0.326069 0.066401 0.070627 255 220 0
0.302522 0.142390 0.032869 255 220 0
0.317928 0.142995 0.034779 255 220 0
0.350725 0.098013 0.061128 255 220 0
0.272431 0.107403 0.077812 255 220 0
0.345015 0.076093 0.035099 255 220 0
0.329673 0.085502 0.010165 255 220 0
0.274070 0.078965 0.014521 255 220 0
0.348261 0.112923 0.075661 255 220 0
0.306987 0.191655 0.098864 255 220 0
0.272385 0.169289 0.067867 255 220 0
0.283342 0.072747 0.072826 255 220 0
0.327790 0.112650 0.093894 255 220 0
0.283327 0.045269 0.027459 255 220 0
0.338797 0.081836 0.071936 255 220 0
0.260897 0.109035 0.058529 255 220 0
0.293548 0.063684 0.071005 255 220 0
0.295282 0.133846 0.028262 255 220 0
0.271934 0.168244 0.079073 255 220 0
0.322037 0.181807 0.097337 255 220 0
0.287687 0.072829 0.005712 255 220 0
0.339622 0.081038 0.019577 255 220 0
0.280380 0.091479 0.011818 255 220 0
0.261449 0.117598 0.060100 255 220 0
0.265884 0.083176 0.058813 255 220 0
0.262051 0.088342 0.053250 255 220 0
0.329522 0.119709 0.024571 255 220 0
0.347965 0.147481 0.065509 255 220 0
0.325633 0.184815 0.092349 255 220 0
0.325019 0.169091 0.057081 255 220 0
0.334932 0.057376 0.021752 255 220 0
0.305759 0.198993 0.095027 255 220 0
0.346236 0.082433 0.059153 255 220 0
0.336150 0.098707 0.083901 255 220 0
0.320391 0.063591 0.071583 255 220 0
0.293076 0.077430 0.081052 255 220 0
0.302276 0.117571 0.017502 255 220 0
0.308628 0.126116 0.101021 255 220 0
0.330746 0.057864 0.014229 255 220 0
0.303801 0.114047 0.015509 255 220 0
0.333901 0.081956 0.077001 255 220 0
0.295409 0.173836 0.102715 255 220 0
0.313801 0.036526 0.030170 255 220 0
0.278744 0.161429 0.091778 255 220 0
0.340801 0.117535 0.085939 255 220 0
0.289560 0.110321 0.015701 255 220 0
0.339032 0.062452 0.045242 255 220 0
0.350459 0.092551 0.056370 255 220 0
0.316844 0.162527 0.048752 255 220 0
0.265420 0.099376 0.066679 255 220 0
0.282135 0.162703 0.051668 255 220 0
0.288795 0.202692 0.091068 255 220 0
0.299920 0.193675 0.064884 255 220 0
0.290448 0.052690 0.009169 255 220 0
0.310497 0.060740 0.071887 255 220 0
0.344770 0.074684 0.036206 255 220 0
0.325166 0.055676 0.059381 255 220 0
0.287447 0.164285 0.099150 255 220 0
0.278374 0.118409 0.085732 255 220 0
0.296993 0.036825 0.032372 255 220 0
0.334246 0.087750 0.014244 255 220 0
0.294388 0.195598 0.097946 255 220 0
0.295775 0.201171 0.068446 255 220 0
0.312703 0.158386 0.044850 255 220 0
0.310774 0.089264 0.090130 255 220 0
0.325429 0.175571 0.063724 255 220 0
0.330378 0.048292 0.026569 255 220 0
0.285204 0.071240 0.072956 255 220 0
0.307826 0.072481 0.001282 255 220 0
0.306027 0.080714 0.001951 255 220 0
0.329747 0.095455 0.086954 255 220 0
0.271134 0.060791 0.041874 255 220 0
0.282388 0.057421 0.057062 255 220 0
0.335461 0.117565 0.090553 255 220 0
0.284493 0.080107 0.077984 255 220 0
0.303207 0.066939 0.076851 255 220 0
0.340552 0.151320 0.055354 255 220 0
0.332044 0.089101 0.082629 255 220 0
0.292784 0.053312 0.007623 255 220 0
0.303032 0.117302 0.098448 255 220 0
0.323285 0.189521 0.087980 255 220 0
0.296524 0.095849 0.007373 255 220 0
0.264309 0.123281 0.042321 255 220 0
0.310389 0.155612 0.042480 255 220 0
0.321959 0.189769 0.079665 255 220 0
0.273002 0.076209 0.015641 255 220 0
0.342565 0.088875 0.024306 255 220 0
0.350293 0.088911 0.047546 255 220 0
0.337077 0.156800 0.056267 255 220 0
0.272090 0.104425 0.022354 255 220 0
0.270061 0.104728 0.074601 255 220 0
0.343710 0.151431 0.084374 255 220 0
0.337841 0.151975 0.091252 255 220 0
0.299968 0.055983 0.004590 255 220 0
0.322089 0.044302 0.043860 255 220 0
0.310309 0.050469 0.060730 255 220 0
0.278854 0.051848 0.021466 255 220 0
0.272895 0.146889 0.083088 255 220 0
0.262326 0.110130 0.037927 255 220 0
0.295123 0.176056 0.102506 255 220 0
0.320274 0.185221 0.096858 255 220 0
0.297029 0.206896 0.083472 255 220 0
0.261265 0.092238 0.053267 255 220 0
0.277646 0.182256 0.090819 255 220 0
0.325576 0.170289 0.098558 255 220 0
0.330215 0.129484 0.096648 255 220 0
0.342099 0.096259 0.024740 255 220 0
0.262779 0.118297 0.064644 255 220 0
0.340868 0.076445 0.022445 255 220 0
0.290610 0.059435 0.006358 255 220 0
0.314714 0.037888 0.036512 255 220 0
0.330518 0.180542 0.085340 255 220 0
0.292495 0.099020 0.090160 255 220 0
0.282397 0.188292 0.063807 255 220 0
0.261700 0.081462 0.043094 255 220 0
0.294317 0.202941 0.092030 255 220 0
0.282483 0.152405 0.044990 255 220 0
0.290615 0.087111 0.084730 255 220 0
0.275524 0.071569 0.064476 255 220 0
0.312261 0.176349 0.057395 255 220 0
0.352124 0.102843 0.049162 255 220 0
0.298427 0.038737 0.040433 255 220 0
0.277169 0.086200 0.012670 255 220 0
0.340388 0.115645 0.030661 255 220 0
0.311761 0.069054 0.001727 255 220 0
0.281663 0.065030 0.009950 255 220 0
0.327035 0.159982 0.050515 255 220 0
0.267522 0.067702 0.028192 255 220 0
0.279292 0.102317 0.082790 255 220 0
0.350567 0.114909 0.072387 255 220 0
0.297326 0.041721 0.014377 255 220 0
0.261412 0.093363 0.034016 255 220 0
0.269416 0.062273 0.038329 255 220 0
0.305296 0.164540 0.104433 255 220 0
0.300603 0.101727 0.009347 255 220 0
0.279112 0.118535 0.024768 255 220 0
0.289588 0.098247 0.088498 255 220 0
0.303153 0.064142 0.074439 255 220 0
0.329869 0.135613 0.034291 255 220 0
0.348088 0.120765 0.042739 255 220 0
0.304964 0.189855 0.100036 255 220 0
0.294746 0.038797 0.037311 255 220 0
0.275496 0.072873 0.065567 255 220 0
0.298114 0.068845 0.077115 255 220 0
0.277477 0.064735 0.013443 255 220 0
0.312484 0.086896 0.088918 255 220 0
0.320908 0.138413 0.032287 255 220 0
0.320043 0.171352 0.056392 255 220 0
0.326686 0.109466 0.017530 255 220 0
0.342813 0.079354 0.025824 255 220 0
0.287749 0.041636 0.030923 255 220 0
0.344316 0.076506 0.031741 255 220 0
0.343758 0.128051 0.085212 255 220 0
0.300725 0.078670 0.084055 255 220 0
0.273356 0.135351 0.039429 255 220 0
0.278079 0.138711 0.038197 255 220 0
0.310844 0.094543 0.092353 255 220 0
0.344755 0.138116 0.049649 255 220 0
0.271160 0.074396 0.060715 255 220 0
0.283939 0.167459 0.096958 255 220 0
0.306183 0.057792 0.003629 255 220 0
0.310675 0.043218 0.011540 255 220 0
0.287473 0.126653 0.094152 255 220 0
0.292410 0.206721 0.075656 255 220 0
0.327846 0.147986 0.099359 255 220 0
0.282922 0.074939 0.073979 255 220 0
0.276179 0.098172 0.016655 255 220 0
0.275870 0.114855 0.024660 255 220 0
0.316588 0.104064 0.011244 255 220 0
0.336153 0.064309 0.056441 255 220 0
0.329710 0.151549 0.045312 255 220 0
0.330516 0.048245 0.035669 255 220 0
0.268607 0.107162 0.026962 255 220 0
0.294835 0.189372 0.061871 255 220 0
0.293431 0.205019 0.072184 255 220 0
0.279205 0.131209 0.088673 255 220 0
0.313093 0.046462 0.054374 255 220 0
0.316687 0.054948 0.064467 255 220 0
0.328347 0.056870 0.012329 255 220 0
0.333881 0.099940 0.086086 255 220 0
0.274766 0.059848 0.019104 255 220 0
0.290023 0.094326 0.087346 255 220 0
0.346780 0.151916 0.076152 255 220 0
0.325669 0.093688 0.088366 255 220 0
0.273112 0.072806 0.062260 255 220 0
0.339491 0.165995 0.075953 255 220 0
0.338162 0.125104 0.034074 255 220 0
0.275561 0.172719 0.087936 255 220 0
0.311263 0.170068 0.103833 255 220 0
0.301845 0.043138 0.049956 255 220 0
0.275576 0.163484 0.057808 255 220 0
0.319060 0.193812 0.088801 255 220 0
0.344054 0.082264 0.064149 255 220 0
0.312282 0.110737 0.097455 255 220 0
0.280613 0.195340 0.068422 255 220 0
0.267769 0.082775 0.021692 255 220 0
0.345676 0.134674 0.083766 255 220 0
0.272144 0.153432 0.081676 255 220 0
0.301032 0.172952 0.052876 255 220 0
0.339916 0.115409 0.030088 255 220 0
0.278823 0.107848 0.083857 255 220 0
0.276308 0.085739 0.013221 255 220 0
0.326114 0.043695 0.029236 255 220 0
0.296486 0.192033 0.099617 255 220 0
0.267263 0.074331 0.053184 255 220 0
0.304792 0.161660 0.045869 255 220 0
0.296139 0.158539 0.044257 255 220 0
0.289102 0.163858 0.049255 255 220 0
0.346150 0.152054 0.078821 255 220 0
0.307014 0.162818 0.046885 255 220 0
0.272059 0.142633 0.046313 255 220 0
0.329855 0.124047 0.027246 255 220 0
0.321971 0.085249 0.005905 255 220 0
0.271320 0.067376 0.019764 255 220 0
0.327540 0.184404 0.087632 255 220 0
0.275965 0.186750 0.068905 255 220 0
0.325268 0.091607 0.009225 255 220 0
0.317654 0.115700 0.098112 255 220 0
0.307702 0.065641 0.076191 255 220 0
0.269629 0.151866 0.060576 255 220 0
0.275214 0.101815 0.079055 255 220 0
0.335384 0.054218 0.033812 255 220 0
0.294055 0.130240 0.098334 255 220 0
0.351489 0.096016 0.053397 255 220 0
0.272817 0.181523 0.074815 255 220 0
0.329208 0.068160 0.008983 255 220 0
0.279280 0.147957 0.043851 255 220 0
0.340050 0.087548 0.074588 255 220 0
0.306361 0.035500 0.025413 255 220 0
0.334679 0.169202 0.068341 255 220 0
0.281707 0.200609 0.071460 255 220 0
0.288353 0.151923 0.042094 255 220 0
0.339355 0.081292 0.070790 255 220 0
0.260450 0.093461 0.050183 255 220 0
0.298438 0.203284 0.071591 255 220 0
0.349146 0.089516 0.038449 255 220 0
0.265907 0.137740 0.066115 255 220 0
0.353352 0.129644 0.064406 255 220 0
0.320196 0.138721 0.032313 255 220 0
0.296033 0.142501 0.033697 255 220 0
0.350985 0.133741 0.075113 255 220 0
0.352425 0.122351 0.052529 255 220 0
0.266447 0.126102 0.072102 255 220 0
0.288586 0.137205 0.032286 255 220 0
0.272418 0.178052 0.075092 255 220 0
0.278327 0.065928 0.062486 255 220 0
0.283825 0.200582 0.069753 255 220 0
0.334250 0.068596 0.013677 255 220 0
0.315779 0.043787 0.048521 255 220 0
0.299475 0.092418 0.090136 255 220 0
0.291857 0.100561 0.010396 255 220 0
0.268182 0.147191 0.059996 255 220 0
0.338688 0.161679 0.087945 255 220 0
0.272097 0.131681 0.037989 255 220 0
0.302470 0.063799 0.073992 255 220 0
0.304176 0.053876 0.064378 255 220 0
0.296057 0.086512 0.086632 255 220 0
0.345519 0.075498 0.048151 255 220 0
0.268373 0.149662 0.067003 255 220 0
0.261490 0.118433 0.060003 255 220 0
0.289133 0.119722 0.021092 255 220 0
0.332531 0.072271 0.011170 255 220 0
0.308526 0.051433 0.062012 255 220 0
0.352964 0.112139 0.063124 255 220 0
0.291129 0.049488 0.010775 255 220 0
0.290040 0.056519 0.062319 255 220 0
0.274432 0.193135 0.078580 255 220 0
0.278357 0.193013 0.089930 255 220 0
0.325377 0.049699 0.050058 255 220 0
0.273196 0.184450 0.074773 255 220 0
0.322504 0.055217 0.061186 255 220 0
0.271697 0.104675 0.022814 255 220 0
0.318993 0.124128 0.022689 255 220 0
0.298653 0.078565 0.083546 255 220 0
0.268028 0.117015 0.074533 255 220 0
0.330280 0.052870 0.048344 255 220 0
0.310077 0.053973 0.064926 255 220 0
0.286612 0.078475 0.078386 255 220 0
0.331125 0.060008 0.058259 255 220 0
0.338295 0.168221 0.082074 255 220 0
0.308513 0.173931 0.054636 255 220 0
0.348151 0.127893 0.079796 255 220 0
0.286399 0.142173 0.036363 255 220 0
0.276394 0.189325 0.088207 255 220 0
0.282469 0.098026 0.012881 255 220 0
0.267657 0.104952 0.027063 255 220 0
0.307335 0.151482 0.104186 255 220 0
0.320907 0.185400 0.070208 255 220 0
0.348103 0.100244 0.034381 255 220 0
0.321895 0.147130 0.102156 255 220 0
0.279292 0.154063 0.091720 255 220 0
0.264001 0.103495 0.065563 255 220 0
0.270336 0.143093 0.078387 255 220 0
0.264790 0.118509 0.069346 255 220 0
0.330043 0.174831 0.068636 255 220 0
0.314944 0.136640 0.102707 255 220 0
0.280618 0.102361 0.083863 255 220 0
0.338505 0.098603 0.081854 255 220 0
0.269201 0.142726 0.050789 255 220 0
0.325273 0.110253 0.017205 255 220 0
0.289376 0.056528 0.007977 255 220 0
0.271143 0.069017 0.019355 255 220 0
0.340102 0.089743 0.020968 255 220 0
0.339424 0.166489 0.079136 255 220 0
0.336666 0.087942 0.078320 255 220 0
0.326401 0.149078 0.100167 255 220 0
0.334735 0.148782 0.094353 255 220 0
0.286662 0.061991 0.066025 255 220 0
0.337899 0.132482 0.038407 255 220 0
0.282589 0.045545 0.032767 255 220 0
0.290235 0.045032 0.046519 255 220 0
0.330446 0.178883 0.076723 255 220 0
0.274703 0.174406 0.065040 255 220 0
0.262003 0.125040 0.052559 255 220 0
0.345474 0.155048 0.072832 255 220 0
0.352172 0.132404 0.071783 255 220 0
0.270510 0.090211 0.019212 255 220 0
0.299201 0.108643 0.012856 255 220 0
0.294527 0.105584 0.093035 255 220 0
0.297492 0.145054 0.035117 255 220 0
0.296990 0.036824 0.026722 255 220 0
0.347947 0.135364 0.080770 255 220 0
0.287678 0.148262 0.097680 255 220 0
0.348269 0.130701 0.049239 255 220 0
0.293072 0.070753 0.076690 255 220 0
0.272047 0.162825 0.080618 255 220 0
0.335611 0.156168 0.092798 255 220 0
0.324799 0.130274 0.028320 255 220 0
0.275522 0.068294 0.014298 255 220 0
0.287208 0.074636 0.005929 255 220 0
0.270258 0.148365 0.077660 255 220 0
0.351527 0.116689 0.047551 255 220 0
0.289789 0.041094 0.024528 255 220 0
0.343673 0.111998 0.081381 255 220 0
0.297227 0.128809 0.099301 255 220 0
0.333542 0.166194 0.062328 255 220 0
0.301980 0.176246 0.103561 255 220 0
0.328291 0.181499 0.091523 255 220 0
0.351137 0.093161 0.047550 255 220 0
0.335500 0.165671 0.090758 255 220 0
0.345490 0.144699 0.056353 255 220 0
0.272668 0.167870 0.081835 255 220 0
0.279152 0.160405 0.052372 255 220 0
0.267328 0.142580 0.055714 255 220 0
0.323202 0.185614 0.094562 255 220 0
0.265588 0.138868 0.059073 255 220 0
0.326323 0.073847 0.006605 255 220 0
0.273362 0.186563 0.075761 255 220 0
0.339011 0.110095 0.026552 255 220 0
0.315653 0.197068 0.087233 255 220 0
0.278817 0.064842 0.061907 255 220 0
0.345050 0.154665 0.068917 255 220 0
0.296752 0.048577 0.008526 255 220 0
0.336020 0.134400 0.093195 255 220 0
0.343309 0.105661 0.028953 255 220 0
0.301185 0.066026 0.075666 255 220 0
0.333778 0.080286 0.075937 255 220 0
0.260838 0.095990 0.036491 255 220 0
0.322754 0.172648 0.099679 255 220 0
0.305885 0.042282 0.011802 255 220 0
0.295510 0.167213 0.102881 255 220 0
0.276955 0.164876 0.056967 255 220 0
0.338743 0.085614 0.074789 255 220 0
0.285777 0.112158 0.018015 255 220 0
0.271705 0.084137 0.068475 255 220 0
0.274437 0.096574 0.076706 255 220 0
0.275672 0.052442 0.034934 255 220 0
0.339799 0.156109 0.059350 255 220 0
0.275902 0.061669 0.016420 255 220 0
0.286159 0.202955 0.089495 255 220 0
0.337484 0.059861 0.026122 255 220 0
0.292409 0.079043 0.081661 255 220 0
0.305851 0.070727 0.079868 255 220 0
0.294347 0.051543 0.058709 255 220 0
0.259924 0.095742 0.042313 255 220 0
0.291495 0.043419 0.016749 255 220 0
0.309307 0.141643 0.103437 255 220 0
0.290325 0.194692 0.097328 255 220 0
0.346752 0.103563 0.032797 255 220 0
0.345287 0.081066 0.031351 255 220 0
0.296555 0.131386 0.099524 255 220 0
0.297364 0.065722 0.002920 255 220 0
0.295821 0.056354 0.005374 255 220 0
0.292067 0.187760 0.099933 255 220 0
0.349341 0.145298 0.067384 255 220 0
0.289656 0.083871 0.005857 255 220 0
0.291529 0.179991 0.057291 255 220 0
0.260240 0.100322 0.053072 255 220 0
0.285993 0.117650 0.091390 255 220 0
0.308956 0.071235 0.080131 255 220 0
0.297110 0.069384 0.077209 255 220 0
0.345790 0.125025 0.082332 255 220 0
0.337043 0.170560 0.080357 255 220 0
0.350649 0.102010 0.040910 255 220 0
0.340348 0.090642 0.021429 255 220 0
0.285298 0.085354 0.007889 255 220 0
0.292323 0.044546 0.047511 255 220 0
0.341535 0.135770 0.044151 255 220 0
0.288820 0.071815 0.005236 255 220 0
0.320440 0.187957 0.073015 255 220 0
0.329876 0.057577 0.056551 255 220 0
0.333914 0.153317 0.049781 255 220 0
0.299640 0.196411 0.066336 255 220 0
0.308967 0.198149 0.072482 255 220 0
0.261623 0.113969 0.042108 255 220 0
0.343629 0.094313 0.074115 255 220 0
0.336006 0.055401 0.036267 255 220 0
0.301627 0.089836 0.089551 255 220 0
0.294502 0.193009 0.099006 255 220 0
0.312785 0.048242 0.057218 255 220 0
0.266704 0.084601 0.061397 255 220 0
0.336347 0.122010 0.030697 255 220 0
0.294048 0.190095 0.099847 255 220 0
0.333346 0.089462 0.081892 255 220 0
0.288742 0.041182 0.033481 255 220 0
0.334064 0.052660 0.036695 255 220 0
0.329260 0.119523 0.024308 255 220 0
0.345067 0.154762 0.079193 255 220 0
0.304625 0.038293 0.017571 255 220 0
0.288630 0.092195 0.008280 255 220 0
0.275131 0.195004 0.081358 255 220 0
0.303539 0.038885 0.042655 255 220 0
0.344404 0.111285 0.032598 255 220 0
0.316521 0.195553 0.080634 255 220 0
0.328125 0.183564 0.082828 255 220 0
0.299136 0.047952 0.056087 255 220 0
0.322257 0.177646 0.063113 255 220 0
0.320946 0.049885 0.011001 255 220 0
0.333668 0.084521 0.078856 255 220 0
0.305645 0.157398 0.104373 255 220 0
0.343984 0.122546 0.038420 255 220 0
0.328809 0.095035 0.012411 255 220 0
0.323197 0.111026 0.095311 255 220 0
0.276642 0.109679 0.082390 255 220 0
0.339733 0.157412 0.088053 255 220 0
0.335456 0.066619 0.060867 255 220 0
0.307895 0.200992 0.075750 255 220 0
0.272828 0.100720 0.076422 255 220 0
0.263002 0.076518 0.038039 255 220 0
0.297055 0.123810 0.098314 255 220 0
0.310265 0.167784 0.104173 255 220 0
0.326052 0.074366 0.077175 255 220 0
0.323345 0.086488 0.006816 255 220 0
0.305865 0.136618 0.029097 255 220 0
0.307931 0.197349 0.070790 255 220 0
0.305666 0.165994 0.104419 255 220 0
0.338015 0.065239 0.021585 255 220 0
0.337221 0.158066 0.057804 255 220 0
0.325006 0.128666 0.099096 255 220 0
0.272867 0.173349 0.081874 255 220 0
0.271685 0.165414 0.067510 255 220 0
0.264462 0.117406 0.037955 255 220 0
0.346525 0.152272 0.069699 255 220 0
0.265187 0.085897 0.059425 255 220 0
0.268037 0.143680 0.054773 255 220 0
0.321479 0.183743 0.096856 255 220 0
0.311196 0.197301 0.073704 255 220 0
0.320337 0.043548 0.044348 255 220 0
0.311683 0.190099 0.067181 255 220 0
0.293481 0.077258 0.081117 255 220 0
0.290275 0.040156 0.027783 255 220 0
0.261717 0.100258 0.059078 255 220 0
0.272974 0.167450 0.064863 255 220 0
0.274178 0.179426 0.085098 255 220 0
0.279628 0.198062 0.071220 255 220 0
0.313138 0.037886 0.038000 255 220 0
0.340065 0.135617 0.089803 255 220 0
0.335816 0.108927 0.023292 255 220 0
0.315334 0.038262 0.022018 255 220 0
0.314316 0.129816 0.025507 255 220 0
0.333235 0.060568 0.055927 255 220 0
0.313842 0.139534 0.103152 255 220 0
0.315621 0.126111 0.100899 255 220 0
0.320798 0.186302 0.071207 255 220 0
0.352918 0.109114 0.057598 255 220 0
0.311485 0.055459 0.004827 255 220 0
0.311205 0.162129 0.104346 255 220 0
0.268188 0.122673 0.075137 255 220 0
0.287195 0.087227 0.083010 255 220 0
0.303583 0.124329 0.021452 255 220 0
0.267917 0.101336 0.070998 255 220 0
0.263388 0.077154 0.045045 255 220 0
0.272189 0.143312 0.046706 255 220 0
0.286323 0.088089 0.082868 255 220 0
0.276722 0.065389 0.059729 255 220 0
0.335528 0.103510 0.020619 255 220 0
0.277526 0.141537 0.040530 255 220 0
0.279530 0.060571 0.057628 255 220 0
0.315569 0.050866 0.059853 255 220 0
0.312628 0.127673 0.101389 255 220 0
0.302475 0.060659 0.071019 255 220 0
0.280092 0.071094 0.069091 255 220 0
0.338194 0.079449 0.017457 255 220 0
0.293325 0.090181 0.006185 255 220 0
0.320000 0.072823 0.003626 255 220 0
0.315571 0.101568 0.094418 255 220 0
0.297296 0.202454 0.070132 255 220 0
0.296489 0.066402 0.003044 255 220 0
0.331521 0.172685 0.092925 255 220 0
0.270539 0.161381 0.073367 255 220 0
0.343321 0.110267 0.030888 255 220 0
0.343222 0.096773 0.075966 255 220 0
0.323649 0.071533 0.076352 255 220 0
0.315120 0.063265 0.073302 255 220 0
0.347080 0.078885 0.046769 255 220 0
0.281529 0.117044 0.022638 255 220 0
0.325686 0.183850 0.075504 255 220 0
0.277076 0.135272 0.036503 255 220 0
0.332427 0.052538 0.043030 255 220 0
0.316682 0.111319 0.015012 255 220 0
0.342739 0.097043 0.076705 255 220 0
0.315772 0.051698 0.060869 255 220 0
0.345521 0.085296 0.064207 255 220 0
0.350050 0.133945 0.054931 255 220 0
0.314258 0.096330 0.007277 255 220 0
0.283719 0.143533 0.094304 255 220 0
0.314486 0.076527 0.082787 255 220 0
0.285053 0.118349 0.090898 255 220 0
0.296785 0.043927 0.012106 255 220 0
0.276125 0.093440 0.015130 255 220 0
0.266296 0.136051 0.050025 255 220 0
0.294408 0.076119 0.080819 255 220 0
0.275106 0.069906 0.062370 255 220 0
0.332240 0.123775 0.094312 255 220 0
0.337939 0.070089 0.018781 255 220 0
0.299589 0.088310 0.088431 255 220 0
0.297637 0.093455 0.090046 255 220 0
0.341090 0.072334 0.024751 255 220 0
0.295783 0.143887 0.101117 255 220 0
0.345487 0.076638 0.036629 255 220 0
0.332098 0.175774 0.090164 255 220 0
0.281229 0.070243 0.009345 255 220 0
0.344228 0.118010 0.082476 255 220 0
0.339704 0.091403 0.077283 255 220 0
0.286450 0.045725 0.043358 255 220 0
0.296558 0.203405 0.070909 255 220 0
0.277481 0.146119 0.089022 255 220 0
0.278998 0.083010 0.075394 255 220 0
0.271497 0.060322 0.025128 255 220 0
0.331254 0.068584 0.068269 255 220 0
0.332468 0.131142 0.095456 255 220 0
0.296519 0.039829 0.017876 255 220 0
0.275098 0.158995 0.055568 255 220 0
0.341526 0.114100 0.030930 255 220 0
0.263784 0.081669 0.028807 255 220 0
0.284179 0.044347 0.028999 255 220 0
0.296998 0.199871 0.067783 255 220 0
0.351234 0.135570 0.074089 255 220 0
0.274711 0.058349 0.046546 255 220 0
0.292992 0.090479 0.006363 255 220 0
0.310180 0.076229 0.001492 255 220 0
0.306019 0.163041 0.046900 255 220 0
0.345170 0.151712 0.063938 255 220 0
0.327849 0.143789 0.038639 255 220 0
0.334077 0.122734 0.029344 255 220 0
0.294120 0.202870 0.069606 255 220 0
0.320263 0.150420 0.040666 255 220 0
0.292331 0.196091 0.064839 255 220 0
0.342335 0.153799 0.060818 255 220 0
0.338340 0.110739 0.026263 255 220 0
0.320093 0.183344 0.067079 255 220 0
0.330519 0.145895 0.041642 255 220 0
0.284218 0.194558 0.065826 255 220 0
