ply
format ascii 1.0
element vertex 1024
property float x
property float y
property float z
property uchar red
property uchar green
property uchar blue
end_header
0.457356 0.068855 0.093077 255 220 0
0.395143 0.082254 0.068421 255 220 0
0.465562 0.038143 0.034280 255 220 0
0.425619 0.018099 0.064437 255 220 0
0.455171 0.068388 0.018519 255 220 0
0.400604 0.081148 0.025314 255 220 0
0.458115 0.057315 0.088013 255 220 0
0.486476 0.135211 0.091017 255 220 0
0.490950 0.066191 0.059944 255 220 0
0.425590 0.061883 0.009587 255 220 0
0.425132 0.019446 0.066505 255 220 0
0.415203 0.018103 0.013011 255 220 0
0.420917 0.079520 0.017174 255 220 0
0.457781 0.050080 0.083934 255 220 0
0.464445 0.032925 0.051777 255 220 0
0.410959 0.103308 0.073139 255 220 0
0.379545 0.035480 0.031766 255 220 0
0.479173 0.094802 0.093124 255 220 0
0.419124 0.103561 0.080575 255 220 0
0.444132 0.037345 0.080242 255 220 0
0.442906 0.029375 0.072905 255 220 0
0.461014 0.051735 0.083239 255 220 0
0.385837 0.071728 0.058871 255 220 0
0.388752 0.022398 0.020350 255 220 0
0.404130 0.083726 0.025157 255 220 0
0.402742 0.077938 0.021649 255 220 0
0.474332 0.139395 0.050803 255 220 0
0.456044 0.042777 0.020731 255 220 0
0.400825 0.030190 0.010333 255 220 0
0.464134 0.159452 0.061762 255 220 0
0.470797 0.045576 0.034521 255 220 0
0.499392 0.140558 0.075651 255 220 0
0.487671 0.083805 0.041579 255 220 0
0.467628 0.162126 0.062613 255 220 0
0.450935 0.087915 0.096674 255 220 0
0.424671 0.008370 0.033742 255 220 0
0.452154 0.108242 0.032960 255 220 0
0.428554 0.046125 0.086921 255 220 0
0.499655 0.138844 0.077489 255 220 0
0.490363 0.085595 0.044522 255 220 0
0.429353 0.120103 0.046837 255 220 0
0.501550 0.125014 0.069720 255 220 0
0.458331 0.043456 0.022191 255 220 0
0.449627 0.042390 0.016381 255 220 0
0.466072 0.146344 0.089780 255 220 0
0.448481 0.098886 0.027635 255 220 0
0.440815 0.035742 0.079824 255 220 0
0.462223 0.039095 0.028450 255 220 0
0.438974 0.067379 0.093893 255 220 0
0.386048 0.020621 0.025848 255 220 0
0.470954 0.067693 0.027765 255 220 0
0.495211 0.120033 0.086188 255 220 0
0.443993 0.051748 0.089264 255 220 0
0.443940 0.085133 0.095786 255 220 0
0.439070 0.043322 0.085412 255 220 0
0.409004 0.096468 0.076139 255 220 0
0.449872 0.024517 0.031788 255 220 0
0.398658 0.019072 0.058779 255 220 0
0.412488 0.096324 0.031375 255 220 0
0.388857 0.070067 0.027435 255 220 0
0.481625 0.084543 0.036095 255 220 0
0.396349 0.026952 0.063631 255 220 0
0.480364 0.140093 0.092266 255 220 0
0.449741 0.026455 0.063741 255 220 0
0.430604 0.016332 0.020404 255 220 0
0.497326 0.145554 0.072299 255 220 0
0.411784 0.047984 0.082956 255 220 0
0.460917 0.111252 0.035857 255 220 0
0.469420 0.039379 0.059620 255 220 0
0.482185 0.082290 0.036451 255 220 0
0.459107 0.029075 0.039629 255 220 0
0.460578 0.126659 0.043485 255 220 0
0.486171 0.095096 0.040998 255 220 0
0.495728 0.121249 0.057226 255 220 0
0.451327 0.042866 0.081937 255 220 0
0.484321 0.135613 0.052598 255 220 0
0.407865 0.029034 0.071640 255 220 0
0.459631 0.043656 0.077884 255 220 0
0.475774 0.066603 0.031546 255 220 0
0.439328 0.108400 0.090904 255 220 0
0.460207 0.136235 0.091608 255 220 0
0.411640 0.085707 0.082399 255 220 0
0.438403 0.047816 0.009879 255 220 0
0.475767 0.061445 0.079287 255 220 0
0.423912 0.121779 0.059330 255 220 0
0.453837 0.080094 0.020499 255 220 0
0.379896 0.032932 0.032569 255 220 0
0.502211 0.114709 0.071482 255 220 0
0.467999 0.074661 0.091968 255 220 0
0.472400 0.102276 0.096285 255 220 0
0.475773 0.048746 0.040265 255 220 0
0.431379 0.126115 0.054479 255 220 0
0.415750 0.016983 0.063447 255 220 0
0.460004 0.105952 0.033137 255 220 0
0.403149 0.022940 0.064880 255 220 0
0.393812 0.065313 0.019644 255 220 0
0.440930 0.045110 0.011111 255 220 0
0.432067 0.012027 0.045674 255 220 0
0.456176 0.115032 0.037035 255 220 0
0.457157 0.028123 0.056444 255 220 0
0.447246 0.033329 0.075231 255 220 0
0.384658 0.022483 0.045827 255 220 0
0.430698 0.036423 0.008264 255 220 0
0.422087 0.014230 0.058798 255 220 0
0.438715 0.035082 0.011937 255 220 0
0.439932 0.112535 0.036264 255 220 0
0.421458 0.021572 0.011509 255 220 0
0.471549 0.040415 0.054465 255 220 0
0.431590 0.059804 0.009437 255 220 0
0.465362 0.037828 0.064717 255 220 0
0.382620 0.068457 0.052689 255 220 0
0.444407 0.030137 0.018440 255 220 0
0.439306 0.067673 0.093972 255 220 0
0.412566 0.055114 0.085027 255 220 0
0.429900 0.065477 0.011178 255 220 0
0.437905 0.062754 0.092926 255 220 0
0.414968 0.027037 0.008332 255 220 0
0.424034 0.103435 0.084058 255 220 0
0.449479 0.067646 0.015961 255 220 0
0.406087 0.093822 0.074825 255 220 0
0.408584 0.108570 0.057456 255 220 0
0.400201 0.022938 0.063198 255 220 0
0.465607 0.116266 0.039167 255 220 0
0.478727 0.065363 0.079487 255 220 0
0.435243 0.095903 0.025568 255 220 0
0.420977 0.061178 0.009183 255 220 0
0.477157 0.051316 0.039517 255 220 0
0.460359 0.123617 0.041865 255 220 0
0.495947 0.146846 0.079774 255 220 0
0.453440 0.061578 0.091507 255 220 0
0.429183 0.021204 0.067968 255 220 0
0.438567 0.074879 0.094643 255 220 0
0.484300 0.127146 0.093014 255 220 0
0.385113 0.019797 0.042705 255 220 0
0.481323 0.054406 0.043837 255 220 0
0.385933 0.042680 0.060578 255 220 0
0.464251 0.161025 0.079148 255 220 0
0.452897 0.086596 0.096710 255 220 0
0.461444 0.074126 0.093747 255 220 0
0.377610 0.049021 0.038349 255 220 0
0.453280 0.024035 0.048996 255 220 0
0.395259 0.065626 0.018759 255 220 0
0.459483 0.103822 0.097161 255 220 0
0.479981 0.062134 0.036257 255 220 0
0.415709 0.105917 0.039053 255 220 0
0.394853 0.053508 0.073257 255 220 0
0.379479 0.032867 0.042175 255 220 0
0.413681 0.009977 0.021462 255 220 0
0.432902 0.021646 0.016165 255 220 0
0.446917 0.130557 0.048225 255 220 0
0.494179 0.083219 0.050062 255 220 0
0.463889 0.151855 0.086305 255 220 0
0.378208 0.053314 0.038029 255 220 0
0.413040 0.032552 0.076128 255 220 0
0.463305 0.086970 0.025932 255 220 0
0.396457 0.016723 0.054769 255 220 0
0.444342 0.031381 0.074524 255 220 0
0.427890 0.085994 0.090824 255 220 0
0.380337 0.051560 0.052557 255 220 0
0.444009 0.138082 0.077712 255 220 0
0.470797 0.140345 0.050607 255 220 0
0.444811 0.139790 0.059199 255 220 0
0.467899 0.042043 0.067851 255 220 0
0.449714 0.021541 0.043727 255 220 0
0.416761 0.027019 0.073661 255 220 0
0.466218 0.139477 0.049920 255 220 0
0.388169 0.023553 0.020344 255 220 0
0.500132 0.101275 0.072672 255 220 0
0.491561 0.105503 0.087077 255 220 0
0.427066 0.065240 0.010886 255 220 0
0.487889 0.119843 0.091566 255 220 0
0.459150 0.057234 0.087523 255 220 0
0.461093 0.049932 0.022178 255 220 0
0.425591 0.084384 0.019399 255 220 0
0.481974 0.163800 0.068240 255 220 0
0.429919 0.076718 0.015575 255 220 0
0.463984 0.098492 0.030638 255 220 0
0.415294 0.006031 0.035010 255 220 0
0.447870 0.113441 0.035954 255 220 0
0.434902 0.124129 0.048079 255 220 0
0.478588 0.161512 0.081334 255 220 0
0.445740 0.019024 0.043308 255 220 0
0.438744 0.128956 0.051203 255 220 0
0.447817 0.052281 0.088830 255 220 0
0.406437 0.062264 0.011829 255 220 0
0.426496 0.054630 0.007492 255 220 0
0.445757 0.020779 0.054869 255 220 0
0.406423 0.069830 0.082132 255 220 0
0.444188 0.113898 0.036605 255 220 0
0.415410 0.006178 0.038953 255 220 0
0.449768 0.031190 0.022515 255 220 0
0.403868 0.011326 0.052096 255 220 0
0.411660 0.061638 0.010220 255 220 0
0.431335 0.017007 0.060205 255 220 0
0.476933 0.065090 0.081025 255 220 0
0.461738 0.121010 0.095672 255 220 0
0.432409 0.022294 0.015261 255 220 0
0.415323 0.113072 0.050351 255 220 0
0.468310 0.125257 0.043654 255 220 0
0.483295 0.054146 0.056687 255 220 0
0.459192 0.062706 0.090203 255 220 0
0.454982 0.028566 0.061641 255 220 0
0.396206 0.090340 0.063242 255 220 0
0.460553 0.051372 0.083260 255 220 0
0.424574 0.071701 0.090883 255 220 0
0.448455 0.080776 0.019450 255 220 0
0.458055 0.097280 0.028582 255 220 0
0.438952 0.018534 0.026509 255 220 0
0.429160 0.011840 0.027389 255 220 0
0.383579 0.039291 0.056261 255 220 0
0.438332 0.133229 0.074282 255 220 0
0.474603 0.066195 0.030612 255 220 0
0.424253 0.010094 0.026121 255 220 0
0.422357 0.043419 0.084921 255 220 0
0.399970 0.013386 0.019202 255 220 0
0.456015 0.045215 0.019844 255 220 0
0.382636 0.071000 0.049043 255 220 0
0.407252 0.025849 0.069121 255 220 0
0.441508 0.018932 0.055656 255 220 0
0.422772 0.089196 0.087840 255 220 0
0.430233 0.127232 0.062264 255 220 0
0.476137 0.141277 0.092641 255 220 0
0.455448 0.094572 0.097065 255 220 0
0.429369 0.106630 0.033988 255 220 0
0.491487 0.071420 0.067631 255 220 0
0.400488 0.038150 0.009303 255 220 0
0.451624 0.040051 0.018574 255 220 0
0.474466 0.166067 0.069386 255 220 0
0.488188 0.126732 0.091194 255 220 0
0.461810 0.095972 0.097177 255 220 0
0.467655 0.108628 0.097053 255 220 0
0.444161 0.141254 0.071691 255 220 0
0.395306 0.086855 0.065265 255 220 0
0.486080 0.161157 0.068953 255 220 0
0.415769 0.088611 0.023941 255 220 0
0.402769 0.007281 0.028354 255 220 0
0.425991 0.084912 0.090210 255 220 0
0.475125 0.112081 0.040033 255 220 0
0.386290 0.072879 0.033988 255 220 0
0.465354 0.097619 0.097019 255 220 0
0.465088 0.052619 0.024579 255 220 0
0.455729 0.126914 0.043823 255 220 0
0.482766 0.110009 0.042485 255 220 0
0.409937 0.108863 0.050596 255 220 0
0.410323 0.097813 0.034022 255 220 0
0.418214 0.074435 0.014871 255 220 0
0.495320 0.107736 0.083765 255 220 0
0.433519 0.012464 0.034064 255 220 0
0.402218 0.068196 0.016142 255 220 0
0.468696 0.039467 0.039019 255 220 0
0.471325 0.112151 0.038880 255 220 0
0.460833 0.035391 0.067011 255 220 0
0.413551 0.006842 0.028645 255 220 0
0.495381 0.078653 0.066648 255 220 0
0.495398 0.148185 0.069207 255 220 0
0.417918 0.067173 0.088312 255 220 0
0.448244 0.143747 0.077460 255 220 0
0.472476 0.088770 0.030587 255 220 0
0.467390 0.035744 0.051619 255 220 0
0.467193 0.147345 0.089685 255 220 0
0.420568 0.031680 0.078035 255 220 0
0.485535 0.080595 0.039450 255 220 0
0.484709 0.058517 0.063718 255 220 0
0.459229 0.061795 0.020093 255 220 0
0.466105 0.140759 0.050494 255 220 0
0.437225 0.077943 0.094492 255 220 0
0.452906 0.062283 0.091903 255 220 0
0.478997 0.163659 0.064312 255 220 0
0.413897 0.054654 0.007544 255 220 0
0.446218 0.038208 0.015504 255 220 0
0.465642 0.058184 0.024261 255 220 0
0.406600 0.096386 0.035186 255 220 0
0.432292 0.077040 0.093282 255 220 0
0.459286 0.055354 0.020228 255 220 0
0.452709 0.107348 0.095859 255 220 0
0.412452 0.076290 0.084887 255 220 0
0.494502 0.077449 0.067656 255 220 0
0.398114 0.067235 0.076151 255 220 0
0.449309 0.141068 0.081834 255 220 0
0.440522 0.086613 0.020887 255 220 0
0.387145 0.044326 0.062620 255 220 0
0.487395 0.074910 0.041772 255 220 0
0.428324 0.086821 0.020592 255 220 0
0.407108 0.023020 0.066879 255 220 0
0.398466 0.011773 0.049832 255 220 0
0.483060 0.094226 0.090767 255 220 0
0.378886 0.057829 0.041614 255 220 0
0.478382 0.087234 0.091543 255 220 0
0.392237 0.084757 0.061138 255 220 0
0.454941 0.028722 0.031803 255 220 0
0.447651 0.024970 0.027603 255 220 0
0.401616 0.057296 0.011860 255 220 0
0.390063 0.044576 0.066209 255 220 0
0.465914 0.034576 0.053855 255 220 0
0.416174 0.046737 0.084374 255 220 0
0.432146 0.044828 0.007844 255 220 0
0.382824 0.069894 0.039385 255 220 0
0.385173 0.033336 0.055798 255 220 0
0.438671 0.017896 0.027379 255 220 0
0.494962 0.094335 0.078627 255 220 0
0.384957 0.074635 0.053954 255 220 0
0.408590 0.106503 0.047538 255 220 0
0.481444 0.136305 0.051694 255 220 0
0.394846 0.090413 0.042430 255 220 0
0.398597 0.097388 0.054558 255 220 0
0.449088 0.022868 0.034361 255 220 0
0.395015 0.008979 0.033293 255 220 0
0.484177 0.141683 0.090651 255 220 0
0.478365 0.077222 0.087433 255 220 0
0.472482 0.085457 0.029953 255 220 0
0.453813 0.117693 0.094344 255 220 0
0.475635 0.071502 0.086328 255 220 0
0.441025 0.102487 0.029324 255 220 0
0.426343 0.118408 0.075550 255 220 0
0.396571 0.031558 0.011938 255 220 0
0.451933 0.024312 0.036447 255 220 0
0.436838 0.060490 0.010581 255 220 0
0.397535 0.079762 0.072570 255 220 0
0.468568 0.064468 0.026088 255 220 0
0.434072 0.118384 0.042557 255 220 0
0.401695 0.042394 0.008835 255 220 0
0.401981 0.056219 0.079492 255 220 0
0.462971 0.052734 0.082741 255 220 0
0.403048 0.083108 0.025301 255 220 0
0.425604 0.083877 0.090206 255 220 0
0.472446 0.064498 0.084284 255 220 0
0.486871 0.062107 0.064742 255 220 0
0.439808 0.022354 0.021581 255 220 0
0.444788 0.028503 0.020101 255 220 0
0.468920 0.037768 0.055263 255 220 0
0.398985 0.007951 0.042306 255 220 0
0.395068 0.063002 0.073666 255 220 0
0.394775 0.010493 0.044108 255 220 0
0.442680 0.096625 0.025982 255 220 0
0.440708 0.134855 0.057365 255 220 0
0.487651 0.150513 0.085741 255 220 0
0.428875 0.079446 0.092058 255 220 0
0.445136 0.103183 0.029711 255 220 0
0.401655 0.093891 0.036983 255 220 0
0.409565 0.087059 0.080637 255 220 0
0.454766 0.152990 0.076484 255 220 0
0.447530 0.137498 0.053604 255 220 0
0.477367 0.050626 0.040889 255 220 0
0.432781 0.020825 0.016859 255 220 0
0.461411 0.038985 0.027636 255 220 0
0.484424 0.114087 0.044874 255 220 0
0.482785 0.115642 0.093904 255 220 0
0.384566 0.036783 0.056648 255 220 0
0.405045 0.058736 0.081667 255 220 0
0.489646 0.086261 0.043709 255 220 0
0.486704 0.133246 0.091228 255 220 0
0.425263 0.061966 0.090489 255 220 0
0.457646 0.087478 0.024208 255 220 0
0.482965 0.129394 0.093310 255 220 0
0.464589 0.054710 0.023842 255 220 0
0.444849 0.105288 0.030939 255 220 0
0.423718 0.111815 0.040719 255 220 0
0.406949 0.104436 0.046119 255 220 0
0.495727 0.101599 0.080933 255 220 0
0.489740 0.114044 0.090133 255 220 0
0.409948 0.103039 0.072142 255 220 0
0.478006 0.164496 0.065381 255 220 0
0.416006 0.059320 0.087082 255 220 0
0.445780 0.094801 0.025310 255 220 0
0.416839 0.091727 0.025925 255 220 0
0.465071 0.142064 0.091185 255 220 0
0.390686 0.022681 0.055279 255 220 0
0.406100 0.020674 0.064422 255 220 0
0.382406 0.038000 0.024131 255 220 0
0.433665 0.118396 0.042729 255 220 0
0.426134 0.122382 0.054379 255 220 0
0.417366 0.009156 0.023899 255 220 0
0.465280 0.034202 0.042647 255 220 0
0.464328 0.156190 0.083828 255 220 0
0.385209 0.051209 0.061237 255 220 0
0.404837 0.009255 0.048797 255 220 0
0.436856 0.070067 0.093978 255 220 0
0.409311 0.084786 0.081101 255 220 0
0.487012 0.116668 0.091985 255 220 0
0.481745 0.154213 0.086664 255 220 0
0.386852 0.015881 0.038652 255 220 0
0.491652 0.124985 0.053797 255 220 0
0.380035 0.053695 0.051533 255 220 0
0.438841 0.030448 0.075661 255 220 0
0.452376 0.151023 0.074149 255 220 0
0.410729 0.097924 0.033879 255 220 0
0.470913 0.117387 0.040998 255 220 0
0.495410 0.111868 0.084821 255 220 0
0.453519 0.043370 0.081286 255 220 0
0.393407 0.017079 0.019831 255 220 0
0.422436 0.071667 0.090085 255 220 0
0.485338 0.144505 0.055718 255 220 0
0.454166 0.024551 0.043887 255 220 0
0.405924 0.058176 0.082144 255 220 0
0.446490 0.097903 0.095494 255 220 0
0.472634 0.135982 0.049125 255 220 0
0.423602 0.106156 0.035360 255 220 0
0.451689 0.065383 0.093158 255 220 0
0.476074 0.144104 0.091801 255 220 0
0.417351 0.115405 0.052585 255 220 0
0.450129 0.149007 0.069951 255 220 0
0.431474 0.115893 0.083080 255 220 0
0.428511 0.110939 0.083561 255 220 0
0.421632 0.119714 0.057052 255 220 0
0.436648 0.019576 0.061810 255 220 0
0.427087 0.071237 0.013161 255 220 0
0.473248 0.052629 0.032521 255 220 0
0.444624 0.113489 0.091905 255 220 0
0.458063 0.076942 0.021232 255 220 0
0.386351 0.060675 0.063004 255 220 0
0.418728 0.024746 0.009420 255 220 0
0.433569 0.088616 0.021447 255 220 0
0.472931 0.041894 0.050195 255 220 0
0.484892 0.069784 0.039752 255 220 0
0.385177 0.075432 0.040063 255 220 0
0.469725 0.046581 0.031942 255 220 0
0.500351 0.131341 0.068966 255 220 0
0.451390 0.146834 0.078838 255 220 0
0.443369 0.033568 0.015512 255 220 0
0.457324 0.051016 0.084768 255 220 0
0.446281 0.054027 0.089943 255 220 0
0.397995 0.029696 0.066636 255 220 0
0.474723 0.062667 0.031062 255 220 0
0.418818 0.115893 0.051012 255 220 0
0.415726 0.081048 0.085862 255 220 0
0.481981 0.156746 0.059003 255 220 0
0.489425 0.119618 0.050168 255 220 0
0.418871 0.006797 0.033116 255 220 0
0.422523 0.087558 0.021674 255 220 0
0.390614 0.024090 0.056364 255 220 0
0.452120 0.135325 0.049734 255 220 0
0.444624 0.113453 0.036238 255 220 0
0.492430 0.134373 0.087413 255 220 0
0.476452 0.046059 0.056293 255 220 0
0.410147 0.049525 0.007054 255 220 0
0.433883 0.127994 0.054705 255 220 0
0.476852 0.127282 0.095087 255 220 0
0.458403 0.031806 0.063723 255 220 0
0.426724 0.009044 0.035178 255 220 0
0.433694 0.041965 0.084987 255 220 0
0.445122 0.024355 0.025208 255 220 0
0.462916 0.091047 0.096742 255 220 0
0.394445 0.009465 0.040175 255 220 0
0.444058 0.136147 0.080017 255 220 0
0.475616 0.073505 0.031177 255 220 0
0.446569 0.058364 0.091627 255 220 0
0.414052 0.088163 0.024170 255 220 0
0.394194 0.091491 0.053135 255 220 0
0.490402 0.070645 0.047288 255 220 0
0.395667 0.031418 0.012432 255 220 0
0.468728 0.070996 0.026273 255 220 0
0.389659 0.082875 0.040621 255 220 0
0.380652 0.030795 0.031528 255 220 0
0.469132 0.080599 0.093572 255 220 0
0.471796 0.069284 0.028363 255 220 0
0.419121 0.078519 0.016867 255 220 0
0.401589 0.015604 0.056827 255 220 0
0.494014 0.076032 0.067269 255 220 0
0.482468 0.053447 0.049513 255 220 0
0.467992 0.148854 0.053927 255 220 0
0.456999 0.154626 0.078192 255 220 0
0.436710 0.025605 0.071099 255 220 0
0.446809 0.102503 0.029397 255 220 0
0.460316 0.094944 0.028055 255 220 0
0.470893 0.039547 0.052805 255 220 0
0.414924 0.088677 0.083632 255 220 0
0.448779 0.023779 0.031524 255 220 0
0.434890 0.039740 0.009208 255 220 0
0.386629 0.063358 0.025532 255 220 0
0.479923 0.053591 0.065487 255 220 0
0.491388 0.142362 0.086196 255 220 0
0.443962 0.141350 0.065996 255 220 0
0.405130 0.053429 0.081059 255 220 0
0.467232 0.064168 0.087364 255 220 0
0.380259 0.029865 0.040570 255 220 0
0.455398 0.032075 0.067800 255 220 0
0.401587 0.096041 0.067036 255 220 0
0.408525 0.040352 0.078396 255 220 0
0.435372 0.099009 0.027492 255 220 0
0.445748 0.140741 0.077100 255 220 0
0.498462 0.126078 0.082940 255 220 0
0.392656 0.050957 0.015018 255 220 0
0.443107 0.030757 0.016908 255 220 0
0.397561 0.070691 0.020016 255 220 0
0.406774 0.103048 0.067343 255 220 0
0.392632 0.071411 0.069643 255 220 0
0.390754 0.077798 0.064351 255 220 0
0.455615 0.068998 0.018806 255 220 0
0.494812 0.083128 0.051229 255 220 0
0.501767 0.126732 0.076982 255 220 0
0.484801 0.113530 0.044900 255 220 0
0.427720 0.013081 0.023025 255 220 0
0.493183 0.149239 0.081772 255 220 0
0.458785 0.028630 0.053808 255 220 0
0.464659 0.047873 0.077773 255 220 0
0.430815 0.026194 0.073538 255 220 0
0.417536 0.052342 0.086471 255 220 0
0.430299 0.081442 0.017733 255 220 0
0.459942 0.085712 0.096421 255 220 0
0.422701 0.015662 0.016505 255 220 0
0.429290 0.077634 0.015945 255 220 0
0.452626 0.034764 0.073692 255 220 0
0.473679 0.133280 0.094579 255 220 0
0.401666 0.006447 0.038165 255 220 0
0.450964 0.131416 0.088936 255 220 0
0.478566 0.061471 0.076378 255 220 0
0.415665 0.081933 0.019494 255 220 0
0.439330 0.015343 0.044342 255 220 0
0.466754 0.035018 0.048946 255 220 0
0.472703 0.112197 0.039316 255 220 0
0.402372 0.085476 0.075280 255 220 0
0.444789 0.130565 0.049148 255 220 0
0.480085 0.161270 0.080884 255 220 0
0.478415 0.147656 0.054379 255 220 0
0.385530 0.032377 0.020416 255 220 0
0.421256 0.028959 0.076203 255 220 0
0.448125 0.022713 0.032830 255 220 0
0.427811 0.016904 0.061749 255 220 0
0.461383 0.129311 0.093962 255 220 0
0.427335 0.094960 0.088697 255 220 0
0.388446 0.015527 0.043665 255 220 0
0.440794 0.039270 0.011952 255 220 0
0.482753 0.152324 0.087345 255 220 0
0.479654 0.156226 0.057708 255 220 0
0.466237 0.110828 0.036901 255 220 0
0.440367 0.053169 0.090174 255 220 0
0.490028 0.118857 0.050428 255 220 0
0.420492 0.007755 0.029795 255 220 0
0.405935 0.051169 0.081004 255 220 0
0.408071 0.040079 0.006687 255 220 0
0.410929 0.048035 0.006637 255 220 0
0.458443 0.048475 0.082451 255 220 0
0.381527 0.049532 0.055026 255 220 0
0.392766 0.040820 0.067928 255 220 0
0.475272 0.064315 0.081934 255 220 0
0.411062 0.059111 0.084883 255 220 0
0.419571 0.038080 0.081697 255 220 0
0.488196 0.090245 0.042375 255 220 0
0.456073 0.041844 0.078609 255 220 0
0.387408 0.031674 0.018362 255 220 0
0.450215 0.081133 0.096194 255 220 0
0.501170 0.131953 0.072608 255 220 0
0.412067 0.065927 0.011870 255 220 0
0.407760 0.106316 0.048772 255 220 0
0.462344 0.109671 0.035427 255 220 0
0.498204 0.132828 0.064772 255 220 0
0.384614 0.061577 0.027191 255 220 0
0.450661 0.035904 0.019892 255 220 0
0.462648 0.031972 0.040884 255 220 0
0.488327 0.096737 0.043257 255 220 0
0.399817 0.086103 0.030249 255 220 0
0.410833 0.087630 0.081340 255 220 0
0.497830 0.088797 0.069893 255 220 0
0.494903 0.092365 0.077687 255 220 0
0.393978 0.030168 0.013619 255 220 0
0.415759 0.008773 0.048774 255 220 0
0.413202 0.020269 0.066738 255 220 0
0.378466 0.037789 0.034808 255 220 0
0.436649 0.122071 0.083561 255 220 0
0.398380 0.096143 0.046606 255 220 0
0.474521 0.135320 0.094147 255 220 0
0.498624 0.129907 0.082391 255 220 0
0.487208 0.160501 0.071301 255 220 0
0.392088 0.081527 0.064023 255 220 0
0.460415 0.149720 0.085537 255 220 0
0.495825 0.114420 0.084897 255 220 0
0.478457 0.077238 0.087373 255 220 0
0.454133 0.042437 0.019453 255 220 0
0.409319 0.102963 0.071396 255 220 0
0.442491 0.026205 0.020033 255 220 0
0.388419 0.038022 0.016783 255 220 0
0.404636 0.007153 0.043961 255 220 0
0.501952 0.120505 0.069741 255 220 0
0.430217 0.071063 0.092642 255 220 0
0.460929 0.152261 0.057575 255 220 0
0.384527 0.072085 0.055451 255 220 0
0.485008 0.158590 0.080668 255 220 0
0.438238 0.121589 0.043925 255 220 0
0.421305 0.061889 0.089289 255 220 0
0.396062 0.056494 0.074688 255 220 0
0.478016 0.126402 0.046849 255 220 0
0.471633 0.042880 0.040282 255 220 0
0.392539 0.016434 0.050953 255 220 0
0.392426 0.067885 0.022174 255 220 0
0.463996 0.059863 0.023045 255 220 0
0.409689 0.035099 0.006765 255 220 0
0.384727 0.047494 0.021358 255 220 0
0.480260 0.104691 0.039294 255 220 0
0.378769 0.057257 0.041583 255 220 0
0.419206 0.080768 0.087733 255 220 0
0.482055 0.054059 0.061586 255 220 0
0.386892 0.019450 0.025496 255 220 0
0.388161 0.082332 0.045160 255 220 0
0.380009 0.051681 0.051742 255 220 0
0.477541 0.120186 0.095446 255 220 0
0.418903 0.068799 0.012202 255 220 0
0.413377 0.094442 0.029349 255 220 0
0.427022 0.071923 0.091716 255 220 0
0.417526 0.035717 0.079728 255 220 0
0.466320 0.082394 0.026118 255 220 0
0.475866 0.060229 0.032550 255 220 0
0.489082 0.141895 0.087975 255 220 0
0.388776 0.018404 0.048660 255 220 0
0.396964 0.057623 0.075584 255 220 0
0.416392 0.042375 0.082738 255 220 0
0.381953 0.049451 0.025634 255 220 0
0.440286 0.050251 0.088957 255 220 0
0.459853 0.089471 0.025624 255 220 0
0.481669 0.118062 0.044946 255 220 0
0.446371 0.061737 0.013867 255 220 0
0.446389 0.027674 0.022545 255 220 0
0.382899 0.024467 0.043508 255 220 0
0.447605 0.024484 0.028352 255 220 0
0.486183 0.068870 0.073716 255 220 0
0.425212 0.049397 0.087678 255 220 0
0.420685 0.111836 0.042575 255 220 0
0.426004 0.112214 0.039989 255 220 0
0.443642 0.057635 0.091636 255 220 0
0.483589 0.076777 0.037692 255 220 0
0.392987 0.061176 0.071554 255 220 0
0.459569 0.133845 0.092134 255 220 0
0.399807 0.028444 0.011195 255 220 0
0.398011 0.013711 0.019847 255 220 0
0.441072 0.097239 0.093964 255 220 0
0.481423 0.162745 0.064670 255 220 0
0.486556 0.094244 0.088095 255 220 0
0.406174 0.055519 0.081981 255 220 0
0.398651 0.078612 0.024697 255 220 0
0.408798 0.093009 0.030377 255 220 0
0.433765 0.062411 0.010507 255 220 0
0.440581 0.018478 0.055556 255 220 0
0.476937 0.096088 0.034791 255 220 0
0.422767 0.007678 0.038607 255 220 0
0.399434 0.090278 0.035074 255 220 0
0.471300 0.146648 0.053038 255 220 0
0.480569 0.160746 0.061314 255 220 0
0.435236 0.105434 0.089730 255 220 0
0.411941 0.015372 0.060522 255 220 0
0.421650 0.020751 0.068495 255 220 0
0.419755 0.016067 0.015274 255 220 0
0.463933 0.050122 0.080193 255 220 0
0.378585 0.046735 0.032310 255 220 0
0.425111 0.068353 0.091016 255 220 0
0.498641 0.087568 0.061228 255 220 0
0.454511 0.049116 0.084875 255 220 0
0.394164 0.058803 0.072864 255 220 0
0.499724 0.103377 0.060692 255 220 0
0.467783 0.069096 0.025587 255 220 0
0.453150 0.142683 0.084392 255 220 0
0.485143 0.121760 0.092942 255 220 0
0.399889 0.018425 0.058938 255 220 0
0.441235 0.134694 0.056335 255 220 0
0.500054 0.137826 0.073706 255 220 0
0.458093 0.029650 0.059122 255 220 0
0.454289 0.070688 0.094206 255 220 0
0.464145 0.159215 0.061505 255 220 0
0.385077 0.069935 0.033277 255 220 0
0.490790 0.073497 0.071069 255 220 0
0.439016 0.128030 0.081497 255 220 0
0.465917 0.129383 0.045173 255 220 0
0.463347 0.059906 0.022614 255 220 0
0.421887 0.085726 0.088149 255 220 0
0.391612 0.067947 0.022943 255 220 0
0.415269 0.006088 0.033841 255 220 0
0.483077 0.148195 0.089003 255 220 0
0.387924 0.063135 0.065041 255 220 0
0.461604 0.117769 0.039068 255 220 0
0.452474 0.119645 0.039657 255 220 0
0.450559 0.127884 0.045246 255 220 0
0.498831 0.088026 0.063928 255 220 0
0.464274 0.117594 0.039456 255 220 0
0.424967 0.118742 0.048580 255 220 0
0.458737 0.072527 0.020775 255 220 0
0.427370 0.043548 0.006664 255 220 0
0.379722 0.054954 0.032675 255 220 0
0.502003 0.125364 0.072070 255 220 0
0.456050 0.154342 0.064024 255 220 0
0.434126 0.047244 0.008399 255 220 0
0.461412 0.072098 0.093116 255 220 0
0.422470 0.034614 0.080315 255 220 0
0.431076 0.127934 0.061726 255 220 0
0.414683 0.082464 0.084997 255 220 0
0.429384 0.010202 0.035048 255 220 0
0.449342 0.096857 0.096229 255 220 0
0.468654 0.037416 0.045404 255 220 0
0.452207 0.151566 0.071073 255 220 0
0.425405 0.025214 0.010394 255 220 0
0.433054 0.119478 0.044041 255 220 0
0.459975 0.036290 0.069384 255 220 0
0.393849 0.009458 0.035185 255 220 0
0.495548 0.108601 0.053862 255 220 0
0.468458 0.163138 0.063553 255 220 0
0.442153 0.118088 0.039988 255 220 0
0.455308 0.031313 0.066645 255 220 0
0.391296 0.082983 0.061035 255 220 0
0.483686 0.156641 0.059949 255 220 0
0.459824 0.033053 0.032207 255 220 0
0.422144 0.117881 0.069680 255 220 0
0.489933 0.065112 0.051372 255 220 0
0.459427 0.090106 0.025754 255 220 0
0.441698 0.106004 0.031499 255 220 0
0.492629 0.069884 0.061715 255 220 0
0.482609 0.059343 0.040971 255 220 0
0.418111 0.107713 0.076886 255 220 0
0.432508 0.105397 0.032319 255 220 0
0.450179 0.148822 0.071871 255 220 0
0.395034 0.050214 0.072917 255 220 0
0.469786 0.161998 0.061471 255 220 0
0.430923 0.022959 0.013875 255 220 0
0.411398 0.011663 0.054641 255 220 0
0.432627 0.061781 0.092059 255 220 0
0.411329 0.072397 0.015141 255 220 0
0.427362 0.124710 0.062058 255 220 0
0.499744 0.100170 0.073052 255 220 0
0.417432 0.109365 0.041906 255 220 0
0.416679 0.035782 0.079476 255 220 0
0.410737 0.026401 0.071079 255 220 0
0.425957 0.058532 0.090111 255 220 0
0.452025 0.023059 0.044169 255 220 0
0.430459 0.126741 0.068503 255 220 0
0.407209 0.103737 0.067134 255 220 0
0.421385 0.090181 0.023600 255 220 0
0.430768 0.026980 0.011314 255 220 0
0.412525 0.022030 0.068218 255 220 0
0.480405 0.050407 0.052466 255 220 0
0.384851 0.029299 0.022250 255 220 0
0.399897 0.036058 0.071600 255 220 0
0.460350 0.160619 0.072902 255 220 0
0.466259 0.158501 0.083141 255 220 0
0.422709 0.011668 0.053428 255 220 0
0.453999 0.153859 0.070578 255 220 0
0.425810 0.017916 0.064099 255 220 0
0.399729 0.086524 0.030743 255 220 0
0.448702 0.078276 0.018539 255 220 0
0.423323 0.050393 0.087616 255 220 0
0.415382 0.099157 0.080098 255 220 0
0.427965 0.011789 0.050362 255 220 0
0.415798 0.023391 0.070405 255 220 0
0.412081 0.056612 0.085055 255 220 0
0.434673 0.017461 0.058894 255 220 0
0.501336 0.105923 0.066588 255 220 0
0.473024 0.126299 0.045241 255 220 0
0.488436 0.066410 0.067591 255 220 0
0.434203 0.110790 0.036079 255 220 0
0.462347 0.156384 0.082342 255 220 0
0.402873 0.075174 0.019779 255 220 0
0.397549 0.088895 0.035649 255 220 0
0.472529 0.107998 0.096480 255 220 0
0.492842 0.129623 0.056369 255 220 0
0.463439 0.042718 0.027083 255 220 0
0.481870 0.096648 0.092125 255 220 0
0.447658 0.124857 0.089720 255 220 0
0.403025 0.089724 0.073952 255 220 0
0.431474 0.120163 0.080006 255 220 0
0.412219 0.102107 0.075526 255 220 0
0.494647 0.115827 0.054359 255 220 0
0.470921 0.091365 0.095421 255 220 0
0.420583 0.080113 0.088500 255 220 0
0.466061 0.046541 0.075322 255 220 0
0.423726 0.120338 0.053492 255 220 0
0.445525 0.063148 0.013736 255 220 0
0.386309 0.036201 0.018980 255 220 0
0.380312 0.056443 0.032102 255 220 0
0.448264 0.037922 0.017037 255 220 0
0.500683 0.103844 0.063731 255 220 0
0.458272 0.038415 0.073641 255 220 0
0.486110 0.095935 0.089031 255 220 0
0.491456 0.091288 0.081739 255 220 0
0.400775 0.042503 0.075174 255 220 0
0.472357 0.075532 0.028893 255 220 0
0.381063 0.030508 0.045837 255 220 0
0.390425 0.026114 0.057705 255 220 0
0.498981 0.119096 0.061605 255 220 0
0.447802 0.144479 0.062121 255 220 0
0.409205 0.109064 0.058950 255 220 0
0.498357 0.090906 0.057865 255 220 0
0.492131 0.068110 0.058415 255 220 0
0.390529 0.074818 0.029354 255 220 0
0.422102 0.075436 0.014999 255 220 0
0.435925 0.075597 0.094173 255 220 0
0.444543 0.107418 0.032253 255 220 0
0.387087 0.015505 0.038181 255 220 0
0.492299 0.072881 0.067612 255 220 0
0.453074 0.115543 0.094557 255 220 0
0.482627 0.068619 0.037540 255 220 0
0.413090 0.046643 0.083099 255 220 0
0.443457 0.136073 0.079276 255 220 0
0.495562 0.097111 0.079098 255 220 0
0.457980 0.080485 0.022036 255 220 0
0.382351 0.053510 0.026400 255 220 0
0.393231 0.052747 0.015092 255 220 0
0.433916 0.124690 0.078635 255 220 0
0.477793 0.054974 0.037052 255 220 0
0.382777 0.022910 0.036956 255 220 0
0.477032 0.055232 0.072088 255 220 0
0.451470 0.093978 0.096710 255 220 0
0.491635 0.106613 0.048643 255 220 0
0.480541 0.131888 0.093759 255 220 0
0.502082 0.122512 0.076070 255 220 0
0.465507 0.035148 0.040168 255 220 0
0.499812 0.105252 0.075912 255 220 0
0.489153 0.082022 0.043200 255 220 0
0.446828 0.140048 0.079681 255 220 0
0.441322 0.130177 0.050731 255 220 0
0.423284 0.121215 0.058670 255 220 0
0.500695 0.128697 0.079519 255 220 0
0.420764 0.118981 0.062762 255 220 0
0.425340 0.031560 0.007936 255 220 0
0.455448 0.155574 0.071230 255 220 0
0.459049 0.055844 0.020051 255 220 0
0.498516 0.142379 0.072453 255 220 0
0.394748 0.049030 0.072396 255 220 0
0.496872 0.090787 0.054199 255 220 0
0.388498 0.025566 0.019047 255 220 0
0.484929 0.078366 0.082212 255 220 0
0.460926 0.049823 0.022084 255 220 0
0.417150 0.038358 0.081074 255 220 0
0.451419 0.033403 0.072900 255 220 0
0.389616 0.084880 0.047339 255 220 0
0.494960 0.117913 0.086251 255 220 0
0.393637 0.015428 0.021192 255 220 0
0.470435 0.127589 0.095574 255 220 0
0.442881 0.135153 0.055059 255 220 0
0.457959 0.035331 0.070093 255 220 0
0.414026 0.085490 0.022269 255 220 0
0.400253 0.069213 0.077720 255 220 0
0.410811 0.078401 0.083551 255 220 0
0.379369 0.040017 0.048449 255 220 0
0.490967 0.094734 0.045788 255 220 0
0.379806 0.047679 0.029239 255 220 0
0.477661 0.162872 0.079856 255 220 0
0.432143 0.013875 0.026429 255 220 0
0.417950 0.054067 0.086988 255 220 0
0.424407 0.039929 0.083602 255 220 0
0.400062 0.029548 0.067866 255 220 0
0.390131 0.085171 0.053208 255 220 0
0.383502 0.023963 0.028759 255 220 0
0.468979 0.098585 0.096625 255 220 0
0.478785 0.153681 0.087684 255 220 0
0.463628 0.046246 0.025390 255 220 0
0.450632 0.027856 0.027188 255 220 0
0.452278 0.096525 0.096730 255 220 0
0.396376 0.039819 0.011268 255 220 0
0.390926 0.032663 0.015171 255 220 0
0.477327 0.146877 0.090756 255 220 0
0.495290 0.080555 0.053053 255 220 0
0.399934 0.059325 0.013335 255 220 0
0.462697 0.140378 0.050473 255 220 0
0.395303 0.088946 0.062997 255 220 0
0.434608 0.090339 0.092746 255 220 0
0.427297 0.038734 0.083163 255 220 0
0.415859 0.043361 0.082962 255 220 0
0.485634 0.065217 0.070900 255 220 0
0.501077 0.108564 0.064873 255 220 0
0.468010 0.042911 0.032678 255 220 0
0.449035 0.038560 0.017319 255 220 0
0.397571 0.062882 0.015997 255 220 0
0.392144 0.024609 0.058309 255 220 0
0.478414 0.076448 0.033309 255 220 0
0.392964 0.049497 0.014457 255 220 0
0.494430 0.132056 0.058859 255 220 0
0.431994 0.016040 0.057803 255 220 0
0.482385 0.095406 0.038050 255 220 0
0.479923 0.150138 0.055492 255 220 0
0.489996 0.146750 0.059346 255 220 0
0.400754 0.099797 0.050311 255 220 0
0.466261 0.040171 0.067327 255 220 0
0.431088 0.010892 0.037153 255 220 0
0.432954 0.058452 0.091389 255 220 0
0.481786 0.150065 0.088686 255 220 0
0.413274 0.017060 0.063115 255 220 0
0.394654 0.072204 0.071800 255 220 0
0.463899 0.067401 0.023075 255 220 0
0.480131 0.147825 0.089970 255 220 0
0.457156 0.041465 0.077584 255 220 0
0.384103 0.023569 0.045848 255 220 0
0.428192 0.009580 0.038315 255 220 0
0.455240 0.068976 0.018628 255 220 0
0.499401 0.090901 0.064159 255 220 0
0.391951 0.012715 0.027562 255 220 0
0.403899 0.066960 0.014819 255 220 0
0.462545 0.161856 0.075216 255 220 0
0.397375 0.013888 0.052057 255 220 0
0.465565 0.054051 0.024675 255 220 0
0.496880 0.140608 0.066066 255 220 0
0.500907 0.124323 0.067396 255 220 0
0.401567 0.023969 0.064816 255 220 0
0.488314 0.122286 0.050209 255 220 0
0.409766 0.013998 0.016385 255 220 0
0.454182 0.037077 0.075209 255 220 0
0.474185 0.113922 0.096239 255 220 0
0.472341 0.063882 0.028958 255 220 0
0.439562 0.048318 0.010333 255 220 0
0.462948 0.065200 0.089879 255 220 0
0.420662 0.088423 0.086930 255 220 0
0.498464 0.095990 0.073497 255 220 0
0.442241 0.020829 0.059696 255 220 0
0.491339 0.149744 0.062368 255 220 0
0.411520 0.082773 0.083065 255 220 0
0.381877 0.067173 0.050919 255 220 0
0.448550 0.089809 0.096433 255 220 0
0.483238 0.120340 0.093769 255 220 0
0.442318 0.032420 0.076430 255 220 0
0.429355 0.043886 0.007110 255 220 0
0.445734 0.095821 0.025804 255 220 0
0.488327 0.146605 0.058016 255 220 0
0.478584 0.121230 0.095170 255 220 0
0.434228 0.018157 0.021223 255 220 0
0.489459 0.097746 0.044557 255 220 0
0.474321 0.079284 0.090909 255 220 0
0.449788 0.144608 0.078971 255 220 0
0.441328 0.138417 0.066291 255 220 0
0.403852 0.101217 0.045261 255 220 0
0.497063 0.087979 0.054969 255 220 0
0.393586 0.074095 0.070026 255 220 0
0.424204 0.121777 0.057471 255 220 0
0.498869 0.128017 0.082336 255 220 0
0.491701 0.144863 0.060191 255 220 0
0.414043 0.009052 0.049698 255 220 0
0.486877 0.138450 0.054690 255 220 0
0.417798 0.051984 0.086474 255 220 0
0.383483 0.021869 0.040139 255 220 0
0.397934 0.088140 0.068536 255 220 0
0.442794 0.139463 0.063197 255 220 0
0.454735 0.149106 0.081051 255 220 0
0.465386 0.162060 0.064069 255 220 0
0.403689 0.007983 0.045724 255 220 0
0.488078 0.077266 0.077943 255 220 0
0.455031 0.056513 0.017684 255 220 0
0.401859 0.007090 0.029716 255 220 0
0.448403 0.085583 0.021486 255 220 0
0.436143 0.016822 0.056132 255 220 0
0.471588 0.094409 0.095703 255 220 0
0.465693 0.082039 0.094888 255 220 0
0.493451 0.130452 0.057244 255 220 0
0.477503 0.047835 0.047502 255 220 0
0.403293 0.023682 0.011586 255 220 0
0.481181 0.115034 0.094477 255 220 0
0.418536 0.103893 0.079922 255 220 0
0.418123 0.063775 0.088296 255 220 0
0.435764 0.086526 0.020430 255 220 0
0.406470 0.085852 0.078714 255 220 0
0.384201 0.067539 0.057559 255 220 0
0.425514 0.119253 0.048848 255 220 0
0.417806 0.064966 0.088224 255 220 0
0.392771 0.050586 0.070635 255 220 0
0.451397 0.052041 0.015846 255 220 0
0.427543 0.114919 0.042001 255 220 0
0.392140 0.045003 0.068649 255 220 0
0.417542 0.017844 0.064770 255 220 0
0.464130 0.084941 0.095768 255 220 0
0.414373 0.033094 0.076994 255 220 0
0.400705 0.053711 0.078305 255 220 0
0.440609 0.030145 0.015345 255 220 0
0.406255 0.062774 0.012096 255 220 0
0.418875 0.033993 0.006455 255 220 0
0.451619 0.061145 0.091776 255 220 0
0.481969 0.156527 0.058870 255 220 0
0.396027 0.040857 0.011477 255 220 0
0.500607 0.113319 0.077916 255 220 0
0.439736 0.135607 0.072730 255 220 0
0.463742 0.053746 0.023366 255 220 0
0.467619 0.042486 0.068888 255 220 0
0.438693 0.031266 0.076483 255 220 0
0.426703 0.028688 0.076315 255 220 0
0.454707 0.025118 0.042075 255 220 0
0.414106 0.091897 0.026985 255 220 0
0.497278 0.125817 0.060743 255 220 0
0.423019 0.109805 0.038992 255 220 0
0.428297 0.010359 0.044812 255 220 0
0.438436 0.068553 0.013208 255 220 0
0.467534 0.042972 0.069668 255 220 0
0.418377 0.018450 0.065608 255 220 0
0.460863 0.031463 0.058490 255 220 0
0.487116 0.070470 0.042287 255 220 0
0.426954 0.057033 0.008126 255 220 0
0.446586 0.113580 0.092692 255 220 0
0.435198 0.040349 0.083939 255 220 0
0.434067 0.091426 0.092367 255 220 0
0.387021 0.021603 0.023116 255 220 0
0.395834 0.074606 0.023839 255 220 0
0.417746 0.116176 0.054199 255 220 0
0.417915 0.050526 0.086144 255 220 0
0.394365 0.055289 0.072943 255 220 0
0.476668 0.071307 0.085433 255 220 0
0.435958 0.022315 0.017890 255 220 0
0.430224 0.058217 0.090911 255 220 0
0.431613 0.063627 0.092209 255 220 0
0.441138 0.022597 0.022757 255 220 0
0.458378 0.107580 0.096819 255 220 0
0.449813 0.024002 0.032843 255 220 0
0.501992 0.115636 0.074720 255 220 0
0.386873 0.052157 0.020185 255 220 0
0.480811 0.060064 0.072262 255 220 0
0.462295 0.039765 0.071572 255 220 0
0.386889 0.028678 0.055314 255 220 0
0.482028 0.157727 0.059652 255 220 0
0.441474 0.119033 0.088493 255 220 0
0.407372 0.064455 0.083106 255 220 0
0.377569 0.048877 0.038758 255 220 0
0.441542 0.024734 0.067478 255 220 0
0.480878 0.077464 0.085546 255 220 0
0.386102 0.018276 0.029301 255 220 0
0.438021 0.131114 0.054836 255 220 0
0.464216 0.057951 0.023275 255 220 0
0.382927 0.071112 0.041133 255 220 0
0.380864 0.028639 0.042012 255 220 0
0.479845 0.154476 0.056984 255 220 0
0.493519 0.071306 0.060435 255 220 0
0.384365 0.045595 0.059154 255 220 0
0.406174 0.063203 0.012298 255 220 0
0.411974 0.042036 0.005931 255 220 0
0.463568 0.118305 0.039642 255 220 0
0.494275 0.088190 0.049723 255 220 0
0.469850 0.090432 0.029692 255 220 0
0.462065 0.069203 0.022127 255 220 0
0.479427 0.158545 0.058949 255 220 0
0.467434 0.100064 0.032339 255 220 0
0.473357 0.153694 0.055558 255 220 0
0.492243 0.091442 0.046998 255 220 0
0.458752 0.056742 0.019823 255 220 0
0.490373 0.128287 0.053761 255 220 0
0.473850 0.090836 0.031795 255 220 0
0.466105 0.156648 0.058356 255 220 0
