ply
format ascii 1.0
element vertex 1024
property float x
property float y
property float z
property uchar red
property uchar green
property uchar blue
end_header
0.563416 0.062254 0.086095 255 220 0
0.522103 0.064059 0.031800 255 220 0
0.606453 0.035147 0.042729 255 220 0
0.560904 0.007069 0.049326 255 220 0
0.600711 0.063212 0.021504 255 220 0
0.549419 0.065085 -0.001994 255 220 0
0.568734 0.051202 0.083099 255 220 0
0.577068 0.132997 0.094116 255 220 0
0.609235 0.066907 0.075492 255 220 0
0.581876 0.051370 -0.000905 255 220 0
0.559177 0.008245 0.050727 255 220 0
0.579144 0.006340 0.000133 255 220 0
0.570899 0.067589 0.001725 255 220 0
0.571867 0.044141 0.080031 255 220 0
0.597282 0.029382 0.057468 255 220 0
0.529106 0.087636 0.042326 255 220 0
0.536538 0.016078 -0.003754 255 220 0
0.577003 0.091898 0.095360 255 220 0
0.531974 0.089269 0.052868 255 220 0
0.564668 0.029116 0.070836 255 220 0
0.568893 0.021243 0.064589 255 220 0
0.574634 0.046402 0.080981 255 220 0
0.521202 0.052180 0.019688 255 220 0
0.552496 0.005293 -0.007661 255 220 0
0.551985 0.068295 -0.000508 255 220 0
0.553686 0.062437 -0.003752 255 220 0
0.587262 0.135760 0.053243 255 220 0
0.604796 0.038199 0.025888 255 220 0
0.566430 0.015502 -0.010562 255 220 0
0.569488 0.153209 0.055689 255 220 0
0.609380 0.043439 0.045050 255 220 0
0.594937 0.141101 0.087292 255 220 0
0.613011 0.084011 0.056744 255 220 0
0.571483 0.156482 0.058010 255 220 0
0.552820 0.079631 0.084308 255 220 0
0.577899 -0.001902 0.023472 255 220 0
0.583609 0.101378 0.029051 255 220 0
0.546638 0.034575 0.067752 255 220 0
0.594496 0.139425 0.089130 255 220 0
0.613399 0.086211 0.060502 255 220 0
0.555247 0.108293 0.028111 255 220 0
0.602582 0.126412 0.084602 255 220 0
0.605819 0.039268 0.028262 255 220 0
0.601792 0.036695 0.018891 255 220 0
0.558746 0.140031 0.081603 255 220 0
0.584985 0.091624 0.023362 255 220 0
0.562404 0.026917 0.068889 255 220 0
0.606554 0.035583 0.035958 255 220 0
0.547926 0.057255 0.077386 255 220 0
0.547678 0.002894 -0.004237 255 220 0
0.609149 0.065334 0.037609 255 220 0
0.589554 0.119902 0.095742 255 220 0
0.557289 0.042998 0.077295 255 220 0
0.547945 0.075580 0.080151 255 220 0
0.556688 0.033881 0.072138 255 220 0
0.527111 0.080476 0.044416 255 220 0
0.597082 0.018827 0.033569 255 220 0
0.541221 0.002985 0.030464 255 220 0
0.553476 0.082106 0.008109 255 220 0
0.540471 0.051905 -0.005386 255 220 0
0.610712 0.083709 0.048882 255 220 0
0.535367 0.010154 0.032770 255 220 0
0.570460 0.136582 0.091623 255 220 0
0.579902 0.019916 0.060560 255 220 0
0.588424 0.007378 0.014548 255 220 0
0.594089 0.145689 0.082968 255 220 0
0.534407 0.033275 0.055540 255 220 0
0.588867 0.105942 0.035817 255 220 0
0.596185 0.036476 0.066209 255 220 0
0.611389 0.081597 0.049656 255 220 0
0.599871 0.024879 0.044665 255 220 0
0.581874 0.120804 0.040905 255 220 0
0.610074 0.094814 0.054568 255 220 0
0.604933 0.121908 0.071247 255 220 0
0.568804 0.035873 0.075564 255 220 0
0.595316 0.133923 0.060248 255 220 0
0.540406 0.014210 0.045388 255 220 0
0.577708 0.038342 0.076350 255 220 0
0.611379 0.065096 0.043413 255 220 0
0.542554 0.097642 0.071743 255 220 0
0.554682 0.128942 0.080931 255 220 0
0.527928 0.070270 0.051974 255 220 0
0.594884 0.040022 0.007106 255 220 0
0.587289 0.058859 0.084480 255 220 0
0.543875 0.108585 0.035797 255 220 0
0.596498 0.074392 0.021563 255 220 0
0.536860 0.013626 -0.002685 255 220 0
0.604027 0.116386 0.087269 255 220 0
0.571845 0.070021 0.090199 255 220 0
0.568384 0.097852 0.093946 255 220 0
0.609962 0.047363 0.052266 255 220 0
0.551875 0.114393 0.035187 255 220 0
0.553392 0.004103 0.043459 255 220 0
0.590464 0.100634 0.033451 255 220 0
0.541088 0.007492 0.037677 255 220 0
0.549518 0.048385 -0.009074 255 220 0
0.596823 0.037823 0.009681 255 220 0
0.577172 0.002812 0.037172 255 220 0
0.583631 0.108711 0.034062 255 220 0
0.589610 0.023156 0.058052 255 220 0
0.570595 0.025898 0.068502 255 220 0
0.535730 0.003962 0.011908 255 220 0
0.591315 0.027405 0.002651 255 220 0
0.561594 0.002733 0.043003 255 220 0
0.596312 0.027539 0.010039 255 220 0
0.570935 0.103161 0.025191 255 220 0
0.584533 0.010980 0.001816 255 220 0
0.600476 0.038029 0.062838 255 220 0
0.587323 0.050486 0.002241 255 220 0
0.590407 0.034049 0.068571 255 220 0
0.522334 0.048506 0.013019 255 220 0
0.598524 0.023620 0.018922 255 220 0
0.548110 0.057606 0.077602 255 220 0
0.532718 0.040369 0.057139 255 220 0
0.584002 0.055685 0.002395 255 220 0
0.548357 0.052536 0.076379 255 220 0
0.579822 0.015174 -0.004688 255 220 0
0.534266 0.090002 0.058388 255 220 0
0.597436 0.061454 0.016436 255 220 0
0.525834 0.077352 0.041997 255 220 0
0.534409 0.092729 0.027318 255 220 0
0.539512 0.006966 0.034717 255 220 0
0.590159 0.111680 0.040664 255 220 0
0.588960 0.063266 0.085871 255 220 0
0.575558 0.086206 0.014983 255 220 0
0.578367 0.049803 -0.003582 255 220 0
0.611054 0.050168 0.052140 255 220 0
0.583076 0.117817 0.039655 255 220 0
0.588798 0.146507 0.088516 255 220 0
0.562257 0.054401 0.083312 255 220 0
0.561478 0.010712 0.053930 255 220 0
0.545872 0.064517 0.077215 255 220 0
0.575631 0.124617 0.095334 255 220 0
0.538217 0.001492 0.009701 255 220 0
0.611720 0.053893 0.057730 255 220 0
0.525510 0.023659 0.023516 255 220 0
0.560205 0.154347 0.070430 255 220 0
0.554670 0.078713 0.085461 255 220 0
0.565543 0.068193 0.088362 255 220 0
0.529092 0.028830 -0.000234 255 220 0
0.590998 0.018585 0.050028 255 220 0
0.551132 0.048992 -0.009104 255 220 0
0.556886 0.096867 0.087877 255 220 0
0.613208 0.061404 0.049962 255 220 0
0.550450 0.091947 0.015549 255 220 0
0.524398 0.035683 0.038068 255 220 0
0.531495 0.013245 0.005285 255 220 0
0.574884 -0.002133 0.007192 255 220 0
0.591622 0.013136 0.011704 255 220 0
0.567318 0.121888 0.037554 255 220 0
0.614098 0.084476 0.067386 255 220 0
0.557774 0.145104 0.077072 255 220 0
0.529001 0.033164 -0.000540 255 220 0
0.541750 0.018545 0.051610 255 220 0
0.600334 0.082822 0.030544 255 220 0
0.541899 0.000357 0.026097 255 220 0
0.568888 0.023446 0.066552 255 220 0
0.537012 0.073465 0.067543 255 220 0
0.523479 0.031494 0.013076 255 220 0
0.548130 0.127986 0.060558 255 220 0
0.584250 0.136018 0.051169 255 220 0
0.558189 0.130271 0.045071 255 220 0
0.590138 0.038595 0.072218 255 220 0
0.591224 0.015582 0.043893 255 220 0
0.547118 0.013891 0.051879 255 220 0
0.580947 0.134304 0.048282 255 220 0
0.551810 0.006314 -0.008060 255 220 0
0.604039 0.102777 0.088281 255 220 0
0.588607 0.104924 0.095771 255 220 0
0.581835 0.054915 0.000698 255 220 0
0.580668 0.118177 0.096544 255 220 0
0.569867 0.051333 0.083224 255 220 0
0.606985 0.046152 0.029164 255 220 0
0.572773 0.073204 0.005652 255 220 0
0.580201 0.160742 0.070099 255 220 0
0.579734 0.066608 0.005251 255 220 0
0.596405 0.094141 0.033982 255 220 0
0.569831 -0.006029 0.019882 255 220 0
0.577554 0.105582 0.028966 255 220 0
0.558512 0.113278 0.031720 255 220 0
0.570926 0.157523 0.079679 255 220 0
0.588575 0.012361 0.041680 255 220 0
0.559228 0.118675 0.035985 255 220 0
0.560610 0.044265 0.078863 255 220 0
0.564670 0.048010 -0.008947 255 220 0
0.585007 0.044480 -0.001640 255 220 0
0.582227 0.013801 0.051394 255 220 0
0.526518 0.053699 0.050314 255 220 0
0.574064 0.105306 0.027577 255 220 0
0.567838 -0.005960 0.023288 255 220 0
0.600674 0.025582 0.025084 255 220 0
0.550428 -0.003449 0.028090 255 220 0
0.569977 0.048439 -0.007562 255 220 0
0.568077 0.007199 0.048770 255 220 0
0.586708 0.062616 0.086273 255 220 0
0.556515 0.114199 0.086402 255 220 0
0.591570 0.013699 0.010627 255 220 0
0.542952 0.098615 0.024398 255 220 0
0.588477 0.120909 0.045166 255 220 0
0.606682 0.053700 0.069716 255 220 0
0.567535 0.056644 0.085090 255 220 0
0.584998 0.023045 0.061316 255 220 0
0.524275 0.072324 0.027293 255 220 0
0.574302 0.045957 0.080789 255 220 0
0.536737 0.058804 0.067018 255 220 0
0.592441 0.074053 0.017827 255 220 0
0.592752 0.091863 0.029256 255 220 0
0.591798 0.010990 0.023896 255 220 0
0.584356 0.002520 0.020109 255 220 0
0.526405 0.019988 0.018891 255 220 0
0.546048 0.122219 0.055085 255 220 0
0.610964 0.064494 0.042043 255 220 0
0.581236 -0.000103 0.016626 255 220 0
0.542997 0.030778 0.063055 255 220 0
0.564037 -0.001366 -0.002107 255 220 0
0.604806 0.040607 0.024923 255 220 0
0.523807 0.051094 0.009718 255 220 0
0.541775 0.011029 0.043181 255 220 0
0.578598 0.011153 0.050010 255 220 0
0.533744 0.075698 0.062094 255 220 0
0.546647 0.115076 0.041134 255 220 0
0.566531 0.136922 0.089658 255 220 0
0.555204 0.087019 0.086446 255 220 0
0.564363 0.095394 0.018254 255 220 0
0.604736 0.071951 0.081898 255 220 0
0.565285 0.023273 -0.012250 255 220 0
0.602722 0.034729 0.021980 255 220 0
0.572942 0.161495 0.067005 255 220 0
0.579898 0.125003 0.095832 255 220 0
0.560201 0.089612 0.089725 255 220 0
0.562907 0.103153 0.091635 255 220 0
0.550849 0.131276 0.055255 255 220 0
0.523080 0.068682 0.028829 255 220 0
0.583715 0.158919 0.073044 255 220 0
0.561463 0.075352 0.004094 255 220 0
0.562655 -0.007044 0.007625 255 220 0
0.535941 0.072054 0.066122 255 220 0
0.598377 0.109381 0.046667 255 220 0
0.534404 0.054010 -0.001360 255 220 0
0.562948 0.091912 0.091294 255 220 0
0.608585 0.049497 0.033063 255 220 0
0.577610 0.120115 0.038660 255 220 0
0.603827 0.108755 0.052878 255 220 0
0.539076 0.093445 0.022153 255 220 0
0.550023 0.083086 0.009123 255 220 0
0.570749 0.062138 -0.001230 255 220 0
0.593081 0.107918 0.094719 255 220 0
0.584384 0.003805 0.028001 255 220 0
0.557849 0.052914 -0.007934 255 220 0
0.606351 0.036931 0.048282 255 220 0
0.595801 0.108747 0.043711 255 220 0
0.585861 0.030732 0.068374 255 220 0
0.571568 -0.005411 0.013493 255 220 0
0.607222 0.079819 0.082499 255 220 0
0.593637 0.147976 0.079125 255 220 0
0.533333 0.053148 0.061743 255 220 0
0.550793 0.134364 0.062084 255 220 0
0.605224 0.086234 0.039114 255 220 0
0.599322 0.032717 0.058634 255 220 0
0.559554 0.141231 0.082023 255 220 0
0.547180 0.019088 0.057203 255 220 0
0.612911 0.080504 0.054081 255 220 0
0.603409 0.058087 0.076087 255 220 0
0.604432 0.057484 0.025474 255 220 0
0.580326 0.135526 0.048609 255 220 0
0.544293 0.067269 0.076145 255 220 0
0.561480 0.054980 0.083316 255 220 0
0.579800 0.160128 0.065223 255 220 0
0.574473 0.042083 -0.008123 255 220 0
0.600148 0.031958 0.016713 255 220 0
0.608232 0.055071 0.032634 255 220 0
0.546562 0.080943 0.008300 255 220 0
0.540973 0.065465 0.072632 255 220 0
0.605544 0.051173 0.026134 255 220 0
0.551299 0.099057 0.082978 255 220 0
0.528963 0.061127 0.055266 255 220 0
0.606173 0.078444 0.082999 255 220 0
0.523181 0.049705 0.041124 255 220 0
0.549862 0.131832 0.066575 255 220 0
0.584048 0.078221 0.014475 255 220 0
0.525161 0.025456 0.025752 255 220 0
0.614248 0.075226 0.057477 255 220 0
0.573997 0.076090 0.007888 255 220 0
0.543328 0.008282 0.041423 255 220 0
0.547031 -0.003992 0.023328 255 220 0
0.581578 0.092137 0.095412 255 220 0
0.526893 0.037635 0.002504 255 220 0
0.578505 0.084360 0.094209 255 220 0
0.523052 0.066136 0.023892 255 220 0
0.600557 0.023926 0.035871 255 220 0
0.597341 0.018948 0.028818 255 220 0
0.561512 0.042210 -0.011020 255 220 0
0.525670 0.026173 0.030299 255 220 0
0.597128 0.031232 0.059867 255 220 0
0.537544 0.032860 0.059121 255 220 0
0.591261 0.035940 0.002370 255 220 0
0.529215 0.050283 0.001680 255 220 0
0.529027 0.014463 0.019799 255 220 0
0.591220 0.010289 0.024542 255 220 0
0.597836 0.094829 0.091230 255 220 0
0.522530 0.054985 0.014813 255 220 0
0.539971 0.090946 0.019041 255 220 0
0.593269 0.134072 0.057932 255 220 0
0.534025 0.072648 0.008858 255 220 0
0.529573 0.079912 0.020573 255 220 0
0.595371 0.016995 0.035486 255 220 0
0.553307 -0.006989 0.007679 255 220 0
0.574203 0.138913 0.092095 255 220 0
0.582408 0.074635 0.091501 255 220 0
0.606145 0.083001 0.038843 255 220 0
0.551189 0.109455 0.081432 255 220 0
0.581719 0.068526 0.089604 255 220 0
0.577251 0.093683 0.020650 255 220 0
0.538005 0.105345 0.051140 255 220 0
0.561803 0.015988 -0.011508 255 220 0
0.596396 0.018907 0.038621 255 220 0
0.590978 0.052138 0.005880 255 220 0
0.522364 0.061972 0.036772 255 220 0
0.608607 0.061752 0.035202 255 220 0
0.561724 0.107619 0.027047 255 220 0
0.565788 0.027680 -0.012363 255 220 0
0.526598 0.039558 0.046853 255 220 0
0.576350 0.047770 0.081491 255 220 0
0.551117 0.067478 -0.000897 255 220 0
0.535803 0.070965 0.066001 255 220 0
0.581366 0.061093 0.086771 255 220 0
0.604042 0.061999 0.077792 255 220 0
0.594418 0.015024 0.019836 255 220 0
0.598259 0.022049 0.020664 255 220 0
0.598333 0.034907 0.062368 255 220 0
0.552078 -0.007457 0.017494 255 220 0
0.522690 0.045028 0.037768 255 220 0
0.547178 -0.005816 0.016644 255 220 0
0.581414 0.088332 0.019131 255 220 0
0.556600 0.124687 0.041778 255 220 0
0.578113 0.148364 0.089007 255 220 0
0.538341 0.067200 0.069628 255 220 0
0.580352 0.095146 0.023054 255 220 0
0.541940 0.077502 0.007468 255 220 0
0.526883 0.071243 0.049290 255 220 0
0.555110 0.144708 0.063891 255 220 0
0.563788 0.128683 0.041897 255 220 0
0.610632 0.049498 0.053473 255 220 0
0.591302 0.012291 0.012298 255 220 0
0.606323 0.035339 0.034852 255 220 0
0.603240 0.113015 0.055446 255 220 0
0.575931 0.113018 0.096229 255 220 0
0.527467 0.017707 0.019933 255 220 0
0.527569 0.042562 0.050091 255 220 0
0.613109 0.086747 0.059384 255 220 0
0.577495 0.131107 0.094570 255 220 0
0.539234 0.049396 0.067819 255 220 0
0.596430 0.082277 0.026103 255 220 0
0.573967 0.126559 0.094716 255 220 0
0.608186 0.051471 0.032010 255 220 0
0.579098 0.097126 0.023783 255 220 0
0.555214 0.099230 0.020644 255 220 0
0.539710 0.088638 0.017148 255 220 0
0.595986 0.102046 0.093009 255 220 0
0.583984 0.112878 0.096747 255 220 0
0.528832 0.087202 0.040975 255 220 0
0.578267 0.160732 0.065553 255 220 0
0.533767 0.045106 0.060334 255 220 0
0.584671 0.087155 0.020310 255 220 0
0.560767 0.078567 0.006089 255 220 0
0.557931 0.135606 0.082623 255 220 0
0.535772 0.005081 0.023065 255 220 0
0.544188 0.005848 0.038996 255 220 0
0.542476 0.019288 -0.008976 255 220 0
0.561293 0.107548 0.026982 255 220 0
0.548213 0.109726 0.032684 255 220 0
0.576825 -0.002291 0.011242 255 220 0
0.602532 0.031020 0.050024 255 220 0
0.558672 0.149503 0.074843 255 220 0
0.523058 0.031871 0.023020 255 220 0
0.553328 -0.005214 0.025949 255 220 0
0.545643 0.059483 0.076148 255 220 0
0.526828 0.068952 0.049735 255 220 0
0.580278 0.114884 0.096702 255 220 0
0.572054 0.150838 0.086438 255 220 0
0.542479 -0.001917 0.007463 255 220 0
0.602672 0.124874 0.065917 255 220 0
0.523387 0.033556 0.011877 255 220 0
0.563872 0.021446 0.064745 255 220 0
0.554687 0.142376 0.060823 255 220 0
0.550416 0.083277 0.009202 255 220 0
0.593426 0.113754 0.044882 255 220 0
0.591875 0.111964 0.095334 255 220 0
0.570883 0.036804 0.076105 255 220 0
0.557586 0.000981 -0.005267 255 220 0
0.535379 0.058380 0.065234 255 220 0
0.592962 0.142766 0.062720 255 220 0
0.594321 0.019387 0.046094 255 220 0
0.528151 0.042169 0.050998 255 220 0
0.547971 0.088605 0.080201 255 220 0
0.587327 0.132127 0.051207 255 220 0
0.558920 0.093789 0.016473 255 220 0
0.559261 0.057757 0.083506 255 220 0
0.566420 0.139704 0.088684 255 220 0
0.543061 0.101238 0.027165 255 220 0
0.555368 0.140071 0.056245 255 220 0
0.538782 0.103677 0.060412 255 220 0
0.536934 0.098236 0.059683 255 220 0
0.543532 0.106177 0.032842 255 220 0
0.571212 0.010700 0.052683 255 220 0
0.579603 0.060746 0.002166 255 220 0
0.611227 0.050878 0.044053 255 220 0
0.545547 0.103627 0.074931 255 220 0
0.600193 0.072093 0.024628 255 220 0
0.521415 0.041334 0.024360 255 220 0
0.582792 0.013622 -0.001631 255 220 0
0.577605 0.078837 0.011190 255 220 0
0.603602 0.039850 0.059799 255 220 0
0.614123 0.069767 0.054870 255 220 0
0.529845 0.056152 0.003032 255 220 0
0.609659 0.044282 0.042219 255 220 0
0.600861 0.132408 0.082833 255 220 0
0.552150 0.137962 0.064640 255 220 0
0.598586 0.026859 0.015616 255 220 0
0.570884 0.044951 0.080430 255 220 0
0.558439 0.045657 0.078876 255 220 0
0.534682 0.013087 0.035962 255 220 0
0.611451 0.061045 0.042771 255 220 0
0.545021 0.102037 0.026546 255 220 0
0.530342 0.066399 0.057412 255 220 0
0.586285 0.154050 0.062800 255 220 0
0.603662 0.119271 0.062102 255 220 0
0.573669 -0.004544 0.020060 255 220 0
0.568466 0.075672 0.005746 255 220 0
0.534895 0.006423 0.023839 255 220 0
0.570024 0.127528 0.041152 255 220 0
0.574697 0.104963 0.027526 255 220 0
0.584066 0.133407 0.094198 255 220 0
0.602611 0.044462 0.066483 255 220 0
0.572508 0.036343 -0.010072 255 220 0
0.553512 0.116711 0.036526 255 220 0
0.568314 0.123269 0.093231 255 220 0
0.586188 0.026830 0.064602 255 220 0
0.578739 -0.000882 0.025704 255 220 0
0.552669 0.031528 0.069100 255 220 0
0.596595 0.017918 0.025518 255 220 0
0.562219 0.085003 0.090321 255 220 0
0.549143 -0.006790 0.013206 255 220 0
0.547305 0.126041 0.062701 255 220 0
0.610224 0.071846 0.042464 255 220 0
0.557033 0.049926 0.080112 255 220 0
0.559991 0.074578 0.003436 255 220 0
0.527687 0.073316 0.017551 255 220 0
0.614619 0.071483 0.064073 255 220 0
0.560816 0.015665 -0.011544 255 220 0
0.607492 0.068183 0.034921 255 220 0
0.531977 0.064300 0.005234 255 220 0
0.538412 0.011700 -0.003009 255 220 0
0.570903 0.076024 0.091677 255 220 0
0.609257 0.067041 0.038427 255 220 0
0.569740 0.066270 0.000613 255 220 0
0.545298 0.000194 0.030597 255 220 0
0.606219 0.076970 0.082530 255 220 0
0.609872 0.053033 0.063235 255 220 0
0.578673 0.143745 0.051863 255 220 0
0.555789 0.146700 0.066372 255 220 0
0.565338 0.016398 0.060143 255 220 0
0.582031 0.094808 0.023707 255 220 0
0.595325 0.090019 0.030165 255 220 0
0.600951 0.037092 0.061154 255 220 0
0.529496 0.073784 0.054487 255 220 0
0.596439 0.017899 0.032837 255 220 0
0.593731 0.031441 0.005361 255 220 0
0.540792 0.044943 -0.007624 255 220 0
0.599363 0.052291 0.075509 255 220 0
0.582427 0.141075 0.091982 255 220 0
0.553648 0.131472 0.050294 255 220 0
0.528894 0.037386 0.050043 255 220 0
0.575465 0.059692 0.086721 255 220 0
0.533514 0.010490 0.004563 255 220 0
0.581502 0.026415 0.066496 255 220 0
0.525769 0.078857 0.032856 255 220 0
0.535423 0.025274 0.050579 255 220 0
0.574111 0.089231 0.016441 255 220 0
0.549431 0.130943 0.060725 255 220 0
0.592899 0.126537 0.094176 255 220 0
0.553507 0.034192 -0.012464 255 220 0
0.598133 0.024016 0.016894 255 220 0
0.551499 0.054372 -0.007246 255 220 0
0.528697 0.086720 0.035244 255 220 0
0.521282 0.052909 0.032407 255 220 0
0.521361 0.058945 0.026416 255 220 0
0.600823 0.063889 0.021929 255 220 0
0.614030 0.084480 0.068715 255 220 0
0.598657 0.127960 0.090762 255 220 0
0.603639 0.112540 0.055707 255 220 0
0.585221 0.003569 0.015547 255 220 0
0.585027 0.148275 0.088594 255 220 0
0.592258 0.024031 0.056610 255 220 0
0.581215 0.043447 0.078522 255 220 0
0.559043 0.015785 0.059120 255 220 0
0.536593 0.038569 0.061164 255 220 0
0.578088 0.071263 0.006907 255 220 0
0.560849 0.079206 0.088934 255 220 0
0.583995 0.005298 0.007188 255 220 0
0.578855 0.067377 0.005166 255 220 0
0.575632 0.028377 0.069863 255 220 0
0.564878 0.128557 0.090675 255 220 0
0.556746 -0.008316 0.015476 255 220 0
0.549226 0.122505 0.074253 255 220 0
0.591140 0.059493 0.083451 255 220 0
0.564881 0.068890 0.000787 255 220 0
0.583339 0.007493 0.039535 255 220 0
0.600319 0.031948 0.056086 255 220 0
0.596713 0.109047 0.044792 255 220 0
0.523971 0.068440 0.041128 255 220 0
0.565059 0.121465 0.037237 255 220 0
0.572452 0.157585 0.080091 255 220 0
0.587337 0.144561 0.057743 255 220 0
0.548017 0.014462 -0.010072 255 220 0
0.549193 0.016595 0.056218 255 220 0
0.595398 0.016696 0.033696 255 220 0
0.564349 0.006383 0.048267 255 220 0
0.555650 0.122317 0.084098 255 220 0
0.536082 0.082207 0.064726 255 220 0
0.541246 -0.002081 0.012586 255 220 0
0.597298 0.032046 0.010794 255 220 0
0.572871 0.149162 0.087691 255 220 0
0.585116 0.153125 0.060533 255 220 0
0.592829 0.106522 0.039495 255 220 0
0.553540 0.043673 0.076078 255 220 0
0.604163 0.118634 0.062697 255 220 0
0.576590 -0.003211 0.017995 255 220 0
0.529992 0.035325 0.050593 255 220 0
0.572636 0.026686 -0.010705 255 220 0
0.573642 0.035041 -0.009903 255 220 0
0.573478 0.042729 0.079239 255 220 0
0.523535 0.029672 0.015957 255 220 0
0.527685 0.022965 0.033464 255 220 0
0.584984 0.061515 0.086249 255 220 0
0.530835 0.044005 0.055917 255 220 0
0.543303 0.025085 0.059294 255 220 0
0.611896 0.090410 0.057178 255 220 0
0.574683 0.035864 0.075270 255 220 0
0.550781 0.014185 -0.010793 255 220 0
0.553667 0.072851 0.084069 255 220 0
0.599529 0.133076 0.086309 255 220 0
0.568696 0.052684 -0.006289 255 220 0
0.538666 0.090573 0.019677 255 220 0
0.590560 0.104675 0.036317 255 220 0
0.601005 0.133557 0.078030 255 220 0
0.538558 0.042767 -0.007113 255 220 0
0.601960 0.030443 0.022935 255 220 0
0.601655 0.028370 0.047337 255 220 0
0.610400 0.096783 0.057478 255 220 0
0.545306 0.069673 0.001404 255 220 0
0.527470 0.072028 0.050500 255 220 0
0.605775 0.090161 0.085720 255 220 0
0.598626 0.092908 0.090557 255 220 0
0.559007 0.014085 -0.011308 255 220 0
0.562529 -0.003588 0.031625 255 220 0
0.548966 0.006757 0.044679 255 220 0
0.533639 0.018061 -0.001907 255 220 0
0.541755 0.110721 0.063008 255 220 0
0.533774 0.078845 0.013787 255 220 0
0.565445 0.130730 0.090580 255 220 0
0.592646 0.130338 0.093486 255 220 0
0.583543 0.158434 0.075681 255 220 0
0.521988 0.062868 0.026530 255 220 0
0.555656 0.142361 0.074789 255 220 0
0.591731 0.114545 0.095410 255 220 0
0.582513 0.074671 0.091497 255 220 0
0.603932 0.037530 0.023838 255 220 0
0.528712 0.087025 0.040020 255 220 0
0.596786 0.019355 0.019600 255 220 0
0.551332 0.020645 -0.012121 255 220 0
0.556063 -0.007196 0.021894 255 220 0
0.603701 0.122065 0.085189 255 220 0
0.540633 0.059219 0.071490 255 220 0
0.570277 0.145642 0.051038 255 220 0
0.521838 0.052364 0.016069 255 220 0
0.577142 0.155907 0.082672 255 220 0
0.563916 0.111529 0.030114 255 220 0
0.536577 0.048590 0.064753 255 220 0
0.524130 0.038809 0.039674 255 220 0
0.594693 0.123818 0.052823 255 220 0
0.607537 0.040812 0.050606 255 220 0
0.540683 -0.000585 0.020841 255 220 0
0.546584 0.050579 -0.007844 255 220 0
0.607201 0.056431 0.030611 255 220 0
0.574821 0.022109 -0.009402 255 220 0
0.544189 0.029116 -0.010896 255 220 0
0.604347 0.103135 0.049288 255 220 0
0.526913 0.037052 0.002462 255 220 0
0.532313 0.066746 0.060830 255 220 0
0.603099 0.053256 0.073253 255 220 0
0.548771 0.001916 -0.004006 255 220 0
0.528448 0.063368 0.008367 255 220 0
0.523610 0.031570 0.012202 255 220 0
0.569951 0.116431 0.094462 255 220 0
0.573714 0.056806 -0.002695 255 220 0
0.555609 0.080481 0.006995 255 220 0
0.538302 0.059472 0.068979 255 220 0
0.543046 0.022423 0.056746 255 220 0
0.603557 0.078907 0.032630 255 220 0
0.612054 0.058836 0.044825 255 220 0
0.579655 0.140130 0.092340 255 220 0
0.538399 0.000681 0.016780 255 220 0
0.524214 0.040068 0.040814 255 220 0
0.539351 0.028663 0.058190 255 220 0
0.539293 0.030398 -0.008847 255 220 0
0.554624 0.040825 0.075232 255 220 0
0.597176 0.084620 0.028293 255 220 0
0.600205 0.116384 0.053762 255 220 0
0.596984 0.055112 0.013516 255 220 0
0.598461 0.021483 0.023640 255 220 0
0.535129 0.005628 0.008864 255 220 0
0.596997 0.018444 0.029471 255 220 0
0.597579 0.068281 0.084537 255 220 0
0.542879 0.037124 0.066404 255 220 0
0.551711 0.098623 0.020652 255 220 0
0.557431 0.100079 0.021175 255 220 0
0.554717 0.048648 0.078662 255 220 0
0.612882 0.076427 0.051881 255 220 0
0.522382 0.042889 0.035038 255 220 0
0.554296 0.126462 0.081240 255 220 0
0.565439 0.013573 -0.010215 255 220 0
0.562009 -0.001439 -0.002598 255 220 0
0.544373 0.086952 0.076145 255 220 0
0.581796 0.159688 0.066858 255 220 0
0.585888 0.092892 0.094946 255 220 0
0.528913 0.039615 0.051201 255 220 0
0.548561 0.062237 -0.003328 255 220 0
0.551508 0.078170 0.005613 255 220 0
0.588116 0.053435 0.004071 255 220 0
0.577958 0.010533 0.049482 255 220 0
0.605451 0.094167 0.044420 255 220 0
0.573887 -0.003066 0.026684 255 220 0
0.541724 0.073577 0.004981 255 220 0
0.582285 0.142239 0.052996 255 220 0
0.583194 0.157646 0.063716 255 220 0
0.540280 0.093975 0.068861 255 220 0
0.552033 0.001864 0.039124 255 220 0
0.555003 0.008808 0.050514 255 220 0
0.582113 0.005160 0.004582 255 220 0
0.578946 0.045455 0.080028 255 220 0
0.533469 0.026922 -0.004689 255 220 0
0.537705 0.055620 0.067678 255 220 0
0.611205 0.089325 0.078859 255 220 0
0.568818 0.042543 0.079216 255 220 0
0.523096 0.040755 0.036953 255 220 0
0.609601 0.105056 0.077698 255 220 0
0.607399 0.066155 0.033999 255 220 0
0.551440 0.134090 0.070614 255 220 0
0.577321 0.119497 0.096141 255 220 0
0.542278 0.002583 0.031289 255 220 0
0.557606 0.124656 0.041187 255 220 0
0.596989 0.138596 0.086197 255 220 0
0.588719 0.024768 0.060696 255 220 0
0.559945 0.063435 0.085322 255 220 0
0.569673 0.152985 0.055495 255 220 0
0.534284 0.050906 -0.002359 255 220 0
0.601989 0.073770 0.084299 255 220 0
0.543758 0.117072 0.061999 255 220 0
0.584960 0.124461 0.044890 255 220 0
0.606878 0.056360 0.029905 255 220 0
0.533455 0.072116 0.062177 255 220 0
0.545492 0.050465 -0.007615 255 220 0
0.570413 -0.005949 0.018868 255 220 0
0.573001 0.145132 0.089602 255 220 0
0.521226 0.043999 0.026711 255 220 0
0.586609 0.112389 0.038386 255 220 0
0.578359 0.112461 0.034009 255 220 0
0.572384 0.120038 0.037117 255 220 0
0.609868 0.089744 0.081220 255 220 0
0.588662 0.112719 0.040113 255 220 0
0.550919 0.106073 0.027432 255 220 0
0.601772 0.067902 0.024941 255 220 0
0.588123 0.033796 -0.001006 255 220 0
0.532776 0.035195 -0.004446 255 220 0
0.601667 0.126784 0.086810 255 220 0
0.562466 0.146587 0.053837 255 220 0
0.592194 0.038676 0.003675 255 220 0
0.566205 0.066213 0.087970 255 220 0
0.547055 0.022275 0.059895 255 220 0
0.547507 0.115940 0.041056 255 220 0
0.529676 0.067610 0.056021 255 220 0
0.580820 0.000768 0.026878 255 220 0
0.550149 0.088109 0.082388 255 220 0
0.603335 0.034753 0.053862 255 220 0
0.556062 0.142953 0.058072 255 220 0
0.587765 0.015340 0.002620 255 220 0
0.559906 0.108459 0.027696 255 220 0
0.583745 0.031391 0.069879 255 220 0
0.551260 -0.006789 0.008649 255 220 0
0.608774 0.109547 0.069301 255 220 0
0.571504 0.157612 0.059159 255 220 0
0.569857 0.108943 0.029068 255 220 0
0.582166 0.025680 0.065527 255 220 0
0.522635 0.064218 0.023459 255 220 0
0.587230 0.154250 0.064497 255 220 0
0.603653 0.029102 0.038398 255 220 0
0.537671 0.104166 0.044008 255 220 0
0.613065 0.065865 0.067751 255 220 0
0.596641 0.085159 0.028133 255 220 0
0.576053 0.097210 0.022570 255 220 0
0.609056 0.070809 0.077574 255 220 0
0.613422 0.059054 0.055561 255 220 0
0.532329 0.093238 0.048869 255 220 0
0.568070 0.094829 0.018557 255 220 0
0.554437 0.139851 0.057920 255 220 0
0.525308 0.032494 0.038136 255 220 0
0.573902 0.156800 0.058165 255 220 0
0.590940 0.014101 0.008623 255 220 0
0.555313 -0.001735 0.034132 255 220 0
0.544583 0.050590 0.072985 255 220 0
0.565227 0.058810 -0.004404 255 220 0
0.544806 0.112056 0.039674 255 220 0
0.603711 0.101609 0.088492 255 220 0
0.549785 0.095591 0.018595 255 220 0
0.542460 0.022330 0.056088 255 220 0
0.543558 0.012192 0.046610 255 220 0
0.540616 0.046169 0.068131 255 220 0
0.592652 0.017505 0.045345 255 220 0
0.543655 0.114485 0.046604 255 220 0
0.529048 0.087485 0.035235 255 220 0
0.566046 0.077980 0.006588 255 220 0
0.591442 0.018080 0.006040 255 220 0
0.547317 0.008318 0.045449 255 220 0
0.607142 0.049581 0.064924 255 220 0
0.547033 0.011268 -0.008615 255 220 0
0.532547 0.019572 0.040665 255 220 0
0.560296 0.153353 0.063123 255 220 0
0.560234 0.152158 0.075074 255 220 0
0.565376 0.000471 0.038957 255 220 0
0.557410 0.145559 0.058395 255 220 0
0.561272 0.006934 0.049152 255 220 0
0.544899 0.070058 0.001746 255 220 0
0.593565 0.071670 0.017379 255 220 0
0.541161 0.037740 0.065293 255 220 0
0.529880 0.084242 0.050876 255 220 0
0.571341 0.001675 0.039059 255 220 0
0.548660 0.010227 0.048898 255 220 0
0.532035 0.041745 0.056792 255 220 0
0.571465 0.008318 0.049346 255 220 0
0.607409 0.107718 0.083352 255 220 0
0.591393 0.122797 0.048876 255 220 0
0.603097 0.066451 0.080684 255 220 0
0.566564 0.100353 0.022206 255 220 0
0.557764 0.149349 0.072536 255 220 0
0.555261 0.059796 -0.005055 255 220 0
0.540095 0.071844 0.004605 255 220 0
0.567381 0.103486 0.093721 255 220 0
0.601500 0.129590 0.068353 255 220 0
0.607645 0.039405 0.035134 255 220 0
0.579448 0.094251 0.095758 255 220 0
0.547216 0.115416 0.073732 255 220 0
0.524461 0.072765 0.039996 255 220 0
0.539639 0.107942 0.057452 255 220 0
0.529118 0.086641 0.045108 255 220 0
0.606489 0.116451 0.068680 255 220 0
0.569528 0.086885 0.093317 255 220 0
0.533174 0.066350 0.062249 255 220 0
0.583902 0.042470 0.077269 255 220 0
0.547030 0.107280 0.030844 255 220 0
0.596098 0.056337 0.012854 255 220 0
0.548743 0.018399 -0.011197 255 220 0
0.533306 0.036783 -0.004748 255 220 0
0.601101 0.032033 0.019101 255 220 0
0.608727 0.105624 0.080746 255 220 0
0.579722 0.033044 0.072452 255 220 0
0.584728 0.094442 0.095377 255 220 0
0.593821 0.091090 0.092307 255 220 0
0.530271 0.025975 0.043648 255 220 0
0.608346 0.073266 0.038669 255 220 0
0.531314 0.011145 0.009413 255 220 0
0.533678 0.008340 0.024722 255 220 0
0.605732 0.120312 0.076834 255 220 0
0.558326 0.135374 0.048733 255 220 0
0.534057 0.093295 0.028874 255 220 0
0.612140 0.092628 0.075580 255 220 0
0.610681 0.069054 0.074648 255 220 0
0.540022 0.056840 -0.003266 255 220 0
0.573746 0.063863 0.000813 255 220 0
0.543789 0.064726 0.075389 255 220 0
0.577781 0.099125 0.024573 255 220 0
0.542989 -0.002228 0.007213 255 220 0
0.605165 0.073541 0.082186 255 220 0
0.550841 0.107199 0.081403 255 220 0
0.613598 0.068243 0.051906 255 220 0
0.535658 0.032207 0.056446 255 220 0
0.547204 0.125871 0.061765 255 220 0
0.597600 0.097656 0.091719 255 220 0
0.599078 0.075533 0.024987 255 220 0
0.538508 0.034438 -0.008313 255 220 0
0.553632 0.036057 -0.012247 255 220 0
0.541594 0.112886 0.057187 255 220 0
0.612230 0.053940 0.050078 255 220 0
0.538731 0.004238 0.003346 255 220 0
0.593207 0.053184 0.079501 255 220 0
0.552178 0.085682 0.084131 255 220 0
0.608595 0.106974 0.062988 255 220 0
0.571272 0.128529 0.093642 255 220 0
0.600141 0.123903 0.090486 255 220 0
0.603853 0.032052 0.047954 255 220 0
0.601375 0.106537 0.090557 255 220 0
0.613712 0.082506 0.059035 255 220 0
0.549101 0.130407 0.063538 255 220 0
0.561409 0.120379 0.036821 255 220 0
0.543797 0.107928 0.034956 255 220 0
0.596089 0.129619 0.092210 255 220 0
0.539948 0.105151 0.037314 255 220 0
0.587879 0.021613 -0.000015 255 220 0
0.557974 0.147504 0.059563 255 220 0
0.605353 0.051612 0.025821 255 220 0
0.595560 0.142798 0.083968 255 220 0
0.525551 0.031290 0.037639 255 220 0
0.612843 0.092316 0.071699 255 220 0
0.552409 0.008384 -0.009156 255 220 0
0.590411 0.077147 0.090363 255 220 0
0.606915 0.046016 0.029006 255 220 0
0.541563 0.024909 0.057487 255 220 0
0.575281 0.026829 0.068673 255 220 0
0.528071 0.066093 0.010773 255 220 0
0.589686 0.117772 0.095835 255 220 0
0.557356 -0.000628 -0.003856 255 220 0
0.562656 0.122326 0.090298 255 220 0
0.559566 0.125454 0.040916 255 220 0
0.581861 0.030045 0.069515 255 220 0
0.561435 0.071997 0.002017 255 220 0
0.523794 0.052017 0.043410 255 220 0
0.527922 0.062915 0.053109 255 220 0
0.526857 0.020085 0.010000 255 220 0
0.611628 0.095262 0.061161 255 220 0
0.535929 0.028159 -0.006747 255 220 0
0.570688 0.158716 0.077832 255 220 0
0.586985 0.005113 0.020674 255 220 0
0.536363 0.040328 0.061681 255 220 0
0.546012 0.027781 0.063273 255 220 0
0.535787 0.013309 0.038092 255 220 0
0.525377 0.066333 0.016015 255 220 0
0.543441 0.005613 -0.003344 255 220 0
0.566005 0.093565 0.092758 255 220 0
0.569147 0.149723 0.085816 255 220 0
0.608067 0.042944 0.033508 255 220 0
0.599535 0.022362 0.029778 255 220 0
0.552392 0.088335 0.084363 255 220 0
0.560535 0.024072 -0.012841 255 220 0
0.555210 0.015908 -0.011767 255 220 0
0.567522 0.142691 0.088221 255 220 0
0.613928 0.082002 0.070722 255 220 0
0.558980 0.043841 -0.010798 255 220 0
0.577563 0.134498 0.046857 255 220 0
0.523897 0.070789 0.026729 255 220 0
0.540839 0.078971 0.072311 255 220 0
0.548860 0.027174 0.064492 255 220 0
0.538615 0.029522 0.058026 255 220 0
0.599239 0.064660 0.082147 255 220 0
0.607625 0.110302 0.081545 255 220 0
0.608492 0.040334 0.042251 255 220 0
0.601483 0.032800 0.019689 255 220 0
0.554989 0.046811 -0.010039 255 220 0
0.535060 0.007178 0.026246 255 220 0
0.610922 0.075218 0.045494 255 220 0
0.554314 0.032833 -0.012666 255 220 0
0.601092 0.132221 0.071101 255 220 0
0.570054 0.006437 0.047142 255 220 0
0.608407 0.094464 0.050072 255 220 0
0.587574 0.147258 0.059273 255 220 0
0.594549 0.145773 0.068044 255 220 0
0.533169 0.082794 0.017880 255 220 0
0.589377 0.036456 0.071072 255 220 0
0.581018 0.001721 0.029498 255 220 0
0.545794 0.047402 0.072850 255 220 0
0.571761 0.146726 0.088513 255 220 0
0.551489 0.003711 0.041888 255 220 0
0.521699 0.054022 0.035229 255 220 0
0.605775 0.063807 0.029983 255 220 0
0.570104 0.144179 0.088929 255 220 0
0.576190 0.035725 0.074988 255 220 0
0.535066 0.004921 0.011553 255 220 0
0.578226 -0.000152 0.029093 255 220 0
0.600608 0.063800 0.021585 255 220 0
0.609716 0.092668 0.081482 255 220 0
0.553094 -0.003770 0.000913 255 220 0
0.560161 0.052056 -0.008091 255 220 0
0.560696 0.154931 0.066132 255 220 0
0.544585 -0.002182 0.024489 255 220 0
0.608680 0.050991 0.033277 255 220 0
0.597852 0.140904 0.077824 255 220 0
0.603384 0.125667 0.082345 255 220 0
0.539622 0.008200 0.036720 255 220 0
0.602244 0.121674 0.061348 255 220 0
0.573569 0.001184 0.000519 255 220 0
0.575728 0.030908 0.071776 255 220 0
0.567842 0.109622 0.093900 255 220 0
0.610353 0.061831 0.039648 255 220 0
0.595524 0.040726 0.008053 255 220 0
0.570396 0.059820 0.086560 255 220 0
0.532597 0.074556 0.060288 255 220 0
0.603149 0.097251 0.088542 255 220 0
0.576760 0.013055 0.053680 255 220 0
0.593559 0.148894 0.071073 255 220 0
0.527997 0.067353 0.052713 255 220 0
0.522868 0.047147 0.011229 255 220 0
0.550624 0.081037 0.082715 255 220 0
0.575550 0.117718 0.095972 255 220 0
0.566020 0.024030 0.067043 255 220 0
0.589484 0.034497 0.000375 255 220 0
0.584194 0.088134 0.020625 255 220 0
0.593880 0.145343 0.066058 255 220 0
0.570781 0.117662 0.094683 255 220 0
0.590694 0.009843 0.016977 255 220 0
0.610485 0.097957 0.059091 255 220 0
0.576854 0.075796 0.092202 255 220 0
0.551136 0.135467 0.064102 255 220 0
0.551815 0.128081 0.049415 255 220 0
0.538145 0.084907 0.015070 255 220 0
0.613093 0.089579 0.072678 255 220 0
0.521404 0.055716 0.033013 255 220 0
0.545092 0.108685 0.034366 255 220 0
0.593212 0.128532 0.093717 255 220 0
0.595861 0.144229 0.069797 255 220 0
0.560566 -0.003667 0.031501 255 220 0
0.595851 0.137146 0.063126 255 220 0
0.536874 0.038268 0.061331 255 220 0
0.537837 0.003274 0.006506 255 220 0
0.523332 0.070367 0.032873 255 220 0
0.554472 0.129465 0.047457 255 220 0
0.553378 0.140779 0.068075 255 220 0
0.568864 0.155952 0.058094 255 220 0
0.554204 -0.006606 0.022838 255 220 0
0.595465 0.076778 0.088447 255 220 0
0.603125 0.051555 0.021670 255 220 0
0.561217 -0.007440 0.008329 255 220 0
0.590484 0.078709 0.019150 255 220 0
0.574249 0.008041 0.047805 255 220 0
0.569399 0.089992 0.093659 255 220 0
0.567093 0.076744 0.090901 255 220 0
0.601403 0.130499 0.069347 255 220 0
0.607776 0.046622 0.059399 255 220 0
0.568979 0.009560 -0.007696 255 220 0
0.574401 0.112099 0.095934 255 220 0
0.531767 0.089497 0.051981 255 220 0
0.534111 0.049853 0.062108 255 220 0
0.580335 0.077233 0.011628 255 220 0
0.525522 0.069511 0.046146 255 220 0
0.521263 0.047789 0.018059 255 220 0
0.551144 0.106673 0.027902 255 220 0
0.533675 0.050963 0.061787 255 220 0
0.524551 0.032480 0.034990 255 220 0
0.601846 0.046516 0.018580 255 220 0
0.557184 0.102979 0.023469 255 220 0
0.526048 0.026931 0.033419 255 220 0
0.554042 0.005260 0.045446 255 220 0
0.564818 0.079269 0.090609 255 220 0
0.542311 0.019311 0.052995 255 220 0
0.526598 0.036881 0.045382 255 220 0
0.596977 0.022975 0.014317 255 220 0
0.564289 0.048470 -0.008855 255 220 0
0.582836 0.022796 -0.004819 255 220 0
0.560674 0.053620 0.082632 255 220 0
0.586384 0.153836 0.062698 255 220 0
0.559951 0.025018 -0.012926 255 220 0
0.599567 0.114555 0.092030 255 220 0
0.547612 0.124860 0.054299 255 220 0
0.607899 0.050374 0.031242 255 220 0
0.589283 0.038950 0.072921 255 220 0
0.563174 0.022200 0.065303 255 220 0
0.553722 0.017373 0.059156 255 220 0
0.595620 0.020092 0.044786 255 220 0
0.557904 0.078182 0.005563 255 220 0
0.603578 0.126601 0.074680 255 220 0
0.555889 0.097168 0.018973 255 220 0
0.574775 0.000473 0.034618 255 220 0
0.589512 0.060291 0.008299 255 220 0
0.588719 0.039391 0.073502 255 220 0
0.554192 0.005994 0.046544 255 220 0
0.591039 0.027094 0.061447 255 220 0
0.614528 0.070803 0.058125 255 220 0
0.584634 0.046909 -0.001055 255 220 0
0.546755 0.104074 0.076611 255 220 0
0.554756 0.030256 0.069116 255 220 0
0.540395 0.079943 0.071622 255 220 0
0.549745 0.004112 -0.006138 255 220 0
0.547369 0.057787 -0.005198 255 220 0
0.542409 0.102030 0.028682 255 220 0
0.537400 0.036868 0.061227 255 220 0
0.523842 0.037344 0.037406 255 220 0
0.583084 0.068556 0.089392 255 220 0
0.593147 0.014337 0.014702 255 220 0
0.543809 0.046660 0.071048 255 220 0
0.543334 0.052202 0.072440 255 220 0
0.594868 0.015489 0.021508 255 220 0
0.555481 0.100350 0.086714 255 220 0
0.596571 0.018284 0.034478 255 220 0
0.601986 0.117173 0.089840 255 220 0
0.545769 0.034132 -0.011156 255 220 0
0.595414 0.058646 0.081220 255 220 0
0.583920 0.035192 0.072666 255 220 0
0.531531 0.010235 0.020648 255 220 0
0.585812 0.155005 0.063298 255 220 0
0.543731 0.108545 0.069951 255 220 0
0.527747 0.048583 0.052065 255 220 0
0.528869 0.028670 0.000105 255 220 0
0.571414 0.016561 0.059632 255 220 0
0.585448 0.075402 0.091176 255 220 0
0.546328 0.000520 -0.001081 255 220 0
0.556343 0.120564 0.038531 255 220 0
0.607601 0.054593 0.031074 255 220 0
0.528171 0.051454 0.003124 255 220 0
0.533480 0.009367 0.006202 255 220 0
0.585963 0.151462 0.060156 255 220 0
0.610217 0.072407 0.076831 255 220 0
0.524434 0.026253 0.021258 255 220 0
0.564040 0.048869 -0.008759 255 220 0
0.575940 0.029374 -0.009484 255 220 0
0.587851 0.113277 0.039849 255 220 0
0.613479 0.089380 0.066750 255 220 0
0.603211 0.087383 0.036859 255 220 0
0.604425 0.065247 0.028082 255 220 0
0.583868 0.155326 0.061288 255 220 0
0.598113 0.096304 0.037091 255 220 0
0.581439 0.149484 0.055644 255 220 0
0.612638 0.092247 0.063116 255 220 0
0.605067 0.052442 0.025401 255 220 0
0.601043 0.127870 0.064959 255 220 0
0.605373 0.088496 0.040690 255 220 0
0.573408 0.150921 0.054034 255 220 0
