ply
format ascii 1.0
element vertex 1024
property float x
property float y
property float z
property uchar red
property uchar green
property uchar blue
end_header
0.574853 0.059726 0.087104 255 220 0
0.535743 0.059330 0.031174 255 220 0
0.620238 0.032733 0.046126 255 220 0
0.575132 0.003702 0.051538 255 220 0
0.614702 0.060178 0.024051 255 220 0
0.564374 0.060281 -0.001517 255 220 0
0.580546 0.048745 0.084577 255 220 0
0.586501 0.130941 0.094041 255 220 0
0.620942 0.065264 0.078237 255 220 0
0.597075 0.047390 0.001183 255 220 0
0.573323 0.004867 0.052841 255 220 0
0.595362 0.002340 0.003143 255 220 0
0.585621 0.063389 0.003000 255 220 0
0.583967 0.041696 0.081799 255 220 0
0.610615 0.027071 0.060615 255 220 0
0.541757 0.083296 0.041428 255 220 0
0.552732 0.010947 -0.002666 255 220 0
0.587352 0.089890 0.096223 255 220 0
0.544156 0.085230 0.052036 255 220 0
0.577502 0.026302 0.072670 255 220 0
0.582160 0.018399 0.066780 255 220 0
0.586639 0.044045 0.082807 255 220 0
0.535613 0.047170 0.019311 255 220 0
0.569084 0.000471 -0.005684 255 220 0
0.566802 0.063584 -0.000003 255 220 0
0.568770 0.057699 -0.003041 255 220 0
0.598275 0.133054 0.053556 255 220 0
0.619193 0.035374 0.029167 255 220 0
0.582880 0.010952 -0.008258 255 220 0
0.580011 0.150113 0.054888 255 220 0
0.622872 0.041143 0.048372 255 220 0
0.604436 0.139327 0.087753 255 220 0
0.625071 0.082039 0.059268 255 220 0
0.581833 0.153485 0.057212 255 220 0
0.563933 0.076796 0.084497 255 220 0
0.593367 -0.005416 0.026596 255 220 0
0.596415 0.098070 0.030031 255 220 0
0.559488 0.031249 0.068744 255 220 0
0.603961 0.137681 0.089610 255 220 0
0.625254 0.084330 0.062987 255 220 0
0.567960 0.104268 0.027800 255 220 0
0.612527 0.124774 0.085708 255 220 0
0.620093 0.036520 0.031554 255 220 0
0.616512 0.033643 0.022091 255 220 0
0.568540 0.137249 0.080647 255 220 0
0.598249 0.088230 0.024627 255 220 0
0.575371 0.024006 0.070685 255 220 0
0.620603 0.033024 0.039356 255 220 0
0.559851 0.054160 0.077900 255 220 0
0.564189 -0.001968 -0.002401 255 220 0
0.622428 0.062857 0.040427 255 220 0
0.599215 0.118193 0.096464 255 220 0
0.569542 0.040138 0.078509 255 220 0
0.559326 0.072537 0.080242 255 220 0
0.569365 0.030898 0.073543 255 220 0
0.539848 0.076137 0.043600 255 220 0
0.611632 0.015992 0.036975 255 220 0
0.556331 -0.001273 0.032002 255 220 0
0.567617 0.077613 0.008348 255 220 0
0.555883 0.046815 -0.004961 255 220 0
0.623101 0.081508 0.051330 255 220 0
0.550221 0.005799 0.033907 255 220 0
0.579916 0.134307 0.091205 255 220 0
0.593352 0.017253 0.063225 255 220 0
0.604023 0.003920 0.017890 255 220 0
0.603656 0.143797 0.083295 255 220 0
0.547795 0.029384 0.056086 255 220 0
0.601285 0.102909 0.036895 255 220 0
0.608998 0.034326 0.069139 255 220 0
0.623795 0.079431 0.052179 255 220 0
0.613826 0.022353 0.048032 255 220 0
0.593744 0.117704 0.041358 255 220 0
0.621971 0.092717 0.056730 255 220 0
0.615523 0.120036 0.072564 255 220 0
0.581282 0.033260 0.077404 255 220 0
0.606079 0.131569 0.060918 255 220 0
0.554648 0.010253 0.046621 255 220 0
0.590087 0.035963 0.078489 255 220 0
0.624426 0.062802 0.046320 255 220 0
0.553763 0.094270 0.071122 255 220 0
0.564769 0.126052 0.080068 255 220 0
0.540599 0.066123 0.051416 255 220 0
0.610011 0.036542 0.009966 255 220 0
0.598845 0.056880 0.086523 255 220 0
0.556282 0.104451 0.035017 255 220 0
0.610228 0.071250 0.023685 255 220 0
0.553068 0.008527 -0.001529 255 220 0
0.614099 0.114847 0.088660 255 220 0
0.582924 0.067785 0.091362 255 220 0
0.578660 0.095599 0.094329 255 220 0
0.623069 0.045238 0.055513 255 220 0
0.564161 0.110438 0.034594 255 220 0
0.567936 0.000426 0.045445 255 220 0
0.603101 0.097591 0.034718 255 220 0
0.555800 0.003386 0.039099 255 220 0
0.565153 0.043437 -0.008202 255 220 0
0.611894 0.034447 0.012666 255 220 0
0.591975 -0.000421 0.040144 255 220 0
0.596062 0.105510 0.034870 255 220 0
0.603074 0.020674 0.061034 255 220 0
0.583592 0.023179 0.070649 255 220 0
0.551575 -0.000839 0.013225 255 220 0
0.606923 0.023747 0.005662 255 220 0
0.576180 -0.000752 0.045348 255 220 0
0.611611 0.024164 0.013239 255 220 0
0.583869 0.099458 0.025628 255 220 0
0.600568 0.007146 0.004934 255 220 0
0.613384 0.035909 0.065909 255 220 0
0.602409 0.046708 0.004564 255 220 0
0.603188 0.031811 0.071324 255 220 0
0.537101 0.043379 0.012778 255 220 0
0.613553 0.020496 0.022291 255 220 0
0.560017 0.054520 0.078115 255 220 0
0.545877 0.036468 0.057452 255 220 0
0.598963 0.051826 0.004466 255 220 0
0.560432 0.049433 0.077019 255 220 0
0.596028 0.011080 -0.001848 255 220 0
0.546205 0.086140 0.057625 255 220 0
0.611677 0.058229 0.018898 255 220 0
0.538744 0.072930 0.041204 255 220 0
0.547542 0.088186 0.026532 255 220 0
0.554358 0.002757 0.036091 255 220 0
0.602244 0.108782 0.041658 255 220 0
0.600355 0.061357 0.087878 255 220 0
0.589300 0.082401 0.016004 255 220 0
0.593714 0.045679 -0.001595 255 220 0
0.624099 0.048065 0.055367 255 220 0
0.595066 0.114720 0.040226 255 220 0
0.598127 0.144607 0.088606 255 220 0
0.573993 0.051788 0.084457 255 220 0
0.575433 0.007459 0.056076 255 220 0
0.557635 0.061365 0.077480 255 220 0
0.585213 0.122557 0.095393 255 220 0
0.554207 -0.003295 0.011175 255 220 0
0.624450 0.051927 0.060892 255 220 0
0.540432 0.018853 0.023960 255 220 0
0.570114 0.151347 0.069217 255 220 0
0.565755 0.075949 0.085743 255 220 0
0.576747 0.065764 0.089317 255 220 0
0.544851 0.023587 0.000260 255 220 0
0.604893 0.015963 0.053179 255 220 0
0.566752 0.044082 -0.008181 255 220 0
0.567443 0.094200 0.087830 255 220 0
0.626074 0.059300 0.053019 255 220 0
0.564061 0.087538 0.015433 255 220 0
0.538449 0.031162 0.038176 255 220 0
0.547395 0.008190 0.006226 255 220 0
0.591021 -0.006078 0.010218 255 220 0
0.607198 0.009691 0.015045 255 220 0
0.579315 0.118359 0.037404 255 220 0
0.625715 0.082764 0.069932 255 220 0
0.567634 0.142196 0.075966 255 220 0
0.544671 0.027910 -0.000149 255 220 0
0.555636 0.014755 0.052791 255 220 0
0.613497 0.079966 0.032617 255 220 0
0.557247 -0.003980 0.027727 255 220 0
0.582024 0.020644 0.068689 255 220 0
0.548966 0.069880 0.067259 255 220 0
0.538642 0.026404 0.013270 255 220 0
0.559072 0.124489 0.059476 255 220 0
0.595345 0.133193 0.051357 255 220 0
0.569694 0.126679 0.044356 255 220 0
0.602664 0.036428 0.074852 255 220 0
0.605438 0.012833 0.047128 255 220 0
0.561097 0.010241 0.053381 255 220 0
0.592202 0.131336 0.048381 255 220 0
0.568391 0.001466 -0.006134 255 220 0
0.614390 0.101267 0.089983 255 220 0
0.598621 0.103201 0.096799 255 220 0
0.596885 0.050967 0.002702 255 220 0
0.590348 0.116270 0.096950 255 220 0
0.581671 0.048906 0.084744 255 220 0
0.621060 0.043448 0.032344 255 220 0
0.587202 0.069133 0.006870 255 220 0
0.589951 0.158220 0.069539 255 220 0
0.594327 0.062703 0.006898 255 220 0
0.609167 0.091258 0.035634 255 220 0
0.585551 -0.009816 0.022782 255 220 0
0.590271 0.102122 0.029608 255 220 0
0.570958 0.109410 0.031421 255 220 0
0.580374 0.154987 0.078812 255 220 0
0.602958 0.009500 0.044885 255 220 0
0.571373 0.114914 0.035587 255 220 0
0.572766 0.041520 0.080179 255 220 0
0.580292 0.043435 -0.007461 255 220 0
0.600393 0.040564 0.000733 255 220 0
0.596189 0.010997 0.054302 255 220 0
0.539647 0.049489 0.050082 255 220 0
0.586847 0.101731 0.028087 255 220 0
0.583420 -0.009721 0.026103 255 220 0
0.615405 0.022645 0.028487 255 220 0
0.565775 -0.007532 0.030147 255 220 0
0.585527 0.044023 -0.005875 255 220 0
0.582316 0.003996 0.051266 255 220 0
0.598104 0.060661 0.088204 255 220 0
0.566725 0.111482 0.085945 255 220 0
0.607176 0.010229 0.013954 255 220 0
0.556057 0.094214 0.023821 255 220 0
0.600166 0.118064 0.045876 255 220 0
0.618937 0.051875 0.072668 255 220 0
0.579140 0.054198 0.086393 255 220 0
0.598338 0.020522 0.064113 255 220 0
0.537901 0.067545 0.026568 255 220 0
0.586326 0.043588 0.082612 255 220 0
0.549057 0.055208 0.067060 255 220 0
0.606335 0.070729 0.019798 255 220 0
0.605764 0.088789 0.030820 255 220 0
0.606930 0.007818 0.027281 255 220 0
0.599849 -0.000912 0.023393 255 220 0
0.541600 0.015104 0.019460 255 220 0
0.557350 0.118555 0.054058 255 220 0
0.624081 0.062160 0.044949 255 220 0
0.596935 -0.003686 0.019850 255 220 0
0.556130 0.027263 0.063993 255 220 0
0.580544 -0.005780 0.000478 255 220 0
0.619186 0.037760 0.028148 255 220 0
0.538645 0.045928 0.009480 255 220 0
0.556180 0.007059 0.044543 255 220 0
0.592683 0.008232 0.052835 255 220 0
0.545870 0.071911 0.061634 255 220 0
0.558681 0.111124 0.040309 255 220 0
0.576064 0.134508 0.089076 255 220 0
0.566053 0.084285 0.086559 255 220 0
0.577768 0.091383 0.018613 255 220 0
0.616070 0.070335 0.084341 255 220 0
0.581622 0.018653 -0.010169 255 220 0
0.617361 0.031769 0.025259 255 220 0
0.582808 0.158727 0.066141 255 220 0
0.589446 0.123058 0.096051 255 220 0
0.570851 0.087071 0.089974 255 220 0
0.573158 0.100713 0.091680 255 220 0
0.561926 0.127727 0.054213 255 220 0
0.536731 0.063909 0.028138 255 220 0
0.593385 0.156549 0.072664 255 220 0
0.575917 0.070970 0.004812 255 220 0
0.578903 -0.011275 0.010274 255 220 0
0.547987 0.068412 0.065829 255 220 0
0.610265 0.106816 0.048036 255 220 0
0.549611 0.048859 -0.001229 255 220 0
0.573477 0.089471 0.091598 255 220 0
0.622421 0.046916 0.036226 255 220 0
0.589592 0.116862 0.038961 255 220 0
0.615472 0.106460 0.054473 255 220 0
0.552397 0.088903 0.021542 255 220 0
0.564104 0.078531 0.009200 255 220 0
0.585719 0.057873 0.000167 255 220 0
0.603062 0.106280 0.095858 255 220 0
0.599527 0.000546 0.031249 255 220 0
0.573322 0.048191 -0.006834 255 220 0
0.619869 0.034636 0.051628 255 220 0
0.607826 0.106055 0.044994 255 220 0
0.598733 0.028381 0.071021 255 220 0
0.587530 -0.009296 0.016455 255 220 0
0.618343 0.078273 0.084861 255 220 0
0.603307 0.145988 0.079385 255 220 0
0.546004 0.049356 0.061784 255 220 0
0.561520 0.130962 0.060961 255 220 0
0.617955 0.083683 0.041295 255 220 0
0.612528 0.030479 0.061784 255 220 0
0.569302 0.138477 0.081072 255 220 0
0.560821 0.015553 0.058583 255 220 0
0.625162 0.078473 0.056685 255 220 0
0.615306 0.056319 0.078801 255 220 0
0.618393 0.054631 0.028296 255 220 0
0.591540 0.132549 0.048655 255 220 0
0.556036 0.064053 0.076285 255 220 0
0.573203 0.052348 0.084417 255 220 0
0.589763 0.157490 0.064666 255 220 0
0.590191 0.037768 -0.006110 255 220 0
0.615069 0.028822 0.019958 255 220 0
0.621955 0.052468 0.035656 255 220 0
0.560730 0.076286 0.008289 255 220 0
0.552905 0.062092 0.072684 255 220 0
0.619625 0.048365 0.029145 255 220 0
0.562010 0.096145 0.082662 255 220 0
0.541713 0.057082 0.054956 255 220 0
0.617308 0.076884 0.085350 255 220 0
0.536780 0.045214 0.040859 255 220 0
0.560469 0.128507 0.065468 255 220 0
0.597989 0.074617 0.016018 255 220 0
0.539951 0.020689 0.026138 255 220 0
0.626484 0.073305 0.060251 255 220 0
0.588266 0.072097 0.009086 255 220 0
0.557867 0.004312 0.042913 255 220 0
0.562588 -0.008262 0.025266 255 220 0
0.591914 0.090241 0.096452 255 220 0
0.542337 0.032394 0.002705 255 220 0
0.589077 0.082367 0.095306 255 220 0
0.536963 0.061255 0.023264 255 220 0
0.614890 0.021224 0.039296 255 220 0
0.612081 0.016015 0.032236 255 220 0
0.577357 0.037515 -0.009525 255 220 0
0.540258 0.021518 0.030685 255 220 0
0.610320 0.028969 0.062962 255 220 0
0.550794 0.029124 0.059798 255 220 0
0.606679 0.032269 0.005184 255 220 0
0.544392 0.045073 0.001685 255 220 0
0.544312 0.009666 0.020598 255 220 0
0.606344 0.007117 0.027919 255 220 0
0.608261 0.093237 0.092863 255 220 0
0.537072 0.049898 0.014429 255 220 0
0.553476 0.086359 0.018526 255 220 0
0.604125 0.131617 0.058519 255 220 0
0.548380 0.067701 0.008536 255 220 0
0.543287 0.075110 0.019893 255 220 0
0.609889 0.014162 0.038864 255 220 0
0.569561 -0.011447 0.009954 255 220 0
0.583582 0.136739 0.091772 255 220 0
0.593314 0.072683 0.092980 255 220 0
0.618962 0.080469 0.041135 255 220 0
0.561718 0.106501 0.080875 255 220 0
0.592846 0.066519 0.091197 255 220 0
0.590585 0.090040 0.021562 255 220 0
0.549873 0.101406 0.050182 255 220 0
0.578286 0.011304 -0.009400 255 220 0
0.610741 0.016166 0.041992 255 220 0
0.605873 0.048529 0.008308 255 220 0
0.535852 0.057359 0.036198 255 220 0
0.622068 0.059212 0.038084 255 220 0
0.574489 0.103730 0.027011 255 220 0
0.582025 0.023068 -0.010363 255 220 0
0.540199 0.035282 0.046952 255 220 0
0.588300 0.045465 0.083353 255 220 0
0.565970 0.062737 -0.000407 255 220 0
0.547880 0.067317 0.065728 255 220 0
0.592784 0.059019 0.088524 255 220 0
0.615777 0.060281 0.080439 255 220 0
0.609617 0.011825 0.023237 255 220 0
0.613255 0.018958 0.024056 255 220 0
0.611336 0.032726 0.065425 255 220 0
0.567947 -0.011729 0.019720 255 220 0
0.536535 0.040454 0.037595 255 220 0
0.563048 -0.010228 0.018637 255 220 0
0.594931 0.084760 0.020333 255 220 0
0.568371 0.120987 0.041131 255 220 0
0.587390 0.146213 0.088628 255 220 0
0.550357 0.063696 0.069538 255 220 0
0.593552 0.091631 0.024053 255 220 0
0.556228 0.072716 0.007352 255 220 0
0.539640 0.067010 0.048671 255 220 0
0.565517 0.141445 0.062702 255 220 0
0.575453 0.125159 0.041445 255 220 0
0.623639 0.047414 0.056697 255 220 0
0.606874 0.008851 0.015645 255 220 0
0.620422 0.032749 0.038248 255 220 0
0.614681 0.110760 0.056916 255 220 0
0.585749 0.110991 0.096564 255 220 0
0.542673 0.012873 0.020595 255 220 0
0.540967 0.038379 0.050156 255 220 0
0.624998 0.084834 0.061847 255 220 0
0.586953 0.129072 0.094555 255 220 0
0.551740 0.045883 0.068175 255 220 0
0.609791 0.079228 0.028037 255 220 0
0.583531 0.124444 0.094664 255 220 0
0.622019 0.048855 0.035113 255 220 0
0.592223 0.093595 0.024686 255 220 0
0.568442 0.095046 0.020547 255 220 0
0.553347 0.084004 0.016677 255 220 0
0.606171 0.100444 0.094401 255 220 0
0.593776 0.111060 0.097407 255 220 0
0.541548 0.082826 0.040077 255 220 0
0.588203 0.158064 0.064921 255 220 0
0.546684 0.041298 0.060577 255 220 0
0.598165 0.083689 0.021668 255 220 0
0.575065 0.074210 0.006703 255 220 0
0.567789 0.132828 0.081736 255 220 0
0.551138 0.000526 0.024345 255 220 0
0.558881 0.001847 0.040579 255 220 0
0.558799 0.014185 -0.007719 255 220 0
0.574062 0.103646 0.026931 255 220 0
0.560714 0.105629 0.032054 255 220 0
0.592798 -0.006100 0.014345 255 220 0
0.616123 0.028673 0.053350 255 220 0
0.568518 0.146565 0.073675 255 220 0
0.537810 0.026989 0.023178 255 220 0
0.568801 -0.009271 0.028164 255 220 0
0.557567 0.056305 0.076520 255 220 0
0.539621 0.064729 0.049166 255 220 0
0.590029 0.112972 0.097167 255 220 0
0.581384 0.148481 0.085762 255 220 0
0.558635 -0.006647 0.009189 255 220 0
0.613411 0.122829 0.067081 255 220 0
0.538550 0.028437 0.012022 255 220 0
0.577133 0.018483 0.066729 255 220 0
0.565273 0.139037 0.059673 255 220 0
0.564489 0.078733 0.009291 255 220 0
0.605288 0.111027 0.045954 255 220 0
0.601737 0.110307 0.096332 255 220 0
0.583315 0.034254 0.078006 255 220 0
0.574173 -0.003661 -0.002990 255 220 0
0.547783 0.054712 0.065232 255 220 0
0.603420 0.140404 0.063091 255 220 0
0.608353 0.016759 0.049363 255 220 0
0.541521 0.038021 0.051094 255 220 0
0.559044 0.085557 0.079995 255 220 0
0.598508 0.129380 0.051608 255 220 0
0.572442 0.089606 0.016653 255 220 0
0.570914 0.055073 0.084455 255 220 0
0.575927 0.137265 0.088035 255 220 0
0.555992 0.096899 0.026529 255 220 0
0.566193 0.136650 0.055180 255 220 0
0.550312 0.099962 0.059514 255 220 0
0.548624 0.094463 0.058837 255 220 0
0.556116 0.101972 0.032105 255 220 0
0.585207 0.007657 0.055221 255 220 0
0.594459 0.056773 0.003946 255 220 0
0.624582 0.048601 0.047278 255 220 0
0.556483 0.100396 0.074289 255 220 0
0.613849 0.069109 0.026947 255 220 0
0.535892 0.036437 0.024234 255 220 0
0.598906 0.009668 0.001360 255 220 0
0.591672 0.075003 0.012466 255 220 0
0.616588 0.037739 0.062956 255 220 0
0.626592 0.067788 0.057768 255 220 0
0.544829 0.050984 0.002927 255 220 0
0.623246 0.041931 0.045535 255 220 0
0.610739 0.130686 0.083735 255 220 0
0.562688 0.134648 0.063486 255 220 0
0.613674 0.023662 0.018917 255 220 0
0.582950 0.042490 0.082140 255 220 0
0.570565 0.042858 0.080074 255 220 0
0.549339 0.008784 0.037002 255 220 0
0.624619 0.058740 0.045774 255 220 0
0.557956 0.097732 0.025971 255 220 0
0.542880 0.062432 0.057033 255 220 0
0.596482 0.151520 0.062645 255 220 0
0.614686 0.117169 0.063439 255 220 0
0.589342 -0.008235 0.023080 255 220 0
0.582837 0.071497 0.006735 255 220 0
0.550199 0.001863 0.025053 255 220 0
0.581739 0.124140 0.040977 255 220 0
0.587491 0.101403 0.028069 255 220 0
0.593478 0.131523 0.094393 255 220 0
0.615218 0.042471 0.069487 255 220 0
0.588442 0.031940 -0.008004 255 220 0
0.565688 0.112824 0.035943 255 220 0
0.578021 0.120985 0.093030 255 220 0
0.599304 0.024406 0.067356 255 220 0
0.594092 -0.004327 0.028836 255 220 0
0.565529 0.028381 0.070401 255 220 0
0.611494 0.014895 0.028933 255 220 0
0.572951 0.082526 0.090756 255 220 0
0.565174 -0.011229 0.015304 255 220 0
0.558207 0.122572 0.061629 255 220 0
0.623152 0.069499 0.045171 255 220 0
0.569010 0.047117 0.081154 255 220 0
0.574491 0.070146 0.004113 255 220 0
0.541680 0.068405 0.016951 255 220 0
0.626675 0.069718 0.066940 255 220 0
0.577308 0.010956 -0.009468 255 220 0
0.620815 0.065606 0.037610 255 220 0
0.546678 0.059229 0.005025 255 220 0
0.554676 0.006633 -0.001747 255 220 0
0.581781 0.073795 0.092663 255 220 0
0.622463 0.064584 0.041209 255 220 0
0.584539 0.062018 0.001874 255 220 0
0.560463 -0.003961 0.032362 255 220 0
0.617408 0.075402 0.084916 255 220 0
0.622402 0.051143 0.066337 255 220 0
0.589564 0.140795 0.051650 255 220 0
0.566047 0.143507 0.065162 255 220 0
0.578903 0.013373 0.062307 255 220 0
0.595210 0.091349 0.024780 255 220 0
0.608340 0.087028 0.031873 255 220 0
0.613949 0.034947 0.064267 255 220 0
0.541980 0.069728 0.053909 255 220 0
0.611041 0.015033 0.036239 255 220 0
0.609131 0.027898 0.008374 255 220 0
0.556459 0.039815 -0.007024 255 220 0
0.611424 0.050414 0.078194 255 220 0
0.591750 0.139098 0.091939 255 220 0
0.564918 0.127882 0.049364 255 220 0
0.542415 0.033237 0.050279 255 220 0
0.586924 0.057474 0.088269 255 220 0
0.549505 0.005470 0.005648 255 220 0
0.594556 0.023919 0.069070 255 220 0
0.539014 0.074232 0.032035 255 220 0
0.549200 0.021303 0.051354 255 220 0
0.587724 0.085421 0.017333 255 220 0
0.560296 0.127480 0.059627 255 220 0
0.602464 0.124872 0.094882 255 220 0
0.569609 0.029275 -0.011104 255 220 0
0.613236 0.020838 0.020241 255 220 0
0.566917 0.049509 -0.006434 255 220 0
0.541657 0.082215 0.034357 255 220 0
0.535161 0.048179 0.032002 255 220 0
0.535341 0.054082 0.025883 255 220 0
0.614780 0.060866 0.024464 255 220 0
0.625593 0.082795 0.071256 255 220 0
0.608321 0.126361 0.091669 255 220 0
0.615080 0.110300 0.057204 255 220 0
0.600873 0.000057 0.018847 255 220 0
0.594315 0.146284 0.088493 255 220 0
0.605757 0.021582 0.059679 255 220 0
0.593381 0.041199 0.080682 255 220 0
0.572671 0.012583 0.061048 255 220 0
0.549627 0.034852 0.061669 255 220 0
0.592506 0.067351 0.008380 255 220 0
0.571775 0.076669 0.089449 255 220 0
0.599947 0.001572 0.010409 255 220 0
0.593434 0.063448 0.006761 255 220 0
0.588510 0.025810 0.072154 255 220 0
0.574568 0.126130 0.090218 255 220 0
0.572712 -0.012518 0.017910 255 220 0
0.559741 0.119339 0.073326 255 220 0
0.602719 0.057586 0.085634 255 220 0
0.579618 0.064523 0.001793 255 220 0
0.597929 0.004460 0.042644 255 220 0
0.613645 0.029680 0.059297 255 220 0
0.608686 0.106401 0.046104 255 220 0
0.537128 0.063959 0.040466 255 220 0
0.577081 0.117873 0.037007 255 220 0
0.581880 0.155095 0.079283 255 220 0
0.597961 0.141951 0.057852 255 220 0
0.564492 0.009474 -0.008482 255 220 0
0.562930 0.013089 0.057736 255 220 0
0.609995 0.013824 0.037083 255 220 0
0.578633 0.003078 0.050634 255 220 0
0.565764 0.119523 0.083423 255 220 0
0.547946 0.078532 0.064207 255 220 0
0.557200 -0.006729 0.014261 255 220 0
0.612460 0.028710 0.013930 255 220 0
0.582189 0.146853 0.087085 255 220 0
0.595428 0.150517 0.060355 255 220 0
0.605080 0.103666 0.040715 255 220 0
0.565831 0.040694 0.077128 255 220 0
0.615177 0.116558 0.064068 255 220 0
0.592312 -0.006876 0.021103 255 220 0
0.543538 0.031216 0.050920 255 220 0
0.588822 0.022278 -0.008410 255 220 0
0.589598 0.030671 -0.007760 255 220 0
0.585641 0.040308 0.081105 255 220 0
0.538624 0.024648 0.016193 255 220 0
0.542218 0.018430 0.034000 255 220 0
0.596408 0.059518 0.088137 255 220 0
0.543960 0.040029 0.056073 255 220 0
0.556723 0.021497 0.060379 255 220 0
0.623790 0.088417 0.059511 255 220 0
0.587167 0.033388 0.077345 255 220 0
0.567289 0.009248 -0.009085 255 220 0
0.564947 0.070035 0.084447 255 220 0
0.609252 0.131397 0.087139 255 220 0
0.584096 0.048263 -0.004752 255 220 0
0.552155 0.085968 0.019117 255 220 0
0.602986 0.101695 0.037491 255 220 0
0.611050 0.131732 0.078916 255 220 0
0.554257 0.037597 -0.006552 255 220 0
0.616662 0.027488 0.026281 255 220 0
0.615418 0.025944 0.050692 255 220 0
0.622132 0.094756 0.059604 255 220 0
0.560020 0.064841 0.001609 255 220 0
0.540159 0.067836 0.049885 255 220 0
0.616524 0.088645 0.087783 255 220 0
0.609122 0.091322 0.092266 255 220 0
0.575529 0.009338 -0.009269 255 220 0
0.577724 -0.007298 0.034164 255 220 0
0.563403 0.002997 0.046426 255 220 0
0.549715 0.012898 -0.000983 255 220 0
0.553011 0.107131 0.062064 255 220 0
0.547783 0.073997 0.013307 255 220 0
0.575088 0.128314 0.090096 255 220 0
0.602150 0.128650 0.094096 255 220 0
0.593117 0.156118 0.075301 255 220 0
0.535869 0.058020 0.025932 255 220 0
0.565675 0.139353 0.073664 255 220 0
0.601530 0.112885 0.096342 255 220 0
0.593418 0.072721 0.092979 255 220 0
0.618429 0.034639 0.027099 255 220 0
0.541471 0.082625 0.039122 255 220 0
0.611890 0.016206 0.022997 255 220 0
0.567740 0.015689 -0.010538 255 220 0
0.571743 -0.011275 0.024268 255 220 0
0.613723 0.120469 0.086439 255 220 0
0.552758 0.055816 0.071673 255 220 0
0.581165 0.142467 0.050448 255 220 0
0.536391 0.047289 0.015716 255 220 0
0.586499 0.153589 0.082087 255 220 0
0.576462 0.107759 0.030073 255 220 0
0.549230 0.044946 0.065024 255 220 0
0.538043 0.034316 0.039698 255 220 0
0.605996 0.121291 0.053707 255 220 0
0.620868 0.038594 0.053908 255 220 0
0.556267 -0.005066 0.022450 255 220 0
0.562121 0.045585 -0.007141 255 220 0
0.620975 0.053759 0.033563 255 220 0
0.591060 0.017785 -0.006916 255 220 0
0.560357 0.024008 -0.009793 255 220 0
0.616269 0.100777 0.051035 255 220 0
0.542372 0.031811 0.002678 255 220 0
0.544703 0.062902 0.060519 255 220 0
0.615225 0.051421 0.076068 255 220 0
0.565294 -0.002914 -0.002105 255 220 0
0.543047 0.058280 0.008035 255 220 0
0.538807 0.026464 0.012401 255 220 0
0.579768 0.114217 0.094482 255 220 0
0.588866 0.052584 -0.001056 255 220 0
0.569832 0.076017 0.007358 255 220 0
0.550526 0.055957 0.069065 255 220 0
0.556631 0.018775 0.057884 255 220 0
0.616724 0.076178 0.034919 255 220 0
0.625190 0.056593 0.047901 255 220 0
0.588989 0.138094 0.092207 255 220 0
0.554121 -0.003946 0.018273 255 220 0
0.538050 0.035600 0.040812 255 220 0
0.552735 0.024953 0.059036 255 220 0
0.555353 0.025215 -0.007972 255 220 0
0.567015 0.037856 0.076392 255 220 0
0.610393 0.081636 0.030201 255 220 0
0.611639 0.114016 0.055036 255 220 0
0.611493 0.051815 0.016108 255 220 0
0.613350 0.018463 0.027051 255 220 0
0.551059 0.000745 0.010121 255 220 0
0.611722 0.015518 0.032887 255 220 0
0.608900 0.066550 0.086776 255 220 0
0.555727 0.033676 0.067188 255 220 0
0.564957 0.094353 0.020429 255 220 0
0.570616 0.095960 0.021147 255 220 0
0.566785 0.045752 0.079643 255 220 0
0.625318 0.074349 0.054579 255 220 0
0.536389 0.038249 0.034904 255 220 0
0.564430 0.123570 0.080418 255 220 0
0.581921 0.009007 -0.007908 255 220 0
0.578540 -0.005914 -0.000092 255 220 0
0.555653 0.083727 0.075837 255 220 0
0.591701 0.157134 0.066389 255 220 0
0.596221 0.091091 0.096142 255 220 0
0.542334 0.035491 0.051386 255 220 0
0.563638 0.057384 -0.002818 255 220 0
0.565845 0.073577 0.005866 255 220 0
0.603057 0.049715 0.006356 255 220 0
0.592079 0.007585 0.052296 255 220 0
0.617780 0.091735 0.046422 255 220 0
0.589256 -0.006607 0.029671 255 220 0
0.556205 0.068733 0.004949 255 220 0
0.593161 0.139402 0.052961 255 220 0
0.593272 0.155059 0.063354 255 220 0
0.551695 0.090487 0.068236 255 220 0
0.566807 -0.001940 0.041111 255 220 0
0.569149 0.005323 0.052449 255 220 0
0.598176 0.001331 0.007733 255 220 0
0.591007 0.043183 0.082049 255 220 0
0.549449 0.021690 -0.003971 255 220 0
0.550073 0.052063 0.067830 255 220 0
0.622246 0.087791 0.081165 255 220 0
0.580992 0.040007 0.080899 255 220 0
0.537074 0.036176 0.036895 255 220 0
0.620321 0.103449 0.079582 255 220 0
0.620807 0.063556 0.036733 255 220 0
0.561828 0.130892 0.069515 255 220 0
0.586989 0.117498 0.096383 255 220 0
0.557362 -0.001631 0.032878 255 220 0
0.569402 0.120967 0.040581 255 220 0
0.606589 0.136850 0.086798 255 220 0
0.602040 0.022322 0.063602 255 220 0
0.571390 0.060805 0.086165 255 220 0
0.580209 0.149890 0.054708 255 220 0
0.549604 0.045732 -0.002161 255 220 0
0.613185 0.072139 0.086588 255 220 0
0.554903 0.113506 0.060991 255 220 0
0.596580 0.121521 0.045379 255 220 0
0.620683 0.053664 0.032846 255 220 0
0.545663 0.068326 0.061787 255 220 0
0.561024 0.045449 -0.006953 255 220 0
0.586170 -0.009744 0.021791 255 220 0
0.582336 0.142871 0.089091 255 220 0
0.535545 0.039147 0.026515 255 220 0
0.598774 0.109353 0.039224 255 220 0
0.590709 0.109128 0.034520 255 220 0
0.584436 0.116623 0.037213 255 220 0
0.620805 0.088229 0.083461 255 220 0
0.600748 0.109772 0.041024 255 220 0
0.563716 0.101929 0.026999 255 220 0
0.615512 0.064966 0.027419 255 220 0
0.603732 0.029975 0.001735 255 220 0
0.548553 0.029947 -0.003946 255 220 0
0.611515 0.125172 0.087869 255 220 0
0.573227 0.143283 0.052909 255 220 0
0.607494 0.035055 0.006463 255 220 0
0.577470 0.063793 0.088998 255 220 0
0.560512 0.018794 0.061194 255 220 0
0.559524 0.112006 0.040246 255 220 0
0.542243 0.063595 0.055590 255 220 0
0.596084 -0.002601 0.030055 255 220 0
0.561142 0.085162 0.082278 255 220 0
0.616681 0.032508 0.057131 255 220 0
0.566744 0.139587 0.056967 255 220 0
0.603661 0.011600 0.005766 255 220 0
0.572626 0.104539 0.027568 255 220 0
0.596542 0.029021 0.072425 255 220 0
0.567472 -0.011277 0.010836 255 220 0
0.619730 0.107733 0.071057 255 220 0
0.581781 0.154639 0.058335 255 220 0
0.582500 0.105296 0.029325 255 220 0
0.595276 0.023178 0.068145 255 220 0
0.536608 0.059318 0.022859 255 220 0
0.597352 0.151781 0.064373 255 220 0
0.617759 0.026529 0.041826 255 220 0
0.549856 0.100063 0.043072 255 220 0
0.625106 0.064145 0.070681 255 220 0
0.609852 0.082158 0.030006 255 220 0
0.589228 0.093578 0.023351 255 220 0
0.620587 0.069204 0.080221 255 220 0
0.626117 0.057079 0.058675 255 220 0
0.544580 0.089118 0.047964 255 220 0
0.581473 0.090915 0.019077 255 220 0
0.565201 0.136444 0.056822 255 220 0
0.539430 0.027998 0.038354 255 220 0
0.584236 0.153865 0.057456 255 220 0
0.606618 0.010571 0.011918 255 220 0
0.570369 -0.005566 0.036338 255 220 0
0.556846 0.047321 0.073522 255 220 0
0.580411 0.054342 -0.003147 255 220 0
0.556973 0.108028 0.038846 255 220 0
0.614081 0.100097 0.090208 255 220 0
0.563188 0.091231 0.018366 255 220 0
0.556076 0.018653 0.057205 255 220 0
0.557795 0.008340 0.048014 255 220 0
0.553184 0.042699 0.068616 255 220 0
0.606761 0.014822 0.048591 255 220 0
0.555486 0.110579 0.045667 255 220 0
0.541990 0.082988 0.034345 255 220 0
0.580332 0.073763 0.007426 255 220 0
0.607131 0.014503 0.009266 255 220 0
0.561687 0.004534 0.047093 255 220 0
0.619687 0.047664 0.067994 255 220 0
0.563525 0.006289 -0.006993 255 220 0
0.546863 0.015316 0.041466 255 220 0
0.570524 0.150196 0.061944 255 220 0
0.570006 0.149262 0.073907 255 220 0
0.580174 -0.003010 0.041510 255 220 0
0.568017 0.142232 0.057284 255 220 0
0.575510 0.003573 0.051381 255 220 0
0.559591 0.065222 0.001925 255 220 0
0.607532 0.068366 0.019451 255 220 0
0.554042 0.034225 0.065996 255 220 0
0.542264 0.080110 0.050078 255 220 0
0.586100 -0.001658 0.041823 255 220 0
0.562845 0.006551 0.050548 255 220 0
0.545176 0.037819 0.057047 255 220 0
0.585651 0.005210 0.051951 255 220 0
0.617839 0.106180 0.085080 255 220 0
0.602883 0.120103 0.049656 255 220 0
0.614611 0.064771 0.083189 255 220 0
0.579691 0.096479 0.022535 255 220 0
0.567708 0.146339 0.071337 255 220 0
0.570458 0.055070 -0.004219 255 220 0
0.554634 0.066953 0.004548 255 220 0
0.577534 0.101200 0.093935 255 220 0
0.612030 0.127567 0.069360 255 220 0
0.621636 0.036851 0.038488 255 220 0
0.589723 0.092310 0.096665 255 220 0
0.557921 0.112193 0.072888 255 220 0
0.537562 0.068269 0.039255 255 220 0
0.551188 0.104181 0.056494 255 220 0
0.541680 0.082363 0.044230 255 220 0
0.617310 0.114564 0.070187 255 220 0
0.580086 0.084652 0.093998 255 220 0
0.545514 0.062558 0.061980 255 220 0
0.596139 0.040260 0.079559 255 220 0
0.559665 0.103115 0.030225 255 220 0
0.610607 0.053003 0.015382 255 220 0
0.565171 0.013402 -0.009667 255 220 0
0.549056 0.031540 -0.004263 255 220 0
0.615922 0.028972 0.022381 255 220 0
0.619311 0.104062 0.082578 255 220 0
0.592381 0.030631 0.074797 255 220 0
0.595008 0.092621 0.096490 255 220 0
0.604294 0.089426 0.093864 255 220 0
0.544318 0.021726 0.044208 255 220 0
0.621397 0.070789 0.041272 255 220 0
0.547095 0.006178 0.010390 255 220 0
0.548903 0.003768 0.025842 255 220 0
0.616132 0.118584 0.078214 255 220 0
0.569563 0.131863 0.047903 255 220 0
0.547115 0.088778 0.028058 255 220 0
0.623235 0.091043 0.077852 255 220 0
0.622370 0.067426 0.077403 255 220 0
0.555233 0.051783 -0.002973 255 220 0
0.588590 0.059715 0.002288 255 220 0
0.555623 0.061482 0.075568 255 220 0
0.590828 0.095578 0.025376 255 220 0
0.559161 -0.006952 0.008967 255 220 0
0.616449 0.071941 0.084610 255 220 0
0.561424 0.104237 0.080884 255 220 0
0.626225 0.066187 0.054821 255 220 0
0.549034 0.028366 0.057064 255 220 0
0.558149 0.122379 0.060694 255 220 0
0.607938 0.096067 0.093278 255 220 0
0.612640 0.072528 0.027182 255 220 0
0.554452 0.029245 -0.007562 255 220 0
0.569681 0.031146 -0.010925 255 220 0
0.553035 0.109164 0.056194 255 220 0
0.625268 0.051819 0.053267 255 220 0
0.554913 -0.000677 0.004785 255 220 0
0.605092 0.051244 0.081916 255 220 0
0.563156 0.082824 0.084156 255 220 0
0.619867 0.105018 0.064803 255 220 0
0.580835 0.126323 0.093439 255 220 0
0.609910 0.122335 0.091546 255 220 0
0.617502 0.029692 0.051312 255 220 0
0.611548 0.105011 0.092064 255 220 0
0.625714 0.080602 0.061619 255 220 0
0.559865 0.126998 0.062436 255 220 0
0.573478 0.116689 0.036470 255 220 0
0.556253 0.103774 0.034188 255 220 0
0.605658 0.127988 0.092975 255 220 0
0.552378 0.100956 0.036453 255 220 0
0.603734 0.017815 0.002994 255 220 0
0.568487 0.144215 0.058429 255 220 0
0.619437 0.048792 0.028814 255 220 0
0.605153 0.140966 0.084419 255 220 0
0.539721 0.026790 0.037895 255 220 0
0.624102 0.090664 0.074011 255 220 0
0.568985 0.003526 -0.007252 255 220 0
0.601295 0.075364 0.092105 255 220 0
0.620999 0.043307 0.032187 255 220 0
0.555062 0.021239 0.058508 255 220 0
0.588244 0.024228 0.070986 255 220 0
0.542509 0.061047 0.010360 255 220 0
0.599393 0.116070 0.096612 255 220 0
0.573924 -0.005244 -0.001553 255 220 0
0.572510 0.119840 0.089895 255 220 0
0.571351 0.121807 0.040371 255 220 0
0.594708 0.027621 0.072017 255 220 0
0.576052 0.067570 0.002813 255 220 0
0.537245 0.047590 0.043114 255 220 0
0.540719 0.058796 0.052718 255 220 0
0.542410 0.015016 0.010594 255 220 0
0.623246 0.093347 0.063368 255 220 0
0.551960 0.022941 -0.005957 255 220 0
0.580182 0.156133 0.076930 255 220 0
0.602392 0.001756 0.024004 255 220 0
0.549335 0.036615 0.062136 255 220 0
0.559203 0.024346 0.064400 255 220 0
0.550351 0.009079 0.039169 255 220 0
0.539599 0.061336 0.015483 255 220 0
0.559857 0.000665 -0.001741 255 220 0
0.576433 0.091230 0.093146 255 220 0
0.578531 0.147282 0.085050 255 220 0
0.622040 0.040364 0.036800 255 220 0
0.614153 0.019502 0.033205 255 220 0
0.563298 0.085486 0.084335 255 220 0
0.576882 0.019323 -0.010967 255 220 0
0.571712 0.011057 -0.009920 255 220 0
0.576976 0.140267 0.087549 255 220 0
0.625468 0.080360 0.073314 255 220 0
0.574781 0.039088 -0.009442 255 220 0
0.588875 0.131416 0.046817 255 220 0
0.537582 0.065989 0.026025 255 220 0
0.552466 0.075580 0.072049 255 220 0
0.562014 0.023836 0.065745 255 220 0
0.551987 0.025790 0.058823 255 220 0
0.610740 0.062920 0.084537 255 220 0
0.618068 0.108728 0.083225 255 220 0
0.622171 0.037957 0.045611 255 220 0
0.616262 0.029761 0.022966 255 220 0
0.570694 0.041976 -0.008911 255 220 0
0.550249 0.002674 0.027447 255 220 0
0.623647 0.072953 0.048148 255 220 0
0.570455 0.027931 -0.011242 255 220 0
0.611449 0.130247 0.072029 255 220 0
0.584376 0.003246 0.049737 255 220 0
0.620496 0.092227 0.052180 255 220 0
0.598072 0.144685 0.059328 255 220 0
0.604719 0.143565 0.068403 255 220 0
0.546921 0.078019 0.017282 255 220 0
0.602001 0.034247 0.073726 255 220 0
0.596153 -0.001586 0.032658 255 220 0
0.558136 0.044162 0.073508 255 220 0
0.581104 0.144410 0.087917 255 220 0
0.566108 -0.000046 0.043808 255 220 0
0.535436 0.049363 0.034812 255 220 0
0.619403 0.061082 0.032710 255 220 0
0.579492 0.141833 0.088324 255 220 0
0.588687 0.033280 0.077127 255 220 0
0.550903 0.000095 0.012821 255 220 0
0.593425 -0.003535 0.032185 255 220 0
0.614582 0.060764 0.024114 255 220 0
0.620574 0.091154 0.083650 255 220 0
0.569547 -0.008384 0.003112 255 220 0
0.575658 0.047388 -0.006878 255 220 0
0.570765 0.151849 0.064929 255 220 0
0.560054 -0.006487 0.026287 255 220 0
0.622472 0.048416 0.036410 255 220 0
0.607736 0.138994 0.078416 255 220 0
0.613437 0.123999 0.083503 255 220 0
0.554358 0.004036 0.038068 255 220 0
0.613243 0.119519 0.062574 255 220 0
0.589899 -0.002941 0.003424 255 220 0
0.588469 0.028383 0.074010 255 220 0
0.577844 0.107348 0.093992 255 220 0
0.623630 0.059431 0.042592 255 220 0
0.610595 0.037281 0.010921 255 220 0
0.581864 0.057475 0.087903 255 220 0
0.544825 0.070703 0.059810 255 220 0
0.613620 0.095729 0.090335 255 220 0
0.590653 0.010169 0.056384 255 220 0
0.603534 0.146727 0.071318 255 220 0
0.540705 0.063225 0.052225 255 220 0
0.537738 0.041994 0.011043 255 220 0
0.561770 0.078113 0.082786 255 220 0
0.585269 0.115673 0.096184 255 220 0
0.579125 0.021168 0.069052 255 220 0
0.605019 0.030740 0.003154 255 220 0
0.597652 0.084663 0.021941 255 220 0
0.604141 0.143075 0.066402 255 220 0
0.580558 0.115473 0.094708 255 220 0
0.606135 0.006493 0.020350 255 220 0
0.622125 0.095968 0.061192 255 220 0
0.587710 0.073724 0.093432 255 220 0
0.561756 0.132118 0.062965 255 220 0
0.563203 0.124429 0.048491 255 220 0
0.551955 0.080191 0.014625 255 220 0
0.624377 0.087956 0.075061 255 220 0
0.535192 0.051000 0.032548 255 220 0
0.557553 0.104549 0.033633 255 220 0
0.602749 0.126864 0.094390 255 220 0
0.605995 0.142092 0.070242 255 220 0
0.575769 -0.007427 0.033964 255 220 0
0.606421 0.134866 0.063740 255 220 0
0.549907 0.034561 0.061855 255 220 0
0.553915 -0.001593 0.007928 255 220 0
0.536779 0.065688 0.032150 255 220 0
0.565903 0.125835 0.046609 255 220 0
0.563709 0.137569 0.066903 255 220 0
0.579226 0.152892 0.057203 255 220 0
0.569834 -0.010710 0.025124 255 220 0
0.606430 0.075077 0.090401 255 220 0
0.617381 0.048589 0.024580 255 220 0
0.577447 -0.011690 0.010930 255 220 0
0.604217 0.075364 0.020935 255 220 0
0.588501 0.004967 0.050530 255 220 0
0.579870 0.087762 0.094263 255 220 0
0.577990 0.074404 0.091720 255 220 0
0.611872 0.128494 0.070329 255 220 0
0.620614 0.044601 0.062567 255 220 0
0.585450 0.005138 -0.005157 255 220 0
0.584255 0.110029 0.096229 255 220 0
0.543980 0.085433 0.051136 255 220 0
0.546844 0.046090 0.062254 255 220 0
0.594419 0.073476 0.013049 255 220 0
0.538449 0.065177 0.045515 255 220 0
0.535844 0.042747 0.017786 255 220 0
0.563908 0.102544 0.027464 255 220 0
0.546395 0.047181 0.061891 255 220 0
0.538802 0.027898 0.035182 255 220 0
0.616347 0.043454 0.021558 255 220 0
0.570207 0.098903 0.023362 255 220 0
0.540492 0.022353 0.033799 255 220 0
0.568477 0.001642 0.047429 255 220 0
0.575670 0.076866 0.091279 255 220 0
0.556123 0.015565 0.054179 255 220 0
0.540322 0.032575 0.045543 255 220 0
0.612210 0.019713 0.017644 255 220 0
0.579897 0.043887 -0.007395 255 220 0
0.598864 0.018768 -0.002033 255 220 0
0.572457 0.050954 0.083733 255 220 0
0.596589 0.151307 0.062552 255 220 0
0.576281 0.020253 -0.011097 255 220 0
0.609493 0.113013 0.093279 255 220 0
0.558882 0.121214 0.053275 255 220 0
0.621790 0.047735 0.034360 255 220 0
0.601774 0.036778 0.075512 255 220 0
0.576396 0.019232 0.067242 255 220 0
0.567317 0.014042 0.060834 255 220 0
0.609688 0.017467 0.048092 255 220 0
0.572235 0.073743 0.006072 255 220 0
0.613920 0.124769 0.075832 255 220 0
0.569233 0.092964 0.018952 255 220 0
0.589739 -0.002874 0.037551 255 220 0
0.604119 0.056695 0.010479 255 220 0
0.601176 0.037217 0.076059 255 220 0
0.568566 0.002403 0.048515 255 220 0
0.604272 0.024719 0.064392 255 220 0
0.626842 0.068906 0.061012 255 220 0
0.599940 0.042995 0.001246 255 220 0
0.557611 0.100908 0.076005 255 220 0
0.567643 0.027162 0.070530 255 220 0
0.552028 0.076526 0.071321 255 220 0
0.566302 -0.000742 -0.004246 255 220 0
0.562628 0.052867 -0.004631 255 220 0
0.555260 0.097708 0.028000 255 220 0
0.550471 0.033173 0.061804 255 220 0
0.537882 0.032795 0.037454 255 220 0
0.594217 0.066577 0.091039 255 220 0
0.608572 0.010995 0.018073 255 220 0
0.556244 0.043331 0.071646 255 220 0
0.555583 0.048890 0.072890 255 220 0
0.609987 0.012337 0.024914 255 220 0
0.566006 0.097621 0.086532 255 220 0
0.611098 0.015457 0.037875 255 220 0
0.611937 0.115640 0.091128 255 220 0
0.561828 0.029054 -0.010105 255 220 0
0.607098 0.056795 0.083596 255 220 0
0.596516 0.032885 0.075129 255 220 0
0.546879 0.005520 0.021644 255 220 0
0.595967 0.152474 0.063102 255 220 0
0.554755 0.105158 0.069129 255 220 0
0.540924 0.044445 0.051997 255 220 0
0.544618 0.023429 0.000593 255 220 0
0.584990 0.013673 0.062036 255 220 0
0.596345 0.073517 0.092759 255 220 0
0.562769 -0.004305 0.000752 255 220 0
0.568343 0.116788 0.037972 255 220 0
0.621399 0.051941 0.034084 255 220 0
0.543263 0.046251 0.003059 255 220 0
0.549431 0.004383 0.007310 255 220 0
0.596328 0.148867 0.060049 255 220 0
0.621740 0.070813 0.079489 255 220 0
0.539388 0.021369 0.021602 255 220 0
0.579635 0.044282 -0.007318 255 220 0
0.592009 0.025072 -0.007119 255 220 0
0.599935 0.110304 0.040715 255 220 0
0.625007 0.087636 0.069159 255 220 0
0.616008 0.084733 0.038935 255 220 0
0.618097 0.062446 0.030724 255 220 0
0.594099 0.152703 0.061008 255 220 0
0.610697 0.093530 0.038759 255 220 0
0.592038 0.146681 0.055407 255 220 0
0.624247 0.090402 0.065430 255 220 0
0.619148 0.049605 0.028364 255 220 0
0.611751 0.125762 0.065992 255 220 0
0.617987 0.085982 0.042823 255 220 0
0.584047 0.147886 0.053444 255 220 0
