ply
format ascii 1.0
element vertex 1024
property float x
property float y
property float z
property uchar red
property uchar green
property uchar blue
end_header
0.549454 0.068023 0.086348 255 220 0
0.507685 0.067030 0.032383 255 220 0
0.593365 0.042224 0.043059 255 220 0
0.549216 0.012186 0.050490 255 220 0
0.586166 0.069643 0.021436 255 220 0
0.534662 0.068761 -0.001654 255 220 0
0.555255 0.057181 0.083484 255 220 0
0.559879 0.139443 0.093118 255 220 0
0.594925 0.074612 0.075284 255 220 0
0.567727 0.056579 -0.000620 255 220 0
0.547448 0.013304 0.051886 255 220 0
0.567090 0.011493 0.001162 255 220 0
0.556032 0.072314 0.001843 255 220 0
0.558688 0.050223 0.080503 255 220 0
0.584584 0.036285 0.057965 255 220 0
0.513669 0.091074 0.042470 255 220 0
0.524051 0.019190 -0.002520 255 220 0
0.561726 0.098411 0.095021 255 220 0
0.516540 0.093010 0.052959 255 220 0
0.552121 0.034733 0.071611 255 220 0
0.556657 0.026962 0.065456 255 220 0
0.561355 0.052625 0.081393 255 220 0
0.507241 0.054925 0.020470 255 220 0
0.540460 0.009090 -0.006388 255 220 0
0.537089 0.072110 -0.000241 255 220 0
0.539033 0.066284 -0.003405 255 220 0
0.569619 0.142004 0.052122 255 220 0
0.591438 0.044920 0.026186 255 220 0
0.553884 0.019883 -0.009570 255 220 0
0.551075 0.158651 0.054438 255 220 0
0.595922 0.050679 0.045222 255 220 0
0.577301 0.148250 0.086014 255 220 0
0.597761 0.091562 0.056233 255 220 0
0.552934 0.162051 0.056689 255 220 0
0.538052 0.084862 0.084372 255 220 0
0.566408 0.003586 0.024640 255 220 0
0.567374 0.107097 0.028515 255 220 0
0.533835 0.039302 0.068593 255 220 0
0.576952 0.146586 0.087883 255 220 0
0.598076 0.093839 0.059952 255 220 0
0.538716 0.112680 0.027705 255 220 0
0.585596 0.133888 0.083496 255 220 0
0.592428 0.046075 0.028534 255 220 0
0.588453 0.043164 0.019239 255 220 0
0.541155 0.145418 0.080650 255 220 0
0.569156 0.097325 0.022972 255 220 0
0.549947 0.032400 0.069719 255 220 0
0.593393 0.042554 0.036281 255 220 0
0.534146 0.062173 0.077852 255 220 0
0.535784 0.006528 -0.002886 255 220 0
0.594621 0.072415 0.037433 255 220 0
0.572970 0.126967 0.094848 255 220 0
0.544157 0.048364 0.077909 255 220 0
0.533338 0.080522 0.080322 255 220 0
0.543939 0.039145 0.072905 255 220 0
0.512025 0.083865 0.044691 255 220 0
0.584688 0.025342 0.034241 255 220 0
0.529598 0.006890 0.031863 255 220 0
0.538005 0.086115 0.008140 255 220 0
0.526308 0.055129 -0.004759 255 220 0
0.595419 0.091026 0.048397 255 220 0
0.523436 0.013817 0.034103 255 220 0
0.553092 0.142678 0.090625 255 220 0
0.567685 0.026079 0.061355 255 220 0
0.576423 0.013194 0.015480 255 220 0
0.576208 0.152723 0.081625 255 220 0
0.521583 0.037239 0.056507 255 220 0
0.572467 0.112009 0.035162 255 220 0
0.583227 0.043463 0.066600 255 220 0
0.596198 0.088960 0.049199 255 220 0
0.587280 0.031697 0.045215 255 220 0
0.564833 0.126614 0.040071 255 220 0
0.594310 0.102182 0.053910 255 220 0
0.588050 0.129279 0.070195 255 220 0
0.555976 0.041750 0.076195 255 220 0
0.577802 0.140656 0.059087 255 220 0
0.528379 0.018308 0.046612 255 220 0
0.564763 0.044641 0.076867 255 220 0
0.596904 0.072377 0.043221 255 220 0
0.526867 0.102171 0.071608 255 220 0
0.537604 0.134144 0.080190 255 220 0
0.513372 0.073833 0.052404 255 220 0
0.581308 0.045976 0.007461 255 220 0
0.573446 0.065708 0.084586 255 220 0
0.527403 0.112573 0.035481 255 220 0
0.581441 0.080616 0.021351 255 220 0
0.524494 0.016773 -0.001414 255 220 0
0.587524 0.123984 0.086311 255 220 0
0.557546 0.076238 0.090255 255 220 0
0.552830 0.103937 0.093585 255 220 0
0.596377 0.054744 0.052369 255 220 0
0.535120 0.118732 0.034710 255 220 0
0.541804 0.008781 0.044735 255 220 0
0.574290 0.106743 0.032869 255 220 0
0.529313 0.011503 0.039004 255 220 0
0.535479 0.051970 -0.008466 255 220 0
0.583366 0.043911 0.010055 255 220 0
0.565570 0.008486 0.038268 255 220 0
0.567096 0.114505 0.033408 255 220 0
0.577213 0.029722 0.058714 255 220 0
0.558172 0.031754 0.069279 255 220 0
0.523925 0.007307 0.013341 255 220 0
0.578292 0.033137 0.003239 255 220 0
0.550058 0.007784 0.044231 255 220 0
0.583334 0.033622 0.010582 255 220 0
0.554602 0.108230 0.024735 255 220 0
0.572271 0.016405 0.002725 255 220 0
0.587415 0.045156 0.063169 255 220 0
0.573233 0.055999 0.002494 255 220 0
0.577586 0.040811 0.069050 255 220 0
0.508491 0.051198 0.013852 255 220 0
0.585794 0.029955 0.019507 255 220 0
0.534315 0.062535 0.078060 255 220 0
0.519579 0.044273 0.058006 255 220 0
0.569676 0.061040 0.002592 255 220 0
0.534786 0.057463 0.076917 255 220 0
0.567322 0.020269 -0.003805 255 220 0
0.518838 0.093939 0.058447 255 220 0
0.582937 0.067653 0.016425 255 220 0
0.510875 0.080646 0.042333 255 220 0
0.518615 0.096159 0.027338 255 220 0
0.527740 0.010857 0.036066 255 220 0
0.573529 0.117880 0.039906 255 220 0
0.574922 0.070209 0.085891 255 220 0
0.559926 0.091341 0.014761 255 220 0
0.564274 0.054807 -0.003241 255 220 0
0.597337 0.057594 0.052189 255 220 0
0.566163 0.123666 0.038859 255 220 0
0.570927 0.153387 0.087204 255 220 0
0.548639 0.060081 0.083701 255 220 0
0.549657 0.015927 0.055030 255 220 0
0.531757 0.069329 0.077581 255 220 0
0.558841 0.131027 0.094483 255 220 0
0.526507 0.004919 0.011152 255 220 0
0.597874 0.061437 0.057713 255 220 0
0.512894 0.026699 0.024718 255 220 0
0.541864 0.159601 0.069238 255 220 0
0.539951 0.084048 0.085524 255 220 0
0.551322 0.074091 0.088501 255 220 0
0.516049 0.031640 0.000859 255 220 0
0.578749 0.025089 0.050753 255 220 0
0.537064 0.052650 -0.008520 255 220 0
0.541343 0.102323 0.087630 255 220 0
0.598952 0.068880 0.049813 255 220 0
0.534584 0.095926 0.015447 255 220 0
0.511339 0.038896 0.039084 255 220 0
0.519214 0.016275 0.006606 255 220 0
0.563282 0.002950 0.008392 255 220 0
0.579329 0.019047 0.012516 255 220 0
0.550217 0.126971 0.036826 255 220 0
0.598907 0.092252 0.066857 255 220 0
0.539914 0.150366 0.076047 255 220 0
0.515756 0.035959 0.000484 255 220 0
0.529569 0.022802 0.052752 255 220 0
0.584951 0.089361 0.030164 255 220 0
0.530364 0.004224 0.027533 255 220 0
0.556566 0.029195 0.067383 255 220 0
0.522417 0.077699 0.067842 255 220 0
0.510422 0.034260 0.014171 255 220 0
0.530946 0.132552 0.059891 255 220 0
0.566582 0.142089 0.050069 255 220 0
0.540769 0.135046 0.044285 255 220 0
0.577135 0.045398 0.072626 255 220 0
0.579066 0.022000 0.044665 255 220 0
0.535149 0.018406 0.053050 255 220 0
0.563339 0.140176 0.047238 255 220 0
0.539725 0.010072 -0.006798 255 220 0
0.588174 0.110408 0.087540 255 220 0
0.572717 0.111964 0.095125 255 220 0
0.567534 0.060144 0.000926 255 220 0
0.564180 0.124847 0.095753 255 220 0
0.556382 0.057367 0.083597 255 220 0
0.593282 0.053019 0.029315 255 220 0
0.557674 0.078074 0.005664 255 220 0
0.561538 0.166905 0.068635 255 220 0
0.564930 0.071801 0.005309 255 220 0
0.580529 0.100541 0.033453 255 220 0
0.558513 -0.000967 0.021185 255 220 0
0.561131 0.111015 0.028415 255 220 0
0.541775 0.117869 0.031206 255 220 0
0.552497 0.163420 0.078343 255 220 0
0.576552 0.018624 0.042526 255 220 0
0.542273 0.123362 0.035377 255 220 0
0.547428 0.049808 0.079429 255 220 0
0.550634 0.052297 -0.008462 255 220 0
0.571167 0.049829 -0.001271 255 220 0
0.570219 0.019928 0.052269 255 220 0
0.512717 0.057189 0.051022 255 220 0
0.557646 0.110556 0.027059 255 220 0
0.556545 -0.000934 0.024606 255 220 0
0.587898 0.032115 0.025619 255 220 0
0.539075 0.000849 0.029514 255 220 0
0.555925 0.052992 -0.007128 255 220 0
0.556371 0.012638 0.049871 255 220 0
0.572705 0.069463 0.086322 255 220 0
0.540159 0.119593 0.085881 255 220 0
0.579242 0.019589 0.011431 255 220 0
0.526854 0.102385 0.024252 255 220 0
0.571458 0.127094 0.044273 255 220 0
0.592943 0.061209 0.069742 255 220 0
0.553821 0.062594 0.085398 255 220 0
0.572637 0.029451 0.062018 255 220 0
0.509437 0.075311 0.027725 255 220 0
0.561042 0.052162 0.081212 255 220 0
0.522817 0.063034 0.067555 255 220 0
0.577375 0.080029 0.017656 255 220 0
0.576950 0.098019 0.028796 255 220 0
0.579698 0.017112 0.024740 255 220 0
0.572627 0.008246 0.021152 255 220 0
0.513922 0.022999 0.020145 255 220 0
0.529091 0.126607 0.054529 255 220 0
0.596507 0.071734 0.041865 255 220 0
0.569605 0.005425 0.017738 255 220 0
0.530337 0.035265 0.063988 255 220 0
0.552340 0.003063 -0.000826 255 220 0
0.591329 0.047310 0.025182 255 220 0
0.509817 0.053796 0.010497 255 220 0
0.529878 0.015158 0.044444 255 220 0
0.566707 0.017094 0.050959 255 220 0
0.519007 0.079688 0.062386 255 220 0
0.529912 0.119271 0.040690 255 220 0
0.549137 0.142804 0.088687 255 220 0
0.540107 0.092386 0.086371 255 220 0
0.548343 0.100056 0.017979 255 220 0
0.590248 0.079547 0.081646 255 220 0
0.552367 0.027563 -0.011373 255 220 0
0.589497 0.041295 0.022352 255 220 0
0.554229 0.167272 0.065590 255 220 0
0.563089 0.131617 0.094938 255 220 0
0.545005 0.095260 0.089566 255 220 0
0.547095 0.108941 0.091235 255 220 0
0.533469 0.135877 0.054513 255 220 0
0.508424 0.071643 0.029329 255 220 0
0.565156 0.165296 0.071579 255 220 0
0.546265 0.079672 0.004167 255 220 0
0.551297 -0.002512 0.009007 255 220 0
0.521402 0.076216 0.066454 255 220 0
0.581892 0.116061 0.045875 255 220 0
0.520181 0.057017 -0.000715 255 220 0
0.547654 0.097710 0.091074 255 220 0
0.594755 0.056497 0.033146 255 220 0
0.560588 0.125693 0.037874 255 220 0
0.587413 0.115789 0.052050 255 220 0
0.523205 0.097005 0.022123 255 220 0
0.534518 0.086951 0.009167 255 220 0
0.556111 0.066815 -0.001023 255 220 0
0.577040 0.115143 0.093988 255 220 0
0.572656 0.009660 0.029022 255 220 0
0.543601 0.056896 -0.007469 255 220 0
0.593222 0.044093 0.048583 255 220 0
0.579325 0.115261 0.042951 255 220 0
0.573197 0.037285 0.068945 255 220 0
0.560169 -0.000374 0.014772 255 220 0
0.592371 0.087530 0.082100 255 220 0
0.575620 0.154923 0.077750 255 220 0
0.519638 0.057140 0.062400 255 220 0
0.533322 0.139070 0.061292 255 220 0
0.589744 0.093134 0.038637 255 220 0
0.586477 0.039729 0.059060 255 220 0
0.541909 0.146661 0.081044 255 220 0
0.535011 0.023686 0.058289 255 220 0
0.597803 0.088011 0.053628 255 220 0
0.589520 0.065543 0.076069 255 220 0
0.590179 0.064159 0.025466 255 220 0
0.562665 0.141373 0.047551 255 220 0
0.530043 0.071986 0.076481 255 220 0
0.547836 0.060624 0.083702 255 220 0
0.561130 0.166194 0.063772 255 220 0
0.560707 0.046842 -0.007626 255 220 0
0.587013 0.038322 0.017151 255 220 0
0.594141 0.062041 0.032631 255 220 0
0.531154 0.084637 0.008408 255 220 0
0.526784 0.069974 0.073025 255 220 0
0.591587 0.057918 0.026217 255 220 0
0.535623 0.104172 0.082744 255 220 0
0.514853 0.064802 0.055834 255 220 0
0.591391 0.086117 0.082631 255 220 0
0.509498 0.052895 0.041925 255 220 0
0.532545 0.136572 0.065831 255 220 0
0.568772 0.083750 0.014309 255 220 0
0.512479 0.028515 0.026927 255 220 0
0.599409 0.082857 0.057096 255 220 0
0.558780 0.081050 0.007843 255 220 0
0.531542 0.012457 0.042717 255 220 0
0.535670 0.000072 0.024791 255 220 0
0.566285 0.098861 0.095031 255 220 0
0.513467 0.040378 0.003473 255 220 0
0.563566 0.090932 0.093978 255 220 0
0.508476 0.069018 0.024434 255 220 0
0.587942 0.030632 0.036431 255 220 0
0.584905 0.025397 0.029486 255 220 0
0.547731 0.046324 -0.010414 255 220 0
0.512990 0.029329 0.031459 255 220 0
0.584362 0.038165 0.060336 255 220 0
0.524764 0.037028 0.060068 255 220 0
0.577841 0.041653 0.002823 255 220 0
0.515194 0.053104 0.002427 255 220 0
0.516804 0.017616 0.021119 255 220 0
0.579159 0.016395 0.025402 255 220 0
0.582369 0.102232 0.090668 255 220 0
0.508401 0.057707 0.015540 255 220 0
0.524190 0.094500 0.019043 255 220 0
0.575733 0.140672 0.056786 255 220 0
0.519019 0.075782 0.009206 255 220 0
0.514326 0.083024 0.020839 255 220 0
0.583079 0.023465 0.036202 255 220 0
0.541957 -0.002888 0.009140 255 220 0
0.556728 0.145187 0.091028 255 220 0
0.567894 0.081355 0.091394 255 220 0
0.590812 0.089943 0.038409 255 220 0
0.535020 0.114527 0.081033 255 220 0
0.567474 0.075191 0.089600 255 220 0
0.561314 0.098981 0.020293 255 220 0
0.521807 0.109317 0.050923 255 220 0
0.549232 0.020139 -0.010485 255 220 0
0.584039 0.025472 0.039297 255 220 0
0.576835 0.057877 0.006074 255 220 0
0.508081 0.065038 0.037385 255 220 0
0.594226 0.068774 0.035089 255 220 0
0.545209 0.112288 0.026597 255 220 0
0.552665 0.031987 -0.011561 255 220 0
0.513425 0.043012 0.047787 255 220 0
0.563009 0.054079 0.081867 255 220 0
0.536256 0.071247 -0.000610 255 220 0
0.521314 0.075120 0.066351 255 220 0
0.567444 0.067704 0.086890 255 220 0
0.589984 0.069507 0.077706 255 220 0
0.582098 0.021195 0.020594 255 220 0
0.585616 0.028402 0.021276 255 220 0
0.585416 0.041932 0.062767 255 220 0
0.540827 -0.003251 0.018970 255 220 0
0.509197 0.048146 0.038649 255 220 0
0.535849 -0.001853 0.018136 255 220 0
0.565709 0.093803 0.018824 255 220 0
0.539414 0.129341 0.041095 255 220 0
0.560172 0.154757 0.087756 255 220 0
0.524051 0.071536 0.070016 255 220 0
0.564364 0.100625 0.022647 255 220 0
0.526690 0.080973 0.007671 255 220 0
0.512261 0.074712 0.049714 255 220 0
0.537170 0.149631 0.062897 255 220 0
0.546411 0.133666 0.041089 255 220 0
0.596958 0.056927 0.053536 255 220 0
0.579053 0.018198 0.013127 255 220 0
0.593165 0.042282 0.035181 255 220 0
0.586648 0.120060 0.054553 255 220 0
0.559684 0.119470 0.095560 255 220 0
0.515097 0.020786 0.021214 255 220 0
0.514281 0.046110 0.050968 255 220 0
0.597753 0.094343 0.058828 255 220 0
0.560396 0.137583 0.093599 255 220 0
0.525753 0.053765 0.068485 255 220 0
0.581043 0.088562 0.025766 255 220 0
0.557084 0.132880 0.093847 255 220 0
0.594257 0.058433 0.032065 255 220 0
0.563025 0.102556 0.023354 255 220 0
0.539045 0.103504 0.020384 255 220 0
0.524022 0.092151 0.017189 255 220 0
0.580200 0.109384 0.092347 255 220 0
0.567738 0.119711 0.096013 255 220 0
0.513405 0.090606 0.041128 255 220 0
0.559572 0.166732 0.064106 255 220 0
0.520434 0.049105 0.061116 255 220 0
0.569026 0.092797 0.019994 255 220 0
0.545436 0.082883 0.006115 255 220 0
0.540553 0.140977 0.081748 255 220 0
0.524001 0.008610 0.024477 255 220 0
0.532495 0.010025 0.040323 255 220 0
0.529793 0.022584 -0.007843 255 220 0
0.544782 0.112196 0.026537 255 220 0
0.531659 0.113861 0.032314 255 220 0
0.565259 0.002947 0.012427 255 220 0
0.589695 0.038041 0.050451 255 220 0
0.540591 0.154764 0.073740 255 220 0
0.510060 0.034780 0.024111 255 220 0
0.542037 -0.000815 0.027378 255 220 0
0.531752 0.064273 0.076596 255 220 0
0.512317 0.072429 0.050196 255 220 0
0.563944 0.121542 0.095967 255 220 0
0.553985 0.156905 0.085199 255 220 0
0.530905 0.001675 0.008934 255 220 0
0.585613 0.132050 0.064837 255 220 0
0.510225 0.036296 0.012940 255 220 0
0.551634 0.026936 0.065651 255 220 0
0.536832 0.147232 0.059870 255 220 0
0.534903 0.087161 0.009241 255 220 0
0.576729 0.120171 0.044062 255 220 0
0.575653 0.119139 0.094548 255 220 0
0.558014 0.042785 0.076703 255 220 0
0.545763 0.005058 -0.003969 255 220 0
0.521466 0.062518 0.065789 255 220 0
0.575061 0.149419 0.061437 255 220 0
0.582001 0.025979 0.046778 255 220 0
0.514887 0.045760 0.051876 255 220 0
0.532762 0.093534 0.080164 255 220 0
0.569836 0.138345 0.050144 255 220 0
0.542967 0.098172 0.016270 255 220 0
0.545493 0.063298 0.083866 255 220 0
0.548890 0.145562 0.087670 255 220 0
0.526863 0.105056 0.026975 255 220 0
0.537583 0.144887 0.055324 255 220 0
0.522732 0.107839 0.060214 255 220 0
0.521132 0.102307 0.059588 255 220 0
0.527149 0.110104 0.032568 255 220 0
0.559371 0.016344 0.053701 255 220 0
0.565046 0.065889 0.002320 255 220 0
0.597415 0.058178 0.044090 255 220 0
0.529604 0.108339 0.074674 255 220 0
0.585261 0.078540 0.024422 255 220 0
0.507992 0.044178 0.025313 255 220 0
0.570383 0.018906 -0.000749 255 220 0
0.562282 0.084014 0.011069 255 220 0
0.590431 0.047070 0.060075 255 220 0
0.599517 0.077356 0.054579 255 220 0
0.515563 0.059017 0.003680 255 220 0
0.596140 0.051488 0.042375 255 220 0
0.583586 0.139768 0.081646 255 220 0
0.534531 0.142769 0.063778 255 220 0
0.585681 0.033139 0.016149 255 220 0
0.557672 0.050993 0.080897 255 220 0
0.545196 0.051098 0.079438 255 220 0
0.522641 0.016768 0.037253 255 220 0
0.597158 0.068323 0.042644 255 220 0
0.528779 0.105934 0.026327 255 220 0
0.516004 0.070167 0.057882 255 220 0
0.567870 0.160383 0.061392 255 220 0
0.586832 0.126436 0.061104 255 220 0
0.562279 0.000696 0.021307 255 220 0
0.553258 0.080342 0.005754 255 220 0
0.523069 0.009923 0.025237 255 220 0
0.552687 0.132788 0.040311 255 220 0
0.558295 0.110242 0.027009 255 220 0
0.566850 0.140177 0.093134 255 220 0
0.589278 0.051741 0.066692 255 220 0
0.558994 0.040986 -0.009466 255 220 0
0.536659 0.121146 0.035998 255 220 0
0.551578 0.129308 0.092464 255 220 0
0.573675 0.033341 0.065233 255 220 0
0.567217 0.004681 0.026848 255 220 0
0.540010 0.036559 0.069939 255 220 0
0.584182 0.024279 0.026210 255 220 0
0.547239 0.090759 0.090218 255 220 0
0.537831 -0.002792 0.014697 255 220 0
0.530228 0.130606 0.062072 255 220 0
0.595430 0.079049 0.042174 255 220 0
0.543603 0.055317 0.080617 255 220 0
0.544825 0.078819 0.003533 255 220 0
0.512724 0.076300 0.017940 255 220 0
0.600003 0.079244 0.063748 255 220 0
0.548260 0.019770 -0.010507 255 220 0
0.592813 0.075141 0.034714 255 220 0
0.517332 0.067291 0.005733 255 220 0
0.526131 0.014915 -0.001721 255 220 0
0.556338 0.082214 0.091644 255 220 0
0.594656 0.074139 0.038223 255 220 0
0.554926 0.070925 0.000762 255 220 0
0.533800 0.004292 0.032006 255 220 0
0.591502 0.084639 0.082185 255 220 0
0.596110 0.060583 0.063246 255 220 0
0.560659 0.149560 0.050686 255 220 0
0.537775 0.151693 0.065340 255 220 0
0.553297 0.021886 0.061118 255 220 0
0.566061 0.100375 0.023291 255 220 0
0.579612 0.096311 0.029712 255 220 0
0.587920 0.044215 0.061496 255 220 0
0.514794 0.077456 0.054847 255 220 0
0.584083 0.024373 0.033530 255 220 0
0.580540 0.037323 0.005864 255 220 0
0.526934 0.048152 -0.006888 255 220 0
0.585741 0.059558 0.075618 255 220 0
0.564841 0.147724 0.090810 255 220 0
0.536217 0.136120 0.049526 255 220 0
0.515844 0.041001 0.050992 255 220 0
0.561614 0.066031 0.086912 255 220 0
0.521352 0.013605 0.005911 255 220 0
0.569028 0.032742 0.067173 255 220 0
0.510670 0.081996 0.033170 255 220 0
0.522930 0.029214 0.051667 255 220 0
0.558352 0.094320 0.016182 255 220 0
0.532110 0.135569 0.060000 255 220 0
0.575991 0.133722 0.093148 255 220 0
0.540095 0.037923 -0.011662 255 220 0
0.585369 0.030300 0.017477 255 220 0
0.537196 0.058071 -0.006751 255 220 0
0.513249 0.090024 0.035406 255 220 0
0.507386 0.055865 0.033175 255 220 0
0.507139 0.061799 0.027088 255 220 0
0.586249 0.070331 0.021850 255 220 0
0.598850 0.092274 0.068186 255 220 0
0.581651 0.135354 0.089663 255 220 0
0.587071 0.119607 0.054819 255 220 0
0.573408 0.009259 0.016566 255 220 0
0.567079 0.154980 0.087286 255 220 0
0.579806 0.030695 0.057236 255 220 0
0.568046 0.049937 0.078927 255 220 0
0.547029 0.020966 0.060159 255 220 0
0.523565 0.042720 0.062027 255 220 0
0.563083 0.076401 0.006904 255 220 0
0.546127 0.084883 0.088936 255 220 0
0.572039 0.010793 0.008192 255 220 0
0.564015 0.072527 0.005220 255 220 0
0.563100 0.034485 0.070558 255 220 0
0.547881 0.134390 0.089852 255 220 0
0.545514 -0.003927 0.016927 255 220 0
0.532400 0.127353 0.073662 255 220 0
0.577255 0.066502 0.083513 255 220 0
0.549953 0.073321 0.000935 255 220 0
0.571531 0.013485 0.040503 255 220 0
0.587488 0.038966 0.056517 255 220 0
0.580230 0.115620 0.044020 255 220 0
0.509419 0.071644 0.041623 255 220 0
0.547978 0.126438 0.036535 255 220 0
0.554021 0.163559 0.078741 255 220 0
0.569321 0.150871 0.056479 255 220 0
0.535543 0.018002 -0.008908 255 220 0
0.537130 0.021273 0.057327 255 220 0
0.583106 0.023137 0.034416 255 220 0
0.552681 0.011643 0.049413 255 220 0
0.538902 0.127623 0.083455 255 220 0
0.521062 0.086341 0.064894 255 220 0
0.529720 0.001537 0.014069 255 220 0
0.584117 0.038182 0.011256 255 220 0
0.554889 0.155289 0.086471 255 220 0
0.566727 0.159368 0.059151 255 220 0
0.576426 0.112832 0.038797 255 220 0
0.540372 0.048845 0.076713 255 220 0
0.587366 0.125833 0.061706 255 220 0
0.565119 0.002129 0.019196 255 220 0
0.517040 0.039002 0.051565 255 220 0
0.559564 0.031337 -0.009945 255 220 0
0.560188 0.039742 -0.009285 255 220 0
0.560356 0.048874 0.079720 255 220 0
0.510585 0.032490 0.017081 255 220 0
0.515175 0.026269 0.034657 255 220 0
0.571034 0.068283 0.086331 255 220 0
0.517521 0.047798 0.056743 255 220 0
0.530878 0.029531 0.060316 255 220 0
0.596355 0.097910 0.056574 255 220 0
0.561847 0.042007 0.075851 255 220 0
0.538311 0.017840 -0.009647 255 220 0
0.539210 0.078125 0.084235 255 220 0
0.582251 0.140431 0.085122 255 220 0
0.554459 0.057194 -0.005913 255 220 0
0.522909 0.094078 0.019696 255 220 0
0.574221 0.110830 0.035668 255 220 0
0.583639 0.140844 0.076824 255 220 0
0.524807 0.045885 -0.006322 255 220 0
0.588941 0.036994 0.023382 255 220 0
0.588921 0.035310 0.047815 255 220 0
0.594567 0.104210 0.056784 255 220 0
0.530367 0.073210 0.001705 255 220 0
0.512821 0.075543 0.050906 255 220 0
0.590472 0.097846 0.085167 255 220 0
0.583241 0.100339 0.090019 255 220 0
0.546528 0.018112 -0.010231 255 220 0
0.551196 0.001327 0.032948 255 220 0
0.537270 0.011247 0.045950 255 220 0
0.521077 0.021067 -0.000680 255 220 0
0.525395 0.115054 0.062671 255 220 0
0.518519 0.082041 0.014036 255 220 0
0.548347 0.136585 0.089718 255 220 0
0.575558 0.137496 0.092400 255 220 0
0.565027 0.164847 0.074224 255 220 0
0.507584 0.065748 0.027133 255 220 0
0.537908 0.147491 0.073826 255 220 0
0.575390 0.121711 0.094583 255 220 0
0.567997 0.081395 0.091388 255 220 0
0.590590 0.044179 0.024154 255 220 0
0.513287 0.090408 0.040177 255 220 0
0.584260 0.025626 0.020268 255 220 0
0.538552 0.024297 -0.011084 255 220 0
0.544829 -0.002735 0.023331 255 220 0
0.586919 0.129607 0.084143 255 220 0
0.526724 0.063701 0.071987 255 220 0
0.552177 0.151053 0.049903 255 220 0
0.507840 0.055078 0.016843 255 220 0
0.558803 0.162141 0.081309 255 220 0
0.547241 0.116345 0.029582 255 220 0
0.523113 0.052787 0.065455 255 220 0
0.510939 0.042032 0.040642 255 220 0
0.577591 0.130412 0.051830 255 220 0
0.594245 0.048062 0.050835 255 220 0
0.529152 0.003141 0.022303 255 220 0
0.532457 0.054046 -0.007246 255 220 0
0.593032 0.063319 0.030596 255 220 0
0.561969 0.026887 -0.008587 255 220 0
0.531034 0.032448 -0.009934 255 220 0
0.588164 0.110141 0.048545 255 220 0
0.513513 0.039796 0.003441 255 220 0
0.517983 0.070661 0.061278 255 220 0
0.589411 0.060658 0.073316 255 220 0
0.536923 0.005605 -0.002648 255 220 0
0.513874 0.066249 0.008910 255 220 0
0.510543 0.034327 0.013295 255 220 0
0.553539 0.122574 0.093790 255 220 0
0.559308 0.061602 -0.002428 255 220 0
0.540203 0.084572 0.007034 255 220 0
0.524365 0.063805 0.069491 255 220 0
0.530724 0.026819 0.057814 255 220 0
0.588368 0.085633 0.032285 255 220 0
0.597878 0.066178 0.044728 255 220 0
0.562119 0.146658 0.091207 255 220 0
0.526780 0.004234 0.018242 255 220 0
0.510973 0.043312 0.041761 255 220 0
0.526755 0.032904 0.059189 255 220 0
0.526100 0.033536 -0.007865 255 220 0
0.541580 0.046036 0.075904 255 220 0
0.581697 0.090974 0.027911 255 220 0
0.583448 0.123256 0.052842 255 220 0
0.582756 0.061250 0.013611 255 220 0
0.585866 0.027895 0.024260 255 220 0
0.523224 0.008894 0.010276 255 220 0
0.584589 0.024888 0.030151 255 220 0
0.583288 0.075594 0.084405 255 220 0
0.529951 0.041653 0.067236 255 220 0
0.535574 0.102736 0.020432 255 220 0
0.541224 0.104463 0.020883 255 220 0
0.541338 0.053910 0.079208 255 220 0
0.597947 0.083902 0.051494 255 220 0
0.508969 0.045951 0.035957 255 220 0
0.537335 0.131654 0.080542 255 220 0
0.552985 0.017916 -0.009184 255 220 0
0.550313 0.002888 -0.001299 255 220 0
0.529212 0.091649 0.076165 255 220 0
0.563156 0.165874 0.065397 255 220 0
0.570552 0.099807 0.094516 255 220 0
0.515768 0.043247 0.052114 255 220 0
0.533927 0.065855 -0.002935 255 220 0
0.536202 0.082052 0.005724 255 220 0
0.573903 0.059010 0.004269 255 220 0
0.566092 0.016435 0.050446 255 220 0
0.589645 0.101156 0.043812 255 220 0
0.562479 0.002291 0.027904 255 220 0
0.526636 0.077002 0.005249 255 220 0
0.564345 0.148241 0.051813 255 220 0
0.564622 0.163847 0.062277 255 220 0
0.524743 0.098356 0.068804 255 220 0
0.540517 0.006410 0.040448 255 220 0
0.543251 0.013671 0.051700 255 220 0
0.570145 0.010525 0.005604 255 220 0
0.565698 0.051862 0.080419 255 220 0
0.520476 0.029864 -0.003602 255 220 0
0.523937 0.059909 0.068257 255 220 0
0.595882 0.097149 0.078274 255 220 0
0.555710 0.048473 0.079739 255 220 0
0.509795 0.043884 0.037899 255 220 0
0.593543 0.112768 0.076876 255 220 0
0.592806 0.073096 0.033826 255 220 0
0.534048 0.138967 0.069820 255 220 0
0.560772 0.126004 0.095357 255 220 0
0.530679 0.006550 0.032685 255 220 0
0.540416 0.129346 0.040496 255 220 0
0.579457 0.145825 0.084942 255 220 0
0.576269 0.031335 0.061339 255 220 0
0.545927 0.069031 0.085585 255 220 0
0.551269 0.158433 0.054246 255 220 0
0.520197 0.053895 -0.001664 255 220 0
0.587438 0.081276 0.084041 255 220 0
0.527095 0.121474 0.061544 255 220 0
0.567778 0.130474 0.043971 255 220 0
0.592708 0.063222 0.029893 255 220 0
0.518886 0.076098 0.062529 255 220 0
0.531374 0.053885 -0.007007 255 220 0
0.559082 -0.000876 0.020165 255 220 0
0.555220 0.151302 0.088445 255 220 0
0.507698 0.046869 0.027623 255 220 0
0.569933 0.118386 0.037647 255 220 0
0.561656 0.118007 0.033339 255 220 0
0.555360 0.125349 0.036376 255 220 0
0.594546 0.097545 0.080640 255 220 0
0.571982 0.118840 0.039351 255 220 0
0.534490 0.110252 0.027098 255 220 0
0.587035 0.074433 0.024789 255 220 0
0.574780 0.039312 -0.000492 255 220 0
0.519403 0.038099 -0.003486 255 220 0
0.584682 0.134254 0.085705 255 220 0
0.544353 0.151683 0.052752 255 220 0
0.578657 0.044451 0.004076 255 220 0
0.552071 0.072137 0.088135 255 220 0
0.534760 0.026908 0.060931 255 220 0
0.530731 0.120172 0.040590 255 220 0
0.515271 0.071322 0.056479 255 220 0
0.569229 0.006444 0.027978 255 220 0
0.534976 0.093175 0.082340 255 220 0
0.590354 0.041870 0.054223 255 220 0
0.538157 0.147826 0.057099 255 220 0
0.575304 0.020921 0.003432 255 220 0
0.543359 0.113054 0.027248 255 220 0
0.571064 0.037870 0.070456 255 220 0
0.539910 -0.002768 0.010123 255 220 0
0.592444 0.117078 0.068414 255 220 0
0.552912 0.163199 0.057820 255 220 0
0.553287 0.114019 0.028528 255 220 0
0.569718 0.032021 0.066210 255 220 0
0.508144 0.067076 0.024035 255 220 0
0.568817 0.160655 0.063078 255 220 0
0.590814 0.035987 0.038849 255 220 0
0.521473 0.108007 0.043814 255 220 0
0.598740 0.073621 0.067528 255 220 0
0.581136 0.091484 0.027747 255 220 0
0.559969 0.102480 0.022166 255 220 0
0.594582 0.078535 0.077305 255 220 0
0.599318 0.066635 0.055446 255 220 0
0.516680 0.096926 0.048895 255 220 0
0.552075 0.099668 0.018260 255 220 0
0.536677 0.144651 0.057010 255 220 0
0.512396 0.035754 0.039196 255 220 0
0.555338 0.162482 0.056819 255 220 0
0.578579 0.019929 0.009427 255 220 0
0.543921 0.002886 0.035486 255 220 0
0.531081 0.055289 0.073586 255 220 0
0.550725 0.063184 -0.004096 255 220 0
0.528202 0.116146 0.039294 255 220 0
0.587902 0.109231 0.087773 255 220 0
0.533774 0.099585 0.018440 255 220 0
0.530138 0.026688 0.057162 255 220 0
0.531631 0.016458 0.047839 255 220 0
0.527286 0.050611 0.068837 255 220 0
0.580415 0.024010 0.046074 255 220 0
0.526993 0.118632 0.046193 255 220 0
0.513564 0.090804 0.035383 255 220 0
0.550740 0.082549 0.006579 255 220 0
0.578877 0.023883 0.006776 255 220 0
0.535556 0.012743 0.046708 255 220 0
0.593556 0.057037 0.065013 255 220 0
0.534719 0.014790 -0.007392 255 220 0
0.520244 0.023223 0.041870 255 220 0
0.541944 0.158493 0.061946 255 220 0
0.542029 0.157492 0.073915 255 220 0
0.553908 0.005633 0.040190 255 220 0
0.539386 0.150497 0.057368 255 220 0
0.549589 0.012066 0.050314 255 220 0
0.529946 0.073581 0.002044 255 220 0
0.578604 0.077694 0.017237 255 220 0
0.528198 0.042170 0.066130 255 220 0
0.514666 0.087859 0.051066 255 220 0
0.559812 0.007112 0.040222 255 220 0
0.536836 0.014768 0.050115 255 220 0
0.518831 0.045611 0.057643 255 220 0
0.559708 0.013922 0.050400 255 220 0
0.591273 0.115418 0.082504 255 220 0
0.574311 0.129175 0.047928 255 220 0
0.588856 0.073958 0.080534 255 220 0
0.550343 0.105174 0.021832 255 220 0
0.539673 0.154531 0.071443 255 220 0
0.540719 0.063698 -0.004679 255 220 0
0.525087 0.075190 0.004915 255 220 0
0.551565 0.109514 0.093278 255 220 0
0.584243 0.136746 0.067208 255 220 0
0.594299 0.046408 0.035386 255 220 0
0.564062 0.100880 0.095361 255 220 0
0.530716 0.120172 0.073272 255 220 0
0.509700 0.075968 0.040417 255 220 0
0.523368 0.112090 0.057179 255 220 0
0.513749 0.090126 0.045267 255 220 0
0.589837 0.123858 0.067702 255 220 0
0.554475 0.093025 0.093122 255 220 0
0.518872 0.070328 0.062696 255 220 0
0.570765 0.049064 0.077666 255 220 0
0.530577 0.111333 0.030523 255 220 0
0.581810 0.062421 0.012936 255 220 0
0.536078 0.021950 -0.010102 255 220 0
0.519856 0.039705 -0.003818 255 220 0
0.587980 0.038480 0.019530 255 220 0
0.592667 0.113345 0.079921 255 220 0
0.566989 0.039378 0.073037 255 220 0
0.569324 0.101309 0.094932 255 220 0
0.578539 0.098330 0.091840 255 220 0
0.517698 0.029563 0.044769 255 220 0
0.593460 0.080319 0.038373 255 220 0
0.519162 0.014237 0.010768 255 220 0
0.521772 0.011795 0.026099 255 220 0
0.588965 0.127814 0.075800 255 220 0
0.540697 0.140209 0.047864 255 220 0
0.518250 0.096735 0.028887 255 220 0
0.596638 0.100438 0.074936 255 220 0
0.596265 0.076810 0.074394 255 220 0
0.525647 0.060072 -0.002714 255 220 0
0.559041 0.068710 0.000966 255 220 0
0.529652 0.069411 0.075770 255 220 0
0.561622 0.104505 0.024123 255 220 0
0.531426 0.001383 0.008685 255 220 0
0.590605 0.081160 0.081905 255 220 0
0.534776 0.112257 0.081043 255 220 0
0.599041 0.075761 0.051644 255 220 0
0.522889 0.036245 0.057419 255 220 0
0.530128 0.130417 0.061140 255 220 0
0.582005 0.105053 0.091115 255 220 0
0.583992 0.081931 0.024735 255 220 0
0.525133 0.037544 -0.007388 255 220 0
0.540135 0.039794 -0.011476 255 220 0
0.525090 0.117114 0.056818 255 220 0
0.598321 0.061382 0.050056 255 220 0
0.526844 0.007582 0.004750 255 220 0
0.579582 0.060231 0.079648 255 220 0
0.537130 0.090872 0.084104 255 220 0
0.592336 0.114396 0.062146 255 220 0
0.554292 0.134706 0.092766 255 220 0
0.583319 0.131366 0.089439 255 220 0
0.590951 0.039099 0.048354 255 220 0
0.585356 0.114079 0.089778 255 220 0
0.598549 0.090130 0.058542 255 220 0
0.531827 0.135065 0.062823 255 220 0
0.544380 0.125178 0.036167 255 220 0
0.527348 0.111898 0.034651 255 220 0
0.579020 0.136916 0.091106 255 220 0
0.523650 0.108986 0.037086 255 220 0
0.575107 0.027149 0.000696 255 220 0
0.539868 0.152485 0.058501 255 220 0
0.591373 0.058342 0.025899 255 220 0
0.577818 0.149920 0.082659 255 220 0
0.512690 0.034554 0.038716 255 220 0
0.597324 0.100095 0.071054 255 220 0
0.540218 0.012149 -0.007932 255 220 0
0.575763 0.084214 0.090148 255 220 0
0.593216 0.052877 0.029160 255 220 0
0.529133 0.029245 0.058527 255 220 0
0.562812 0.032903 0.069395 255 220 0
0.513390 0.068992 0.011275 255 220 0
0.573201 0.124848 0.094975 255 220 0
0.545618 0.003462 -0.002530 255 220 0
0.545947 0.128057 0.089594 255 220 0
0.542335 0.130229 0.040196 255 220 0
0.569242 0.036433 0.070130 255 220 0
0.546376 0.076285 0.002144 255 220 0
0.510021 0.055271 0.044168 255 220 0
0.513714 0.066505 0.053657 255 220 0
0.514301 0.022970 0.011250 255 220 0
0.595893 0.102808 0.060481 255 220 0
0.522859 0.031179 -0.005700 255 220 0
0.552189 0.164570 0.076479 255 220 0
0.575138 0.010967 0.021653 255 220 0
0.523258 0.044475 0.062517 255 220 0
0.533489 0.032414 0.064229 255 220 0
0.523751 0.017075 0.039371 255 220 0
0.510728 0.069194 0.016535 255 220 0
0.531434 0.009063 -0.002001 255 220 0
0.550643 0.099526 0.092486 255 220 0
0.551128 0.155647 0.084619 255 220 0
0.594545 0.049936 0.033700 255 220 0
0.586946 0.028923 0.030373 255 220 0
0.537222 0.093536 0.084291 255 220 0
0.547581 0.028133 -0.011936 255 220 0
0.542648 0.019750 -0.010686 255 220 0
0.549849 0.148589 0.087150 255 220 0
0.598878 0.089828 0.070233 255 220 0
0.545128 0.047840 -0.010197 255 220 0
0.559939 0.140191 0.045839 255 220 0
0.509126 0.073751 0.027189 255 220 0
0.526022 0.083452 0.072489 255 220 0
0.536372 0.031960 0.065433 255 220 0
0.525980 0.033726 0.059017 255 220 0
0.585096 0.072016 0.082058 255 220 0
0.591356 0.117980 0.080655 255 220 0
0.595157 0.047492 0.042480 255 220 0
0.588331 0.039274 0.020102 255 220 0
0.541010 0.050635 -0.009452 255 220 0
0.523218 0.010724 0.027631 255 220 0
0.595994 0.082500 0.045144 255 220 0
0.540963 0.036599 -0.011849 255 220 0
0.583734 0.139400 0.069916 255 220 0
0.558369 0.011941 0.048239 255 220 0
0.592627 0.101681 0.049434 255 220 0
0.569444 0.153600 0.057964 255 220 0
0.576548 0.152583 0.066698 255 220 0
0.517764 0.086024 0.018071 255 220 0
0.576465 0.043209 0.071521 255 220 0
0.569402 0.007448 0.030581 255 220 0
0.532437 0.052159 0.073492 255 220 0
0.553899 0.152819 0.087341 255 220 0
0.539909 0.008276 0.043187 255 220 0
0.507772 0.057042 0.035975 255 220 0
0.591262 0.070610 0.029862 255 220 0
0.552365 0.150205 0.087812 255 220 0
0.563356 0.041934 0.075559 255 220 0
0.523214 0.008228 0.012976 255 220 0
0.566697 0.005442 0.030230 255 220 0
0.586036 0.070227 0.021509 255 220 0
0.594260 0.100463 0.080857 255 220 0
0.541543 0.000206 0.002324 255 220 0
0.545949 0.056144 -0.007632 255 220 0
0.542294 0.160137 0.064926 255 220 0
0.533151 0.001786 0.025943 255 220 0
0.594782 0.057998 0.033336 255 220 0
0.580148 0.148033 0.076527 255 220 0
0.586414 0.133144 0.081244 255 220 0
0.527808 0.012126 0.038048 255 220 0
0.585298 0.128759 0.060324 255 220 0
0.561763 0.006093 0.001678 255 220 0
0.563093 0.037048 0.072429 255 220 0
0.551744 0.115667 0.093355 255 220 0
0.596001 0.069006 0.039518 255 220 0
0.581922 0.046724 0.008391 255 220 0
0.556543 0.065923 0.086793 255 220 0
0.517901 0.078466 0.060608 255 220 0
0.587543 0.104853 0.087897 255 220 0
0.564811 0.018969 0.054613 255 220 0
0.575438 0.155705 0.069685 255 220 0
0.513581 0.070934 0.053189 255 220 0
0.509073 0.049836 0.012079 255 220 0
0.535781 0.086138 0.082776 255 220 0
0.559084 0.124143 0.095232 255 220 0
0.553677 0.029653 0.067889 255 220 0
0.576118 0.040098 0.000866 255 220 0
0.568507 0.093758 0.020298 255 220 0
0.575884 0.152091 0.064725 255 220 0
0.554312 0.123846 0.093984 255 220 0
0.578595 0.015801 0.017849 255 220 0
0.594611 0.105414 0.058377 255 220 0
0.562297 0.082270 0.092123 255 220 0
0.533630 0.140222 0.063289 255 220 0
0.534536 0.132635 0.048718 255 220 0
0.522615 0.088318 0.015185 255 220 0
0.597709 0.097389 0.072075 255 220 0
0.507382 0.058684 0.033734 255 220 0
0.528603 0.112705 0.034038 255 220 0
0.576209 0.135722 0.092655 255 220 0
0.577944 0.151130 0.068465 255 220 0
0.549238 0.001155 0.032843 255 220 0
0.578210 0.143946 0.061909 255 220 0
0.523860 0.042435 0.062197 255 220 0
0.526020 0.006629 0.007932 255 220 0
0.508629 0.073404 0.033344 255 220 0
0.537111 0.134108 0.046715 255 220 0
0.535654 0.145696 0.067158 255 220 0
0.550343 0.161401 0.056804 255 220 0
0.542952 -0.002216 0.024282 255 220 0
0.580814 0.084048 0.088195 255 220 0
0.589118 0.058114 0.021768 255 220 0
0.549884 -0.002963 0.009730 255 220 0
0.575215 0.084611 0.018920 255 220 0
0.562490 0.013748 0.048841 255 220 0
0.554205 0.096128 0.093415 255 220 0
0.552493 0.082745 0.090890 255 220 0
0.584112 0.137665 0.068188 255 220 0
0.594283 0.054021 0.059531 255 220 0
0.556727 0.014112 -0.006631 255 220 0
0.558196 0.118477 0.095293 255 220 0
0.516316 0.093214 0.052070 255 220 0
0.520571 0.053892 0.062811 255 220 0
0.565087 0.082545 0.011510 255 220 0
0.510958 0.072868 0.046609 255 220 0
0.507493 0.050515 0.018911 255 220 0
0.534691 0.110869 0.027557 255 220 0
0.520081 0.054975 0.062476 255 220 0
0.511616 0.035654 0.036057 255 220 0
0.588050 0.052971 0.018771 255 220 0
0.540861 0.107385 0.023132 255 220 0
0.513356 0.030154 0.034562 255 220 0
0.542415 0.009999 0.046697 255 220 0
0.550102 0.085157 0.090577 255 220 0
0.530106 0.023616 0.054120 255 220 0
0.513537 0.040315 0.046359 255 220 0
0.584243 0.029164 0.014927 255 220 0
0.550232 0.052740 -0.008374 255 220 0
0.569978 0.028019 -0.004084 255 220 0
0.547088 0.059216 0.083047 255 220 0
0.567977 0.160172 0.061293 255 220 0
0.546953 0.029050 -0.012031 255 220 0
0.583190 0.122028 0.091137 255 220 0
0.530525 0.129304 0.053688 255 220 0
0.594016 0.057311 0.031318 255 220 0
0.576270 0.045726 0.073330 255 220 0
0.550906 0.027666 0.066202 255 220 0
0.541641 0.022308 0.060214 255 220 0
0.583256 0.026721 0.045448 255 220 0
0.542590 0.082358 0.005620 255 220 0
0.586506 0.133960 0.073564 255 220 0
0.539802 0.101447 0.018741 255 220 0
0.563263 0.005997 0.035772 255 220 0
0.575013 0.065992 0.008375 255 220 0
0.575690 0.046149 0.073908 255 220 0
0.542540 0.010757 0.047782 255 220 0
0.578484 0.033776 0.062033 255 220 0
0.599899 0.078463 0.057813 255 220 0
0.570687 0.052248 -0.000722 255 220 0
0.530803 0.108869 0.076336 255 220 0
0.542154 0.035386 0.069957 255 220 0
0.525529 0.084391 0.071789 255 220 0
0.537778 0.007809 -0.004824 255 220 0
0.532927 0.061325 -0.004723 255 220 0
0.526187 0.105842 0.028485 255 220 0
0.524450 0.041060 0.062111 255 220 0
0.510702 0.040519 0.038400 255 220 0
0.568834 0.075279 0.089377 255 220 0
0.580820 0.020366 0.015482 255 220 0
0.530475 0.051296 0.071719 255 220 0
0.529754 0.056833 0.073026 255 220 0
0.582538 0.021707 0.022254 255 220 0
0.539770 0.105718 0.086423 255 220 0
0.584210 0.024791 0.035163 255 220 0
0.585469 0.124718 0.088886 255 220 0
0.532379 0.037527 -0.010287 255 220 0
0.581547 0.065816 0.081261 255 220 0
0.571085 0.041720 0.073181 255 220 0
0.519508 0.013522 0.022015 255 220 0
0.567357 0.161323 0.061879 255 220 0
0.527524 0.113086 0.069631 255 220 0
0.514195 0.052165 0.052844 255 220 0
0.515837 0.031476 0.001202 255 220 0
0.559355 0.022321 0.060553 255 220 0
0.570892 0.082256 0.091031 255 220 0
0.534570 0.004146 0.000319 255 220 0
0.539323 0.125157 0.037918 255 220 0
0.593521 0.061509 0.031085 255 220 0
0.514109 0.054250 0.003861 255 220 0
0.521383 0.012509 0.007568 255 220 0
0.567647 0.157740 0.058793 255 220 0
0.595663 0.080172 0.076527 255 220 0
0.511682 0.029203 0.022427 255 220 0
0.549966 0.053129 -0.008282 255 220 0
0.562749 0.034194 -0.008795 255 220 0
0.571144 0.119355 0.039085 255 220 0
0.598057 0.097111 0.066147 255 220 0
0.587662 0.094152 0.036380 255 220 0
0.589832 0.071955 0.027950 255 220 0
0.565385 0.161521 0.059880 255 220 0
0.582159 0.102831 0.036513 255 220 0
0.563185 0.155481 0.054352 255 220 0
0.597057 0.099876 0.062475 255 220 0
0.591045 0.059151 0.025468 255 220 0
0.583839 0.134951 0.063846 255 220 0
0.589800 0.095426 0.040174 255 220 0
0.555084 0.156519 0.052787 255 220 0
