ply
format ascii 1.0
element vertex 1024
property float x
property float y
property float z
property uchar red
property uchar green
property uchar blue
end_header
0.366446 0.106981 0.098003 255 220 0
0.313709 0.089360 0.058428 255 220 0
0.402517 0.088287 0.044927 255 220 0
0.371923 0.049162 0.065900 255 220 0
0.382591 0.110361 0.025259 255 220 0
0.329074 0.093924 0.018025 255 220 0
0.374007 0.097693 0.094009 255 220 0
0.358352 0.179017 0.098744 255 220 0
0.403707 0.123487 0.074073 255 220 0
0.363236 0.090649 0.009962 255 220 0
0.370356 0.049952 0.067702 255 220 0
0.375455 0.047361 0.013579 255 220 0
0.348782 0.103112 0.015083 255 220 0
0.378287 0.091528 0.090434 255 220 0
0.400009 0.082072 0.061947 255 220 0
0.315357 0.115126 0.065436 255 220 0
0.332597 0.043513 0.022152 255 220 0
0.371790 0.140263 0.101606 255 220 0
0.320281 0.118907 0.074573 255 220 0
0.374081 0.073974 0.084410 255 220 0
0.378755 0.066943 0.077512 255 220 0
0.380331 0.094609 0.090426 255 220 0
0.313429 0.076255 0.047621 255 220 0
0.349489 0.037491 0.014113 255 220 0
0.330777 0.097914 0.018551 255 220 0
0.333323 0.092443 0.015187 255 220 0
0.355703 0.179248 0.056613 255 220 0
0.395493 0.088468 0.029233 255 220 0
0.358091 0.050877 0.006790 255 220 0
0.334633 0.190848 0.063530 255 220 0
0.403146 0.097304 0.045937 255 220 0
0.370144 0.191053 0.086593 255 220 0
0.396603 0.138316 0.054377 255 220 0
0.336022 0.194840 0.065018 255 220 0
0.350777 0.120071 0.098750 255 220 0
0.383258 0.042270 0.036544 255 220 0
0.356873 0.142440 0.036008 255 220 0
0.355128 0.073422 0.086612 255 220 0
0.370776 0.189579 0.088546 255 220 0
0.397264 0.141008 0.057758 255 220 0
0.328648 0.140505 0.043269 255 220 0
0.381066 0.179048 0.082345 255 220 0
0.396720 0.090094 0.031150 255 220 0
0.391360 0.085237 0.023512 255 220 0
0.336086 0.178627 0.091975 255 220 0
0.359712 0.132863 0.030565 255 220 0
0.372205 0.070969 0.083315 255 220 0
0.400643 0.087838 0.038421 255 220 0
0.351632 0.096538 0.094505 255 220 0
0.346804 0.034253 0.018909 255 220 0
0.393918 0.116978 0.038026 255 220 0
0.374323 0.170516 0.097108 255 220 0
0.364676 0.085790 0.092207 255 220 0
0.346526 0.114252 0.096398 255 220 0
0.365659 0.076304 0.087834 255 220 0
0.316402 0.108037 0.068311 255 220 0
0.396763 0.068873 0.039635 255 220 0
0.350269 0.037012 0.053926 255 220 0
0.330032 0.112561 0.025770 255 220 0
0.324254 0.078366 0.017982 255 220 0
0.392493 0.136316 0.047574 255 220 0
0.343279 0.042375 0.057579 255 220 0
0.350531 0.180135 0.098188 255 220 0
0.388091 0.068400 0.070447 255 220 0
0.387438 0.052978 0.024527 255 220 0
0.366739 0.194575 0.082536 255 220 0
0.341143 0.066978 0.078654 255 220 0
0.362010 0.149200 0.040713 255 220 0
0.399098 0.089616 0.070325 255 220 0
0.393992 0.134619 0.048196 255 220 0
0.400350 0.076885 0.049146 255 220 0
0.352272 0.161878 0.047049 255 220 0
0.389889 0.147389 0.052741 255 220 0
0.381042 0.173717 0.069088 255 220 0
0.376948 0.082211 0.087418 255 220 0
0.365494 0.180806 0.060973 255 220 0
0.349959 0.049363 0.067953 255 220 0
0.384456 0.087276 0.085420 255 220 0
0.397584 0.118176 0.042908 255 220 0
0.332298 0.132436 0.089093 255 220 0
0.335766 0.166846 0.092989 255 220 0
0.322450 0.099615 0.075688 255 220 0
0.380843 0.084797 0.014191 255 220 0
0.388778 0.110588 0.089499 255 220 0
0.320300 0.138445 0.053971 255 220 0
0.375201 0.119709 0.026117 255 220 0
0.333962 0.041427 0.023175 255 220 0
0.386308 0.170335 0.084864 255 220 0
0.372720 0.117357 0.099098 255 220 0
0.361675 0.143172 0.102581 255 220 0
0.404363 0.102141 0.052489 255 220 0
0.325540 0.146218 0.050776 255 220 0
0.364469 0.043368 0.062657 255 220 0
0.364522 0.144335 0.038196 255 220 0
0.350651 0.042189 0.060665 255 220 0
0.332603 0.077213 0.011915 255 220 0
0.384003 0.083626 0.016160 255 220 0
0.384782 0.048324 0.049638 255 220 0
0.355896 0.150048 0.040485 255 220 0
0.395193 0.073996 0.065036 255 220 0
0.379865 0.072367 0.080550 255 220 0
0.339966 0.033872 0.037820 255 220 0
0.380441 0.071217 0.011512 255 220 0
0.372233 0.044429 0.059837 255 220 0
0.386929 0.073789 0.017068 255 220 0
0.343751 0.139885 0.036024 255 220 0
0.379317 0.053563 0.013395 255 220 0
0.401588 0.091905 0.065771 255 220 0
0.369314 0.091832 0.011379 255 220 0
0.395265 0.085928 0.074395 255 220 0
0.313835 0.072232 0.041071 255 220 0
0.392588 0.071903 0.025040 255 220 0
0.351745 0.096952 0.094642 255 220 0
0.337768 0.073406 0.080395 255 220 0
0.364675 0.095794 0.012304 255 220 0
0.353262 0.092066 0.093607 255 220 0
0.371942 0.055287 0.008423 255 220 0
0.323616 0.121003 0.079127 255 220 0
0.378813 0.107064 0.021470 255 220 0
0.315590 0.104385 0.066510 255 220 0
0.314494 0.119530 0.049338 255 220 0
0.348590 0.040837 0.058331 255 220 0
0.362653 0.155652 0.044722 255 220 0
0.389260 0.115435 0.090151 255 220 0
0.350626 0.123853 0.025595 255 220 0
0.359829 0.087779 0.008516 255 220 0
0.404423 0.105101 0.051931 255 220 0
0.353984 0.159240 0.045619 255 220 0
0.363168 0.194522 0.089369 255 220 0
0.367158 0.098840 0.096010 255 220 0
0.372519 0.053386 0.069974 255 220 0
0.347395 0.102784 0.094660 255 220 0
0.360059 0.170823 0.100671 255 220 0
0.342421 0.031975 0.035074 255 220 0
0.405342 0.109560 0.056915 255 220 0
0.327507 0.051034 0.051140 255 220 0
0.329814 0.191134 0.080307 255 220 0
0.353062 0.119898 0.099337 255 220 0
0.367088 0.113528 0.099293 255 220 0
0.322699 0.053852 0.027212 255 220 0
0.395754 0.069021 0.057154 255 220 0
0.333867 0.078259 0.011382 255 220 0
0.349912 0.138052 0.100252 255 220 0
0.402193 0.116083 0.048760 255 220 0
0.326138 0.121964 0.033371 255 220 0
0.326571 0.064005 0.064867 255 220 0
0.331361 0.040537 0.032388 255 220 0
0.376204 0.039017 0.021921 255 220 0
0.387731 0.058995 0.020630 255 220 0
0.337802 0.158174 0.048138 255 220 0
0.400311 0.140479 0.064187 255 220 0
0.332357 0.182545 0.087738 255 220 0
0.321146 0.057887 0.026772 255 220 0
0.351469 0.054682 0.073314 255 220 0
0.378406 0.130002 0.033204 255 220 0
0.350549 0.034148 0.049665 255 220 0
0.378574 0.069286 0.079296 255 220 0
0.333874 0.107367 0.087709 255 220 0
0.320338 0.056475 0.041470 255 220 0
0.324628 0.161325 0.075543 255 220 0
0.352326 0.178331 0.055519 255 220 0
0.328855 0.164410 0.057686 255 220 0
0.394548 0.090631 0.077770 255 220 0
0.395266 0.065437 0.051356 255 220 0
0.357907 0.051894 0.072161 255 220 0
0.349096 0.175355 0.053817 255 220 0
0.348431 0.038203 0.013895 255 220 0
0.390950 0.157592 0.086373 255 220 0
0.378268 0.156065 0.098021 255 220 0
0.362495 0.094204 0.011361 255 220 0
0.367023 0.166372 0.100587 255 220 0
0.375028 0.098167 0.093785 255 220 0
0.395818 0.097073 0.031386 255 220 0
0.349745 0.109497 0.018046 255 220 0
0.345835 0.203034 0.073786 255 220 0
0.358071 0.105252 0.015858 255 220 0
0.372140 0.140010 0.037196 255 220 0
0.376285 0.035514 0.035685 255 220 0
0.350005 0.144624 0.037559 255 220 0
0.330990 0.146661 0.045539 255 220 0
0.341027 0.198518 0.085812 255 220 0
0.393295 0.061315 0.050162 255 220 0
0.331062 0.152542 0.049177 255 220 0
0.367709 0.088175 0.092664 255 220 0
0.346518 0.081340 0.007544 255 220 0
0.368087 0.084953 0.008608 255 220 0
0.389688 0.062089 0.061258 255 220 0
0.326029 0.083296 0.075192 255 220 0
0.346548 0.143152 0.037282 255 220 0
0.375371 0.035441 0.039524 255 220 0
0.395573 0.075205 0.030200 255 220 0
0.360051 0.033321 0.049183 255 220 0
0.351573 0.083491 0.007270 255 220 0
0.378245 0.051325 0.063230 255 220 0
0.387531 0.114209 0.091230 255 220 0
0.343627 0.154153 0.098257 255 220 0
0.387212 0.059371 0.019596 255 220 0
0.319581 0.127233 0.043774 255 220 0
0.359385 0.164485 0.049145 255 220 0
0.404061 0.109473 0.069855 255 220 0
0.371713 0.102752 0.096045 255 220 0
0.391921 0.072963 0.069527 255 220 0
0.311819 0.097229 0.053149 255 220 0
0.380121 0.094064 0.090361 255 220 0
0.338179 0.093341 0.087881 255 220 0
0.370617 0.117700 0.023775 255 220 0
0.368278 0.136156 0.033867 255 220 0
0.391866 0.058623 0.032295 255 220 0
0.386798 0.047915 0.031237 255 220 0
0.328248 0.047214 0.046610 255 220 0
0.323108 0.154532 0.071174 255 220 0
0.397030 0.117303 0.041750 255 220 0
0.383866 0.044054 0.028949 255 220 0
0.351770 0.068136 0.083367 255 220 0
0.363600 0.035321 0.016246 255 220 0
0.394471 0.090623 0.028212 255 220 0
0.313454 0.074680 0.037380 255 220 0
0.351626 0.046465 0.065568 255 220 0
0.386868 0.058331 0.061125 255 220 0
0.328722 0.107799 0.083394 255 220 0
0.322177 0.146108 0.057976 255 220 0
0.346324 0.179040 0.097468 255 220 0
0.351152 0.128048 0.099784 255 220 0
0.338399 0.129683 0.031674 255 220 0
0.399734 0.127780 0.081319 255 220 0
0.354107 0.057672 0.005207 255 220 0
0.393667 0.084058 0.026262 255 220 0
0.338168 0.201200 0.072963 255 220 0
0.363945 0.172511 0.099861 255 220 0
0.355745 0.132406 0.101320 255 220 0
0.354380 0.146272 0.101792 255 220 0
0.324614 0.164541 0.069544 255 220 0
0.312315 0.093632 0.055117 255 220 0
0.350405 0.202733 0.075623 255 220 0
0.338365 0.107993 0.019837 255 220 0
0.366787 0.030823 0.026169 255 220 0
0.332971 0.105529 0.086729 255 220 0
0.372472 0.156688 0.048096 255 220 0
0.319156 0.079101 0.023543 255 220 0
0.357925 0.135599 0.101907 255 220 0
0.397251 0.101223 0.034495 255 220 0
0.348015 0.159674 0.046204 255 220 0
0.379297 0.158520 0.052425 255 220 0
0.317111 0.120902 0.042994 255 220 0
0.326856 0.112605 0.027725 255 220 0
0.349594 0.097520 0.012529 255 220 0
0.381089 0.160078 0.095566 255 220 0
0.388541 0.050180 0.038706 255 220 0
0.339026 0.084105 0.010342 255 220 0
0.403350 0.090678 0.050182 255 220 0
0.369538 0.154940 0.046068 255 220 0
0.392146 0.081423 0.075693 255 220 0
0.375941 0.035768 0.029050 255 220 0
0.399633 0.136038 0.080836 255 220 0
0.364559 0.196100 0.078913 255 220 0
0.335476 0.086289 0.084089 255 220 0
0.325415 0.168347 0.075950 255 220 0
0.384066 0.135802 0.039787 255 220 0
0.401109 0.085983 0.062318 255 220 0
0.336549 0.180056 0.092087 255 220 0
0.357734 0.057533 0.077012 255 220 0
0.396917 0.134616 0.052008 255 220 0
0.401402 0.113501 0.076728 255 220 0
0.388875 0.106559 0.028169 255 220 0
0.348229 0.176371 0.054265 255 220 0
0.344791 0.104781 0.093999 255 220 0
0.366269 0.099160 0.096221 255 220 0
0.344353 0.201692 0.069278 255 220 0
0.357541 0.078726 0.005653 255 220 0
0.390797 0.079982 0.022115 255 220 0
0.395030 0.106338 0.033966 255 220 0
0.324177 0.109448 0.028056 255 220 0
0.341406 0.101633 0.091708 255 220 0
0.392084 0.101001 0.028722 255 220 0
0.342816 0.137833 0.097152 255 220 0
0.327206 0.091699 0.078890 255 220 0
0.399256 0.134494 0.081680 255 220 0
0.321799 0.077321 0.067579 255 220 0
0.326592 0.166268 0.080613 255 220 0
0.360756 0.118731 0.022905 255 220 0
0.327218 0.052926 0.053304 255 220 0
0.400738 0.130463 0.055062 255 220 0
0.350535 0.112884 0.019698 255 220 0
0.353442 0.044090 0.063540 255 220 0
0.355856 0.031179 0.045673 255 220 0
0.375883 0.141844 0.100285 255 220 0
0.318621 0.061899 0.030122 255 220 0
0.375259 0.133419 0.100365 255 220 0
0.311774 0.090563 0.050519 255 220 0
0.398907 0.075026 0.040591 255 220 0
0.395679 0.068437 0.035020 255 220 0
0.344948 0.074646 0.006740 255 220 0
0.328677 0.054355 0.057461 255 220 0
0.399923 0.084094 0.064207 255 220 0
0.345091 0.067982 0.081153 255 220 0
0.377583 0.079241 0.010917 255 220 0
0.316457 0.074446 0.028136 255 220 0
0.332643 0.042876 0.046919 255 220 0
0.391740 0.057874 0.033111 255 220 0
0.388658 0.148630 0.091351 255 220 0
0.312422 0.078658 0.042463 255 220 0
0.317884 0.118390 0.039860 255 220 0
0.362963 0.180038 0.059367 255 220 0
0.315599 0.097977 0.032652 255 220 0
0.312388 0.105085 0.044858 255 220 0
0.396313 0.066888 0.042046 255 220 0
0.358295 0.028128 0.028999 255 220 0
0.353311 0.183507 0.097431 255 220 0
0.381187 0.125008 0.097012 255 220 0
0.385864 0.132978 0.039384 255 220 0
0.338969 0.147439 0.095291 255 220 0
0.382006 0.118773 0.095653 255 220 0
0.351297 0.132176 0.030196 255 220 0
0.320144 0.135671 0.070483 255 220 0
0.353479 0.049849 0.007244 255 220 0
0.397477 0.069412 0.044654 255 220 0
0.373085 0.094952 0.013696 255 220 0
0.315956 0.088117 0.063177 255 220 0
0.393923 0.113111 0.036036 255 220 0
0.334459 0.141635 0.040354 255 220 0
0.353122 0.061976 0.004772 255 220 0
0.329697 0.069479 0.072437 255 220 0
0.381589 0.096476 0.090347 255 220 0
0.330146 0.096833 0.018471 255 220 0
0.333162 0.104441 0.086699 255 220 0
0.383302 0.111260 0.093356 255 220 0
0.401184 0.117614 0.078009 255 220 0
0.391859 0.062678 0.027480 255 220 0
0.393320 0.070568 0.026844 255 220 0
0.400516 0.088257 0.066086 255 220 0
0.359976 0.028617 0.038746 255 220 0
0.321946 0.072307 0.064713 255 220 0
0.354771 0.028614 0.039327 255 220 0
0.356382 0.128138 0.027723 255 220 0
0.328312 0.158222 0.055243 255 220 0
0.353002 0.193197 0.092942 255 220 0
0.337650 0.102104 0.089555 255 220 0
0.354294 0.134792 0.031507 255 220 0
0.320857 0.104720 0.028776 255 220 0
0.320466 0.099873 0.073400 255 220 0
0.326511 0.179648 0.075973 255 220 0
0.333592 0.164138 0.053057 255 220 0
0.404614 0.104518 0.053355 255 220 0
0.387871 0.058179 0.021327 255 220 0
0.400213 0.087393 0.037445 255 220 0
0.378091 0.162718 0.054877 255 220 0
0.364287 0.160051 0.101902 255 220 0
0.330225 0.045505 0.047379 255 220 0
0.330490 0.073035 0.075116 255 220 0
0.396528 0.141283 0.056756 255 220 0
0.359467 0.177415 0.099127 255 220 0
0.343675 0.085277 0.088281 255 220 0
0.373838 0.127750 0.030151 255 220 0
0.357760 0.172090 0.100498 255 220 0
0.395972 0.102835 0.033529 255 220 0
0.352717 0.136392 0.032495 255 220 0
0.329506 0.130933 0.036521 255 220 0
0.317876 0.115879 0.038224 255 220 0
0.385146 0.155151 0.093308 255 220 0
0.371785 0.162360 0.100007 255 220 0
0.314882 0.114456 0.064246 255 220 0
0.342856 0.201856 0.070025 255 220 0
0.338066 0.078619 0.082940 255 220 0
0.360035 0.128139 0.027926 255 220 0
0.337242 0.111093 0.021817 255 220 0
0.337038 0.174333 0.093369 255 220 0
0.342654 0.036414 0.048405 255 220 0
0.354348 0.041719 0.061067 255 220 0
0.335552 0.047612 0.015275 255 220 0
0.334073 0.141432 0.040424 255 220 0
0.323035 0.140392 0.049666 255 220 0
0.379109 0.039973 0.025213 255 220 0
0.402245 0.084188 0.053218 255 220 0
0.331163 0.186679 0.085167 255 220 0
0.322517 0.058018 0.051065 255 220 0
0.362672 0.032223 0.046349 255 220 0
0.348511 0.097811 0.093913 255 220 0
0.321270 0.097748 0.073933 255 220 0
0.367765 0.163160 0.100986 255 220 0
0.346015 0.193414 0.092194 255 220 0
0.346779 0.029710 0.031809 255 220 0
0.376601 0.175156 0.064557 255 220 0
0.319271 0.058241 0.040270 255 220 0
0.374171 0.065677 0.079146 255 220 0
0.326046 0.176912 0.073266 255 220 0
0.327173 0.112912 0.027676 255 220 0
0.366093 0.159133 0.047690 255 220 0
0.378864 0.163633 0.096349 255 220 0
0.378684 0.083777 0.087278 255 220 0
0.356138 0.035226 0.015056 255 220 0
0.336600 0.092304 0.086600 255 220 0
0.361191 0.188807 0.063676 255 220 0
0.397453 0.070240 0.052381 255 220 0
0.331388 0.072955 0.075823 255 220 0
0.342392 0.126595 0.095914 255 220 0
0.356377 0.175560 0.054797 255 220 0
0.333490 0.126325 0.031659 255 220 0
0.363416 0.101159 0.096951 255 220 0
0.345070 0.181513 0.096460 255 220 0
0.319586 0.130113 0.046275 255 220 0
0.326167 0.174327 0.068789 255 220 0
0.323884 0.135544 0.079164 255 220 0
0.323751 0.129753 0.079238 255 220 0
0.319962 0.135675 0.051351 255 220 0
0.381027 0.056079 0.065890 255 220 0
0.358997 0.099259 0.013190 255 220 0
0.402171 0.104757 0.044136 255 220 0
0.333959 0.139404 0.091003 255 220 0
0.380119 0.119025 0.028035 255 220 0
0.318356 0.066668 0.052450 255 220 0
0.375960 0.055095 0.010518 255 220 0
0.353822 0.116982 0.021664 255 220 0
0.403025 0.094150 0.061869 255 220 0
0.401669 0.124915 0.052833 255 220 0
0.315515 0.080364 0.029002 255 220 0
0.402366 0.097811 0.043119 255 220 0
0.377106 0.183983 0.080928 255 220 0
0.326184 0.172489 0.077839 255 220 0
0.390716 0.074551 0.021738 255 220 0
0.377243 0.092057 0.091075 255 220 0
0.365296 0.088854 0.093266 255 220 0
0.342578 0.045371 0.060709 255 220 0
0.398773 0.114278 0.042438 255 220 0
0.320943 0.131365 0.045070 255 220 0
0.327348 0.097379 0.080314 255 220 0
0.351536 0.197531 0.065283 255 220 0
0.378266 0.169641 0.060849 255 220 0
0.379343 0.038074 0.034654 255 220 0
0.345068 0.110577 0.019317 255 220 0
0.341637 0.037528 0.049350 255 220 0
0.339424 0.164784 0.050539 255 220 0
0.347220 0.143007 0.037059 255 220 0
0.364598 0.181478 0.096724 255 220 0
0.402450 0.099104 0.068354 255 220 0
0.357069 0.072457 0.004610 255 220 0
0.326646 0.149071 0.051473 255 220 0
0.353279 0.167114 0.100896 255 220 0
0.392675 0.077329 0.072154 255 220 0
0.384296 0.043777 0.038382 255 220 0
0.361944 0.072492 0.086227 255 220 0
0.394441 0.066808 0.032136 255 220 0
0.359214 0.128717 0.101474 255 220 0
0.355941 0.027818 0.035502 255 220 0
0.325079 0.159523 0.077911 255 220 0
0.394117 0.124099 0.042075 255 220 0
0.362985 0.092643 0.094691 255 220 0
0.337099 0.106739 0.019678 255 220 0
0.311973 0.097888 0.042803 255 220 0
0.404051 0.127899 0.061394 255 220 0
0.352675 0.049248 0.007516 255 220 0
0.390775 0.118832 0.035839 255 220 0
0.315435 0.088995 0.030140 255 220 0
0.335901 0.040019 0.022482 255 220 0
0.370341 0.122956 0.100546 255 220 0
0.393689 0.118734 0.038705 255 220 0
0.347852 0.101376 0.014421 255 220 0
0.354901 0.035588 0.052953 255 220 0
0.399644 0.133050 0.081278 255 220 0
0.405424 0.108927 0.062750 255 220 0
0.344974 0.184093 0.057529 255 220 0
0.327158 0.182060 0.078058 255 220 0
0.375879 0.060725 0.074524 255 220 0
0.356102 0.135053 0.031644 255 220 0
0.371451 0.135288 0.034043 255 220 0
0.401866 0.090936 0.064061 255 220 0
0.323426 0.103734 0.077478 255 220 0
0.396279 0.067709 0.039165 255 220 0
0.382074 0.076105 0.013216 255 220 0
0.326172 0.071576 0.016032 255 220 0
0.399427 0.106747 0.077614 255 220 0
0.360057 0.187960 0.094790 255 220 0
0.325755 0.164897 0.063971 255 220 0
0.333338 0.068520 0.074884 255 220 0
0.378378 0.108189 0.095119 255 220 0
0.333882 0.038429 0.031210 255 220 0
0.389063 0.075806 0.075372 255 220 0
0.312584 0.104585 0.057749 255 220 0
0.343291 0.059051 0.073941 255 220 0
0.348737 0.126482 0.027293 255 220 0
0.324907 0.164529 0.075196 255 220 0
0.374814 0.177575 0.094353 255 220 0
0.339856 0.064509 0.008067 255 220 0
0.391559 0.071895 0.023207 255 220 0
0.332978 0.083705 0.012828 255 220 0
0.313369 0.113204 0.058839 255 220 0
0.316698 0.078645 0.059700 255 220 0
0.313222 0.083591 0.053719 255 220 0
0.382590 0.111090 0.025604 255 220 0
0.400607 0.140639 0.065474 255 220 0
0.378667 0.180169 0.089326 255 220 0
0.378676 0.162420 0.055027 255 220 0
0.386018 0.048561 0.026586 255 220 0
0.359198 0.195095 0.090495 255 220 0
0.396928 0.075415 0.062839 255 220 0
0.386591 0.093427 0.086243 255 220 0
0.370083 0.058154 0.075445 255 220 0
0.342950 0.073374 0.083154 255 220 0
0.355532 0.109391 0.017739 255 220 0
0.359452 0.122644 0.100792 255 220 0
0.382097 0.048735 0.018908 255 220 0
0.357003 0.105710 0.016008 255 220 0
0.384012 0.076376 0.080251 255 220 0
0.347776 0.170770 0.099267 255 220 0
0.363946 0.028914 0.035466 255 220 0
0.331072 0.158266 0.088501 255 220 0
0.391795 0.112187 0.087346 255 220 0
0.342648 0.102448 0.015926 255 220 0
0.389521 0.054883 0.049869 255 220 0
0.401573 0.085214 0.059622 255 220 0
0.370562 0.155635 0.046816 255 220 0
0.316518 0.095287 0.066594 255 220 0
0.335801 0.157066 0.048525 255 220 0
0.342504 0.199081 0.085749 255 220 0
0.354166 0.188193 0.060528 255 220 0
0.341834 0.044532 0.012776 255 220 0
0.360095 0.055637 0.075573 255 220 0
0.395951 0.066376 0.040342 255 220 0
0.374986 0.049389 0.063892 255 220 0
0.339621 0.161278 0.095990 255 220 0
0.329471 0.114996 0.084947 255 220 0
0.347094 0.029866 0.037070 255 220 0
0.386584 0.078446 0.017313 255 220 0
0.347632 0.192234 0.093213 255 220 0
0.350159 0.196012 0.063506 255 220 0
0.366414 0.151402 0.043021 255 220 0
0.360727 0.085164 0.092134 255 220 0
0.379085 0.169264 0.061293 255 220 0
0.381011 0.039924 0.031761 255 220 0
0.335143 0.066966 0.075165 255 220 0
0.360106 0.063272 0.004357 255 220 0
0.358560 0.071582 0.004486 255 220 0
0.379988 0.090562 0.089257 255 220 0
0.321750 0.055147 0.044275 255 220 0
0.332387 0.052329 0.060010 255 220 0
0.386312 0.112656 0.091765 255 220 0
0.334564 0.076132 0.079643 255 220 0
0.352858 0.062342 0.079918 255 220 0
0.393659 0.144102 0.054865 255 220 0
0.382211 0.083896 0.085388 255 220 0
0.344239 0.044989 0.011278 255 220 0
0.353653 0.113872 0.098544 255 220 0
0.376620 0.184680 0.084613 255 220 0
0.349394 0.087300 0.008694 255 220 0
0.316990 0.117736 0.040869 255 220 0
0.364088 0.148566 0.040738 255 220 0
0.375573 0.184479 0.076258 255 220 0
0.324978 0.068925 0.017273 255 220 0
0.394605 0.079902 0.027572 255 220 0
0.401572 0.081067 0.051023 255 220 0
0.390339 0.149732 0.055340 255 220 0
0.324785 0.097503 0.022306 255 220 0
0.321074 0.100949 0.074348 255 220 0
0.395876 0.145825 0.083922 255 220 0
0.389808 0.146956 0.090551 255 220 0
0.351602 0.047250 0.008343 255 220 0
0.372038 0.037221 0.048960 255 220 0
0.359929 0.044737 0.065031 255 220 0
0.329827 0.044779 0.024696 255 220 0
0.325028 0.143428 0.080472 255 220 0
0.314715 0.104418 0.037179 255 220 0
0.347570 0.172982 0.098920 255 220 0
0.373181 0.181008 0.093617 255 220 0
0.351115 0.202571 0.078209 255 220 0
0.312565 0.087504 0.053484 255 220 0
0.330696 0.179024 0.086301 255 220 0
0.377927 0.166044 0.096360 255 220 0
0.381269 0.125072 0.096976 255 220 0
0.394370 0.087310 0.027561 255 220 0
0.314573 0.114128 0.063378 255 220 0
0.392558 0.067443 0.026376 255 220 0
0.342312 0.051091 0.009587 255 220 0
0.364697 0.030618 0.041747 255 220 0
0.383632 0.175340 0.082747 255 220 0
0.342790 0.095471 0.090971 255 220 0
0.336519 0.183306 0.059164 255 220 0
0.312972 0.076138 0.043972 255 220 0
0.347996 0.199214 0.086883 255 220 0
0.336024 0.146386 0.042470 255 220 0
0.340693 0.083327 0.086179 255 220 0
0.325759 0.067097 0.066353 255 220 0
0.366163 0.170078 0.054483 255 220 0
0.403811 0.095007 0.051891 255 220 0
0.348329 0.032205 0.045051 255 220 0
0.329568 0.078588 0.013873 255 220 0
0.393112 0.107056 0.032289 255 220 0
0.363908 0.059755 0.005135 255 220 0
0.333443 0.057165 0.012539 255 220 0
0.380600 0.152881 0.049072 255 220 0
0.318815 0.061348 0.030100 255 220 0
0.329949 0.098739 0.082974 255 220 0
0.401903 0.108464 0.074312 255 220 0
0.348173 0.033680 0.018843 255 220 0
0.313374 0.087487 0.034216 255 220 0
0.320198 0.056470 0.040594 255 220 0
0.357288 0.161287 0.101859 255 220 0
0.353600 0.093153 0.010463 255 220 0
0.332189 0.111504 0.024139 255 220 0
0.339915 0.094693 0.089258 255 220 0
0.352789 0.059411 0.077671 255 220 0
0.383149 0.127521 0.034393 255 220 0
0.400582 0.112635 0.044307 255 220 0
0.357938 0.186297 0.095994 255 220 0
0.344754 0.032195 0.041806 255 220 0
0.325740 0.068463 0.067365 255 220 0
0.347824 0.064419 0.079896 255 220 0
0.329138 0.057207 0.015898 255 220 0
0.362395 0.082677 0.091120 255 220 0
0.374356 0.130477 0.031924 255 220 0
0.373802 0.164790 0.054038 255 220 0
0.379646 0.100543 0.019074 255 220 0
0.394487 0.070484 0.029646 255 220 0
0.338066 0.034870 0.035028 255 220 0
0.395703 0.067945 0.035766 255 220 0
0.395121 0.122545 0.086113 255 220 0
0.350534 0.074549 0.086341 255 220 0
0.326522 0.129327 0.037595 255 220 0
0.331391 0.132460 0.036334 255 220 0
0.360900 0.090560 0.094049 255 220 0
0.397604 0.130459 0.050082 255 220 0
0.321616 0.069832 0.062286 255 220 0
0.336293 0.164425 0.093499 255 220 0
0.357902 0.048805 0.007493 255 220 0
0.361649 0.034589 0.016384 255 220 0
0.338560 0.123435 0.093182 255 220 0
0.346748 0.202079 0.070262 255 220 0
0.379429 0.143767 0.098528 255 220 0
0.332953 0.070788 0.075893 255 220 0
0.328847 0.090800 0.017123 255 220 0
0.328832 0.107927 0.024133 255 220 0
0.369583 0.095098 0.012769 255 220 0
0.386343 0.057486 0.060836 255 220 0
0.383162 0.144077 0.044461 255 220 0
0.380853 0.040409 0.040848 255 220 0
0.321247 0.100614 0.026626 255 220 0
0.349042 0.183881 0.057596 255 220 0
0.347824 0.200144 0.066932 255 220 0
0.330630 0.127916 0.087168 255 220 0
0.362783 0.040277 0.059017 255 220 0
0.366328 0.049227 0.068718 255 220 0
0.379729 0.047706 0.016987 255 220 0
0.384293 0.094857 0.088273 255 220 0
0.326084 0.052749 0.021737 255 220 0
0.340256 0.090699 0.088350 255 220 0
0.399225 0.145729 0.075795 255 220 0
0.375810 0.089010 0.090628 255 220 0
0.323463 0.068275 0.063987 255 220 0
0.392418 0.159992 0.074532 255 220 0
0.391091 0.116763 0.035070 255 220 0
0.328391 0.169404 0.083905 255 220 0
0.363451 0.166581 0.101144 255 220 0
0.351580 0.037051 0.054415 255 220 0
0.329076 0.158411 0.054380 255 220 0
0.372514 0.189142 0.085039 255 220 0
0.394581 0.075608 0.067759 255 220 0
0.362708 0.106975 0.098250 255 220 0
0.334821 0.190666 0.063299 255 220 0
0.319772 0.075997 0.022751 255 220 0
0.397304 0.129008 0.084353 255 220 0
0.324541 0.149897 0.078658 255 220 0
0.354979 0.166774 0.049785 255 220 0
0.392651 0.106800 0.031714 255 220 0
0.329630 0.104335 0.083703 255 220 0
0.328675 0.078188 0.014421 255 220 0
0.376513 0.035627 0.034542 255 220 0
0.349555 0.188709 0.095159 255 220 0
0.317965 0.069444 0.054643 255 220 0
0.358588 0.154976 0.043576 255 220 0
0.349893 0.152037 0.041852 255 220 0
0.342878 0.157858 0.046289 255 220 0
0.398514 0.146043 0.078429 255 220 0
0.360812 0.156121 0.044600 255 220 0
0.325245 0.137040 0.043998 255 220 0
0.382980 0.115565 0.028033 255 220 0
0.374510 0.075842 0.008716 255 220 0
0.322871 0.060407 0.021841 255 220 0
0.380711 0.179422 0.084708 255 220 0
0.329877 0.182268 0.064119 255 220 0
0.377907 0.082278 0.011774 255 220 0
0.368217 0.111797 0.098803 255 220 0
0.357326 0.060868 0.079488 255 220 0
0.322661 0.147169 0.057611 255 220 0
0.325981 0.098145 0.079137 255 220 0
0.385974 0.046107 0.038817 255 220 0
0.345118 0.127055 0.097373 255 220 0
0.402813 0.088464 0.056490 255 220 0
0.326368 0.177499 0.070210 255 220 0
0.381073 0.058747 0.013025 255 220 0
0.332714 0.141981 0.041481 255 220 0
0.390418 0.081622 0.077731 255 220 0
0.356633 0.027841 0.030525 255 220 0
0.387964 0.162893 0.066587 255 220 0
0.335990 0.196067 0.066063 255 220 0
0.341966 0.145551 0.039810 255 220 0
0.389640 0.075177 0.074279 255 220 0
0.311892 0.088567 0.050307 255 220 0
0.352787 0.198223 0.066613 255 220 0
0.400742 0.081171 0.041872 255 220 0
0.318295 0.133516 0.063827 255 220 0
0.405432 0.122608 0.065591 255 220 0
0.373654 0.130808 0.031908 255 220 0
0.349597 0.135415 0.032241 255 220 0
0.402856 0.127401 0.075955 255 220 0
0.404650 0.114660 0.054131 255 220 0
0.318254 0.122241 0.070493 255 220 0
0.342028 0.130281 0.030883 255 220 0
0.325845 0.174065 0.070673 255 220 0
0.328437 0.061263 0.064790 255 220 0
0.338160 0.195874 0.064434 255 220 0
0.385971 0.059301 0.017856 255 220 0
0.365567 0.037179 0.053424 255 220 0
0.349544 0.088664 0.091569 255 220 0
0.344790 0.092324 0.011278 255 220 0
0.321079 0.142515 0.057252 255 220 0
0.391084 0.156418 0.086719 255 220 0
0.325189 0.125619 0.036328 255 220 0
0.352110 0.059064 0.077221 255 220 0
0.353797 0.048542 0.068262 255 220 0
0.346048 0.082672 0.088298 255 220 0
0.396338 0.067869 0.052238 255 220 0
0.321125 0.145388 0.064107 255 220 0
0.313440 0.114031 0.058695 255 220 0
0.342358 0.112159 0.020747 255 220 0
0.384457 0.062874 0.015082 255 220 0
0.358138 0.045830 0.066193 255 220 0
0.404505 0.105078 0.065312 255 220 0
0.342357 0.041411 0.014587 255 220 0
0.339831 0.051500 0.065570 255 220 0
0.328244 0.189257 0.073350 255 220 0
0.331793 0.189683 0.084816 255 220 0
0.375301 0.042868 0.054944 255 220 0
0.326844 0.180406 0.070012 255 220 0
0.372253 0.049120 0.065629 255 220 0
0.324385 0.097792 0.022737 255 220 0
0.372280 0.115717 0.023109 255 220 0
0.348477 0.074479 0.085768 255 220 0
0.319453 0.113268 0.073498 255 220 0
0.380360 0.045779 0.053219 255 220 0
0.359677 0.048488 0.069006 255 220 0
0.336614 0.074461 0.080212 255 220 0
0.381119 0.053459 0.062727 255 220 0
0.391099 0.162611 0.080470 255 220 0
0.362428 0.167620 0.051741 255 220 0
0.399679 0.121931 0.080870 255 220 0
0.339876 0.135545 0.034589 255 220 0
0.329766 0.185962 0.083243 255 220 0
0.335248 0.090235 0.013581 255 220 0
0.320222 0.098444 0.026822 255 220 0
0.358899 0.148180 0.102438 255 220 0
0.374683 0.179595 0.067039 255 220 0
0.400188 0.091667 0.037156 255 220 0
0.373365 0.143263 0.101164 255 220 0
0.331376 0.150895 0.088888 255 220 0
0.315272 0.099375 0.065194 255 220 0
0.322498 0.139443 0.075914 255 220 0
0.316436 0.114554 0.068126 255 220 0
0.383510 0.168672 0.066396 255 220 0
0.366056 0.133046 0.102082 255 220 0
0.331241 0.098804 0.084088 255 220 0
0.389006 0.093128 0.084287 255 220 0
0.322248 0.137486 0.048361 255 220 0
0.378271 0.101354 0.018656 255 220 0
0.340930 0.048325 0.011328 255 220 0
0.322762 0.062026 0.021331 255 220 0
0.392282 0.080648 0.024107 255 220 0
0.392264 0.160674 0.077676 255 220 0
0.386930 0.082340 0.081316 255 220 0
0.377996 0.144949 0.099221 255 220 0
0.386499 0.144051 0.093724 255 220 0
0.336518 0.057283 0.068834 255 220 0
0.390934 0.124389 0.038956 255 220 0
0.332982 0.039040 0.036464 255 220 0
0.340156 0.039100 0.050477 255 220 0
0.383785 0.173179 0.074244 255 220 0
0.328332 0.169763 0.060933 255 220 0
0.314413 0.120168 0.050903 255 220 0
0.398132 0.148699 0.072257 255 220 0
0.404105 0.125834 0.072751 255 220 0
0.322837 0.083184 0.019940 255 220 0
0.352315 0.100305 0.013516 255 220 0
0.344944 0.102126 0.093529 255 220 0
0.351093 0.138000 0.033560 255 220 0
0.347274 0.029532 0.031432 255 220 0
0.399692 0.129449 0.081402 255 220 0
0.339368 0.145197 0.095458 255 220 0
0.400882 0.122927 0.050223 255 220 0
0.342866 0.066455 0.079188 255 220 0
0.324790 0.159209 0.077055 255 220 0
0.387669 0.151301 0.091774 255 220 0
0.378102 0.122000 0.028570 255 220 0
0.327276 0.060870 0.016478 255 220 0
0.339431 0.066339 0.008161 255 220 0
0.322619 0.144663 0.074880 255 220 0
0.403726 0.108746 0.049462 255 220 0
0.340294 0.033889 0.028749 255 220 0
0.394628 0.106304 0.083217 255 220 0
0.348209 0.125585 0.098529 255 220 0
0.386923 0.159572 0.060722 255 220 0
0.354391 0.173019 0.100197 255 220 0
0.381239 0.176730 0.088785 255 220 0
0.402556 0.085281 0.050809 255 220 0
0.387940 0.160666 0.089185 255 220 0
0.398339 0.137401 0.056415 255 220 0
0.325538 0.164296 0.077999 255 220 0
0.332722 0.154908 0.049257 255 220 0
0.320212 0.137688 0.053218 255 220 0
0.376193 0.181173 0.091404 255 220 0
0.318242 0.134237 0.056725 255 220 0
0.378456 0.064371 0.010224 255 220 0
0.327049 0.182567 0.070880 255 220 0
0.391686 0.101319 0.028463 255 220 0
0.369270 0.192405 0.083169 255 220 0
0.328909 0.060130 0.064292 255 220 0
0.397823 0.148099 0.068358 255 220 0
0.348016 0.040194 0.012588 255 220 0
0.387343 0.129593 0.093445 255 220 0
0.395755 0.096902 0.031262 255 220 0
0.350846 0.061425 0.078718 255 220 0
0.383868 0.074651 0.079282 255 220 0
0.312807 0.090272 0.036513 255 220 0
0.375150 0.168552 0.097244 255 220 0
0.356825 0.033820 0.016535 255 220 0
0.347652 0.164168 0.099819 255 220 0
0.330527 0.159708 0.053507 255 220 0
0.389041 0.079745 0.077999 255 220 0
0.338855 0.104535 0.017999 255 220 0
0.322232 0.079991 0.069484 255 220 0
0.325106 0.092801 0.077070 255 220 0
0.326230 0.046266 0.037990 255 220 0
0.392936 0.149140 0.058549 255 220 0
0.327367 0.054373 0.018992 255 220 0
0.339930 0.199333 0.084073 255 220 0
0.388508 0.051218 0.030889 255 220 0
0.342317 0.075040 0.083645 255 220 0
0.355526 0.066217 0.082799 255 220 0
0.344085 0.046187 0.062404 255 220 0
0.311697 0.090396 0.042305 255 220 0
0.342327 0.035696 0.020911 255 220 0
0.360567 0.138258 0.102328 255 220 0
0.343564 0.191420 0.092510 255 220 0
0.398999 0.094928 0.035337 255 220 0
0.396836 0.072441 0.035146 255 220 0
0.347615 0.128190 0.098579 255 220 0
0.349378 0.056951 0.006025 255 220 0
0.347447 0.047797 0.008962 255 220 0
0.344989 0.184603 0.095571 255 220 0
0.401848 0.138528 0.067519 255 220 0
0.342186 0.075473 0.007640 255 220 0
0.345576 0.174353 0.053457 255 220 0
0.311815 0.095590 0.052786 255 220 0
0.336873 0.114335 0.090897 255 220 0
0.358637 0.066643 0.083139 255 220 0
0.346837 0.064994 0.079924 255 220 0
0.397143 0.119293 0.083484 255 220 0
0.389980 0.164883 0.078578 255 220 0
0.402578 0.093735 0.043656 255 220 0
0.392542 0.081565 0.024523 255 220 0
0.337815 0.077209 0.009431 255 220 0
0.342194 0.038609 0.051567 255 220 0
0.394488 0.127896 0.044622 255 220 0
0.340971 0.063433 0.007689 255 220 0
0.374211 0.182327 0.069676 255 220 0
0.379846 0.050972 0.061120 255 220 0
0.387275 0.145973 0.048962 255 220 0
0.353930 0.191017 0.061808 255 220 0
0.363105 0.192823 0.068160 255 220 0
0.314005 0.108517 0.041104 255 220 0
0.394233 0.088232 0.076990 255 220 0
0.386555 0.047413 0.041219 255 220 0
0.351627 0.085986 0.091209 255 220 0
0.347625 0.189710 0.094425 255 220 0
0.362442 0.042230 0.061740 255 220 0
0.317481 0.080193 0.062223 255 220 0
0.389286 0.113534 0.031817 255 220 0
0.347048 0.186865 0.095417 255 220 0
0.383548 0.084171 0.084678 255 220 0
0.338960 0.034537 0.037640 255 220 0
0.384510 0.044764 0.041738 255 220 0
0.382331 0.110897 0.025343 255 220 0
0.397509 0.148801 0.078606 255 220 0
0.355246 0.030220 0.022478 255 220 0
0.341358 0.083954 0.009540 255 220 0
0.328914 0.191265 0.076037 255 220 0
0.353367 0.032324 0.047435 255 220 0
0.396916 0.102694 0.034611 255 220 0
0.370301 0.190477 0.076703 255 220 0
0.381424 0.178281 0.079984 255 220 0
0.348834 0.042300 0.060160 255 220 0
0.376005 0.171398 0.060455 255 220 0
0.372148 0.040890 0.015813 255 220 0
0.383805 0.079052 0.081945 255 220 0
0.357402 0.154147 0.102224 255 220 0
0.396682 0.114286 0.039754 255 220 0
0.381454 0.085776 0.014876 255 220 0
0.373690 0.106795 0.096469 255 220 0
0.327560 0.106143 0.082058 255 220 0
0.391982 0.152134 0.087109 255 220 0
0.385579 0.060074 0.065095 255 220 0
0.362023 0.195885 0.071219 255 220 0
0.323646 0.096971 0.076491 255 220 0
0.314272 0.070866 0.039260 255 220 0
0.347903 0.120545 0.097828 255 220 0
0.362368 0.164353 0.101581 255 220 0
0.375914 0.069058 0.080595 255 220 0
0.375894 0.077089 0.009600 255 220 0
0.359373 0.128967 0.028329 255 220 0
0.362099 0.191957 0.066482 255 220 0
0.357706 0.162726 0.101773 255 220 0
0.389364 0.056300 0.026069 255 220 0
0.390476 0.151081 0.056805 255 220 0
0.375960 0.124563 0.099287 255 220 0
0.325918 0.169759 0.077728 255 220 0
0.324939 0.161031 0.063815 255 220 0
0.317089 0.111613 0.036858 255 220 0
0.399191 0.145711 0.069328 255 220 0
0.316073 0.081417 0.060129 255 220 0
0.320987 0.138709 0.052240 255 220 0
0.374336 0.179496 0.093742 255 220 0
0.365264 0.191979 0.069505 255 220 0
0.370247 0.036552 0.049430 255 220 0
0.365724 0.184392 0.063430 255 220 0
0.343346 0.073194 0.083243 255 220 0
0.340643 0.033130 0.032068 255 220 0
0.313094 0.095834 0.058832 255 220 0
0.326380 0.162866 0.061100 255 220 0
0.327324 0.175971 0.080638 255 220 0
0.333837 0.193578 0.065899 255 220 0
0.363075 0.030753 0.043177 255 220 0
0.391534 0.130480 0.090128 255 220 0
0.388561 0.100061 0.025168 255 220 0
0.365798 0.030118 0.027285 255 220 0
0.367706 0.121705 0.025431 255 220 0
0.383321 0.053814 0.060440 255 220 0
0.365037 0.135995 0.102321 255 220 0
0.366441 0.122413 0.100911 255 220 0
0.374573 0.180557 0.067980 255 220 0
0.404538 0.101736 0.059973 255 220 0
0.363081 0.046382 0.009005 255 220 0
0.363113 0.158692 0.102113 255 220 0
0.319781 0.118945 0.073779 255 220 0
0.337336 0.083448 0.084338 255 220 0
0.356934 0.116326 0.021334 255 220 0
0.318936 0.097419 0.070875 255 220 0
0.314451 0.071902 0.046225 255 220 0
0.325384 0.137736 0.044355 255 220 0
0.336498 0.084327 0.084117 255 220 0
0.326905 0.060613 0.062015 255 220 0
0.388180 0.094507 0.022805 255 220 0
0.330857 0.135434 0.038479 255 220 0
0.329619 0.055595 0.060294 255 220 0
0.365224 0.044917 0.064312 255 220 0
0.363488 0.124094 0.101207 255 220 0
0.352107 0.055755 0.074437 255 220 0
0.330157 0.066752 0.071141 255 220 0
0.390148 0.070230 0.021134 255 220 0
0.346049 0.081674 0.007727 255 220 0
0.372203 0.063371 0.007094 255 220 0
0.365787 0.097544 0.095864 255 220 0
0.351666 0.197344 0.065165 255 220 0
0.348522 0.057664 0.006079 255 220 0
0.384128 0.167916 0.090805 255 220 0
0.323471 0.157388 0.069853 255 220 0
0.395857 0.101611 0.032927 255 220 0
0.393848 0.090809 0.078681 255 220 0
0.373447 0.066259 0.079855 255 220 0
0.364751 0.058095 0.076998 255 220 0
0.398055 0.071118 0.050718 255 220 0
0.334623 0.109816 0.022183 255 220 0
0.379234 0.178212 0.072576 255 220 0
0.330330 0.128960 0.034809 255 220 0
0.382666 0.045067 0.048009 255 220 0
0.369795 0.102556 0.016111 255 220 0
0.393351 0.091136 0.079385 255 220 0
0.365422 0.045800 0.065285 255 220 0
0.396145 0.078592 0.067691 255 220 0
0.402583 0.126444 0.055776 255 220 0
0.367128 0.087220 0.009179 255 220 0
0.335366 0.140403 0.092228 255 220 0
0.364251 0.071906 0.085672 255 220 0
0.335973 0.115033 0.090333 255 220 0
0.347779 0.035764 0.016431 255 220 0
0.328685 0.085990 0.015873 255 220 0
0.319149 0.130871 0.047884 255 220 0
0.344244 0.072011 0.083043 255 220 0
0.325355 0.065326 0.064334 255 220 0
0.383179 0.119175 0.095044 255 220 0
0.389540 0.060977 0.022989 255 220 0
0.349577 0.084461 0.090110 255 220 0
0.347746 0.089751 0.091356 255 220 0
0.392569 0.063470 0.028923 255 220 0
0.347207 0.140782 0.099419 255 220 0
0.396718 0.068328 0.040675 255 220 0
0.384896 0.170818 0.087891 255 220 0
0.333202 0.062344 0.011619 255 220 0
0.395346 0.112351 0.083981 255 220 0
0.390113 0.085638 0.080185 255 220 0
0.336501 0.039724 0.047154 255 220 0
0.350935 0.198361 0.065861 255 220 0
0.329391 0.142867 0.086594 255 220 0
0.329255 0.079047 0.076703 255 220 0
0.322640 0.053680 0.027607 255 220 0
0.381207 0.062602 0.072222 255 220 0
0.383614 0.126586 0.095767 255 220 0
0.347190 0.032024 0.022416 255 220 0
0.328523 0.153816 0.052389 255 220 0
0.394189 0.105494 0.032685 255 220 0
0.315524 0.075437 0.029777 255 220 0
0.334653 0.037573 0.032829 255 220 0
0.351359 0.194638 0.062961 255 220 0
0.403199 0.129158 0.074837 255 220 0
0.325091 0.052874 0.049201 255 220 0
0.345721 0.081992 0.007876 255 220 0
0.362575 0.066950 0.004431 255 220 0
0.359826 0.156376 0.044567 255 220 0
0.398007 0.144855 0.063566 255 220 0
0.381261 0.135998 0.038188 255 220 0
0.387086 0.114248 0.030347 255 220 0
0.348524 0.197827 0.064508 255 220 0
0.373838 0.142971 0.039567 255 220 0
0.346667 0.190838 0.060082 255 220 0
0.395345 0.146842 0.060234 255 220 0
0.391046 0.101965 0.028114 255 220 0
0.373904 0.177385 0.064008 255 220 0
0.383901 0.138194 0.041155 255 220 0
0.338480 0.189619 0.060877 255 220 0
