ply
format ascii 1.0
element vertex 1024
property float x
property float y
property float z
property uchar red
property uchar green
property uchar blue
end_header
0.178149 0.135181 0.090950 255 220 0
0.129355 0.087828 0.096837 255 220 0
0.180545 0.113708 0.027699 255 220 0
0.191549 0.075833 0.064457 255 220 0
0.145381 0.119296 0.025852 255 220 0
0.114052 0.083609 0.056373 255 220 0
0.185363 0.128400 0.083117 255 220 0
0.138093 0.195432 0.095505 255 220 0
0.180871 0.154674 0.047984 255 220 0
0.133494 0.090099 0.027691 255 220 0
0.191167 0.076577 0.066829 255 220 0
0.164733 0.057861 0.023092 255 220 0
0.120843 0.097596 0.040889 255 220 0
0.189135 0.123326 0.077721 255 220 0
0.191693 0.113139 0.042189 255 220 0
0.121885 0.113256 0.100477 255 220 0
0.143340 0.042256 0.058077 255 220 0
0.167487 0.167327 0.089445 255 220 0
0.128521 0.121377 0.103947 255 220 0
0.191480 0.104491 0.076359 255 220 0
0.194027 0.097680 0.068237 255 220 0
0.188972 0.126735 0.076295 255 220 0
0.129366 0.072647 0.089210 255 220 0
0.152777 0.040256 0.040955 255 220 0
0.113527 0.087870 0.055555 255 220 0
0.115942 0.082860 0.051456 255 220 0
0.112065 0.180486 0.065819 255 220 0
0.166832 0.106090 0.020655 255 220 0
0.147700 0.052506 0.029510 255 220 0
0.096514 0.185499 0.084776 255 220 0
0.177137 0.122138 0.027861 255 220 0
0.133004 0.206001 0.078360 255 220 0
0.157661 0.158462 0.037726 255 220 0
0.096334 0.189975 0.084886 255 220 0
0.161882 0.141321 0.101681 255 220 0
0.185525 0.063921 0.035139 255 220 0
0.118976 0.141829 0.050369 255 220 0
0.180546 0.098057 0.090623 255 220 0
0.135259 0.205596 0.079425 255 220 0
0.158721 0.162184 0.039758 255 220 0
0.105522 0.132620 0.074603 255 220 0
0.143609 0.197950 0.068154 255 220 0
0.167945 0.108589 0.021239 255 220 0
0.162409 0.099881 0.019197 255 220 0
0.119754 0.184943 0.105274 255 220 0
0.122394 0.132640 0.044602 255 220 0
0.191084 0.100836 0.076848 255 220 0
0.175799 0.110459 0.024098 255 220 0
0.171494 0.119656 0.098396 255 220 0
0.155343 0.038100 0.046383 255 220 0
0.156927 0.133378 0.027718 255 220 0
0.151808 0.193104 0.083822 255 220 0
0.184000 0.114110 0.088209 255 220 0
0.160576 0.133949 0.102865 255 220 0
0.186768 0.104704 0.084474 255 220 0
0.127681 0.108410 0.102064 255 220 0
0.183198 0.092948 0.027950 255 220 0
0.176367 0.053543 0.070160 255 220 0
0.110031 0.102823 0.061158 255 220 0
0.118450 0.068316 0.059847 255 220 0
0.152030 0.152970 0.035421 255 220 0
0.171247 0.056987 0.077433 255 220 0
0.132084 0.193457 0.100272 255 220 0
0.195404 0.099866 0.056724 255 220 0
0.176155 0.070688 0.023184 255 220 0
0.126717 0.206503 0.077530 255 220 0
0.169927 0.084810 0.094111 255 220 0
0.121756 0.151131 0.050333 255 220 0
0.192219 0.122226 0.048904 255 220 0
0.154202 0.152228 0.034920 255 220 0
0.187104 0.104416 0.032508 255 220 0
0.112799 0.160891 0.061297 255 220 0
0.147878 0.163455 0.040797 255 220 0
0.138589 0.188818 0.058378 255 220 0
0.191072 0.113706 0.076539 255 220 0
0.120247 0.186775 0.062530 255 220 0
0.178183 0.068943 0.080598 255 220 0
0.192391 0.120104 0.069956 255 220 0
0.161555 0.137365 0.028900 255 220 0
0.138152 0.142326 0.106530 255 220 0
0.125875 0.174892 0.106470 255 220 0
0.140002 0.105685 0.103707 255 220 0
0.150358 0.092639 0.019246 255 220 0
0.186197 0.143349 0.069677 255 220 0
0.107177 0.131484 0.088184 255 220 0
0.136450 0.125132 0.031230 255 220 0
0.145843 0.041264 0.057973 255 220 0
0.152754 0.193049 0.066713 255 220 0
0.177839 0.146821 0.087394 255 220 0
0.159974 0.166621 0.096846 255 220 0
0.179336 0.128999 0.031849 255 220 0
0.104997 0.139040 0.082163 255 220 0
0.187614 0.067051 0.067107 255 220 0
0.124338 0.146924 0.046876 255 220 0
0.177957 0.060469 0.074836 255 220 0
0.121023 0.068212 0.049786 255 220 0
0.154137 0.093396 0.018636 255 220 0
0.191086 0.074160 0.043781 255 220 0
0.117190 0.149633 0.054215 255 220 0
0.194239 0.105433 0.047854 255 220 0
0.193854 0.103830 0.069662 255 220 0
0.161882 0.041732 0.065054 255 220 0
0.155184 0.079742 0.017774 255 220 0
0.190585 0.069768 0.059817 255 220 0
0.161383 0.086152 0.017555 255 220 0
0.111602 0.134970 0.059160 255 220 0
0.164140 0.064575 0.020266 255 220 0
0.190128 0.123567 0.043804 255 220 0
0.137727 0.093756 0.024682 255 220 0
0.193834 0.119027 0.054562 255 220 0
0.127838 0.067071 0.084128 255 220 0
0.170600 0.089194 0.019777 255 220 0
0.171445 0.120104 0.098415 255 220 0
0.165569 0.089814 0.097532 255 220 0
0.133273 0.095886 0.028383 255 220 0
0.174233 0.116026 0.096726 255 220 0
0.155596 0.061797 0.021429 255 220 0
0.132304 0.125921 0.105087 255 220 0
0.142331 0.113807 0.025601 255 220 0
0.127896 0.104329 0.101329 255 220 0
0.109932 0.111365 0.088951 255 220 0
0.175923 0.057774 0.074491 255 220 0
0.121330 0.158340 0.052774 255 220 0
0.184522 0.147969 0.069750 255 220 0
0.117964 0.119892 0.047109 255 220 0
0.131824 0.085903 0.028933 255 220 0
0.177611 0.131415 0.031336 255 220 0
0.114391 0.158711 0.059142 255 220 0
0.128315 0.207501 0.085007 255 220 0
0.181446 0.127657 0.089145 255 220 0
0.192217 0.081105 0.067019 255 220 0
0.165748 0.123661 0.101210 255 220 0
0.144321 0.189535 0.095965 255 220 0
0.162846 0.040017 0.061408 255 220 0
0.178899 0.137312 0.034358 255 220 0
0.152953 0.056799 0.082954 255 220 0
0.102831 0.189705 0.100498 255 220 0
0.163806 0.142175 0.100602 255 220 0
0.176115 0.141557 0.091361 255 220 0
0.134687 0.049488 0.068240 255 220 0
0.192514 0.098631 0.041694 255 220 0
0.121038 0.069392 0.048527 255 220 0
0.153399 0.157213 0.103032 255 220 0
0.168965 0.139140 0.030242 255 220 0
0.107241 0.112216 0.069241 255 220 0
0.153883 0.072417 0.093573 255 220 0
0.149852 0.042676 0.066596 255 220 0
0.174083 0.053658 0.028980 255 220 0
0.171175 0.074728 0.019965 255 220 0
0.105714 0.152915 0.071808 255 220 0
0.164672 0.164968 0.042539 255 220 0
0.112958 0.185615 0.104517 255 220 0
0.131444 0.052312 0.068867 255 220 0
0.179656 0.075926 0.083492 255 220 0
0.137601 0.137637 0.034190 255 220 0
0.175504 0.049706 0.066848 255 220 0
0.193789 0.100263 0.069644 255 220 0
0.150630 0.120541 0.104930 255 220 0
0.140035 0.055752 0.080401 255 220 0
0.111234 0.160254 0.100965 255 220 0
0.109664 0.178124 0.067267 255 220 0
0.102264 0.158416 0.084766 255 220 0
0.193003 0.124017 0.057468 255 220 0
0.190616 0.093375 0.037760 255 220 0
0.184589 0.075379 0.078402 255 220 0
0.108016 0.173812 0.068203 255 220 0
0.151609 0.040431 0.041482 255 220 0
0.162893 0.184078 0.064996 255 220 0
0.161979 0.182195 0.082157 255 220 0
0.132074 0.093410 0.029159 255 220 0
0.151025 0.188082 0.091355 255 220 0
0.185675 0.129099 0.082262 255 220 0
0.164082 0.114439 0.021881 255 220 0
0.120060 0.104507 0.042337 255 220 0
0.103820 0.203549 0.084744 255 220 0
0.126352 0.103006 0.035247 255 220 0
0.130886 0.145504 0.041145 255 220 0
0.183744 0.055273 0.039266 255 220 0
0.114283 0.141832 0.056054 255 220 0
0.105361 0.139585 0.074621 255 220 0
0.109761 0.201967 0.097006 255 220 0
0.190646 0.088680 0.038259 255 220 0
0.104625 0.145970 0.077176 255 220 0
0.185093 0.117416 0.086487 255 220 0
0.125654 0.075254 0.037187 255 220 0
0.138688 0.086385 0.023562 255 220 0
0.194263 0.091824 0.048925 255 220 0
0.150036 0.092542 0.101269 255 220 0
0.112569 0.139234 0.058175 255 220 0
0.185380 0.056182 0.042741 255 220 0
0.173912 0.094872 0.021578 255 220 0
0.181880 0.052178 0.060182 255 220 0
0.127772 0.078825 0.033578 255 220 0
0.193120 0.079054 0.058216 255 220 0
0.184603 0.146652 0.071729 255 220 0
0.140263 0.168370 0.105415 255 220 0
0.170057 0.074524 0.019530 255 220 0
0.106325 0.118007 0.081267 255 220 0
0.117407 0.166385 0.058079 255 220 0
0.185522 0.141148 0.044870 255 220 0
0.182553 0.132691 0.086067 255 220 0
0.195168 0.104890 0.053402 255 220 0
0.121243 0.092245 0.094004 255 220 0
0.189062 0.126163 0.076397 255 220 0
0.160405 0.109879 0.102464 255 220 0
0.133072 0.120970 0.032570 255 220 0
0.128317 0.139653 0.041304 255 220 0
0.180768 0.079799 0.025927 255 220 0
0.182054 0.068307 0.028714 255 220 0
0.152706 0.052199 0.079154 255 220 0
0.111043 0.152316 0.098846 255 220 0
0.160952 0.136017 0.028421 255 220 0
0.180697 0.063131 0.029031 255 220 0
0.179055 0.091164 0.090537 255 220 0
0.164341 0.044067 0.033201 255 220 0
0.164523 0.107266 0.020532 255 220 0
0.124275 0.067827 0.081579 255 220 0
0.179325 0.066198 0.077764 255 220 0
0.194165 0.087504 0.050774 255 220 0
0.144554 0.117642 0.105128 255 220 0
0.106970 0.140185 0.089777 255 220 0
0.129438 0.190773 0.102555 255 220 0
0.158829 0.148763 0.102050 255 220 0
0.110565 0.122710 0.059670 255 220 0
0.180320 0.159461 0.055953 255 220 0
0.140856 0.056494 0.030848 255 220 0
0.166079 0.100594 0.019737 255 220 0
0.099199 0.198963 0.089266 255 220 0
0.145588 0.192107 0.092743 255 220 0
0.160604 0.154707 0.100057 255 220 0
0.153210 0.166483 0.101051 255 220 0
0.106213 0.161032 0.096435 255 220 0
0.124453 0.089945 0.095212 255 220 0
0.108026 0.205520 0.083081 255 220 0
0.114337 0.099778 0.051274 255 220 0
0.174326 0.044615 0.038573 255 220 0
0.150371 0.118287 0.104834 255 220 0
0.129218 0.163850 0.048740 255 220 0
0.117929 0.069032 0.067374 255 220 0
0.160817 0.158461 0.098984 255 220 0
0.164782 0.119616 0.023168 255 220 0
0.110589 0.157178 0.063540 255 220 0
0.135297 0.169320 0.047395 255 220 0
0.107343 0.111347 0.082449 255 220 0
0.109042 0.102398 0.064730 255 220 0
0.122641 0.092141 0.038550 255 220 0
0.160468 0.185865 0.078371 255 220 0
0.186380 0.073419 0.033085 255 220 0
0.120982 0.075964 0.044206 255 220 0
0.182941 0.117861 0.031021 255 220 0
0.126978 0.160604 0.049211 255 220 0
0.194725 0.114432 0.057692 255 220 0
0.179586 0.053135 0.034538 255 220 0
0.175946 0.166469 0.055501 255 220 0
0.122461 0.205842 0.076247 255 220 0
0.159894 0.101492 0.101567 255 220 0
0.108559 0.166797 0.100611 255 220 0
0.142271 0.146917 0.035226 255 220 0
0.190720 0.117065 0.041659 255 220 0
0.119425 0.186391 0.105023 255 220 0
0.184507 0.081874 0.082029 255 220 0
0.158314 0.154545 0.035820 255 220 0
0.185752 0.146042 0.051691 255 220 0
0.153040 0.119180 0.023917 255 220 0
0.107207 0.174544 0.069094 255 220 0
0.162681 0.124262 0.102411 255 220 0
0.180826 0.127693 0.089889 255 220 0
0.100913 0.200334 0.082391 255 220 0
0.133094 0.076229 0.028493 255 220 0
0.163800 0.094625 0.018630 255 220 0
0.160521 0.123117 0.024153 255 220 0
0.109010 0.098809 0.066819 255 220 0
0.160676 0.119546 0.103013 255 220 0
0.158180 0.115650 0.022301 255 220 0
0.147060 0.153469 0.105444 255 220 0
0.148830 0.101538 0.103085 255 220 0
0.176936 0.165273 0.056411 255 220 0
0.145802 0.083267 0.098516 255 220 0
0.113022 0.166972 0.103347 255 220 0
0.125584 0.118093 0.038462 255 220 0
0.153081 0.059078 0.084725 255 220 0
0.164606 0.153300 0.035637 255 220 0
0.119875 0.108299 0.042980 255 220 0
0.180515 0.064084 0.075088 255 220 0
0.178153 0.047643 0.060394 255 220 0
0.168650 0.169706 0.085706 255 220 0
0.129747 0.056052 0.072970 255 220 0
0.172397 0.162161 0.086343 255 220 0
0.122956 0.085525 0.092199 255 220 0
0.182155 0.099398 0.027119 255 220 0
0.180050 0.090629 0.025236 255 220 0
0.127427 0.068587 0.037760 255 220 0
0.155729 0.062242 0.086830 255 220 0
0.191946 0.115636 0.043894 255 220 0
0.173467 0.087923 0.093331 255 220 0
0.149046 0.085534 0.019077 255 220 0
0.121061 0.065565 0.072687 255 220 0
0.157891 0.050071 0.076543 255 220 0
0.181520 0.079376 0.026634 255 220 0
0.168614 0.177127 0.070409 255 220 0
0.124571 0.072648 0.085983 255 220 0
0.107279 0.108371 0.079644 255 220 0
0.118035 0.184669 0.063029 255 220 0
0.111603 0.087319 0.076177 255 220 0
0.113025 0.096505 0.087286 255 220 0
0.185255 0.091871 0.030087 255 220 0
0.171680 0.040218 0.046387 255 220 0
0.131833 0.197125 0.097793 255 220 0
0.178477 0.155784 0.080058 255 220 0
0.144601 0.144952 0.033783 255 220 0
0.138774 0.159865 0.106430 255 220 0
0.181279 0.150175 0.078619 255 220 0
0.116983 0.128943 0.049937 255 220 0
0.117902 0.134578 0.100665 255 220 0
0.145429 0.050133 0.032937 255 220 0
0.186285 0.095364 0.031211 255 220 0
0.140014 0.098592 0.023843 255 220 0
0.134164 0.089138 0.098911 255 220 0
0.157675 0.129334 0.026304 255 220 0
0.107121 0.134676 0.068540 255 220 0
0.137858 0.059755 0.031096 255 220 0
0.157611 0.080852 0.097038 255 220 0
0.188843 0.128782 0.075364 255 220 0
0.113593 0.086676 0.055937 255 220 0
0.151010 0.117395 0.104706 255 220 0
0.184480 0.143302 0.076186 255 220 0
0.184335 0.149986 0.052713 255 220 0
0.176023 0.081710 0.022260 255 220 0
0.172768 0.088897 0.020661 255 220 0
0.191383 0.120111 0.044823 255 220 0
0.178138 0.044526 0.052533 255 220 0
0.146701 0.077976 0.096376 255 220 0
0.175049 0.042881 0.056430 255 220 0
0.120880 0.126382 0.044787 255 220 0
0.103524 0.152001 0.083423 255 220 0
0.124325 0.203958 0.094462 255 220 0
0.156741 0.117904 0.103896 255 220 0
0.118430 0.132727 0.048872 255 220 0
0.109547 0.093753 0.069656 255 220 0
0.137258 0.104438 0.103315 255 220 0
0.103777 0.177053 0.099682 255 220 0
0.102856 0.158291 0.078165 255 220 0
0.178838 0.131454 0.032282 255 220 0
0.172065 0.074300 0.020407 255 220 0
0.175173 0.109589 0.023664 255 220 0
0.133862 0.173385 0.049946 255 220 0
0.153065 0.182044 0.094278 255 220 0
0.155281 0.051666 0.078445 255 220 0
0.157934 0.085138 0.098441 255 220 0
0.157528 0.161826 0.039495 255 220 0
0.139829 0.194556 0.095080 255 220 0
0.168185 0.104919 0.099260 255 220 0
0.133944 0.133028 0.034993 255 220 0
0.142091 0.189769 0.097341 255 220 0
0.162601 0.120245 0.023267 255 220 0
0.117179 0.133900 0.050628 255 220 0
0.106887 0.122295 0.069179 255 220 0
0.107561 0.105625 0.078476 255 220 0
0.164245 0.182236 0.074081 255 220 0
0.155783 0.186068 0.087831 255 220 0
0.121216 0.112104 0.099918 255 220 0
0.100277 0.200200 0.083942 255 220 0
0.164681 0.095327 0.099133 255 220 0
0.123399 0.127741 0.042508 255 220 0
0.113221 0.102755 0.053440 255 220 0
0.123276 0.182002 0.105763 255 220 0
0.168482 0.048470 0.071116 255 220 0
0.180849 0.061501 0.072686 255 220 0
0.139338 0.044557 0.050900 255 220 0
0.107005 0.134386 0.068852 255 220 0
0.105556 0.132696 0.083114 255 220 0
0.177416 0.056629 0.029486 255 220 0
0.187123 0.112831 0.034146 255 220 0
0.108681 0.187934 0.103313 255 220 0
0.146219 0.061106 0.086084 255 220 0
0.182514 0.051190 0.056344 255 220 0
0.168480 0.119464 0.100006 255 220 0
0.139130 0.103047 0.103218 255 220 0
0.153309 0.185676 0.091220 255 220 0
0.119194 0.201427 0.098548 255 220 0
0.164945 0.038479 0.056115 255 220 0
0.132366 0.186976 0.057923 255 220 0
0.137782 0.056512 0.080182 255 220 0
0.192568 0.095507 0.072530 255 220 0
0.103253 0.173588 0.098023 255 220 0
0.109073 0.102762 0.064476 255 220 0
0.123597 0.163594 0.052633 255 220 0
0.157718 0.188445 0.080367 255 220 0
0.191368 0.115638 0.075249 255 220 0
0.158797 0.040947 0.037279 255 220 0
0.159137 0.107985 0.102578 255 220 0
0.115062 0.193148 0.067255 255 220 0
0.190298 0.098685 0.036977 255 220 0
0.158970 0.085624 0.098373 255 220 0
0.151556 0.143095 0.105017 255 220 0
0.113267 0.176893 0.064087 255 220 0
0.108966 0.118041 0.062988 255 220 0
0.178392 0.128676 0.092293 255 220 0
0.126828 0.192147 0.102589 255 220 0
0.106358 0.121365 0.083075 255 220 0
0.102026 0.169866 0.094651 255 220 0
0.125405 0.138716 0.104657 255 220 0
0.128186 0.133642 0.104912 255 220 0
0.106804 0.128064 0.086506 255 220 0
0.194156 0.085082 0.058260 255 220 0
0.128356 0.097203 0.032755 255 220 0
0.171826 0.127690 0.027023 255 220 0
0.136940 0.149637 0.106716 255 220 0
0.141119 0.126920 0.029403 255 220 0
0.140056 0.067651 0.089720 255 220 0
0.159534 0.063756 0.020323 255 220 0
0.121165 0.113699 0.042182 255 220 0
0.187738 0.124717 0.039893 255 220 0
0.166647 0.148036 0.033460 255 220 0
0.118050 0.070690 0.073847 255 220 0
0.174760 0.121355 0.026267 255 220 0
0.137783 0.200380 0.069637 255 220 0
0.108127 0.171321 0.101429 255 220 0
0.166182 0.089730 0.018507 255 220 0
0.188558 0.123636 0.078883 255 220 0
0.183520 0.117360 0.088528 255 220 0
0.171120 0.060409 0.080178 255 220 0
0.163970 0.134225 0.027833 255 220 0
0.105948 0.122530 0.081248 255 220 0
0.146969 0.107025 0.103943 255 220 0
0.105376 0.197892 0.074711 255 220 0
0.134025 0.181502 0.054154 255 220 0
0.183914 0.058239 0.036413 255 220 0
0.117186 0.104225 0.046377 255 220 0
0.167811 0.049401 0.072477 255 220 0
0.104932 0.160065 0.072393 255 220 0
0.112954 0.139269 0.057565 255 220 0
0.139841 0.199104 0.089795 255 220 0
0.188663 0.131024 0.045020 255 220 0
0.135245 0.070240 0.028148 255 220 0
0.104732 0.142155 0.081893 255 220 0
0.141800 0.183979 0.100715 255 220 0
0.195041 0.109852 0.054778 255 220 0
0.186527 0.066223 0.035791 255 220 0
0.185262 0.099524 0.085819 255 220 0
0.178376 0.087796 0.023937 255 220 0
0.164775 0.152764 0.097935 255 220 0
0.174013 0.041309 0.052812 255 220 0
0.113770 0.159641 0.102467 255 220 0
0.155906 0.141028 0.030471 255 220 0
0.180969 0.120331 0.091056 255 220 0
0.114025 0.098183 0.052022 255 220 0
0.115085 0.089385 0.086167 255 220 0
0.171670 0.154369 0.038208 255 220 0
0.145350 0.049416 0.033686 255 220 0
0.152700 0.133148 0.028142 255 220 0
0.114438 0.078577 0.074583 255 220 0
0.147407 0.040486 0.056192 255 220 0
0.174373 0.151355 0.089951 255 220 0
0.156309 0.135058 0.028343 255 220 0
0.120699 0.095529 0.041047 255 220 0
0.179550 0.053609 0.066379 255 220 0
0.177665 0.164015 0.055881 255 220 0
0.182609 0.138756 0.038671 255 220 0
0.103169 0.181233 0.073547 255 220 0
0.104222 0.180091 0.100760 255 220 0
0.193456 0.090230 0.068039 255 220 0
0.119571 0.133639 0.047766 255 220 0
0.130928 0.140075 0.039341 255 220 0
0.189802 0.122243 0.042362 255 220 0
0.139661 0.110228 0.104314 255 220 0
0.183179 0.091603 0.027944 255 220 0
0.154849 0.085159 0.017866 255 220 0
0.121907 0.062410 0.057245 255 220 0
0.188257 0.139750 0.053796 255 220 0
0.132581 0.202504 0.091248 255 220 0
0.103593 0.159866 0.091510 255 220 0
0.161877 0.082127 0.096460 255 220 0
0.183752 0.139478 0.080837 255 220 0
0.151863 0.041329 0.064080 255 220 0
0.195255 0.108333 0.059612 255 220 0
0.120795 0.100486 0.096786 255 220 0
0.172504 0.077061 0.089317 255 220 0
0.116413 0.122091 0.049584 255 220 0
0.109655 0.163032 0.100459 255 220 0
0.147105 0.198507 0.081304 255 220 0
0.129786 0.058390 0.042332 255 220 0
0.168875 0.088206 0.019093 255 220 0
0.118626 0.074318 0.050093 255 220 0
0.117729 0.108652 0.096912 255 220 0
0.137280 0.079962 0.096004 255 220 0
0.129148 0.081033 0.093758 255 220 0
0.145223 0.120049 0.026096 255 220 0
0.165527 0.165646 0.043300 255 220 0
0.145489 0.200436 0.074939 255 220 0
0.134479 0.173382 0.049675 255 220 0
0.178557 0.067027 0.025749 255 220 0
0.126070 0.206977 0.088477 255 220 0
0.193428 0.106542 0.045032 255 220 0
0.191266 0.126503 0.069032 255 220 0
0.191427 0.086250 0.072632 255 220 0
0.170576 0.092547 0.096145 255 220 0
0.123742 0.106355 0.038261 255 220 0
0.167504 0.147319 0.097385 255 220 0
0.171488 0.063203 0.022624 255 220 0
0.125513 0.103078 0.036060 255 220 0
0.194453 0.108692 0.066602 255 220 0
0.135461 0.184676 0.103090 255 220 0
0.178723 0.045081 0.047439 255 220 0
0.124400 0.164232 0.106408 255 220 0
0.186165 0.145084 0.066032 255 220 0
0.117616 0.095133 0.045613 255 220 0
0.191135 0.081635 0.040675 255 220 0
0.189854 0.115649 0.039353 255 220 0
0.127742 0.161825 0.049075 255 220 0
0.132995 0.096745 0.100950 255 220 0
0.105161 0.151371 0.073449 255 220 0
0.110421 0.202958 0.095965 255 220 0
0.108935 0.189069 0.069592 255 220 0
0.143539 0.043246 0.044914 255 220 0
0.186160 0.080569 0.079421 255 220 0
0.184289 0.090721 0.029066 255 220 0
0.192301 0.076437 0.060917 255 220 0
0.132850 0.172407 0.106252 255 220 0
0.142426 0.124711 0.105651 255 220 0
0.168094 0.040501 0.059828 255 220 0
0.159024 0.090177 0.017878 255 220 0
0.121418 0.201312 0.098256 255 220 0
0.104192 0.195481 0.074330 255 220 0
0.124902 0.155386 0.049083 255 220 0
0.181666 0.112144 0.090794 255 220 0
0.135003 0.181612 0.053948 255 220 0
0.182449 0.059467 0.033109 255 220 0
0.163985 0.081503 0.095499 255 220 0
0.141581 0.063213 0.026115 255 220 0
0.136583 0.069962 0.027081 255 220 0
0.190050 0.122688 0.075729 255 220 0
0.143220 0.056038 0.081582 255 220 0
0.160620 0.062645 0.086302 255 220 0
0.184866 0.145046 0.072969 255 220 0
0.161700 0.090807 0.099050 255 220 0
0.180619 0.085329 0.087350 255 220 0
0.153180 0.162635 0.039938 255 220 0
0.192546 0.116351 0.071491 255 220 0
0.144038 0.043988 0.042187 255 220 0
0.166681 0.136858 0.099733 255 220 0
0.139237 0.202060 0.072697 255 220 0
0.125297 0.081859 0.036018 255 220 0
0.107589 0.107825 0.081005 255 220 0
0.123446 0.151320 0.048981 255 220 0
0.133853 0.198696 0.067161 255 220 0
0.123126 0.060094 0.059017 255 220 0
0.169476 0.097742 0.020171 255 220 0
0.186944 0.109130 0.033015 255 220 0
0.148522 0.166535 0.042392 255 220 0
0.111941 0.086661 0.062352 255 220 0
0.137677 0.105911 0.103597 255 220 0
0.170469 0.174723 0.060116 255 220 0
0.169729 0.175803 0.069079 255 220 0
0.146093 0.047572 0.035056 255 220 0
0.187734 0.059740 0.051966 255 220 0
0.185321 0.067442 0.071873 255 220 0
0.142360 0.043241 0.061795 255 220 0
0.123059 0.146442 0.104721 255 220 0
0.110476 0.094155 0.080019 255 220 0
0.134048 0.186416 0.102926 255 220 0
0.143934 0.200677 0.081775 255 220 0
0.110055 0.206501 0.084542 255 220 0
0.126671 0.084135 0.093944 255 220 0
0.112760 0.181471 0.104617 255 220 0
0.155932 0.190221 0.080952 255 220 0
0.178480 0.155857 0.079975 255 220 0
0.165700 0.104119 0.020177 255 220 0
0.120675 0.111415 0.099482 255 220 0
0.173523 0.085743 0.020880 255 220 0
0.138822 0.048062 0.042090 255 220 0
0.181989 0.048953 0.051593 255 220 0
0.147337 0.195757 0.066818 255 220 0
0.164172 0.114409 0.101661 255 220 0
0.098930 0.178110 0.080408 255 220 0
0.127028 0.071153 0.086793 255 220 0
0.114620 0.205397 0.093155 255 220 0
0.107045 0.140088 0.068987 255 220 0
0.165969 0.101456 0.099712 255 220 0
0.152693 0.075330 0.095162 255 220 0
0.122198 0.175461 0.057446 255 220 0
0.182112 0.122377 0.031906 255 220 0
0.172344 0.045670 0.064919 255 220 0
0.119479 0.069000 0.053240 255 220 0
0.157947 0.122499 0.024163 255 220 0
0.146244 0.061749 0.024234 255 220 0
0.131718 0.051225 0.050078 255 220 0
0.136983 0.163729 0.044133 255 220 0
0.130131 0.055631 0.072836 255 220 0
0.149542 0.110028 0.104173 255 220 0
0.187153 0.141009 0.049651 255 220 0
0.156485 0.038061 0.045434 255 220 0
0.116157 0.077907 0.079026 255 220 0
0.139442 0.055403 0.079841 255 220 0
0.147833 0.180635 0.098878 255 220 0
0.126221 0.089049 0.034428 255 220 0
0.111029 0.102112 0.058526 255 220 0
0.161677 0.112137 0.102311 255 220 0
0.180716 0.081989 0.085775 255 220 0
0.142614 0.137548 0.031969 255 220 0
0.167033 0.134061 0.028056 255 220 0
0.132690 0.200710 0.093588 255 220 0
0.168136 0.043304 0.064875 255 220 0
0.152594 0.076856 0.095905 255 220 0
0.176283 0.085355 0.090642 255 220 0
0.130793 0.050874 0.055447 255 220 0
0.183396 0.110220 0.088975 255 220 0
0.133971 0.136189 0.035919 255 220 0
0.129549 0.173395 0.052134 255 220 0
0.144687 0.107602 0.023384 255 220 0
0.175185 0.090181 0.021978 255 220 0
0.158543 0.040990 0.064215 255 220 0
0.180735 0.090459 0.025786 255 220 0
0.182591 0.154881 0.062701 255 220 0
0.176819 0.097326 0.093455 255 220 0
0.106324 0.120202 0.071997 255 220 0
0.107274 0.124230 0.067756 255 220 0
0.180245 0.117560 0.092004 255 220 0
0.159689 0.150510 0.034005 255 220 0
0.146299 0.074881 0.094832 255 220 0
0.127696 0.173137 0.106546 255 220 0
0.148991 0.050868 0.030200 255 220 0
0.163494 0.042786 0.034616 255 220 0
0.149010 0.138062 0.105588 255 220 0
0.102864 0.201849 0.081525 255 220 0
0.169036 0.172044 0.081998 255 220 0
0.161097 0.084310 0.097426 255 220 0
0.114910 0.080498 0.055911 255 220 0
0.110563 0.097803 0.060824 255 220 0
0.137108 0.097169 0.025478 255 220 0
0.194066 0.086482 0.050924 255 220 0
0.140319 0.155396 0.039157 255 220 0
0.187321 0.062900 0.039987 255 220 0
0.110574 0.089583 0.067871 255 220 0
0.105987 0.182507 0.070895 255 220 0
0.102605 0.199418 0.078361 255 220 0
0.138157 0.137143 0.106290 255 220 0
0.185924 0.062530 0.065571 255 220 0
0.189454 0.074864 0.070281 255 220 0
0.169331 0.060821 0.022786 255 220 0
0.190222 0.127624 0.072048 255 220 0
0.134310 0.047875 0.061923 255 220 0
0.163330 0.108466 0.101483 255 220 0
0.168056 0.173081 0.051825 255 220 0
0.188846 0.120320 0.079562 255 220 0
0.149250 0.074749 0.094902 255 220 0
0.155893 0.182697 0.055137 255 220 0
0.153477 0.131195 0.027397 255 220 0
0.114565 0.171454 0.104548 255 220 0
0.148894 0.187191 0.094143 255 220 0
0.177490 0.054206 0.069651 255 220 0
0.103440 0.152145 0.082267 255 220 0
0.134604 0.204647 0.075661 255 220 0
0.194612 0.107542 0.050262 255 220 0
0.175834 0.133939 0.093622 255 220 0
0.096594 0.185328 0.084482 255 220 0
0.119394 0.066273 0.066433 255 220 0
0.179863 0.160699 0.059811 255 220 0
0.118542 0.151303 0.103567 255 220 0
0.113760 0.167042 0.061444 255 220 0
0.157439 0.121920 0.024045 255 220 0
0.147019 0.115044 0.104821 255 220 0
0.119401 0.068521 0.054251 255 220 0
0.183183 0.055067 0.038259 255 220 0
0.125520 0.199573 0.098496 255 220 0
0.139702 0.070675 0.091563 255 220 0
0.118329 0.155927 0.054635 255 220 0
0.113054 0.149710 0.059190 255 220 0
0.108146 0.153808 0.067057 255 220 0
0.168946 0.173992 0.054257 255 220 0
0.119820 0.158058 0.053898 255 220 0
0.105393 0.128640 0.077478 255 220 0
0.144688 0.124911 0.027564 255 220 0
0.147421 0.080740 0.019545 255 220 0
0.128519 0.053458 0.063991 255 220 0
0.144549 0.198948 0.070147 255 220 0
0.097911 0.176530 0.088544 255 220 0
0.148268 0.088587 0.019443 255 220 0
0.177421 0.140280 0.090277 255 220 0
0.184032 0.085476 0.084085 255 220 0
0.106561 0.141158 0.089162 255 220 0
0.145020 0.106813 0.103960 255 220 0
0.186743 0.068996 0.034954 255 220 0
0.153962 0.144952 0.104284 255 220 0
0.187288 0.117867 0.036129 255 220 0
0.101425 0.173184 0.095517 255 220 0
0.162553 0.069594 0.018722 255 220 0
0.106450 0.134741 0.070535 255 220 0
0.194661 0.114683 0.060359 255 220 0
0.171602 0.039896 0.048636 255 220 0
0.146989 0.180974 0.052114 255 220 0
0.096313 0.191387 0.085664 255 220 0
0.109835 0.140562 0.063064 255 220 0
0.195314 0.107620 0.058424 255 220 0
0.123887 0.083754 0.092000 255 220 0
0.106625 0.199386 0.074858 255 220 0
0.181097 0.105840 0.026736 255 220 0
0.113918 0.129800 0.096968 255 220 0
0.177568 0.151656 0.040523 255 220 0
0.133339 0.136224 0.036368 255 220 0
0.115459 0.131859 0.052532 255 220 0
0.179481 0.158425 0.049880 255 220 0
0.174358 0.140579 0.032643 255 220 0
0.123219 0.122194 0.102187 255 220 0
0.112207 0.124247 0.056653 255 220 0
0.103023 0.170159 0.096276 255 220 0
0.156404 0.070658 0.092327 255 220 0
0.096899 0.191435 0.083008 255 220 0
0.168276 0.073438 0.019059 255 220 0
0.186059 0.058924 0.059604 255 220 0
0.172279 0.111057 0.097745 255 220 0
0.121299 0.085489 0.040912 255 220 0
0.107586 0.136418 0.090036 255 220 0
0.163752 0.183217 0.065189 255 220 0
0.106529 0.116068 0.072009 255 220 0
0.180181 0.081294 0.085898 255 220 0
0.181285 0.069687 0.078290 255 220 0
0.171027 0.103490 0.097744 255 220 0
0.190641 0.096174 0.037658 255 220 0
0.110147 0.141253 0.095066 255 220 0
0.117291 0.109350 0.096742 255 220 0
0.115452 0.105131 0.049216 255 220 0
0.163945 0.075085 0.017928 255 220 0
0.184277 0.068156 0.073910 255 220 0
0.185354 0.135938 0.041268 255 220 0
0.146445 0.041318 0.045978 255 220 0
0.169111 0.066426 0.085516 255 220 0
0.098722 0.185166 0.096386 255 220 0
0.107428 0.190659 0.102575 255 220 0
0.190557 0.067839 0.054154 255 220 0
0.100206 0.175822 0.094996 255 220 0
0.191632 0.075823 0.064036 255 220 0
0.111784 0.086917 0.062935 255 220 0
0.134752 0.119603 0.031005 255 220 0
0.175171 0.096346 0.094397 255 220 0
0.130111 0.115802 0.103804 255 220 0
0.191474 0.071584 0.049444 255 220 0
0.185606 0.071967 0.074935 255 220 0
0.164190 0.090265 0.098143 255 220 0
0.193680 0.081761 0.055888 255 220 0
0.157153 0.186519 0.060395 255 220 0
0.119368 0.171071 0.057932 255 220 0
0.182881 0.154187 0.055766 255 220 0
0.110348 0.129331 0.060750 255 220 0
0.107007 0.186165 0.102821 255 220 0
0.117364 0.081072 0.049020 255 220 0
0.111071 0.087393 0.068741 255 220 0
0.155622 0.169962 0.098490 255 220 0
0.130362 0.191010 0.060967 255 220 0
0.172904 0.113213 0.023384 255 220 0
0.166805 0.170352 0.088010 255 220 0
0.128420 0.158039 0.106636 255 220 0
0.129377 0.099401 0.100654 255 220 0
0.120725 0.140533 0.103079 255 220 0
0.124417 0.114047 0.101777 255 220 0
0.141130 0.184380 0.054824 255 220 0
0.167511 0.159164 0.093754 255 220 0
0.150999 0.110916 0.104143 255 220 0
0.191878 0.126436 0.065971 255 220 0
0.105707 0.129442 0.082719 255 220 0
0.143147 0.107683 0.023971 255 220 0
0.140262 0.045747 0.044363 255 220 0
0.127365 0.054660 0.063652 255 220 0
0.165595 0.096403 0.019116 255 220 0
0.157263 0.184298 0.057573 255 220 0
0.194073 0.115287 0.065341 255 220 0
0.167914 0.172804 0.083447 255 220 0
0.170791 0.173169 0.073704 255 220 0
0.165982 0.071404 0.090045 255 220 0
0.151881 0.139105 0.030256 255 220 0
0.153988 0.043317 0.068589 255 220 0
0.166717 0.050630 0.074273 255 220 0
0.143614 0.191056 0.060412 255 220 0
0.101171 0.163998 0.087435 255 220 0
0.110465 0.112421 0.090162 255 220 0
0.163858 0.174093 0.049854 255 220 0
0.179229 0.156418 0.046688 255 220 0
0.116291 0.072680 0.062158 255 220 0
0.123638 0.095866 0.037423 255 220 0
0.163808 0.121841 0.102010 255 220 0
0.115938 0.135088 0.052472 255 220 0
0.165141 0.038371 0.055507 255 220 0
0.179525 0.160931 0.056011 255 220 0
0.140227 0.158106 0.106332 255 220 0
0.165602 0.145143 0.032074 255 220 0
0.171621 0.085142 0.093374 255 220 0
0.113241 0.158976 0.102027 255 220 0
0.166904 0.179251 0.071331 255 220 0
0.138648 0.128984 0.031087 255 220 0
0.128114 0.053608 0.057049 255 220 0
0.128668 0.059869 0.042650 255 220 0
0.117664 0.144782 0.102127 255 220 0
0.173957 0.133516 0.029886 255 220 0
0.156884 0.038802 0.058065 255 220 0
0.188531 0.139558 0.061179 255 220 0
0.157375 0.145151 0.103119 255 220 0
0.144561 0.175731 0.048493 255 220 0
0.139249 0.189288 0.099340 255 220 0
0.148549 0.198161 0.072889 255 220 0
0.185412 0.113082 0.032121 255 220 0
0.161026 0.186646 0.069038 255 220 0
0.160418 0.158963 0.038109 255 220 0
0.111792 0.163997 0.102136 255 220 0
0.104609 0.148648 0.076085 255 220 0
0.107057 0.130538 0.087695 255 220 0
0.144565 0.201140 0.078116 255 220 0
0.109457 0.128014 0.091689 255 220 0
0.156481 0.072633 0.018265 255 220 0
0.099784 0.178073 0.095467 255 220 0
0.157614 0.115699 0.022366 255 220 0
0.129805 0.205717 0.076361 255 220 0
0.156982 0.069668 0.091663 255 220 0
0.161711 0.172145 0.047161 255 220 0
0.149615 0.041581 0.040745 255 220 0
0.178242 0.160757 0.073212 255 220 0
0.164052 0.114226 0.021834 255 220 0
0.179056 0.083413 0.087810 255 220 0
0.194644 0.106809 0.066008 255 220 0
0.115743 0.080912 0.081064 255 220 0
0.153389 0.191728 0.083411 255 220 0
0.160783 0.040462 0.037953 255 220 0
0.138919 0.179057 0.103712 255 220 0
0.103261 0.153495 0.080625 255 220 0
0.194825 0.112649 0.061511 255 220 0
0.115292 0.096314 0.049643 255 220 0
0.145876 0.086392 0.099599 255 220 0
0.145867 0.101144 0.103102 255 220 0
0.146896 0.047752 0.074080 255 220 0
0.152360 0.168018 0.043072 255 220 0
0.132787 0.048819 0.058990 255 220 0
0.107644 0.201704 0.096422 255 220 0
0.181367 0.071677 0.027253 255 220 0
0.169628 0.093942 0.096900 255 220 0
0.182137 0.090624 0.087650 255 220 0
0.172685 0.062225 0.080425 255 220 0
0.118275 0.082582 0.086123 255 220 0
0.152843 0.038453 0.050828 255 220 0
0.161499 0.161856 0.097489 255 220 0
0.118736 0.198928 0.100453 255 220 0
0.169487 0.115024 0.022754 255 220 0
0.178930 0.094574 0.024483 255 220 0
0.155742 0.147231 0.103501 255 220 0
0.138566 0.054470 0.034618 255 220 0
0.143448 0.046790 0.038271 255 220 0
0.124756 0.194515 0.101920 255 220 0
0.168547 0.164932 0.044040 255 220 0
0.125723 0.068636 0.040253 255 220 0
0.105983 0.171573 0.070294 255 220 0
0.121831 0.090691 0.093767 255 220 0
0.151031 0.128755 0.105180 255 220 0
0.184170 0.092209 0.085826 255 220 0
0.175369 0.085518 0.091309 255 220 0
0.184001 0.151871 0.059456 255 220 0
0.154224 0.187468 0.059684 255 220 0
0.177197 0.118054 0.026605 255 220 0
0.165558 0.097435 0.019236 255 220 0
0.123029 0.069212 0.044465 255 220 0
0.168923 0.051289 0.073740 255 220 0
0.155758 0.145331 0.032052 255 220 0
0.130827 0.057718 0.041329 255 220 0
0.130231 0.194117 0.063196 255 220 0
0.193135 0.078600 0.055584 255 220 0
0.144681 0.160022 0.039743 255 220 0
0.108137 0.191882 0.070650 255 220 0
0.116934 0.198841 0.069252 255 220 0
0.110260 0.098805 0.083342 255 220 0
0.193519 0.121548 0.057141 255 220 0
0.187867 0.071150 0.036335 255 220 0
0.174749 0.109335 0.096141 255 220 0
0.123341 0.199516 0.099213 255 220 0
0.186310 0.065033 0.067793 255 220 0
0.138487 0.082440 0.097337 255 220 0
0.151998 0.126642 0.026232 255 220 0
0.124919 0.197165 0.100392 255 220 0
0.192883 0.116823 0.070065 255 220 0
0.160792 0.041895 0.065576 255 220 0
0.188112 0.068292 0.038134 255 220 0
0.144996 0.119701 0.026078 255 220 0
0.167041 0.176104 0.055005 255 220 0
0.164912 0.038767 0.043508 255 220 0
0.122129 0.076385 0.042059 255 220 0
0.099725 0.188061 0.097908 255 220 0
0.176968 0.048358 0.063344 255 220 0
0.163911 0.120821 0.023449 255 220 0
0.127714 0.202218 0.070885 255 220 0
0.142864 0.196611 0.066169 255 220 0
0.176418 0.059754 0.075665 255 220 0
0.131454 0.182103 0.055330 255 220 0
0.166997 0.051800 0.027084 255 220 0
0.193983 0.111525 0.067953 255 220 0
0.151602 0.174568 0.099212 255 220 0
0.161050 0.132588 0.027221 255 220 0
0.150674 0.093940 0.019331 255 220 0
0.182123 0.137061 0.084990 255 220 0
0.143832 0.115336 0.104936 255 220 0
0.166657 0.179928 0.064965 255 220 0
0.194744 0.089908 0.054561 255 220 0
0.116483 0.202163 0.072196 255 220 0
0.142540 0.104072 0.103562 255 220 0
0.127753 0.065423 0.082511 255 220 0
0.159232 0.140408 0.102896 255 220 0
0.149519 0.185012 0.095233 255 220 0
0.192896 0.099562 0.072387 255 220 0
0.148230 0.082615 0.019260 255 220 0
0.122791 0.128366 0.043233 255 220 0
0.115732 0.197165 0.068685 255 220 0
0.147357 0.182009 0.098509 255 220 0
0.176685 0.074788 0.022989 255 220 0
0.148794 0.168255 0.043370 255 220 0
0.176562 0.154317 0.085242 255 220 0
0.109220 0.168807 0.101576 255 220 0
0.104853 0.156152 0.092010 255 220 0
0.108342 0.101163 0.078063 255 220 0
0.164332 0.170872 0.047020 255 220 0
0.135762 0.082305 0.096686 255 220 0
0.106507 0.131373 0.086429 255 220 0
0.145502 0.199808 0.081129 255 220 0
0.119538 0.199321 0.068835 255 220 0
0.187152 0.058682 0.053521 255 220 0
0.120057 0.190814 0.064141 255 220 0
0.170975 0.092560 0.095951 255 220 0
0.159389 0.039382 0.060324 255 220 0
0.126023 0.093396 0.097423 255 220 0
0.103348 0.157347 0.088990 255 220 0
0.108783 0.175706 0.102692 255 220 0
0.096018 0.188398 0.087022 255 220 0
0.181677 0.048980 0.053738 255 220 0
0.178663 0.161893 0.067931 255 220 0
0.154282 0.112386 0.022011 255 220 0
0.174660 0.044026 0.040077 255 220 0
0.130153 0.123995 0.035666 255 220 0
0.193644 0.082077 0.052710 255 220 0
0.165539 0.161458 0.094554 255 220 0
0.172282 0.149627 0.092828 255 220 0
0.130360 0.192128 0.061724 255 220 0
0.183943 0.131232 0.037325 255 220 0
0.154447 0.051093 0.027929 255 220 0
0.153077 0.180514 0.095243 255 220 0
0.127717 0.120966 0.103687 255 220 0
0.162646 0.099754 0.100570 255 220 0
0.123342 0.114114 0.039878 255 220 0
0.136002 0.100905 0.102495 255 220 0
0.131362 0.068739 0.087571 255 220 0
0.105351 0.129417 0.077638 255 220 0
0.161539 0.100151 0.100946 255 220 0
0.154122 0.068614 0.091287 255 220 0
0.155386 0.106608 0.020607 255 220 0
0.106701 0.127360 0.069656 255 220 0
0.157369 0.064612 0.088294 255 220 0
0.188304 0.069227 0.067810 255 220 0
0.169689 0.150150 0.094981 255 220 0
0.180196 0.077467 0.083885 255 220 0
0.158501 0.078197 0.095817 255 220 0
0.167571 0.085555 0.018517 255 220 0
0.125287 0.075442 0.037629 255 220 0
0.151059 0.068495 0.020108 255 220 0
0.181093 0.125993 0.089973 255 220 0
0.105486 0.197736 0.074540 255 220 0
0.137687 0.054808 0.035214 255 220 0
0.155909 0.192172 0.072645 255 220 0
0.109130 0.154492 0.097564 255 220 0
0.162776 0.118933 0.022918 255 220 0
0.192978 0.124231 0.058610 255 220 0
0.192215 0.095998 0.073530 255 220 0
0.188840 0.084839 0.077339 255 220 0
0.189312 0.099102 0.035319 255 220 0
0.112332 0.100839 0.055479 255 220 0
0.137208 0.193279 0.062098 255 220 0
0.107409 0.120286 0.067391 255 220 0
0.190349 0.070020 0.044036 255 220 0
0.135526 0.104880 0.027688 255 220 0
0.192895 0.124579 0.059460 255 220 0
0.188561 0.070397 0.068388 255 220 0
0.194146 0.110675 0.049114 255 220 0
0.168190 0.150687 0.035019 255 220 0
0.137278 0.088217 0.024583 255 220 0
0.138080 0.151419 0.106676 255 220 0
0.186747 0.099640 0.083881 255 220 0
0.149775 0.128856 0.105345 255 220 0
0.153825 0.038928 0.043856 255 220 0
0.116434 0.075823 0.055178 255 220 0
0.106624 0.122415 0.084552 255 220 0
0.172029 0.091777 0.095227 255 220 0
0.152133 0.072961 0.093958 255 220 0
0.181505 0.150734 0.077376 255 220 0
0.172751 0.077892 0.020483 255 220 0
0.173515 0.106909 0.096715 255 220 0
0.170444 0.111298 0.098761 255 220 0
0.176930 0.083139 0.022849 255 220 0
0.149811 0.158358 0.104158 255 220 0
0.184032 0.092808 0.028767 255 220 0
0.153327 0.193992 0.069903 255 220 0
0.128504 0.055349 0.049452 255 220 0
0.186491 0.145346 0.061155 255 220 0
0.193908 0.118907 0.062316 255 220 0
0.162102 0.048762 0.074213 255 220 0
0.104907 0.198599 0.075526 255 220 0
0.129716 0.149558 0.106399 255 220 0
0.155098 0.090484 0.100332 255 220 0
0.134959 0.049451 0.068578 255 220 0
0.194724 0.092973 0.062741 255 220 0
0.178589 0.157599 0.077484 255 220 0
0.158697 0.037475 0.048786 255 220 0
0.104176 0.147267 0.081237 255 220 0
0.159645 0.121651 0.023773 255 220 0
0.120904 0.066655 0.074513 255 220 0
0.153717 0.041400 0.064792 255 220 0
0.105339 0.194522 0.073151 255 220 0
0.178208 0.159701 0.048783 255 220 0
0.149353 0.056897 0.083079 255 220 0
0.125002 0.075653 0.037953 255 220 0
0.141452 0.067320 0.024457 255 220 0
0.119029 0.157921 0.054524 255 220 0
0.160665 0.167763 0.043525 255 220 0
0.139413 0.145559 0.035895 255 220 0
0.149360 0.125992 0.026585 255 220 0
0.102806 0.196825 0.076131 255 220 0
0.131918 0.149486 0.041729 255 220 0
0.102456 0.188578 0.074197 255 220 0
0.156033 0.167433 0.042771 255 220 0
0.156678 0.115919 0.022519 255 220 0
0.129189 0.187784 0.059265 255 220 0
0.141780 0.149408 0.036310 255 220 0
0.098122 0.184891 0.080261 255 220 0
