ply
format ascii 1.0
element vertex 1024
property float x
property float y
property float z
property uchar red
property uchar green
property uchar blue
end_header
0.171813 0.129192 0.097678 255 220 0
0.119416 0.086643 0.087577 255 220 0
0.186834 0.113287 0.034519 255 220 0
0.186210 0.071386 0.068440 255 220 0
0.153555 0.122520 0.025664 255 220 0
0.113426 0.087591 0.044536 255 220 0
0.180066 0.122442 0.090916 255 220 0
0.136596 0.192517 0.099921 255 220 0
0.185738 0.152050 0.058728 255 220 0
0.139321 0.094617 0.021670 255 220 0
0.185359 0.071951 0.070738 255 220 0
0.168175 0.059941 0.020514 255 220 0
0.124627 0.102145 0.032526 255 220 0
0.184559 0.117515 0.085953 255 220 0
0.194320 0.110317 0.050943 255 220 0
0.113321 0.112269 0.092249 255 220 0
0.138242 0.043519 0.048073 255 220 0
0.164314 0.162251 0.097395 255 220 0
0.119608 0.119342 0.097947 255 220 0
0.185674 0.098735 0.083091 255 220 0
0.189461 0.092451 0.075028 255 220 0
0.184990 0.121035 0.084907 255 220 0
0.119975 0.072276 0.078528 255 220 0
0.151137 0.042110 0.033309 255 220 0
0.113434 0.091939 0.044093 255 220 0
0.116318 0.087096 0.040098 255 220 0
0.116909 0.182955 0.063822 255 220 0
0.174530 0.107741 0.023865 255 220 0
0.149765 0.055775 0.022437 255 220 0
0.097897 0.187802 0.079360 255 220 0
0.184147 0.121969 0.034852 255 220 0
0.136376 0.205024 0.083335 255 220 0
0.165834 0.159045 0.044127 255 220 0
0.098046 0.192246 0.079915 255 220 0
0.154064 0.135957 0.105204 255 220 0
0.186095 0.062789 0.037394 255 220 0
0.124112 0.145325 0.046134 255 220 0
0.171318 0.092191 0.093837 255 220 0
0.138291 0.204302 0.084816 255 220 0
0.166692 0.162447 0.046735 255 220 0
0.104827 0.135399 0.065696 255 220 0
0.148361 0.196887 0.074874 255 220 0
0.175672 0.110054 0.024947 255 220 0
0.170082 0.102161 0.020809 255 220 0
0.115756 0.183097 0.104249 255 220 0
0.128023 0.136387 0.040285 255 220 0
0.184894 0.095110 0.083081 255 220 0
0.182792 0.110864 0.029637 255 220 0
0.162451 0.113814 0.101754 255 220 0
0.152227 0.039234 0.038898 255 220 0
0.165438 0.135149 0.031528 255 220 0
0.152382 0.189869 0.091330 255 220 0
0.176472 0.107966 0.093999 255 220 0
0.151952 0.128677 0.105264 255 220 0
0.179274 0.098699 0.089955 255 220 0
0.118210 0.106744 0.094524 255 220 0
0.187734 0.092426 0.033079 255 220 0
0.168438 0.050315 0.068228 255 220 0
0.109934 0.106611 0.050394 255 220 0
0.115713 0.071686 0.047198 255 220 0
0.160463 0.154373 0.040065 255 220 0
0.162084 0.053596 0.074539 255 220 0
0.129526 0.190740 0.103017 255 220 0
0.193584 0.095501 0.064402 255 220 0
0.180242 0.071497 0.024493 255 220 0
0.130501 0.206226 0.081213 255 220 0
0.159184 0.079820 0.093458 255 220 0
0.127544 0.154267 0.047720 255 220 0
0.194014 0.118673 0.058560 255 220 0
0.162627 0.153464 0.039972 255 220 0
0.191384 0.102993 0.039602 255 220 0
0.117120 0.163864 0.057461 255 220 0
0.156029 0.164703 0.045515 255 220 0
0.144996 0.189209 0.063302 255 220 0
0.185956 0.107892 0.084181 255 220 0
0.126089 0.188657 0.063103 255 220 0
0.169031 0.064467 0.080425 255 220 0
0.189232 0.114684 0.078782 255 220 0
0.169973 0.138531 0.034119 255 220 0
0.130006 0.138906 0.104837 255 220 0
0.120642 0.172415 0.105650 255 220 0
0.129584 0.102660 0.098510 255 220 0
0.157808 0.096190 0.017437 255 220 0
0.185096 0.138366 0.079693 255 220 0
0.103260 0.132901 0.079104 255 220 0
0.144120 0.128723 0.029567 255 220 0
0.140618 0.042294 0.048409 255 220 0
0.157183 0.191239 0.074938 255 220 0
0.173229 0.141073 0.095430 255 220 0
0.155284 0.161650 0.102856 255 220 0
0.185911 0.128193 0.039947 255 220 0
0.103101 0.141142 0.073613 255 220 0
0.181103 0.062843 0.069194 255 220 0
0.130508 0.150145 0.044472 255 220 0
0.169460 0.056603 0.073864 255 220 0
0.120488 0.072219 0.037991 255 220 0
0.161674 0.096615 0.017753 255 220 0
0.190328 0.071609 0.048105 255 220 0
0.122113 0.152897 0.050324 255 220 0
0.194903 0.101922 0.056152 255 220 0
0.189449 0.098436 0.077042 255 220 0
0.154616 0.040518 0.058828 255 220 0
0.161821 0.083056 0.015658 255 220 0
0.185856 0.065884 0.063068 255 220 0
0.168388 0.088805 0.017497 255 220 0
0.114421 0.138488 0.052302 255 220 0
0.168766 0.066905 0.018376 255 220 0
0.193247 0.120665 0.053304 255 220 0
0.144399 0.098083 0.020075 255 220 0
0.194046 0.114839 0.064050 255 220 0
0.119212 0.067354 0.072658 255 220 0
0.177068 0.090697 0.021995 255 220 0
0.162433 0.114261 0.101811 255 220 0
0.154567 0.084913 0.096370 255 220 0
0.139401 0.100313 0.022924 255 220 0
0.165206 0.110090 0.100337 255 220 0
0.159990 0.064907 0.017336 255 220 0
0.123376 0.123364 0.100374 255 220 0
0.150224 0.117409 0.024156 255 220 0
0.118266 0.102743 0.093414 255 220 0
0.104190 0.112618 0.078256 255 220 0
0.167353 0.054168 0.072793 255 220 0
0.127139 0.161236 0.050779 255 220 0
0.183815 0.143106 0.079902 255 220 0
0.122159 0.123977 0.040361 255 220 0
0.137091 0.090516 0.022053 255 220 0
0.184541 0.130806 0.039336 255 220 0
0.118985 0.161736 0.055481 255 220 0
0.130431 0.206391 0.088921 255 220 0
0.174837 0.121564 0.095826 255 220 0
0.186688 0.076315 0.071645 255 220 0
0.156545 0.118110 0.103666 255 220 0
0.142077 0.186007 0.101083 255 220 0
0.156246 0.039046 0.055315 255 220 0
0.185565 0.136252 0.043191 255 220 0
0.143057 0.054757 0.075881 255 220 0
0.100785 0.189940 0.096444 255 220 0
0.156243 0.136706 0.104670 255 220 0
0.170243 0.135677 0.098327 255 220 0
0.128098 0.050653 0.056828 255 220 0
0.194097 0.095901 0.049060 255 220 0
0.120880 0.073498 0.036902 255 220 0
0.146762 0.152437 0.106395 255 220 0
0.177000 0.139427 0.037230 255 220 0
0.106122 0.115482 0.058647 255 220 0
0.142765 0.069198 0.088085 255 220 0
0.142662 0.042525 0.057801 255 220 0
0.175586 0.054315 0.027806 255 220 0
0.176455 0.076287 0.020725 255 220 0
0.107232 0.155739 0.065239 255 220 0
0.172054 0.164361 0.051034 255 220 0
0.109384 0.184513 0.102106 255 220 0
0.125028 0.053722 0.057037 255 220 0
0.170348 0.070982 0.084315 255 220 0
0.145541 0.140737 0.034051 255 220 0
0.168053 0.046893 0.064409 255 220 0
0.189112 0.094909 0.076622 255 220 0
0.140782 0.116206 0.103634 255 220 0
0.131015 0.055244 0.070472 255 220 0
0.106539 0.159869 0.095521 255 220 0
0.114065 0.180727 0.064445 255 220 0
0.101367 0.160387 0.077653 255 220 0
0.192969 0.119609 0.067231 255 220 0
0.192738 0.091233 0.044257 255 220 0
0.176250 0.070396 0.080395 255 220 0
0.111916 0.176536 0.064523 255 220 0
0.149897 0.042353 0.033585 255 220 0
0.166715 0.181483 0.074508 255 220 0
0.161783 0.178185 0.090745 255 220 0
0.137868 0.097911 0.023146 255 220 0
0.149518 0.184303 0.097917 255 220 0
0.180618 0.123180 0.090231 255 220 0
0.172232 0.116182 0.025364 255 220 0
0.124077 0.108943 0.034513 255 220 0
0.106404 0.204958 0.082890 255 220 0
0.131679 0.107453 0.028846 255 220 0
0.138055 0.148589 0.040188 255 220 0
0.182752 0.054031 0.040066 255 220 0
0.118265 0.145295 0.050623 255 220 0
0.105210 0.142316 0.066437 255 220 0
0.109262 0.201705 0.095906 255 220 0
0.192288 0.086533 0.044237 255 220 0
0.104414 0.148489 0.069450 255 220 0
0.178183 0.111286 0.092928 255 220 0
0.128395 0.079850 0.027551 255 220 0
0.145011 0.090782 0.018395 255 220 0
0.193620 0.088338 0.055712 255 220 0
0.138852 0.088845 0.096902 255 220 0
0.115917 0.142703 0.052023 255 220 0
0.183623 0.054459 0.043892 255 220 0
0.180317 0.095830 0.025083 255 220 0
0.175950 0.049295 0.059606 255 220 0
0.131549 0.083496 0.024902 255 220 0
0.189404 0.074974 0.063082 255 220 0
0.183340 0.141617 0.081696 255 220 0
0.134339 0.164601 0.107056 255 220 0
0.175452 0.076235 0.020038 255 220 0
0.102953 0.120245 0.070741 255 220 0
0.122752 0.169132 0.055945 255 220 0
0.189906 0.138456 0.055248 255 220 0
0.177003 0.126716 0.093631 255 220 0
0.194502 0.100798 0.061676 255 220 0
0.112530 0.092087 0.083541 255 220 0
0.185010 0.120451 0.084962 255 220 0
0.149999 0.104878 0.102213 255 220 0
0.140211 0.124819 0.029675 255 220 0
0.135069 0.143035 0.039143 255 220 0
0.184809 0.079819 0.029153 255 220 0
0.184527 0.068055 0.030884 255 220 0
0.143322 0.050561 0.071640 255 220 0
0.106215 0.152210 0.092558 255 220 0
0.169392 0.137298 0.033375 255 220 0
0.182734 0.063033 0.030332 255 220 0
0.169353 0.085517 0.092676 255 220 0
0.164422 0.045414 0.028728 255 220 0
0.172407 0.109148 0.023370 255 220 0
0.116391 0.068688 0.069492 255 220 0
0.170569 0.061884 0.077627 255 220 0
0.192768 0.083903 0.057013 255 220 0
0.134613 0.113926 0.102184 255 220 0
0.103375 0.141403 0.081552 255 220 0
0.126229 0.188143 0.104361 255 220 0
0.151597 0.143605 0.105706 255 220 0
0.112342 0.126397 0.051234 255 220 0
0.183766 0.156142 0.066858 255 220 0
0.143128 0.060295 0.022676 255 220 0
0.173578 0.102452 0.022212 255 220 0
0.100534 0.200476 0.085767 255 220 0
0.144239 0.188714 0.098515 255 220 0
0.154236 0.149494 0.104809 255 220 0
0.147752 0.161818 0.105443 255 220 0
0.102755 0.161546 0.090117 255 220 0
0.115192 0.089378 0.085162 255 220 0
0.111019 0.206636 0.082410 255 220 0
0.116122 0.104039 0.041416 255 220 0
0.172937 0.044477 0.036176 255 220 0
0.140376 0.114007 0.103239 255 220 0
0.136142 0.166264 0.049189 255 220 0
0.113552 0.071780 0.054462 255 220 0
0.154979 0.153289 0.104223 255 220 0
0.173023 0.121127 0.027329 255 220 0
0.114176 0.160208 0.058750 255 220 0
0.142775 0.171193 0.049807 255 220 0
0.103153 0.113438 0.071384 255 220 0
0.108129 0.105973 0.053595 255 220 0
0.126478 0.096766 0.030056 255 220 0
0.161462 0.182310 0.087144 255 220 0
0.188132 0.072297 0.036625 255 220 0
0.122321 0.080400 0.033416 255 220 0
0.188730 0.116867 0.038716 255 220 0
0.133607 0.163230 0.048804 255 220 0
0.193841 0.109918 0.066780 255 220 0
0.179624 0.052750 0.034340 255 220 0
0.180170 0.163566 0.066228 255 220 0
0.126609 0.206112 0.078968 255 220 0
0.149052 0.096697 0.100318 255 220 0
0.104532 0.166653 0.095306 255 220 0
0.150561 0.149372 0.037086 255 220 0
0.193802 0.114353 0.050644 255 220 0
0.115607 0.184588 0.104092 255 220 0
0.175854 0.076519 0.084603 255 220 0
0.166595 0.155267 0.041995 255 220 0
0.188960 0.142676 0.062447 255 220 0
0.161421 0.121808 0.025445 255 220 0
0.110985 0.177264 0.065291 255 220 0
0.153342 0.118907 0.104226 255 220 0
0.174069 0.121596 0.096416 255 220 0
0.103867 0.202273 0.079624 255 220 0
0.137669 0.080841 0.020849 255 220 0
0.171152 0.096864 0.019990 255 220 0
0.168937 0.124937 0.027736 255 220 0
0.107344 0.102233 0.055223 255 220 0
0.150892 0.114382 0.103859 255 220 0
0.166502 0.117937 0.024616 255 220 0
0.139769 0.149150 0.106942 255 220 0
0.137971 0.097719 0.099381 255 220 0
0.180831 0.162200 0.067197 255 220 0
0.134644 0.080322 0.092297 255 220 0
0.108257 0.166135 0.098953 255 220 0
0.131380 0.122196 0.033441 255 220 0
0.142956 0.056845 0.077875 255 220 0
0.172647 0.153418 0.043055 255 220 0
0.124047 0.112663 0.035509 255 220 0
0.172167 0.059906 0.075062 255 220 0
0.171930 0.045156 0.058504 255 220 0
0.166477 0.164824 0.094282 255 220 0
0.122740 0.057234 0.061053 255 220 0
0.169381 0.156915 0.094894 255 220 0
0.114079 0.085416 0.081432 255 220 0
0.187412 0.098996 0.032748 255 220 0
0.185113 0.090685 0.029507 255 220 0
0.129466 0.073015 0.027767 255 220 0
0.145295 0.059528 0.080839 255 220 0
0.194373 0.112615 0.052923 255 220 0
0.163041 0.082619 0.093813 255 220 0
0.156019 0.089296 0.016213 255 220 0
0.115115 0.067559 0.059920 255 220 0
0.148782 0.048163 0.070008 255 220 0
0.185344 0.079262 0.029957 255 220 0
0.170497 0.173540 0.080248 255 220 0
0.116054 0.073045 0.074353 255 220 0
0.103496 0.110744 0.068325 255 220 0
0.123664 0.186748 0.062876 255 220 0
0.106839 0.089756 0.063612 255 220 0
0.106412 0.097730 0.075697 255 220 0
0.189160 0.090962 0.035482 255 220 0
0.168249 0.039692 0.042698 255 220 0
0.130131 0.194621 0.100958 255 220 0
0.176214 0.150543 0.089432 255 220 0
0.152998 0.147319 0.035981 255 220 0
0.132000 0.156232 0.106788 255 220 0
0.178823 0.144830 0.088036 255 220 0
0.121270 0.132794 0.043876 255 220 0
0.111076 0.133782 0.093885 255 220 0
0.146597 0.053347 0.025006 255 220 0
0.190178 0.094221 0.037178 255 220 0
0.147187 0.102720 0.020287 255 220 0
0.123715 0.087274 0.090781 255 220 0
0.166170 0.131192 0.029879 255 220 0
0.107917 0.137814 0.060389 255 220 0
0.140416 0.063807 0.022618 255 220 0
0.146255 0.076874 0.093178 255 220 0
0.185236 0.123160 0.084198 255 220 0
0.113319 0.090716 0.044347 255 220 0
0.140956 0.113070 0.103156 255 220 0
0.181947 0.137914 0.085626 255 220 0
0.187661 0.146637 0.063559 255 220 0
0.181184 0.082515 0.024770 255 220 0
0.178949 0.090106 0.023293 255 220 0
0.193964 0.117024 0.054189 255 220 0
0.173459 0.042767 0.050537 255 220 0
0.135591 0.075179 0.089841 255 220 0
0.169447 0.041101 0.053463 255 220 0
0.126023 0.130321 0.039452 255 220 0
0.102396 0.154022 0.075926 255 220 0
0.124133 0.202441 0.096834 255 220 0
0.146743 0.113071 0.103677 255 220 0
0.123212 0.136492 0.043571 255 220 0
0.106826 0.096917 0.057541 255 220 0
0.126912 0.101734 0.097394 255 220 0
0.100902 0.177379 0.094480 255 220 0
0.103433 0.160789 0.071367 255 220 0
0.185520 0.130638 0.040526 255 220 0
0.177185 0.075734 0.021301 255 220 0
0.182215 0.110103 0.028985 255 220 0
0.141120 0.175138 0.052412 255 220 0
0.150364 0.177855 0.100539 255 220 0
0.145941 0.049837 0.071457 255 220 0
0.146584 0.080966 0.095076 255 220 0
0.165566 0.162235 0.046180 255 220 0
0.138309 0.191513 0.099792 255 220 0
0.157892 0.099466 0.100264 255 220 0
0.141449 0.136465 0.033530 255 220 0
0.139617 0.186341 0.101957 255 220 0
0.170932 0.121961 0.027018 255 220 0
0.121690 0.137625 0.045128 255 220 0
0.106579 0.125511 0.059608 255 220 0
0.103821 0.108098 0.066955 255 220 0
0.165820 0.178716 0.083412 255 220 0
0.154781 0.182142 0.095318 255 220 0
0.112710 0.111244 0.091435 255 220 0
0.102886 0.202066 0.080974 255 220 0
0.153771 0.090323 0.098330 255 220 0
0.129092 0.131618 0.037940 255 220 0
0.114779 0.106909 0.043597 255 220 0
0.118835 0.179786 0.105172 255 220 0
0.160171 0.045995 0.066882 255 220 0
0.172836 0.057527 0.072523 255 220 0
0.136168 0.046839 0.040490 255 220 0
0.107711 0.137510 0.060635 255 220 0
0.102932 0.134715 0.073965 255 220 0
0.178938 0.056879 0.029348 255 220 0
0.191687 0.111185 0.042112 255 220 0
0.105686 0.187347 0.100257 255 220 0
0.136145 0.059423 0.077917 255 220 0
0.177361 0.048593 0.055915 255 220 0
0.159144 0.113784 0.102637 255 220 0
0.128643 0.100177 0.097558 255 220 0
0.151579 0.181702 0.098022 255 220 0
0.118026 0.200086 0.099401 255 220 0
0.159367 0.037781 0.050473 255 220 0
0.138915 0.188049 0.061302 255 220 0
0.128938 0.056243 0.069851 255 220 0
0.186900 0.090063 0.078636 255 220 0
0.100500 0.174146 0.092379 255 220 0
0.108245 0.106352 0.053395 255 220 0
0.129781 0.166228 0.051710 255 220 0
0.158540 0.184966 0.088761 255 220 0
0.186688 0.109891 0.083206 255 220 0
0.157870 0.042516 0.031133 255 220 0
0.148595 0.103118 0.101841 255 220 0
0.120479 0.195075 0.067250 255 220 0
0.193022 0.096596 0.044008 255 220 0
0.147643 0.081349 0.095289 255 220 0
0.143421 0.138456 0.106379 255 220 0
0.118188 0.179428 0.062013 255 220 0
0.109672 0.121636 0.053595 255 220 0
0.171237 0.122602 0.098324 255 220 0
0.123795 0.189764 0.103975 255 220 0
0.102836 0.123409 0.072868 255 220 0
0.099785 0.170880 0.088435 255 220 0
0.117775 0.136775 0.099846 255 220 0
0.120021 0.131444 0.100146 255 220 0
0.103011 0.129698 0.077023 255 220 0
0.190870 0.080839 0.064007 255 220 0
0.133738 0.101723 0.026235 255 220 0
0.179615 0.128079 0.033485 255 220 0
0.129357 0.146256 0.105550 255 220 0
0.149207 0.130188 0.029008 255 220 0
0.129847 0.066205 0.080811 255 220 0
0.164217 0.066551 0.017337 255 220 0
0.125902 0.117956 0.035605 255 220 0
0.191905 0.122392 0.049114 255 220 0
0.174713 0.148190 0.040815 255 220 0
0.112328 0.072836 0.060946 255 220 0
0.182140 0.121573 0.032702 255 220 0
0.142558 0.199748 0.075305 255 220 0
0.104280 0.171107 0.096499 255 220 0
0.173110 0.091784 0.019857 255 220 0
0.183758 0.117776 0.086988 255 220 0
0.176187 0.111206 0.094558 255 220 0
0.161604 0.056757 0.077547 255 220 0
0.172315 0.135271 0.033268 255 220 0
0.102944 0.124767 0.071134 255 220 0
0.136398 0.103267 0.100405 255 220 0
0.109753 0.200087 0.072883 255 220 0
0.140955 0.182792 0.057412 255 220 0
0.183798 0.057207 0.037660 255 220 0
0.120347 0.108595 0.037773 255 220 0
0.159283 0.046864 0.068157 255 220 0
0.106898 0.162851 0.066416 255 220 0
0.116431 0.142754 0.051519 255 220 0
0.139877 0.196487 0.095165 255 220 0
0.192130 0.128094 0.054976 255 220 0
0.139368 0.074721 0.020331 255 220 0
0.103148 0.144280 0.073633 255 220 0
0.138117 0.180333 0.104534 255 220 0
0.194453 0.105607 0.063523 255 220 0
0.187098 0.064912 0.038496 255 220 0
0.177102 0.093597 0.090366 255 220 0
0.183563 0.088161 0.027574 255 220 0
0.158616 0.147339 0.103449 255 220 0
0.169140 0.039968 0.049557 255 220 0
0.108611 0.158873 0.097463 255 220 0
0.164418 0.142588 0.034809 255 220 0
0.173368 0.114182 0.096777 255 220 0
0.115525 0.102424 0.041899 255 220 0
0.108110 0.090567 0.074285 255 220 0
0.179004 0.153540 0.047206 255 220 0
0.146294 0.052578 0.025638 255 220 0
0.161221 0.135309 0.030991 255 220 0
0.109270 0.080949 0.061732 255 220 0
0.142481 0.041524 0.046939 255 220 0
0.169636 0.145687 0.097647 255 220 0
0.164828 0.136821 0.032182 255 220 0
0.124289 0.100097 0.032423 255 220 0
0.172392 0.050397 0.065263 255 220 0
0.181560 0.160927 0.066705 255 220 0
0.188300 0.136928 0.048340 255 220 0
0.106576 0.183903 0.069458 255 220 0
0.101326 0.180249 0.095954 255 220 0
0.188371 0.085143 0.073899 255 220 0
0.124642 0.137380 0.042847 255 220 0
0.138082 0.143366 0.037856 255 220 0
0.193154 0.119514 0.051690 255 220 0
0.129469 0.107143 0.099519 255 220 0
0.187611 0.091095 0.032922 255 220 0
0.161898 0.088449 0.016264 255 220 0
0.119199 0.065718 0.044786 255 220 0
0.190424 0.136002 0.064349 255 220 0
0.132764 0.200457 0.095360 255 220 0
0.101239 0.161091 0.084641 255 220 0
0.150627 0.077761 0.093688 255 220 0
0.179885 0.133785 0.089560 255 220 0
0.145080 0.041212 0.055653 255 220 0
0.193444 0.103650 0.068092 255 220 0
0.112106 0.100051 0.087040 255 220 0
0.162171 0.072308 0.088527 255 220 0
0.120262 0.126092 0.042662 255 220 0
0.105338 0.162826 0.094988 255 220 0
0.148810 0.195920 0.088450 255 220 0
0.129922 0.062267 0.031604 255 220 0
0.175472 0.089952 0.020847 255 220 0
0.118567 0.078482 0.038432 255 220 0
0.109738 0.108441 0.087383 255 220 0
0.126685 0.078127 0.087641 255 220 0
0.119385 0.080203 0.083805 255 220 0
0.153405 0.123260 0.025948 255 220 0
0.172764 0.164879 0.052033 255 220 0
0.148838 0.198559 0.082135 255 220 0
0.141780 0.175098 0.052283 255 220 0
0.181706 0.067400 0.027106 255 220 0
0.127422 0.205789 0.091740 255 220 0
0.194843 0.103353 0.053359 255 220 0
0.188849 0.121220 0.078337 255 220 0
0.185047 0.080995 0.077477 255 220 0
0.159955 0.087242 0.096416 255 220 0
0.128722 0.110767 0.031565 255 220 0
0.160965 0.141718 0.102918 255 220 0
0.175256 0.064598 0.022116 255 220 0
0.130685 0.107538 0.029460 255 220 0
0.191105 0.103466 0.074736 255 220 0
0.131479 0.181449 0.105530 255 220 0
0.175227 0.043710 0.045785 255 220 0
0.118393 0.162006 0.104106 255 220 0
0.186029 0.140412 0.076341 255 220 0
0.120229 0.099609 0.036135 255 220 0
0.191664 0.079288 0.045918 255 220 0
0.193375 0.113241 0.048065 255 220 0
0.134475 0.164375 0.048971 255 220 0
0.122711 0.094750 0.093332 255 220 0
0.106202 0.154119 0.066541 255 220 0
0.110217 0.202713 0.095148 255 220 0
0.113683 0.191440 0.067734 255 220 0
0.141503 0.045649 0.035459 255 220 0
0.177948 0.075291 0.082292 255 220 0
0.188364 0.090011 0.034156 255 220 0
0.187792 0.072222 0.065236 255 220 0
0.127268 0.169272 0.106689 255 220 0
0.132979 0.121098 0.102997 255 220 0
0.161737 0.039139 0.054981 255 220 0
0.166340 0.093001 0.017734 255 220 0
0.120243 0.199774 0.099590 255 220 0
0.108502 0.197850 0.071992 255 220 0
0.131214 0.158278 0.047657 255 220 0
0.173466 0.106023 0.095782 255 220 0
0.141960 0.182822 0.057438 255 220 0
0.183222 0.058865 0.034269 255 220 0
0.152843 0.077016 0.093147 255 220 0
0.145432 0.067301 0.018977 255 220 0
0.140887 0.074406 0.019558 255 220 0
0.185850 0.116967 0.084151 255 220 0
0.133862 0.055103 0.072343 255 220 0
0.150195 0.059483 0.081439 255 220 0
0.183188 0.139890 0.082781 255 220 0
0.150544 0.086151 0.097107 255 220 0
0.171140 0.079861 0.089291 255 220 0
0.161307 0.163434 0.045750 255 220 0
0.188741 0.110813 0.079895 255 220 0
0.142665 0.046577 0.033004 255 220 0
0.158816 0.131225 0.103875 255 220 0
0.143406 0.200995 0.078774 255 220 0
0.128829 0.086535 0.027059 255 220 0
0.103445 0.110051 0.069653 255 220 0
0.129507 0.154404 0.046798 255 220 0
0.139174 0.198694 0.071863 255 220 0
0.119799 0.063143 0.046517 255 220 0
0.176554 0.099245 0.023063 255 220 0
0.191481 0.107635 0.040572 255 220 0
0.156532 0.167549 0.047538 255 220 0
0.110256 0.090297 0.050207 255 220 0
0.127370 0.103128 0.097920 255 220 0
0.174449 0.171886 0.070408 255 220 0
0.171779 0.172234 0.079057 255 220 0
0.146561 0.050555 0.026927 255 220 0
0.184089 0.056930 0.053740 255 220 0
0.177825 0.063038 0.073358 255 220 0
0.136523 0.044263 0.051571 255 220 0
0.116087 0.144660 0.100238 255 220 0
0.105404 0.096302 0.067837 255 220 0
0.130280 0.183329 0.105252 255 220 0
0.145794 0.198347 0.088452 255 220 0
0.112734 0.207275 0.084377 255 220 0
0.117180 0.083510 0.083783 255 220 0
0.108845 0.180417 0.101708 255 220 0
0.156812 0.186854 0.089132 255 220 0
0.176241 0.150622 0.089359 255 220 0
0.173385 0.105943 0.022939 255 220 0
0.112230 0.110654 0.090818 255 220 0
0.179386 0.086886 0.023325 255 220 0
0.137942 0.051146 0.032216 255 220 0
0.177755 0.046850 0.050949 255 220 0
0.152112 0.194458 0.074153 255 220 0
0.154191 0.109060 0.102751 255 220 0
0.100659 0.180625 0.074846 255 220 0
0.118139 0.071245 0.075511 255 220 0
0.115121 0.204958 0.093605 255 220 0
0.108164 0.143145 0.061396 255 220 0
0.155368 0.096216 0.099841 255 220 0
0.141476 0.072063 0.089684 255 220 0
0.128255 0.177701 0.057366 255 220 0
0.188076 0.121347 0.039886 255 220 0
0.165110 0.043382 0.061409 255 220 0
0.118266 0.072848 0.041090 255 220 0
0.166388 0.124583 0.027117 255 220 0
0.150272 0.065550 0.018010 255 220 0
0.129478 0.054285 0.038756 255 220 0
0.144716 0.165772 0.046403 255 220 0
0.123111 0.056790 0.060961 255 220 0
0.139078 0.105964 0.101516 255 220 0
0.190392 0.137729 0.060226 255 220 0
0.153548 0.039165 0.038223 255 220 0
0.109877 0.079718 0.066342 255 220 0
0.130539 0.055007 0.069762 255 220 0
0.144130 0.176576 0.103705 255 220 0
0.130649 0.093709 0.026502 255 220 0
0.111446 0.106040 0.047981 255 220 0
0.151445 0.107001 0.102589 255 220 0
0.171331 0.076681 0.087421 255 220 0
0.150904 0.140342 0.032981 255 220 0
0.175225 0.134782 0.034135 255 220 0
0.132199 0.198460 0.097458 255 220 0
0.160850 0.041464 0.060191 255 220 0
0.141331 0.073520 0.090548 255 220 0
0.166185 0.080030 0.091541 255 220 0
0.127333 0.053553 0.043724 255 220 0
0.175408 0.104105 0.094186 255 220 0
0.141511 0.139512 0.034778 255 220 0
0.136437 0.175388 0.053593 255 220 0
0.152530 0.111221 0.021844 255 220 0
0.181095 0.091019 0.025237 255 220 0
0.151507 0.040193 0.057204 255 220 0
0.185640 0.090399 0.030171 255 220 0
0.184080 0.150776 0.073398 255 220 0
0.167000 0.091589 0.095691 255 220 0
0.105229 0.123243 0.061990 255 220 0
0.107429 0.127516 0.058524 255 220 0
0.172234 0.111425 0.097236 255 220 0
0.168028 0.151292 0.040095 255 220 0
0.135310 0.072290 0.087919 255 220 0
0.122255 0.170487 0.105929 255 220 0
0.150733 0.053961 0.023209 255 220 0
0.163178 0.044103 0.029776 255 220 0
0.140427 0.133674 0.105829 255 220 0
0.106075 0.203656 0.079375 255 220 0
0.167877 0.167432 0.091025 255 220 0
0.149820 0.079917 0.094692 255 220 0
0.114121 0.084463 0.043936 255 220 0
0.110135 0.101612 0.049639 255 220 0
0.143884 0.101457 0.021084 255 220 0
0.192559 0.082887 0.057026 255 220 0
0.148435 0.157621 0.041396 255 220 0
0.186657 0.061166 0.042377 255 220 0
0.107903 0.092840 0.055579 255 220 0
0.110013 0.185118 0.067639 255 220 0
0.106353 0.201553 0.075985 255 220 0
0.129660 0.133790 0.104040 255 220 0
0.179459 0.058669 0.066843 255 220 0
0.182778 0.070119 0.073526 255 220 0
0.172939 0.062440 0.021543 255 220 0
0.187238 0.122169 0.081157 255 220 0
0.129042 0.049653 0.050444 255 220 0
0.152951 0.103271 0.101746 255 220 0
0.173862 0.171236 0.061662 255 220 0
0.183625 0.114401 0.087348 255 220 0
0.138148 0.071856 0.088616 255 220 0
0.162052 0.181693 0.063268 255 220 0
0.161992 0.133362 0.030225 255 220 0
0.109831 0.170315 0.100942 255 220 0
0.146747 0.183386 0.100059 255 220 0
0.169695 0.050904 0.068052 255 220 0
0.102588 0.154276 0.074802 255 220 0
0.138436 0.203761 0.080919 255 220 0
0.194882 0.103761 0.058799 255 220 0
0.168862 0.127956 0.099628 255 220 0
0.098028 0.187651 0.079074 255 220 0
0.114973 0.068983 0.053568 255 220 0
0.182543 0.157071 0.070634 255 220 0
0.112342 0.150033 0.098663 255 220 0
0.118499 0.169851 0.058484 255 220 0
0.165876 0.124070 0.026829 255 220 0
0.136873 0.111131 0.102141 255 220 0
0.117923 0.072291 0.042001 255 220 0
0.182421 0.053973 0.038944 255 220 0
0.124035 0.197617 0.100529 255 220 0
0.129320 0.069074 0.082851 255 220 0
0.123614 0.158982 0.051667 255 220 0
0.116974 0.152946 0.054255 255 220 0
0.110742 0.156802 0.061260 255 220 0
0.174244 0.171834 0.064315 255 220 0
0.125396 0.161009 0.051509 255 220 0
0.103739 0.131212 0.068022 255 220 0
0.152932 0.128002 0.027785 255 220 0
0.153961 0.084667 0.015789 255 220 0
0.123386 0.055583 0.051795 255 220 0
0.148899 0.197604 0.077121 255 220 0
0.097697 0.178439 0.082341 255 220 0
0.155419 0.092368 0.016731 255 220 0
0.171658 0.134377 0.097421 255 220 0
0.175206 0.079953 0.086886 255 220 0
0.103194 0.142463 0.080973 255 220 0
0.134486 0.103251 0.099973 255 220 0
0.187715 0.067712 0.038034 255 220 0
0.146067 0.140119 0.106395 255 220 0
0.191789 0.115983 0.044619 255 220 0
0.099263 0.174151 0.089505 255 220 0
0.167967 0.072175 0.017079 255 220 0
0.106818 0.137768 0.062185 255 220 0
0.193193 0.109936 0.069379 255 220 0
0.167638 0.039180 0.044827 255 220 0
0.153962 0.181148 0.058206 255 220 0
0.097959 0.193578 0.080818 255 220 0
0.112255 0.143860 0.056313 255 220 0
0.193715 0.103043 0.066876 255 220 0
0.114889 0.083585 0.081249 255 220 0
0.111049 0.201429 0.073461 255 220 0
0.186976 0.105520 0.032849 255 220 0
0.107676 0.129775 0.088910 255 220 0
0.183992 0.150053 0.050443 255 220 0
0.140798 0.139571 0.035079 255 220 0
0.119428 0.135606 0.046378 255 220 0
0.184251 0.155738 0.060672 255 220 0
0.181801 0.140098 0.040893 255 220 0
0.114926 0.120841 0.095173 255 220 0
0.114741 0.128023 0.048835 255 220 0
0.100405 0.170926 0.090261 255 220 0
0.145358 0.067312 0.087234 255 220 0
0.099136 0.193803 0.078376 255 220 0
0.173746 0.075380 0.019073 255 220 0
0.180664 0.055611 0.060692 255 220 0
0.162689 0.105272 0.100357 255 220 0
0.124119 0.090099 0.031329 255 220 0
0.103620 0.137584 0.081527 255 220 0
0.167438 0.180527 0.074788 255 220 0
0.105103 0.119125 0.061597 255 220 0
0.170729 0.076035 0.087347 255 220 0
0.172624 0.065098 0.078946 255 220 0
0.160884 0.097898 0.099258 255 220 0
0.193004 0.094013 0.044469 255 220 0
0.105341 0.141672 0.087492 255 220 0
0.109406 0.109191 0.087198 255 220 0
0.118090 0.109414 0.040247 255 220 0
0.169927 0.077547 0.017211 255 220 0
0.176404 0.063669 0.075184 255 220 0
0.190154 0.133629 0.051151 255 220 0
0.143932 0.043352 0.036914 255 220 0
0.158910 0.062447 0.082941 255 220 0
0.097377 0.186219 0.091065 255 220 0
0.104850 0.190238 0.099565 255 220 0
0.186964 0.064478 0.057360 255 220 0
0.098404 0.176934 0.089022 255 220 0
0.186385 0.071404 0.068048 255 220 0
0.109992 0.090515 0.050765 255 220 0
0.142091 0.123434 0.028374 255 220 0
0.165110 0.090700 0.096137 255 220 0
0.120749 0.113671 0.097548 255 220 0
0.189216 0.068515 0.053401 255 220 0
0.177759 0.067221 0.076883 255 220 0
0.153124 0.085444 0.096711 255 220 0
0.190688 0.077807 0.061241 255 220 0
0.162380 0.184887 0.069060 255 220 0
0.125055 0.173592 0.056741 255 220 0
0.185883 0.150674 0.066660 255 220 0
0.112403 0.132885 0.052956 255 220 0
0.104035 0.185806 0.099222 255 220 0
0.118113 0.085398 0.037851 255 220 0
0.108017 0.090543 0.056292 255 220 0
0.150946 0.165251 0.103865 255 220 0
0.136594 0.191978 0.064257 255 220 0
0.180359 0.113947 0.028613 255 220 0
0.164214 0.165445 0.096184 255 220 0
0.121759 0.155444 0.104529 255 220 0
0.119473 0.097771 0.092545 255 220 0
0.113733 0.139185 0.097492 255 220 0
0.115546 0.112683 0.094148 255 220 0
0.147924 0.184871 0.059926 255 220 0
0.162721 0.153778 0.100689 255 220 0
0.140568 0.106701 0.101902 255 220 0
0.190133 0.121364 0.075496 255 220 0
0.102915 0.131510 0.073261 255 220 0
0.150908 0.111404 0.022086 255 220 0
0.138643 0.048506 0.034481 255 220 0
0.122436 0.056921 0.051345 255 220 0
0.172922 0.098402 0.021046 255 220 0
0.162954 0.182926 0.066104 255 220 0
0.191537 0.110151 0.074149 255 220 0
0.166518 0.168168 0.092268 255 220 0
0.171553 0.169106 0.083487 255 220 0
0.155233 0.067292 0.087193 255 220 0
0.160410 0.141106 0.033512 255 220 0
0.146273 0.042568 0.060706 255 220 0
0.157909 0.048032 0.069793 255 220 0
0.149587 0.190742 0.066615 255 220 0
0.100136 0.165791 0.080611 255 220 0
0.104515 0.113504 0.079662 255 220 0
0.170313 0.172836 0.058945 255 220 0
0.184575 0.154058 0.057302 255 220 0
0.113432 0.076023 0.049443 255 220 0
0.127992 0.100457 0.029587 255 220 0
0.154339 0.116430 0.103819 255 220 0
0.120158 0.138763 0.046776 255 220 0
0.159686 0.037708 0.049915 255 220 0
0.183096 0.157673 0.066900 255 220 0
0.133295 0.154352 0.106818 255 220 0
0.173787 0.145551 0.038928 255 220 0
0.161022 0.080044 0.093149 255 220 0
0.108146 0.158306 0.096848 255 220 0
0.168793 0.175735 0.081001 255 220 0
0.146586 0.132332 0.030327 255 220 0
0.124582 0.056389 0.044990 255 220 0
0.128879 0.063817 0.031830 255 220 0
0.111309 0.143788 0.096364 255 220 0
0.181488 0.133384 0.037362 255 220 0
0.151124 0.038737 0.050640 255 220 0
0.188997 0.135130 0.071549 255 220 0
0.149661 0.140077 0.106032 255 220 0
0.152018 0.176518 0.053593 255 220 0
0.136367 0.185972 0.103222 255 220 0
0.152097 0.196179 0.080568 255 220 0
0.190506 0.111786 0.039801 255 220 0
0.164185 0.183857 0.078300 255 220 0
0.168463 0.159231 0.045155 255 220 0
0.107106 0.163418 0.097186 255 220 0
0.104854 0.151242 0.068681 255 220 0
0.103180 0.132019 0.078501 255 220 0
0.147274 0.199067 0.085092 255 220 0
0.104405 0.128922 0.082622 255 220 0
0.162414 0.075837 0.015642 255 220 0
0.098063 0.179165 0.089632 255 220 0
0.165942 0.118036 0.024561 255 220 0
0.133702 0.205241 0.080667 255 220 0
0.145993 0.066332 0.086608 255 220 0
0.168689 0.171361 0.055653 255 220 0
0.148219 0.043759 0.032560 255 220 0
0.177929 0.156102 0.083283 255 220 0
0.172198 0.115978 0.025288 255 220 0
0.169369 0.078078 0.089188 255 220 0
0.191279 0.101634 0.073996 255 220 0
0.109247 0.082557 0.068556 255 220 0
0.153902 0.188383 0.091127 255 220 0
0.159607 0.041776 0.032167 255 220 0
0.134255 0.175478 0.106275 255 220 0
0.102892 0.155777 0.073318 255 220 0
0.192932 0.107801 0.070310 255 220 0
0.117150 0.100655 0.039665 255 220 0
0.134714 0.083316 0.093704 255 220 0
0.135060 0.097624 0.098707 255 220 0
0.138487 0.047187 0.064967 255 220 0
0.160219 0.168573 0.049196 255 220 0
0.128303 0.051002 0.047370 255 220 0
0.107319 0.201709 0.094848 255 220 0
0.184455 0.071592 0.029685 255 220 0
0.158973 0.088653 0.097093 255 220 0
0.172958 0.084929 0.090491 255 220 0
0.163209 0.058377 0.078325 255 220 0
0.110686 0.083508 0.074197 255 220 0
0.148818 0.039440 0.042702 255 220 0
0.156246 0.156717 0.103293 255 220 0
0.116955 0.197486 0.100876 255 220 0
0.177327 0.116141 0.027454 255 220 0
0.184505 0.094774 0.028962 255 220 0
0.148151 0.142269 0.106273 255 220 0
0.139891 0.058185 0.025612 255 220 0
0.143202 0.049760 0.029383 255 220 0
0.122121 0.192378 0.103131 255 220 0
0.175472 0.163803 0.053332 255 220 0
0.127249 0.073013 0.029818 255 220 0
0.109292 0.174336 0.065864 255 220 0
0.113034 0.090509 0.083270 255 220 0
0.141755 0.124283 0.104859 255 220 0
0.175469 0.086458 0.089338 255 220 0
0.165159 0.080224 0.092005 255 220 0
0.185951 0.147939 0.070230 255 220 0
0.159772 0.186185 0.067834 255 220 0
0.184172 0.118027 0.033201 255 220 0
0.172939 0.099418 0.021267 255 220 0
0.123722 0.073480 0.033377 255 220 0
0.160223 0.048511 0.069830 255 220 0
0.164251 0.146727 0.036779 255 220 0
0.131108 0.061585 0.030786 255 220 0
0.136202 0.194871 0.066729 255 220 0
0.189982 0.074756 0.060482 255 220 0
0.152898 0.161715 0.043421 255 220 0
0.112887 0.194214 0.068892 255 220 0
0.122287 0.200351 0.070215 255 220 0
0.104803 0.100637 0.071520 255 220 0
0.193351 0.117140 0.066758 255 220 0
0.188659 0.069612 0.039854 255 220 0
0.165317 0.103459 0.099153 255 220 0
0.121752 0.197716 0.100743 255 220 0
0.179524 0.060912 0.069355 255 220 0
0.127747 0.080343 0.089467 255 220 0
0.160466 0.129101 0.028277 255 220 0
0.122832 0.195123 0.101974 255 220 0
0.189429 0.111374 0.078638 255 220 0
0.153452 0.040743 0.059114 255 220 0
0.188266 0.066595 0.041340 255 220 0
0.153162 0.122940 0.025843 255 220 0
0.172390 0.174051 0.064854 255 220 0
0.162221 0.039189 0.038271 255 220 0
0.123955 0.080893 0.031630 255 220 0
0.098230 0.188852 0.093075 255 220 0
0.170166 0.045721 0.061183 255 220 0
0.172208 0.122383 0.027543 255 220 0
0.132643 0.202470 0.074519 255 220 0
0.147984 0.195811 0.072640 255 220 0
0.167722 0.055976 0.074255 255 220 0
0.138240 0.183542 0.058058 255 220 0
0.168993 0.053353 0.024219 255 220 0
0.190563 0.106201 0.076252 255 220 0
0.147239 0.170155 0.104190 255 220 0
0.169492 0.133997 0.031859 255 220 0
0.158197 0.097440 0.017731 255 220 0
0.177172 0.131184 0.092969 255 220 0
0.133775 0.111730 0.101589 255 220 0
0.170053 0.176996 0.074846 255 220 0
0.192658 0.085891 0.061074 255 220 0
0.121440 0.203427 0.073333 255 220 0
0.131954 0.100819 0.098746 255 220 0
0.119368 0.065873 0.070892 255 220 0
0.151143 0.135210 0.105704 255 220 0
0.146936 0.181067 0.101014 255 220 0
0.187567 0.094061 0.079010 255 220 0
0.154957 0.086470 0.015894 255 220 0
0.128386 0.132234 0.038579 255 220 0
0.121119 0.198861 0.069221 255 220 0
0.143859 0.178018 0.103392 255 220 0
0.181121 0.075524 0.024867 255 220 0
0.156708 0.169140 0.048733 255 220 0
0.173062 0.148821 0.093881 255 220 0
0.105112 0.168492 0.096605 255 220 0
0.102059 0.157240 0.084997 255 220 0
0.104325 0.103635 0.066238 255 220 0
0.171166 0.169848 0.055949 255 220 0
0.125239 0.080540 0.088227 255 220 0
0.103000 0.133014 0.077244 255 220 0
0.147396 0.197385 0.088073 255 220 0
0.124947 0.200602 0.070431 255 220 0
0.183088 0.055802 0.055006 255 220 0
0.125854 0.192537 0.065065 255 220 0
0.160388 0.087231 0.096316 255 220 0
0.153087 0.038860 0.053441 255 220 0
0.116483 0.092443 0.088025 255 220 0
0.101377 0.158843 0.081870 255 220 0
0.104972 0.175274 0.098345 255 220 0
0.097131 0.190525 0.081745 255 220 0
0.176967 0.046718 0.052963 255 220 0
0.179626 0.157654 0.078377 255 220 0
0.162530 0.115120 0.023128 255 220 0
0.172873 0.043726 0.037644 255 220 0
0.136910 0.127834 0.032370 255 220 0
0.191399 0.078406 0.058186 255 220 0
0.160804 0.156177 0.101285 255 220 0
0.166818 0.143929 0.099792 255 220 0
0.136506 0.193019 0.065112 255 220 0
0.189313 0.129457 0.046506 255 220 0
0.156564 0.053838 0.022223 255 220 0
0.150037 0.176252 0.101310 255 220 0
0.118856 0.119038 0.097474 255 220 0
0.151815 0.094787 0.099762 255 220 0
0.128571 0.118353 0.033892 255 220 0
0.125603 0.098432 0.095940 255 220 0
0.121980 0.068348 0.076949 255 220 0
0.103721 0.131973 0.068253 255 220 0
0.150686 0.095258 0.099928 255 220 0
0.143220 0.065608 0.085505 255 220 0
0.163470 0.109408 0.021377 255 220 0
0.106686 0.130507 0.060582 255 220 0
0.146739 0.061582 0.082875 255 220 0
0.181783 0.064868 0.070264 255 220 0
0.163853 0.144517 0.101372 255 220 0
0.170903 0.072420 0.084982 255 220 0
0.147189 0.074263 0.091899 255 220 0
0.174130 0.087507 0.019715 255 220 0
0.127953 0.080034 0.027920 255 220 0
0.156409 0.072117 0.015795 255 220 0
0.174176 0.119877 0.096371 255 220 0
0.109886 0.199936 0.072724 255 220 0
0.138928 0.058555 0.026035 255 220 0
0.158830 0.189527 0.081283 255 220 0
0.104819 0.154672 0.091135 255 220 0
0.171080 0.120674 0.026574 255 220 0
0.192702 0.119722 0.068356 255 220 0
0.186368 0.090496 0.079582 255 220 0
0.181356 0.079439 0.081323 255 220 0
0.192474 0.097256 0.042230 255 220 0
0.113303 0.104918 0.045172 255 220 0
0.143158 0.193438 0.067095 255 220 0
0.107335 0.123627 0.057770 255 220 0
0.189232 0.067559 0.047740 255 220 0
0.142447 0.109061 0.023722 255 220 0
0.192455 0.120000 0.069201 255 220 0
0.181993 0.065949 0.071007 255 220 0
0.194936 0.107014 0.057925 255 220 0
0.176063 0.150523 0.042953 255 220 0
0.143554 0.092648 0.019277 255 220 0
0.130612 0.147911 0.105954 255 220 0
0.178993 0.093735 0.088825 255 220 0
0.140506 0.124495 0.104756 255 220 0
0.151392 0.040431 0.036206 255 220 0
0.115402 0.079742 0.043048 255 220 0
0.102841 0.124291 0.074473 255 220 0
0.161515 0.086414 0.095759 255 220 0
0.141021 0.069879 0.088135 255 220 0
0.179369 0.145472 0.086941 255 220 0
0.178113 0.079218 0.021917 255 220 0
0.163799 0.101129 0.099175 255 220 0
0.160696 0.105605 0.100968 255 220 0
0.182043 0.083788 0.025695 255 220 0
0.143112 0.153833 0.106828 255 220 0
0.188346 0.092131 0.034038 255 220 0
0.157088 0.191833 0.078260 255 220 0
0.126822 0.058750 0.037897 255 220 0
0.187474 0.141072 0.071710 255 220 0
0.192346 0.114024 0.071574 255 220 0
0.153297 0.046650 0.068524 255 220 0
0.109168 0.200762 0.073648 255 220 0
0.122411 0.146931 0.103657 255 220 0
0.143819 0.086380 0.096874 255 220 0
0.128282 0.050559 0.057211 255 220 0
0.191019 0.088205 0.069336 255 220 0
0.177049 0.152559 0.087157 255 220 0
0.154888 0.038064 0.041893 255 220 0
0.103157 0.149460 0.073432 255 220 0
0.168059 0.123606 0.027017 255 220 0
0.114633 0.068492 0.061776 255 220 0
0.146723 0.041033 0.056756 255 220 0
0.109809 0.196889 0.070995 255 220 0
0.183363 0.157228 0.059470 255 220 0
0.139542 0.055205 0.075228 255 220 0
0.127620 0.080244 0.028195 255 220 0
0.146004 0.071531 0.017788 255 220 0
0.124474 0.160897 0.051929 255 220 0
0.168158 0.167446 0.051420 255 220 0
0.147529 0.148254 0.036963 255 220 0
0.157774 0.128691 0.027972 255 220 0
0.106853 0.199162 0.073583 255 220 0
0.139235 0.152380 0.041413 255 220 0
0.106309 0.191195 0.070733 255 220 0
0.163807 0.167650 0.049642 255 220 0
0.165016 0.118335 0.024529 255 220 0
0.135590 0.189049 0.061998 255 220 0
0.150033 0.151794 0.038302 255 220 0
0.100436 0.187438 0.075266 255 220 0
