ply
format ascii 1.0
element vertex 1024
property float x
property float y
property float z
property uchar red
property uchar green
property uchar blue
end_header
0.516668 0.094889 0.309831 255 220 0
0.448788 0.096110 0.316810 255 220 0
0.502087 0.084487 0.245435 255 220 0
0.483149 0.046691 0.278894 255 220 0
0.481527 0.113586 0.246748 255 220 0
0.434530 0.108058 0.277526 255 220 0
0.516737 0.085811 0.301058 255 220 0
0.531930 0.164852 0.321130 255 220 0
0.531934 0.110745 0.268010 255 220 0
0.452348 0.101561 0.247809 255 220 0
0.483448 0.047247 0.281329 255 220 0
0.450995 0.057359 0.238826 255 220 0
0.449071 0.114478 0.262399 255 220 0
0.515661 0.080129 0.295087 255 220 0
0.509659 0.074728 0.258926 255 220 0
0.461837 0.118752 0.322530 255 220 0
0.425374 0.058285 0.274433 255 220 0
0.532229 0.124981 0.311084 255 220 0
0.472331 0.119334 0.325930 255 220 0
0.503789 0.065496 0.292433 255 220 0
0.500577 0.059747 0.283745 255 220 0
0.517968 0.082756 0.293882 255 220 0
0.437818 0.086297 0.308324 255 220 0
0.430291 0.051866 0.256521 255 220 0
0.437203 0.111476 0.277005 255 220 0
0.435243 0.106677 0.272437 255 220 0
0.502654 0.175912 0.292797 255 220 0
0.486966 0.089645 0.239077 255 220 0
0.435363 0.065126 0.246262 255 220 0
0.495654 0.188598 0.313204 255 220 0
0.505749 0.092760 0.246367 255 220 0
0.535711 0.177515 0.305102 255 220 0
0.518309 0.130911 0.259888 255 220 0
0.498736 0.191829 0.313591 255 220 0
0.509862 0.109679 0.322175 255 220 0
0.470010 0.045586 0.249502 255 220 0
0.479578 0.145633 0.274590 255 220 0
0.491748 0.067398 0.307123 255 220 0
0.537010 0.175523 0.305957 255 220 0
0.521743 0.132544 0.262044 255 220 0
0.463930 0.146416 0.299239 255 220 0
0.537204 0.165373 0.293621 255 220 0
0.489541 0.090533 0.239716 255 220 0
0.479412 0.088620 0.237615 255 220 0
0.511756 0.169648 0.331703 255 220 0
0.475302 0.137378 0.268035 255 220 0
0.500902 0.063188 0.292736 255 220 0
0.496399 0.085962 0.242042 255 220 0
0.501008 0.088095 0.316857 255 220 0
0.430612 0.048004 0.261588 255 220 0
0.499694 0.114976 0.248509 255 220 0
0.539671 0.154622 0.308267 255 220 0
0.505622 0.076341 0.305391 255 220 0
0.503687 0.105365 0.323024 255 220 0
0.500766 0.068198 0.300897 255 220 0
0.462432 0.111099 0.323358 255 220 0
0.489075 0.068137 0.244248 255 220 0
0.456671 0.041435 0.284472 255 220 0
0.445550 0.123811 0.283743 255 220 0
0.426694 0.093950 0.279727 255 220 0
0.510415 0.131327 0.257722 255 220 0
0.455664 0.046756 0.292323 255 220 0
0.526388 0.167285 0.326239 255 220 0
0.502943 0.061423 0.272308 255 220 0
0.468152 0.058141 0.238757 255 220 0
0.531672 0.182421 0.304810 255 220 0
0.474899 0.065400 0.310664 255 220 0
0.488179 0.150127 0.274880 255 220 0
0.516627 0.080011 0.266101 255 220 0
0.511392 0.129315 0.257006 255 220 0
0.500076 0.072882 0.249146 255 220 0
0.489070 0.162209 0.287083 255 220 0
0.515101 0.141044 0.264023 255 220 0
0.527026 0.163560 0.283757 255 220 0
0.510106 0.072177 0.293188 255 220 0
0.512821 0.174786 0.289239 255 220 0
0.469110 0.049822 0.295620 255 220 0
0.515518 0.076336 0.286909 255 220 0
0.505795 0.114338 0.249549 255 220 0
0.494091 0.126791 0.328963 255 220 0
0.508845 0.158183 0.331809 255 220 0
0.469102 0.100272 0.323845 255 220 0
0.465817 0.092156 0.238203 255 220 0
0.527839 0.096938 0.288499 255 220 0
0.464458 0.143108 0.312553 255 220 0
0.479549 0.123471 0.253160 255 220 0
0.426408 0.055824 0.274069 255 220 0
0.540056 0.155598 0.291164 255 220 0
0.524739 0.103555 0.307004 255 220 0
0.526583 0.129109 0.319010 255 220 0
0.512252 0.095572 0.250563 255 220 0
0.468265 0.150508 0.307183 255 220 0
0.474150 0.043124 0.281329 255 220 0
0.486920 0.145704 0.270985 255 220 0
0.462805 0.044658 0.289405 255 220 0
0.428276 0.093039 0.269504 255 220 0
0.468988 0.090053 0.237337 255 220 0
0.481342 0.047896 0.258259 255 220 0
0.483974 0.151953 0.279020 255 220 0
0.505996 0.066998 0.263904 255 220 0
0.504879 0.064007 0.285540 255 220 0
0.438033 0.044034 0.279856 255 220 0
0.459928 0.079898 0.235591 255 220 0
0.478069 0.043617 0.273996 255 220 0
0.468842 0.079965 0.235254 255 220 0
0.469642 0.145246 0.283524 255 220 0
0.455350 0.062729 0.236458 255 220 0
0.516057 0.082935 0.261273 255 220 0
0.457879 0.101387 0.244691 255 220 0
0.515540 0.076079 0.271412 255 220 0
0.432688 0.084007 0.303061 255 220 0
0.477483 0.075300 0.236905 255 220 0
0.501294 0.088440 0.316907 255 220 0
0.475489 0.071645 0.314714 255 220 0
0.456348 0.105675 0.248857 255 220 0
0.500297 0.083786 0.314763 255 220 0
0.447415 0.066765 0.238136 255 220 0
0.478240 0.119688 0.327029 255 220 0
0.475464 0.111964 0.246419 255 220 0
0.459649 0.108180 0.322370 255 220 0
0.451982 0.127081 0.311909 255 220 0
0.459450 0.044265 0.289067 255 220 0
0.493078 0.155202 0.277768 255 220 0
0.529980 0.101336 0.288979 255 220 0
0.463116 0.131419 0.270134 255 220 0
0.448195 0.099709 0.248932 255 220 0
0.512771 0.098531 0.250334 255 220 0
0.488591 0.159772 0.284683 255 220 0
0.533605 0.181240 0.312180 255 220 0
0.513555 0.087487 0.307326 255 220 0
0.487426 0.049629 0.281701 255 220 0
0.499906 0.094693 0.320355 255 220 0
0.532058 0.156273 0.320740 255 220 0
0.437428 0.042515 0.276050 255 220 0
0.517935 0.101417 0.253585 255 220 0
0.442841 0.059103 0.299273 255 220 0
0.503292 0.185476 0.328589 255 220 0
0.511801 0.109011 0.320998 255 220 0
0.519820 0.100730 0.310779 255 220 0
0.424656 0.068472 0.285665 255 220 0
0.499835 0.064103 0.257511 255 220 0
0.429114 0.093972 0.268320 255 220 0
0.515342 0.126636 0.325137 255 220 0
0.512256 0.110165 0.250394 255 220 0
0.450442 0.131532 0.292563 255 220 0
0.454821 0.068255 0.310686 255 220 0
0.430337 0.053101 0.282412 255 220 0
0.454591 0.047201 0.243687 255 220 0
0.467526 0.064812 0.236192 255 220 0
0.478559 0.160669 0.297640 255 220 0
0.527927 0.129970 0.264498 255 220 0
0.507485 0.175027 0.331534 255 220 0
0.424424 0.072682 0.286716 255 220 0
0.475180 0.053345 0.298794 255 220 0
0.489349 0.131056 0.256750 255 220 0
0.453274 0.039707 0.281019 255 220 0
0.502279 0.061574 0.285316 255 220 0
0.487173 0.102918 0.325085 255 220 0
0.433042 0.067822 0.297707 255 220 0
0.488070 0.158968 0.326643 255 220 0
0.499307 0.175836 0.294292 255 220 0
0.480270 0.165672 0.311135 255 220 0
0.518575 0.079853 0.274665 255 220 0
0.494692 0.062187 0.253439 255 220 0
0.478160 0.049954 0.293301 255 220 0
0.495081 0.173918 0.295101 255 220 0
0.429608 0.052766 0.257149 255 220 0
0.540682 0.142311 0.288114 255 220 0
0.538933 0.139960 0.305151 255 220 0
0.453749 0.104730 0.249579 255 220 0
0.535632 0.150944 0.315529 255 220 0
0.517443 0.086159 0.300223 255 220 0
0.491043 0.097289 0.241010 255 220 0
0.453494 0.119699 0.264310 255 220 0
0.513678 0.195954 0.313650 255 220 0
0.456712 0.114875 0.256661 255 220 0
0.490393 0.140621 0.264674 255 220 0
0.462630 0.040433 0.253242 255 220 0
0.476384 0.148415 0.280623 255 220 0
0.468806 0.151373 0.299681 255 220 0
0.516860 0.189415 0.325281 255 220 0
0.491358 0.058851 0.253657 255 220 0
0.472900 0.156084 0.302659 255 220 0
0.508729 0.078032 0.303785 255 220 0
0.436377 0.095882 0.257012 255 220 0
0.453255 0.095688 0.243065 255 220 0
0.496280 0.057411 0.264165 255 220 0
0.466656 0.084230 0.319839 255 220 0
0.473357 0.147619 0.282718 255 220 0
0.464471 0.039557 0.256622 255 220 0
0.483885 0.076713 0.238766 255 220 0
0.459402 0.037545 0.274021 255 220 0
0.440362 0.097213 0.253461 255 220 0
0.486466 0.048428 0.272748 255 220 0
0.529121 0.100168 0.290864 255 220 0
0.514199 0.143510 0.329221 255 220 0
0.466594 0.065509 0.235838 255 220 0
0.454116 0.135025 0.304944 255 220 0
0.496175 0.163067 0.283836 255 220 0
0.525450 0.098334 0.263740 255 220 0
0.517890 0.090505 0.304471 255 220 0
0.506331 0.065412 0.269318 255 220 0
0.446252 0.105235 0.314902 255 220 0
0.517623 0.082285 0.293942 255 220 0
0.486325 0.088788 0.321218 255 220 0
0.474230 0.122849 0.254518 255 220 0
0.484412 0.138364 0.264692 255 220 0
0.477934 0.060922 0.241654 255 220 0
0.470640 0.051740 0.243647 255 220 0
0.439322 0.056455 0.295240 255 220 0
0.482223 0.153793 0.324081 255 220 0
0.504403 0.113877 0.249041 255 220 0
0.465991 0.049075 0.243766 255 220 0
0.485771 0.063674 0.306751 255 220 0
0.440982 0.047049 0.248102 255 220 0
0.486195 0.092119 0.239209 255 220 0
0.430709 0.087321 0.300856 255 220 0
0.467903 0.047380 0.292547 255 220 0
0.493143 0.054295 0.265757 255 220 0
0.480860 0.105207 0.325599 255 220 0
0.470567 0.149150 0.314668 255 220 0
0.522651 0.167077 0.328564 255 220 0
0.513066 0.116992 0.323226 255 220 0
0.460145 0.137408 0.283392 255 220 0
0.535088 0.113680 0.276265 255 220 0
0.433462 0.072640 0.248378 255 220 0
0.482492 0.086450 0.237900 255 220 0
0.507232 0.195607 0.318250 255 220 0
0.534740 0.157477 0.317584 255 220 0
0.518534 0.120058 0.321452 255 220 0
0.521822 0.133413 0.323728 255 220 0
0.485061 0.163529 0.322584 255 220 0
0.446862 0.101232 0.315710 255 220 0
0.518002 0.194494 0.311774 255 220 0
0.446238 0.119603 0.273382 255 220 0
0.448416 0.039793 0.252679 255 220 0
0.485377 0.101544 0.324878 255 220 0
0.502473 0.153818 0.273446 255 220 0
0.426947 0.094077 0.287301 255 220 0
0.521356 0.122624 0.320588 255 220 0
0.495257 0.100263 0.242540 255 220 0
0.484901 0.160978 0.289274 255 220 0
0.510614 0.153427 0.271943 255 220 0
0.450073 0.129552 0.305646 255 220 0
0.444605 0.123867 0.287350 255 220 0
0.446387 0.109635 0.259605 255 220 0
0.540454 0.143962 0.301722 255 220 0
0.477380 0.051785 0.247951 255 220 0
0.433722 0.099009 0.264412 255 220 0
0.506779 0.085342 0.248793 255 220 0
0.498592 0.153108 0.273904 255 220 0
0.512915 0.071940 0.274185 255 220 0
0.458133 0.042372 0.248744 255 220 0
0.537048 0.121711 0.276580 255 220 0
0.528211 0.185117 0.303835 255 220 0
0.479949 0.083408 0.319872 255 220 0
0.490884 0.165458 0.326890 255 220 0
0.499268 0.134084 0.257954 255 220 0
0.511785 0.078203 0.258708 255 220 0
0.512560 0.170914 0.331564 255 220 0
0.482805 0.054172 0.297300 255 220 0
0.515934 0.127910 0.257708 255 220 0
0.529209 0.100902 0.270798 255 220 0
0.486762 0.108244 0.244201 255 220 0
0.495053 0.174915 0.296096 255 220 0
0.498212 0.097176 0.321831 255 220 0
0.513158 0.087881 0.308118 255 220 0
0.509316 0.196019 0.311352 255 220 0
0.442147 0.092121 0.247821 255 220 0
0.476612 0.084030 0.236629 255 220 0
0.494805 0.105633 0.244068 255 220 0
0.442041 0.121188 0.289221 255 220 0
0.493445 0.095264 0.322313 255 220 0
0.487798 0.102289 0.241973 255 220 0
0.508272 0.128307 0.327825 255 220 0
0.472283 0.091166 0.322273 255 220 0
0.536895 0.120085 0.277336 255 220 0
0.457021 0.081065 0.316892 255 220 0
0.494162 0.162132 0.329266 255 220 0
0.467026 0.125597 0.260812 255 220 0
0.444587 0.060423 0.301159 255 220 0
0.519430 0.122584 0.256948 255 220 0
0.456090 0.122404 0.265188 255 220 0
0.467182 0.045326 0.289665 255 220 0
0.453556 0.037023 0.274264 255 220 0
0.534692 0.126177 0.307411 255 220 0
0.425975 0.076086 0.291156 255 220 0
0.531912 0.118201 0.307299 255 220 0
0.442610 0.099520 0.312572 255 220 0
0.492954 0.073447 0.243885 255 220 0
0.485180 0.069033 0.241663 255 220 0
0.432847 0.089927 0.257047 255 220 0
0.448730 0.060530 0.303228 255 220 0
0.511648 0.076116 0.260749 255 220 0
0.479589 0.065122 0.309788 255 220 0
0.459811 0.088166 0.237722 255 220 0
0.426723 0.088913 0.292132 255 220 0
0.441380 0.051542 0.292100 255 220 0
0.478166 0.060024 0.242272 255 220 0
0.539771 0.132872 0.292630 255 220 0
0.434429 0.090029 0.305498 255 220 0
0.447859 0.127804 0.302684 255 220 0
0.509776 0.174847 0.289790 255 220 0
0.435752 0.110429 0.297646 255 220 0
0.443476 0.114709 0.309128 255 220 0
0.489768 0.065713 0.246145 255 220 0
0.443529 0.037849 0.260407 255 220 0
0.528806 0.170260 0.324008 255 220 0
0.531502 0.110057 0.300181 255 220 0
0.499466 0.131201 0.256215 255 220 0
0.507084 0.138555 0.329848 255 220 0
0.529420 0.104304 0.298194 255 220 0
0.468953 0.138133 0.273560 255 220 0
0.474330 0.136396 0.324294 255 220 0
0.432126 0.064755 0.249714 255 220 0
0.493004 0.067299 0.247387 255 220 0
0.462927 0.103205 0.243958 255 220 0
0.453110 0.093393 0.318565 255 220 0
0.497301 0.111770 0.246803 255 220 0
0.466434 0.147306 0.293200 255 220 0
0.433709 0.077017 0.249058 255 220 0
0.463511 0.071126 0.314332 255 220 0
0.519331 0.084364 0.293087 255 220 0
0.436400 0.110561 0.277309 255 220 0
0.485182 0.100481 0.324646 255 220 0
0.526698 0.097486 0.295111 255 220 0
0.531059 0.104552 0.272161 255 220 0
0.475941 0.065991 0.238499 255 220 0
0.478795 0.073462 0.237593 255 220 0
0.514472 0.079537 0.261982 255 220 0
0.451206 0.035641 0.266259 255 220 0
0.453830 0.076957 0.314378 255 220 0
0.447926 0.036312 0.270287 255 220 0
0.469767 0.134086 0.267972 255 220 0
0.476537 0.160446 0.309319 255 220 0
0.528414 0.180684 0.321699 255 220 0
0.489535 0.096836 0.323411 255 220 0
0.472658 0.139839 0.272608 255 220 0
0.438835 0.117010 0.291702 255 220 0
0.466288 0.101396 0.323601 255 220 0
0.494880 0.176085 0.326954 255 220 0
0.480503 0.165814 0.304512 255 220 0
0.513669 0.097592 0.251179 255 220 0
0.467847 0.063838 0.236535 255 220 0
0.495333 0.085845 0.241609 255 220 0
0.512559 0.157023 0.274836 255 220 0
0.532772 0.145005 0.317918 255 220 0
0.440727 0.054321 0.294297 255 220 0
0.466826 0.073739 0.315955 255 220 0
0.520651 0.133170 0.261856 255 220 0
0.532508 0.163050 0.320516 255 220 0
0.488157 0.080117 0.317114 255 220 0
0.483508 0.130375 0.257571 255 220 0
0.530689 0.157887 0.322302 255 220 0
0.494187 0.102244 0.242850 255 220 0
0.472649 0.141372 0.274524 255 220 0
0.457412 0.138799 0.293124 255 220 0
0.446073 0.125809 0.301338 255 220 0
0.540432 0.139173 0.296936 255 220 0
0.537461 0.146505 0.311523 255 220 0
0.460537 0.118481 0.321959 255 220 0
0.508797 0.196225 0.312938 255 220 0
0.478840 0.075953 0.316703 255 220 0
0.472466 0.133463 0.265583 255 220 0
0.447621 0.122254 0.275802 255 220 0
0.512114 0.165048 0.331734 255 220 0
0.447548 0.043425 0.285757 255 220 0
0.465532 0.043529 0.287095 255 220 0
0.424130 0.063442 0.267748 255 220 0
0.466150 0.147155 0.293503 255 220 0
0.464125 0.145606 0.307710 255 220 0
0.459051 0.046844 0.244098 255 220 0
0.506139 0.078560 0.251271 255 220 0
0.506144 0.179803 0.330816 255 220 0
0.441270 0.066582 0.303182 255 220 0
0.459084 0.036785 0.270093 255 220 0
0.498790 0.089949 0.318690 255 220 0
0.466597 0.099106 0.323273 255 220 0
0.535501 0.147659 0.315070 255 220 0
0.523077 0.182174 0.326027 255 220 0
0.437718 0.040473 0.270524 255 220 0
0.521359 0.166754 0.283695 255 220 0
0.432011 0.069976 0.297715 255 220 0
0.498061 0.058852 0.288005 255 220 0
0.492010 0.174212 0.325141 255 220 0
0.444884 0.124123 0.287117 255 220 0
0.498421 0.157256 0.277756 255 220 0
0.540411 0.147517 0.304080 255 220 0
0.511679 0.073437 0.291995 255 220 0
0.434935 0.048423 0.252421 255 220 0
0.484085 0.088362 0.321322 255 220 0
0.513833 0.182443 0.294733 255 220 0
0.498262 0.066183 0.252999 255 220 0
0.467896 0.073346 0.315833 255 220 0
0.503974 0.117935 0.326428 255 220 0
0.500895 0.172729 0.290765 255 220 0
0.455731 0.134971 0.286547 255 220 0
0.512197 0.090060 0.310764 255 220 0
0.521814 0.169887 0.328889 255 220 0
0.456569 0.137159 0.306939 255 220 0
0.488441 0.172829 0.321665 255 220 0
0.482584 0.133539 0.327909 255 220 0
0.480894 0.128006 0.327640 255 220 0
0.461725 0.141161 0.310712 255 220 0
0.491506 0.051878 0.273064 255 220 0
0.453920 0.109659 0.253679 255 220 0
0.506008 0.100484 0.246286 255 220 0
0.498483 0.132720 0.329677 255 220 0
0.484063 0.121571 0.251072 255 220 0
0.441707 0.075163 0.307680 255 220 0
0.451551 0.065433 0.236835 255 220 0
0.460846 0.125320 0.264609 255 220 0
0.515160 0.085821 0.257641 255 220 0
0.517054 0.117684 0.254307 255 220 0
0.428308 0.094505 0.293830 255 220 0
0.503507 0.094064 0.244926 255 220 0
0.534899 0.171064 0.295706 255 220 0
0.493834 0.168830 0.328006 255 220 0
0.474766 0.078943 0.236027 255 220 0
0.515496 0.080641 0.296308 255 220 0
0.507619 0.078911 0.305939 255 220 0
0.458065 0.048956 0.295266 255 220 0
0.505217 0.110540 0.248108 255 220 0
0.457092 0.138441 0.305223 255 220 0
0.474925 0.096221 0.323600 255 220 0
0.510575 0.191901 0.303208 255 220 0
0.518543 0.162138 0.279489 255 220 0
0.464834 0.042656 0.250564 255 220 0
0.451343 0.121150 0.268544 255 220 0
0.447766 0.044416 0.287220 255 220 0
0.483142 0.166140 0.298707 255 220 0
0.473642 0.147430 0.282082 255 220 0
0.535700 0.166724 0.315525 255 220 0
0.520393 0.089044 0.263040 255 220 0
0.439354 0.086459 0.246952 255 220 0
0.470307 0.152891 0.307119 255 220 0
0.526386 0.153735 0.325341 255 220 0
0.509816 0.068818 0.270989 255 220 0
0.472367 0.046410 0.250206 255 220 0
0.496023 0.065535 0.302051 255 220 0
0.481966 0.068382 0.240338 255 220 0
0.520024 0.115948 0.318891 255 220 0
0.446027 0.036313 0.266677 255 220 0
0.489420 0.156589 0.327897 255 220 0
0.504498 0.120751 0.251781 255 220 0
0.508001 0.082544 0.308834 255 220 0
0.444888 0.118642 0.274058 255 220 0
0.439799 0.108402 0.307429 255 220 0
0.525160 0.118045 0.259002 255 220 0
0.431568 0.064239 0.250424 255 220 0
0.496587 0.117783 0.249256 255 220 0
0.431446 0.102488 0.295318 255 220 0
0.426918 0.054345 0.272127 255 220 0
0.525602 0.108923 0.310093 255 220 0
0.500475 0.116523 0.249280 255 220 0
0.447492 0.113128 0.262445 255 220 0
0.458887 0.039587 0.280459 255 220 0
0.536495 0.118743 0.276675 255 220 0
0.521619 0.099355 0.257664 255 220 0
0.497088 0.182001 0.301245 255 220 0
0.497380 0.177774 0.328171 255 220 0
0.494839 0.054992 0.283155 255 220 0
0.474092 0.139771 0.271470 255 220 0
0.486510 0.136994 0.262555 255 220 0
0.514862 0.082388 0.259786 255 220 0
0.472125 0.103614 0.324744 255 220 0
0.488098 0.067216 0.244164 255 220 0
0.463576 0.083894 0.236029 255 220 0
0.424841 0.087639 0.276513 255 220 0
0.526480 0.094534 0.272319 255 220 0
0.533089 0.174113 0.317753 255 220 0
0.482330 0.165069 0.317824 255 220 0
0.467393 0.069033 0.313490 255 220 0
0.523515 0.094886 0.299571 255 220 0
0.430741 0.050982 0.279667 255 220 0
0.508943 0.067132 0.275692 255 220 0
0.451879 0.111011 0.318192 255 220 0
0.471083 0.058650 0.305231 255 220 0
0.463643 0.133809 0.272850 255 220 0
0.488951 0.162074 0.326430 255 220 0
0.540224 0.161976 0.306457 255 220 0
0.427254 0.080705 0.260805 255 220 0
0.475562 0.075908 0.236304 255 220 0
0.430980 0.098960 0.270362 255 220 0
0.455591 0.118859 0.319045 255 220 0
0.448673 0.085081 0.314881 255 220 0
0.443734 0.091835 0.313362 255 220 0
0.481959 0.114198 0.247048 255 220 0
0.529020 0.129758 0.265226 255 220 0
0.540390 0.165095 0.300368 255 220 0
0.512983 0.156609 0.274516 255 220 0
0.467242 0.053631 0.240901 255 220 0
0.531711 0.182132 0.315782 255 220 0
0.506185 0.068625 0.261226 255 220 0
0.519303 0.081679 0.286457 255 220 0
0.490637 0.053216 0.287653 255 220 0
0.480922 0.070119 0.313093 255 220 0
0.457331 0.118765 0.260067 255 220 0
0.518021 0.110273 0.317803 255 220 0
0.459528 0.056312 0.238133 255 220 0
0.456190 0.115443 0.257543 255 220 0
0.508738 0.067264 0.282734 255 220 0
0.522495 0.158497 0.328254 255 220 0
0.451941 0.036113 0.261176 255 220 0
0.500181 0.151826 0.331237 255 220 0
0.529009 0.098527 0.284978 255 220 0
0.445121 0.114597 0.267212 255 220 0
0.486686 0.053366 0.255606 255 220 0
0.510135 0.078062 0.256399 255 220 0
0.499997 0.153427 0.273779 255 220 0
0.457771 0.099315 0.321136 255 220 0
0.477090 0.159827 0.299226 255 220 0
0.518017 0.189737 0.324251 255 220 0
0.506669 0.183736 0.297309 255 220 0
0.426040 0.060130 0.261378 255 220 0
0.482986 0.052345 0.294496 255 220 0
0.488256 0.065703 0.245140 255 220 0
0.484057 0.046924 0.275346 255 220 0
0.511929 0.151512 0.330886 255 220 0
0.484444 0.111586 0.326706 255 220 0
0.441414 0.039272 0.274086 255 220 0
0.470083 0.084410 0.236001 255 220 0
0.524543 0.180539 0.325551 255 220 0
0.508017 0.191105 0.302782 255 220 0
0.493404 0.150970 0.273635 255 220 0
0.502621 0.076380 0.308034 255 220 0
0.519302 0.161539 0.279212 255 220 0
0.464646 0.044879 0.247466 255 220 0
0.468404 0.067193 0.312327 255 220 0
0.438714 0.077263 0.244007 255 220 0
0.440073 0.085419 0.245766 255 220 0
0.515814 0.079230 0.292993 255 220 0
0.435486 0.065637 0.298643 255 220 0
0.452424 0.057381 0.302334 255 220 0
0.528171 0.098742 0.291982 255 220 0
0.473522 0.074940 0.316593 255 220 0
0.482639 0.058817 0.303110 255 220 0
0.518202 0.136784 0.262694 255 220 0
0.512959 0.073465 0.288202 255 220 0
0.426883 0.060560 0.258668 255 220 0
0.509987 0.103352 0.319589 255 220 0
0.537160 0.170896 0.298734 255 220 0
0.440841 0.100844 0.256266 255 220 0
0.447703 0.127070 0.303981 255 220 0
0.489475 0.149188 0.273410 255 220 0
0.530917 0.172935 0.293459 255 220 0
0.424057 0.084986 0.278041 255 220 0
0.482825 0.082006 0.237891 255 220 0
0.503348 0.076224 0.249942 255 220 0
0.517778 0.142570 0.265740 255 220 0
0.435325 0.111094 0.283824 255 220 0
0.467639 0.102095 0.323935 255 220 0
0.539201 0.130895 0.282098 255 220 0
0.539583 0.131288 0.291139 255 220 0
0.430785 0.062293 0.251618 255 220 0
0.468789 0.039447 0.265822 255 220 0
0.472896 0.044558 0.286277 255 220 0
0.425447 0.059301 0.278269 255 220 0
0.486481 0.140575 0.328617 255 220 0
0.439913 0.115606 0.301963 255 220 0
0.522752 0.160729 0.328306 255 220 0
0.539572 0.165696 0.307309 255 220 0
0.520141 0.193588 0.313123 255 220 0
0.444231 0.095737 0.313928 255 220 0
0.504380 0.172277 0.331405 255 220 0
0.540444 0.149966 0.304911 255 220 0
0.531554 0.110115 0.300103 255 220 0
0.484758 0.089128 0.238576 255 220 0
0.459660 0.118430 0.321528 255 220 0
0.477067 0.070711 0.237564 255 220 0
0.426159 0.067115 0.259230 255 220 0
0.457049 0.036071 0.265276 255 220 0
0.538217 0.161326 0.291863 255 220 0
0.492186 0.089337 0.320385 255 220 0
0.491989 0.182171 0.308228 255 220 0
0.435084 0.087160 0.306019 255 220 0
0.522654 0.188722 0.321262 255 220 0
0.470263 0.151079 0.293970 255 220 0
0.484137 0.079241 0.317537 255 220 0
0.456099 0.070971 0.312534 255 220 0
0.506010 0.166030 0.283357 255 220 0
0.509447 0.088986 0.250007 255 220 0
0.448153 0.039339 0.279115 255 220 0
0.427811 0.094345 0.273111 255 220 0
0.492567 0.107035 0.244248 255 220 0
0.440894 0.073111 0.241674 255 220 0
0.423578 0.073584 0.267934 255 220 0
0.507740 0.148660 0.268232 255 220 0
0.425940 0.075534 0.290967 255 220 0
0.478875 0.096455 0.323799 255 220 0
0.526554 0.096605 0.268358 255 220 0
0.431368 0.047258 0.260551 255 220 0
0.432227 0.100361 0.299560 255 220 0
0.432370 0.068057 0.297177 255 220 0
0.528175 0.147296 0.322832 255 220 0
0.446614 0.105343 0.255034 255 220 0
0.445701 0.122866 0.281001 255 220 0
0.488827 0.089468 0.321097 255 220 0
0.480293 0.056581 0.301338 255 220 0
0.492753 0.127645 0.254133 255 220 0
0.507240 0.108224 0.248075 255 220 0
0.531913 0.172557 0.319967 255 220 0
0.443521 0.040694 0.279270 255 220 0
0.457134 0.072030 0.313371 255 220 0
0.479678 0.061598 0.306735 255 220 0
0.422755 0.073468 0.273331 255 220 0
0.502426 0.073991 0.305972 255 220 0
0.485802 0.132462 0.258676 255 220 0
0.509586 0.159885 0.277359 255 220 0
0.472634 0.106191 0.243658 255 220 0
0.481419 0.072506 0.238785 255 220 0
0.435160 0.045978 0.279246 255 220 0
0.485544 0.068374 0.242145 255 220 0
0.533486 0.108213 0.282527 255 220 0
0.488664 0.069264 0.310198 255 220 0
0.455559 0.137466 0.295850 255 220 0
0.459048 0.140009 0.291791 255 220 0
0.505525 0.081039 0.309672 255 220 0
0.513978 0.124304 0.255554 255 220 0
0.451312 0.075243 0.312691 255 220 0
0.508860 0.155660 0.331635 255 220 0
0.435100 0.063001 0.246749 255 220 0
0.439493 0.046621 0.249502 255 220 0
0.498601 0.116190 0.326904 255 220 0
0.511750 0.195770 0.310424 255 220 0
0.536585 0.127894 0.303829 255 220 0
0.468426 0.071011 0.314642 255 220 0
0.432894 0.105330 0.276813 255 220 0
0.442322 0.119973 0.283071 255 220 0
0.459903 0.104124 0.245734 255 220 0
0.492345 0.053640 0.265855 255 220 0
0.504032 0.140981 0.262521 255 220 0
0.470599 0.043119 0.254122 255 220 0
0.436540 0.113554 0.289598 255 220 0
0.499930 0.181143 0.298455 255 220 0
0.509784 0.194575 0.307153 255 220 0
0.490378 0.123207 0.328418 255 220 0
0.469712 0.041334 0.279669 255 220 0
0.481074 0.046934 0.284800 255 220 0
0.456319 0.056175 0.238327 255 220 0
0.519419 0.082904 0.289608 255 220 0
0.423151 0.068241 0.279315 255 220 0
0.487340 0.085821 0.319924 255 220 0
0.536227 0.132288 0.273944 255 220 0
0.513331 0.078063 0.296764 255 220 0
0.453277 0.073044 0.312517 255 220 0
0.534672 0.147306 0.278783 255 220 0
0.495719 0.115946 0.248337 255 220 0
0.498464 0.164033 0.330600 255 220 0
0.533545 0.151567 0.318422 255 220 0
0.457922 0.041146 0.283915 255 220 0
0.476566 0.160720 0.308184 255 220 0
0.535820 0.175700 0.302207 255 220 0
0.507799 0.067962 0.266394 255 220 0
0.514200 0.095409 0.312602 255 220 0
0.495584 0.188451 0.312895 255 220 0
0.425981 0.091208 0.286084 255 220 0
0.535708 0.114485 0.280213 255 220 0
0.486794 0.147285 0.328117 255 220 0
0.494147 0.165788 0.287516 255 220 0
0.491795 0.107005 0.244138 255 220 0
0.480715 0.101675 0.324942 255 220 0
0.427427 0.093967 0.274095 255 220 0
0.462077 0.040789 0.252273 255 220 0
0.526163 0.176386 0.325359 255 220 0
0.443651 0.077336 0.309720 255 220 0
0.489282 0.155478 0.279719 255 220 0
0.481212 0.154459 0.284307 255 220 0
0.480830 0.160027 0.292770 255 220 0
0.537534 0.132049 0.276347 255 220 0
0.491838 0.155970 0.278990 255 220 0
0.461029 0.143456 0.301876 255 220 0
0.485088 0.117814 0.248838 255 220 0
0.455251 0.085943 0.238034 255 220 0
0.423137 0.076041 0.282167 255 220 0
0.538603 0.165202 0.295587 255 220 0
0.490258 0.180995 0.316312 255 220 0
0.461461 0.090807 0.238328 255 220 0
0.519802 0.099019 0.309520 255 220 0
0.485080 0.056812 0.299596 255 220 0
0.470970 0.150179 0.314147 255 220 0
0.473414 0.097459 0.323761 255 220 0
0.474491 0.048266 0.249520 255 220 0
0.506971 0.117586 0.325614 255 220 0
0.509887 0.081749 0.253527 255 220 0
0.490410 0.175480 0.322770 255 220 0
0.457816 0.067502 0.235345 255 220 0
0.466040 0.147631 0.295242 255 220 0
0.513087 0.071897 0.276858 255 220 0
0.443274 0.037458 0.262632 255 220 0
0.527184 0.152744 0.276388 255 220 0
0.499743 0.192749 0.314450 255 220 0
0.472467 0.150007 0.287881 255 220 0
0.508457 0.066711 0.274464 255 220 0
0.441988 0.097646 0.312196 255 220 0
0.512518 0.192037 0.303342 255 220 0
0.496825 0.078718 0.243969 255 220 0
0.468077 0.136273 0.320654 255 220 0
0.527364 0.111732 0.260673 255 220 0
0.485393 0.132892 0.259176 255 220 0
0.470013 0.140990 0.276437 255 220 0
0.533676 0.114155 0.270228 255 220 0
0.517082 0.107091 0.252436 255 220 0
0.469192 0.123849 0.324652 255 220 0
0.462350 0.137605 0.280349 255 220 0
0.489369 0.172164 0.323220 255 220 0
0.455304 0.065361 0.309139 255 220 0
0.500150 0.192627 0.311763 255 220 0
0.464567 0.066068 0.235447 255 220 0
0.467141 0.039319 0.273508 255 220 0
0.495388 0.081621 0.315640 255 220 0
0.440719 0.105732 0.261671 255 220 0
0.468302 0.146066 0.314655 255 220 0
0.540668 0.141083 0.288185 255 220 0
0.452742 0.134444 0.295602 255 220 0
0.479423 0.056467 0.301462 255 220 0
0.471776 0.048359 0.293120 255 220 0
0.489095 0.077249 0.315293 255 220 0
0.496712 0.064126 0.253501 255 220 0
0.473622 0.147110 0.319740 255 220 0
0.455782 0.119674 0.318952 255 220 0
0.450821 0.122734 0.271561 255 220 0
0.462709 0.070408 0.234766 255 220 0
0.472707 0.045597 0.288431 255 220 0
0.521551 0.095186 0.259862 255 220 0
0.426701 0.056616 0.262090 255 220 0
0.461046 0.054044 0.301093 255 220 0
0.497117 0.185650 0.324559 255 220 0
0.507211 0.182663 0.330343 255 220 0
0.476590 0.042854 0.268250 255 220 0
0.491442 0.178233 0.322506 255 220 0
0.483193 0.046667 0.278468 255 220 0
0.435407 0.111326 0.284432 255 220 0
0.474401 0.120857 0.252746 255 220 0
0.486824 0.069662 0.311209 255 220 0
0.469446 0.114339 0.325332 255 220 0
0.479846 0.045270 0.263712 255 220 0
0.476378 0.047200 0.289569 255 220 0
0.474859 0.072880 0.315459 255 220 0
0.488763 0.050141 0.270546 255 220 0
0.538362 0.148548 0.284140 255 220 0
0.500898 0.164944 0.283808 255 220 0
0.533095 0.108208 0.275563 255 220 0
0.464750 0.142060 0.284875 255 220 0
0.503703 0.179813 0.330356 255 220 0
0.434922 0.104662 0.269794 255 220 0
0.435330 0.111593 0.290294 255 220 0
0.525961 0.134368 0.321192 255 220 0
0.522891 0.170685 0.287122 255 220 0
0.496342 0.090007 0.241725 255 220 0
0.533899 0.127712 0.309889 255 220 0
0.498553 0.144636 0.330776 255 220 0
0.457144 0.103766 0.321289 255 220 0
0.480598 0.138289 0.326821 255 220 0
0.464188 0.117371 0.323668 255 220 0
0.525571 0.159015 0.279755 255 220 0
0.526459 0.118863 0.314888 255 220 0
0.480527 0.096039 0.323705 255 220 0
0.519639 0.081498 0.283359 255 220 0
0.461895 0.143274 0.307113 255 220 0
0.471626 0.107285 0.244371 255 220 0
0.425537 0.064256 0.261239 255 220 0
0.423187 0.077733 0.281993 255 220 0
0.479144 0.083941 0.237073 255 220 0
0.536808 0.147204 0.281191 255 220 0
0.513177 0.072244 0.281898 255 220 0
0.536366 0.129078 0.305405 255 220 0
0.538501 0.128244 0.295501 255 220 0
0.462490 0.059286 0.306145 255 220 0
0.500310 0.122300 0.251777 255 220 0
0.433709 0.050407 0.284101 255 220 0
0.447907 0.045872 0.289167 255 220 0
0.532164 0.161340 0.285510 255 220 0
0.483542 0.170069 0.314207 255 220 0
0.453127 0.127316 0.313133 255 220 0
0.533995 0.136174 0.272380 255 220 0
0.532019 0.113253 0.266954 255 220 0
0.428344 0.098294 0.282457 255 220 0
0.449734 0.111627 0.258624 255 220 0
0.497259 0.094729 0.321199 255 220 0
0.472659 0.142901 0.276529 255 220 0
0.437770 0.040319 0.269898 255 220 0
0.535587 0.115262 0.276473 255 220 0
0.506836 0.136308 0.329531 255 220 0
0.514234 0.116554 0.252841 255 220 0
0.476310 0.064498 0.309815 255 220 0
0.488569 0.156546 0.327462 255 220 0
0.540112 0.135475 0.293811 255 220 0
0.483839 0.124599 0.253068 255 220 0
0.422866 0.077119 0.275301 255 220 0
0.427537 0.082499 0.261298 255 220 0
0.481492 0.143517 0.326370 255 220 0
0.511707 0.102736 0.249308 255 220 0
0.432351 0.046243 0.273130 255 220 0
0.526636 0.093478 0.279633 255 220 0
0.509480 0.115409 0.324193 255 220 0
0.521684 0.151183 0.272671 255 220 0
0.528389 0.159379 0.324490 255 220 0
0.540868 0.161537 0.297949 255 220 0
0.505097 0.080152 0.249408 255 220 0
0.541274 0.145028 0.292437 255 220 0
0.520598 0.129259 0.260077 255 220 0
0.491156 0.161058 0.327983 255 220 0
0.474791 0.158066 0.301733 255 220 0
0.463690 0.142585 0.312021 255 220 0
0.540293 0.165929 0.303645 255 220 0
0.463612 0.138727 0.315653 255 220 0
0.455749 0.073982 0.235556 255 220 0
0.492766 0.180052 0.323141 255 220 0
0.487439 0.102720 0.242086 255 220 0
0.533248 0.179791 0.303352 255 220 0
0.454989 0.064326 0.308374 255 220 0
0.531065 0.136614 0.269758 255 220 0
0.429030 0.055058 0.256643 255 220 0
0.534804 0.114358 0.293682 255 220 0
0.490869 0.097166 0.240953 255 220 0
0.480182 0.058552 0.303581 255 220 0
0.507514 0.065877 0.282016 255 220 0
0.434119 0.102545 0.301799 255 220 0
0.539783 0.152581 0.307651 255 220 0
0.435983 0.046606 0.252903 255 220 0
0.520892 0.152067 0.328264 255 220 0
0.477384 0.161948 0.306645 255 220 0
0.511760 0.070252 0.277871 255 220 0
0.444401 0.116675 0.271479 255 220 0
0.459326 0.083079 0.318148 255 220 0
0.469933 0.092999 0.322504 255 220 0
0.432012 0.057998 0.290395 255 220 0
0.521528 0.140803 0.266196 255 220 0
0.422723 0.070271 0.276575 255 220 0
0.515187 0.190797 0.324854 255 220 0
0.472554 0.054717 0.242447 255 220 0
0.481270 0.071689 0.314002 255 220 0
0.487495 0.061390 0.303599 255 220 0
0.460461 0.049081 0.295493 255 220 0
0.437151 0.101405 0.306728 255 220 0
0.429182 0.049591 0.266233 255 220 0
0.524243 0.124646 0.319246 255 220 0
0.520994 0.180573 0.327812 255 220 0
0.495246 0.093761 0.241480 255 220 0
0.487213 0.072648 0.241236 255 220 0
0.509836 0.117981 0.324827 255 220 0
0.430467 0.072490 0.252194 255 220 0
0.428424 0.063314 0.254984 255 220 0
0.522056 0.173075 0.328528 255 220 0
0.530626 0.127039 0.265679 255 220 0
0.431728 0.090928 0.259666 255 220 0
0.492088 0.173602 0.297213 255 220 0
0.445546 0.103759 0.314527 255 220 0
0.493339 0.108320 0.325786 255 220 0
0.490023 0.061225 0.301715 255 220 0
0.479165 0.062295 0.307482 255 220 0
0.532268 0.105436 0.279008 255 220 0
0.536987 0.151363 0.283723 255 220 0
0.502848 0.090001 0.244872 255 220 0
0.479859 0.084674 0.237256 255 220 0
0.430318 0.092831 0.264107 255 220 0
0.449911 0.044813 0.288498 255 220 0
0.507499 0.123693 0.253620 255 220 0
0.427485 0.079596 0.259684 255 220 0
0.525055 0.172719 0.289534 255 220 0
0.486115 0.048361 0.270101 255 220 0
0.510397 0.141036 0.263027 255 220 0
0.508141 0.186157 0.298592 255 220 0
0.519244 0.184872 0.296905 255 220 0
0.443139 0.118666 0.305561 255 220 0
0.517162 0.077802 0.274153 255 220 0
0.476837 0.048829 0.250931 255 220 0
0.495857 0.078823 0.313745 255 220 0
0.524612 0.177827 0.326243 255 220 0
0.471804 0.042580 0.281997 255 220 0
0.451309 0.085814 0.316256 255 220 0
0.491411 0.113946 0.247028 255 220 0
0.524045 0.174953 0.327151 255 220 0
0.513513 0.073694 0.286785 255 220 0
0.437397 0.044872 0.280473 255 220 0
0.474987 0.046489 0.252533 255 220 0
0.481551 0.114118 0.247027 255 220 0
0.537728 0.134798 0.277369 255 220 0
0.437727 0.041940 0.258000 255 220 0
0.434795 0.098697 0.262209 255 220 0
0.499911 0.186799 0.326164 255 220 0
0.453282 0.038073 0.277335 255 220 0
0.495516 0.101693 0.242960 255 220 0
0.529207 0.179387 0.297865 255 220 0
0.535698 0.165169 0.291626 255 220 0
0.461231 0.045174 0.290312 255 220 0
0.517197 0.164270 0.280901 255 220 0
0.448289 0.051139 0.242259 255 220 0
0.510457 0.069436 0.284283 255 220 0
0.526465 0.140361 0.322504 255 220 0
0.501999 0.111541 0.247637 255 220 0
0.466971 0.092827 0.238339 255 220 0
0.520705 0.093955 0.303692 255 220 0
0.478702 0.104136 0.325330 255 220 0
0.540336 0.136750 0.287535 255 220 0
0.495322 0.055180 0.269621 255 220 0
0.521349 0.187213 0.300066 255 220 0
0.469714 0.097358 0.323401 255 220 0
0.431426 0.083081 0.301362 255 220 0
0.507375 0.110812 0.323543 255 220 0
0.532436 0.149499 0.319328 255 220 0
0.501192 0.061453 0.288076 255 220 0
0.457154 0.086699 0.237797 255 220 0
0.472500 0.134259 0.266390 255 220 0
0.517197 0.184618 0.296339 255 220 0
0.528822 0.148627 0.322584 255 220 0
0.471456 0.060633 0.238763 255 220 0
0.519213 0.143477 0.266792 255 220 0
0.529186 0.109890 0.305406 255 220 0
0.492798 0.166289 0.327916 255 220 0
0.480556 0.161540 0.318002 255 220 0
0.443417 0.122192 0.300601 255 220 0
0.531980 0.133876 0.269332 255 220 0
0.449301 0.087723 0.315820 255 220 0
0.463887 0.143681 0.310855 255 220 0
0.540035 0.164038 0.306489 255 220 0
0.521399 0.183394 0.296310 255 220 0
0.467647 0.038972 0.267354 255 220 0
0.515604 0.177571 0.291096 255 220 0
0.481207 0.069862 0.312868 255 220 0
0.434546 0.044642 0.275212 255 220 0
0.450458 0.102296 0.317989 255 220 0
0.480320 0.163740 0.315188 255 220 0
0.497449 0.171288 0.329469 255 220 0
0.497415 0.190746 0.315649 255 220 0
0.456881 0.036101 0.267436 255 220 0
0.535839 0.115369 0.288460 255 220 0
0.482737 0.102823 0.241804 255 220 0
0.448248 0.038998 0.254114 255 220 0
0.474402 0.126725 0.258011 255 220 0
0.488920 0.050701 0.267406 255 220 0
0.526737 0.121783 0.315978 255 220 0
0.522945 0.108926 0.313022 255 220 0
0.523700 0.171390 0.287941 255 220 0
0.517142 0.093307 0.255774 255 220 0
0.439038 0.059497 0.244065 255 220 0
0.531698 0.143837 0.318787 255 220 0
0.471472 0.119645 0.325711 255 220 0
0.480611 0.080339 0.318557 255 220 0
0.462631 0.124286 0.262166 255 220 0
0.462869 0.099915 0.322677 255 220 0
0.436390 0.082320 0.306303 255 220 0
0.461558 0.144012 0.302084 255 220 0
0.480128 0.081366 0.319043 255 220 0
0.452233 0.065666 0.308167 255 220 0
0.479350 0.098158 0.239978 255 220 0
0.460917 0.142406 0.293912 255 220 0
0.451591 0.060867 0.304693 255 220 0
0.476200 0.044076 0.282101 255 220 0
0.521540 0.110923 0.315403 255 220 0
0.476665 0.053993 0.299233 255 220 0
0.462214 0.068767 0.312889 255 220 0
0.472746 0.075050 0.235679 255 220 0
0.436262 0.096230 0.257492 255 220 0
0.449028 0.074782 0.237581 255 220 0
0.512128 0.086500 0.308081 255 220 0
0.510537 0.191731 0.303020 255 220 0
0.430103 0.073292 0.252877 255 220 0
0.541711 0.152157 0.296762 255 220 0
0.482428 0.156794 0.323087 255 220 0
0.493365 0.101241 0.242411 255 220 0
0.518726 0.079908 0.275815 255 220 0
0.498180 0.059346 0.289058 255 220 0
0.487886 0.053612 0.292461 255 220 0
0.497850 0.067339 0.251452 255 220 0
0.445656 0.121353 0.277790 255 220 0
0.529308 0.167279 0.287833 255 220 0
0.456313 0.137207 0.291185 255 220 0
0.477867 0.045516 0.258328 255 220 0
0.464351 0.110394 0.248515 255 220 0
0.518930 0.080124 0.276689 255 220 0
0.477225 0.044649 0.282724 255 220 0
0.509702 0.070585 0.265474 255 220 0
0.520051 0.118276 0.255891 255 220 0
0.453598 0.097865 0.244302 255 220 0
0.500555 0.133152 0.329650 255 220 0
0.497116 0.064750 0.300011 255 220 0
0.492537 0.109268 0.326057 255 220 0
0.430111 0.049909 0.259245 255 220 0
0.430599 0.101066 0.275686 255 220 0
0.457527 0.137553 0.308449 255 220 0
0.481372 0.068640 0.312018 255 220 0
0.453995 0.069842 0.311241 255 220 0
0.529961 0.104655 0.296972 255 220 0
0.470899 0.065840 0.236768 255 220 0
0.493266 0.077958 0.314271 255 220 0
0.494295 0.082995 0.316813 255 220 0
0.477606 0.066281 0.239096 255 220 0
0.513674 0.129876 0.326613 255 220 0
0.489568 0.067366 0.244985 255 220 0
0.541175 0.155532 0.294348 255 220 0
0.424280 0.078802 0.267813 255 220 0
0.529357 0.098958 0.280114 255 220 0
0.515613 0.075178 0.279115 255 220 0
0.443348 0.047864 0.289367 255 220 0
0.510765 0.192646 0.304099 255 220 0
0.493382 0.137838 0.329935 255 220 0
0.468702 0.079288 0.318379 255 220 0
0.424823 0.068219 0.285978 255 220 0
0.497616 0.056520 0.277942 255 220 0
0.532844 0.111494 0.297718 255 220 0
0.432538 0.044945 0.263674 255 220 0
0.473572 0.156906 0.306812 255 220 0
0.493139 0.105275 0.243673 255 220 0
0.427419 0.089602 0.294026 255 220 0
0.432095 0.049641 0.280232 255 220 0
0.508114 0.189737 0.301461 255 220 0
0.533687 0.116057 0.269315 255 220 0
0.440401 0.061722 0.299692 255 220 0
0.436219 0.096548 0.257849 255 220 0
0.441543 0.080374 0.242610 255 220 0
0.491196 0.156376 0.279669 255 220 0
0.527146 0.134669 0.265965 255 220 0
0.496310 0.135108 0.258768 255 220 0
0.489109 0.115338 0.247553 255 220 0
0.508037 0.192849 0.304764 255 220 0
0.493973 0.142598 0.265406 255 220 0
0.501860 0.187552 0.302382 255 220 0
0.523667 0.137811 0.265567 255 220 0
0.486946 0.103524 0.242326 255 220 0
0.519738 0.169444 0.285333 255 220 0
0.500724 0.136059 0.259219 255 220 0
0.496278 0.187476 0.308546 255 220 0
