ply
format ascii 1.0
element vertex 1024
property float x
property float y
property float z
property uchar red
property uchar green
property uchar blue
end_header
0.456054 0.068780 0.093216 255 220 0
0.394602 0.083063 0.067185 255 220 0
0.465063 0.037798 0.034679 255 220 0
0.424173 0.018441 0.064005 255 220 0
0.455479 0.068158 0.018629 255 220 0
0.400979 0.081765 0.024209 255 220 0
0.456746 0.057217 0.088195 255 220 0
0.486222 0.134680 0.091643 255 220 0
0.490314 0.065521 0.060826 255 220 0
0.426003 0.062082 0.009071 255 220 0
0.423662 0.019800 0.066059 255 220 0
0.414876 0.018474 0.012365 255 220 0
0.421436 0.079807 0.016516 255 220 0
0.456390 0.049978 0.084125 255 220 0
0.463487 0.032642 0.052158 255 220 0
0.410632 0.103885 0.072198 255 220 0
0.379090 0.036439 0.030303 255 220 0
0.478259 0.094392 0.093679 255 220 0
0.418637 0.104033 0.079810 255 220 0
0.442632 0.037443 0.080166 255 220 0
0.441443 0.029474 0.072821 255 220 0
0.459662 0.051582 0.083497 255 220 0
0.385345 0.072655 0.057458 255 220 0
0.388341 0.023190 0.019118 255 220 0
0.404546 0.084289 0.024123 255 220 0
0.403147 0.078513 0.020598 255 220 0
0.475019 0.138946 0.051165 255 220 0
0.455913 0.042542 0.020915 255 220 0
0.400746 0.030771 0.009349 255 220 0
0.464893 0.159184 0.061856 255 220 0
0.470404 0.045151 0.035017 255 220 0
0.499549 0.139790 0.076549 255 220 0
0.487704 0.083137 0.042356 255 220 0
0.468408 0.161806 0.062777 255 220 0
0.449849 0.087945 0.096630 255 220 0
0.423743 0.008650 0.033318 255 220 0
0.452759 0.108090 0.032913 255 220 0
0.427048 0.046476 0.086486 255 220 0
0.499745 0.138077 0.078396 255 220 0
0.490358 0.084892 0.045353 255 220 0
0.429847 0.120331 0.046266 255 220 0
0.501598 0.124200 0.070700 255 220 0
0.458178 0.043190 0.022423 255 220 0
0.449586 0.042242 0.016428 255 220 0
0.466023 0.146118 0.089938 255 220 0
0.449060 0.098777 0.027530 255 220 0
0.439300 0.035889 0.079679 255 220 0
0.461866 0.038786 0.028776 255 220 0
0.437638 0.067586 0.093635 255 220 0
0.385492 0.021468 0.024560 255 220 0
0.471046 0.067246 0.028217 255 220 0
0.494827 0.119358 0.087038 255 220 0
0.442516 0.051869 0.089151 255 220 0
0.442833 0.085267 0.095596 255 220 0
0.437550 0.043509 0.085212 255 220 0
0.408509 0.097084 0.075171 255 220 0
0.449224 0.024406 0.031876 255 220 0
0.397359 0.019811 0.057760 255 220 0
0.412959 0.096773 0.030493 255 220 0
0.389021 0.070869 0.026098 255 220 0
0.481790 0.083952 0.036739 255 220 0
0.395067 0.027737 0.062544 255 220 0
0.480160 0.139657 0.092748 255 220 0
0.448430 0.026427 0.063815 255 220 0
0.430084 0.016487 0.020094 255 220 0
0.497633 0.144809 0.073143 255 220 0
0.410398 0.048580 0.082153 255 220 0
0.461502 0.110973 0.035993 255 220 0
0.468388 0.039040 0.060094 255 220 0
0.482307 0.081692 0.037113 255 220 0
0.458355 0.028843 0.039905 255 220 0
0.461233 0.126402 0.043578 255 220 0
0.486389 0.094448 0.041717 255 220 0
0.495990 0.120493 0.058091 255 220 0
0.449871 0.042858 0.082005 255 220 0
0.484908 0.135017 0.053185 255 220 0
0.406436 0.029663 0.070796 255 220 0
0.458272 0.043511 0.078131 255 220 0
0.475765 0.066092 0.032105 255 220 0
0.438684 0.108590 0.090565 255 220 0
0.459966 0.136105 0.091661 255 220 0
0.410843 0.086299 0.081510 255 220 0
0.438590 0.047822 0.009672 255 220 0
0.474644 0.061055 0.079845 255 220 0
0.424162 0.122122 0.058634 255 220 0
0.454281 0.079888 0.020554 255 220 0
0.379384 0.033888 0.031119 255 220 0
0.502062 0.113891 0.072499 255 220 0
0.466806 0.074421 0.092325 255 220 0
0.471533 0.101976 0.096676 255 220 0
0.475302 0.048260 0.040860 255 220 0
0.431798 0.126331 0.053936 255 220 0
0.414312 0.017473 0.062803 255 220 0
0.460568 0.105681 0.033266 255 220 0
0.401776 0.023625 0.063949 255 220 0
0.394071 0.066021 0.018428 255 220 0
0.441048 0.045081 0.010965 255 220 0
0.430933 0.012225 0.045399 255 220 0
0.456795 0.114828 0.037060 255 220 0
0.456026 0.027964 0.056676 255 220 0
0.445791 0.033368 0.075232 255 220 0
0.383697 0.023401 0.044499 255 220 0
0.430748 0.036544 0.007915 255 220 0
0.420706 0.014612 0.058299 255 220 0
0.438663 0.035090 0.011764 255 220 0
0.440536 0.112577 0.035942 255 220 0
0.421214 0.021843 0.010991 255 220 0
0.470644 0.040030 0.054984 255 220 0
0.431972 0.059911 0.009055 255 220 0
0.464198 0.037563 0.065104 255 220 0
0.382214 0.069418 0.051215 255 220 0
0.444136 0.030075 0.018401 255 220 0
0.437973 0.067876 0.093721 255 220 0
0.411244 0.055702 0.084225 255 220 0
0.430332 0.065614 0.010747 255 220 0
0.436519 0.062976 0.092656 255 220 0
0.414879 0.027398 0.007662 255 220 0
0.423468 0.103841 0.083399 255 220 0
0.449833 0.067496 0.015950 255 220 0
0.405580 0.094479 0.073799 255 220 0
0.408678 0.109143 0.056456 255 220 0
0.398865 0.023664 0.062203 255 220 0
0.466196 0.115924 0.039394 255 220 0
0.477659 0.064928 0.080101 255 220 0
0.435826 0.095991 0.025183 255 220 0
0.421390 0.061446 0.008569 255 220 0
0.476741 0.050806 0.040137 255 220 0
0.461003 0.123360 0.041960 255 220 0
0.496112 0.146140 0.080583 255 220 0
0.452062 0.061560 0.091577 255 220 0
0.427706 0.021500 0.067605 255 220 0
0.437330 0.075094 0.094360 255 220 0
0.483880 0.126654 0.093610 255 220 0
0.384178 0.020701 0.041395 255 220 0
0.480859 0.053843 0.044540 255 220 0
0.384961 0.043614 0.059230 255 220 0
0.464657 0.160799 0.079237 255 220 0
0.451789 0.086596 0.096712 255 220 0
0.460207 0.073990 0.093963 255 220 0
0.377219 0.050025 0.036812 255 220 0
0.452250 0.023916 0.049155 255 220 0
0.395541 0.066309 0.017573 255 220 0
0.458626 0.103721 0.097268 255 220 0
0.479800 0.061571 0.036916 255 220 0
0.416159 0.106335 0.038218 255 220 0
0.393768 0.054337 0.072076 255 220 0
0.378758 0.033854 0.040713 255 220 0
0.413048 0.010394 0.020798 255 220 0
0.432555 0.021754 0.015894 255 220 0
0.447534 0.130520 0.048012 255 220 0
0.494016 0.082472 0.050979 255 220 0
0.464000 0.151653 0.086405 255 220 0
0.377890 0.054307 0.036496 255 220 0
0.411567 0.033114 0.075388 255 220 0
0.463734 0.086633 0.026177 255 220 0
0.395210 0.017485 0.053709 255 220 0
0.442874 0.031462 0.074467 255 220 0
0.426909 0.086361 0.090286 255 220 0
0.379677 0.052558 0.051070 255 220 0
0.444103 0.138163 0.077412 255 220 0
0.471504 0.139950 0.050890 255 220 0
0.445332 0.139812 0.058918 255 220 0
0.466730 0.041747 0.068284 255 220 0
0.448761 0.021463 0.043816 255 220 0
0.415254 0.027518 0.073014 255 220 0
0.466928 0.139149 0.050106 255 220 0
0.387776 0.024353 0.019097 255 220 0
0.499753 0.100493 0.073674 255 220 0
0.490936 0.104887 0.087880 255 220 0
0.427502 0.065419 0.010395 255 220 0
0.487388 0.119293 0.092256 255 220 0
0.457790 0.057119 0.087727 255 220 0
0.461037 0.049623 0.022456 255 220 0
0.426135 0.084605 0.018832 255 220 0
0.482653 0.163276 0.068711 255 220 0
0.430427 0.076864 0.015119 255 220 0
0.464486 0.098155 0.030870 255 220 0
0.414306 0.006457 0.034387 255 220 0
0.448491 0.113361 0.035802 255 220 0
0.435428 0.124275 0.047619 255 220 0
0.478949 0.161073 0.081733 255 220 0
0.444760 0.019006 0.043316 255 220 0
0.439275 0.129052 0.050815 255 220 0
0.446357 0.052342 0.088799 255 220 0
0.406814 0.062760 0.010895 255 220 0
0.426843 0.054811 0.007012 255 220 0
0.444553 0.020790 0.054871 255 220 0
0.405391 0.070503 0.081165 255 220 0
0.444803 0.113875 0.036372 255 220 0
0.414339 0.006612 0.038331 255 220 0
0.449423 0.031056 0.022588 255 220 0
0.402594 0.011969 0.051209 255 220 0
0.412060 0.062050 0.009401 255 220 0
0.429963 0.017251 0.059900 255 220 0
0.475828 0.064687 0.081600 255 220 0
0.461175 0.120869 0.095790 255 220 0
0.432091 0.022407 0.014979 255 220 0
0.415638 0.113524 0.049489 255 220 0
0.468937 0.124883 0.043918 255 220 0
0.482548 0.053586 0.057430 255 220 0
0.457857 0.062597 0.090395 255 220 0
0.453747 0.028452 0.061824 255 220 0
0.395900 0.091119 0.062012 255 220 0
0.459195 0.051226 0.083509 255 220 0
0.423374 0.072119 0.090304 255 220 0
0.448934 0.080649 0.019387 255 220 0
0.458585 0.097028 0.028689 255 220 0
0.438331 0.018577 0.026375 255 220 0
0.428421 0.012035 0.027056 255 220 0
0.382649 0.040251 0.054871 255 220 0
0.438428 0.133389 0.073871 255 220 0
0.474608 0.065699 0.031146 255 220 0
0.423516 0.010361 0.025686 255 220 0
0.420855 0.043859 0.084357 255 220 0
0.399442 0.014005 0.018234 255 220 0
0.455940 0.044978 0.020023 255 220 0
0.382347 0.071951 0.047564 255 220 0
0.405830 0.026482 0.068271 255 220 0
0.440259 0.019010 0.055569 255 220 0
0.421907 0.089633 0.087184 255 220 0
0.430500 0.127485 0.061692 255 220 0
0.475944 0.140906 0.093028 255 220 0
0.454453 0.094533 0.097105 255 220 0
0.429935 0.106827 0.033450 255 220 0
0.490764 0.070760 0.068511 255 220 0
0.400553 0.038733 0.008294 255 220 0
0.451500 0.039879 0.018669 255 220 0
0.475157 0.165660 0.069688 255 220 0
0.487800 0.126176 0.091875 255 220 0
0.460832 0.095837 0.097352 255 220 0
0.466871 0.108401 0.097327 255 220 0
0.444434 0.141318 0.071389 255 220 0
0.394904 0.087652 0.064023 255 220 0
0.486701 0.160573 0.069519 255 220 0
0.416282 0.088992 0.023149 255 220 0
0.401948 0.007881 0.027457 255 220 0
0.425008 0.085306 0.089632 255 220 0
0.475628 0.111596 0.040476 255 220 0
0.386356 0.073737 0.032588 255 220 0
0.464403 0.097429 0.097267 255 220 0
0.465020 0.052255 0.024937 255 220 0
0.456382 0.126733 0.043810 255 220 0
0.483181 0.109414 0.043097 255 220 0
0.410184 0.109398 0.049626 255 220 0
0.410760 0.098301 0.033089 255 220 0
0.418706 0.074758 0.014165 255 220 0
0.494801 0.107054 0.084645 255 220 0
0.432643 0.012609 0.033823 255 220 0
0.402593 0.068767 0.015102 255 220 0
0.468113 0.039086 0.039481 255 220 0
0.471855 0.111721 0.039240 255 220 0
0.459583 0.035201 0.067305 255 220 0
0.412714 0.007279 0.027984 255 220 0
0.494788 0.077931 0.067597 255 220 0
0.495813 0.147461 0.070003 255 220 0
0.416707 0.067687 0.087598 255 220 0
0.448428 0.143763 0.077240 255 220 0
0.472828 0.088304 0.031025 255 220 0
0.466477 0.035415 0.052058 255 220 0
0.467161 0.147102 0.089866 255 220 0
0.419036 0.032132 0.077460 255 220 0
0.485566 0.079954 0.040188 255 220 0
0.483876 0.057953 0.064480 255 220 0
0.459401 0.061507 0.020305 255 220 0
0.466822 0.140434 0.050675 255 220 0
0.436038 0.078177 0.094173 255 220 0
0.451531 0.062274 0.091959 255 220 0
0.479760 0.163170 0.064719 255 220 0
0.414247 0.055027 0.006790 255 220 0
0.446134 0.038110 0.015486 255 220 0
0.465666 0.057810 0.024620 255 220 0
0.406992 0.096934 0.034175 255 220 0
0.431119 0.077346 0.092858 255 220 0
0.459357 0.055067 0.020456 255 220 0
0.451936 0.107346 0.095811 255 220 0
0.411457 0.076878 0.084036 255 220 0
0.493870 0.076743 0.068589 255 220 0
0.397175 0.068020 0.075010 255 220 0
0.449357 0.141079 0.081642 255 220 0
0.441063 0.086610 0.020638 255 220 0
0.386153 0.045246 0.061295 255 220 0
0.487288 0.074247 0.042562 255 220 0
0.428879 0.087003 0.020078 255 220 0
0.405691 0.023650 0.066033 255 220 0
0.397249 0.012493 0.048827 255 220 0
0.482186 0.093750 0.091409 255 220 0
0.378559 0.058821 0.040085 255 220 0
0.477386 0.086832 0.092098 255 220 0
0.391893 0.085591 0.059835 255 220 0
0.454355 0.028534 0.031992 255 220 0
0.447101 0.024883 0.027642 255 220 0
0.401918 0.057866 0.010833 255 220 0
0.388996 0.045461 0.064946 255 220 0
0.464936 0.034275 0.054264 255 220 0
0.414737 0.047270 0.083669 255 220 0
0.432333 0.044924 0.007508 255 220 0
0.382728 0.070819 0.037915 255 220 0
0.384162 0.034270 0.054456 255 220 0
0.438021 0.017945 0.027239 255 220 0
0.494350 0.093647 0.079530 255 220 0
0.384617 0.075563 0.052517 255 220 0
0.408868 0.107051 0.046546 255 220 0
0.482061 0.135750 0.052217 255 220 0
0.394994 0.091160 0.041175 255 220 0
0.398587 0.098108 0.053367 255 220 0
0.448359 0.022776 0.034435 255 220 0
0.394116 0.009709 0.032224 255 220 0
0.484031 0.141184 0.091212 255 220 0
0.477306 0.076811 0.088010 255 220 0
0.472797 0.084990 0.030399 255 220 0
0.453231 0.117669 0.094298 255 220 0
0.474513 0.071131 0.086860 255 220 0
0.441625 0.102495 0.029049 255 220 0
0.426190 0.118755 0.074910 255 220 0
0.396480 0.032208 0.010857 255 220 0
0.451180 0.024182 0.036580 255 220 0
0.437204 0.060519 0.010312 255 220 0
0.396865 0.080545 0.071390 255 220 0
0.468647 0.064053 0.026495 255 220 0
0.434631 0.118530 0.042093 255 220 0
0.401835 0.042957 0.007843 255 220 0
0.400800 0.056955 0.078459 255 220 0
0.461645 0.052549 0.083039 255 220 0
0.403452 0.083687 0.024245 255 220 0
0.424605 0.084277 0.089622 255 220 0
0.471263 0.064171 0.084762 255 220 0
0.486069 0.061511 0.065543 255 220 0
0.439352 0.022371 0.021457 255 220 0
0.444456 0.028440 0.020073 255 220 0
0.467959 0.037425 0.055731 255 220 0
0.397874 0.008644 0.041323 255 220 0
0.394119 0.063827 0.072469 255 220 0
0.393665 0.011254 0.043027 255 220 0
0.443263 0.096600 0.025757 255 220 0
0.441195 0.134935 0.057005 255 220 0
0.487745 0.149948 0.086360 255 220 0
0.427766 0.079801 0.091555 255 220 0
0.445737 0.103130 0.029524 255 220 0
0.401972 0.094520 0.035870 255 220 0
0.408828 0.087679 0.079701 255 220 0
0.455110 0.152902 0.076385 255 220 0
0.448136 0.137465 0.053388 255 220 0
0.476911 0.050117 0.041515 255 220 0
0.432406 0.020938 0.016588 255 220 0
0.461069 0.038686 0.027944 255 220 0
0.484849 0.113473 0.045513 255 220 0
0.482171 0.115176 0.094492 255 220 0
0.383589 0.037728 0.055285 255 220 0
0.403854 0.059431 0.080694 255 220 0
0.489669 0.085567 0.044522 255 220 0
0.486415 0.132712 0.091862 255 220 0
0.423923 0.062374 0.089946 255 220 0
0.458122 0.087223 0.024328 255 220 0
0.482574 0.128923 0.093872 255 220 0
0.464569 0.054352 0.024185 255 220 0
0.445455 0.105242 0.030741 255 220 0
0.424219 0.112114 0.040045 255 220 0
0.407227 0.105005 0.045095 255 220 0
0.495176 0.100905 0.081836 255 220 0
0.489181 0.113463 0.090877 255 220 0
0.409639 0.103629 0.071181 255 220 0
0.478759 0.164025 0.065765 255 220 0
0.414702 0.059861 0.086345 255 220 0
0.446348 0.094728 0.025156 255 220 0
0.417357 0.092097 0.025149 255 220 0
0.464927 0.141858 0.091330 255 220 0
0.389521 0.023532 0.054080 255 220 0
0.404701 0.021314 0.063560 255 220 0
0.382153 0.038896 0.022726 255 220 0
0.434221 0.118548 0.042256 255 220 0
0.426500 0.122679 0.053731 255 220 0
0.416665 0.009522 0.023316 255 220 0
0.464539 0.033883 0.043046 255 220 0
0.464559 0.155975 0.083928 255 220 0
0.384353 0.052154 0.059855 255 220 0
0.403603 0.009875 0.047937 255 220 0
0.435560 0.070306 0.093669 255 220 0
0.408529 0.085411 0.080164 255 220 0
0.486454 0.116133 0.092663 255 220 0
0.481878 0.153740 0.087146 255 220 0
0.385945 0.016749 0.037389 255 220 0
0.492047 0.124281 0.054567 255 220 0
0.379430 0.054695 0.050036 255 220 0
0.437336 0.030615 0.075486 255 220 0
0.452742 0.150966 0.074004 255 220 0
0.411171 0.098406 0.032955 255 220 0
0.471478 0.116968 0.041337 255 220 0
0.494931 0.111188 0.085693 255 220 0
0.452084 0.043327 0.081400 255 220 0
0.392924 0.017799 0.018711 255 220 0
0.421254 0.072116 0.089459 255 220 0
0.485992 0.143901 0.056307 255 220 0
0.453254 0.024406 0.044065 255 220 0
0.404714 0.058858 0.081191 255 220 0
0.445583 0.097996 0.095332 255 220 0
0.473306 0.135555 0.049458 255 220 0
0.424133 0.106445 0.034697 255 220 0
0.450334 0.065395 0.093181 255 220 0
0.475943 0.143732 0.092181 255 220 0
0.417652 0.115832 0.051762 255 220 0
0.450556 0.148975 0.069762 255 220 0
0.431116 0.116181 0.082556 255 220 0
0.428068 0.111274 0.082983 255 220 0
0.421901 0.120086 0.056311 255 220 0
0.435278 0.019743 0.061615 255 220 0
0.427564 0.071421 0.012656 255 220 0
0.473005 0.052161 0.033055 255 220 0
0.444034 0.113600 0.091669 255 220 0
0.458442 0.076673 0.021386 255 220 0
0.385601 0.061607 0.061626 255 220 0
0.418579 0.025053 0.008836 255 220 0
0.434130 0.088720 0.021043 255 220 0
0.472141 0.041477 0.050741 255 220 0
0.484751 0.069155 0.040500 255 220 0
0.385150 0.076322 0.038632 255 220 0
0.469403 0.046166 0.032413 255 220 0
0.500512 0.130543 0.069907 255 220 0
0.451591 0.146805 0.078679 255 220 0
0.443215 0.033514 0.015443 255 220 0
0.455930 0.050923 0.084948 255 220 0
0.444824 0.054115 0.089875 255 220 0
0.396689 0.030463 0.065578 255 220 0
0.474665 0.062171 0.031606 255 220 0
0.419160 0.116293 0.050220 255 220 0
0.414781 0.081588 0.085071 255 220 0
0.482752 0.156200 0.059491 255 220 0
0.489818 0.118940 0.050901 255 220 0
0.417934 0.007164 0.032570 255 220 0
0.423067 0.087831 0.021032 255 220 0
0.389447 0.024944 0.055160 255 220 0
0.452775 0.135213 0.049623 255 220 0
0.445240 0.113423 0.036016 255 220 0
0.492239 0.133742 0.088171 255 220 0
0.475593 0.045603 0.056905 255 220 0
0.410431 0.049954 0.006231 255 220 0
0.434325 0.128173 0.054213 255 220 0
0.476392 0.126908 0.095520 255 220 0
0.457170 0.031646 0.063973 255 220 0
0.425774 0.009297 0.034797 255 220 0
0.432165 0.042233 0.084673 255 220 0
0.444615 0.024300 0.025195 255 220 0
0.461871 0.090894 0.096951 255 220 0
0.393405 0.010222 0.039090 255 220 0
0.444072 0.136234 0.079722 255 220 0
0.475720 0.072994 0.031717 255 220 0
0.445142 0.058451 0.091554 255 220 0
0.414554 0.088571 0.023342 255 220 0
0.394126 0.092275 0.051861 255 220 0
0.490108 0.069950 0.048151 255 220 0
0.395563 0.032083 0.011332 255 220 0
0.468903 0.070578 0.026670 255 220 0
0.389733 0.083697 0.039271 255 220 0
0.380130 0.031737 0.030099 255 220 0
0.467995 0.080344 0.093940 255 220 0
0.471898 0.068825 0.028829 255 220 0
0.419633 0.078833 0.016172 255 220 0
0.400279 0.016293 0.055880 255 220 0
0.493369 0.075333 0.068194 255 220 0
0.481867 0.052881 0.050242 255 220 0
0.468757 0.148508 0.054130 255 220 0
0.457331 0.154509 0.078138 255 220 0
0.435231 0.025794 0.070889 255 220 0
0.447405 0.102424 0.029247 255 220 0
0.460821 0.094656 0.028216 255 220 0
0.470011 0.039168 0.053312 255 220 0
0.414144 0.089222 0.082808 255 220 0
0.448126 0.023684 0.031590 255 220 0
0.434969 0.039798 0.008943 255 220 0
0.386733 0.064190 0.024163 255 220 0
0.478978 0.053104 0.066156 255 220 0
0.491347 0.141743 0.086913 255 220 0
0.444360 0.141402 0.065690 255 220 0
0.403871 0.054121 0.080100 255 220 0
0.465979 0.063929 0.087729 255 220 0
0.379526 0.030837 0.039133 255 220 0
0.454082 0.031970 0.067983 255 220 0
0.401284 0.096746 0.065910 255 220 0
0.407123 0.040987 0.077541 255 220 0
0.435961 0.099099 0.027103 255 220 0
0.445895 0.140794 0.076832 255 220 0
0.498239 0.125344 0.083848 255 220 0
0.392796 0.051672 0.013810 255 220 0
0.442880 0.030711 0.016839 255 220 0
0.397892 0.071342 0.018869 255 220 0
0.406570 0.103674 0.066314 255 220 0
0.391899 0.072262 0.068375 255 220 0
0.390234 0.078663 0.063030 255 220 0
0.455926 0.068762 0.018924 255 220 0
0.494622 0.082375 0.052160 255 220 0
0.501683 0.125933 0.077962 255 220 0
0.485216 0.112909 0.045548 255 220 0
0.427095 0.013287 0.022659 255 220 0
0.493342 0.148580 0.082515 255 220 0
0.457719 0.028439 0.054076 255 220 0
0.463365 0.047650 0.078120 255 220 0
0.429294 0.026479 0.073199 255 220 0
0.416138 0.052859 0.085782 255 220 0
0.430832 0.081587 0.017274 255 220 0
0.458824 0.085604 0.096578 255 220 0
0.422259 0.015928 0.016026 255 220 0
0.429805 0.077791 0.015473 255 220 0
0.451224 0.034717 0.073808 255 220 0
0.473323 0.132953 0.094930 255 220 0
0.400620 0.007089 0.037244 255 220 0
0.450710 0.131420 0.088799 255 220 0
0.477505 0.061031 0.076998 255 220 0
0.416173 0.082305 0.018716 255 220 0
0.438273 0.015426 0.044219 255 220 0
0.465888 0.034692 0.049374 255 220 0
0.473224 0.111747 0.039706 255 220 0
0.401729 0.086192 0.074192 255 220 0
0.445387 0.130563 0.048889 255 220 0
0.480452 0.160807 0.081316 255 220 0
0.479149 0.147153 0.054811 255 220 0
0.385272 0.033216 0.019092 255 220 0
0.419723 0.029396 0.075650 255 220 0
0.447427 0.022632 0.032884 255 220 0
0.426405 0.017206 0.061367 255 220 0
0.460984 0.129170 0.094055 255 220 0
0.426537 0.095328 0.088127 255 220 0
0.387424 0.016383 0.042436 255 220 0
0.440805 0.039246 0.011816 255 220 0
0.482842 0.151838 0.087853 255 220 0
0.480447 0.155712 0.058147 255 220 0
0.466791 0.110471 0.037154 255 220 0
0.438894 0.053347 0.089979 255 220 0
0.490404 0.118171 0.051177 255 220 0
0.419641 0.008089 0.029283 255 220 0
0.404642 0.051849 0.080067 255 220 0
0.408220 0.040540 0.005839 255 220 0
0.411200 0.048451 0.005834 255 220 0
0.457059 0.048359 0.082661 255 220 0
0.380781 0.050518 0.053569 255 220 0
0.391603 0.041668 0.066731 255 220 0
0.474136 0.063940 0.082475 255 220 0
0.409805 0.059721 0.084039 255 220 0
0.418059 0.038555 0.081085 255 220 0
0.488309 0.089570 0.043148 255 220 0
0.454672 0.041755 0.078782 255 220 0
0.387182 0.032480 0.017081 255 220 0
0.449036 0.081173 0.096150 255 220 0
0.501260 0.131152 0.073564 255 220 0
0.412497 0.066337 0.011050 255 220 0
0.408009 0.106880 0.047761 255 220 0
0.462914 0.109369 0.035598 255 220 0
0.498479 0.132051 0.065664 255 220 0
0.384655 0.062444 0.025782 255 220 0
0.450444 0.035750 0.019975 255 220 0
0.461912 0.031689 0.041231 255 220 0
0.488521 0.096061 0.044019 255 220 0
0.400161 0.086744 0.029115 255 220 0
0.410088 0.088231 0.080430 255 220 0
0.497321 0.088044 0.070873 255 220 0
0.494281 0.091676 0.078594 255 220 0
0.393830 0.030862 0.012485 255 220 0
0.414514 0.009227 0.048151 255 220 0
0.411744 0.020806 0.066030 255 220 0
0.377980 0.038772 0.033315 255 220 0
0.436373 0.122282 0.083135 255 220 0
0.398523 0.096846 0.045415 255 220 0
0.474205 0.134978 0.094512 255 220 0
0.498472 0.129169 0.083294 255 220 0
0.487769 0.159905 0.071891 255 220 0
0.391632 0.082371 0.062723 255 220 0
0.460511 0.149569 0.085566 255 220 0
0.495383 0.113733 0.085773 255 220 0
0.477399 0.076827 0.087953 255 220 0
0.454025 0.042228 0.019597 255 220 0
0.409026 0.103561 0.070421 255 220 0
0.442126 0.026177 0.019960 255 220 0
0.388324 0.038808 0.015511 255 220 0
0.403474 0.007764 0.043101 255 220 0
0.501930 0.119685 0.070740 255 220 0
0.428968 0.071400 0.092186 255 220 0
0.461671 0.152032 0.057616 255 220 0
0.384116 0.073024 0.054010 255 220 0
0.485337 0.158052 0.081213 255 220 0
0.438814 0.121675 0.043544 255 220 0
0.419991 0.062355 0.088660 255 220 0
0.394991 0.057308 0.073527 255 220 0
0.478588 0.125889 0.047321 255 220 0
0.471074 0.042457 0.040801 255 220 0
0.391372 0.017246 0.049809 255 220 0
0.392669 0.068620 0.020921 255 220 0
0.464073 0.059511 0.023364 255 220 0
0.409759 0.035536 0.005964 255 220 0
0.384679 0.048346 0.019983 255 220 0
0.480664 0.104127 0.039864 255 220 0
0.378434 0.058250 0.040053 255 220 0
0.418215 0.081259 0.087018 255 220 0
0.481201 0.053530 0.062301 255 220 0
0.386325 0.020283 0.024229 255 220 0
0.388128 0.083189 0.043777 255 220 0
0.379367 0.052682 0.050248 255 220 0
0.476965 0.119803 0.095910 255 220 0
0.419367 0.069105 0.011524 255 220 0
0.413863 0.094873 0.028492 255 220 0
0.425807 0.072307 0.091190 255 220 0
0.416020 0.036220 0.079077 255 220 0
0.466674 0.082012 0.026438 255 220 0
0.475737 0.059720 0.033124 255 220 0
0.488996 0.141316 0.088643 255 220 0
0.387690 0.019267 0.047430 255 220 0
0.395890 0.058425 0.074440 255 220 0
0.414923 0.042901 0.082048 255 220 0
0.381843 0.050357 0.024194 255 220 0
0.438795 0.050428 0.088766 255 220 0
0.460327 0.089185 0.025788 255 220 0
0.482154 0.117489 0.045516 255 220 0
0.446682 0.061630 0.013802 255 220 0
0.445991 0.027593 0.022552 255 220 0
0.382020 0.025406 0.042138 255 220 0
0.447031 0.024400 0.028392 255 220 0
0.485291 0.068307 0.074486 255 220 0
0.423740 0.049800 0.087163 255 220 0
0.421148 0.112186 0.041834 255 220 0
0.426527 0.112477 0.039364 255 220 0
0.442205 0.057767 0.091502 255 220 0
0.483600 0.076161 0.038396 255 220 0
0.392057 0.062028 0.070317 255 220 0
0.459280 0.133726 0.092178 255 220 0
0.399683 0.029044 0.010192 255 220 0
0.397475 0.014361 0.018836 255 220 0
0.440190 0.097411 0.093687 255 220 0
0.482163 0.162220 0.065132 255 220 0
0.485739 0.093709 0.088813 255 220 0
0.404926 0.056198 0.081040 255 220 0
0.399001 0.079257 0.023556 255 220 0
0.409242 0.093512 0.029422 255 220 0
0.434163 0.062487 0.010167 255 220 0
0.439328 0.018570 0.055450 255 220 0
0.477308 0.095564 0.035309 255 220 0
0.421723 0.008000 0.038142 255 220 0
0.399737 0.090936 0.033921 255 220 0
0.472050 0.146250 0.053318 255 220 0
0.481352 0.160226 0.061762 255 220 0
0.434573 0.105683 0.089309 255 220 0
0.410543 0.015913 0.059799 255 220 0
0.420159 0.021164 0.067970 255 220 0
0.419347 0.016374 0.014731 255 220 0
0.462621 0.049917 0.080519 255 220 0
0.378290 0.047709 0.030801 255 220 0
0.423857 0.068764 0.090456 255 220 0
0.498301 0.086781 0.062229 255 220 0
0.453086 0.049066 0.084998 255 220 0
0.393169 0.059641 0.071657 255 220 0
0.499637 0.102570 0.061682 255 220 0
0.467944 0.068691 0.025968 255 220 0
0.453166 0.142641 0.084279 255 220 0
0.484642 0.121255 0.093568 255 220 0
0.398577 0.019146 0.057947 255 220 0
0.441742 0.134764 0.055987 255 220 0
0.500211 0.137044 0.074625 255 220 0
0.456928 0.029483 0.059371 255 220 0
0.452992 0.070663 0.094274 255 220 0
0.464907 0.158946 0.061600 255 220 0
0.385113 0.070810 0.031857 255 220 0
0.490025 0.072856 0.071929 255 220 0
0.438875 0.128198 0.081110 255 220 0
0.466576 0.129050 0.045376 255 220 0
0.463434 0.059563 0.022919 255 220 0
0.420962 0.086177 0.087482 255 220 0
0.391840 0.068696 0.021672 255 220 0
0.414307 0.006512 0.033217 255 220 0
0.483067 0.147708 0.089527 255 220 0
0.387166 0.064047 0.063690 255 220 0
0.462219 0.117487 0.039204 255 220 0
0.453108 0.119504 0.039591 255 220 0
0.451198 0.127784 0.045119 255 220 0
0.498439 0.087243 0.064932 255 220 0
0.464877 0.117272 0.039650 255 220 0
0.425404 0.119042 0.047916 255 220 0
0.459058 0.072248 0.020953 255 220 0
0.427565 0.043714 0.006227 255 220 0
0.379544 0.055911 0.031173 255 220 0
0.502004 0.124549 0.073059 255 220 0
0.456684 0.154203 0.063953 255 220 0
0.434337 0.047311 0.008100 255 220 0
0.460158 0.071961 0.093336 255 220 0
0.420934 0.035042 0.079774 255 220 0
0.431365 0.128173 0.061171 255 220 0
0.413779 0.083017 0.084181 255 220 0
0.428453 0.010414 0.034722 255 220 0
0.448402 0.096909 0.096131 255 220 0
0.467901 0.037052 0.045869 255 220 0
0.452648 0.151504 0.070923 255 220 0
0.425240 0.025422 0.009954 255 220 0
0.433598 0.119643 0.043552 255 220 0
0.458688 0.036120 0.069656 255 220 0
0.392917 0.010211 0.034089 255 220 0
0.495690 0.107840 0.054752 255 220 0
0.469233 0.162808 0.063732 255 220 0
0.442759 0.118105 0.039701 255 220 0
0.454006 0.031207 0.066828 255 220 0
0.390927 0.083832 0.059716 255 220 0
0.484434 0.156070 0.060474 255 220 0
0.459294 0.032791 0.032492 255 220 0
0.422111 0.118277 0.068951 255 220 0
0.489467 0.064436 0.052236 255 220 0
0.459908 0.089827 0.025907 255 220 0
0.442304 0.106008 0.031230 255 220 0
0.492010 0.069192 0.062625 255 220 0
0.482282 0.058752 0.041691 255 220 0
0.417768 0.108190 0.076090 255 220 0
0.433091 0.105543 0.031852 255 220 0
0.450561 0.148793 0.071682 255 220 0
0.393906 0.051039 0.071748 255 220 0
0.470588 0.161643 0.061682 255 220 0
0.430646 0.023092 0.013559 255 220 0
0.410071 0.012198 0.053917 255 220 0
0.431248 0.062081 0.091676 255 220 0
0.411787 0.072826 0.014290 255 220 0
0.427597 0.125007 0.061430 255 220 0
0.499340 0.099395 0.074048 255 220 0
0.417873 0.109764 0.041100 255 220 0
0.415180 0.036296 0.078807 255 220 0
0.409280 0.026985 0.070304 255 220 0
0.424573 0.058929 0.089591 255 220 0
0.451085 0.022947 0.044304 255 220 0
0.430584 0.127007 0.067936 255 220 0
0.407020 0.104356 0.066112 255 220 0
0.421928 0.090476 0.022927 255 220 0
0.430608 0.027109 0.010986 255 220 0
0.411062 0.022581 0.067492 255 220 0
0.479693 0.049881 0.053156 255 220 0
0.384506 0.030154 0.020918 255 220 0
0.398580 0.036808 0.070568 255 220 0
0.460887 0.160437 0.072909 255 220 0
0.466539 0.158255 0.083279 255 220 0
0.421405 0.012027 0.052949 255 220 0
0.454485 0.153768 0.070462 255 220 0
0.424369 0.018254 0.063672 255 220 0
0.400069 0.087168 0.029606 255 220 0
0.449163 0.078143 0.018487 255 220 0
0.421869 0.050825 0.087057 255 220 0
0.414839 0.099685 0.079262 255 220 0
0.426728 0.012061 0.049998 255 220 0
0.414307 0.023897 0.069746 255 220 0
0.410782 0.057208 0.084239 255 220 0
0.433334 0.017652 0.058661 255 220 0
0.501160 0.105107 0.067607 255 220 0
0.473632 0.125857 0.045605 255 220 0
0.487638 0.065798 0.068416 255 220 0
0.434786 0.110918 0.035636 255 220 0
0.462613 0.156196 0.082399 255 220 0
0.403276 0.075743 0.018738 255 220 0
0.397819 0.089584 0.034458 255 220 0
0.471746 0.107696 0.096861 255 220 0
0.493252 0.128908 0.057154 255 220 0
0.463166 0.042387 0.027427 255 220 0
0.481004 0.096194 0.092735 255 220 0
0.447288 0.124915 0.089525 255 220 0
0.402476 0.090426 0.072869 255 220 0
0.431249 0.120443 0.079472 255 220 0
0.411822 0.102671 0.074615 255 220 0
0.494889 0.115080 0.055214 255 220 0
0.469907 0.091087 0.095804 255 220 0
0.419565 0.080585 0.087817 255 220 0
0.464800 0.046291 0.075703 255 220 0
0.424080 0.120670 0.052796 255 220 0
0.445860 0.063053 0.013649 255 220 0
0.386139 0.037025 0.017665 255 220 0
0.380169 0.057389 0.030609 255 220 0
0.448141 0.037797 0.017064 255 220 0
0.500537 0.103031 0.064740 255 220 0
0.456926 0.038281 0.073871 255 220 0
0.485299 0.095408 0.089736 255 220 0
0.490730 0.090663 0.082572 255 220 0
0.399478 0.043248 0.074146 255 220 0
0.472544 0.075066 0.029358 255 220 0
0.380226 0.031480 0.044414 255 220 0
0.389260 0.026974 0.056493 255 220 0
0.499115 0.118301 0.062545 255 220 0
0.448331 0.144462 0.061893 255 220 0
0.409275 0.109631 0.057963 255 220 0
0.498141 0.090115 0.058854 255 220 0
0.491557 0.067418 0.059319 255 220 0
0.390723 0.075599 0.028044 255 220 0
0.422606 0.075700 0.014376 255 220 0
0.434710 0.075851 0.093832 255 220 0
0.445154 0.107380 0.032043 255 220 0
0.386185 0.016368 0.036923 255 220 0
0.491599 0.072209 0.068507 255 220 0
0.452455 0.115531 0.094500 255 220 0
0.482517 0.068019 0.038241 255 220 0
0.411681 0.047219 0.082327 255 220 0
0.443486 0.136167 0.078968 255 220 0
0.494981 0.096415 0.080008 255 220 0
0.458396 0.080219 0.022180 255 220 0
0.382287 0.054411 0.024959 255 220 0
0.393396 0.053453 0.013892 255 220 0
0.433788 0.124929 0.078145 255 220 0
0.477486 0.054448 0.037678 255 220 0
0.382015 0.023834 0.035590 255 220 0
0.475970 0.054806 0.072689 255 220 0
0.450476 0.093999 0.096665 255 220 0
0.491861 0.105899 0.049454 255 220 0
0.480179 0.131454 0.094262 255 220 0
0.501953 0.121706 0.077066 255 220 0
0.464834 0.034819 0.040570 255 220 0
0.499424 0.104482 0.076897 255 220 0
0.489123 0.081335 0.044012 255 220 0
0.446908 0.140091 0.079438 255 220 0
0.441881 0.130231 0.050397 255 220 0
0.423540 0.121566 0.057962 255 220 0
0.500586 0.127920 0.080471 255 220 0
0.420898 0.119381 0.062003 255 220 0
0.425325 0.031762 0.007481 255 220 0
0.455945 0.155463 0.071142 255 220 0
0.459131 0.055560 0.020272 255 220 0
0.498770 0.141616 0.073328 255 220 0
0.393613 0.049858 0.071223 255 220 0
0.496735 0.090009 0.055157 255 220 0
0.388164 0.026357 0.017802 255 220 0
0.483998 0.077842 0.082931 255 220 0
0.460871 0.049517 0.022359 255 220 0
0.415656 0.038869 0.080409 255 220 0
0.450015 0.033372 0.072992 255 220 0
0.389575 0.085719 0.045982 255 220 0
0.494543 0.117242 0.087100 255 220 0
0.393099 0.016148 0.020081 255 220 0
0.469972 0.127314 0.095867 255 220 0
0.443422 0.135194 0.054746 255 220 0
0.456642 0.035192 0.070324 255 220 0
0.414528 0.085894 0.021447 255 220 0
0.399309 0.069969 0.076621 255 220 0
0.409877 0.079010 0.082660 255 220 0
0.378621 0.041021 0.046968 255 220 0
0.491074 0.094024 0.046611 255 220 0
0.379592 0.048627 0.027755 255 220 0
0.478075 0.162443 0.080232 255 220 0
0.431455 0.014022 0.026157 255 220 0
0.416567 0.054579 0.086304 255 220 0
0.422880 0.040336 0.083091 255 220 0
0.398726 0.030287 0.066853 255 220 0
0.389967 0.086017 0.051860 255 220 0
0.382934 0.024856 0.027408 255 220 0
0.468050 0.098338 0.096949 255 220 0
0.478889 0.153256 0.088103 255 220 0
0.463446 0.045907 0.025731 255 220 0
0.450134 0.027722 0.027286 255 220 0
0.451321 0.096534 0.096697 255 220 0
0.396426 0.040470 0.010165 255 220 0
0.390783 0.033407 0.013965 255 220 0
0.477260 0.146483 0.091158 255 220 0
0.495021 0.079799 0.053999 255 220 0
0.400235 0.059924 0.012266 255 220 0
0.463410 0.140105 0.050581 255 220 0
0.394982 0.089738 0.061751 255 220 0
0.433649 0.090608 0.092343 255 220 0
0.425760 0.039096 0.082717 255 220 0
0.414401 0.043895 0.082258 255 220 0
0.484747 0.064655 0.071666 255 220 0
0.500978 0.107747 0.065880 255 220 0
0.467617 0.042525 0.033120 255 220 0
0.448915 0.038424 0.017361 255 220 0
0.397870 0.063523 0.014869 255 220 0
0.390942 0.025445 0.057137 255 220 0
0.478517 0.075900 0.033902 255 220 0
0.393093 0.050207 0.013259 255 220 0
0.494823 0.131322 0.059672 255 220 0
0.430659 0.016269 0.057515 255 220 0
0.482673 0.094807 0.038687 255 220 0
0.480671 0.149614 0.055951 255 220 0
0.490604 0.146083 0.060031 255 220 0
0.400872 0.100472 0.049163 255 220 0
0.465075 0.039898 0.067728 255 220 0
0.430122 0.011083 0.036861 255 220 0
0.431538 0.058745 0.091020 255 220 0
0.481812 0.149597 0.089177 255 220 0
0.411845 0.017587 0.062417 255 220 0
0.393886 0.073030 0.070575 255 220 0
0.464090 0.067049 0.023375 255 220 0
0.480095 0.147386 0.090430 255 220 0
0.455772 0.041357 0.077782 255 220 0
0.383159 0.024496 0.044506 255 220 0
0.427181 0.009818 0.037964 255 220 0
0.455555 0.068745 0.018738 255 220 0
0.499048 0.090110 0.065169 255 220 0
0.391235 0.013477 0.026419 255 220 0
0.404284 0.067502 0.013819 255 220 0
0.463050 0.161645 0.075267 255 220 0
0.396143 0.014629 0.051023 255 220 0
0.465517 0.053680 0.025041 255 220 0
0.497246 0.139855 0.066912 255 220 0
0.500994 0.123513 0.068365 255 220 0
0.400211 0.024678 0.063848 255 220 0
0.488747 0.121624 0.050913 255 220 0
0.409305 0.014460 0.015629 255 220 0
0.452783 0.037009 0.075352 255 220 0
0.473497 0.113594 0.096644 255 220 0
0.472348 0.063417 0.029448 255 220 0
0.439746 0.048307 0.010150 255 220 0
0.461657 0.065032 0.090148 255 220 0
0.419805 0.088889 0.086230 255 220 0
0.497987 0.095236 0.074473 255 220 0
0.440934 0.020905 0.059620 255 220 0
0.491927 0.149064 0.063074 255 220 0
0.410664 0.083370 0.082180 255 220 0
0.381490 0.068141 0.049432 255 220 0
0.447498 0.089874 0.096333 255 220 0
0.482698 0.119867 0.094356 255 220 0
0.440825 0.032537 0.076326 255 220 0
0.429545 0.044023 0.006716 255 220 0
0.446307 0.095749 0.025647 255 220 0
0.488962 0.145960 0.058665 255 220 0
0.478029 0.120831 0.095654 255 220 0
0.433717 0.018258 0.020987 255 220 0
0.489640 0.097056 0.045341 255 220 0
0.473219 0.078944 0.091394 255 220 0
0.449952 0.144604 0.078782 255 220 0
0.441675 0.138510 0.065935 255 220 0
0.404100 0.101833 0.044178 255 220 0
0.496865 0.087201 0.055937 255 220 0
0.392886 0.074932 0.068773 255 220 0
0.424495 0.122110 0.056782 255 220 0
0.498689 0.127275 0.083248 255 220 0
0.492262 0.144172 0.060916 255 220 0
0.412783 0.009534 0.049038 255 220 0
0.487460 0.137820 0.055326 255 220 0
0.416395 0.052497 0.085792 255 220 0
0.382637 0.022791 0.038789 255 220 0
0.397480 0.088906 0.067348 255 220 0
0.443224 0.139526 0.062872 255 220 0
0.454921 0.149031 0.080959 255 220 0
0.466135 0.161778 0.064184 255 220 0
0.402502 0.008613 0.044842 255 220 0
0.487222 0.076684 0.078734 255 220 0
0.455175 0.056284 0.017817 255 220 0
0.401006 0.007707 0.028800 255 220 0
0.448912 0.085461 0.021411 255 220 0
0.434854 0.016983 0.055933 255 220 0
0.470614 0.094121 0.096094 255 220 0
0.464550 0.081840 0.095179 255 220 0
0.493854 0.129729 0.058040 255 220 0
0.476861 0.047340 0.048135 255 220 0
0.403086 0.024230 0.010669 255 220 0
0.480546 0.114594 0.095031 255 220 0
0.418068 0.104372 0.079143 255 220 0
0.416860 0.064286 0.087595 255 220 0
0.436315 0.086594 0.020078 255 220 0
0.405757 0.086514 0.077714 255 220 0
0.383674 0.068489 0.056120 255 220 0
0.425953 0.119546 0.048194 255 220 0
0.416563 0.065482 0.087513 255 220 0
0.391699 0.051440 0.069416 255 220 0
0.451514 0.051864 0.015911 255 220 0
0.428063 0.115164 0.041403 255 220 0
0.391026 0.045862 0.067430 255 220 0
0.416088 0.018311 0.064163 255 220 0
0.463013 0.084768 0.096018 255 220 0
0.412888 0.033638 0.076282 255 220 0
0.399512 0.054464 0.077249 255 220 0
0.440407 0.030133 0.015223 255 220 0
0.406633 0.063274 0.011157 255 220 0
0.418932 0.034290 0.005855 255 220 0
0.450229 0.061155 0.091808 255 220 0
0.482740 0.155981 0.059359 255 220 0
0.396088 0.041513 0.010365 255 220 0
0.500298 0.112541 0.078900 255 220 0
0.439901 0.135741 0.072344 255 220 0
0.463718 0.053399 0.023693 255 220 0
0.466435 0.042197 0.069314 255 220 0
0.437182 0.031438 0.076302 255 220 0
0.425162 0.029043 0.075880 255 220 0
0.453843 0.024960 0.042264 255 220 0
0.414605 0.092311 0.026150 255 220 0
0.497533 0.125046 0.061631 255 220 0
0.423528 0.110112 0.038308 255 220 0
0.427157 0.010612 0.044459 255 220 0
0.438867 0.068564 0.012955 255 220 0
0.466340 0.042685 0.070090 255 220 0
0.416914 0.018905 0.065018 255 220 0
0.459738 0.031251 0.058795 255 220 0
0.486929 0.069813 0.043080 255 220 0
0.427324 0.057207 0.007650 255 220 0
0.445980 0.113663 0.092498 255 220 0
0.433666 0.040591 0.083661 255 220 0
0.433134 0.091701 0.091951 255 220 0
0.386538 0.022428 0.021848 255 220 0
0.396143 0.075293 0.022645 255 220 0
0.418024 0.116601 0.053383 255 220 0
0.416497 0.051037 0.085468 255 220 0
0.393315 0.056125 0.071748 255 220 0
0.475562 0.070918 0.085987 255 220 0
0.435582 0.022382 0.017684 255 220 0
0.428816 0.058551 0.090484 255 220 0
0.430259 0.063943 0.091800 255 220 0
0.440659 0.022597 0.022662 255 220 0
0.457586 0.107495 0.096894 255 220 0
0.449134 0.023895 0.032931 255 220 0
0.501787 0.114829 0.075730 255 220 0
0.386921 0.052973 0.018847 255 220 0
0.479817 0.059580 0.072934 255 220 0
0.461013 0.039564 0.071887 255 220 0
0.385816 0.029585 0.054019 255 220 0
0.482800 0.157181 0.060139 255 220 0
0.441044 0.119183 0.088177 255 220 0
0.406236 0.065116 0.082171 255 220 0
0.377168 0.049883 0.037220 255 220 0
0.440126 0.024841 0.067376 255 220 0
0.479862 0.077011 0.086178 255 220 0
0.385435 0.019131 0.028018 255 220 0
0.438506 0.131230 0.054427 255 220 0
0.464259 0.057597 0.023603 255 220 0
0.382812 0.072039 0.039662 255 220 0
0.380081 0.029605 0.040590 255 220 0
0.480626 0.153957 0.057431 255 220 0
0.492950 0.070597 0.061362 255 220 0
0.383469 0.046549 0.057766 255 220 0
0.406555 0.063704 0.011356 255 220 0
0.412168 0.042435 0.005164 255 220 0
0.464178 0.117994 0.039820 255 220 0
0.494196 0.087441 0.050632 255 220 0
0.470247 0.090004 0.030069 255 220 0
0.462305 0.068877 0.022384 255 220 0
0.480228 0.158037 0.059378 255 220 0
0.467923 0.099679 0.032642 255 220 0
0.474160 0.153270 0.055867 255 220 0
0.492273 0.090716 0.047856 255 220 0
0.458853 0.056462 0.020036 255 220 0
0.490820 0.127603 0.054496 255 220 0
0.474207 0.090352 0.032258 255 220 0
0.466894 0.156341 0.058500 255 220 0
