ply
format ascii 1.0
element vertex 1024
property float x
property float y
property float z
property uchar red
property uchar green
property uchar blue
end_header
0.606651 0.065849 0.159373 255 220 0
0.570840 0.059248 0.101651 255 220 0
0.657943 0.047877 0.120465 255 220 0
0.618521 0.011234 0.123597 255 220 0
0.648630 0.074190 0.098282 255 220 0
0.600312 0.065693 0.070359 255 220 0
0.614317 0.056087 0.157067 255 220 0
0.605114 0.137904 0.167189 255 220 0
0.651376 0.079594 0.152727 255 220 0
0.634625 0.058776 0.074545 255 220 0
0.616476 0.012042 0.124818 255 220 0
0.640866 0.014115 0.076210 255 220 0
0.620437 0.072463 0.075892 255 220 0
0.619060 0.049794 0.154421 255 220 0
0.648827 0.040409 0.134455 255 220 0
0.572018 0.083765 0.112291 255 220 0
0.597697 0.015095 0.068427 255 220 0
0.613154 0.097631 0.169216 255 220 0
0.573546 0.085956 0.123010 255 220 0
0.615862 0.033617 0.144924 255 220 0
0.622117 0.026744 0.139224 255 220 0
0.621223 0.052567 0.155565 255 220 0
0.573418 0.047414 0.089737 255 220 0
0.615772 0.007728 0.066138 255 220 0
0.602041 0.069355 0.072002 255 220 0
0.605161 0.063952 0.069033 255 220 0
0.618166 0.142602 0.127318 255 220 0
0.657223 0.050512 0.103489 255 220 0
0.627587 0.020524 0.064270 255 220 0
0.597117 0.156130 0.127863 255 220 0
0.658934 0.056592 0.122873 255 220 0
0.621540 0.149422 0.161797 255 220 0
0.653320 0.097082 0.134054 255 220 0
0.598202 0.159740 0.130286 255 220 0
0.592999 0.080743 0.156331 255 220 0
0.639210 0.005823 0.099505 255 220 0
0.623639 0.108153 0.103567 255 220 0
0.597455 0.035340 0.140171 255 220 0
0.621280 0.147694 0.163622 255 220 0
0.652922 0.099321 0.137788 255 220 0
0.594668 0.109231 0.100019 255 220 0
0.632176 0.136564 0.160070 255 220 0
0.657794 0.051768 0.105922 255 220 0
0.655219 0.048425 0.096285 255 220 0
0.586950 0.141099 0.152989 255 220 0
0.627440 0.098867 0.098210 255 220 0
0.614267 0.031006 0.142829 255 220 0
0.658560 0.048317 0.113722 255 220 0
0.593316 0.057830 0.149442 255 220 0
0.611244 0.004416 0.069173 255 220 0
0.654998 0.077984 0.115019 255 220 0
0.619769 0.127585 0.170152 255 220 0
0.605309 0.045744 0.150444 255 220 0
0.589424 0.075790 0.151843 255 220 0
0.607006 0.036684 0.145432 255 220 0
0.571316 0.076354 0.114336 255 220 0
0.652881 0.029996 0.110838 255 220 0
0.601820 0.003256 0.103169 255 220 0
0.599964 0.083195 0.080447 255 220 0
0.594518 0.050980 0.066453 255 220 0
0.651841 0.096314 0.126029 255 220 0
0.594469 0.009106 0.104816 255 220 0
0.598172 0.140086 0.164060 255 220 0
0.633485 0.027650 0.136198 255 220 0
0.648424 0.017015 0.091358 255 220 0
0.620183 0.153740 0.157328 255 220 0
0.586873 0.031594 0.126965 255 220 0
0.627251 0.113690 0.110677 255 220 0
0.645556 0.047150 0.142928 255 220 0
0.652855 0.094382 0.126900 255 220 0
0.653400 0.036500 0.122017 255 220 0
0.617002 0.126852 0.114847 255 220 0
0.648489 0.107073 0.131422 255 220 0
0.636566 0.132605 0.147061 255 220 0
0.618124 0.041073 0.149864 255 220 0
0.625764 0.142430 0.135034 255 220 0
0.597446 0.014108 0.117746 255 220 0
0.626248 0.045282 0.151378 255 220 0
0.656702 0.078207 0.120999 255 220 0
0.580507 0.096308 0.142572 255 220 0
0.585262 0.129419 0.152179 255 220 0
0.573476 0.066530 0.122132 255 220 0
0.648868 0.050282 0.083880 255 220 0
0.630768 0.067315 0.159916 255 220 0
0.582826 0.107245 0.106675 255 220 0
0.642279 0.084296 0.097756 255 220 0
0.598405 0.012758 0.069567 255 220 0
0.635352 0.127035 0.163047 255 220 0
0.612956 0.075157 0.164047 255 220 0
0.603681 0.101731 0.166939 255 220 0
0.658071 0.060562 0.130035 255 220 0
0.589525 0.114539 0.106654 255 220 0
0.612310 0.006812 0.117155 255 220 0
0.630082 0.108807 0.108563 255 220 0
0.600145 0.007654 0.110255 255 220 0
0.604379 0.049343 0.063638 255 220 0
0.650969 0.048520 0.086657 255 220 0
0.636333 0.010315 0.112995 255 220 0
0.621747 0.115348 0.108418 255 220 0
0.642534 0.032770 0.134486 255 220 0
0.622497 0.031652 0.143179 255 220 0
0.597928 0.003084 0.084189 255 220 0
0.648306 0.037199 0.079374 255 220 0
0.620627 0.007117 0.117443 255 220 0
0.652494 0.038344 0.087167 255 220 0
0.611262 0.107350 0.098581 255 220 0
0.645046 0.019746 0.078268 255 220 0
0.649735 0.049528 0.139916 255 220 0
0.639835 0.059008 0.078172 255 220 0
0.640193 0.043615 0.144823 255 220 0
0.575854 0.044033 0.083265 255 220 0
0.654641 0.034961 0.096283 255 220 0
0.593406 0.058211 0.149666 255 220 0
0.583664 0.038207 0.128272 255 220 0
0.635541 0.063434 0.077935 255 220 0
0.594769 0.053293 0.148567 255 220 0
0.640194 0.022899 0.071297 255 220 0
0.575142 0.087142 0.128693 255 220 0
0.646239 0.071803 0.092982 255 220 0
0.570910 0.073033 0.111876 255 220 0
0.577517 0.089799 0.097709 255 220 0
0.598977 0.006818 0.107179 255 220 0
0.626931 0.119577 0.115508 255 220 0
0.631393 0.071970 0.161362 255 220 0
0.620075 0.091655 0.089145 255 220 0
0.631754 0.056532 0.071603 255 220 0
0.658587 0.063530 0.129951 255 220 0
0.618884 0.124166 0.113765 255 220 0
0.614360 0.153487 0.162376 255 220 0
0.607339 0.057920 0.156651 255 220 0
0.617941 0.014925 0.128162 255 220 0
0.589876 0.064532 0.148951 255 220 0
0.605278 0.129408 0.168439 255 220 0
0.601046 0.001161 0.082255 255 220 0
0.657993 0.067320 0.135505 255 220 0
0.582980 0.020344 0.094477 255 220 0
0.586513 0.155400 0.141713 255 220 0
0.594884 0.080216 0.157659 255 220 0
0.607337 0.072098 0.161702 255 220 0
0.587567 0.026096 0.071036 255 220 0
0.645520 0.028560 0.126704 255 220 0
0.605836 0.050261 0.063738 255 220 0
0.593202 0.098449 0.159909 255 220 0
0.658638 0.074966 0.127753 255 220 0
0.594378 0.092238 0.087403 255 220 0
0.578189 0.031919 0.108641 255 220 0
0.592533 0.011319 0.077043 255 220 0
0.637772 0.004970 0.083032 255 220 0
0.650648 0.023295 0.088693 255 220 0
0.602883 0.124987 0.110217 255 220 0
0.653335 0.097771 0.144739 255 220 0
0.585393 0.145867 0.148293 255 220 0
0.586639 0.030323 0.070639 255 220 0
0.597334 0.018634 0.123976 255 220 0
0.643533 0.093337 0.106874 255 220 0
0.603398 0.000811 0.098929 255 220 0
0.621497 0.028905 0.141135 255 220 0
0.580307 0.071505 0.138371 255 220 0
0.580367 0.027597 0.083750 255 220 0
0.580883 0.127138 0.131333 255 220 0
0.615362 0.142248 0.124983 255 220 0
0.591627 0.131376 0.116743 255 220 0
0.638695 0.048019 0.148343 255 220 0
0.646889 0.025655 0.120671 255 220 0
0.603478 0.015153 0.124803 255 220 0
0.612739 0.139901 0.121853 255 220 0
0.614935 0.008590 0.065661 255 220 0
0.637993 0.113707 0.164318 255 220 0
0.621836 0.112722 0.170388 255 220 0
0.633732 0.062243 0.076070 255 220 0
0.611372 0.124112 0.170208 255 220 0
0.615386 0.056443 0.157288 255 220 0
0.657476 0.058747 0.106789 255 220 0
0.620792 0.078346 0.079859 255 220 0
0.604774 0.165680 0.143007 255 220 0
0.628938 0.073282 0.080195 255 220 0
0.637129 0.103640 0.109736 255 220 0
0.632485 0.000156 0.095304 255 220 0
0.616898 0.111056 0.102873 255 220 0
0.596534 0.114776 0.103802 255 220 0
0.595510 0.160678 0.151800 255 220 0
0.645147 0.021964 0.118298 255 220 0
0.595772 0.120212 0.108009 255 220 0
0.608156 0.047654 0.152272 255 220 0
0.619228 0.052018 0.065096 255 220 0
0.639122 0.052653 0.074220 255 220 0
0.637796 0.022114 0.127390 255 220 0
0.575561 0.050011 0.120676 255 220 0
0.613672 0.110083 0.101189 255 220 0
0.630221 -0.000172 0.098521 255 220 0
0.655795 0.037323 0.102571 255 220 0
0.612302 -0.001202 0.101734 255 220 0
0.624196 0.053505 0.066932 255 220 0
0.625544 0.012801 0.123667 255 220 0
0.629290 0.070882 0.161578 255 220 0
0.589508 0.115351 0.158073 255 220 0
0.650580 0.023834 0.087605 255 220 0
0.584938 0.097277 0.095433 255 220 0
0.623043 0.128287 0.119666 255 220 0
0.652043 0.066136 0.147006 255 220 0
0.611881 0.061180 0.158840 255 220 0
0.637764 0.031739 0.137337 255 220 0
0.571710 0.067775 0.097191 255 220 0
0.621005 0.052064 0.155354 255 220 0
0.583016 0.057087 0.138107 255 220 0
0.638723 0.083144 0.093688 255 220 0
0.634444 0.100669 0.104754 255 220 0
0.650157 0.021245 0.100894 255 220 0
0.644928 0.011448 0.096634 255 220 0
0.585001 0.016921 0.090020 255 220 0
0.580494 0.121064 0.125812 255 220 0
0.656539 0.077532 0.119610 255 220 0
0.642720 0.008247 0.092944 255 220 0
0.595081 0.030883 0.135248 255 220 0
0.627867 0.003530 0.072807 255 220 0
0.656838 0.052872 0.102482 255 220 0
0.577070 0.046859 0.080056 255 220 0
0.599615 0.011264 0.115728 255 220 0
0.634908 0.018790 0.125746 255 220 0
0.577160 0.073029 0.132615 255 220 0
0.583755 0.114167 0.112107 255 220 0
0.594447 0.139627 0.161752 255 220 0
0.593657 0.088462 0.158526 255 220 0
0.607022 0.098413 0.091247 255 220 0
0.645406 0.083641 0.158617 255 220 0
0.625068 0.027904 0.062338 255 220 0
0.656242 0.046691 0.099482 255 220 0
0.597818 0.164956 0.139276 255 220 0
0.609320 0.130643 0.169299 255 220 0
0.597721 0.092010 0.162179 255 220 0
0.597484 0.105821 0.164056 255 220 0
0.583353 0.130900 0.126226 255 220 0
0.571135 0.063969 0.098687 255 220 0
0.608304 0.164605 0.146283 255 220 0
0.609466 0.078177 0.077277 255 220 0
0.626783 -0.002296 0.082489 255 220 0
0.579672 0.069906 0.136890 255 220 0
0.634873 0.118983 0.122249 255 220 0
0.587818 0.051829 0.069892 255 220 0
0.599801 0.094817 0.163937 255 220 0
0.658019 0.062350 0.110747 255 220 0
0.613180 0.125318 0.112252 255 220 0
0.639760 0.119473 0.128924 255 220 0
0.582390 0.091431 0.092958 255 220 0
0.596308 0.083463 0.081136 255 220 0
0.621644 0.067090 0.073041 255 220 0
0.625697 0.116552 0.169673 255 220 0
0.643992 0.012723 0.104473 255 220 0
0.611502 0.055454 0.065415 255 220 0
0.656989 0.049613 0.125952 255 220 0
0.632750 0.117841 0.119091 255 220 0
0.636438 0.039453 0.144293 255 220 0
0.634628 0.001101 0.089081 255 220 0
0.646204 0.091848 0.159281 255 220 0
0.619628 0.155885 0.153417 255 220 0
0.581298 0.050855 0.132665 255 220 0
0.582070 0.133923 0.132963 255 220 0
0.646856 0.097672 0.115772 255 220 0
0.650047 0.044087 0.135730 255 220 0
0.587461 0.142437 0.153455 255 220 0
0.602023 0.020263 0.130011 255 220 0
0.654162 0.093623 0.131461 255 220 0
0.647402 0.069785 0.152980 255 220 0
0.653051 0.069331 0.102672 255 220 0
0.611860 0.140973 0.122101 255 220 0
0.587880 0.066909 0.147695 255 220 0
0.606465 0.058332 0.156576 255 220 0
0.604943 0.164992 0.138127 255 220 0
0.629904 0.048181 0.066888 255 220 0
0.654756 0.043453 0.094064 255 220 0
0.656599 0.067739 0.110182 255 220 0
0.593433 0.080667 0.080056 255 220 0
0.585316 0.064470 0.143940 255 220 0
0.655338 0.063373 0.103548 255 220 0
0.587751 0.099466 0.154498 255 220 0
0.576019 0.057785 0.125678 255 220 0
0.645411 0.090292 0.159713 255 220 0
0.573926 0.045416 0.111308 255 220 0
0.581266 0.131262 0.137403 255 220 0
0.630000 0.085537 0.089535 255 220 0
0.582080 0.022037 0.096638 255 220 0
0.656218 0.088726 0.135061 255 220 0
0.621209 0.081422 0.082138 255 220 0
0.601837 0.008882 0.114166 255 220 0
0.609523 -0.002422 0.096704 255 220 0
0.617565 0.098784 0.169663 255 220 0
0.583417 0.034284 0.073400 255 220 0
0.616230 0.090546 0.168346 255 220 0
0.572058 0.061463 0.093817 255 220 0
0.655047 0.035692 0.113336 255 220 0
0.653535 0.030160 0.106126 255 220 0
0.617491 0.045699 0.062868 255 220 0
0.582027 0.022848 0.101199 255 220 0
0.648092 0.042194 0.136795 255 220 0
0.589697 0.031823 0.130813 255 220 0
0.646572 0.045548 0.078926 255 220 0
0.583228 0.047140 0.072538 255 220 0
0.588582 0.012036 0.091260 255 220 0
0.649676 0.020442 0.101500 255 220 0
0.633265 0.104680 0.166866 255 220 0
0.574590 0.050421 0.084944 255 220 0
0.584041 0.089158 0.089985 255 220 0
0.623944 0.142161 0.132546 255 220 0
0.582808 0.070025 0.079677 255 220 0
0.575964 0.076263 0.090814 255 220 0
0.651406 0.027861 0.112634 255 220 0
0.617645 -0.004120 0.081725 255 220 0
0.601317 0.143122 0.164812 255 220 0
0.622224 0.081800 0.166178 255 220 0
0.648425 0.094690 0.115644 255 220 0
0.585703 0.109628 0.152748 255 220 0
0.622942 0.075675 0.164346 255 220 0
0.619725 0.099327 0.094793 255 220 0
0.576372 0.102913 0.121505 255 220 0
0.623060 0.020069 0.062914 255 220 0
0.651744 0.029943 0.115809 255 220 0
0.642744 0.061365 0.082083 255 220 0
0.571067 0.057262 0.106665 255 220 0
0.655400 0.074363 0.112643 255 220 0
0.601217 0.109870 0.099538 255 220 0
0.624688 0.032322 0.062184 255 220 0
0.578775 0.036169 0.117509 255 220 0
0.622578 0.054252 0.156197 255 220 0
0.601392 0.068379 0.071554 255 220 0
0.579766 0.068811 0.136778 255 220 0
0.624337 0.068318 0.161637 255 220 0
0.647086 0.073746 0.154658 255 220 0
0.652271 0.025717 0.097001 255 220 0
0.654541 0.033371 0.098025 255 220 0
0.648310 0.046039 0.139321 255 220 0
0.615662 -0.004811 0.091402 255 220 0
0.574682 0.040730 0.108013 255 220 0
0.610628 -0.004189 0.090095 255 220 0
0.624992 0.094919 0.093747 255 220 0
0.591487 0.125582 0.113433 255 220 0
0.603519 0.153161 0.161896 255 220 0
0.582670 0.065637 0.140684 255 220 0
0.622244 0.101387 0.097430 255 220 0
0.589685 0.076367 0.078890 255 220 0
0.572502 0.067269 0.119349 255 220 0
0.584054 0.144926 0.134940 255 220 0
0.597692 0.130941 0.114102 255 220 0
0.658190 0.062790 0.131254 255 220 0
0.650451 0.022403 0.089273 255 220 0
0.658482 0.048029 0.112605 255 220 0
0.638105 0.123532 0.131347 255 220 0
0.607809 0.118107 0.169579 255 220 0
0.586400 0.014901 0.091194 255 220 0
0.578833 0.039311 0.120761 255 220 0
0.652633 0.099786 0.136639 255 220 0
0.605867 0.136139 0.167715 255 220 0
0.587262 0.048373 0.139305 255 220 0
0.640231 0.092012 0.102121 255 220 0
0.603321 0.130976 0.167639 255 220 0
0.657330 0.064202 0.109625 255 220 0
0.620559 0.103076 0.098008 255 220 0
0.597115 0.100337 0.092753 255 220 0
0.584418 0.086842 0.088121 255 220 0
0.629858 0.111381 0.168337 255 220 0
0.615647 0.119588 0.170802 255 220 0
0.571958 0.083283 0.110930 255 220 0
0.603296 0.165276 0.138310 255 220 0
0.583455 0.043062 0.131455 255 220 0
0.628301 0.094422 0.095228 255 220 0
0.607966 0.081189 0.079141 255 220 0
0.586948 0.136601 0.154020 255 220 0
0.596747 0.004205 0.095283 255 220 0
0.603379 0.006667 0.111871 255 220 0
0.603316 0.019424 0.063682 255 220 0
0.600817 0.109714 0.099437 255 220 0
0.587109 0.109229 0.103931 255 220 0
0.639335 0.005209 0.087238 255 220 0
0.654289 0.043058 0.127468 255 220 0
0.585591 0.150353 0.146067 255 220 0
0.578991 0.027895 0.093610 255 220 0
0.615676 -0.002351 0.099889 255 220 0
0.590753 0.059553 0.147965 255 220 0
0.572867 0.065015 0.119831 255 220 0
0.611635 0.120808 0.170395 255 220 0
0.597343 0.154364 0.158759 255 220 0
0.606086 -0.001325 0.080465 255 220 0
0.634244 0.135050 0.141497 255 220 0
0.579972 0.029597 0.082508 255 220 0
0.617163 0.025936 0.138936 255 220 0
0.584381 0.142553 0.131892 255 220 0
0.596647 0.083729 0.081247 255 220 0
0.629327 0.122271 0.119954 255 220 0
0.623657 0.120275 0.170102 255 220 0
0.619918 0.042404 0.150566 255 220 0
0.621386 0.004530 0.069051 255 220 0
0.581936 0.056396 0.136219 255 220 0
0.621479 0.150623 0.137120 255 220 0
0.648954 0.030007 0.123061 255 220 0
0.579398 0.039045 0.121722 255 220 0
0.586842 0.088555 0.151644 255 220 0
0.619138 0.139054 0.125366 255 220 0
0.602192 0.095745 0.089028 255 220 0
0.603728 0.060607 0.156518 255 220 0
0.593870 0.142329 0.160719 255 220 0
0.584272 0.099872 0.098147 255 220 0
0.585916 0.140425 0.127437 255 220 0
0.576634 0.101448 0.130840 255 220 0
0.575983 0.095745 0.130058 255 220 0
0.583237 0.104813 0.103747 255 220 0
0.627553 0.016866 0.127772 255 220 0
0.630258 0.067509 0.077224 255 220 0
0.659338 0.064248 0.121897 255 220 0
0.581946 0.102777 0.145893 255 220 0
0.646070 0.082789 0.101177 255 220 0
0.575377 0.036838 0.094618 255 220 0
0.643128 0.021979 0.074631 255 220 0
0.623885 0.084842 0.085688 255 220 0
0.652693 0.051936 0.137127 255 220 0
0.657420 0.083349 0.132560 255 220 0
0.582549 0.053017 0.073827 255 220 0
0.659291 0.057470 0.120061 255 220 0
0.629457 0.142090 0.158042 255 220 0
0.582446 0.137724 0.135557 255 220 0
0.654350 0.038142 0.092933 255 220 0
0.617904 0.050391 0.154717 255 220 0
0.605759 0.048581 0.152068 255 220 0
0.592929 0.011846 0.107878 255 220 0
0.657639 0.074252 0.120444 255 220 0
0.586080 0.101048 0.097687 255 220 0
0.576119 0.063230 0.127834 255 220 0
0.612702 0.160336 0.136398 255 220 0
0.636671 0.129754 0.137893 255 220 0
0.635917 0.002381 0.095789 255 220 0
0.616087 0.079899 0.079528 255 220 0
0.595554 0.005344 0.095951 255 220 0
0.604074 0.131060 0.113928 255 220 0
0.614363 0.109874 0.101200 255 220 0
0.611853 0.139711 0.167874 255 220 0
0.650206 0.056264 0.143608 255 220 0
0.629308 0.042161 0.064886 255 220 0
0.590539 0.117141 0.108086 255 220 0
0.598596 0.126615 0.165730 255 220 0
0.637875 0.035691 0.140640 255 220 0
0.639627 0.006994 0.101782 255 220 0
0.603827 0.033568 0.142100 255 220 0
0.653308 0.028997 0.102794 255 220 0
0.600558 0.087900 0.163038 255 220 0
0.613048 -0.004754 0.086862 255 220 0
0.580275 0.125070 0.133433 255 220 0
0.654310 0.084586 0.119823 255 220 0
0.603423 0.052483 0.153094 255 220 0
0.608243 0.077122 0.076508 255 220 0
0.575713 0.069418 0.087768 255 220 0
0.656737 0.085143 0.141735 255 220 0
0.622164 0.019555 0.062797 255 220 0
0.653052 0.080439 0.112141 255 220 0
0.582803 0.061431 0.076049 255 220 0
0.600333 0.011183 0.069417 255 220 0
0.610704 0.080851 0.165320 255 220 0
0.654689 0.079680 0.115810 255 220 0
0.619669 0.070937 0.074709 255 220 0
0.606344 0.001340 0.103712 255 220 0
0.645793 0.088856 0.159278 255 220 0
0.655869 0.066114 0.140842 255 220 0
0.608314 0.148698 0.125038 255 220 0
0.584096 0.147017 0.137433 255 220 0
0.620015 0.021279 0.134578 255 220 0
0.623891 0.101394 0.098234 255 220 0
0.637241 0.099380 0.105920 255 220 0
0.650536 0.048703 0.138298 255 220 0
0.574079 0.070291 0.124704 255 220 0
0.652504 0.028957 0.110071 255 220 0
0.649614 0.041641 0.082207 255 220 0
0.596424 0.044220 0.064386 255 220 0
0.644664 0.063294 0.152163 255 220 0
0.608919 0.146891 0.165376 255 220 0
0.586489 0.131647 0.121526 255 220 0
0.581164 0.034507 0.120928 255 220 0
0.618864 0.065761 0.161098 255 220 0
0.595118 0.009024 0.076553 255 220 0
0.633215 0.034346 0.142125 255 220 0
0.571364 0.074482 0.102736 255 220 0
0.589908 0.023953 0.122267 255 220 0
0.617928 0.094330 0.090412 255 220 0
0.581546 0.130297 0.131556 255 220 0
0.621846 0.134754 0.168757 255 220 0
0.611412 0.036236 0.060885 255 220 0
0.654361 0.035268 0.094222 255 220 0
0.604953 0.055608 0.065517 255 220 0
0.572435 0.082776 0.105219 255 220 0
0.572213 0.048161 0.102398 255 220 0
0.571620 0.054082 0.096322 255 220 0
0.648566 0.074875 0.098702 255 220 0
0.653150 0.097763 0.146057 255 220 0
0.627486 0.137301 0.165832 255 220 0
0.638566 0.123147 0.131652 255 220 0
0.645971 0.012642 0.092146 255 220 0
0.610320 0.154462 0.162090 255 220 0
0.645071 0.034157 0.133265 255 220 0
0.628455 0.050990 0.153749 255 220 0
0.614087 0.019412 0.133021 255 220 0
0.587445 0.037227 0.132654 255 220 0
0.626254 0.077513 0.081611 255 220 0
0.600504 0.081945 0.161649 255 220 0
0.645177 0.014079 0.083681 255 220 0
0.627934 0.073858 0.080019 255 220 0
0.626794 0.035094 0.144928 255 220 0
0.594415 0.131102 0.162782 255 220 0
0.620569 -0.004718 0.089816 255 220 0
0.581823 0.122008 0.145175 255 220 0
0.634491 0.068708 0.159215 255 220 0
0.614389 0.072529 0.074407 255 220 0
0.641203 0.016142 0.115797 255 220 0
0.651402 0.043531 0.133294 255 220 0
0.633483 0.118320 0.120242 255 220 0
0.570951 0.063928 0.111020 255 220 0
0.600792 0.124118 0.109712 255 220 0
0.596950 0.161046 0.152342 255 220 0
0.616077 0.151245 0.131636 255 220 0
0.609785 0.015808 0.063168 255 220 0
0.604573 0.018224 0.129253 255 220 0
0.651653 0.027570 0.110858 255 220 0
0.622115 0.011253 0.122857 255 220 0
0.587247 0.123127 0.155546 255 220 0
0.577905 0.079879 0.135315 255 220 0
0.604458 -0.001727 0.085463 255 220 0
0.652488 0.042959 0.087918 255 220 0
0.598363 0.152888 0.160111 255 220 0
0.611949 0.159192 0.134056 255 220 0
0.630672 0.115059 0.114676 255 220 0
0.601625 0.045650 0.148891 255 220 0
0.637234 0.129232 0.138542 255 220 0
0.638685 0.004271 0.093961 255 220 0
0.582599 0.032709 0.121612 255 220 0
0.631419 0.032726 0.064454 255 220 0
0.630659 0.041114 0.065179 255 220 0
0.620985 0.048734 0.153800 255 220 0
0.580528 0.025827 0.086660 255 220 0
0.584351 0.020114 0.104588 255 220 0
0.627830 0.069457 0.161425 255 220 0
0.581209 0.041389 0.126821 255 220 0
0.596855 0.025362 0.131639 255 220 0
0.650915 0.103128 0.134265 255 220 0
0.623889 0.042245 0.150085 255 220 0
0.612602 0.016090 0.062697 255 220 0
0.595202 0.074271 0.156298 255 220 0
0.627713 0.142481 0.161375 255 220 0
0.621984 0.057409 0.068006 255 220 0
0.582786 0.088531 0.090511 255 220 0
0.629112 0.112789 0.111347 255 220 0
0.629797 0.143237 0.153249 255 220 0
0.594633 0.041641 0.064743 255 220 0
0.656270 0.042340 0.100449 255 220 0
0.654203 0.040282 0.124766 255 220 0
0.648154 0.109071 0.134310 255 220 0
0.595077 0.069366 0.073296 255 220 0
0.572810 0.068158 0.120590 255 220 0
0.642438 0.101694 0.162162 255 220 0
0.634480 0.102956 0.166302 255 220 0
0.620694 0.017644 0.062905 255 220 0
0.623821 0.001096 0.106314 255 220 0
0.607352 0.008525 0.117931 255 220 0
0.594306 0.016458 0.069974 255 220 0
0.577894 0.108948 0.133549 255 220 0
0.580884 0.076052 0.084444 255 220 0
0.594543 0.133345 0.162696 255 220 0
0.620901 0.138427 0.167975 255 220 0
0.607997 0.164099 0.148903 255 220 0
0.571437 0.058051 0.096414 255 220 0
0.584080 0.142751 0.145888 255 220 0
0.622994 0.122774 0.170115 255 220 0
0.622319 0.081856 0.166182 255 220 0
0.656697 0.049680 0.101384 255 220 0
0.571962 0.083085 0.109971 255 220 0
0.653736 0.030435 0.096889 255 220 0
0.611967 0.022528 0.061298 255 220 0
0.619104 -0.003749 0.096127 255 220 0
0.634084 0.132530 0.160836 255 220 0
0.586335 0.058282 0.142894 255 220 0
0.599815 0.148869 0.123447 255 220 0
0.574326 0.047716 0.086185 255 220 0
0.601631 0.160346 0.155355 255 220 0
0.602300 0.114145 0.102708 255 220 0
0.585105 0.047046 0.136034 255 220 0
0.577159 0.034930 0.110157 255 220 0
0.627841 0.132395 0.127779 255 220 0
0.657163 0.053655 0.128296 255 220 0
0.602870 -0.000363 0.093606 255 220 0
0.600969 0.050905 0.064565 255 220 0
0.655502 0.068862 0.108051 255 220 0
0.634350 0.028682 0.066031 255 220 0
0.603194 0.029393 0.061731 255 220 0
0.641712 0.114067 0.125501 255 220 0
0.583556 0.033717 0.073372 255 220 0
0.577667 0.063971 0.131404 255 220 0
0.648319 0.064987 0.150224 255 220 0
0.612485 0.003677 0.069518 255 220 0
0.579266 0.059814 0.078879 255 220 0
0.580558 0.027696 0.082889 255 220 0
0.601450 0.120247 0.167231 255 220 0
0.625734 0.062459 0.071944 255 220 0
0.602470 0.082030 0.079556 255 220 0
0.584235 0.058058 0.140184 255 220 0
0.597363 0.022700 0.129130 255 220 0
0.647274 0.090151 0.109309 255 220 0
0.658485 0.072212 0.122586 255 220 0
0.606371 0.145409 0.165509 255 220 0
0.600752 0.000413 0.089338 255 220 0
0.576887 0.036181 0.111276 255 220 0
0.592382 0.028072 0.130125 255 220 0
0.597978 0.029669 0.063318 255 220 0
0.603328 0.043077 0.148199 255 220 0
0.640294 0.094461 0.104322 255 220 0
0.634622 0.126220 0.129340 255 220 0
0.647327 0.065495 0.090157 255 220 0
0.654584 0.032862 0.101019 255 220 0
0.597281 0.004592 0.081072 255 220 0
0.653241 0.029598 0.106757 255 220 0
0.638919 0.078612 0.160691 255 220 0
0.593398 0.037080 0.138451 255 220 0
0.593818 0.099038 0.092468 255 220 0
0.599061 0.101614 0.093460 255 220 0
0.601548 0.050764 0.151472 255 220 0
0.655146 0.089621 0.129346 255 220 0
0.575054 0.038570 0.105308 255 220 0
0.585354 0.126912 0.152500 255 220 0
0.626974 0.018435 0.064565 255 220 0
0.625947 0.003050 0.072142 255 220 0
0.584024 0.086207 0.147322 255 220 0
0.606832 0.164964 0.139938 255 220 0
0.621662 0.100388 0.169561 255 220 0
0.580633 0.036696 0.122040 255 220 0
0.600163 0.062728 0.069010 255 220 0
0.599053 0.078941 0.077865 255 220 0
0.639855 0.062058 0.080006 255 220 0
0.634455 0.018052 0.125176 255 220 0
0.645017 0.105497 0.120922 255 220 0
0.635241 0.003881 0.102376 255 220 0
0.590482 0.072476 0.076470 255 220 0
0.612037 0.147949 0.126511 255 220 0
0.608884 0.163240 0.136971 255 220 0
0.579279 0.092255 0.139573 255 220 0
0.611819 0.004340 0.112761 255 220 0
0.612310 0.011755 0.124231 255 220 0
0.643601 0.013562 0.080923 255 220 0
0.625705 0.052503 0.155012 255 220 0
0.592618 0.025100 0.067018 255 220 0
0.584539 0.054163 0.138911 255 220 0
0.648517 0.101955 0.155819 255 220 0
0.616478 0.047616 0.153374 255 220 0
0.576005 0.036625 0.107319 255 220 0
0.643911 0.117042 0.154220 255 220 0
0.653449 0.078432 0.111255 255 220 0
0.581993 0.133797 0.141521 255 220 0
0.607878 0.124732 0.169488 255 220 0
0.602858 0.003075 0.104091 255 220 0
0.592529 0.125753 0.112932 255 220 0
0.624141 0.147379 0.160935 255 220 0
0.641106 0.034174 0.137010 255 220 0
0.603098 0.066309 0.158276 255 220 0
0.597360 0.155948 0.127691 255 220 0
0.588411 0.048763 0.068947 255 220 0
0.642147 0.084874 0.160733 255 220 0
0.578670 0.115571 0.132597 255 220 0
0.618926 0.131059 0.119016 255 220 0
0.655265 0.068727 0.107320 255 220 0
0.577587 0.069462 0.132741 255 220 0
0.599906 0.050574 0.064700 255 220 0
0.633127 0.000350 0.094343 255 220 0
0.599124 0.148969 0.162103 255 220 0
0.574449 0.039413 0.096892 255 220 0
0.623530 0.119555 0.112914 255 220 0
0.615858 0.117964 0.107832 255 220 0
0.608235 0.124191 0.110260 255 220 0
0.646918 0.102101 0.158046 255 220 0
0.625313 0.120294 0.114807 255 220 0
0.590949 0.106187 0.099007 255 220 0
0.648420 0.079001 0.101708 255 220 0
0.644242 0.042814 0.075330 255 220 0
0.590267 0.033066 0.067039 255 220 0
0.631012 0.136748 0.162182 255 220 0
0.591754 0.148230 0.125533 255 220 0
0.646820 0.048419 0.080254 255 220 0
0.608413 0.070291 0.161408 255 220 0
0.601023 0.023364 0.132620 255 220 0
0.584429 0.115186 0.112088 255 220 0
0.575351 0.064280 0.126367 255 220 0
0.641222 0.009031 0.103101 255 220 0
0.588870 0.088509 0.154022 255 220 0
0.653982 0.046881 0.131289 255 220 0
0.585854 0.143390 0.129261 255 220 0
0.647257 0.024667 0.079266 255 220 0
0.599217 0.110329 0.100010 255 220 0
0.634106 0.039676 0.145594 255 220 0
0.615521 -0.004334 0.082507 255 220 0
0.642958 0.121265 0.145697 255 220 0
0.597894 0.160853 0.131411 255 220 0
0.608707 0.112804 0.102237 255 220 0
0.634097 0.033758 0.141232 255 220 0
0.572073 0.059499 0.093386 255 220 0
0.613432 0.160725 0.138167 255 220 0
0.656806 0.041388 0.116023 255 220 0
0.576920 0.101681 0.114395 255 220 0
0.656015 0.079332 0.145371 255 220 0
0.639679 0.094881 0.104104 255 220 0
0.617679 0.102545 0.096532 255 220 0
0.650236 0.083383 0.154710 255 220 0
0.658816 0.072715 0.133393 255 220 0
0.573457 0.089910 0.118981 255 220 0
0.610726 0.098604 0.091884 255 220 0
0.584902 0.140025 0.129028 255 220 0
0.579709 0.028978 0.108850 255 220 0
0.600485 0.160538 0.130646 255 220 0
0.650065 0.024099 0.085547 255 220 0
0.616185 0.001466 0.108145 255 220 0
0.591780 0.050624 0.144894 255 220 0
0.617206 0.062716 0.069462 255 220 0
0.582693 0.110837 0.110550 255 220 0
0.637888 0.112498 0.164522 255 220 0
0.592728 0.095679 0.090309 255 220 0
0.596870 0.022490 0.128425 255 220 0
0.600815 0.012766 0.119277 255 220 0
0.589227 0.045490 0.139799 255 220 0
0.647768 0.027828 0.122205 255 220 0
0.580465 0.112995 0.117304 255 220 0
0.572626 0.083596 0.105226 255 220 0
0.613189 0.081675 0.080111 255 220 0
0.649991 0.028094 0.082941 255 220 0
0.605361 0.009724 0.118524 255 220 0
0.653744 0.062187 0.142353 255 220 0
0.609333 0.012483 0.064595 255 220 0
0.589128 0.017777 0.112251 255 220 0
0.587454 0.154436 0.134462 255 220 0
0.586562 0.153268 0.146382 255 220 0
0.625131 0.005655 0.113788 255 220 0
0.586619 0.146214 0.129650 255 220 0
0.618923 0.011176 0.123458 255 220 0
0.594573 0.069661 0.073593 255 220 0
0.640336 0.081035 0.093386 255 220 0
0.591698 0.037337 0.137182 255 220 0
0.572687 0.080607 0.120940 255 220 0
0.630702 0.008032 0.114387 255 220 0
0.605982 0.011869 0.122039 255 220 0
0.582754 0.039417 0.127840 255 220 0
0.628574 0.014579 0.124515 255 220 0
0.640734 0.119218 0.159607 255 220 0
0.625178 0.130727 0.123580 255 220 0
0.645014 0.077922 0.157370 255 220 0
0.607826 0.103717 0.095280 255 220 0
0.584942 0.150018 0.143693 255 220 0
0.607343 0.061680 0.067923 255 220 0
0.589272 0.070451 0.075986 255 220 0
0.601596 0.107048 0.166518 255 220 0
0.631939 0.139438 0.143730 255 220 0
0.658934 0.052278 0.112922 255 220 0
0.615034 0.100428 0.169781 255 220 0
0.581325 0.114659 0.144617 255 220 0
0.570666 0.068262 0.109851 255 220 0
0.576883 0.105794 0.127885 255 220 0
0.571979 0.082797 0.115082 255 220 0
0.639404 0.127568 0.144745 255 220 0
0.607045 0.091216 0.166624 255 220 0
0.578459 0.063757 0.132900 255 220 0
0.631384 0.050571 0.152754 255 220 0
0.586608 0.106593 0.102042 255 220 0
0.646278 0.066516 0.089396 255 220 0
0.609808 0.019809 0.062035 255 220 0
0.590493 0.034728 0.066754 255 220 0
0.655457 0.043720 0.096525 255 220 0
0.642672 0.117427 0.157168 255 220 0
0.629621 0.040491 0.147774 255 220 0
0.620181 0.101675 0.169859 255 220 0
0.629998 0.100212 0.167661 255 220 0
0.585361 0.023597 0.114900 255 220 0
0.652534 0.085595 0.115851 255 220 0
0.592406 0.009231 0.081179 255 220 0
0.593904 0.006978 0.096687 255 220 0
0.637164 0.131210 0.152726 255 220 0
0.590413 0.136408 0.120305 255 220 0
0.576921 0.090285 0.099216 255 220 0
0.649062 0.105375 0.152572 255 220 0
0.652434 0.081987 0.151971 255 220 0
0.592904 0.055727 0.068431 255 220 0
0.624041 0.069384 0.075305 255 220 0
0.587965 0.064315 0.146946 255 220 0
0.618803 0.104770 0.098641 255 220 0
0.606668 -0.001529 0.080267 255 220 0
0.645481 0.085285 0.158910 255 220 0
0.585817 0.107348 0.152733 255 220 0
0.657478 0.081747 0.129591 255 220 0
0.588226 0.030800 0.127996 255 220 0
0.580295 0.124882 0.132495 255 220 0
0.632426 0.107402 0.167279 255 220 0
0.644262 0.085936 0.101370 255 220 0
0.596357 0.033470 0.063704 255 220 0
0.611142 0.038088 0.061076 255 220 0
0.577826 0.111029 0.127696 255 220 0
0.659165 0.067458 0.127927 255 220 0
0.601567 0.003946 0.075918 255 220 0
0.638122 0.062938 0.155584 255 220 0
0.591179 0.086541 0.155982 255 220 0
0.643863 0.118699 0.139444 255 220 0
0.600394 0.132363 0.166297 255 220 0
0.629770 0.133624 0.165765 255 220 0
0.655557 0.044331 0.125502 255 220 0
0.634438 0.116860 0.166279 255 220 0
0.654100 0.095752 0.136426 255 220 0
0.581080 0.129710 0.134339 255 220 0
0.597485 0.122321 0.108999 255 220 0
0.582955 0.106584 0.105842 255 220 0
0.624519 0.138412 0.167018 255 220 0
0.579544 0.103094 0.107908 255 220 0
0.646350 0.030832 0.076531 255 220 0
0.586676 0.148234 0.130826 255 220 0
0.655092 0.063764 0.103211 255 220 0
0.622106 0.151205 0.158509 255 220 0
0.580231 0.027847 0.108399 255 220 0
0.650157 0.105205 0.148774 255 220 0
0.615203 0.010737 0.064582 255 220 0
0.629632 0.085866 0.165695 255 220 0
0.657449 0.058600 0.106628 255 220 0
0.595354 0.024838 0.129690 255 220 0
0.626868 0.033505 0.143741 255 220 0
0.578138 0.062411 0.081190 255 220 0
0.620315 0.125526 0.170298 255 220 0
0.621358 0.002909 0.070467 255 220 0
0.593526 0.124551 0.162333 255 220 0
0.594305 0.126928 0.112818 255 220 0
0.632571 0.037978 0.145093 255 220 0
0.610295 0.074882 0.075271 255 220 0
0.573857 0.047807 0.113593 255 220 0
0.574839 0.059325 0.123404 255 220 0
0.586219 0.017094 0.081202 255 220 0
0.649327 0.107832 0.138115 255 220 0
0.594955 0.026803 0.065159 255 220 0
0.595205 0.161796 0.149916 255 220 0
0.646925 0.014517 0.097377 255 220 0
0.586823 0.038905 0.133115 255 220 0
0.598602 0.028553 0.135787 255 220 0
0.593772 0.012288 0.110093 255 220 0
0.574992 0.062112 0.086170 255 220 0
0.606487 0.006230 0.069640 255 220 0
0.602323 0.097052 0.165631 255 220 0
0.594784 0.152687 0.157907 255 220 0
0.658784 0.055828 0.111271 255 220 0
0.654907 0.033946 0.107209 255 220 0
0.590837 0.089184 0.156180 255 220 0
0.620326 0.027732 0.061319 255 220 0
0.616666 0.018667 0.062081 255 220 0
0.594389 0.145476 0.160296 255 220 0
0.653365 0.095318 0.148094 255 220 0
0.614674 0.046789 0.062836 255 220 0
0.609526 0.139409 0.120134 255 220 0
0.571698 0.066194 0.096626 255 220 0
0.582515 0.077674 0.143348 255 220 0
0.601394 0.028532 0.137261 255 220 0
0.591507 0.028766 0.129881 255 220 0
0.641477 0.075395 0.158525 255 220 0
0.640591 0.121790 0.157777 255 220 0
0.658938 0.053368 0.120067 255 220 0
0.655624 0.044549 0.097129 255 220 0
0.610119 0.048898 0.063186 255 220 0
0.595349 0.006120 0.098349 255 220 0
0.654046 0.088034 0.122836 255 220 0
0.612490 0.035066 0.060781 255 220 0
0.630769 0.141937 0.146381 255 220 0
0.627771 0.012449 0.122234 255 220 0
0.647336 0.106389 0.126805 255 220 0
0.615633 0.153936 0.133129 255 220 0
0.621950 0.153895 0.142503 255 220 0
0.579138 0.079804 0.088392 255 220 0
0.638483 0.045770 0.147177 255 220 0
0.640990 0.010007 0.105710 255 220 0
0.593610 0.047744 0.144927 255 220 0
0.597693 0.150280 0.160879 255 220 0
0.610671 0.006044 0.115431 255 220 0
0.572144 0.049339 0.105223 255 220 0
0.652693 0.075801 0.107158 255 220 0
0.596548 0.147453 0.161198 255 220 0
0.625412 0.042411 0.149939 255 220 0
0.597120 0.003890 0.083758 255 220 0
0.638677 0.007611 0.105099 255 220 0
0.648404 0.074745 0.098342 255 220 0
0.646161 0.104936 0.158238 255 220 0
0.617400 -0.001019 0.074905 255 220 0
0.613943 0.055078 0.065477 255 220 0
0.587260 0.156066 0.137463 255 220 0
0.606670 -0.001139 0.097612 255 220 0
0.657794 0.063834 0.110940 255 220 0
0.625271 0.149802 0.152626 255 220 0
0.633309 0.135992 0.157907 255 220 0
0.598658 0.008051 0.109160 255 220 0
0.634874 0.131822 0.136972 255 220 0
0.636423 0.007946 0.076206 255 220 0
0.626211 0.037595 0.146792 255 220 0
0.600804 0.113152 0.166619 255 220 0
0.656690 0.074797 0.117222 255 220 0
0.649267 0.051101 0.084865 255 220 0
0.613906 0.064868 0.160493 255 220 0
0.576431 0.071678 0.130738 255 220 0
0.638206 0.108116 0.164607 255 220 0
0.632406 0.020289 0.129203 255 220 0
0.620089 0.156758 0.145373 255 220 0
0.574060 0.063687 0.122931 255 220 0
0.576807 0.042806 0.081555 255 220 0
0.590718 0.081677 0.154526 255 220 0
0.606521 0.122634 0.169200 255 220 0
0.618537 0.028901 0.141362 255 220 0
0.645306 0.043776 0.076811 255 220 0
0.627611 0.095286 0.095482 255 220 0
0.621561 0.153337 0.140475 255 220 0
0.601993 0.121620 0.167500 255 220 0
0.649929 0.019890 0.093927 255 220 0
0.647858 0.110241 0.135901 255 220 0
0.616509 0.081823 0.166369 255 220 0
0.582004 0.135076 0.134981 255 220 0
0.585457 0.127956 0.120556 255 220 0
0.583822 0.082870 0.085987 255 220 0
0.650862 0.102576 0.149824 255 220 0
0.571716 0.050936 0.102958 255 220 0
0.584121 0.107585 0.105354 255 220 0
0.621794 0.136772 0.168289 255 220 0
0.623382 0.152648 0.144394 255 220 0
0.621932 0.000625 0.106021 255 220 0
0.625385 0.145698 0.137885 255 220 0
0.587764 0.036988 0.132852 255 220 0
0.600605 0.002827 0.079006 255 220 0
0.570682 0.065676 0.102705 255 220 0
0.587948 0.129843 0.118810 255 220 0
0.582774 0.140735 0.139032 255 220 0
0.595745 0.158695 0.130151 255 220 0
0.617087 -0.003544 0.096894 255 220 0
0.634809 0.086516 0.164235 255 220 0
0.653300 0.063255 0.098883 255 220 0
0.625396 -0.002972 0.083072 255 220 0
0.635765 0.087314 0.094744 255 220 0
0.631484 0.014864 0.123230 255 220 0
0.606268 0.094235 0.166894 255 220 0
0.606912 0.080790 0.164201 255 220 0
0.631574 0.140309 0.144695 255 220 0
0.655448 0.059408 0.136962 255 220 0
0.631005 0.015218 0.067462 255 220 0
0.606526 0.116899 0.169170 255 220 0
0.573378 0.086136 0.122103 255 220 0
0.582683 0.047784 0.133160 255 220 0
0.626830 0.083820 0.086394 255 220 0
0.571802 0.065295 0.116132 255 220 0
0.574502 0.043122 0.088205 255 220 0
0.591007 0.106820 0.099484 255 220 0
0.582064 0.048783 0.132781 255 220 0
0.579254 0.028808 0.105651 255 220 0
0.653336 0.058057 0.095791 255 220 0
0.598035 0.104408 0.095667 255 220 0
0.581965 0.023670 0.104324 255 220 0
0.612535 0.008079 0.119167 255 220 0
0.604214 0.082806 0.163663 255 220 0
0.597605 0.019499 0.125390 255 220 0
0.579442 0.033545 0.116095 255 220 0
0.653673 0.034012 0.091574 255 220 0
0.618755 0.052392 0.065146 255 220 0
0.641623 0.030971 0.071282 255 220 0
0.606011 0.056836 0.155851 255 220 0
0.612850 0.160147 0.136309 255 220 0
0.619575 0.028542 0.061165 255 220 0
0.630939 0.124353 0.167433 255 220 0
0.581563 0.123963 0.125115 255 220 0
0.657338 0.063069 0.108857 255 220 0
0.637728 0.048197 0.148962 255 220 0
0.616282 0.026535 0.139416 255 220 0
0.608574 0.019900 0.132561 255 220 0
0.650198 0.030957 0.121858 255 220 0
0.605296 0.080236 0.078375 255 220 0
0.633998 0.136935 0.150271 255 220 0
0.598336 0.098449 0.091188 255 220 0
0.634690 0.007538 0.110287 255 220 0
0.639469 0.069061 0.084207 255 220 0
0.637037 0.048516 0.149483 255 220 0
0.612436 0.008829 0.120260 255 220 0
0.642837 0.036919 0.137916 255 220 0
0.657317 0.084450 0.135817 255 220 0
0.638220 0.054959 0.074723 255 220 0
0.582884 0.103459 0.147663 255 220 0
0.606117 0.032742 0.142323 255 220 0
0.581949 0.078536 0.142605 255 220 0
0.613188 0.006021 0.067437 255 220 0
0.600056 0.058127 0.067130 255 220 0
0.583342 0.100519 0.099586 255 220 0
0.588566 0.035723 0.132821 255 220 0
0.577374 0.033434 0.107901 255 220 0
0.624287 0.075977 0.164254 255 220 0
0.651628 0.024782 0.091790 255 220 0
0.591984 0.046616 0.142973 255 220 0
0.590288 0.051952 0.144211 255 220 0
0.652467 0.026265 0.098696 255 220 0
0.591239 0.101577 0.158560 255 220 0
0.652410 0.029363 0.111709 255 220 0
0.632973 0.127400 0.165413 255 220 0
0.603757 0.034624 0.061513 255 220 0
0.639030 0.068734 0.157384 255 220 0
0.633269 0.043438 0.148312 255 220 0
0.591795 0.008398 0.092406 255 220 0
0.612005 0.161178 0.136835 255 220 0
0.579636 0.107223 0.140679 255 220 0
0.577626 0.045249 0.122626 255 220 0
0.587351 0.025895 0.071357 255 220 0
0.625957 0.022658 0.134597 255 220 0
0.625065 0.083161 0.166105 255 220 0
0.610119 0.001823 0.072245 255 220 0
0.592351 0.121486 0.110256 255 220 0
0.656219 0.067142 0.108582 255 220 0
0.581846 0.048080 0.073863 255 220 0
0.595163 0.007920 0.078205 255 220 0
0.613141 0.157733 0.133786 255 220 0
0.651116 0.085181 0.154041 255 220 0
0.581614 0.022666 0.092084 255 220 0
0.618424 0.052733 0.065212 255 220 0
0.633997 0.036024 0.065907 255 220 0
0.624433 0.120677 0.114463 255 220 0
0.651808 0.102450 0.143957 255 220 0
0.644864 0.098390 0.113327 255 220 0
0.651258 0.076937 0.105119 255 220 0
0.610224 0.161099 0.134656 255 220 0
0.638086 0.106107 0.112941 255 220 0
0.609526 0.154880 0.128935 255 220 0
0.650740 0.105085 0.140209 255 220 0
0.654684 0.064519 0.102752 255 220 0
0.632141 0.137656 0.140344 255 220 0
0.646408 0.099920 0.117310 255 220 0
0.601547 0.154673 0.126602 255 220 0
