ply
format ascii 1.0
element vertex 1024
property float x
property float y
property float z
property uchar red
property uchar green
property uchar blue
end_header
0.452533 0.070806 0.094941 255 220 0
0.393704 0.085236 0.063497 255 220 0
0.465110 0.036576 0.038925 255 220 0
0.421543 0.019816 0.065901 255 220 0
0.457674 0.066282 0.020665 255 220 0
0.403324 0.081524 0.021271 255 220 0
0.453273 0.058981 0.090580 255 220 0
0.484634 0.135756 0.092413 255 220 0
0.489072 0.064993 0.065537 255 220 0
0.428855 0.060452 0.009148 255 220 0
0.420915 0.021294 0.067838 255 220 0
0.416246 0.017370 0.013756 255 220 0
0.424246 0.078652 0.015311 255 220 0
0.453021 0.051550 0.086864 255 220 0
0.462046 0.032387 0.056465 255 220 0
0.409900 0.105884 0.068692 255 220 0
0.379724 0.037143 0.027911 255 220 0
0.475372 0.095842 0.095849 255 220 0
0.417297 0.106232 0.076889 255 220 0
0.439249 0.039172 0.082478 255 220 0
0.438398 0.030861 0.075474 255 220 0
0.456377 0.053036 0.086414 255 220 0
0.384924 0.074567 0.053612 255 220 0
0.389418 0.023097 0.018167 255 220 0
0.406959 0.083949 0.021338 255 220 0
0.405667 0.078034 0.018010 255 220 0
0.476703 0.138170 0.051020 255 220 0
0.457186 0.040819 0.024267 255 220 0
0.402752 0.029842 0.009028 255 220 0
0.466377 0.159188 0.059851 255 220 0
0.470620 0.043801 0.039309 255 220 0
0.499224 0.139731 0.078170 255 220 0
0.488401 0.081674 0.046054 255 220 0
0.469886 0.161766 0.060912 255 220 0
0.446643 0.090273 0.096889 255 220 0
0.423187 0.008441 0.035808 255 220 0
0.455024 0.106965 0.032661 255 220 0
0.423495 0.048912 0.087096 255 220 0
0.499228 0.138113 0.080111 255 220 0
0.490867 0.083518 0.049157 255 220 0
0.431519 0.120460 0.043547 255 220 0
0.501262 0.123809 0.073293 255 220 0
0.459346 0.041488 0.025912 255 220 0
0.451217 0.040442 0.019319 255 220 0
0.464966 0.147591 0.088559 255 220 0
0.451481 0.097477 0.027482 255 220 0
0.435921 0.037679 0.081811 255 220 0
0.462406 0.037333 0.032748 255 220 0
0.434113 0.070097 0.093979 255 220 0
0.386111 0.021734 0.023449 255 220 0
0.472424 0.065485 0.031475 255 220 0
0.493119 0.120002 0.089273 255 220 0
0.438863 0.054049 0.090688 255 220 0
0.439653 0.087721 0.095446 255 220 0
0.433973 0.045620 0.086798 255 220 0
0.407357 0.099304 0.071829 255 220 0
0.449151 0.023457 0.035571 255 220 0
0.395340 0.021527 0.057517 255 220 0
0.415217 0.096536 0.027709 255 220 0
0.390945 0.071045 0.022766 255 220 0
0.482962 0.082342 0.039959 255 220 0
0.392917 0.029749 0.061701 255 220 0
0.478653 0.140934 0.092789 255 220 0
0.445965 0.027171 0.067207 255 220 0
0.430752 0.015412 0.022742 255 220 0
0.497722 0.144610 0.074375 255 220 0
0.407295 0.051202 0.081374 255 220 0
0.463585 0.109786 0.036266 255 220 0
0.466508 0.039067 0.064427 255 220 0
0.483383 0.080092 0.040485 255 220 0
0.457763 0.028079 0.044056 255 220 0
0.463182 0.125594 0.043020 255 220 0
0.487468 0.092966 0.044745 255 220 0
0.496535 0.119586 0.060486 255 220 0
0.446480 0.044493 0.084602 255 220 0
0.486289 0.134105 0.054003 255 220 0
0.403670 0.031820 0.070709 255 220 0
0.455169 0.044732 0.081370 255 220 0
0.476796 0.064419 0.035773 255 220 0
0.436582 0.110843 0.088936 255 220 0
0.458507 0.137837 0.090305 255 220 0
0.408884 0.088812 0.078867 255 220 0
0.440939 0.045933 0.011450 255 220 0
0.471864 0.061926 0.083473 255 220 0
0.424955 0.123040 0.055325 255 220 0
0.456672 0.078123 0.021896 255 220 0
0.379881 0.034631 0.028875 255 220 0
0.501288 0.113600 0.075640 255 220 0
0.463482 0.076121 0.094611 255 220 0
0.468659 0.103739 0.097924 255 220 0
0.475143 0.047089 0.045354 255 220 0
0.433049 0.126804 0.051034 255 220 0
0.411779 0.019033 0.063982 255 220 0
0.462709 0.104383 0.033744 255 220 0
0.399376 0.025549 0.063832 255 220 0
0.396426 0.065676 0.015768 255 220 0
0.443210 0.043203 0.013068 255 220 0
0.429529 0.012464 0.048219 255 220 0
0.458924 0.113808 0.036766 255 220 0
0.454128 0.028140 0.060616 255 220 0
0.442659 0.034766 0.078018 255 220 0
0.382846 0.024757 0.043064 255 220 0
0.432931 0.034778 0.009657 255 220 0
0.418415 0.015781 0.060141 255 220 0
0.440481 0.033331 0.014181 255 220 0
0.442740 0.111909 0.034494 255 220 0
0.422766 0.020502 0.012715 255 220 0
0.469177 0.039731 0.059466 255 220 0
0.434742 0.058135 0.009710 255 220 0
0.461903 0.037961 0.069163 255 220 0
0.382189 0.071086 0.047314 255 220 0
0.445281 0.028535 0.021470 255 220 0
0.434448 0.070382 0.094075 255 220 0
0.408186 0.058400 0.083144 255 220 0
0.433142 0.063958 0.010979 255 220 0
0.432939 0.065471 0.093148 255 220 0
0.416869 0.026032 0.008625 255 220 0
0.421830 0.106107 0.080850 255 220 0
0.452233 0.065622 0.017589 255 220 0
0.404468 0.096705 0.070365 255 220 0
0.409314 0.110356 0.052600 255 220 0
0.396611 0.025569 0.061864 255 220 0
0.468145 0.114789 0.039770 255 220 0
0.474961 0.065731 0.083768 255 220 0
0.438391 0.094904 0.024250 255 220 0
0.424277 0.059907 0.008320 255 220 0
0.476707 0.049557 0.044617 255 220 0
0.462989 0.122477 0.041544 255 220 0
0.495673 0.146369 0.081597 255 220 0
0.448472 0.063611 0.093361 255 220 0
0.424877 0.022970 0.069608 255 220 0
0.433968 0.077638 0.094298 255 220 0
0.481916 0.127905 0.094593 255 220 0
0.383486 0.021886 0.040146 255 220 0
0.480561 0.052717 0.049170 255 220 0
0.383561 0.045678 0.056811 255 220 0
0.464853 0.161719 0.077058 255 220 0
0.448532 0.088881 0.097191 255 220 0
0.456766 0.075942 0.095747 255 220 0
0.377754 0.051094 0.033561 255 220 0
0.450825 0.023799 0.053036 255 220 0
0.397965 0.065882 0.015018 255 220 0
0.455800 0.105836 0.097415 255 220 0
0.480316 0.060058 0.041107 255 220 0
0.418089 0.106408 0.035169 255 220 0
0.391662 0.056837 0.069749 255 220 0
0.378519 0.035116 0.038380 255 220 0
0.413541 0.009792 0.022417 255 220 0
0.433690 0.020387 0.018488 255 220 0
0.449309 0.130281 0.046155 255 220 0
0.494010 0.081306 0.055167 255 220 0
0.463383 0.152982 0.084604 255 220 0
0.378571 0.055336 0.033082 255 220 0
0.408531 0.035377 0.075509 255 220 0
0.465857 0.084915 0.027894 255 220 0
0.393441 0.019046 0.053432 255 220 0
0.439755 0.032896 0.077124 255 220 0
0.424223 0.088932 0.088858 255 220 0
0.379181 0.054310 0.047822 255 220 0
0.443852 0.139540 0.074773 255 220 0
0.473250 0.139245 0.050420 255 220 0
0.446546 0.140184 0.056372 255 220 0
0.464305 0.042241 0.072316 255 220 0
0.447687 0.021157 0.047570 255 220 0
0.412226 0.029574 0.073716 255 220 0
0.468727 0.138519 0.049322 255 220 0
0.388892 0.024271 0.018043 255 220 0
0.498507 0.100344 0.077304 255 220 0
0.488757 0.105698 0.090537 255 220 0
0.430344 0.063816 0.010416 255 220 0
0.485302 0.120398 0.093890 255 220 0
0.454346 0.058833 0.090201 255 220 0
0.462381 0.047840 0.025845 255 220 0
0.428891 0.083447 0.017742 255 220 0
0.483670 0.163189 0.067860 255 220 0
0.433229 0.075416 0.014772 255 220 0
0.466581 0.096646 0.032045 255 220 0
0.413637 0.006544 0.036244 255 220 0
0.450702 0.112485 0.034938 255 220 0
0.437092 0.124329 0.045131 255 220 0
0.478913 0.161766 0.080646 255 220 0
0.443666 0.018778 0.046884 255 220 0
0.440819 0.129168 0.048374 255 220 0
0.442731 0.054406 0.090614 255 220 0
0.409610 0.061705 0.009430 255 220 0
0.429639 0.053064 0.007531 255 220 0
0.442624 0.021171 0.058282 255 220 0
0.403018 0.073162 0.078893 255 220 0
0.446998 0.113121 0.035191 255 220 0
0.413371 0.006905 0.040165 255 220 0
0.450256 0.029603 0.026003 255 220 0
0.400832 0.013223 0.051798 255 220 0
0.414933 0.060787 0.008389 255 220 0
0.427594 0.018268 0.062327 255 220 0
0.473014 0.065614 0.085129 255 220 0
0.458952 0.122813 0.095279 255 220 0
0.433316 0.021003 0.017507 255 220 0
0.416913 0.114190 0.045987 255 220 0
0.470790 0.123903 0.044037 255 220 0
0.481246 0.053094 0.062150 255 220 0
0.454368 0.064439 0.092586 255 220 0
0.451475 0.028955 0.065539 255 220 0
0.395629 0.092974 0.058041 255 220 0
0.455900 0.052693 0.086408 255 220 0
0.420285 0.074805 0.089317 255 220 0
0.451455 0.078955 0.020278 255 220 0
0.460834 0.095553 0.029468 255 220 0
0.438548 0.017621 0.029535 255 220 0
0.428430 0.011374 0.029768 255 220 0
0.381494 0.042149 0.052459 255 220 0
0.438329 0.134730 0.071045 255 220 0
0.475705 0.064006 0.034748 255 220 0
0.423598 0.009754 0.028104 255 220 0
0.417410 0.046343 0.084624 255 220 0
0.400284 0.013603 0.018618 255 220 0
0.457353 0.043203 0.023257 255 220 0
0.382676 0.073420 0.043562 255 220 0
0.403167 0.028526 0.068309 255 220 0
0.438240 0.019538 0.058731 255 220 0
0.419570 0.092161 0.085213 255 220 0
0.431193 0.128395 0.058596 255 220 0
0.474465 0.142301 0.092674 255 220 0
0.451387 0.096759 0.097390 255 220 0
0.432200 0.106303 0.031474 255 220 0
0.489082 0.070616 0.072960 255 220 0
0.402873 0.037740 0.007561 255 220 0
0.452883 0.038152 0.021819 255 220 0
0.476193 0.165807 0.068127 255 220 0
0.485942 0.127239 0.093197 255 220 0
0.457764 0.097914 0.098070 255 220 0
0.464149 0.110305 0.097884 255 220 0
0.444736 0.142365 0.068643 255 220 0
0.394381 0.089644 0.060140 255 220 0
0.487563 0.160431 0.069117 255 220 0
0.418867 0.088300 0.021049 255 220 0
0.401895 0.007911 0.028306 255 220 0
0.422347 0.087892 0.088112 255 220 0
0.477337 0.110290 0.041803 255 220 0
0.387873 0.074315 0.028875 255 220 0
0.461375 0.099410 0.098184 255 220 0
0.466236 0.050499 0.028494 255 220 0
0.458340 0.126057 0.042854 255 220 0
0.484599 0.108060 0.045114 255 220 0
0.411347 0.110214 0.045905 255 220 0
0.412870 0.098253 0.030044 255 220 0
0.421559 0.073557 0.013011 255 220 0
0.492919 0.107595 0.087510 255 220 0
0.432134 0.012197 0.036807 255 220 0
0.405254 0.068028 0.012986 255 220 0
0.467818 0.038038 0.043881 255 220 0
0.473675 0.110443 0.040271 255 220 0
0.457067 0.035834 0.071112 255 220 0
0.412566 0.007068 0.029702 255 220 0
0.493371 0.077625 0.072003 255 220 0
0.496226 0.147139 0.070973 255 220 0
0.413720 0.070405 0.086326 255 220 0
0.448338 0.145013 0.074658 255 220 0
0.474596 0.086610 0.033349 255 220 0
0.465115 0.035075 0.056460 255 220 0
0.466135 0.148541 0.088526 255 220 0
0.415787 0.034319 0.078206 255 220 0
0.486344 0.078437 0.043889 255 220 0
0.482155 0.057791 0.069053 255 220 0
0.461260 0.059633 0.022976 255 220 0
0.468615 0.139835 0.049815 255 220 0
0.432785 0.080738 0.093855 255 220 0
0.447933 0.064357 0.093665 255 220 0
0.481090 0.162946 0.063664 255 220 0
0.417109 0.053584 0.006314 255 220 0
0.447729 0.036354 0.018319 255 220 0
0.467065 0.056011 0.027948 255 220 0
0.408991 0.097040 0.030900 255 220 0
0.427959 0.079963 0.092203 255 220 0
0.461017 0.053212 0.023447 255 220 0
0.449350 0.109546 0.095259 255 220 0
0.409028 0.079524 0.081905 255 220 0
0.492345 0.076515 0.072978 255 220 0
0.395231 0.070565 0.072247 255 220 0
0.448848 0.142542 0.079249 255 220 0
0.443687 0.085169 0.020607 255 220 0
0.384638 0.047385 0.058878 255 220 0
0.487712 0.072821 0.046675 255 220 0
0.431599 0.085837 0.019076 255 220 0
0.403119 0.025585 0.066212 255 220 0
0.395704 0.013755 0.048983 255 220 0
0.479441 0.094984 0.093928 255 220 0
0.379094 0.060013 0.036481 255 220 0
0.474404 0.088234 0.094587 255 220 0
0.391642 0.087442 0.055839 255 220 0
0.454375 0.027455 0.035879 255 220 0
0.447374 0.023763 0.031165 255 220 0
0.404594 0.056939 0.009231 255 220 0
0.387197 0.047720 0.062724 255 220 0
0.463376 0.034091 0.058593 255 220 0
0.411465 0.049865 0.083288 255 220 0
0.434786 0.043083 0.008952 255 220 0
0.383763 0.071772 0.034042 255 220 0
0.382861 0.036119 0.052465 255 220 0
0.438155 0.017044 0.030404 255 220 0
0.492474 0.093953 0.083057 255 220 0
0.384662 0.077228 0.048489 255 220 0
0.410204 0.107742 0.042853 255 220 0
0.483548 0.134858 0.052779 255 220 0
0.396328 0.091944 0.037222 255 220 0
0.399174 0.099430 0.049292 255 220 0
0.448045 0.021985 0.038133 255 220 0
0.393776 0.010183 0.032347 255 220 0
0.482672 0.142281 0.091485 255 220 0
0.474347 0.078018 0.091016 255 220 0
0.474517 0.083270 0.032890 255 220 0
0.451056 0.119739 0.093334 255 220 0
0.471487 0.072357 0.089938 255 220 0
0.444062 0.101455 0.028225 255 220 0
0.425628 0.120482 0.071859 255 220 0
0.398427 0.031462 0.010124 255 220 0
0.450732 0.023430 0.040418 255 220 0
0.439877 0.058677 0.011340 255 220 0
0.395563 0.082887 0.067987 255 220 0
0.470073 0.062267 0.029734 255 220 0
0.436555 0.118323 0.039857 255 220 0
0.404307 0.041901 0.007000 255 220 0
0.398257 0.059609 0.076522 255 220 0
0.458416 0.053928 0.086065 255 220 0
0.405842 0.083383 0.021403 255 220 0
0.421917 0.086875 0.088122 255 220 0
0.468207 0.065380 0.087946 255 220 0
0.484363 0.061345 0.070103 255 220 0
0.440054 0.021125 0.024527 255 220 0
0.445423 0.026983 0.023242 255 220 0
0.466368 0.037237 0.060131 255 220 0
0.396791 0.009503 0.041754 255 220 0
0.392258 0.066322 0.069689 255 220 0
0.392541 0.012303 0.042990 255 220 0
0.445776 0.095356 0.025372 255 220 0
0.442428 0.135319 0.054391 255 220 0
0.487002 0.150682 0.086503 255 220 0
0.424789 0.082429 0.090520 255 220 0
0.448143 0.102011 0.028987 255 220 0
0.403788 0.094845 0.032316 255 220 0
0.407054 0.090145 0.076838 255 220 0
0.455329 0.153925 0.073869 255 220 0
0.449697 0.137481 0.051204 255 220 0
0.476750 0.048937 0.046037 255 220 0
0.433464 0.019612 0.019208 255 220 0
0.461673 0.037210 0.031862 255 220 0
0.486194 0.112197 0.047445 255 220 0
0.479812 0.116536 0.095916 255 220 0
0.382326 0.039629 0.053072 255 220 0
0.401200 0.062121 0.078862 255 220 0
0.490264 0.084166 0.048243 255 220 0
0.484753 0.133798 0.092746 255 220 0
0.420576 0.065044 0.089496 255 220 0
0.460423 0.085547 0.025585 255 220 0
0.480660 0.130217 0.094637 255 220 0
0.465905 0.052563 0.027604 255 220 0
0.447829 0.104191 0.030070 255 220 0
0.426150 0.112071 0.037326 255 220 0
0.408621 0.105665 0.041384 255 220 0
0.493330 0.101299 0.085052 255 220 0
0.487025 0.114460 0.092951 255 220 0
0.408980 0.105600 0.067614 255 220 0
0.480036 0.163879 0.064584 255 220 0
0.411590 0.062576 0.085315 255 220 0
0.448843 0.093378 0.025110 255 220 0
0.419874 0.091477 0.022967 255 220 0
0.463643 0.143439 0.090074 255 220 0
0.387919 0.025244 0.053052 255 220 0
0.402255 0.023148 0.063790 255 220 0
0.383431 0.039121 0.020483 255 220 0
0.436134 0.118360 0.039986 255 220 0
0.427679 0.123279 0.050599 255 220 0
0.416928 0.008964 0.025251 255 220 0
0.463831 0.033121 0.047413 255 220 0
0.464255 0.157152 0.081964 255 220 0
0.383156 0.054251 0.056955 255 220 0
0.402028 0.010936 0.048725 255 220 0
0.432119 0.072866 0.093712 255 220 0
0.406654 0.087913 0.077390 255 220 0
0.484249 0.117288 0.094382 255 220 0
0.481204 0.154657 0.086636 255 220 0
0.385440 0.017686 0.036496 255 220 0
0.492986 0.123282 0.056478 255 220 0
0.379077 0.056395 0.046665 255 220 0
0.434132 0.032243 0.077748 255 220 0
0.453095 0.151926 0.071410 255 220 0
0.413292 0.098341 0.029938 255 220 0
0.473290 0.115802 0.042065 255 220 0
0.493089 0.111773 0.088355 255 220 0
0.448746 0.044875 0.084150 255 220 0
0.393861 0.017579 0.018392 255 220 0
0.418236 0.074810 0.088311 255 220 0
0.487388 0.143111 0.056748 255 220 0
0.452231 0.023995 0.048022 255 220 0
0.402003 0.061555 0.079453 255 220 0
0.442784 0.100345 0.094757 255 220 0
0.475028 0.134738 0.049357 255 220 0
0.426310 0.106133 0.032281 255 220 0
0.446737 0.067568 0.094630 255 220 0
0.474612 0.145078 0.091688 255 220 0
0.418813 0.116562 0.048292 255 220 0
0.451185 0.149770 0.067117 255 220 0
0.429876 0.118191 0.079987 255 220 0
0.426663 0.113391 0.080422 255 220 0
0.422822 0.120942 0.052939 255 220 0
0.432832 0.020712 0.064325 255 220 0
0.430406 0.069924 0.012370 255 220 0
0.473567 0.050630 0.037206 255 220 0
0.441974 0.115769 0.090201 255 220 0
0.460662 0.074854 0.023212 255 220 0
0.384538 0.063750 0.058339 255 220 0
0.420399 0.023660 0.010201 255 220 0
0.436808 0.087470 0.020361 255 220 0
0.471037 0.040915 0.055286 255 220 0
0.485195 0.067693 0.044680 255 220 0
0.386282 0.077244 0.034667 255 220 0
0.469853 0.044702 0.036587 255 220 0
0.500426 0.130127 0.072098 255 220 0
0.451468 0.148046 0.076185 255 220 0
0.444689 0.031837 0.018280 255 220 0
0.452527 0.052547 0.087600 255 220 0
0.441173 0.056271 0.091476 255 220 0
0.394380 0.032588 0.064711 255 220 0
0.475624 0.060506 0.035388 255 220 0
0.420447 0.116904 0.046851 255 220 0
0.412398 0.084197 0.082958 255 220 0
0.484271 0.155637 0.059045 255 220 0
0.490891 0.117813 0.052923 255 220 0
0.417413 0.007063 0.034683 255 220 0
0.425758 0.086859 0.019530 255 220 0
0.387803 0.026713 0.054050 255 220 0
0.454544 0.134918 0.047932 255 220 0
0.447448 0.112640 0.034893 255 220 0
0.490870 0.134487 0.089474 255 220 0
0.474123 0.045272 0.061485 255 220 0
0.413202 0.048586 0.005714 255 220 0
0.435599 0.128593 0.051414 255 220 0
0.474314 0.128447 0.095896 255 220 0
0.454815 0.032170 0.067785 255 220 0
0.425117 0.009113 0.037406 255 220 0
0.428611 0.044453 0.085905 255 220 0
0.445068 0.023116 0.028563 255 220 0
0.458686 0.092932 0.098001 255 220 0
0.392554 0.011073 0.039102 255 220 0
0.443588 0.137736 0.077168 255 220 0
0.476981 0.071291 0.035035 255 220 0
0.441486 0.060680 0.092954 255 220 0
0.417117 0.087933 0.021127 255 220 0
0.394674 0.093639 0.047738 255 220 0
0.489969 0.068755 0.052677 255 220 0
0.397473 0.031386 0.010531 255 220 0
0.470504 0.068785 0.029599 255 220 0
0.391014 0.084525 0.035290 255 220 0
0.380640 0.032412 0.028026 255 220 0
0.464714 0.082089 0.096014 255 220 0
0.473273 0.067073 0.032072 255 220 0
0.422447 0.077707 0.014876 255 220 0
0.398291 0.017843 0.056051 255 220 0
0.491835 0.075099 0.072617 255 220 0
0.481099 0.052031 0.054975 255 220 0
0.470512 0.148028 0.053000 255 220 0
0.457454 0.155565 0.075708 255 220 0
0.432248 0.027241 0.073250 255 220 0
0.449806 0.101250 0.028878 255 220 0
0.463030 0.093105 0.029292 255 220 0
0.468650 0.038798 0.057795 255 220 0
0.412159 0.091716 0.080270 255 220 0
0.448057 0.022748 0.035236 255 220 0
0.437154 0.037975 0.010846 255 220 0
0.388619 0.064333 0.020996 255 220 0
0.477004 0.053161 0.070582 255 220 0
0.490310 0.142430 0.087749 255 220 0
0.445102 0.142152 0.062960 255 220 0
0.401109 0.056789 0.078540 255 220 0
0.462706 0.065426 0.090500 255 220 0
0.379318 0.032002 0.037019 255 220 0
0.451439 0.032782 0.071520 255 220 0
0.400859 0.098662 0.062060 255 220 0
0.404165 0.043462 0.076908 255 220 0
0.438468 0.098105 0.026015 255 220 0
0.445759 0.142091 0.074204 255 220 0
0.496939 0.125726 0.086062 255 220 0
0.395093 0.051141 0.011794 255 220 0
0.444167 0.029120 0.019785 255 220 0
0.400355 0.070915 0.016239 255 220 0
0.406297 0.105467 0.062527 255 220 0
0.390605 0.074584 0.065014 255 220 0
0.389543 0.080735 0.059239 255 220 0
0.458113 0.066889 0.020963 255 220 0
0.494520 0.081256 0.056395 255 220 0
0.500840 0.125919 0.080442 255 220 0
0.486541 0.111627 0.047537 255 220 0
0.427482 0.012426 0.025223 255 220 0
0.492835 0.148975 0.083181 255 220 0
0.456029 0.028436 0.058135 255 220 0
0.460366 0.048736 0.081548 255 220 0
0.426174 0.028195 0.075050 255 220 0
0.412862 0.055521 0.085220 255 220 0
0.433604 0.080235 0.016711 255 220 0
0.455524 0.087709 0.097658 255 220 0
0.423248 0.014835 0.018108 255 220 0
0.432608 0.076376 0.015029 255 220 0
0.448222 0.035901 0.076957 255 220 0
0.471476 0.134527 0.094764 255 220 0
0.399796 0.007667 0.037986 255 220 0
0.449366 0.133242 0.086968 255 220 0
0.474934 0.061681 0.080863 255 220 0
0.418904 0.081394 0.016963 255 220 0
0.437028 0.015414 0.047456 255 220 0
0.464713 0.034227 0.053778 255 220 0
0.475004 0.110460 0.040841 255 220 0
0.400360 0.088549 0.070873 255 220 0
0.447102 0.130423 0.046858 255 220 0
0.480435 0.161441 0.080363 255 220 0
0.480777 0.146451 0.054559 255 220 0
0.386653 0.033182 0.017395 255 220 0
0.416531 0.031475 0.076595 255 220 0
0.447232 0.021783 0.036523 255 220 0
0.423934 0.018389 0.063512 255 220 0
0.459136 0.131014 0.093119 255 220 0
0.424279 0.097780 0.086227 255 220 0
0.386516 0.017549 0.041655 255 220 0
0.442733 0.037429 0.014191 255 220 0
0.482055 0.152770 0.087510 255 220 0
0.482062 0.155138 0.057550 255 220 0
0.468752 0.109213 0.037861 255 220 0
0.435232 0.055658 0.091154 255 220 0
0.491432 0.117045 0.053282 255 220 0
0.419394 0.007771 0.031497 255 220 0
0.401814 0.054500 0.078682 255 220 0
0.410754 0.039222 0.005626 255 220 0
0.413954 0.047045 0.005455 255 220 0
0.453753 0.049840 0.085540 255 220 0
0.380031 0.052378 0.050499 255 220 0
0.389548 0.043963 0.064897 255 220 0
0.471239 0.064957 0.085906 255 220 0
0.406883 0.062438 0.082644 255 220 0
0.414721 0.040946 0.081415 255 220 0
0.489131 0.088123 0.046566 255 220 0
0.451481 0.043103 0.081825 255 220 0
0.388690 0.032294 0.015579 255 220 0
0.445673 0.083508 0.096689 255 220 0
0.500908 0.130908 0.075767 255 220 0
0.415366 0.065142 0.009848 255 220 0
0.409250 0.107657 0.044005 255 220 0
0.464976 0.108128 0.036064 255 220 0
0.498769 0.131461 0.067639 255 220 0
0.386373 0.062727 0.022534 255 220 0
0.451611 0.034125 0.023245 255 220 0
0.461289 0.030900 0.045510 255 220 0
0.489463 0.094644 0.047122 255 220 0
0.402276 0.086772 0.025841 255 220 0
0.408270 0.090703 0.077635 255 220 0
0.495937 0.087830 0.074952 255 220 0
0.492420 0.091938 0.082219 255 220 0
0.395621 0.030270 0.011605 255 220 0
0.412867 0.010027 0.049825 255 220 0
0.409069 0.022595 0.066826 255 220 0
0.378455 0.039658 0.030706 255 220 0
0.435248 0.124180 0.080668 255 220 0
0.399685 0.097754 0.041432 255 220 0
0.472446 0.136505 0.094315 255 220 0
0.497324 0.129509 0.085337 255 220 0
0.488425 0.159863 0.071597 255 220 0
0.391067 0.084385 0.058856 255 220 0
0.459909 0.150945 0.083601 255 220 0
0.493607 0.114307 0.088341 255 220 0
0.474445 0.078028 0.090966 255 220 0
0.455397 0.040483 0.022822 255 220 0
0.408425 0.105508 0.066813 255 220 0
0.443044 0.024776 0.023062 255 220 0
0.390133 0.038499 0.013786 255 220 0
0.402210 0.008578 0.044007 255 220 0
0.501459 0.119296 0.073586 255 220 0
0.425694 0.074045 0.091665 255 220 0
0.463284 0.151906 0.055739 255 220 0
0.383974 0.074784 0.050064 255 220 0
0.485232 0.158563 0.080781 255 220 0
0.440705 0.121434 0.041470 255 220 0
0.416756 0.065055 0.087909 255 220 0
0.392856 0.059848 0.071139 255 220 0
0.480176 0.124843 0.048130 255 220 0
0.470766 0.041398 0.045256 255 220 0
0.389909 0.018699 0.049261 255 220 0
0.394913 0.068436 0.018010 255 220 0
0.465623 0.057683 0.026487 255 220 0
0.412134 0.034195 0.006122 255 220 0
0.386433 0.048348 0.017473 255 220 0
0.482186 0.102675 0.041964 255 220 0
0.378955 0.059445 0.036468 255 220 0
0.415661 0.083885 0.085181 255 220 0
0.479528 0.053328 0.066897 255 220 0
0.386932 0.020514 0.023244 255 220 0
0.389055 0.084294 0.039677 255 220 0
0.378940 0.054398 0.046973 255 220 0
0.474649 0.121360 0.096687 255 220 0
0.422256 0.067758 0.010718 255 220 0
0.416216 0.094512 0.025882 255 220 0
0.422647 0.074977 0.090380 255 220 0
0.412776 0.038560 0.079374 255 220 0
0.468632 0.080242 0.028617 255 220 0
0.476505 0.058113 0.037107 255 220 0
0.487821 0.142153 0.089309 255 220 0
0.386480 0.020684 0.046502 255 220 0
0.393715 0.060989 0.072063 255 220 0
0.411648 0.045414 0.081909 255 220 0
0.383342 0.050647 0.021342 255 220 0
0.435141 0.052683 0.090086 255 220 0
0.462566 0.087528 0.027112 255 220 0
0.483625 0.116274 0.047035 255 220 0
0.449087 0.059732 0.015500 255 220 0
0.446738 0.026229 0.025874 255 220 0
0.381415 0.026676 0.040481 255 220 0
0.447234 0.023322 0.031930 255 220 0
0.483097 0.068618 0.078604 255 220 0
0.420243 0.052349 0.087343 255 220 0
0.422954 0.112314 0.038864 255 220 0
0.428512 0.112340 0.036811 255 220 0
0.438543 0.060068 0.092707 255 220 0
0.484413 0.074605 0.042142 255 220 0
0.390316 0.064465 0.067476 255 220 0
0.457714 0.135506 0.090887 255 220 0
0.401579 0.028188 0.009871 255 220 0
0.398287 0.014040 0.019045 255 220 0
0.437518 0.099810 0.092726 255 220 0
0.483426 0.161959 0.064311 255 220 0
0.483181 0.094717 0.091623 255 220 0
0.402149 0.058885 0.079453 255 220 0
0.401330 0.079035 0.020592 255 220 0
0.411499 0.093318 0.026516 255 220 0
0.436915 0.060710 0.010858 255 220 0
0.437308 0.019116 0.058563 255 220 0
0.478942 0.093971 0.037598 255 220 0
0.420785 0.008095 0.040485 255 220 0
0.401606 0.091220 0.030382 255 220 0
0.473790 0.145649 0.052563 255 220 0
0.482818 0.159812 0.060993 255 220 0
0.432497 0.107979 0.087510 255 220 0
0.408209 0.017413 0.060775 255 220 0
0.417317 0.022843 0.069398 255 220 0
0.420459 0.015286 0.016568 255 220 0
0.459507 0.051143 0.083765 255 220 0
0.379216 0.048440 0.027776 255 220 0
0.420657 0.071451 0.089676 255 220 0
0.497542 0.086091 0.066487 255 220 0
0.449634 0.050767 0.087521 255 220 0
0.391252 0.062125 0.069018 255 220 0
0.499373 0.101791 0.065251 255 220 0
0.469548 0.066888 0.028920 255 220 0
0.452487 0.144144 0.082094 255 220 0
0.482522 0.122494 0.094883 255 220 0
0.396519 0.020842 0.057832 255 220 0
0.443046 0.135081 0.053428 255 220 0
0.499952 0.136872 0.076444 255 220 0
0.454864 0.029776 0.063293 255 220 0
0.449455 0.072817 0.095661 255 220 0
0.466404 0.158937 0.059610 255 220 0
0.386606 0.071386 0.028197 255 220 0
0.488143 0.072906 0.076199 255 220 0
0.438069 0.129918 0.078549 255 220 0
0.468446 0.128197 0.045094 255 220 0
0.465022 0.057728 0.025992 255 220 0
0.418506 0.088751 0.085610 255 220 0
0.394031 0.068572 0.018690 255 220 0
0.413729 0.006537 0.035076 255 220 0
0.482031 0.148730 0.089403 255 220 0
0.386010 0.066255 0.060394 255 220 0
0.464242 0.116440 0.039191 255 220 0
0.455191 0.118701 0.038762 255 220 0
0.453103 0.127306 0.043699 255 220 0
0.497485 0.086691 0.069166 255 220 0
0.466850 0.116181 0.039854 255 220 0
0.426927 0.119371 0.044907 255 220 0
0.461180 0.070397 0.023053 255 220 0
0.430097 0.041927 0.007366 255 220 0
0.380676 0.056616 0.027831 255 220 0
0.501497 0.124271 0.075655 255 220 0
0.457891 0.154531 0.061549 255 220 0
0.436807 0.045447 0.009579 255 220 0
0.456706 0.073885 0.095221 255 220 0
0.417585 0.037298 0.080511 255 220 0
0.432115 0.129033 0.058110 255 220 0
0.411509 0.085603 0.081921 255 220 0
0.427825 0.010157 0.037485 255 220 0
0.445501 0.099231 0.095828 255 220 0
0.467057 0.036349 0.050326 255 220 0
0.453254 0.152304 0.068309 255 220 0
0.426962 0.023920 0.011817 255 220 0
0.435446 0.119536 0.041173 255 220 0
0.456020 0.036897 0.073337 255 220 0
0.392452 0.010811 0.034085 255 220 0
0.496125 0.106787 0.057776 255 220 0
0.470663 0.162796 0.061877 255 220 0
0.444828 0.117569 0.038132 255 220 0
0.451429 0.031962 0.070402 255 220 0
0.390638 0.085703 0.055733 255 220 0
0.485868 0.155518 0.060162 255 220 0
0.459383 0.031608 0.036549 255 220 0
0.422007 0.119794 0.065632 255 220 0
0.488856 0.063480 0.056972 255 220 0
0.462158 0.088186 0.027165 255 220 0
0.444674 0.105059 0.030273 255 220 0
0.490730 0.068710 0.067275 255 220 0
0.482341 0.057432 0.046198 255 220 0
0.416837 0.110208 0.072908 255 220 0
0.435430 0.104858 0.030195 255 220 0
0.451037 0.149689 0.069038 255 220 0
0.391730 0.053524 0.069599 255 220 0
0.472138 0.161492 0.060000 255 220 0
0.432005 0.021648 0.015946 255 220 0
0.408083 0.013407 0.055068 255 220 0
0.427735 0.064658 0.091806 255 220 0
0.414597 0.071808 0.012691 255 220 0
0.428247 0.125981 0.058233 255 220 0
0.498035 0.099279 0.077699 255 220 0
0.419675 0.109940 0.037999 255 220 0
0.411962 0.038643 0.079035 255 220 0
0.406464 0.029049 0.070577 255 220 0
0.421151 0.061569 0.089366 255 220 0
0.450009 0.022606 0.048164 255 220 0
0.430782 0.128244 0.064843 255 220 0
0.406781 0.106126 0.062326 255 220 0
0.424553 0.089628 0.021195 255 220 0
0.432282 0.025524 0.013179 255 220 0
0.408329 0.024460 0.068139 255 220 0
0.478622 0.049243 0.057857 255 220 0
0.385660 0.030240 0.019307 255 220 0
0.396065 0.039137 0.069507 255 220 0
0.461572 0.161120 0.070480 255 220 0
0.466345 0.159344 0.081357 255 220 0
0.419448 0.012901 0.055000 255 220 0
0.455186 0.154494 0.067879 255 220 0
0.421759 0.019607 0.065594 255 220 0
0.402159 0.087223 0.026301 255 220 0
0.451680 0.076401 0.019526 255 220 0
0.418416 0.053413 0.087041 255 220 0
0.413428 0.101957 0.076266 255 220 0
0.424980 0.012647 0.052477 255 220 0
0.411428 0.025811 0.070571 255 220 0
0.407768 0.059915 0.083046 255 220 0
0.431061 0.018518 0.061337 255 220 0
0.500509 0.104596 0.071141 255 220 0
0.475367 0.124846 0.046035 255 220 0
0.485830 0.065735 0.072870 255 220 0
0.436985 0.110381 0.033824 255 220 0
0.462440 0.157341 0.080278 255 220 0
0.405858 0.075167 0.016307 255 220 0
0.399614 0.089947 0.030835 255 220 0
0.469022 0.109454 0.097837 255 220 0
0.494123 0.128006 0.058915 255 220 0
0.463910 0.040824 0.031325 255 220 0
0.478233 0.097523 0.095033 255 220 0
0.445711 0.126871 0.087751 255 220 0
0.401328 0.092688 0.069401 255 220 0
0.430368 0.122281 0.076713 255 220 0
0.410864 0.104770 0.071253 255 220 0
0.495502 0.114059 0.057808 255 220 0
0.466789 0.092864 0.097477 255 220 0
0.416925 0.083221 0.086116 255 220 0
0.461942 0.047216 0.079323 255 220 0
0.425280 0.121285 0.049580 255 220 0
0.448322 0.061165 0.015212 255 220 0
0.387738 0.036887 0.015850 255 220 0
0.381385 0.058046 0.027244 255 220 0
0.449599 0.036074 0.020063 255 220 0
0.500049 0.102389 0.068343 255 220 0
0.454004 0.039320 0.077286 255 220 0
0.482721 0.096474 0.092422 255 220 0
0.488546 0.091224 0.085953 255 220 0
0.396872 0.045732 0.072816 255 220 0
0.474057 0.073314 0.032334 255 220 0
0.379628 0.032905 0.042300 255 220 0
0.387573 0.028815 0.055260 255 220 0
0.499243 0.117554 0.065276 255 220 0
0.449440 0.144908 0.059335 255 220 0
0.409807 0.110907 0.054123 255 220 0
0.497738 0.089246 0.062945 255 220 0
0.490482 0.066777 0.064038 255 220 0
0.392629 0.075826 0.024598 255 220 0
0.425457 0.074411 0.013478 255 220 0
0.431419 0.078431 0.093528 255 220 0
0.447491 0.106401 0.031235 255 220 0
0.385704 0.017276 0.036070 255 220 0
0.489956 0.072041 0.072948 255 220 0
0.450206 0.117635 0.093582 255 220 0
0.483109 0.066496 0.042314 255 220 0
0.408521 0.049821 0.081716 255 220 0
0.443060 0.137645 0.076376 255 220 0
0.493147 0.096726 0.083443 255 220 0
0.460658 0.078436 0.023820 255 220 0
0.383843 0.054723 0.021935 255 220 0
0.395737 0.052908 0.011833 255 220 0
0.433131 0.126625 0.075363 255 220 0
0.477744 0.053045 0.042044 255 220 0
0.381868 0.024764 0.034039 255 220 0
0.473553 0.055279 0.076766 255 220 0
0.447441 0.096303 0.096668 255 220 0
0.492660 0.104667 0.052299 255 220 0
0.478317 0.132825 0.094711 255 220 0
0.501055 0.121645 0.079784 255 220 0
0.464343 0.033917 0.044923 255 220 0
0.498047 0.104504 0.080287 255 220 0
0.489636 0.079928 0.047906 255 220 0
0.446547 0.141501 0.076913 255 220 0
0.443483 0.130259 0.048102 255 220 0
0.424371 0.122465 0.054636 255 220 0
0.499611 0.128061 0.082754 255 220 0
0.421364 0.120562 0.058563 255 220 0
0.427421 0.030117 0.009041 255 220 0
0.456638 0.156185 0.068585 255 220 0
0.460821 0.053700 0.023222 255 220 0
0.498748 0.141404 0.074810 255 220 0
0.391444 0.052324 0.069114 255 220 0
0.496617 0.088981 0.059160 255 220 0
0.389436 0.026194 0.016683 255 220 0
0.481436 0.078613 0.086431 255 220 0
0.462219 0.047733 0.025740 255 220 0
0.412388 0.041284 0.080538 255 220 0
0.447040 0.034547 0.076118 255 220 0
0.390400 0.086900 0.041858 255 220 0
0.492769 0.117901 0.089420 255 220 0
0.393883 0.015998 0.019853 255 220 0
0.467901 0.129031 0.095719 255 220 0
0.444828 0.135404 0.052303 255 220 0
0.453903 0.036058 0.073889 255 220 0
0.417159 0.085161 0.019373 255 220 0
0.397290 0.072542 0.073920 255 220 0
0.407621 0.081620 0.080303 255 220 0
0.378109 0.042603 0.044237 255 220 0
0.491749 0.092682 0.050006 255 220 0
0.380775 0.049163 0.024799 255 220 0
0.478198 0.163076 0.079015 255 220 0
0.431580 0.013234 0.029010 255 220 0
0.413299 0.057254 0.085687 255 220 0
0.419424 0.042708 0.083699 255 220 0
0.396307 0.032428 0.066149 255 220 0
0.390348 0.087496 0.047726 255 220 0
0.383442 0.025331 0.025913 255 220 0
0.465060 0.100209 0.098107 255 220 0
0.478137 0.154298 0.087378 255 220 0
0.464422 0.044243 0.029481 255 220 0
0.450507 0.026503 0.030905 255 220 0
0.448355 0.098814 0.096638 255 220 0
0.398666 0.039675 0.009014 255 220 0
0.392545 0.032965 0.012712 255 220 0
0.476082 0.147738 0.090634 255 220 0
0.494702 0.078771 0.058388 255 220 0
0.402866 0.059111 0.010423 255 220 0
0.465211 0.139587 0.049471 255 220 0
0.394694 0.091605 0.057779 255 220 0
0.430905 0.093111 0.091219 255 220 0
0.422287 0.041379 0.083615 255 220 0
0.411140 0.046431 0.082027 255 220 0
0.482666 0.064838 0.075938 255 220 0
0.500538 0.107146 0.069275 255 220 0
0.467913 0.041149 0.037334 255 220 0
0.450366 0.036696 0.020388 255 220 0
0.400413 0.062900 0.012648 255 220 0
0.389155 0.027279 0.056110 255 220 0
0.479684 0.074236 0.037284 255 220 0
0.395390 0.049641 0.011342 255 220 0
0.495565 0.130510 0.061423 255 220 0
0.428442 0.017144 0.060056 255 220 0
0.484008 0.093259 0.041420 255 220 0
0.482277 0.148929 0.055689 255 220 0
0.491761 0.145370 0.060706 255 220 0
0.401843 0.101512 0.045165 255 220 0
0.462644 0.040408 0.071726 255 220 0
0.429344 0.010896 0.039712 255 220 0
0.427978 0.061286 0.091344 255 220 0
0.480861 0.150629 0.088861 255 220 0
0.409354 0.019189 0.063399 255 220 0
0.392439 0.075416 0.067321 255 220 0
0.465858 0.065209 0.026120 255 220 0
0.478990 0.148530 0.090086 255 220 0
0.452642 0.042626 0.080935 255 220 0
0.382342 0.025863 0.042974 255 220 0
0.426292 0.009764 0.040643 255 220 0
0.457757 0.066872 0.020749 255 220 0
0.498157 0.089550 0.069305 255 220 0
0.391460 0.013712 0.026152 255 220 0
0.407001 0.066656 0.011904 255 220 0
0.463582 0.162396 0.072936 255 220 0
0.394495 0.016031 0.050975 255 220 0
0.466764 0.051914 0.028564 255 220 0
0.497671 0.139347 0.068391 255 220 0
0.500820 0.123015 0.070955 255 220 0
0.397856 0.026634 0.063556 255 220 0
0.489901 0.120520 0.052716 255 220 0
0.410326 0.013674 0.016773 255 220 0
0.449724 0.038232 0.078501 255 220 0
0.470955 0.115287 0.097460 255 220 0
0.473516 0.061695 0.032995 255 220 0
0.442069 0.046413 0.011992 255 220 0
0.458245 0.066763 0.092514 255 220 0
0.417528 0.091422 0.084137 255 220 0
0.496533 0.095183 0.078227 255 220 0
0.438656 0.021626 0.062722 255 220 0
0.492932 0.148473 0.063690 255 220 0
0.408569 0.085927 0.079667 255 220 0
0.381567 0.069735 0.045547 255 220 0
0.444379 0.092242 0.096313 255 220 0
0.480484 0.121199 0.095586 255 220 0
0.437601 0.034118 0.078760 255 220 0
0.432041 0.042211 0.007991 255 220 0
0.448794 0.094425 0.025543 255 220 0
0.490226 0.145217 0.059224 255 220 0
0.475758 0.122346 0.096464 255 220 0
0.434354 0.017136 0.023826 255 220 0
0.490505 0.095678 0.048476 255 220 0
0.470076 0.080427 0.093958 255 220 0
0.449763 0.145896 0.076271 255 220 0
0.442324 0.139345 0.063139 255 220 0
0.405483 0.102528 0.040386 255 220 0
0.496606 0.086216 0.060088 255 220 0
0.391635 0.077245 0.065353 255 220 0
0.425429 0.122922 0.053508 255 220 0
0.497489 0.127611 0.085404 255 220 0
0.493290 0.143468 0.061814 255 220 0
0.411083 0.010424 0.050557 255 220 0
0.488750 0.136952 0.056192 255 220 0
0.413107 0.055153 0.085268 255 220 0
0.382211 0.023874 0.037327 255 220 0
0.396729 0.091005 0.063589 255 220 0
0.444133 0.140160 0.060159 255 220 0
0.454676 0.150306 0.078603 255 220 0
0.467511 0.161869 0.062136 255 220 0
0.401132 0.009541 0.045622 255 220 0
0.484938 0.077155 0.082562 255 220 0
0.457088 0.054393 0.020431 255 220 0
0.400848 0.007832 0.029578 255 220 0
0.451417 0.083866 0.022048 255 220 0
0.432765 0.017669 0.058773 255 220 0
0.467559 0.095890 0.097668 255 220 0
0.461230 0.083734 0.096902 255 220 0
0.494679 0.128857 0.059803 255 220 0
0.476111 0.046514 0.052765 255 220 0
0.404794 0.023322 0.010856 255 220 0
0.478133 0.116024 0.096355 255 220 0
0.416791 0.106549 0.076164 255 220 0
0.413774 0.067006 0.086505 255 220 0
0.438997 0.085243 0.019679 255 220 0
0.404112 0.088955 0.074678 255 220 0
0.383240 0.070379 0.052359 255 220 0
0.427467 0.119874 0.045201 255 220 0
0.413519 0.068203 0.086340 255 220 0
0.389721 0.053856 0.067085 255 220 0
0.453458 0.049972 0.018470 255 220 0
0.429964 0.115090 0.038825 255 220 0
0.389041 0.048201 0.065336 255 220 0
0.413470 0.019896 0.065432 255 220 0
0.459718 0.086739 0.097470 255 220 0
0.409794 0.035914 0.076476 255 220 0
0.396993 0.057091 0.075343 255 220 0
0.441810 0.028520 0.018011 255 220 0
0.409425 0.062237 0.009650 255 220 0
0.421248 0.032715 0.006795 255 220 0
0.446615 0.063266 0.093468 255 220 0
0.484263 0.155412 0.058923 255 220 0
0.398344 0.040736 0.009134 255 220 0
0.498999 0.112633 0.081943 255 220 0
0.439983 0.136961 0.069521 255 220 0
0.465067 0.051608 0.027095 255 220 0
0.463944 0.042752 0.073295 255 220 0
0.433941 0.033111 0.078508 255 220 0
0.421924 0.030999 0.077268 255 220 0
0.452972 0.024439 0.046247 255 220 0
0.417060 0.091812 0.023738 255 220 0
0.497933 0.124279 0.063902 255 220 0
0.425536 0.109998 0.035644 255 220 0
0.425792 0.010899 0.047068 255 220 0
0.441565 0.066806 0.013696 255 220 0
0.463804 0.043283 0.074036 255 220 0
0.414244 0.020515 0.066318 255 220 0
0.457760 0.031440 0.062850 255 220 0
0.487186 0.068430 0.047387 255 220 0
0.430139 0.055478 0.008083 255 220 0
0.443852 0.115827 0.091176 255 220 0
0.430137 0.042723 0.085098 255 220 0
0.430454 0.094196 0.090733 255 220 0
0.387390 0.022525 0.020782 255 220 0
0.398436 0.075101 0.019662 255 220 0
0.419081 0.117405 0.049895 255 220 0
0.413190 0.053676 0.085027 255 220 0
0.391288 0.058615 0.069297 255 220 0
0.472594 0.072072 0.089163 255 220 0
0.436587 0.021032 0.020475 255 220 0
0.425300 0.061133 0.090607 255 220 0
0.426794 0.066548 0.091758 255 220 0
0.441271 0.021381 0.025818 255 220 0
0.454902 0.109609 0.096772 255 220 0
0.448966 0.023004 0.036639 255 220 0
0.500793 0.114713 0.078788 255 220 0
0.388889 0.052851 0.016284 255 220 0
0.477508 0.059961 0.077070 255 220 0
0.458266 0.040394 0.075566 255 220 0
0.384407 0.031378 0.052397 255 220 0
0.484298 0.156650 0.059644 255 220 0
0.439425 0.121234 0.086210 255 220 0
0.403626 0.067815 0.080233 255 220 0
0.377667 0.050975 0.033971 255 220 0
0.437369 0.025982 0.070183 255 220 0
0.477041 0.078057 0.089382 255 220 0
0.385721 0.019585 0.027005 255 220 0
0.439839 0.131552 0.051800 255 220 0
0.465734 0.055780 0.026837 255 220 0
0.383748 0.073081 0.035726 255 220 0
0.379723 0.030835 0.038575 255 220 0
0.482246 0.153343 0.056940 255 220 0
0.491805 0.070023 0.066020 255 220 0
0.382272 0.048568 0.055088 255 220 0
0.409344 0.062678 0.009821 255 220 0
0.414796 0.040980 0.005167 255 220 0
0.466162 0.116929 0.039932 255 220 0
0.494360 0.086243 0.054585 255 220 0
0.472147 0.088322 0.032109 255 220 0
0.464209 0.067026 0.024901 255 220 0
0.481818 0.157529 0.058642 255 220 0
0.469913 0.098174 0.034001 255 220 0
0.475901 0.152738 0.054912 255 220 0
0.492752 0.089416 0.051506 255 220 0
0.460588 0.054595 0.022919 255 220 0
0.491865 0.126625 0.056144 255 220 0
0.475935 0.088686 0.034581 255 220 0
0.468547 0.156124 0.056810 255 220 0
