ply
format ascii 1.0
element vertex 1024
property float x
property float y
property float z
property uchar red
property uchar green
property uchar blue
end_header
0.428546 0.103046 0.100204 255 220 0
0.385525 0.084072 0.050736 255 220 0
0.474477 0.075684 0.060088 255 220 0
0.436251 0.041476 0.076679 255 220 0
0.462010 0.096385 0.033874 255 220 0
0.410540 0.082625 0.015219 255 220 0
0.435957 0.092873 0.099217 255 220 0
0.427193 0.174992 0.091407 255 220 0
0.471839 0.114064 0.084784 255 220 0
0.445186 0.076209 0.016352 255 220 0
0.434375 0.042581 0.077940 255 220 0
0.452124 0.033008 0.027389 255 220 0
0.431137 0.090105 0.016367 255 220 0
0.440385 0.086054 0.097488 255 220 0
0.467373 0.071790 0.076488 255 220 0
0.387802 0.110347 0.055218 255 220 0
0.408297 0.032987 0.025310 255 220 0
0.435909 0.136110 0.101552 255 220 0
0.390703 0.114906 0.064853 255 220 0
0.436157 0.068195 0.092459 255 220 0
0.441688 0.060083 0.087720 255 220 0
0.442647 0.088974 0.097672 255 220 0
0.386653 0.069777 0.041625 255 220 0
0.426000 0.024955 0.022427 255 220 0
0.412427 0.086532 0.015737 255 220 0
0.415193 0.080536 0.013705 255 220 0
0.434822 0.170188 0.050166 255 220 0
0.471496 0.074373 0.043205 255 220 0
0.437312 0.036759 0.016142 255 220 0
0.413868 0.183872 0.050343 255 220 0
0.475672 0.084697 0.060281 255 220 0
0.442627 0.184659 0.081414 255 220 0
0.471098 0.126771 0.062507 255 220 0
0.415220 0.187921 0.051710 255 220 0
0.414436 0.117100 0.095640 255 220 0
0.453650 0.030305 0.051977 255 220 0
0.437530 0.131118 0.034449 255 220 0
0.417265 0.069128 0.089891 255 220 0
0.442630 0.183400 0.083604 255 220 0
0.471169 0.129812 0.065647 255 220 0
0.408333 0.131897 0.034572 255 220 0
0.453095 0.171550 0.081306 255 220 0
0.472368 0.076142 0.045188 255 220 0
0.468586 0.070730 0.036999 255 220 0
0.407280 0.175188 0.079357 255 220 0
0.440703 0.120782 0.030915 255 220 0
0.434332 0.065203 0.091248 255 220 0
0.474195 0.074555 0.053403 255 220 0
0.414116 0.093217 0.094212 255 220 0
0.421951 0.022511 0.026707 255 220 0
0.470481 0.103792 0.048312 255 220 0
0.442232 0.165353 0.094715 255 220 0
0.426280 0.081459 0.096382 255 220 0
0.410360 0.111319 0.092915 255 220 0
0.427410 0.071462 0.093405 255 220 0
0.387464 0.103616 0.058983 255 220 0
0.468404 0.056170 0.055570 255 220 0
0.417101 0.029345 0.060995 255 220 0
0.411315 0.101976 0.020978 255 220 0
0.404459 0.067519 0.015587 255 220 0
0.468584 0.124213 0.055137 255 220 0
0.409962 0.035553 0.062203 255 220 0
0.419874 0.176528 0.088798 255 220 0
0.452547 0.060058 0.083106 255 220 0
0.461576 0.039159 0.040344 255 220 0
0.440641 0.187863 0.076290 255 220 0
0.405082 0.062655 0.079398 255 220 0
0.441981 0.138067 0.039563 255 220 0
0.465167 0.080352 0.083541 255 220 0
0.469726 0.122513 0.056288 255 220 0
0.470314 0.065051 0.064791 255 220 0
0.432214 0.152024 0.041906 255 220 0
0.465844 0.135982 0.058308 255 220 0
0.455780 0.164636 0.069093 255 220 0
0.438961 0.076541 0.095217 255 220 0
0.443372 0.171645 0.056653 255 220 0
0.414556 0.043328 0.073136 255 220 0
0.447163 0.080831 0.094647 255 220 0
0.472955 0.105347 0.053805 255 220 0
0.400055 0.129331 0.080433 255 220 0
0.405639 0.163667 0.081477 255 220 0
0.390750 0.095800 0.068473 255 220 0
0.460635 0.069814 0.025439 255 220 0
0.452505 0.104146 0.097235 255 220 0
0.397495 0.131710 0.042998 255 220 0
0.455526 0.106219 0.031879 255 220 0
0.409177 0.030961 0.026853 255 220 0
0.456749 0.162899 0.085948 255 220 0
0.435300 0.113057 0.101751 255 220 0
0.426170 0.139756 0.099656 255 220 0
0.475713 0.090219 0.066390 255 220 0
0.404046 0.138679 0.040427 255 220 0
0.429298 0.035813 0.072294 255 220 0
0.444567 0.132778 0.038274 255 220 0
0.416321 0.035280 0.067039 255 220 0
0.413882 0.065097 0.011957 255 220 0
0.463104 0.068696 0.028247 255 220 0
0.452521 0.037820 0.064333 255 220 0
0.436207 0.139267 0.037724 255 220 0
0.461230 0.064480 0.079095 255 220 0
0.442528 0.065758 0.090359 255 220 0
0.410746 0.024904 0.043238 255 220 0
0.459640 0.056060 0.024170 255 220 0
0.437577 0.036020 0.071413 255 220 0
0.464804 0.058880 0.030875 255 220 0
0.424614 0.129426 0.031444 255 220 0
0.456471 0.038881 0.027535 255 220 0
0.468883 0.081898 0.079544 255 220 0
0.450824 0.077168 0.019114 255 220 0
0.460142 0.077447 0.086882 255 220 0
0.388256 0.064958 0.035840 255 220 0
0.468173 0.057635 0.040162 255 220 0
0.414230 0.093637 0.094329 255 220 0
0.401994 0.069450 0.079562 255 220 0
0.446485 0.081502 0.018432 255 220 0
0.415495 0.088573 0.094220 255 220 0
0.450706 0.040445 0.020723 255 220 0
0.393019 0.117332 0.069854 255 220 0
0.458971 0.092893 0.029624 255 220 0
0.386777 0.099829 0.057425 255 220 0
0.391260 0.112776 0.039049 255 220 0
0.414769 0.033784 0.064417 255 220 0
0.442229 0.144910 0.042912 255 220 0
0.453260 0.108996 0.097479 255 220 0
0.432294 0.111825 0.024792 255 220 0
0.441979 0.073405 0.014405 255 220 0
0.476178 0.093077 0.065560 255 220 0
0.433969 0.149127 0.041232 255 220 0
0.435538 0.188882 0.081978 255 220 0
0.428964 0.094693 0.099309 255 220 0
0.436234 0.046124 0.080311 255 220 0
0.410561 0.099691 0.092651 255 220 0
0.427621 0.167006 0.094541 255 220 0
0.413604 0.022531 0.041406 255 220 0
0.476275 0.098050 0.070125 255 220 0
0.397078 0.044338 0.051156 255 220 0
0.405191 0.186533 0.065256 255 220 0
0.416485 0.116856 0.096794 255 220 0
0.429458 0.109649 0.100926 255 220 0
0.398468 0.044481 0.026628 255 220 0
0.463215 0.058544 0.072165 255 220 0
0.415328 0.065986 0.011652 255 220 0
0.414896 0.135148 0.095000 255 220 0
0.475803 0.103703 0.060809 255 220 0
0.406587 0.112474 0.026342 255 220 0
0.394057 0.058937 0.062788 255 220 0
0.404359 0.031383 0.035163 255 220 0
0.450065 0.025728 0.036473 255 220 0
0.463355 0.044618 0.036042 255 220 0
0.417631 0.149413 0.039716 255 220 0
0.472512 0.129888 0.072653 255 220 0
0.405061 0.178783 0.073938 255 220 0
0.397446 0.048522 0.025397 255 220 0
0.415212 0.049161 0.078121 255 220 0
0.457861 0.117083 0.038434 255 220 0
0.418136 0.025965 0.057260 255 220 0
0.441300 0.062635 0.089149 255 220 0
0.399600 0.104234 0.082099 255 220 0
0.392988 0.048989 0.039489 255 220 0
0.398580 0.156755 0.062469 255 220 0
0.431739 0.169360 0.048363 255 220 0
0.407258 0.157337 0.046018 255 220 0
0.459069 0.082567 0.089463 255 220 0
0.463813 0.054310 0.066834 255 220 0
0.421452 0.045848 0.078913 255 220 0
0.428755 0.166408 0.046226 255 220 0
0.425097 0.025700 0.021878 255 220 0
0.459693 0.150169 0.089887 255 220 0
0.444489 0.150903 0.098082 255 220 0
0.444460 0.079949 0.017143 255 220 0
0.433957 0.162143 0.096665 255 220 0
0.437042 0.093251 0.099208 255 220 0
0.472083 0.083139 0.044464 255 220 0
0.431941 0.096732 0.018797 255 220 0
0.423339 0.196492 0.061755 255 220 0
0.440120 0.091728 0.019216 255 220 0
0.451768 0.127887 0.039668 255 220 0
0.446498 0.023952 0.050106 255 220 0
0.430722 0.133910 0.033995 255 220 0
0.410615 0.138125 0.036705 255 220 0
0.415375 0.193811 0.072596 255 220 0
0.461817 0.050207 0.065620 255 220 0
0.410349 0.144393 0.039613 255 220 0
0.429319 0.083683 0.097334 255 220 0
0.428760 0.067757 0.010805 255 220 0
0.449674 0.070092 0.016855 255 220 0
0.455726 0.052573 0.075317 255 220 0
0.392821 0.079351 0.070587 255 220 0
0.427314 0.132639 0.033017 255 220 0
0.444682 0.024413 0.053580 255 220 0
0.470116 0.061353 0.045533 255 220 0
0.427355 0.024482 0.059261 255 220 0
0.433908 0.069531 0.011584 255 220 0
0.443203 0.042886 0.075468 255 220 0
0.451216 0.108025 0.098212 255 220 0
0.410791 0.151247 0.089834 255 220 0
0.463138 0.044895 0.034877 255 220 0
0.398227 0.119394 0.034167 255 220 0
0.438819 0.154411 0.045433 255 220 0
0.471907 0.099643 0.082268 255 220 0
0.433716 0.098282 0.100077 255 220 0
0.456890 0.064219 0.082705 255 220 0
0.385699 0.091332 0.044364 255 220 0
0.442409 0.088440 0.097613 255 220 0
0.402423 0.090090 0.084800 255 220 0
0.451478 0.104232 0.028685 255 220 0
0.448485 0.123904 0.035897 255 220 0
0.464499 0.045426 0.048344 255 220 0
0.458872 0.035014 0.047169 255 220 0
0.398535 0.039948 0.047379 255 220 0
0.397540 0.149586 0.058588 255 220 0
0.472620 0.104375 0.052642 255 220 0
0.456235 0.031095 0.044633 255 220 0
0.414317 0.063707 0.086476 255 220 0
0.438917 0.022170 0.028239 255 220 0
0.470954 0.076446 0.041742 255 220 0
0.389004 0.066951 0.031937 255 220 0
0.416474 0.040057 0.071558 255 220 0
0.452687 0.049015 0.074873 255 220 0
0.395704 0.104457 0.076610 255 220 0
0.399049 0.139674 0.046527 255 220 0
0.415883 0.175623 0.087165 255 220 0
0.415285 0.125103 0.095899 255 220 0
0.419552 0.119127 0.026977 255 220 0
0.466648 0.119463 0.090318 255 220 0
0.434473 0.043546 0.012914 255 220 0
0.470042 0.069755 0.040345 255 220 0
0.415962 0.195063 0.059233 255 220 0
0.431726 0.168330 0.094558 255 220 0
0.419752 0.129317 0.098076 255 220 0
0.419599 0.143193 0.096748 255 220 0
0.400311 0.159200 0.056356 255 220 0
0.385371 0.087982 0.046756 255 220 0
0.427282 0.196129 0.064699 255 220 0
0.420376 0.096188 0.017828 255 220 0
0.439187 0.018738 0.039055 255 220 0
0.398794 0.102350 0.081121 255 220 0
0.450996 0.145727 0.048510 255 220 0
0.398260 0.069259 0.019587 255 220 0
0.422012 0.132412 0.098855 255 220 0
0.473100 0.087542 0.047384 255 220 0
0.428102 0.150008 0.040255 255 220 0
0.456714 0.147641 0.054196 255 220 0
0.395446 0.113186 0.033455 255 220 0
0.407779 0.102463 0.022060 255 220 0
0.432021 0.084199 0.014693 255 220 0
0.448177 0.154395 0.096009 255 220 0
0.458961 0.038068 0.054559 255 220 0
0.421102 0.071318 0.011335 255 220 0
0.474234 0.078647 0.065107 255 220 0
0.448490 0.143932 0.046005 255 220 0
0.456400 0.073345 0.087818 255 220 0
0.447791 0.023407 0.043606 255 220 0
0.467430 0.127588 0.088970 255 220 0
0.439551 0.189065 0.072098 255 220 0
0.400077 0.082811 0.081206 255 220 0
0.399890 0.163709 0.062328 255 220 0
0.462275 0.123278 0.045585 255 220 0
0.468707 0.075638 0.076714 255 220 0
0.407832 0.176588 0.079432 255 220 0
0.420635 0.052041 0.082953 255 220 0
0.471632 0.122794 0.060690 255 220 0
0.468050 0.104649 0.087800 255 220 0
0.467028 0.092579 0.038644 255 220 0
0.427904 0.167525 0.046334 255 220 0
0.408389 0.101754 0.091155 255 220 0
0.428083 0.095093 0.099256 255 220 0
0.422872 0.194701 0.057184 255 220 0
0.439624 0.064233 0.012016 255 220 0
0.467894 0.065390 0.036058 255 220 0
0.471554 0.092684 0.045788 255 220 0
0.404820 0.099548 0.022035 255 220 0
0.405382 0.098569 0.088430 255 220 0
0.469482 0.086938 0.040557 255 220 0
0.408769 0.135000 0.090263 255 220 0
0.393841 0.088054 0.073568 255 220 0
0.466719 0.126187 0.089849 255 220 0
0.390022 0.072763 0.062821 255 220 0
0.399710 0.162152 0.067327 255 220 0
0.442257 0.105774 0.025273 255 220 0
0.396451 0.046498 0.052970 255 220 0
0.474202 0.118815 0.065017 255 220 0
0.432618 0.100240 0.020234 255 220 0
0.418499 0.037340 0.070307 255 220 0
0.423953 0.022194 0.055055 255 220 0
0.440327 0.137252 0.101141 255 220 0
0.394569 0.053070 0.027572 255 220 0
0.438928 0.128958 0.101937 255 220 0
0.385675 0.084410 0.042513 255 220 0
0.470813 0.062245 0.056388 255 220 0
0.468431 0.055239 0.050902 255 220 0
0.426820 0.061129 0.010334 255 220 0
0.396989 0.048332 0.057189 255 220 0
0.466931 0.074077 0.078432 255 220 0
0.408385 0.063706 0.082688 255 220 0
0.457763 0.064115 0.022048 255 220 0
0.394115 0.065387 0.023815 255 220 0
0.402306 0.035411 0.049227 255 220 0
0.464112 0.044793 0.049175 255 220 0
0.455450 0.142055 0.095035 255 220 0
0.387148 0.071584 0.036158 255 220 0
0.396717 0.110262 0.030893 255 220 0
0.441244 0.170848 0.054553 255 220 0
0.394366 0.089302 0.025503 255 220 0
0.388974 0.098053 0.035710 255 220 0
0.467205 0.054531 0.057984 255 220 0
0.430051 0.016959 0.039933 255 220 0
0.423053 0.179596 0.088414 255 220 0
0.444688 0.119837 0.101068 255 220 0
0.463849 0.120317 0.045941 255 220 0
0.406388 0.144528 0.086511 255 220 0
0.445232 0.113443 0.100613 255 220 0
0.432600 0.120592 0.028525 255 220 0
0.393103 0.131011 0.059140 255 220 0
0.432652 0.036091 0.015531 255 220 0
0.467933 0.057279 0.060524 255 220 0
0.454196 0.080304 0.021965 255 220 0
0.386434 0.083283 0.055999 255 220 0
0.470610 0.099717 0.046799 255 220 0
0.414754 0.132286 0.033104 255 220 0
0.434023 0.047818 0.011802 255 220 0
0.395755 0.065094 0.070289 255 220 0
0.444053 0.090734 0.097717 255 220 0
0.411736 0.085492 0.015614 255 220 0
0.398886 0.101257 0.081252 255 220 0
0.446346 0.105636 0.099506 255 220 0
0.467910 0.108895 0.088551 255 220 0
0.466029 0.048848 0.043286 255 220 0
0.468322 0.056489 0.042220 255 220 0
0.467434 0.078393 0.079957 255 220 0
0.429368 0.018540 0.049685 255 220 0
0.390392 0.067435 0.060620 255 220 0
0.424199 0.018940 0.048941 255 220 0
0.437736 0.115964 0.027838 255 220 0
0.406752 0.150942 0.044173 255 220 0
0.424732 0.188658 0.083010 255 220 0
0.402317 0.099008 0.085368 255 220 0
0.435419 0.123153 0.030265 255 220 0
0.401003 0.095166 0.022389 255 220 0
0.389408 0.095900 0.065747 255 220 0
0.401986 0.174834 0.061451 255 220 0
0.412927 0.156194 0.042777 255 220 0
0.475966 0.092664 0.067039 255 220 0
0.463246 0.043887 0.036832 255 220 0
0.473974 0.074021 0.052402 255 220 0
0.455344 0.152177 0.055818 255 220 0
0.430414 0.156221 0.097904 255 220 0
0.400101 0.038225 0.048792 255 220 0
0.396203 0.068895 0.072696 255 220 0
0.470725 0.130007 0.064470 255 220 0
0.428030 0.173381 0.092221 255 220 0
0.406892 0.081804 0.087398 255 220 0
0.453978 0.114767 0.034586 255 220 0
0.425558 0.168385 0.093667 255 220 0
0.472247 0.089100 0.045967 255 220 0
0.433805 0.124961 0.030656 255 220 0
0.409908 0.121531 0.029286 255 220 0
0.396873 0.107574 0.029577 255 220 0
0.452187 0.148978 0.095362 255 220 0
0.438328 0.157796 0.097717 255 220 0
0.387569 0.109568 0.054023 255 220 0
0.421260 0.195051 0.057511 255 220 0
0.402149 0.074909 0.081544 255 220 0
0.441216 0.115757 0.028948 255 220 0
0.419099 0.099575 0.019131 255 220 0
0.407467 0.171047 0.081383 255 220 0
0.411022 0.028557 0.053836 255 220 0
0.419752 0.034629 0.068401 255 220 0
0.413190 0.036009 0.019005 255 220 0
0.414346 0.132119 0.033095 255 220 0
0.401356 0.132932 0.039336 255 220 0
0.452164 0.026895 0.040270 255 220 0
0.471835 0.072665 0.068426 255 220 0
0.404910 0.182636 0.070735 255 220 0
0.392919 0.051563 0.049110 255 220 0
0.430471 0.022877 0.057304 255 220 0
0.411360 0.094603 0.092728 255 220 0
0.389860 0.093810 0.066682 255 220 0
0.434283 0.158965 0.097569 255 220 0
0.418183 0.189226 0.080517 255 220 0
0.418394 0.019607 0.039591 255 220 0
0.452716 0.165784 0.063470 255 220 0
0.392410 0.050658 0.037883 255 220 0
0.436750 0.059323 0.088277 255 220 0
0.401938 0.171820 0.059012 255 220 0
0.408126 0.102741 0.022061 255 220 0
0.445158 0.148504 0.046269 255 220 0
0.446167 0.158154 0.095835 255 220 0
0.440816 0.077963 0.095354 255 220 0
0.431987 0.022404 0.025235 255 220 0
0.401111 0.089006 0.083279 255 220 0
0.439301 0.180177 0.057346 255 220 0
0.466122 0.059054 0.067870 255 220 0
0.396892 0.068846 0.073610 255 220 0
0.407622 0.123745 0.090133 255 220 0
0.435571 0.166269 0.048971 255 220 0
0.414504 0.116113 0.026082 255 220 0
0.425335 0.097345 0.099036 255 220 0
0.415142 0.178027 0.085624 255 220 0
0.397894 0.122555 0.036276 255 220 0
0.402897 0.168700 0.055003 255 220 0
0.394610 0.131719 0.068446 255 220 0
0.393930 0.126002 0.069085 255 220 0
0.397546 0.128665 0.040679 255 220 0
0.445686 0.047744 0.078231 255 220 0
0.441106 0.085404 0.017503 255 220 0
0.475853 0.091918 0.057530 255 220 0
0.401842 0.136361 0.081963 255 220 0
0.459751 0.105466 0.035028 255 220 0
0.389363 0.060565 0.048503 255 220 0
0.454064 0.040258 0.023766 255 220 0
0.435696 0.104331 0.022523 255 220 0
0.471420 0.083548 0.075914 255 220 0
0.475128 0.112986 0.063681 255 220 0
0.393541 0.071415 0.023799 255 220 0
0.475645 0.084902 0.057320 255 220 0
0.450067 0.176514 0.078438 255 220 0
0.400559 0.167996 0.063909 255 220 0
0.467406 0.059970 0.036240 255 220 0
0.439271 0.086724 0.097788 255 220 0
0.426905 0.084584 0.097239 255 220 0
0.408806 0.038951 0.064730 255 220 0
0.473858 0.101353 0.054055 255 220 0
0.399611 0.123559 0.035326 255 220 0
0.394159 0.093845 0.074384 255 220 0
0.430391 0.189629 0.055569 255 220 0
0.454711 0.159759 0.060891 255 220 0
0.449937 0.026165 0.049613 255 220 0
0.427215 0.098256 0.018737 255 220 0
0.409914 0.029842 0.054375 255 220 0
0.419228 0.156151 0.041746 255 220 0
0.428003 0.132425 0.032985 255 220 0
0.433941 0.176781 0.090771 255 220 0
0.469756 0.089291 0.081497 255 220 0
0.438842 0.057926 0.011545 255 220 0
0.405209 0.141520 0.041078 255 220 0
0.420674 0.163793 0.093445 255 220 0
0.457388 0.068819 0.084970 255 220 0
0.454348 0.031958 0.053849 255 220 0
0.423857 0.067725 0.091323 255 220 0
0.467781 0.053348 0.047985 255 220 0
0.422726 0.125461 0.099476 255 220 0
0.426179 0.017605 0.045635 255 220 0
0.398279 0.155235 0.065049 255 220 0
0.470354 0.111331 0.051520 255 220 0
0.424679 0.088660 0.097638 255 220 0
0.419075 0.095008 0.017488 255 220 0
0.388405 0.090699 0.034375 255 220 0
0.475639 0.116846 0.072208 255 220 0
0.431755 0.035580 0.015654 255 220 0
0.468144 0.105559 0.045228 255 220 0
0.393986 0.080108 0.023978 255 220 0
0.411087 0.029357 0.026817 255 220 0
0.433168 0.118932 0.101967 255 220 0
0.470259 0.105629 0.048726 255 220 0
0.430238 0.088363 0.015677 255 220 0
0.421680 0.027520 0.061366 255 220 0
0.467057 0.124683 0.089708 255 220 0
0.474887 0.098138 0.075828 255 220 0
0.424683 0.175783 0.047858 255 220 0
0.402331 0.177439 0.063369 255 220 0
0.439058 0.053739 0.084770 255 220 0
0.437157 0.123313 0.030823 255 220 0
0.451427 0.122864 0.036951 255 220 0
0.469474 0.080710 0.078068 255 220 0
0.391640 0.100038 0.070013 255 220 0
0.467943 0.054991 0.055117 255 220 0
0.461257 0.061007 0.025711 255 220 0
0.406156 0.060432 0.014896 255 220 0
0.465306 0.098196 0.088860 255 220 0
0.430618 0.183251 0.087099 255 220 0
0.402792 0.158792 0.051241 255 220 0
0.398593 0.064214 0.073655 255 220 0
0.440880 0.103127 0.100289 255 220 0
0.406884 0.028988 0.034878 255 220 0
0.452981 0.067938 0.087321 255 220 0
0.386006 0.099136 0.048219 255 220 0
0.407562 0.054086 0.076224 255 220 0
0.430301 0.114758 0.025681 255 220 0
0.399229 0.159868 0.061872 255 220 0
0.444022 0.171972 0.091452 255 220 0
0.420646 0.051578 0.011389 255 220 0
0.467621 0.057468 0.038140 255 220 0
0.414623 0.071614 0.012256 255 220 0
0.387296 0.107757 0.048569 255 220 0
0.387117 0.073427 0.053822 255 220 0
0.385658 0.077808 0.046681 255 220 0
0.461994 0.097150 0.034130 255 220 0
0.472502 0.130185 0.073949 255 220 0
0.449196 0.173675 0.087308 255 220 0
0.455846 0.151863 0.056140 255 220 0
0.459300 0.035129 0.042429 255 220 0
0.431484 0.189841 0.082008 255 220 0
0.463568 0.065503 0.077267 255 220 0
0.449594 0.086888 0.095336 255 220 0
0.432999 0.051677 0.084472 255 220 0
0.406331 0.069430 0.083518 255 220 0
0.437595 0.096220 0.019962 255 220 0
0.422560 0.119347 0.099510 255 220 0
0.457381 0.034603 0.034039 255 220 0
0.439095 0.092267 0.019046 255 220 0
0.446976 0.069428 0.090693 255 220 0
0.416088 0.167563 0.090119 255 220 0
0.434022 0.018175 0.047492 255 220 0
0.401396 0.154915 0.076873 255 220 0
0.456086 0.105272 0.095751 255 220 0
0.424945 0.089942 0.015712 255 220 0
0.457648 0.044041 0.065061 255 220 0
0.469735 0.074514 0.074316 255 220 0
0.449363 0.144648 0.046910 255 220 0
0.386814 0.090770 0.058684 255 220 0
0.415502 0.148490 0.039702 255 220 0
0.416869 0.194266 0.072846 255 220 0
0.433218 0.179627 0.052621 255 220 0
0.419578 0.032251 0.018492 255 220 0
0.423087 0.049836 0.082357 255 220 0
0.467219 0.053837 0.056307 255 220 0
0.439715 0.041258 0.075491 255 220 0
0.408125 0.158278 0.085909 255 220 0
0.396717 0.111728 0.077545 255 220 0
0.417443 0.020391 0.044716 255 220 0
0.464842 0.063544 0.030541 255 220 0
0.419390 0.188080 0.082026 255 220 0
0.429349 0.187993 0.053671 255 220 0
0.445882 0.140251 0.042657 255 220 0
0.422425 0.081081 0.095388 255 220 0
0.455360 0.159389 0.061563 255 220 0
0.452418 0.027534 0.047055 255 220 0
0.400126 0.062594 0.074539 255 220 0
0.440990 0.048605 0.013017 255 220 0
0.440232 0.056949 0.011891 255 220 0
0.442224 0.084844 0.096881 255 220 0
0.393552 0.047930 0.042680 255 220 0
0.399771 0.046404 0.060782 255 220 0
0.449766 0.106631 0.098583 255 220 0
0.399332 0.072261 0.077753 255 220 0
0.415666 0.057474 0.084030 255 220 0
0.468669 0.132748 0.061638 255 220 0
0.444690 0.077623 0.094406 255 220 0
0.422305 0.032365 0.017604 255 220 0
0.416692 0.110752 0.096805 255 220 0
0.448772 0.177691 0.081791 255 220 0
0.431811 0.073618 0.012013 255 220 0
0.395550 0.109796 0.031708 255 220 0
0.443924 0.137310 0.040172 255 220 0
0.449759 0.176527 0.073507 255 220 0
0.404458 0.058036 0.016066 255 220 0
0.470249 0.065741 0.042273 255 220 0
0.471427 0.069346 0.066469 255 220 0
0.465867 0.138594 0.060679 255 220 0
0.405694 0.086970 0.017894 255 220 0
0.389866 0.097044 0.066700 255 220 0
0.463958 0.137900 0.089983 255 220 0
0.456600 0.140226 0.094728 255 220 0
0.430334 0.033772 0.016388 255 220 0
0.439349 0.027552 0.061643 255 220 0
0.424466 0.037751 0.073299 255 220 0
0.405124 0.034732 0.026934 255 220 0
0.396127 0.139616 0.069172 255 220 0
0.393014 0.096296 0.028970 255 220 0
0.416177 0.169723 0.089504 255 220 0
0.442939 0.175385 0.089978 255 220 0
0.427329 0.196243 0.067382 255 220 0
0.385442 0.081696 0.045883 255 220 0
0.403479 0.175224 0.072504 255 220 0
0.445481 0.160602 0.095361 255 220 0
0.444782 0.119891 0.101047 255 220 0
0.470708 0.073091 0.041434 255 220 0
0.387449 0.109155 0.053144 255 220 0
0.467410 0.053386 0.041904 255 220 0
0.421414 0.038321 0.014860 255 220 0
0.433389 0.020591 0.053548 255 220 0
0.455136 0.167764 0.082721 255 220 0
0.406328 0.092287 0.088707 255 220 0
0.416048 0.175743 0.047397 255 220 0
0.387081 0.069241 0.038010 255 220 0
0.421913 0.194188 0.075300 255 220 0
0.416193 0.137153 0.035039 255 220 0
0.404339 0.079803 0.084831 255 220 0
0.393200 0.062234 0.063694 255 220 0
0.444595 0.160178 0.051687 255 220 0
0.474666 0.083115 0.066417 255 220 0
0.416926 0.023613 0.052465 255 220 0
0.410604 0.066893 0.012939 255 220 0
0.470172 0.093309 0.043618 255 220 0
0.444151 0.044976 0.015082 255 220 0
0.412694 0.045267 0.014851 255 220 0
0.458262 0.141559 0.051880 255 220 0
0.394710 0.052508 0.027657 255 220 0
0.396155 0.095354 0.077455 255 220 0
0.468653 0.099331 0.086123 255 220 0
0.423236 0.021848 0.027047 255 220 0
0.390871 0.079249 0.027541 255 220 0
0.393063 0.048885 0.038611 255 220 0
0.423777 0.157885 0.095980 255 220 0
0.435987 0.079365 0.014161 255 220 0
0.413696 0.100591 0.020057 255 220 0
0.403892 0.091488 0.086420 255 220 0
0.415871 0.054298 0.082155 255 220 0
0.461928 0.114471 0.041024 255 220 0
0.475003 0.099842 0.056478 255 220 0
0.428128 0.181887 0.087900 255 220 0
0.414255 0.023431 0.048448 255 220 0
0.393063 0.063713 0.064521 255 220 0
0.411000 0.059848 0.082533 255 220 0
0.407729 0.045997 0.017001 255 220 0
0.424052 0.078386 0.095088 255 220 0
0.454302 0.117653 0.036138 255 220 0
0.451595 0.154399 0.053722 255 220 0
0.459752 0.086086 0.028204 255 220 0
0.468765 0.056678 0.045219 255 220 0
0.409676 0.025669 0.039971 255 220 0
0.468229 0.054842 0.051677 255 220 0
0.460552 0.115165 0.094321 255 220 0
0.412996 0.070503 0.088363 255 220 0
0.406617 0.120263 0.029740 255 220 0
0.411914 0.122899 0.029419 255 220 0
0.422627 0.086650 0.096714 255 220 0
0.472376 0.118396 0.059440 255 220 0
0.390431 0.064705 0.058458 255 220 0
0.405802 0.161299 0.082351 255 220 0
0.436769 0.034806 0.016986 255 220 0
0.436932 0.021587 0.027959 255 220 0
0.404288 0.120522 0.086872 255 220 0
0.424983 0.195053 0.058690 255 220 0
0.444355 0.138713 0.100138 255 220 0
0.398187 0.066609 0.074295 255 220 0
0.410250 0.079433 0.014618 255 220 0
0.410123 0.097261 0.019583 255 220 0
0.451050 0.080557 0.020181 255 220 0
0.452171 0.048175 0.074551 255 220 0
0.461037 0.132108 0.048998 255 220 0
0.450116 0.029147 0.055711 255 220 0
0.401520 0.090810 0.020843 255 220 0
0.428577 0.175321 0.048964 255 220 0
0.426648 0.192658 0.055955 255 220 0
0.398492 0.124723 0.078631 255 220 0
0.428263 0.032410 0.068688 255 220 0
0.430172 0.042245 0.077984 255 220 0
0.455462 0.033498 0.031704 255 220 0
0.447017 0.088702 0.096566 255 220 0
0.402958 0.042498 0.022320 255 220 0
0.404072 0.087400 0.086046 255 220 0
0.469145 0.136588 0.083010 255 220 0
0.437714 0.083743 0.097316 255 220 0
0.391661 0.063255 0.060719 255 220 0
0.464190 0.150992 0.078608 255 220 0
0.468445 0.103395 0.044781 255 220 0
0.400943 0.165548 0.070621 255 220 0
0.430392 0.162647 0.096286 255 220 0
0.418253 0.029361 0.061789 255 220 0
0.407717 0.150974 0.043515 255 220 0
0.445115 0.182424 0.080710 255 220 0
0.460131 0.066452 0.081395 255 220 0
0.424874 0.103309 0.099506 255 220 0
0.414089 0.183651 0.050187 255 220 0
0.398759 0.066047 0.019301 255 220 0
0.463682 0.121209 0.092503 255 220 0
0.396691 0.145829 0.066632 255 220 0
0.434620 0.157038 0.044709 255 220 0
0.469842 0.093015 0.042976 255 220 0
0.396187 0.101006 0.077495 255 220 0
0.409572 0.066622 0.013284 255 220 0
0.447005 0.023909 0.049051 255 220 0
0.420453 0.184708 0.084747 255 220 0
0.388713 0.063610 0.050227 255 220 0
0.438517 0.144358 0.040861 255 220 0
0.430262 0.141789 0.037330 255 220 0
0.422951 0.148548 0.039240 255 220 0
0.467852 0.137270 0.085333 255 220 0
0.440524 0.145477 0.042284 255 220 0
0.404549 0.128772 0.034782 255 220 0
0.462196 0.101857 0.036101 255 220 0
0.455012 0.060674 0.019513 255 220 0
0.400535 0.050299 0.020820 255 220 0
0.452217 0.172235 0.083453 255 220 0
0.408340 0.175751 0.050611 255 220 0
0.458149 0.067208 0.022638 255 220 0
0.430508 0.107802 0.100916 255 220 0
0.419950 0.055676 0.084889 255 220 0
0.399702 0.140649 0.046186 255 220 0
0.393192 0.094545 0.072829 255 220 0
0.456079 0.034212 0.054446 255 220 0
0.409946 0.124207 0.092171 255 220 0
0.471989 0.077267 0.071274 255 220 0
0.403040 0.172004 0.056090 255 220 0
0.458735 0.043858 0.027079 255 220 0
0.412828 0.132879 0.033716 255 220 0
0.454257 0.073903 0.089327 255 220 0
0.428051 0.016970 0.041015 255 220 0
0.462072 0.153167 0.069543 255 220 0
0.415049 0.189267 0.052579 255 220 0
0.422498 0.135619 0.034053 255 220 0
0.453744 0.067144 0.086479 255 220 0
0.385656 0.082400 0.042546 255 220 0
0.431343 0.190399 0.057091 255 220 0
0.472843 0.068372 0.057442 255 220 0
0.392725 0.128174 0.052494 255 220 0
0.475472 0.112037 0.077143 255 220 0
0.453658 0.118024 0.035913 255 220 0
0.430763 0.124160 0.029731 255 220 0
0.470924 0.118227 0.085976 255 220 0
0.476749 0.102801 0.066743 255 220 0
0.390036 0.117833 0.060072 255 220 0
0.423305 0.119390 0.027063 255 220 0
0.402106 0.168694 0.056762 255 220 0
0.395625 0.056094 0.063466 255 220 0
0.417521 0.188736 0.051575 255 220 0
0.462352 0.044691 0.032899 255 220 0
0.432017 0.028474 0.064324 255 220 0
0.412080 0.085190 0.091681 255 220 0
0.427203 0.079206 0.012825 255 220 0
0.397831 0.136096 0.045928 255 220 0
0.459630 0.149041 0.090375 255 220 0
0.405293 0.116519 0.028571 255 220 0
0.415292 0.053942 0.081587 255 220 0
0.418114 0.042309 0.074479 255 220 0
0.408940 0.079074 0.088279 255 220 0
0.464860 0.056759 0.067700 255 220 0
0.396487 0.139785 0.052239 255 220 0
0.387476 0.108553 0.048363 255 220 0
0.424398 0.100172 0.019271 255 220 0
0.461888 0.047983 0.029479 255 220 0
0.422556 0.039091 0.073856 255 220 0
0.473027 0.094702 0.078464 255 220 0
0.419357 0.029350 0.020690 255 220 0
0.405544 0.045795 0.068084 255 220 0
0.405179 0.183916 0.058361 255 220 0
0.405880 0.185526 0.070243 255 220 0
0.441578 0.033676 0.067634 255 220 0
0.403817 0.174828 0.055717 255 220 0
0.436632 0.041380 0.076506 255 220 0
0.405230 0.087335 0.018179 255 220 0
0.453062 0.102081 0.028667 255 220 0
0.411141 0.070495 0.087303 255 220 0
0.389642 0.109242 0.064197 255 220 0
0.447150 0.036023 0.066937 255 220 0
0.423609 0.041972 0.076673 255 220 0
0.401020 0.070547 0.078987 255 220 0
0.446297 0.044753 0.075481 255 220 0
0.461724 0.154402 0.083720 255 220 0
0.441422 0.157643 0.048368 255 220 0
0.466165 0.113619 0.090480 255 220 0
0.420817 0.125199 0.029544 255 220 0
0.403958 0.181777 0.068607 255 220 0
0.417236 0.078030 0.012871 255 220 0
0.400282 0.088751 0.021000 255 220 0
0.423985 0.144874 0.098303 255 220 0
0.450674 0.170609 0.064919 255 220 0
0.474414 0.078220 0.051674 255 220 0
0.437814 0.138926 0.101209 255 220 0
0.400917 0.147644 0.078087 255 220 0
0.386326 0.094725 0.056599 255 220 0
0.394415 0.135267 0.064565 255 220 0
0.388143 0.110045 0.058137 255 220 0
0.458349 0.159150 0.067644 255 220 0
0.429589 0.129387 0.101324 255 220 0
0.397140 0.095474 0.078843 255 220 0
0.452372 0.086197 0.094089 255 220 0
0.400642 0.129944 0.038184 255 220 0
0.458600 0.086925 0.027373 255 220 0
0.419403 0.035885 0.016478 255 220 0
0.400702 0.051847 0.020134 255 220 0
0.468909 0.066201 0.038278 255 220 0
0.463345 0.152065 0.081525 255 220 0
0.450089 0.075279 0.091829 255 220 0
0.442911 0.140061 0.100324 255 220 0
0.452370 0.137951 0.097255 255 220 0
0.402089 0.052137 0.069796 255 220 0
0.468058 0.111437 0.047691 255 220 0
0.404803 0.030300 0.039648 255 220 0
0.408357 0.031632 0.054925 255 220 0
0.457136 0.164564 0.074799 255 220 0
0.406463 0.163072 0.048457 255 220 0
0.390862 0.113607 0.040469 255 220 0
0.469217 0.139162 0.079022 255 220 0
0.472760 0.116200 0.083368 255 220 0
0.403062 0.072622 0.016616 255 220 0
0.434669 0.086906 0.016035 255 220 0
0.408406 0.099057 0.091018 255 220 0
0.432128 0.126788 0.031107 255 220 0
0.418947 0.019352 0.039370 255 220 0
0.466742 0.121129 0.090214 255 220 0
0.406526 0.142303 0.087004 255 220 0
0.474814 0.110746 0.061178 255 220 0
0.406568 0.062093 0.080398 255 220 0
0.398177 0.154837 0.064185 255 220 0
0.454640 0.144815 0.094918 255 220 0
0.457948 0.108606 0.034729 255 220 0
0.406127 0.049814 0.016713 255 220 0
0.420382 0.053429 0.011183 255 220 0
0.395263 0.140302 0.063058 255 220 0
0.476438 0.096426 0.062631 255 220 0
0.413253 0.023780 0.034587 255 220 0
0.459276 0.098755 0.093098 255 220 0
0.412517 0.122697 0.094211 255 220 0
0.462176 0.149221 0.063983 255 220 0
0.422462 0.169483 0.092437 255 220 0
0.451495 0.170038 0.087789 255 220 0
0.472818 0.073430 0.066072 255 220 0
0.456390 0.153753 0.091520 255 220 0
0.472199 0.126005 0.064998 255 220 0
0.399141 0.159943 0.064752 255 220 0
0.412152 0.146640 0.039860 255 220 0
0.397522 0.130873 0.042330 255 220 0
0.446398 0.175084 0.088585 255 220 0
0.394454 0.128014 0.045570 255 220 0
0.457402 0.049248 0.023145 255 220 0
0.404004 0.177062 0.056380 255 220 0
0.469189 0.087246 0.040174 255 220 0
0.442733 0.185631 0.077759 255 220 0
0.396097 0.054880 0.063222 255 220 0
0.469805 0.138107 0.075254 255 220 0
0.425195 0.027537 0.020310 255 220 0
0.451919 0.123545 0.098700 255 220 0
0.472037 0.082959 0.044347 255 220 0
0.413927 0.056545 0.082467 255 220 0
0.446912 0.067609 0.089903 255 220 0
0.390027 0.082326 0.029321 255 220 0
0.442817 0.163372 0.095257 255 220 0
0.432164 0.021151 0.026976 255 220 0
0.415226 0.161101 0.091305 255 220 0
0.409448 0.152058 0.042903 255 220 0
0.452689 0.072165 0.089435 255 220 0
0.420973 0.092506 0.016541 255 220 0
0.390226 0.075615 0.064485 255 220 0
0.392353 0.089054 0.071176 255 220 0
0.398579 0.038074 0.038675 255 220 0
0.467546 0.138238 0.064480 255 220 0
0.405009 0.043685 0.019831 255 220 0
0.414811 0.194473 0.070563 255 220 0
0.460912 0.038134 0.046919 255 220 0
0.405755 0.071180 0.083659 255 220 0
0.417906 0.061496 0.087069 255 220 0
0.409928 0.039872 0.066653 255 220 0
0.387568 0.083235 0.034605 255 220 0
0.417276 0.024473 0.027364 255 220 0
0.424708 0.134928 0.099646 255 220 0
0.415555 0.187446 0.080415 255 220 0
0.474005 0.081300 0.049286 255 220 0
0.469888 0.059146 0.050897 255 220 0
0.412172 0.125321 0.093840 255 220 0
0.429641 0.043235 0.012592 255 220 0
0.426221 0.034655 0.015887 255 220 0
0.415564 0.180983 0.084426 255 220 0
0.473013 0.128268 0.076448 255 220 0
0.424011 0.062235 0.010422 255 220 0
0.425350 0.165596 0.045101 255 220 0
0.385631 0.089665 0.044184 255 220 0
0.402370 0.111336 0.085195 255 220 0
0.420868 0.061762 0.088130 255 220 0
0.410093 0.060484 0.082253 255 220 0
0.462840 0.111490 0.092636 255 220 0
0.461310 0.156489 0.081384 255 220 0
0.475345 0.080918 0.058314 255 220 0
0.469145 0.067143 0.038649 255 220 0
0.419516 0.064453 0.010872 255 220 0
0.410018 0.031150 0.056536 255 220 0
0.470447 0.115382 0.053670 255 220 0
0.421715 0.050395 0.011416 255 220 0
0.449833 0.173670 0.067054 255 220 0
0.445226 0.042173 0.073875 255 220 0
0.464100 0.134279 0.054163 255 220 0
0.432941 0.182597 0.053501 255 220 0
0.440439 0.184585 0.061725 255 220 0
0.391759 0.100885 0.032145 255 220 0
0.458731 0.080115 0.088882 255 220 0
0.456181 0.035764 0.056768 255 220 0
0.413933 0.082361 0.092134 255 220 0
0.418858 0.185731 0.083453 255 220 0
0.427457 0.034702 0.071022 255 220 0
0.387407 0.075221 0.056286 255 220 0
0.467188 0.099910 0.041533 255 220 0
0.417799 0.183073 0.084559 255 220 0
0.446179 0.077723 0.094028 255 220 0
0.409878 0.025604 0.042744 255 220 0
0.453836 0.033336 0.057031 255 220 0
0.461788 0.096943 0.033834 255 220 0
0.467093 0.140087 0.084967 255 220 0
0.428873 0.018420 0.032676 255 220 0
0.423535 0.070921 0.011163 255 220 0
0.405363 0.186193 0.060907 255 220 0
0.421229 0.023704 0.056009 255 220 0
0.472885 0.089034 0.047259 255 220 0
0.445112 0.182858 0.071993 255 220 0
0.453940 0.170477 0.079203 255 220 0
0.414699 0.035444 0.066086 255 220 0
0.452784 0.161595 0.059763 255 220 0
0.447793 0.027087 0.029384 255 220 0
0.446614 0.072300 0.091994 255 220 0
0.423140 0.150852 0.097102 255 220 0
0.472486 0.101164 0.050947 255 220 0
0.461150 0.070830 0.026149 255 220 0
0.435897 0.102212 0.100560 255 220 0
0.394751 0.102726 0.075206 255 220 0
0.460009 0.144790 0.091421 255 220 0
0.450645 0.051313 0.078191 255 220 0
0.438938 0.188064 0.064080 255 220 0
0.391467 0.093205 0.069820 255 220 0
0.388989 0.063355 0.034347 255 220 0
0.411925 0.117639 0.093983 255 220 0
0.429034 0.160564 0.096667 255 220 0
0.438396 0.062739 0.089757 255 220 0
0.456250 0.061930 0.020581 255 220 0
0.440556 0.116669 0.029084 255 220 0
0.439792 0.183585 0.059947 255 220 0
0.424335 0.159273 0.095853 255 220 0
0.463371 0.042516 0.041966 255 220 0
0.465770 0.140102 0.061984 255 220 0
0.439048 0.120010 0.101995 255 220 0
0.400077 0.165295 0.064019 255 220 0
0.401684 0.154997 0.051288 255 220 0
0.396049 0.103230 0.028509 255 220 0
0.470672 0.135775 0.076777 255 220 0
0.386665 0.076265 0.053790 255 220 0
0.398601 0.131714 0.041476 255 220 0
0.443885 0.173829 0.090544 255 220 0
0.442122 0.183777 0.063647 255 220 0
0.437444 0.027061 0.061716 255 220 0
0.443332 0.175485 0.058703 255 220 0
0.406676 0.069237 0.083721 255 220 0
0.412719 0.023416 0.037948 255 220 0
0.385431 0.090572 0.050298 255 220 0
0.403901 0.156388 0.048845 255 220 0
0.401307 0.171716 0.066526 255 220 0
0.412779 0.186918 0.052141 255 220 0
0.431489 0.021005 0.054504 255 220 0
0.456850 0.123747 0.096464 255 220 0
0.466849 0.085793 0.036352 255 220 0
0.437897 0.018240 0.039955 255 220 0
0.448635 0.108588 0.029134 255 220 0
0.449008 0.044682 0.073795 255 220 0
0.428818 0.132402 0.100993 255 220 0
0.429263 0.118688 0.101398 255 220 0
0.450429 0.171685 0.065696 255 220 0
0.474039 0.090731 0.073679 255 220 0
0.441184 0.032263 0.019990 255 220 0
0.429104 0.154976 0.097954 255 220 0
0.390415 0.114877 0.063959 255 220 0
0.401551 0.079910 0.082206 255 220 0
0.438721 0.103443 0.023053 255 220 0
0.388314 0.093255 0.063189 255 220 0
0.387577 0.065229 0.040990 255 220 0
0.404662 0.129497 0.035089 255 220 0
0.400876 0.080807 0.081692 255 220 0
0.394756 0.055205 0.060479 255 220 0
0.466539 0.080026 0.034558 255 220 0
0.411155 0.126143 0.031041 255 220 0
0.397329 0.049850 0.060023 255 220 0
0.429771 0.037503 0.073915 255 220 0
0.426493 0.120578 0.100769 255 220 0
0.415656 0.050322 0.079250 255 220 0
0.396261 0.062204 0.069440 255 220 0
0.466604 0.055652 0.035965 255 220 0
0.428294 0.068140 0.010829 255 220 0
0.452024 0.048270 0.018670 255 220 0
0.427555 0.093479 0.098960 255 220 0
0.430528 0.189421 0.055508 255 220 0
0.428866 0.044002 0.012356 255 220 0
0.452985 0.161376 0.091372 255 220 0
0.398473 0.152228 0.057111 255 220 0
0.472168 0.087821 0.045486 255 220 0
0.458189 0.082900 0.090145 255 220 0
0.435932 0.060033 0.088718 255 220 0
0.427469 0.052149 0.084638 255 220 0
0.467185 0.059680 0.066329 255 220 0
0.416363 0.098522 0.018960 255 220 0
0.453607 0.169633 0.071532 255 220 0
0.410934 0.119312 0.028049 255 220 0
0.450569 0.034528 0.062574 255 220 0
0.451137 0.088342 0.022676 255 220 0
0.457569 0.083343 0.090665 255 220 0
0.429809 0.038485 0.074809 255 220 0
0.461933 0.069298 0.081412 255 220 0
0.475442 0.114806 0.066584 255 220 0
0.448818 0.072468 0.016929 255 220 0
0.402997 0.137412 0.083391 255 220 0
0.426165 0.066930 0.091428 255 220 0
0.401701 0.112015 0.084354 255 220 0
0.423630 0.023640 0.024409 255 220 0
0.409952 0.074527 0.013875 255 220 0
0.397154 0.123531 0.037637 255 220 0
0.407482 0.067983 0.083877 255 220 0
0.393134 0.060258 0.061833 255 220 0
0.446549 0.113690 0.100278 255 220 0
0.464716 0.046757 0.038559 255 220 0
0.412077 0.080846 0.090722 255 220 0
0.410495 0.086354 0.090913 255 220 0
0.466440 0.049766 0.044770 255 220 0
0.412736 0.137920 0.093239 255 220 0
0.468060 0.055763 0.056617 255 220 0
0.454698 0.163840 0.088458 255 220 0
0.413161 0.050297 0.013366 255 220 0
0.460344 0.104792 0.093384 255 220 0
0.453740 0.078203 0.091195 255 220 0
0.405685 0.032072 0.050747 255 220 0
0.429747 0.190561 0.055888 255 220 0
0.398813 0.139537 0.076216 255 220 0
0.395181 0.075124 0.073291 255 220 0
0.398299 0.044363 0.027012 255 220 0
0.444934 0.054974 0.083693 255 220 0
0.447479 0.121092 0.100313 255 220 0
0.421271 0.020712 0.030412 255 220 0
0.407239 0.146212 0.041937 255 220 0
0.470973 0.091743 0.044432 255 220 0
0.392908 0.066631 0.025058 255 220 0
0.407158 0.028291 0.036719 255 220 0
0.430513 0.186489 0.053590 255 220 0
0.471688 0.119807 0.084803 255 220 0
0.395381 0.046075 0.048494 255 220 0
0.427970 0.068494 0.010858 255 220 0
0.443696 0.052099 0.013324 255 220 0
0.439603 0.145788 0.041980 255 220 0
0.470839 0.134291 0.071024 255 220 0
0.459970 0.123455 0.043324 255 220 0
0.465483 0.100576 0.039494 255 220 0
0.427696 0.190019 0.054038 255 220 0
0.453109 0.131003 0.042068 255 220 0
0.426325 0.182669 0.050039 255 220 0
0.469255 0.136017 0.066944 255 220 0
0.468715 0.087884 0.039612 255 220 0
0.450449 0.168096 0.062035 255 220 0
0.462007 0.125827 0.046612 255 220 0
0.418111 0.182083 0.048881 255 220 0
