ply
format ascii 1.0
element vertex 1024
property float x
property float y
property float z
property uchar red
property uchar green
property uchar blue
end_header
0.392839 0.110719 0.284898 255 220 0
0.356829 0.106994 0.227043 255 220 0
0.443704 0.093156 0.245251 255 220 0
0.403542 0.057235 0.247102 255 220 0
0.434905 0.120457 0.224075 255 220 0
0.386388 0.113990 0.195952 255 220 0
0.400300 0.100894 0.282217 255 220 0
0.392790 0.182451 0.295379 255 220 0
0.437829 0.123783 0.278677 255 220 0
0.420558 0.106222 0.199812 255 220 0
0.401516 0.058039 0.248357 255 220 0
0.425884 0.061412 0.199810 255 220 0
0.406655 0.120138 0.201693 255 220 0
0.404910 0.094608 0.279331 255 220 0
0.434454 0.085362 0.258972 255 220 0
0.358522 0.131071 0.238581 255 220 0
0.382734 0.063562 0.192154 255 220 0
0.400004 0.141974 0.295898 255 220 0
0.360109 0.132831 0.249370 255 220 0
0.401369 0.078863 0.269248 255 220 0
0.407475 0.072079 0.263285 255 220 0
0.407131 0.097291 0.280573 255 220 0
0.359150 0.095559 0.214695 255 220 0
0.400652 0.055917 0.189558 255 220 0
0.388194 0.117552 0.197726 255 220 0
0.391200 0.112201 0.194553 255 220 0
0.405886 0.188355 0.255684 255 220 0
0.443017 0.096431 0.228385 255 220 0
0.412724 0.068529 0.188142 255 220 0
0.385119 0.202281 0.256771 255 220 0
0.444876 0.101752 0.247977 255 220 0
0.409442 0.193822 0.290385 255 220 0
0.440107 0.141908 0.260660 255 220 0
0.386281 0.205776 0.259324 255 220 0
0.379492 0.125991 0.282437 255 220 0
0.424087 0.052299 0.222785 255 220 0
0.410622 0.154705 0.230664 255 220 0
0.382995 0.081136 0.264599 255 220 0
0.409149 0.192033 0.292146 255 220 0
0.439760 0.144014 0.264476 255 220 0
0.381675 0.156506 0.227215 255 220 0
0.419810 0.180822 0.288162 255 220 0
0.443617 0.097585 0.230861 255 220 0
0.440962 0.094655 0.221113 255 220 0
0.374678 0.186540 0.281344 255 220 0
0.414226 0.145547 0.224958 255 220 0
0.399719 0.076363 0.267062 255 220 0
0.444322 0.093832 0.238527 255 220 0
0.379330 0.103347 0.274704 255 220 0
0.396060 0.052588 0.192478 255 220 0
0.441370 0.123497 0.240928 255 220 0
0.407233 0.171732 0.297930 255 220 0
0.391074 0.090989 0.275234 255 220 0
0.375810 0.121281 0.277776 255 220 0
0.392579 0.082089 0.269887 255 220 0
0.357671 0.123605 0.240352 255 220 0
0.438264 0.075750 0.234978 255 220 0
0.386656 0.050362 0.226426 255 220 0
0.386412 0.131110 0.206683 255 220 0
0.380290 0.099553 0.191516 255 220 0
0.438604 0.141468 0.252615 255 220 0
0.379429 0.056296 0.228303 255 220 0
0.385890 0.184888 0.292347 255 220 0
0.418856 0.072863 0.260272 255 220 0
0.433518 0.063594 0.215040 255 220 0
0.408167 0.198330 0.286082 255 220 0
0.372323 0.078099 0.251284 255 220 0
0.414356 0.159899 0.237966 255 220 0
0.431332 0.091850 0.267695 255 220 0
0.439578 0.139484 0.253412 255 220 0
0.438930 0.081824 0.246389 255 220 0
0.404384 0.173104 0.242641 255 220 0
0.435480 0.152086 0.258410 255 220 0
0.424101 0.177259 0.275007 255 220 0
0.403790 0.086083 0.274457 255 220 0
0.413489 0.187741 0.263373 255 220 0
0.382523 0.060754 0.241403 255 220 0
0.412000 0.090065 0.276109 255 220 0
0.443085 0.123464 0.246909 255 220 0
0.367304 0.142307 0.269289 255 220 0
0.372749 0.174935 0.280105 255 220 0
0.359640 0.113457 0.247774 255 220 0
0.434635 0.097099 0.208797 255 220 0
0.416981 0.111670 0.285448 255 220 0
0.369803 0.154517 0.233816 255 220 0
0.428762 0.130703 0.223936 255 220 0
0.383395 0.061171 0.193206 255 220 0
0.422793 0.171127 0.290778 255 220 0
0.399339 0.119716 0.289901 255 220 0
0.390614 0.146348 0.293794 255 220 0
0.444103 0.105472 0.255283 255 220 0
0.376650 0.161668 0.234052 255 220 0
0.397234 0.053183 0.240513 255 220 0
0.417084 0.155042 0.235667 255 220 0
0.385080 0.054528 0.233673 255 220 0
0.390112 0.097820 0.188623 255 220 0
0.436703 0.095193 0.211503 255 220 0
0.421319 0.056345 0.236438 255 220 0
0.408884 0.161753 0.235781 255 220 0
0.428005 0.077858 0.258733 255 220 0
0.407960 0.076828 0.267419 255 220 0
0.382739 0.050974 0.207461 255 220 0
0.433800 0.084207 0.203812 255 220 0
0.405556 0.053307 0.240796 255 220 0
0.438019 0.084975 0.211633 255 220 0
0.398225 0.154341 0.225675 255 220 0
0.430181 0.066876 0.202066 255 220 0
0.435555 0.094252 0.264765 255 220 0
0.425775 0.106213 0.203434 255 220 0
0.425900 0.088358 0.269469 255 220 0
0.361508 0.092371 0.208097 255 220 0
0.440107 0.081214 0.220613 255 220 0
0.379428 0.103718 0.274942 255 220 0
0.369252 0.084723 0.252842 255 220 0
0.421573 0.110732 0.203370 255 220 0
0.380689 0.098817 0.273659 255 220 0
0.425386 0.070385 0.195227 255 220 0
0.361735 0.133773 0.255091 255 220 0
0.432459 0.118317 0.218695 255 220 0
0.357195 0.120387 0.237771 255 220 0
0.364126 0.137527 0.224221 255 220 0
0.383892 0.053831 0.230571 255 220 0
0.414162 0.165609 0.243012 255 220 0
0.417704 0.116254 0.287064 255 220 0
0.406703 0.138828 0.215648 255 220 0
0.417637 0.104148 0.196794 255 220 0
0.444680 0.108429 0.255308 255 220 0
0.406209 0.170422 0.241456 255 220 0
0.402347 0.198009 0.291128 255 220 0
0.393361 0.102883 0.281884 255 220 0
0.403044 0.060765 0.251802 255 220 0
0.376027 0.110131 0.274469 255 220 0
0.392780 0.173913 0.296314 255 220 0
0.385814 0.049060 0.205451 255 220 0
0.444170 0.112023 0.261000 255 220 0
0.368160 0.068142 0.218410 255 220 0
0.374520 0.201256 0.270605 255 220 0
0.381367 0.125377 0.283741 255 220 0
0.393656 0.116862 0.287456 255 220 0
0.372835 0.074664 0.195189 255 220 0
0.430895 0.073878 0.250795 255 220 0
0.391587 0.098704 0.188754 255 220 0
0.380061 0.143544 0.286667 255 220 0
0.444963 0.119936 0.253534 255 220 0
0.381021 0.140001 0.213979 255 220 0
0.363625 0.079280 0.233002 255 220 0
0.377505 0.059576 0.200635 255 220 0
0.422611 0.052085 0.206294 255 220 0
0.435867 0.069921 0.212605 255 220 0
0.390224 0.171701 0.237973 255 220 0
0.440150 0.142199 0.271364 255 220 0
0.373213 0.191510 0.276831 255 220 0
0.371994 0.078921 0.194951 255 220 0
0.382512 0.065047 0.247797 255 220 0
0.430212 0.139372 0.233380 255 220 0
0.388179 0.048044 0.222096 255 220 0
0.406901 0.074180 0.265276 255 220 0
0.366591 0.117686 0.264173 255 220 0
0.365683 0.075840 0.207964 255 220 0
0.368299 0.173518 0.259198 255 220 0
0.403072 0.188145 0.253343 255 220 0
0.379110 0.178073 0.244754 255 220 0
0.424497 0.092658 0.273153 255 220 0
0.432197 0.071172 0.244656 255 220 0
0.388584 0.061413 0.248482 255 220 0
0.400398 0.185969 0.250133 255 220 0
0.399832 0.056813 0.189115 255 220 0
0.425162 0.157710 0.291550 255 220 0
0.408996 0.156831 0.297611 255 220 0
0.419738 0.109648 0.201465 255 220 0
0.398767 0.168432 0.297874 255 220 0
0.401376 0.101220 0.282449 255 220 0
0.443443 0.104532 0.231987 255 220 0
0.407135 0.125861 0.205874 255 220 0
0.392989 0.211105 0.272243 255 220 0
0.415177 0.120622 0.206006 255 220 0
0.424025 0.149692 0.236634 255 220 0
0.417242 0.046929 0.218391 255 220 0
0.403942 0.157769 0.230090 255 220 0
0.383659 0.161867 0.231197 255 220 0
0.383636 0.205971 0.280863 255 220 0
0.430376 0.067608 0.242151 255 220 0
0.383014 0.167158 0.235603 255 220 0
0.393962 0.092772 0.277126 255 220 0
0.405014 0.100136 0.190150 255 220 0
0.424928 0.100026 0.199252 255 220 0
0.423041 0.067570 0.251257 255 220 0
0.361383 0.096964 0.245704 255 220 0
0.400694 0.156925 0.228378 255 220 0
0.414976 0.046529 0.221597 255 220 0
0.441317 0.083317 0.226982 255 220 0
0.397043 0.045747 0.224806 255 220 0
0.410014 0.101452 0.192029 255 220 0
0.410596 0.058655 0.247216 255 220 0
0.415579 0.115202 0.287244 255 220 0
0.376713 0.160575 0.285466 255 220 0
0.435809 0.070502 0.211538 255 220 0
0.371696 0.144931 0.222209 255 220 0
0.410459 0.174236 0.247497 255 220 0
0.438212 0.110535 0.272461 255 220 0
0.397972 0.105966 0.284183 255 220 0
0.423219 0.076820 0.261553 255 220 0
0.357869 0.115661 0.222900 255 220 0
0.406903 0.096801 0.280344 255 220 0
0.369004 0.103235 0.263370 255 220 0
0.425178 0.129775 0.219835 255 220 0
0.421273 0.146963 0.231551 255 220 0
0.435349 0.067431 0.224722 255 220 0
0.429915 0.057908 0.220113 255 220 0
0.370105 0.064847 0.213825 255 220 0
0.367779 0.167662 0.253456 255 220 0
0.442908 0.122844 0.245497 255 220 0
0.427637 0.054891 0.216311 255 220 0
0.380524 0.076914 0.259519 255 220 0
0.412666 0.051229 0.196043 255 220 0
0.442679 0.098835 0.227466 255 220 0
0.362777 0.095289 0.204993 255 220 0
0.384632 0.057944 0.239277 255 220 0
0.420084 0.064369 0.249497 255 220 0
0.363468 0.119486 0.258484 255 220 0
0.370880 0.161213 0.239499 255 220 0
0.382153 0.184592 0.290031 255 220 0
0.380310 0.133608 0.284916 255 220 0
0.393794 0.145769 0.218024 255 220 0
0.431949 0.127730 0.284725 255 220 0
0.410355 0.076026 0.186489 255 220 0
0.441953 0.092783 0.224241 255 220 0
0.386016 0.210662 0.268501 255 220 0
0.396848 0.175032 0.297211 255 220 0
0.384451 0.136934 0.288689 255 220 0
0.384499 0.150669 0.291076 255 220 0
0.370839 0.177416 0.254229 255 220 0
0.357217 0.111815 0.224255 255 220 0
0.396501 0.209837 0.275469 255 220 0
0.395805 0.126019 0.203310 255 220 0
0.411474 0.045071 0.205505 255 220 0
0.365921 0.116156 0.262635 255 220 0
0.422098 0.164603 0.249711 255 220 0
0.373612 0.100411 0.194998 255 220 0
0.386590 0.139631 0.290545 255 220 0
0.444065 0.107974 0.236075 255 220 0
0.400528 0.171746 0.239998 255 220 0
0.427003 0.164745 0.256389 255 220 0
0.369026 0.139234 0.219525 255 220 0
0.382763 0.131427 0.207389 255 220 0
0.407748 0.114850 0.198642 255 220 0
0.412934 0.160605 0.297031 255 220 0
0.429015 0.058910 0.227996 255 220 0
0.397360 0.103714 0.190611 255 220 0
0.442793 0.094705 0.250800 255 220 0
0.419949 0.163623 0.246517 255 220 0
0.422060 0.084296 0.268793 255 220 0
0.419395 0.048061 0.212202 255 220 0
0.432917 0.135889 0.285690 255 220 0
0.407652 0.200629 0.282254 255 220 0
0.367151 0.097245 0.257705 255 220 0
0.369626 0.180212 0.261076 255 220 0
0.433634 0.143307 0.242425 255 220 0
0.435751 0.088964 0.260380 255 220 0
0.375216 0.187849 0.281858 255 220 0
0.387241 0.066356 0.253879 255 220 0
0.440875 0.138530 0.257939 255 220 0
0.433655 0.114054 0.278575 255 220 0
0.439230 0.115349 0.228273 255 220 0
0.399541 0.187050 0.250423 255 220 0
0.374079 0.112593 0.273305 255 220 0
0.392495 0.103315 0.281826 255 220 0
0.393138 0.210594 0.267340 255 220 0
0.415611 0.096017 0.191777 255 220 0
0.440394 0.089778 0.218710 255 220 0
0.442755 0.113408 0.235712 255 220 0
0.379830 0.128732 0.206211 255 220 0
0.371461 0.110349 0.269468 255 220 0
0.441396 0.109317 0.228924 255 220 0
0.374626 0.144872 0.281309 255 220 0
0.362006 0.104536 0.250990 255 220 0
0.432093 0.134334 0.286067 255 220 0
0.359643 0.092753 0.236175 255 220 0
0.368774 0.177406 0.265416 255 220 0
0.416501 0.132499 0.215791 255 220 0
0.367298 0.069772 0.220634 255 220 0
0.442834 0.133462 0.261352 255 220 0
0.407618 0.128841 0.208264 255 220 0
0.386802 0.055576 0.237624 255 220 0
0.394233 0.044771 0.219741 255 220 0
0.404439 0.143019 0.296379 255 220 0
0.368857 0.082842 0.197863 255 220 0
0.402933 0.134865 0.294761 255 220 0
0.358083 0.109472 0.219294 255 220 0
0.440549 0.081304 0.237681 255 220 0
0.438916 0.076076 0.230274 255 220 0
0.403144 0.093940 0.187693 255 220 0
0.367267 0.070415 0.225222 255 220 0
0.433759 0.087073 0.261378 255 220 0
0.375155 0.078127 0.255133 255 220 0
0.432237 0.092600 0.203676 255 220 0
0.368931 0.095722 0.197477 255 220 0
0.373587 0.059847 0.214877 255 220 0
0.434853 0.066617 0.225299 255 220 0
0.420253 0.148693 0.293771 255 220 0
0.360377 0.098717 0.210013 255 220 0
0.370626 0.137039 0.216466 255 220 0
0.411661 0.187603 0.260880 255 220 0
0.368989 0.118330 0.205459 255 220 0
0.362287 0.124290 0.216834 255 220 0
0.436748 0.073581 0.236696 255 220 0
0.402301 0.043464 0.204692 255 220 0
0.389097 0.187829 0.293205 255 220 0
0.408744 0.126084 0.292258 255 220 0
0.435142 0.140300 0.242184 255 220 0
0.372785 0.155132 0.279941 255 220 0
0.409334 0.120018 0.290200 255 220 0
0.406517 0.146292 0.221576 255 220 0
0.363280 0.149771 0.248489 255 220 0
0.408187 0.068218 0.186779 255 220 0
0.437132 0.075537 0.239946 255 220 0
0.428738 0.108364 0.207425 255 220 0
0.357021 0.104820 0.231980 255 220 0
0.441694 0.119960 0.238420 255 220 0
0.388236 0.157028 0.226745 255 220 0
0.410065 0.080453 0.186500 255 220 0
0.364309 0.083186 0.242020 255 220 0
0.408521 0.098924 0.281264 255 220 0
0.387525 0.116607 0.197245 255 220 0
0.365992 0.115064 0.262482 255 220 0
0.410575 0.112740 0.287218 255 220 0
0.433421 0.117957 0.280399 255 220 0
0.437550 0.072000 0.220993 255 220 0
0.439977 0.079563 0.222296 255 220 0
0.434058 0.090817 0.264044 255 220 0
0.400315 0.042455 0.214341 255 220 0
0.360298 0.088179 0.232708 255 220 0
0.395294 0.043228 0.213068 255 220 0
0.411692 0.141819 0.220357 255 220 0
0.378847 0.172410 0.241231 255 220 0
0.391501 0.197923 0.290658 255 220 0
0.368836 0.111690 0.266263 255 220 0
0.409081 0.148200 0.224283 255 220 0
0.375993 0.124556 0.204894 255 220 0
0.358677 0.114318 0.245023 255 220 0
0.371838 0.191092 0.263455 255 220 0
0.385161 0.177612 0.242086 255 220 0
0.444270 0.107650 0.256584 255 220 0
0.435653 0.069013 0.213152 255 220 0
0.444236 0.093588 0.237400 255 220 0
0.425435 0.168745 0.258965 255 220 0
0.395080 0.162527 0.297030 255 220 0
0.371464 0.062756 0.214921 255 220 0
0.364435 0.086204 0.245386 255 220 0
0.439479 0.144527 0.263345 255 220 0
0.393507 0.180653 0.295839 255 220 0
0.373071 0.094397 0.264236 255 220 0
0.426878 0.138293 0.228587 255 220 0
0.390856 0.175548 0.295577 255 220 0
0.443412 0.109880 0.235024 255 220 0
0.407432 0.149901 0.224926 255 220 0
0.383930 0.147838 0.219621 255 220 0
0.370953 0.134787 0.214517 255 220 0
0.416986 0.155403 0.295496 255 220 0
0.402949 0.163801 0.298292 255 220 0
0.358451 0.130641 0.237203 255 220 0
0.391497 0.210906 0.267537 255 220 0
0.369147 0.089461 0.256202 255 220 0
0.414991 0.141199 0.221813 255 220 0
0.394370 0.128990 0.205287 255 220 0
0.374585 0.182008 0.282207 255 220 0
0.381594 0.051706 0.218591 255 220 0
0.388296 0.053416 0.235245 255 220 0
0.388435 0.067948 0.187562 255 220 0
0.387832 0.156884 0.226639 255 220 0
0.374122 0.156513 0.231140 255 220 0
0.424183 0.052137 0.210503 255 220 0
0.439961 0.088156 0.252077 255 220 0
0.373499 0.196071 0.274772 255 220 0
0.364325 0.075800 0.217831 255 220 0
0.400391 0.044598 0.222913 255 220 0
0.376801 0.105176 0.273297 255 220 0
0.358996 0.112041 0.245421 255 220 0
0.398963 0.165118 0.297937 255 220 0
0.385347 0.199367 0.287581 255 220 0
0.390800 0.046539 0.203560 255 220 0
0.421823 0.179955 0.269542 255 220 0
0.365328 0.077892 0.206798 255 220 0
0.402505 0.071383 0.262977 255 220 0
0.372113 0.188827 0.260320 255 220 0
0.383107 0.131681 0.207508 255 220 0
0.416619 0.168086 0.247550 255 220 0
0.410970 0.164350 0.297601 255 220 0
0.405611 0.087350 0.275204 255 220 0
0.406203 0.052499 0.192339 255 220 0
0.367906 0.102637 0.261460 255 220 0
0.409375 0.195937 0.265770 255 220 0
0.434353 0.075389 0.247201 255 220 0
0.364995 0.085890 0.246335 255 220 0
0.373490 0.134095 0.278055 255 220 0
0.406783 0.184862 0.253600 255 220 0
0.388908 0.143285 0.215718 255 220 0
0.389805 0.105646 0.281857 255 220 0
0.381631 0.187342 0.289100 255 220 0
0.371087 0.147437 0.225019 255 220 0
0.373598 0.186835 0.255786 255 220 0
0.363523 0.147956 0.257763 255 220 0
0.362755 0.142301 0.256771 255 220 0
0.370160 0.152187 0.230800 255 220 0
0.412693 0.062523 0.251464 255 220 0
0.416374 0.114937 0.202821 255 220 0
0.445436 0.109430 0.247285 255 220 0
0.368880 0.148618 0.272844 255 220 0
0.432525 0.128994 0.227291 255 220 0
0.360897 0.084772 0.219177 255 220 0
0.428304 0.069282 0.198519 255 220 0
0.410368 0.132072 0.211933 255 220 0
0.438559 0.096701 0.262062 255 220 0
0.443923 0.128158 0.258651 255 220 0
0.368374 0.101560 0.198985 255 220 0
0.445248 0.102727 0.245199 255 220 0
0.417202 0.186474 0.286346 255 220 0
0.370084 0.183906 0.263808 255 220 0
0.439878 0.084522 0.217384 255 220 0
0.403767 0.095216 0.279651 255 220 0
0.391584 0.093755 0.276962 255 220 0
0.377949 0.058952 0.231468 255 220 0
0.443941 0.119514 0.246207 255 220 0
0.372919 0.148592 0.224599 255 220 0
0.362220 0.109894 0.253345 255 220 0
0.400798 0.205848 0.265425 255 220 0
0.424137 0.174749 0.265739 255 220 0
0.420719 0.049065 0.218951 255 220 0
0.402463 0.127521 0.205610 255 220 0
0.380425 0.052844 0.219303 255 220 0
0.391544 0.177607 0.241904 255 220 0
0.401381 0.156702 0.228380 255 220 0
0.399564 0.184093 0.296118 255 220 0
0.436169 0.100836 0.268704 255 220 0
0.414890 0.090089 0.189555 255 220 0
0.377719 0.164194 0.235577 255 220 0
0.386039 0.171359 0.293517 255 220 0
0.423414 0.080643 0.265000 255 220 0
0.424530 0.053376 0.225103 255 220 0
0.389333 0.079164 0.266448 255 220 0
0.438661 0.075042 0.226902 255 220 0
0.387204 0.132739 0.289389 255 220 0
0.397698 0.042734 0.209811 255 220 0
0.367651 0.171387 0.261221 255 220 0
0.440824 0.129930 0.245974 255 220 0
0.389330 0.097663 0.278135 255 220 0
0.394560 0.125019 0.202505 255 220 0
0.361892 0.117570 0.213536 255 220 0
0.443288 0.129624 0.267888 255 220 0
0.407281 0.067726 0.186645 255 220 0
0.439471 0.126097 0.238148 255 220 0
0.368803 0.109879 0.201516 255 220 0
0.385291 0.059563 0.192993 255 220 0
0.397206 0.125403 0.291389 255 220 0
0.441097 0.125168 0.241782 255 220 0
0.405855 0.118672 0.200456 255 220 0
0.391141 0.048335 0.226889 255 220 0
0.432444 0.132908 0.285578 255 220 0
0.442029 0.110663 0.266293 255 220 0
0.396158 0.194731 0.253651 255 220 0
0.371926 0.193088 0.266023 255 220 0
0.405255 0.066833 0.258445 255 220 0
0.410729 0.148144 0.225083 255 220 0
0.424045 0.145575 0.232663 255 220 0
0.436337 0.093471 0.263116 255 220 0
0.360322 0.117107 0.250483 255 220 0
0.437865 0.074749 0.234174 255 220 0
0.435202 0.088513 0.206804 255 220 0
0.382054 0.092837 0.189197 255 220 0
0.430783 0.107655 0.277523 255 220 0
0.396776 0.191419 0.293893 255 220 0
0.373984 0.178272 0.249553 255 220 0
0.366668 0.081350 0.245371 255 220 0
0.405050 0.110317 0.286595 255 220 0
0.380042 0.057248 0.200055 255 220 0
0.418730 0.079340 0.266444 255 220 0
0.357667 0.122163 0.228691 255 220 0
0.375195 0.070577 0.246301 255 220 0
0.404613 0.141498 0.217017 255 220 0
0.369027 0.176653 0.259536 255 220 0
0.409455 0.178904 0.296796 255 220 0
0.396871 0.084683 0.185372 255 220 0
0.439832 0.081603 0.218565 255 220 0
0.390816 0.103999 0.190731 255 220 0
0.358911 0.130336 0.231476 255 220 0
0.357975 0.095861 0.227377 255 220 0
0.357496 0.102014 0.221525 255 220 0
0.434855 0.121127 0.224520 255 220 0
0.439966 0.142146 0.272680 255 220 0
0.415143 0.181441 0.293957 255 220 0
0.425888 0.168339 0.259254 255 220 0
0.430977 0.059246 0.215670 255 220 0
0.398327 0.199076 0.290887 255 220 0
0.430569 0.079236 0.257559 255 220 0
0.414326 0.095635 0.278685 255 220 0
0.399288 0.065147 0.256831 255 220 0
0.373017 0.083505 0.257177 255 220 0
0.412581 0.124852 0.207583 255 220 0
0.387026 0.126841 0.287781 255 220 0
0.430202 0.061011 0.207265 255 220 0
0.414184 0.121225 0.205854 255 220 0
0.412330 0.080114 0.269285 255 220 0
0.381948 0.176037 0.290745 255 220 0
0.405221 0.042507 0.212750 255 220 0
0.369150 0.167861 0.272838 255 220 0
0.420731 0.113012 0.284792 255 220 0
0.400608 0.120382 0.200223 255 220 0
0.426311 0.061963 0.239444 255 220 0
0.437091 0.088472 0.257923 255 220 0
0.420693 0.164043 0.247684 255 220 0
0.357048 0.111320 0.236578 255 220 0
0.388115 0.170895 0.237440 255 220 0
0.385084 0.206288 0.281416 255 220 0
0.403980 0.196873 0.260323 255 220 0
0.394828 0.064223 0.186902 255 220 0
0.389748 0.064295 0.253041 255 220 0
0.436986 0.073351 0.234911 255 220 0
0.407135 0.057208 0.246356 255 220 0
0.374609 0.168484 0.283233 255 220 0
0.364357 0.126215 0.261434 255 220 0
0.389170 0.045986 0.208543 255 220 0
0.438109 0.089559 0.212555 255 220 0
0.386338 0.197822 0.288875 255 220 0
0.400019 0.204808 0.263044 255 220 0
0.417809 0.161049 0.242006 255 220 0
0.387387 0.091029 0.273686 255 220 0
0.424689 0.174191 0.266367 255 220 0
0.423523 0.050964 0.217189 255 220 0
0.368066 0.079499 0.245985 255 220 0
0.416806 0.080635 0.188769 255 220 0
0.416219 0.089004 0.189806 255 220 0
0.406812 0.093532 0.278668 255 220 0
0.365811 0.073961 0.210806 255 220 0
0.369538 0.067510 0.228503 255 220 0
0.414089 0.113814 0.287041 255 220 0
0.366861 0.088007 0.251514 255 220 0
0.382180 0.071496 0.255704 255 220 0
0.437827 0.147989 0.261100 255 220 0
0.409578 0.087127 0.274709 255 220 0
0.397650 0.064464 0.186436 255 220 0
0.381561 0.119480 0.282160 255 220 0
0.415470 0.186777 0.289694 255 220 0
0.407883 0.105357 0.193251 255 220 0
0.369359 0.136420 0.216971 255 220 0
0.416198 0.158937 0.238599 255 220 0
0.417560 0.187791 0.281597 255 220 0
0.380211 0.090284 0.189461 255 220 0
0.441893 0.088399 0.225047 255 220 0
0.439814 0.085484 0.249275 255 220 0
0.435188 0.153981 0.261370 255 220 0
0.381233 0.117658 0.199034 255 220 0
0.359005 0.115154 0.246295 255 220 0
0.429356 0.145696 0.288942 255 220 0
0.421431 0.146966 0.293141 255 220 0
0.405772 0.065843 0.186684 255 220 0
0.408613 0.047638 0.229446 255 220 0
0.392313 0.054966 0.241362 255 220 0
0.379374 0.064936 0.193758 255 220 0
0.364940 0.155324 0.260745 255 220 0
0.367194 0.124215 0.210450 255 220 0
0.382122 0.178278 0.290741 255 220 0
0.408585 0.182621 0.296153 255 220 0
0.396186 0.209240 0.278070 255 220 0
0.357395 0.105980 0.221765 255 220 0
0.371833 0.188513 0.274314 255 220 0
0.410359 0.166861 0.297708 255 220 0
0.408840 0.126138 0.292265 255 220 0
0.442472 0.095689 0.226251 255 220 0
0.358450 0.130478 0.236238 255 220 0
0.439111 0.076688 0.221053 255 220 0
0.397144 0.070961 0.185277 255 220 0
0.403784 0.043271 0.219095 255 220 0
0.421635 0.176725 0.288775 255 220 0
0.372351 0.104184 0.268191 255 220 0
0.387663 0.195135 0.252084 255 220 0
0.360059 0.095974 0.211154 255 220 0
0.389752 0.205383 0.284391 255 220 0
0.389409 0.161160 0.230070 255 220 0
0.370883 0.093237 0.260923 255 220 0
0.362659 0.082254 0.234631 255 220 0
0.415350 0.177942 0.255748 255 220 0
0.443052 0.098654 0.253291 255 220 0
0.387620 0.047079 0.216734 255 220 0
0.386735 0.099416 0.189614 255 220 0
0.441679 0.114632 0.233626 255 220 0
0.419655 0.076477 0.190190 255 220 0
0.388515 0.077984 0.185981 255 220 0
0.428839 0.159431 0.252765 255 220 0
0.368984 0.082273 0.197813 255 220 0
0.363788 0.110470 0.256937 255 220 0
0.434469 0.109344 0.275641 255 220 0
0.397287 0.051812 0.192793 255 220 0
0.365237 0.108231 0.204291 255 220 0
0.365875 0.075967 0.207107 255 220 0
0.388764 0.164883 0.294776 255 220 0
0.411741 0.110181 0.197366 255 220 0
0.388892 0.129927 0.205744 255 220 0
0.370244 0.104104 0.265479 255 220 0
0.382631 0.068918 0.253098 255 220 0
0.433890 0.136023 0.235688 255 220 0
0.444747 0.117379 0.248269 255 220 0
0.394198 0.189985 0.293976 255 220 0
0.385513 0.048056 0.212502 255 220 0
0.362414 0.083468 0.235796 255 220 0
0.377762 0.074351 0.254301 255 220 0
0.383307 0.078307 0.187588 255 220 0
0.389036 0.088449 0.272896 255 220 0
0.426994 0.140656 0.230877 255 220 0
0.422005 0.171577 0.257065 255 220 0
0.433414 0.112097 0.215636 255 220 0
0.440014 0.078942 0.225268 255 220 0
0.382119 0.052608 0.204403 255 220 0
0.438611 0.075497 0.230884 255 220 0
0.425364 0.122761 0.286624 255 220 0
0.378973 0.083022 0.262952 255 220 0
0.380607 0.146619 0.219293 255 220 0
0.385903 0.149048 0.220370 255 220 0
0.387418 0.096044 0.276455 255 220 0
0.441774 0.134590 0.255676 255 220 0
0.360622 0.086112 0.229924 255 220 0
0.372790 0.172416 0.280334 255 220 0
0.412069 0.066444 0.188361 255 220 0
0.410736 0.050813 0.195365 255 220 0
0.370620 0.131967 0.273654 255 220 0
0.395028 0.210461 0.269146 255 220 0
0.408567 0.144542 0.296328 255 220 0
0.366183 0.083506 0.246564 255 220 0
0.386177 0.111081 0.194495 255 220 0
0.385411 0.126974 0.203947 255 220 0
0.425861 0.109193 0.205380 255 220 0
0.419614 0.063663 0.248900 255 220 0
0.431962 0.150971 0.247866 255 220 0
0.420082 0.050333 0.225591 255 220 0
0.376707 0.120741 0.202330 255 220 0
0.399867 0.193852 0.255088 255 220 0
0.397041 0.208806 0.266113 255 220 0
0.365990 0.138394 0.266144 255 220 0
0.396687 0.050885 0.236032 255 220 0
0.397344 0.057859 0.247767 255 220 0
0.428613 0.060629 0.204494 255 220 0
0.411609 0.097157 0.280009 255 220 0
0.377860 0.073715 0.191127 255 220 0
0.370467 0.100253 0.264062 255 220 0
0.435432 0.146068 0.282601 255 220 0
0.402282 0.092523 0.278209 255 220 0
0.361536 0.084076 0.231860 255 220 0
0.431135 0.161295 0.281570 255 220 0
0.439826 0.124116 0.237186 255 220 0
0.369558 0.179771 0.269623 255 220 0
0.395285 0.169149 0.297184 255 220 0
0.387691 0.050126 0.227338 255 220 0
0.379891 0.172578 0.240735 255 220 0
0.411998 0.191759 0.289442 255 220 0
0.426610 0.079196 0.261311 255 220 0
0.389294 0.111291 0.283827 255 220 0
0.385358 0.202100 0.256592 255 220 0
0.374141 0.097370 0.193938 255 220 0
0.428719 0.128950 0.286892 255 220 0
0.365850 0.161960 0.260037 255 220 0
0.406399 0.177114 0.246959 255 220 0
0.441438 0.114528 0.232892 255 220 0
0.363823 0.115909 0.258477 255 220 0
0.385665 0.099102 0.189739 255 220 0
0.417886 0.047146 0.217437 255 220 0
0.387021 0.193817 0.290719 255 220 0
0.360025 0.087280 0.221547 255 220 0
0.410759 0.165753 0.240426 255 220 0
0.403049 0.164508 0.235304 255 220 0
0.395558 0.170795 0.237976 255 220 0
0.433839 0.146164 0.284835 255 220 0
0.412558 0.166384 0.242342 255 220 0
0.377893 0.153578 0.226099 255 220 0
0.434798 0.125141 0.227677 255 220 0
0.429846 0.090049 0.199986 255 220 0
0.375672 0.081721 0.191448 255 220 0
0.418652 0.180951 0.290282 255 220 0
0.379593 0.194584 0.254161 255 220 0
0.432545 0.095413 0.205109 255 220 0
0.394694 0.115045 0.287093 255 220 0
0.386308 0.069378 0.256602 255 220 0
0.371575 0.162218 0.239516 255 220 0
0.361473 0.111014 0.251920 255 220 0
0.426169 0.055329 0.226494 255 220 0
0.375520 0.133920 0.280426 255 220 0
0.439737 0.091840 0.256038 255 220 0
0.373599 0.189730 0.257719 255 220 0
0.432493 0.071710 0.203242 255 220 0
0.386246 0.157510 0.227238 255 220 0
0.419735 0.084518 0.270106 255 220 0
0.400174 0.043265 0.205470 255 220 0
0.430258 0.165849 0.273211 255 220 0
0.385997 0.206852 0.260490 255 220 0
0.395787 0.159706 0.229536 255 220 0
0.419599 0.078767 0.265527 255 220 0
0.358057 0.107526 0.218791 255 220 0
0.401538 0.206156 0.267206 255 220 0
0.442429 0.086860 0.240574 255 220 0
0.363794 0.148792 0.241338 255 220 0
0.442452 0.123698 0.271308 255 220 0
0.426387 0.141096 0.230677 255 220 0
0.404540 0.149484 0.223438 255 220 0
0.436768 0.127519 0.280801 255 220 0
0.445102 0.117474 0.259087 255 220 0
0.360096 0.136933 0.245491 255 220 0
0.397501 0.145861 0.218660 255 220 0
0.372578 0.186397 0.257364 255 220 0
0.365084 0.076303 0.233099 255 220 0
0.388580 0.206513 0.259709 255 220 0
0.435297 0.070853 0.209491 255 220 0
0.400988 0.048096 0.231304 255 220 0
0.377641 0.096347 0.269896 255 220 0
0.403217 0.110704 0.194913 255 220 0
0.369748 0.157965 0.237822 255 220 0
0.425032 0.156496 0.291709 255 220 0
0.379446 0.143365 0.217014 255 220 0
0.382133 0.068744 0.252387 255 220 0
0.385867 0.059288 0.242877 255 220 0
0.374977 0.091459 0.264619 255 220 0
0.433122 0.073267 0.246267 255 220 0
0.367573 0.159916 0.244656 255 220 0
0.359118 0.131151 0.231514 255 220 0
0.399603 0.129333 0.206264 255 220 0
0.435301 0.074942 0.207036 255 220 0
0.390348 0.056184 0.242003 255 220 0
0.439826 0.106727 0.267661 255 220 0
0.394310 0.060857 0.188205 255 220 0
0.374276 0.064793 0.236065 255 220 0
0.375431 0.200541 0.263322 255 220 0
0.374531 0.198951 0.275192 255 220 0
0.410025 0.051889 0.237080 255 220 0
0.374423 0.192522 0.258211 255 220 0
0.403943 0.057174 0.246960 255 220 0
0.380736 0.117952 0.199343 255 220 0
0.426747 0.127646 0.219452 255 220 0
0.377277 0.083360 0.261697 255 220 0
0.359137 0.127582 0.247106 255 220 0
0.415644 0.054128 0.237756 255 220 0
0.391017 0.058184 0.245594 255 220 0
0.368366 0.085967 0.252457 255 220 0
0.413663 0.060337 0.248124 255 220 0
0.428010 0.163334 0.287041 255 220 0
0.412649 0.176485 0.251495 255 220 0
0.431439 0.122070 0.283268 255 220 0
0.394711 0.150903 0.222249 255 220 0
0.372841 0.195836 0.272388 255 220 0
0.393332 0.109927 0.193356 255 220 0
0.375456 0.118761 0.201774 255 220 0
0.388638 0.151719 0.293574 255 220 0
0.419612 0.184304 0.271941 255 220 0
0.444776 0.097811 0.237874 255 220 0
0.401942 0.144709 0.296563 255 220 0
0.368501 0.160549 0.272010 255 220 0
0.356851 0.115699 0.235572 255 220 0
0.363857 0.152403 0.254970 255 220 0
0.358468 0.130001 0.241334 255 220 0
0.426833 0.172255 0.272501 255 220 0
0.393762 0.135786 0.293083 255 220 0
0.364577 0.110185 0.258423 255 220 0
0.417245 0.095193 0.277670 255 220 0
0.373565 0.153959 0.229155 255 220 0
0.432385 0.113167 0.214915 255 220 0
0.394931 0.068262 0.185917 255 220 0
0.375932 0.083387 0.191224 255 220 0
0.441104 0.089940 0.221178 255 220 0
0.429907 0.161596 0.284533 255 220 0
0.415270 0.085343 0.272323 255 220 0
0.407114 0.145847 0.296676 255 220 0
0.416896 0.144266 0.294406 255 220 0
0.370632 0.070587 0.238935 255 220 0
0.439063 0.131121 0.242047 255 220 0
0.377340 0.057339 0.204691 255 220 0
0.378811 0.054484 0.220102 255 220 0
0.424678 0.175644 0.280615 255 220 0
0.378003 0.182993 0.248501 255 220 0
0.363543 0.137969 0.225747 255 220 0
0.436043 0.149594 0.279481 255 220 0
0.438934 0.126180 0.278008 255 220 0
0.378775 0.104255 0.193671 255 220 0
0.410195 0.117010 0.200984 255 220 0
0.374110 0.110028 0.272461 255 220 0
0.405712 0.151606 0.225625 255 220 0
0.391377 0.046331 0.203353 255 220 0
0.432058 0.129360 0.285079 255 220 0
0.372853 0.152852 0.279841 255 220 0
0.443945 0.126666 0.255625 255 220 0
0.373661 0.077240 0.252283 255 220 0
0.367666 0.171233 0.260277 255 220 0
0.419470 0.151415 0.294286 255 220 0
0.430783 0.132167 0.227605 255 220 0
0.381765 0.082123 0.188117 255 220 0
0.396639 0.086532 0.185633 255 220 0
0.364907 0.157621 0.254973 255 220 0
0.445336 0.112417 0.253429 255 220 0
0.386384 0.052067 0.199220 255 220 0
0.424239 0.107306 0.280942 255 220 0
0.377791 0.131834 0.282307 255 220 0
0.431103 0.163499 0.266866 255 220 0
0.387955 0.177044 0.294292 255 220 0
0.417350 0.177723 0.293750 255 220 0
0.441252 0.089475 0.250157 255 220 0
0.421675 0.160859 0.293633 255 220 0
0.440863 0.140475 0.262980 255 220 0
0.368552 0.175972 0.262297 255 220 0
0.384771 0.169193 0.236668 255 220 0
0.369918 0.153884 0.232960 255 220 0
0.412200 0.182568 0.295189 255 220 0
0.366438 0.150391 0.234902 255 220 0
0.431709 0.077990 0.200738 255 220 0
0.374522 0.194496 0.259461 255 220 0
0.441158 0.109725 0.228602 255 220 0
0.410040 0.195714 0.287164 255 220 0
0.365582 0.075179 0.232606 255 220 0
0.437130 0.149543 0.275677 255 220 0
0.400143 0.058992 0.188116 255 220 0
0.416233 0.130013 0.291912 255 220 0
0.443412 0.104391 0.231821 255 220 0
0.380666 0.071075 0.253741 255 220 0
0.412369 0.078570 0.268040 255 220 0
0.364165 0.110763 0.206698 255 220 0
0.407737 0.169658 0.297998 255 220 0
0.406143 0.050828 0.193695 255 220 0
0.380924 0.169527 0.290056 255 220 0
0.381691 0.173719 0.240662 255 220 0
0.418164 0.082872 0.269546 255 220 0
0.396564 0.122784 0.201182 255 220 0
0.359626 0.095059 0.238548 255 220 0
0.360855 0.106183 0.248776 255 220 0
0.371315 0.065321 0.205017 255 220 0
0.436341 0.152579 0.265125 255 220 0
0.380229 0.075437 0.189328 255 220 0
0.383351 0.207164 0.279023 255 220 0
0.431975 0.060905 0.220965 255 220 0
0.372430 0.085176 0.257701 255 220 0
0.383998 0.074494 0.259964 255 220 0
0.378804 0.059294 0.233695 255 220 0
0.361020 0.110344 0.211671 255 220 0
0.391342 0.054480 0.193021 255 220 0
0.389159 0.141750 0.292316 255 220 0
0.382754 0.197776 0.286672 255 220 0
0.444697 0.101423 0.236356 255 220 0
0.440366 0.079790 0.231493 255 220 0
0.377502 0.134474 0.282603 255 220 0
0.405609 0.075989 0.185474 255 220 0
0.401765 0.066978 0.185907 255 220 0
0.382214 0.190491 0.288793 255 220 0
0.440134 0.139624 0.274626 255 220 0
0.400351 0.095088 0.187707 255 220 0
0.397173 0.185608 0.248403 255 220 0
0.357823 0.114103 0.222277 255 220 0
0.368931 0.123620 0.269371 255 220 0
0.386791 0.074362 0.261431 255 220 0
0.376901 0.075071 0.254084 255 220 0
0.427852 0.119576 0.284335 255 220 0
0.427916 0.165975 0.285307 255 220 0
0.444810 0.098636 0.245054 255 220 0
0.441289 0.090743 0.221812 255 220 0
0.395840 0.097275 0.188144 255 220 0
0.380239 0.053535 0.221728 255 220 0
0.440634 0.133268 0.249114 255 220 0
0.397924 0.083496 0.185223 255 220 0
0.418496 0.186726 0.274684 255 220 0
0.412814 0.058311 0.245767 255 220 0
0.434306 0.151597 0.253772 255 220 0
0.403593 0.199516 0.261915 255 220 0
0.409920 0.198997 0.271269 255 220 0
0.365531 0.127854 0.214538 255 220 0
0.424237 0.090458 0.271905 255 220 0
0.425960 0.056212 0.229137 255 220 0
0.379412 0.093431 0.269819 255 220 0
0.385616 0.195201 0.289547 255 220 0
0.395578 0.052513 0.238765 255 220 0
0.357934 0.096935 0.230244 255 220 0
0.439011 0.121655 0.232997 255 220 0
0.384414 0.192388 0.289763 255 220 0
0.411103 0.087267 0.274566 255 220 0
0.381946 0.051811 0.207062 255 220 0
0.423597 0.053889 0.228443 255 220 0
0.434691 0.121013 0.224156 255 220 0
0.433141 0.149004 0.285133 255 220 0
0.402111 0.046820 0.197992 255 220 0
0.399793 0.103287 0.190654 255 220 0
0.375275 0.202062 0.266381 255 220 0
0.391408 0.046078 0.220701 255 220 0
0.443871 0.109454 0.236323 255 220 0
0.413168 0.194465 0.281227 255 220 0
0.420928 0.180308 0.285977 255 220 0
0.383601 0.054996 0.232596 255 220 0
0.422382 0.176886 0.264899 255 220 0
0.421315 0.055340 0.199587 255 220 0
0.411800 0.082556 0.271242 255 220 0
0.387972 0.157830 0.293902 255 220 0
0.442999 0.120197 0.243009 255 220 0
0.435052 0.097873 0.209811 255 220 0
0.400074 0.109548 0.285967 255 220 0
0.362710 0.118221 0.256559 255 220 0
0.425260 0.152109 0.291631 255 220 0
0.417617 0.065790 0.253012 255 220 0
0.408121 0.201790 0.274247 255 220 0
0.360166 0.110575 0.248467 255 220 0
0.362433 0.091189 0.206341 255 220 0
0.377228 0.127038 0.280673 255 220 0
0.393886 0.167091 0.296821 255 220 0
0.403942 0.074228 0.265509 255 220 0
0.430932 0.090934 0.201500 255 220 0
0.414320 0.142067 0.222099 255 220 0
0.409516 0.198523 0.269222 255 220 0
0.389336 0.166234 0.295094 255 220 0
0.435084 0.066340 0.217711 255 220 0
0.434918 0.155098 0.263004 255 220 0
0.403031 0.126217 0.292461 255 220 0
0.369587 0.181291 0.263135 255 220 0
0.372875 0.174641 0.248449 255 220 0
0.370274 0.130909 0.212239 255 220 0
0.437781 0.146862 0.276627 255 220 0
0.357536 0.098623 0.228040 255 220 0
0.371103 0.154879 0.232506 255 220 0
0.409444 0.180938 0.296404 255 220 0
0.411328 0.197652 0.273109 255 220 0
0.406714 0.047217 0.229139 255 220 0
0.413179 0.190909 0.266344 255 220 0
0.373331 0.083252 0.257365 255 220 0
0.385403 0.050854 0.202266 255 220 0
0.356804 0.113380 0.228334 255 220 0
0.375402 0.176541 0.246770 255 220 0
0.370478 0.186779 0.267391 255 220 0
0.383803 0.204787 0.259156 255 220 0
0.401773 0.043489 0.219873 255 220 0
0.421420 0.130611 0.290467 255 220 0
0.439351 0.109414 0.224261 255 220 0
0.410074 0.044402 0.206066 255 220 0
0.422307 0.133963 0.221051 255 220 0
0.416577 0.060611 0.246844 255 220 0
0.393047 0.138808 0.293466 255 220 0
0.393412 0.125462 0.290276 255 220 0
0.419266 0.185146 0.272937 255 220 0
0.441466 0.104116 0.262168 255 220 0
0.416037 0.063040 0.191128 255 220 0
0.393773 0.161362 0.296579 255 220 0
0.359943 0.133049 0.248472 255 220 0
0.368474 0.094131 0.258083 255 220 0
0.413293 0.130964 0.212595 255 220 0
0.357933 0.112480 0.241736 255 220 0
0.360143 0.091306 0.213002 255 220 0
0.377964 0.154192 0.226598 255 220 0
0.367875 0.095156 0.257742 255 220 0
0.364622 0.076261 0.229897 255 220 0
0.439276 0.104335 0.220980 255 220 0
0.384937 0.151779 0.222681 255 220 0
0.367226 0.071122 0.228376 255 220 0
0.397487 0.054369 0.242571 255 220 0
0.390755 0.127551 0.289818 255 220 0
0.382802 0.065854 0.249242 255 220 0
0.364920 0.080603 0.240509 255 220 0
0.439114 0.080461 0.215875 255 220 0
0.404549 0.100517 0.190214 255 220 0
0.426980 0.078420 0.195508 255 220 0
0.392010 0.101857 0.281047 255 220 0
0.400942 0.205659 0.265329 255 220 0
0.404875 0.076819 0.185352 255 220 0
0.418332 0.168375 0.295071 255 220 0
0.368906 0.170563 0.252865 255 220 0
0.443397 0.108776 0.234214 255 220 0
0.423534 0.092832 0.273779 255 220 0
0.401637 0.071982 0.263481 255 220 0
0.393786 0.065764 0.256400 255 220 0
0.435615 0.076357 0.246031 255 220 0
0.391680 0.128121 0.204491 255 220 0
0.421627 0.181519 0.278380 255 220 0
0.385110 0.145985 0.217984 255 220 0
0.419616 0.053705 0.233633 255 220 0
0.425623 0.116041 0.209839 255 220 0
0.422851 0.093146 0.274313 255 220 0
0.397406 0.055081 0.243691 255 220 0
0.428398 0.081869 0.262314 255 220 0
0.443847 0.129140 0.261947 255 220 0
0.424074 0.102329 0.199841 255 220 0
0.369834 0.149214 0.274636 255 220 0
0.391605 0.078283 0.266636 255 220 0
0.368382 0.124520 0.268661 255 220 0
0.398035 0.054217 0.190798 255 220 0
0.385974 0.106556 0.192446 255 220 0
0.370172 0.148049 0.226483 255 220 0
0.374108 0.081973 0.257286 255 220 0
0.362841 0.080838 0.232320 255 220 0
0.410685 0.120296 0.290116 255 220 0
0.436881 0.071272 0.215752 255 220 0
0.377760 0.092410 0.267828 255 220 0
0.376175 0.097730 0.269266 255 220 0
0.437759 0.072481 0.222707 255 220 0
0.378162 0.146760 0.285439 255 220 0
0.437781 0.075095 0.235826 255 220 0
0.420424 0.171452 0.293161 255 220 0
0.389185 0.083207 0.185956 255 220 0
0.425268 0.113012 0.282953 255 220 0
0.418978 0.088193 0.272963 255 220 0
0.376726 0.056104 0.215881 255 220 0
0.400119 0.206687 0.265894 255 220 0
0.366655 0.153300 0.267803 255 220 0
0.363352 0.092091 0.247472 255 220 0
0.372616 0.074456 0.195502 255 220 0
0.411224 0.068089 0.258503 255 220 0
0.411613 0.127389 0.292230 255 220 0
0.394886 0.049906 0.195453 255 220 0
0.379623 0.168418 0.237904 255 220 0
0.442360 0.112879 0.234092 255 220 0
0.367570 0.096640 0.198839 255 220 0
0.380065 0.056083 0.201665 255 220 0
0.401181 0.203335 0.262718 255 220 0
0.437684 0.129321 0.280197 255 220 0
0.366839 0.070579 0.216107 255 220 0
0.404225 0.100862 0.190293 255 220 0
0.419452 0.083824 0.190339 255 220 0
0.411687 0.166798 0.242014 255 220 0
0.438718 0.146935 0.270758 255 220 0
0.431654 0.144155 0.240013 255 220 0
0.437597 0.122895 0.231004 255 220 0
0.398334 0.206726 0.263717 255 220 0
0.425036 0.152018 0.239926 255 220 0
0.397502 0.200739 0.257772 255 220 0
0.437699 0.149728 0.267112 255 220 0
0.440765 0.110505 0.228171 255 220 0
0.419772 0.182645 0.268490 255 220 0
0.433234 0.145505 0.244047 255 220 0
0.389517 0.200781 0.255448 255 220 0
