ply
format ascii 1.0
element vertex 1024
property float x
property float y
property float z
property uchar red
property uchar green
property uchar blue
end_header
0.543786 0.070894 0.087071 255 220 0
0.500056 0.069883 0.034683 255 220 0
0.585908 0.044565 0.042348 255 220 0
0.541868 0.014863 0.051568 255 220 0
0.578097 0.071912 0.020847 255 220 0
0.525775 0.071247 -0.000331 255 220 0
0.549407 0.059998 0.084059 255 220 0
0.554914 0.142279 0.093044 255 220 0
0.588861 0.077119 0.074308 255 220 0
0.558776 0.058850 -0.000442 255 220 0
0.540160 0.016001 0.053022 255 220 0
0.557913 0.013780 0.001622 255 220 0
0.547281 0.074676 0.002358 255 220 0
0.552683 0.053001 0.080994 255 220 0
0.577642 0.038766 0.057601 255 220 0
0.506563 0.093941 0.044405 255 220 0
0.514818 0.021743 -0.000521 255 220 0
0.556564 0.101247 0.095114 255 220 0
0.509830 0.095917 0.054771 255 220 0
0.545694 0.037507 0.072438 255 220 0
0.549951 0.029671 0.066166 255 220 0
0.555396 0.055390 0.081772 255 220 0
0.499096 0.057716 0.022864 255 220 0
0.531008 0.011513 -0.004932 255 220 0
0.528273 0.074588 0.000973 255 220 0
0.530063 0.068731 -0.002227 255 220 0
0.563157 0.144549 0.051704 255 220 0
0.583380 0.047181 0.025543 255 220 0
0.544376 0.022198 -0.008666 255 220 0
0.544819 0.161332 0.054603 255 220 0
0.588598 0.053015 0.044368 255 220 0
0.572120 0.150931 0.085255 255 220 0
0.591105 0.093944 0.055069 255 220 0
0.546782 0.164732 0.056765 255 220 0
0.532428 0.087797 0.085419 255 220 0
0.558043 0.006007 0.025154 255 220 0
0.559821 0.109529 0.028397 255 220 0
0.527339 0.042181 0.070067 255 220 0
0.571829 0.149279 0.087145 255 220 0
0.591570 0.096240 0.058760 255 220 0
0.531189 0.115298 0.028606 255 220 0
0.580224 0.136499 0.082516 255 220 0
0.584463 0.048342 0.027846 255 220 0
0.580131 0.045407 0.018720 255 220 0
0.535783 0.148310 0.081237 255 220 0
0.561335 0.099715 0.022848 255 220 0
0.543437 0.035178 0.070641 255 220 0
0.585689 0.044857 0.035573 255 220 0
0.528138 0.065099 0.079177 255 220 0
0.526448 0.009002 -0.001245 255 220 0
0.587152 0.074716 0.036507 255 220 0
0.567979 0.129725 0.094364 255 220 0
0.538055 0.051224 0.078946 255 220 0
0.527540 0.083467 0.081569 255 220 0
0.537594 0.041980 0.074006 255 220 0
0.504954 0.086756 0.046726 255 220 0
0.576804 0.027692 0.033952 255 220 0
0.521546 0.009596 0.033704 255 220 0
0.529588 0.088631 0.009234 255 220 0
0.517224 0.057654 -0.003049 255 220 0
0.588473 0.093380 0.047327 255 220 0
0.515515 0.016576 0.036129 255 220 0
0.548062 0.145546 0.090783 255 220 0
0.560814 0.028692 0.061667 255 220 0
0.567777 0.015498 0.015577 255 220 0
0.570895 0.155386 0.080883 255 220 0
0.514638 0.040134 0.058452 255 220 0
0.565186 0.114443 0.034824 255 220 0
0.576650 0.046001 0.066239 255 220 0
0.589268 0.091314 0.048112 255 220 0
0.579838 0.034091 0.044787 255 220 0
0.557833 0.129126 0.039925 255 220 0
0.587640 0.104574 0.052813 255 220 0
0.582158 0.131801 0.069161 255 220 0
0.549760 0.044522 0.076838 255 220 0
0.571582 0.143185 0.058372 255 220 0
0.520944 0.021103 0.048422 255 220 0
0.558584 0.047358 0.077169 255 220 0
0.589646 0.074693 0.042208 255 220 0
0.520894 0.105110 0.072974 255 220 0
0.532145 0.137058 0.080973 255 220 0
0.506519 0.076758 0.054442 255 220 0
0.572576 0.048201 0.007196 255 220 0
0.567681 0.068409 0.084443 255 220 0
0.520169 0.115310 0.036794 255 220 0
0.573443 0.082916 0.020873 255 220 0
0.515286 0.019329 0.000581 255 220 0
0.582190 0.126599 0.085316 255 220 0
0.552069 0.079076 0.090632 255 220 0
0.547657 0.106824 0.093973 255 220 0
0.589342 0.057115 0.051470 255 220 0
0.527892 0.121413 0.035705 255 220 0
0.534229 0.011476 0.046109 255 220 0
0.566889 0.109152 0.032495 255 220 0
0.521553 0.014250 0.040824 255 220 0
0.526233 0.054413 -0.007072 255 220 0
0.574714 0.046136 0.009725 255 220 0
0.557738 0.010987 0.038775 255 220 0
0.559771 0.116965 0.033253 255 220 0
0.570262 0.032257 0.058657 255 220 0
0.551636 0.034475 0.069903 255 220 0
0.515199 0.009950 0.015401 255 220 0
0.569324 0.035359 0.003162 255 220 0
0.542451 0.010422 0.045308 255 220 0
0.574636 0.035851 0.010312 255 220 0
0.546926 0.110726 0.025081 255 220 0
0.563180 0.018665 0.002966 255 220 0
0.580721 0.047647 0.062646 255 220 0
0.564389 0.058250 0.002471 255 220 0
0.571087 0.043400 0.068909 255 220 0
0.500078 0.053945 0.016226 255 220 0
0.577397 0.032217 0.019161 255 220 0
0.528317 0.065462 0.079377 255 220 0
0.512737 0.047189 0.059983 255 220 0
0.560871 0.063316 0.002672 255 220 0
0.528713 0.060381 0.078246 255 220 0
0.558019 0.022527 -0.003401 255 220 0
0.512333 0.096860 0.060165 255 220 0
0.574673 0.069916 0.015970 255 220 0
0.503698 0.083532 0.044431 255 220 0
0.510982 0.098911 0.029073 255 220 0
0.519869 0.013598 0.037950 255 220 0
0.566460 0.120333 0.039492 255 220 0
0.569233 0.072908 0.085668 255 220 0
0.551771 0.093748 0.015016 255 220 0
0.555217 0.057087 -0.002924 255 220 0
0.590313 0.059958 0.051238 255 220 0
0.559098 0.126162 0.038682 255 220 0
0.565828 0.156116 0.086648 255 220 0
0.542822 0.062943 0.084502 255 220 0
0.542500 0.018626 0.056067 255 220 0
0.525787 0.072270 0.078953 255 220 0
0.553872 0.133878 0.094494 255 220 0
0.517683 0.007532 0.013133 255 220 0
0.591077 0.063828 0.056716 255 220 0
0.504719 0.029477 0.027063 255 220 0
0.536165 0.162425 0.069726 255 220 0
0.534363 0.086978 0.086504 255 220 0
0.545771 0.076961 0.089119 255 220 0
0.507027 0.034265 0.003077 255 220 0
0.571474 0.027570 0.050672 255 220 0
0.527818 0.055082 -0.007187 255 220 0
0.535949 0.105254 0.088454 255 220 0
0.591912 0.071220 0.048739 255 220 0
0.526501 0.098505 0.016605 255 220 0
0.503771 0.041763 0.041407 255 220 0
0.510301 0.018912 0.008792 255 220 0
0.554318 0.005302 0.009035 255 220 0
0.570610 0.021314 0.012475 255 220 0
0.543110 0.129562 0.037218 255 220 0
0.592645 0.094684 0.065639 255 220 0
0.534407 0.153241 0.076655 255 220 0
0.506748 0.038584 0.002688 255 220 0
0.522388 0.025623 0.054489 255 220 0
0.577331 0.091685 0.029501 255 220 0
0.522134 0.006901 0.029364 255 220 0
0.549945 0.031915 0.068081 255 220 0
0.516150 0.080648 0.069516 255 220 0
0.501910 0.036996 0.016572 255 220 0
0.524736 0.135399 0.060942 255 220 0
0.560048 0.144643 0.049763 255 220 0
0.533994 0.137741 0.044971 255 220 0
0.570797 0.048010 0.072472 255 220 0
0.571548 0.024445 0.044595 255 220 0
0.527946 0.021191 0.054606 255 220 0
0.556691 0.142737 0.047064 255 220 0
0.530265 0.012497 -0.005320 255 220 0
0.582797 0.113026 0.086598 255 220 0
0.567640 0.114726 0.094736 255 220 0
0.558663 0.062425 0.001090 255 220 0
0.559215 0.127670 0.095603 255 220 0
0.550539 0.060177 0.084130 255 220 0
0.585390 0.055284 0.028555 255 220 0
0.549100 0.080446 0.006083 255 220 0
0.555851 0.169595 0.068359 255 220 0
0.556297 0.074122 0.005498 255 220 0
0.573105 0.102912 0.032885 255 220 0
0.549997 0.001488 0.022017 255 220 0
0.553604 0.113488 0.028503 255 220 0
0.534408 0.120486 0.031963 255 220 0
0.547149 0.166223 0.078412 255 220 0
0.568935 0.021074 0.042569 255 220 0
0.535095 0.125998 0.036082 255 220 0
0.541389 0.052656 0.080336 255 220 0
0.541379 0.054639 -0.007625 255 220 0
0.562146 0.052074 -0.001179 255 220 0
0.562973 0.022475 0.052530 255 220 0
0.505706 0.060112 0.053181 255 220 0
0.550069 0.113045 0.027278 255 220 0
0.548156 0.001553 0.025508 255 220 0
0.579739 0.034396 0.025179 255 220 0
0.530890 0.003479 0.031044 255 220 0
0.546720 0.055306 -0.006491 255 220 0
0.548999 0.015264 0.050684 255 220 0
0.567029 0.072178 0.086184 255 220 0
0.534814 0.122521 0.086650 255 220 0
0.570487 0.021851 0.011391 255 220 0
0.519142 0.105064 0.025650 255 220 0
0.564610 0.129585 0.043879 255 220 0
0.586590 0.063698 0.068920 255 220 0
0.548079 0.065431 0.085993 255 220 0
0.565809 0.032035 0.062129 255 220 0
0.501689 0.078127 0.029916 255 220 0
0.555074 0.054928 0.081605 255 220 0
0.516444 0.065980 0.069298 255 220 0
0.569240 0.082335 0.017333 255 220 0
0.569341 0.100389 0.028377 255 220 0
0.571415 0.019444 0.024688 255 220 0
0.564160 0.010606 0.021413 255 220 0
0.505554 0.025745 0.022477 255 220 0
0.522647 0.129437 0.055686 255 220 0
0.589195 0.074046 0.040871 255 220 0
0.560997 0.007787 0.018129 255 220 0
0.523648 0.038142 0.065617 255 220 0
0.543045 0.005437 0.000225 255 220 0
0.583250 0.049566 0.024530 255 220 0
0.501297 0.056515 0.012810 255 220 0
0.522341 0.017931 0.046219 255 220 0
0.559397 0.019657 0.051366 255 220 0
0.512555 0.082630 0.064177 255 220 0
0.522911 0.122020 0.041868 255 220 0
0.544039 0.145687 0.088991 255 220 0
0.534604 0.095319 0.087298 255 220 0
0.540370 0.102557 0.018606 255 220 0
0.584453 0.082120 0.080809 255 220 0
0.542844 0.029879 -0.010457 255 220 0
0.581276 0.043548 0.021803 255 220 0
0.548437 0.169993 0.065583 255 220 0
0.558138 0.134442 0.094790 255 220 0
0.539634 0.098177 0.090294 255 220 0
0.541873 0.111853 0.091807 255 220 0
0.527081 0.138677 0.055456 255 220 0
0.500712 0.074475 0.031578 255 220 0
0.559564 0.167977 0.071177 255 220 0
0.537654 0.082112 0.004997 255 220 0
0.542328 -0.000076 0.010121 255 220 0
0.515076 0.079165 0.068174 255 220 0
0.575024 0.118491 0.045160 255 220 0
0.511263 0.059605 0.001206 255 220 0
0.542353 0.100618 0.091690 255 220 0
0.587025 0.058774 0.032310 255 220 0
0.553504 0.128221 0.037891 255 220 0
0.580767 0.118216 0.051129 255 220 0
0.515382 0.099697 0.023688 255 220 0
0.526147 0.089496 0.010384 255 220 0
0.547219 0.069161 -0.000477 255 220 0
0.571938 0.117870 0.093422 255 220 0
0.564488 0.012063 0.029269 255 220 0
0.534417 0.059291 -0.006402 255 220 0
0.585981 0.046465 0.047863 255 220 0
0.572347 0.117692 0.042337 255 220 0
0.566674 0.039903 0.068985 255 220 0
0.551421 0.002034 0.015545 255 220 0
0.586643 0.090091 0.081139 255 220 0
0.570180 0.157569 0.077019 255 220 0
0.513040 0.060079 0.064297 255 220 0
0.527204 0.141909 0.062217 255 220 0
0.582457 0.095473 0.037770 255 220 0
0.579597 0.042203 0.058606 255 220 0
0.536560 0.149550 0.081596 255 220 0
0.528035 0.026501 0.059817 255 220 0
0.591028 0.090379 0.052484 255 220 0
0.583430 0.068091 0.075343 255 220 0
0.582220 0.066423 0.024758 255 220 0
0.556036 0.143940 0.047395 255 220 0
0.524051 0.074933 0.077901 255 220 0
0.542024 0.063491 0.084529 255 220 0
0.555259 0.168859 0.063519 255 220 0
0.551440 0.049122 -0.007129 255 220 0
0.578584 0.040563 0.016714 255 220 0
0.586429 0.064319 0.031786 255 220 0
0.522742 0.087201 0.009762 255 220 0
0.520654 0.072923 0.074579 255 220 0
0.583614 0.060177 0.025494 255 220 0
0.530066 0.107114 0.083770 255 220 0
0.508067 0.067737 0.057867 255 220 0
0.585674 0.088687 0.081714 255 220 0
0.502127 0.055790 0.044233 255 220 0
0.526578 0.139441 0.066796 255 220 0
0.560545 0.086095 0.014282 255 220 0
0.504397 0.031307 0.029276 255 220 0
0.592727 0.085234 0.055920 255 220 0
0.550305 0.083426 0.008203 255 220 0
0.523923 0.015210 0.044448 255 220 0
0.527309 0.002699 0.026453 255 220 0
0.561123 0.101667 0.094953 255 220 0
0.504599 0.043035 0.005734 255 220 0
0.558317 0.093750 0.094047 255 220 0
0.500567 0.071823 0.026699 255 220 0
0.580170 0.032973 0.035991 255 220 0
0.576847 0.027720 0.029193 255 220 0
0.538367 0.048675 -0.009436 255 220 0
0.505079 0.032143 0.033781 255 220 0
0.577521 0.040661 0.059967 255 220 0
0.517946 0.039921 0.061894 255 220 0
0.568912 0.043876 0.002713 255 220 0
0.506369 0.055743 0.004552 255 220 0
0.508435 0.020348 0.023376 255 220 0
0.570896 0.018734 0.025374 255 220 0
0.577057 0.104906 0.089984 255 220 0
0.500092 0.060463 0.017878 255 220 0
0.516237 0.097168 0.020589 255 220 0
0.569430 0.143202 0.056148 255 220 0
0.510587 0.078432 0.011055 255 220 0
0.506371 0.085769 0.022812 255 220 0
0.575256 0.025837 0.035982 255 220 0
0.532997 -0.000389 0.010599 255 220 0
0.551726 0.148032 0.091038 255 220 0
0.562485 0.084130 0.091360 255 220 0
0.583495 0.092274 0.037521 255 220 0
0.529467 0.117464 0.082023 255 220 0
0.561959 0.077959 0.089619 255 220 0
0.553411 0.101408 0.020449 255 220 0
0.515123 0.112176 0.052449 255 220 0
0.539696 0.022480 -0.009411 255 220 0
0.576342 0.027855 0.039028 255 220 0
0.568132 0.060124 0.005906 255 220 0
0.500622 0.067916 0.039678 255 220 0
0.586647 0.071064 0.034200 255 220 0
0.537635 0.114857 0.027263 255 220 0
0.543163 0.034299 -0.010680 255 220 0
0.506202 0.045913 0.050004 255 220 0
0.557076 0.056835 0.082176 255 220 0
0.527423 0.073728 0.000640 255 220 0
0.514976 0.078068 0.068081 255 220 0
0.561781 0.070458 0.086955 255 220 0
0.583979 0.072060 0.076939 255 220 0
0.573687 0.023488 0.020433 255 220 0
0.577274 0.030675 0.020945 255 220 0
0.578687 0.044434 0.062337 255 220 0
0.532227 -0.000691 0.020467 255 220 0
0.501676 0.051024 0.040998 255 220 0
0.527231 0.000737 0.019808 255 220 0
0.557715 0.096194 0.018850 255 220 0
0.532486 0.132028 0.041867 255 220 0
0.555109 0.157561 0.087587 255 220 0
0.517823 0.074487 0.071663 255 220 0
0.556555 0.103044 0.022680 255 220 0
0.518230 0.083563 0.009210 255 220 0
0.505316 0.077629 0.051790 255 220 0
0.531177 0.152452 0.063619 255 220 0
0.539506 0.136306 0.041579 255 220 0
0.589979 0.059301 0.052602 255 220 0
0.570351 0.020470 0.013101 255 220 0
0.585419 0.044580 0.034483 255 220 0
0.580123 0.122506 0.053634 255 220 0
0.554680 0.122322 0.095606 255 220 0
0.506753 0.023530 0.023515 255 220 0
0.507195 0.049022 0.053134 255 220 0
0.591210 0.096739 0.057646 255 220 0
0.555437 0.140418 0.093517 255 220 0
0.519352 0.056697 0.070173 255 220 0
0.573259 0.090889 0.025253 255 220 0
0.552106 0.135739 0.093913 255 220 0
0.586501 0.060706 0.031236 255 220 0
0.555256 0.104989 0.023425 255 220 0
0.531190 0.106080 0.021332 255 220 0
0.515986 0.094811 0.018756 255 220 0
0.574998 0.112082 0.091700 255 220 0
0.562747 0.122511 0.095762 255 220 0
0.506246 0.093468 0.043077 255 220 0
0.553718 0.169410 0.063906 255 220 0
0.513736 0.052032 0.063031 255 220 0
0.561066 0.095171 0.019903 255 220 0
0.536918 0.085339 0.006957 255 220 0
0.535194 0.143880 0.082382 255 220 0
0.515692 0.011313 0.026519 255 220 0
0.524772 0.012759 0.042034 255 220 0
0.520383 0.025070 -0.006071 255 220 0
0.537204 0.114768 0.027219 255 220 0
0.524314 0.116552 0.033465 255 220 0
0.556442 0.005309 0.012995 255 220 0
0.582486 0.040447 0.049895 255 220 0
0.535027 0.157622 0.074299 255 220 0
0.501917 0.037573 0.026515 255 220 0
0.533761 0.001784 0.028810 255 220 0
0.525713 0.067209 0.077998 255 220 0
0.505374 0.075349 0.052282 255 220 0
0.558965 0.124368 0.095844 255 220 0
0.548847 0.159737 0.085246 255 220 0
0.521975 0.004246 0.010773 255 220 0
0.579543 0.134559 0.063880 255 220 0
0.501681 0.039026 0.015337 255 220 0
0.544937 0.029680 0.066545 255 220 0
0.530712 0.150039 0.060620 255 220 0
0.526535 0.089704 0.010442 255 220 0
0.569826 0.122625 0.043514 255 220 0
0.570598 0.121878 0.094010 255 220 0
0.551822 0.045547 0.077264 255 220 0
0.536370 0.007459 -0.002685 255 220 0
0.515026 0.065464 0.067586 255 220 0
0.568986 0.151979 0.060770 255 220 0
0.574583 0.028416 0.046576 255 220 0
0.507832 0.048673 0.054020 255 220 0
0.527043 0.096481 0.081358 255 220 0
0.563278 0.140878 0.049740 255 220 0
0.534923 0.100700 0.017106 255 220 0
0.539705 0.066182 0.084764 255 220 0
0.543773 0.148441 0.087968 255 220 0
0.519268 0.107750 0.028356 255 220 0
0.531280 0.147663 0.056063 255 220 0
0.516380 0.110743 0.061708 255 220 0
0.514722 0.105219 0.061173 255 220 0
0.519792 0.112826 0.033905 255 220 0
0.552161 0.018971 0.054380 255 220 0
0.556266 0.068194 0.002541 255 220 0
0.590096 0.060497 0.043138 255 220 0
0.523782 0.111277 0.075903 255 220 0
0.577360 0.080831 0.023814 255 220 0
0.499956 0.046991 0.027738 255 220 0
0.561182 0.021160 -0.000451 255 220 0
0.553942 0.086384 0.011282 255 220 0
0.583633 0.049524 0.059433 255 220 0
0.592706 0.079717 0.053433 255 220 0
0.506822 0.061660 0.005757 255 220 0
0.588717 0.053806 0.041510 255 220 0
0.578185 0.142383 0.080707 255 220 0
0.528527 0.145613 0.064636 255 220 0
0.577182 0.035383 0.015792 255 220 0
0.551687 0.053780 0.081421 255 220 0
0.539167 0.053960 0.080420 255 220 0
0.514856 0.019550 0.039290 255 220 0
0.589853 0.070635 0.041645 255 220 0
0.521165 0.108612 0.027633 255 220 0
0.509327 0.073105 0.059841 255 220 0
0.561870 0.162990 0.060927 255 220 0
0.580588 0.128917 0.060138 255 220 0
0.553776 0.003127 0.021991 255 220 0
0.544705 0.082744 0.006323 255 220 0
0.514797 0.012636 0.027305 255 220 0
0.545744 0.135381 0.040575 255 220 0
0.550713 0.112726 0.027206 255 220 0
0.561886 0.142967 0.092800 255 220 0
0.582754 0.054238 0.066061 255 220 0
0.549623 0.043268 -0.008871 255 220 0
0.529493 0.123823 0.036921 255 220 0
0.546529 0.132197 0.092753 255 220 0
0.566990 0.035935 0.065281 255 220 0
0.558940 0.007108 0.027324 255 220 0
0.533542 0.039405 0.071201 255 220 0
0.575997 0.026589 0.025951 255 220 0
0.541861 0.093665 0.090890 255 220 0
0.529079 -0.000235 0.016304 255 220 0
0.524086 0.133470 0.063159 255 220 0
0.588178 0.081370 0.041177 255 220 0
0.537646 0.058196 0.081632 255 220 0
0.536186 0.081265 0.004422 255 220 0
0.504621 0.079039 0.020012 255 220 0
0.593542 0.081653 0.062567 255 220 0
0.538721 0.022118 -0.009396 255 220 0
0.585263 0.077438 0.033840 255 220 0
0.508719 0.069933 0.007696 255 220 0
0.516898 0.017460 0.000225 255 220 0
0.550952 0.085068 0.092030 255 220 0
0.587227 0.076444 0.037285 255 220 0
0.546128 0.073289 0.001327 255 220 0
0.525734 0.006971 0.033708 255 220 0
0.585759 0.087206 0.081272 255 220 0
0.589512 0.063016 0.062315 255 220 0
0.554200 0.152157 0.050555 255 220 0
0.531884 0.154523 0.066026 255 220 0
0.546400 0.024594 0.061983 255 220 0
0.558273 0.102788 0.023262 255 220 0
0.572024 0.098668 0.029205 255 220 0
0.581157 0.046694 0.060962 255 220 0
0.508053 0.080385 0.056811 255 220 0
0.576167 0.026724 0.033269 255 220 0
0.571693 0.039545 0.005678 255 220 0
0.517727 0.050662 -0.005159 255 220 0
0.579599 0.062128 0.075066 255 220 0
0.559842 0.150514 0.090508 255 220 0
0.529646 0.138875 0.050370 255 220 0
0.508724 0.043903 0.053129 255 220 0
0.555945 0.068825 0.087200 255 220 0
0.512395 0.016223 0.008034 255 220 0
0.562413 0.035378 0.067394 255 220 0
0.503165 0.084833 0.035274 255 220 0
0.515755 0.032073 0.053611 255 220 0
0.550269 0.096744 0.016477 255 220 0
0.525922 0.138409 0.060990 255 220 0
0.570980 0.136451 0.092515 255 220 0
0.530637 0.040318 -0.010354 255 220 0
0.576901 0.032553 0.017146 255 220 0
0.528050 0.060512 -0.005456 255 220 0
0.505876 0.092856 0.037368 255 220 0
0.499714 0.058725 0.035549 255 220 0
0.499282 0.064627 0.029441 255 220 0
0.578200 0.072602 0.021254 255 220 0
0.592637 0.094715 0.066969 255 220 0
0.576518 0.138026 0.088815 255 220 0
0.580552 0.122052 0.053887 255 220 0
0.564778 0.011588 0.016796 255 220 0
0.561996 0.157735 0.086862 255 220 0
0.572805 0.033204 0.057080 255 220 0
0.561975 0.052644 0.079077 255 220 0
0.540096 0.023711 0.061260 255 220 0
0.516857 0.045631 0.063863 255 220 0
0.554540 0.078743 0.007134 255 220 0
0.540665 0.087790 0.089683 255 220 0
0.563112 0.013085 0.008469 255 220 0
0.555385 0.074854 0.005439 255 220 0
0.556624 0.037179 0.070984 255 220 0
0.542772 0.137288 0.090250 255 220 0
0.536831 -0.001409 0.018256 255 220 0
0.526662 0.130266 0.074680 255 220 0
0.571453 0.069172 0.083227 255 220 0
0.541180 0.075719 0.001669 255 220 0
0.563810 0.015958 0.040761 255 220 0
0.580509 0.041420 0.056032 255 220 0
0.573293 0.118051 0.043370 255 220 0
0.502159 0.074537 0.043826 255 220 0
0.540858 0.129043 0.037012 255 220 0
0.548689 0.166354 0.078753 255 220 0
0.563077 0.153442 0.056018 255 220 0
0.526060 0.020444 -0.007320 255 220 0
0.530101 0.024069 0.058791 255 220 0
0.575215 0.025500 0.034198 255 220 0
0.545288 0.014291 0.050368 255 220 0
0.533520 0.130547 0.084226 255 220 0
0.514744 0.089283 0.066569 255 220 0
0.520979 0.004145 0.015949 255 220 0
0.575472 0.040409 0.010930 255 220 0
0.549786 0.158122 0.086494 255 220 0
0.560639 0.161971 0.058734 255 220 0
0.569282 0.115260 0.038306 255 220 0
0.534232 0.051724 0.077887 255 220 0
0.581140 0.128314 0.060722 255 220 0
0.556546 0.004529 0.019769 255 220 0
0.509928 0.041899 0.053670 255 220 0
0.550112 0.033612 -0.009315 255 220 0
0.550815 0.042016 -0.008727 255 220 0
0.554313 0.051637 0.080158 255 220 0
0.502168 0.035241 0.019483 255 220 0
0.507361 0.029087 0.036914 255 220 0
0.565352 0.071010 0.086261 255 220 0
0.510656 0.050720 0.058775 255 220 0
0.524017 0.032385 0.061961 255 220 0
0.589753 0.100303 0.055425 255 220 0
0.555616 0.044739 0.076276 255 220 0
0.528798 0.020260 -0.008160 255 220 0
0.533536 0.081052 0.085278 255 220 0
0.576984 0.143073 0.084226 255 220 0
0.545327 0.059525 -0.005247 255 220 0
0.514978 0.096758 0.021290 255 220 0
0.566950 0.113256 0.035272 255 220 0
0.578068 0.143431 0.075881 255 220 0
0.515607 0.048411 -0.004503 255 220 0
0.580731 0.039256 0.022877 255 220 0
0.581597 0.037707 0.047304 255 220 0
0.588015 0.106616 0.055664 255 220 0
0.521635 0.075743 0.003158 255 220 0
0.505925 0.078464 0.052955 255 220 0
0.584925 0.100436 0.084214 255 220 0
0.577893 0.103004 0.089314 255 220 0
0.536990 0.020473 -0.009047 255 220 0
0.543133 0.003895 0.034028 255 220 0
0.529758 0.013979 0.047475 255 220 0
0.511927 0.023650 0.001415 255 220 0
0.519178 0.117954 0.064024 255 220 0
0.510306 0.084720 0.015865 255 220 0
0.543247 0.139479 0.090086 255 220 0
0.570543 0.140224 0.091762 255 220 0
0.559529 0.167544 0.073828 255 220 0
0.499754 0.068573 0.029448 255 220 0
0.532302 0.150367 0.074526 255 220 0
0.570354 0.124453 0.094041 255 220 0
0.562588 0.084170 0.091351 255 220 0
0.582453 0.046434 0.023547 255 220 0
0.506092 0.093266 0.042131 255 220 0
0.575865 0.027903 0.020003 255 220 0
0.529028 0.026706 -0.009641 255 220 0
0.536390 -0.000177 0.024675 255 220 0
0.581542 0.132214 0.083139 255 220 0
0.520516 0.066645 0.073580 255 220 0
0.545705 0.153703 0.050075 255 220 0
0.499562 0.057845 0.019217 255 220 0
0.553553 0.164919 0.081152 255 220 0
0.539801 0.118917 0.030148 255 220 0
0.516596 0.055720 0.067247 255 220 0
0.503449 0.044910 0.042960 255 220 0
0.571038 0.132903 0.051186 255 220 0
0.587111 0.050439 0.050053 255 220 0
0.520724 0.005798 0.024189 255 220 0
0.523271 0.056516 -0.005754 255 220 0
0.585255 0.065593 0.029785 255 220 0
0.552537 0.029154 -0.008021 255 220 0
0.521610 0.034914 -0.008263 255 220 0
0.581352 0.112544 0.047632 255 220 0
0.504640 0.042452 0.005704 255 220 0
0.511432 0.073604 0.063159 255 220 0
0.583189 0.063191 0.072624 255 220 0
0.527589 0.008073 -0.001045 255 220 0
0.505373 0.068931 0.011004 255 220 0
0.501999 0.037058 0.015691 255 220 0
0.548495 0.125457 0.094045 255 220 0
0.550329 0.063919 -0.001968 255 220 0
0.531733 0.087067 0.008057 255 220 0
0.518067 0.066751 0.071172 255 220 0
0.523753 0.029660 0.059482 255 220 0
0.580799 0.087946 0.031516 255 220 0
0.590635 0.068497 0.043713 255 220 0
0.557129 0.149468 0.091011 255 220 0
0.518212 0.006884 0.020212 255 220 0
0.503533 0.046196 0.044071 255 220 0
0.519877 0.035779 0.060966 255 220 0
0.516763 0.036046 -0.006020 255 220 0
0.535391 0.048903 0.077051 255 220 0
0.574007 0.093307 0.027360 255 220 0
0.576883 0.125714 0.052023 255 220 0
0.574347 0.063499 0.013201 255 220 0
0.577631 0.030183 0.023920 255 220 0
0.514396 0.011524 0.012354 255 220 0
0.576552 0.027217 0.029871 255 220 0
0.577574 0.078229 0.083844 255 220 0
0.523423 0.044550 0.068840 255 220 0
0.527718 0.105336 0.021511 255 220 0
0.533392 0.107027 0.021744 255 220 0
0.535321 0.056797 0.080315 255 220 0
0.591066 0.086257 0.050370 255 220 0
0.501334 0.048816 0.038328 255 220 0
0.531874 0.134571 0.081349 255 220 0
0.543480 0.020240 -0.008237 255 220 0
0.541002 0.005273 -0.000172 255 220 0
0.523337 0.094599 0.077503 255 220 0
0.557342 0.168534 0.065070 255 220 0
0.565374 0.102581 0.094277 255 220 0
0.508704 0.046156 0.054240 255 220 0
0.524974 0.068339 -0.001568 255 220 0
0.527671 0.084567 0.006909 255 220 0
0.565143 0.061267 0.004203 255 220 0
0.558758 0.019000 0.050880 255 220 0
0.582600 0.103523 0.042899 255 220 0
0.554228 0.004756 0.028568 255 220 0
0.518062 0.079579 0.006815 255 220 0
0.557917 0.150819 0.051553 255 220 0
0.558679 0.166481 0.061910 255 220 0
0.518643 0.101294 0.070272 255 220 0
0.532769 0.009091 0.041885 255 220 0
0.535962 0.016395 0.052987 255 220 0
0.561123 0.012816 0.005954 255 220 0
0.559696 0.054593 0.080644 255 220 0
0.511275 0.032435 -0.001533 255 220 0
0.517569 0.062851 0.069977 255 220 0
0.590073 0.099664 0.077132 255 220 0
0.549668 0.051267 0.080350 255 220 0
0.502217 0.046754 0.040251 255 220 0
0.587785 0.115291 0.075730 255 220 0
0.585210 0.075388 0.032965 255 220 0
0.528242 0.141848 0.070713 255 220 0
0.555802 0.128847 0.095326 255 220 0
0.522654 0.009254 0.034488 255 220 0
0.533466 0.132023 0.041231 255 220 0
0.574220 0.148485 0.084119 255 220 0
0.569426 0.033890 0.061306 255 220 0
0.540239 0.071921 0.086433 255 220 0
0.545005 0.161112 0.054406 255 220 0
0.511224 0.056478 0.000276 255 220 0
0.581744 0.083881 0.083296 255 220 0
0.520876 0.124356 0.062798 255 220 0
0.560944 0.132988 0.043692 255 220 0
0.584904 0.065494 0.029095 255 220 0
0.512416 0.079042 0.064344 255 220 0
0.522196 0.056364 -0.005474 255 220 0
0.550529 0.001569 0.020976 255 220 0
0.550163 0.154143 0.088477 255 220 0
0.499764 0.049697 0.030042 255 220 0
0.562787 0.120851 0.037363 255 220 0
0.554354 0.120503 0.033364 255 220 0
0.548222 0.127904 0.036588 255 220 0
0.588827 0.100082 0.079543 255 220 0
0.564900 0.121300 0.038988 255 220 0
0.526928 0.112895 0.028169 255 220 0
0.579120 0.076714 0.024138 255 220 0
0.565717 0.041537 -0.000473 255 220 0
0.510261 0.040678 -0.001425 255 220 0
0.579394 0.136883 0.084755 255 220 0
0.537995 0.154400 0.053205 255 220 0
0.569792 0.046675 0.003919 255 220 0
0.546494 0.075001 0.088738 255 220 0
0.527901 0.029739 0.062448 255 220 0
0.523732 0.122915 0.041733 255 220 0
0.508551 0.074257 0.058459 255 220 0
0.561003 0.008864 0.028370 255 220 0
0.529334 0.096119 0.083453 255 220 0
0.583307 0.044292 0.053617 255 220 0
0.531938 0.150609 0.057799 255 220 0
0.566266 0.023165 0.003534 255 220 0
0.535815 0.115639 0.027978 255 220 0
0.564602 0.040511 0.070571 255 220 0
0.530989 -0.000250 0.011656 255 220 0
0.586404 0.119562 0.067290 255 220 0
0.546809 0.165886 0.057889 255 220 0
0.545789 0.116545 0.028887 255 220 0
0.563062 0.034648 0.066410 255 220 0
0.500208 0.069880 0.026324 255 220 0
0.562880 0.163265 0.062575 255 220 0
0.583164 0.038322 0.038271 255 220 0
0.514520 0.110830 0.045364 255 220 0
0.592382 0.076059 0.066423 255 220 0
0.573444 0.093820 0.027213 255 220 0
0.552158 0.104926 0.022350 255 220 0
0.588618 0.081055 0.076317 255 220 0
0.592471 0.069003 0.054369 255 220 0
0.509845 0.099809 0.050681 255 220 0
0.544107 0.102145 0.018752 255 220 0
0.530435 0.147443 0.057783 255 220 0
0.504812 0.038614 0.041498 255 220 0
0.549191 0.165148 0.056804 255 220 0
0.569752 0.022184 0.009411 255 220 0
0.535966 0.005516 0.036822 255 220 0
0.524874 0.058213 0.075066 255 220 0
0.541701 0.065549 -0.003329 255 220 0
0.521130 0.118899 0.040553 255 220 0
0.582526 0.111851 0.086847 255 220 0
0.525826 0.102186 0.019605 255 220 0
0.523144 0.029529 0.058852 255 220 0
0.524226 0.019238 0.049540 255 220 0
0.520876 0.053535 0.070487 255 220 0
0.572960 0.026454 0.045941 255 220 0
0.520193 0.121430 0.047478 255 220 0
0.506195 0.093634 0.037328 255 220 0
0.542234 0.084972 0.007227 255 220 0
0.569978 0.026122 0.006728 255 220 0
0.528083 0.015491 0.048287 255 220 0
0.587002 0.059497 0.064195 255 220 0
0.525272 0.017245 -0.005757 255 220 0
0.512672 0.026047 0.043954 255 220 0
0.535969 0.161277 0.062443 255 220 0
0.536488 0.160341 0.074405 255 220 0
0.546137 0.008222 0.041141 255 220 0
0.533193 0.153273 0.058008 255 220 0
0.542234 0.014740 0.051379 255 220 0
0.521229 0.076118 0.003510 255 220 0
0.570439 0.079990 0.016883 255 220 0
0.521634 0.045073 0.067796 255 220 0
0.507854 0.090768 0.052977 255 220 0
0.552047 0.009663 0.040948 255 220 0
0.529500 0.017526 0.051632 255 220 0
0.511984 0.048529 0.059640 255 220 0
0.552361 0.016528 0.051083 255 220 0
0.585741 0.117987 0.081423 255 220 0
0.567609 0.131667 0.047415 255 220 0
0.582985 0.076534 0.079781 255 220 0
0.542544 0.107683 0.022354 255 220 0
0.534024 0.157382 0.072039 255 220 0
0.531684 0.066127 -0.003547 255 220 0
0.516489 0.077776 0.006548 255 220 0
0.546418 0.112407 0.093681 255 220 0
0.578291 0.139277 0.066272 255 220 0
0.586587 0.048700 0.034623 255 220 0
0.558928 0.103702 0.095354 255 220 0
0.524918 0.123094 0.074393 255 220 0
0.502423 0.078852 0.042586 255 220 0
0.516931 0.114973 0.058627 255 220 0
0.506739 0.093009 0.047203 255 220 0
0.583817 0.126355 0.066635 255 220 0
0.549214 0.095899 0.093513 255 220 0
0.512371 0.073273 0.064545 255 220 0
0.564640 0.051746 0.077722 255 220 0
0.523150 0.114022 0.031729 255 220 0
0.573385 0.064673 0.012555 255 220 0
0.526576 0.024381 -0.008556 255 220 0
0.510711 0.042278 -0.001783 255 220 0
0.579638 0.040727 0.019055 255 220 0
0.587025 0.115890 0.078802 255 220 0
0.560634 0.042060 0.073290 255 220 0
0.564173 0.104093 0.094729 255 220 0
0.573248 0.101036 0.091318 255 220 0
0.510274 0.032419 0.046909 255 220 0
0.586077 0.082632 0.037444 255 220 0
0.510389 0.016897 0.012965 255 220 0
0.513545 0.014522 0.028204 255 220 0
0.583268 0.130361 0.074737 255 220 0
0.534088 0.142924 0.048521 255 220 0
0.510677 0.099497 0.030631 255 220 0
0.590727 0.102930 0.073749 255 220 0
0.590181 0.079302 0.073357 255 220 0
0.516671 0.062612 -0.001009 255 220 0
0.550233 0.071047 0.001393 255 220 0
0.523618 0.072356 0.077220 255 220 0
0.553895 0.106951 0.024233 255 220 0
0.522485 0.003949 0.010506 255 220 0
0.584830 0.083731 0.081046 255 220 0
0.529209 0.115196 0.082055 255 220 0
0.592113 0.078110 0.050527 255 220 0
0.515971 0.039136 0.059320 255 220 0
0.523951 0.133276 0.062232 255 220 0
0.576729 0.107731 0.090427 255 220 0
0.576125 0.084232 0.024153 255 220 0
0.515840 0.040063 -0.005532 255 220 0
0.530696 0.042191 -0.010181 255 220 0
0.518671 0.119983 0.058174 255 220 0
0.591242 0.063728 0.049049 255 220 0
0.517801 0.010157 0.006707 255 220 0
0.573596 0.062864 0.079315 255 220 0
0.531535 0.093812 0.085150 255 220 0
0.586048 0.116846 0.061046 255 220 0
0.549288 0.137577 0.092924 255 220 0
0.578151 0.134025 0.088554 255 220 0
0.583670 0.041485 0.047747 255 220 0
0.580087 0.116727 0.088917 255 220 0
0.591967 0.092519 0.057355 255 220 0
0.525740 0.137922 0.063825 255 220 0
0.537241 0.127805 0.036784 255 220 0
0.520079 0.114631 0.035970 255 220 0
0.573952 0.139614 0.090345 255 220 0
0.516454 0.111757 0.038556 255 220 0
0.566009 0.029379 0.000771 255 220 0
0.533729 0.155264 0.059110 255 220 0
0.583392 0.060601 0.025181 255 220 0
0.572525 0.152578 0.081873 255 220 0
0.505081 0.037410 0.041014 255 220 0
0.591268 0.102561 0.069847 255 220 0
0.530730 0.014565 -0.006483 255 220 0
0.570321 0.086930 0.089810 255 220 0
0.585318 0.055142 0.028403 255 220 0
0.522206 0.032100 0.060238 255 220 0
0.556284 0.035593 0.069842 255 220 0
0.504994 0.071691 0.013369 255 220 0
0.568200 0.127605 0.094494 255 220 0
0.536269 0.005872 -0.001234 255 220 0
0.540789 0.130968 0.090099 255 220 0
0.535378 0.132892 0.040856 255 220 0
0.562760 0.039084 0.070320 255 220 0
0.537669 0.078713 0.002991 255 220 0
0.502747 0.058173 0.046442 255 220 0
0.506860 0.069435 0.055724 255 220 0
0.505606 0.025664 0.013574 255 220 0
0.589467 0.105226 0.059318 255 220 0
0.513588 0.033723 -0.003725 255 220 0
0.546781 0.167365 0.076554 255 220 0
0.566705 0.013313 0.021806 255 220 0
0.516580 0.047391 0.064355 255 220 0
0.526788 0.035272 0.065758 255 220 0
0.516045 0.019861 0.041363 255 220 0
0.502528 0.071939 0.018722 255 220 0
0.522150 0.011570 -0.000216 255 220 0
0.545403 0.102422 0.092981 255 220 0
0.545962 0.158494 0.084779 255 220 0
0.586793 0.052217 0.032909 255 220 0
0.578941 0.031237 0.029984 255 220 0
0.531651 0.096477 0.085318 255 220 0
0.538044 0.030477 -0.010847 255 220 0
0.533106 0.022135 -0.009369 255 220 0
0.544731 0.151459 0.087396 255 220 0
0.592724 0.092279 0.069028 255 220 0
0.535784 0.050209 -0.009132 255 220 0
0.553242 0.142766 0.045791 255 220 0
0.501348 0.076566 0.029401 255 220 0
0.519961 0.086403 0.073994 255 220 0
0.529711 0.034805 0.066858 255 220 0
0.519101 0.036605 0.060819 255 220 0
0.579271 0.074625 0.081453 255 220 0
0.585772 0.120538 0.079557 255 220 0
0.587712 0.049817 0.041674 255 220 0
0.580015 0.041522 0.019610 255 220 0
0.531714 0.053036 -0.008252 255 220 0
0.515039 0.013449 0.029687 255 220 0
0.588873 0.084833 0.044104 255 220 0
0.531489 0.038988 -0.010565 255 220 0
0.577900 0.141949 0.068983 255 220 0
0.550931 0.014545 0.048984 255 220 0
0.585790 0.104059 0.048405 255 220 0
0.563273 0.156179 0.057481 255 220 0
0.570686 0.155162 0.065955 255 220 0
0.509725 0.088731 0.019902 255 220 0
0.570072 0.045819 0.071405 255 220 0
0.561279 0.009881 0.030959 255 220 0
0.526205 0.055074 0.074940 255 220 0
0.548813 0.155663 0.087414 255 220 0
0.532275 0.010975 0.044634 255 220 0
0.500210 0.059915 0.038326 255 220 0
0.583506 0.072891 0.029075 255 220 0
0.547280 0.153062 0.087955 255 220 0
0.557113 0.044654 0.075930 255 220 0
0.514481 0.010873 0.015057 255 220 0
0.558550 0.007891 0.030718 255 220 0
0.577974 0.072497 0.020921 255 220 0
0.588569 0.103003 0.079753 255 220 0
0.532354 0.002670 0.003786 255 220 0
0.536753 0.058522 -0.006646 255 220 0
0.536439 0.162934 0.065398 255 220 0
0.524846 0.004436 0.027688 255 220 0
0.587070 0.060275 0.032489 255 220 0
0.574615 0.150643 0.075671 255 220 0
0.580954 0.135738 0.080240 255 220 0
0.520018 0.014878 0.039920 255 220 0
0.579042 0.131245 0.059401 255 220 0
0.552574 0.008418 0.002364 255 220 0
0.556703 0.039753 0.072839 255 220 0
0.546639 0.118559 0.093716 255 220 0
0.588585 0.071309 0.038559 255 220 0
0.573228 0.048950 0.008099 255 220 0
0.550872 0.068749 0.087268 255 220 0
0.511377 0.081406 0.062448 255 220 0
0.582143 0.107477 0.087010 255 220 0
0.557648 0.021564 0.055076 255 220 0
0.569707 0.158308 0.068963 255 220 0
0.506738 0.073863 0.055236 255 220 0
0.500585 0.052569 0.014441 255 220 0
0.530108 0.089081 0.083900 255 220 0
0.554099 0.126996 0.095273 255 220 0
0.547079 0.032396 0.068690 255 220 0
0.567109 0.042322 0.000830 255 220 0
0.560564 0.096138 0.020220 255 220 0
0.569947 0.154663 0.064010 255 220 0
0.549282 0.126725 0.094204 255 220 0
0.570051 0.018103 0.017850 255 220 0
0.588125 0.107828 0.057248 255 220 0
0.556925 0.085087 0.092290 255 220 0
0.527592 0.143069 0.064195 255 220 0
0.527914 0.135396 0.049644 255 220 0
0.514481 0.090976 0.016827 255 220 0
0.591672 0.099858 0.070868 255 220 0
0.499749 0.061547 0.036092 255 220 0
0.521316 0.115426 0.035307 255 220 0
0.571192 0.138447 0.092003 255 220 0
0.572136 0.153710 0.067678 255 220 0
0.541171 0.003736 0.033995 255 220 0
0.572114 0.146488 0.061157 255 220 0
0.517157 0.045345 0.064024 255 220 0
0.517089 0.009228 0.009923 255 220 0
0.501076 0.076256 0.035572 255 220 0
0.530423 0.136841 0.047539 255 220 0
0.529793 0.148551 0.067955 255 220 0
0.544193 0.164100 0.056979 255 220 0
0.534553 0.000360 0.025691 255 220 0
0.575295 0.086719 0.087674 255 220 0
0.580985 0.060366 0.021137 255 220 0
0.540940 -0.000514 0.010898 255 220 0
0.567158 0.086938 0.018650 255 220 0
0.555083 0.016328 0.049424 255 220 0
0.548975 0.099006 0.093798 255 220 0
0.547085 0.085620 0.091414 255 220 0
0.578203 0.140202 0.067251 255 220 0
0.587507 0.056445 0.058707 255 220 0
0.547288 0.016425 -0.005800 255 220 0
0.553177 0.121337 0.095400 255 220 0
0.509574 0.096117 0.053889 255 220 0
0.513966 0.056827 0.064692 255 220 0
0.556752 0.084899 0.011628 255 220 0
0.503888 0.075777 0.048746 255 220 0
0.499262 0.053296 0.021322 255 220 0
0.527150 0.113514 0.028617 255 220 0
0.513472 0.057911 0.064369 255 220 0
0.503916 0.038502 0.038390 255 220 0
0.579774 0.055214 0.018211 255 220 0
0.533130 0.109965 0.023989 255 220 0
0.505565 0.032983 0.036864 255 220 0
0.534919 0.012701 0.048040 255 220 0
0.544699 0.088047 0.091175 255 220 0
0.522979 0.026440 0.055831 255 220 0
0.506245 0.043207 0.048588 255 220 0
0.575675 0.031411 0.014646 255 220 0
0.540983 0.055085 -0.007525 255 220 0
0.560714 0.030257 -0.003822 255 220 0
0.541243 0.062085 0.083910 255 220 0
0.561972 0.162778 0.060825 255 220 0
0.537419 0.031398 -0.010924 255 220 0
0.578024 0.124698 0.090309 255 220 0
0.524066 0.132119 0.054777 255 220 0
0.586225 0.059583 0.030505 255 220 0
0.569961 0.048347 0.073206 255 220 0
0.544235 0.030418 0.067118 255 220 0
0.534722 0.025089 0.061505 255 220 0
0.575794 0.029143 0.045196 255 220 0
0.534052 0.084830 0.006569 255 220 0
0.580769 0.136511 0.072557 255 220 0
0.531873 0.104010 0.019673 255 220 0
0.555326 0.008500 0.036380 255 220 0
0.566448 0.068264 0.008226 255 220 0
0.569405 0.048777 0.073803 255 220 0
0.535089 0.013464 0.049115 255 220 0
0.571681 0.036321 0.061904 255 220 0
0.593215 0.080840 0.056645 255 220 0
0.561702 0.054499 -0.000627 255 220 0
0.525044 0.111808 0.077517 255 220 0
0.535677 0.038217 0.071148 255 220 0
0.519448 0.087341 0.073307 255 220 0
0.528378 0.010258 -0.003263 255 220 0
0.523880 0.063806 -0.003291 255 220 0
0.518653 0.108548 0.029885 255 220 0
0.517734 0.043966 0.063924 255 220 0
0.503120 0.043386 0.040737 255 220 0
0.563311 0.078037 0.089345 255 220 0
0.572218 0.022640 0.015377 255 220 0
0.524174 0.054214 0.073245 255 220 0
0.523538 0.059763 0.074546 255 220 0
0.574192 0.024006 0.022073 255 220 0
0.534355 0.108652 0.087286 255 220 0
0.576357 0.027150 0.034894 255 220 0
0.580235 0.127360 0.087960 255 220 0
0.522974 0.039981 -0.008695 255 220 0
0.575655 0.068445 0.080822 255 220 0
0.564748 0.044375 0.073271 255 220 0
0.511143 0.016241 0.024195 255 220 0
0.561381 0.163937 0.061427 255 220 0
0.521548 0.116010 0.070912 255 220 0
0.507217 0.055088 0.054976 255 220 0
0.506826 0.034104 0.003428 255 220 0
0.552436 0.024986 0.061194 255 220 0
0.565473 0.085009 0.090882 255 220 0
0.525338 0.006645 0.002016 255 220 0
0.532252 0.127827 0.038718 255 220 0
0.585749 0.063782 0.030266 255 220 0
0.505345 0.056904 0.006018 255 220 0
0.512480 0.015136 0.009695 255 220 0
0.561534 0.160334 0.058352 255 220 0
0.589680 0.082680 0.075491 255 220 0
0.503440 0.031977 0.024805 255 220 0
0.540723 0.055476 -0.007426 255 220 0
0.553356 0.036454 -0.008299 255 220 0
0.564056 0.121819 0.038750 255 220 0
0.591801 0.099545 0.064933 255 220 0
0.580300 0.096492 0.035585 255 220 0
0.582015 0.074235 0.027209 255 220 0
0.559338 0.164137 0.059500 255 220 0
0.574862 0.105208 0.035870 255 220 0
0.556897 0.158081 0.054091 255 220 0
0.590684 0.102297 0.061285 255 220 0
0.583053 0.061410 0.024758 255 220 0
0.577753 0.137466 0.062938 255 220 0
0.582584 0.097773 0.039291 255 220 0
0.548751 0.159165 0.052818 255 220 0
