ply
format ascii 1.0
element vertex 1024
property float x
property float y
property float z
property uchar red
property uchar green
property uchar blue
end_header
0.595623 0.076748 0.325521 255 220 0
0.532437 0.102536 0.324888 255 220 0
0.582881 0.064408 0.261077 255 220 0
0.549267 0.040004 0.295444 255 220 0
0.574158 0.098800 0.257573 255 220 0
0.526272 0.113878 0.283383 255 220 0
0.593036 0.067232 0.317638 255 220 0
0.634241 0.137730 0.332245 255 220 0
0.618505 0.081054 0.284395 255 220 0
0.542609 0.097997 0.256482 255 220 0
0.549572 0.040709 0.297839 255 220 0
0.526051 0.056339 0.251315 255 220 0
0.543184 0.112908 0.269436 255 220 0
0.590411 0.061610 0.312106 255 220 0
0.585448 0.054322 0.276119 255 220 0
0.552330 0.119677 0.329996 255 220 0
0.500030 0.070496 0.283682 255 220 0
0.620856 0.099385 0.325827 255 220 0
0.562059 0.116948 0.334461 255 220 0
0.574282 0.051865 0.309461 255 220 0
0.569838 0.046602 0.301012 255 220 0
0.593589 0.063094 0.310936 255 220 0
0.519299 0.096245 0.316145 255 220 0
0.503560 0.060642 0.267049 255 220 0
0.530028 0.116051 0.282861 255 220 0
0.526799 0.111729 0.278544 255 220 0
0.613011 0.154840 0.300016 255 220 0
0.571129 0.073732 0.252673 255 220 0
0.513786 0.069934 0.256285 255 220 0
0.609627 0.171546 0.318341 255 220 0
0.589204 0.070918 0.261676 255 220 0
0.643460 0.146222 0.315679 255 220 0
0.613681 0.103576 0.273093 255 220 0
0.613631 0.173512 0.318780 255 220 0
0.593750 0.094364 0.335701 255 220 0
0.538734 0.040028 0.265001 255 220 0
0.581925 0.132613 0.282116 255 220 0
0.562727 0.059633 0.322521 255 220 0
0.643889 0.144021 0.316843 255 220 0
0.617311 0.104150 0.275460 255 220 0
0.565904 0.141813 0.304739 255 220 0
0.641286 0.133034 0.305540 255 220 0
0.573798 0.073731 0.253510 255 220 0
0.563838 0.075253 0.250488 255 220 0
0.616457 0.150539 0.340083 255 220 0
0.575437 0.125654 0.275881 255 220 0
0.570743 0.050771 0.309647 255 220 0
0.578363 0.067362 0.256965 255 220 0
0.578110 0.076782 0.331358 255 220 0
0.502107 0.057557 0.272440 255 220 0
0.591430 0.093932 0.261185 255 220 0
0.638665 0.123958 0.321255 255 220 0
0.578977 0.062861 0.321541 255 220 0
0.586392 0.092626 0.336243 255 220 0
0.571844 0.056459 0.317274 255 220 0
0.550067 0.112462 0.331552 255 220 0
0.564969 0.053646 0.259909 255 220 0
0.522349 0.045085 0.298527 255 220 0
0.541760 0.125393 0.289364 255 220 0
0.513741 0.103792 0.285941 255 220 0
0.606643 0.106470 0.270048 255 220 0
0.522775 0.051330 0.305724 255 220 0
0.629601 0.142552 0.336483 255 220 0
0.573455 0.045943 0.289800 255 220 0
0.542295 0.051038 0.253058 255 220 0
0.641494 0.152159 0.314518 255 220 0
0.546085 0.064117 0.324356 255 220 0
0.591523 0.133804 0.282951 255 220 0
0.593323 0.057652 0.283523 255 220 0
0.606877 0.104172 0.269622 255 220 0
0.576563 0.054786 0.265548 255 220 0
0.595842 0.146188 0.294072 255 220 0
0.614058 0.114612 0.275947 255 220 0
0.631866 0.133727 0.294818 255 220 0
0.582512 0.055945 0.310315 255 220 0
0.622314 0.149797 0.297705 255 220 0
0.536152 0.049860 0.310193 255 220 0
0.589490 0.057148 0.304326 255 220 0
0.596801 0.091325 0.262939 255 220 0
0.584770 0.116608 0.339193 255 220 0
0.609609 0.140927 0.340875 255 220 0
0.552331 0.100128 0.333713 255 220 0
0.552427 0.083377 0.249271 255 220 0
0.608265 0.072150 0.305444 255 220 0
0.564259 0.140168 0.318269 255 220 0
0.575428 0.109449 0.262838 255 220 0
0.500131 0.067803 0.283652 255 220 0
0.640588 0.122659 0.304277 255 220 0
0.606454 0.081622 0.322846 255 220 0
0.616531 0.106158 0.332694 255 220 0
0.595968 0.071757 0.266296 255 220 0
0.570848 0.145054 0.312720 255 220 0
0.539438 0.040142 0.297182 255 220 0
0.589034 0.129667 0.279345 255 220 0
0.528866 0.046524 0.303802 255 220 0
0.515610 0.101153 0.276073 255 220 0
0.554680 0.080207 0.248946 255 220 0
0.549484 0.039258 0.274710 255 220 0
0.587977 0.137476 0.286430 255 220 0
0.578900 0.049032 0.281325 255 220 0
0.575248 0.049265 0.302886 255 220 0
0.506281 0.053478 0.291688 255 220 0
0.542716 0.073743 0.247114 255 220 0
0.543781 0.038338 0.290308 255 220 0
0.551054 0.070637 0.247751 255 220 0
0.571910 0.136820 0.289907 255 220 0
0.532206 0.059510 0.248977 255 220 0
0.594191 0.059983 0.278425 255 220 0
0.547912 0.095519 0.254016 255 220 0
0.590518 0.055026 0.289008 255 220 0
0.514076 0.095281 0.310573 255 220 0
0.557291 0.063475 0.250741 255 220 0
0.578498 0.077008 0.331409 255 220 0
0.548598 0.070198 0.327883 255 220 0
0.547739 0.100541 0.257596 255 220 0
0.576044 0.072777 0.329584 255 220 0
0.526162 0.066245 0.249415 255 220 0
0.567605 0.115337 0.336165 255 220 0
0.567958 0.099381 0.256725 255 220 0
0.546496 0.110608 0.330524 255 220 0
0.546922 0.129583 0.317670 255 220 0
0.525629 0.047295 0.303133 255 220 0
0.597705 0.137148 0.285902 255 220 0
0.611808 0.075540 0.305767 255 220 0
0.561806 0.124649 0.277147 255 220 0
0.538000 0.097870 0.257301 255 220 0
0.597534 0.074295 0.265866 255 220 0
0.594688 0.143803 0.291856 255 220 0
0.642342 0.151277 0.322130 255 220 0
0.590236 0.070663 0.323349 255 220 0
0.554104 0.041571 0.298435 255 220 0
0.579216 0.083720 0.334122 255 220 0
0.631294 0.129671 0.332625 255 220 0
0.505440 0.051819 0.287986 255 220 0
0.603147 0.075557 0.269398 255 220 0
0.514807 0.068135 0.310118 255 220 0
0.614513 0.167830 0.334685 255 220 0
0.595396 0.092920 0.334806 255 220 0
0.600593 0.081180 0.326292 255 220 0
0.502239 0.081566 0.293832 255 220 0
0.572580 0.047731 0.274574 255 220 0
0.516810 0.101583 0.274910 255 220 0
0.604751 0.108546 0.337747 255 220 0
0.601246 0.085286 0.264849 255 220 0
0.548468 0.131914 0.297956 255 220 0
0.528440 0.073813 0.321928 255 220 0
0.502211 0.064907 0.292581 255 220 0
0.525388 0.046232 0.257412 255 220 0
0.544300 0.057142 0.249865 255 220 0
0.584763 0.149723 0.303508 255 220 0
0.621960 0.099888 0.278793 255 220 0
0.614437 0.157013 0.338977 255 220 0
0.503467 0.085685 0.294478 255 220 0
0.542841 0.051386 0.313691 255 220 0
0.587022 0.113490 0.266801 255 220 0
0.518813 0.044254 0.294889 255 220 0
0.571969 0.047891 0.302594 255 220 0
0.570004 0.096395 0.336689 255 220 0
0.508949 0.079479 0.306730 255 220 0
0.590937 0.148318 0.333415 255 220 0
0.609765 0.156124 0.301136 255 220 0
0.587201 0.155403 0.316619 255 220 0
0.594470 0.057860 0.292230 255 220 0
0.567395 0.047263 0.270147 255 220 0
0.544780 0.046528 0.308876 255 220 0
0.605086 0.155923 0.301642 255 220 0
0.503204 0.061794 0.267517 255 220 0
0.636596 0.109732 0.302490 255 220 0
0.632913 0.110225 0.319374 255 220 0
0.544930 0.100662 0.258110 255 220 0
0.633067 0.122839 0.328325 255 220 0
0.593878 0.067206 0.316859 255 220 0
0.577540 0.079634 0.254363 255 220 0
0.549045 0.116435 0.271355 255 220 0
0.629011 0.172108 0.320113 255 220 0
0.550841 0.109902 0.264557 255 220 0
0.590879 0.122965 0.273922 255 220 0
0.529747 0.038285 0.268348 255 220 0
0.579529 0.137048 0.287495 255 220 0
0.572195 0.144759 0.305276 255 220 0
0.628787 0.166328 0.332550 255 220 0
0.563076 0.045361 0.270290 255 220 0
0.577490 0.148058 0.308259 255 220 0
0.582591 0.063147 0.320143 255 220 0
0.525055 0.099440 0.264342 255 220 0
0.541673 0.091651 0.252399 255 220 0
0.566389 0.043570 0.281359 255 220 0
0.544557 0.085604 0.330886 255 220 0
0.576278 0.137623 0.289308 255 220 0
0.530903 0.037235 0.271972 255 220 0
0.563623 0.062766 0.253162 255 220 0
0.524229 0.039250 0.288821 255 220 0
0.529494 0.098848 0.261146 255 220 0
0.553413 0.039709 0.289571 255 220 0
0.610453 0.074986 0.307643 255 220 0
0.609482 0.125110 0.340185 255 220 0
0.543709 0.058073 0.249351 255 220 0
0.552266 0.135368 0.310311 255 220 0
0.602991 0.144099 0.291560 255 220 0
0.608303 0.071287 0.280545 255 220 0
0.595559 0.071599 0.320732 255 220 0
0.578256 0.048097 0.286861 255 220 0
0.533504 0.111669 0.321921 255 220 0
0.593094 0.062785 0.310999 255 220 0
0.564395 0.083105 0.334007 255 220 0
0.570160 0.110902 0.263655 255 220 0
0.584502 0.122970 0.273483 255 220 0
0.552190 0.050540 0.256754 255 220 0
0.541955 0.044813 0.258733 255 220 0
0.510866 0.066422 0.305971 255 220 0
0.583815 0.145253 0.330692 255 220 0
0.595375 0.091324 0.262323 255 220 0
0.536660 0.043984 0.258575 255 220 0
0.555851 0.058226 0.321823 255 220 0
0.512364 0.051399 0.260307 255 220 0
0.571294 0.076316 0.252502 255 220 0
0.513586 0.098785 0.307882 255 220 0
0.534366 0.047644 0.307232 255 220 0
0.562235 0.041968 0.282866 255 220 0
0.564922 0.100798 0.336305 255 220 0
0.571968 0.143891 0.320502 255 220 0
0.625886 0.143951 0.338394 255 220 0
0.599292 0.100157 0.336450 255 220 0
0.560261 0.132857 0.289423 255 220 0
0.621911 0.083673 0.292657 255 220 0
0.514576 0.077834 0.257512 255 220 0
0.565899 0.072192 0.251298 255 220 0
0.622564 0.174604 0.323991 255 220 0
0.634447 0.129467 0.329688 255 220 0
0.605609 0.100872 0.335024 255 220 0
0.613320 0.112395 0.336467 255 220 0
0.590071 0.153118 0.328666 255 220 0
0.532570 0.107835 0.323139 255 220 0
0.632639 0.169009 0.318857 255 220 0
0.541618 0.119990 0.279551 255 220 0
0.516337 0.042608 0.266289 255 220 0
0.567853 0.095725 0.336408 255 220 0
0.606250 0.132044 0.282774 255 220 0
0.513485 0.104738 0.293457 255 220 0
0.609220 0.102160 0.334253 255 220 0
0.582422 0.081103 0.256079 255 220 0
0.591366 0.146773 0.295892 255 220 0
0.613787 0.128644 0.282211 255 220 0
0.546482 0.131789 0.311043 255 220 0
0.540645 0.126213 0.292828 255 220 0
0.539140 0.109014 0.266800 255 220 0
0.636014 0.112992 0.315794 255 220 0
0.547933 0.043011 0.263729 255 220 0
0.523189 0.104170 0.271105 255 220 0
0.587315 0.063963 0.264841 255 220 0
0.602352 0.132802 0.282864 255 220 0
0.586387 0.052439 0.291828 255 220 0
0.526582 0.041118 0.263232 255 220 0
0.626607 0.090481 0.292479 255 220 0
0.639316 0.155760 0.312937 255 220 0
0.556621 0.080182 0.332447 255 220 0
0.595876 0.153387 0.333399 255 220 0
0.597253 0.112968 0.268814 255 220 0
0.588693 0.056777 0.275832 255 220 0
0.617672 0.151416 0.339923 255 220 0
0.550337 0.049299 0.312974 255 220 0
0.610544 0.101359 0.270937 255 220 0
0.612224 0.073207 0.287720 255 220 0
0.577281 0.091696 0.256093 255 220 0
0.605349 0.156979 0.302537 255 220 0
0.578431 0.086798 0.335180 255 220 0
0.589953 0.071264 0.324055 255 220 0
0.625140 0.173420 0.317354 255 220 0
0.529718 0.092811 0.256204 255 220 0
0.559648 0.071854 0.249607 255 220 0
0.583830 0.086433 0.257072 255 220 0
0.537162 0.124851 0.294634 255 220 0
0.573274 0.086753 0.335303 255 220 0
0.576256 0.085533 0.254523 255 220 0
0.598586 0.112903 0.339486 255 220 0
0.552118 0.090365 0.333304 255 220 0
0.625825 0.089116 0.293353 255 220 0
0.534664 0.085688 0.327190 255 220 0
0.597557 0.149437 0.336401 255 220 0
0.564004 0.116742 0.268856 255 220 0
0.516773 0.068976 0.312061 255 220 0
0.611929 0.095095 0.271035 255 220 0
0.552372 0.118144 0.272271 255 220 0
0.533160 0.045641 0.304479 255 220 0
0.518587 0.040846 0.288466 255 220 0
0.623839 0.099187 0.322356 255 220 0
0.505821 0.088839 0.298745 255 220 0
0.618385 0.092741 0.322639 255 220 0
0.528222 0.107357 0.319716 255 220 0
0.570517 0.057172 0.259510 255 220 0
0.561852 0.055531 0.256845 255 220 0
0.519623 0.095152 0.264512 255 220 0
0.520518 0.067874 0.314554 255 220 0
0.587668 0.055134 0.278021 255 220 0
0.550409 0.062107 0.324026 255 220 0
0.545437 0.081719 0.248486 255 220 0
0.511072 0.100606 0.298668 255 220 0
0.511231 0.060758 0.303520 255 220 0
0.552037 0.049699 0.257470 255 220 0
0.632025 0.101833 0.307690 255 220 0
0.517693 0.100557 0.312648 255 220 0
0.544003 0.130584 0.308021 255 220 0
0.619465 0.150988 0.297912 255 220 0
0.526835 0.118086 0.303230 255 220 0
0.534748 0.120741 0.315069 255 220 0
0.564604 0.051382 0.262077 255 220 0
0.510541 0.043452 0.273576 255 220 0
0.633081 0.144196 0.334278 255 220 0
0.615573 0.084462 0.316262 255 220 0
0.596522 0.110011 0.267367 255 220 0
0.601033 0.123081 0.340461 255 220 0
0.611703 0.079609 0.314570 255 220 0
0.569412 0.129251 0.280590 255 220 0
0.570186 0.131893 0.331564 255 220 0
0.510396 0.071143 0.259381 255 220 0
0.568098 0.051869 0.263522 255 220 0
0.553315 0.095347 0.253683 255 220 0
0.535353 0.098710 0.327337 255 220 0
0.588170 0.091588 0.259515 255 220 0
0.568983 0.141030 0.298955 255 220 0
0.516336 0.081895 0.257829 255 220 0
0.537298 0.073872 0.326238 255 220 0
0.595493 0.064013 0.310157 255 220 0
0.528930 0.115520 0.283154 255 220 0
0.567305 0.094778 0.336250 255 220 0
0.606932 0.073859 0.311817 255 220 0
0.615164 0.076113 0.288952 255 220 0
0.552388 0.055564 0.252967 255 220 0
0.557800 0.061391 0.251728 255 220 0
0.591441 0.057470 0.279251 255 220 0
0.516470 0.039418 0.280404 255 220 0
0.530393 0.082688 0.324712 255 220 0
0.513376 0.041678 0.283974 255 220 0
0.569106 0.124531 0.275501 255 220 0
0.581973 0.151639 0.314870 255 220 0
0.636639 0.153734 0.331035 255 220 0
0.570126 0.089717 0.335823 255 220 0
0.573540 0.129420 0.279903 255 220 0
0.532497 0.122396 0.297106 255 220 0
0.550137 0.102129 0.333065 255 220 0
0.603420 0.161862 0.332968 255 220 0
0.587938 0.154651 0.310074 255 220 0
0.597970 0.073210 0.266884 255 220 0
0.544223 0.056166 0.250325 255 220 0
0.577361 0.067575 0.256429 255 220 0
0.616687 0.131651 0.284974 255 220 0
0.628096 0.118616 0.330897 255 220 0
0.511470 0.063833 0.305379 255 220 0
0.541208 0.075332 0.327979 255 220 0
0.616534 0.105092 0.275100 255 220 0
0.634172 0.135779 0.331858 255 220 0
0.563264 0.073913 0.330904 255 220 0
0.581285 0.115005 0.267034 255 220 0
0.630492 0.131840 0.333880 255 220 0
0.582119 0.083355 0.256095 255 220 0
0.573949 0.131079 0.281665 255 220 0
0.557530 0.136286 0.298638 255 220 0
0.541718 0.129195 0.306668 255 220 0
0.634606 0.107973 0.311473 255 220 0
0.633451 0.117590 0.324947 255 220 0
0.551065 0.119812 0.329312 255 220 0
0.624619 0.173986 0.318850 255 220 0
0.553127 0.073265 0.329841 255 220 0
0.571562 0.122716 0.273486 255 220 0
0.543688 0.122259 0.281866 255 220 0
0.615130 0.146146 0.340556 255 220 0
0.514492 0.050289 0.298626 255 220 0
0.531160 0.044239 0.301912 255 220 0
0.501207 0.074911 0.276475 255 220 0
0.568643 0.141026 0.299237 255 220 0
0.565193 0.142018 0.313218 255 220 0
0.529379 0.044386 0.258340 255 220 0
0.584098 0.058189 0.267819 255 220 0
0.614962 0.161831 0.337700 255 220 0
0.515766 0.076105 0.313160 255 220 0
0.523938 0.038180 0.284963 255 220 0
0.576586 0.079504 0.332767 255 220 0
0.549621 0.099855 0.332975 255 220 0
0.631793 0.119778 0.328144 255 220 0
0.631906 0.157513 0.334605 255 220 0
0.505366 0.049152 0.282726 255 220 0
0.627751 0.138673 0.293856 255 220 0
0.508766 0.081841 0.306436 255 220 0
0.566873 0.047168 0.305033 255 220 0
0.600204 0.160910 0.331023 255 220 0
0.541013 0.126325 0.292605 255 220 0
0.603415 0.137180 0.286295 255 220 0
0.637088 0.116594 0.317813 255 220 0
0.584514 0.056418 0.309196 255 220 0
0.506928 0.055320 0.263800 255 220 0
0.562151 0.083507 0.333901 255 220 0
0.625626 0.157217 0.302584 255 220 0
0.572188 0.049668 0.269752 255 220 0
0.542070 0.074577 0.328009 255 220 0
0.590948 0.104610 0.338542 255 220 0
0.610372 0.152255 0.298091 255 220 0
0.555054 0.132525 0.292277 255 220 0
0.589657 0.073944 0.326378 255 220 0
0.626098 0.146893 0.338377 255 220 0
0.555175 0.136730 0.312367 255 220 0
0.596633 0.160457 0.327312 255 220 0
0.576576 0.126783 0.336298 255 220 0
0.573029 0.122204 0.336331 255 220 0
0.561145 0.139096 0.316317 255 220 0
0.559322 0.041183 0.290133 255 220 0
0.546575 0.105676 0.261756 255 220 0
0.592235 0.077991 0.260946 255 220 0
0.590942 0.120658 0.339861 255 220 0
0.579088 0.105849 0.261432 255 220 0
0.518946 0.084464 0.316909 255 220 0
0.529620 0.063400 0.248697 255 220 0
0.557888 0.119113 0.271963 255 220 0
0.594654 0.062539 0.274477 255 220 0
0.608141 0.091059 0.268590 255 220 0
0.514442 0.105449 0.300033 255 220 0
0.587691 0.072742 0.259888 255 220 0
0.641046 0.139379 0.306853 255 220 0
0.599757 0.155620 0.334532 255 220 0
0.556140 0.067704 0.249255 255 220 0
0.590355 0.062291 0.313252 255 220 0
0.581722 0.064613 0.322077 255 220 0
0.525592 0.052887 0.308708 255 220 0
0.594996 0.087827 0.261782 255 220 0
0.556245 0.137530 0.310613 255 220 0
0.556304 0.094293 0.334464 255 220 0
0.625404 0.168169 0.309790 255 220 0
0.623767 0.134864 0.289787 255 220 0
0.532788 0.039251 0.265743 255 220 0
0.547267 0.119050 0.275184 255 220 0
0.514948 0.051309 0.300011 255 220 0
0.590922 0.153325 0.304587 255 220 0
0.576520 0.137271 0.288726 255 220 0
0.638820 0.137467 0.326944 255 220 0
0.600300 0.064349 0.280114 255 220 0
0.525141 0.088428 0.255534 255 220 0
0.573611 0.146542 0.312672 255 220 0
0.624778 0.129861 0.336782 255 220 0
0.582606 0.050240 0.288599 255 220 0
0.541173 0.040052 0.265884 255 220 0
0.566391 0.055789 0.318130 255 220 0
0.558722 0.055894 0.255238 255 220 0
0.605694 0.096222 0.333012 255 220 0
0.511866 0.041909 0.280192 255 220 0
0.591246 0.145787 0.335013 255 220 0
0.597749 0.098005 0.264445 255 220 0
0.583182 0.068203 0.324667 255 220 0
0.539968 0.119653 0.280156 255 220 0
0.529174 0.115968 0.313537 255 220 0
0.615477 0.089119 0.274094 255 220 0
0.509641 0.070945 0.260067 255 220 0
0.589499 0.097719 0.261338 255 220 0
0.520134 0.111941 0.301149 255 220 0
0.500210 0.066016 0.281913 255 220 0
0.608973 0.086678 0.325528 255 220 0
0.592660 0.095187 0.261898 255 220 0
0.541226 0.112213 0.269427 255 220 0
0.524029 0.042107 0.294959 255 220 0
0.625016 0.087931 0.292773 255 220 0
0.605539 0.072844 0.274021 255 220 0
0.609431 0.163469 0.307237 255 220 0
0.606268 0.162701 0.334299 255 220 0
0.562829 0.044127 0.300216 255 220 0
0.574930 0.128716 0.278940 255 220 0
0.586110 0.120702 0.271717 255 220 0
0.592987 0.059715 0.276869 255 220 0
0.556284 0.102280 0.334642 255 220 0
0.563734 0.053124 0.259800 255 220 0
0.547518 0.076227 0.247597 255 220 0
0.509971 0.098192 0.283110 255 220 0
0.607282 0.068436 0.289486 255 220 0
0.638898 0.145515 0.328217 255 220 0
0.588424 0.154930 0.323520 255 220 0
0.540214 0.070464 0.326013 255 220 0
0.602718 0.073101 0.316113 255 220 0
0.502017 0.062465 0.290093 255 220 0
0.580853 0.049550 0.293308 255 220 0
0.540587 0.115457 0.325289 255 220 0
0.540487 0.058529 0.319150 255 220 0
0.562965 0.127012 0.279685 255 220 0
0.592891 0.150868 0.333028 255 220 0
0.641959 0.130374 0.318878 255 220 0
0.510830 0.089006 0.268429 255 220 0
0.555767 0.064641 0.249883 255 220 0
0.520199 0.105808 0.276699 255 220 0
0.546808 0.121546 0.325852 255 220 0
0.528491 0.092102 0.323933 255 220 0
0.526440 0.099922 0.321295 255 220 0
0.574759 0.099253 0.257864 255 220 0
0.622848 0.099395 0.279653 255 220 0
0.643670 0.132475 0.312593 255 220 0
0.616955 0.131079 0.284740 255 220 0
0.539671 0.047429 0.255477 255 220 0
0.640647 0.153205 0.325411 255 220 0
0.579852 0.050153 0.278552 255 220 0
0.594969 0.060727 0.303825 255 220 0
0.557961 0.044496 0.304365 255 220 0
0.553215 0.066680 0.327007 255 220 0
0.552577 0.113709 0.267656 255 220 0
0.601862 0.091523 0.332213 255 220 0
0.533659 0.052289 0.251656 255 220 0
0.550497 0.110719 0.265323 255 220 0
0.580210 0.050596 0.300245 255 220 0
0.622669 0.136000 0.338822 255 220 0
0.517685 0.038983 0.275410 255 220 0
0.599300 0.137994 0.339916 255 220 0
0.610176 0.072788 0.301946 255 220 0
0.539212 0.114986 0.273758 255 220 0
0.556615 0.042142 0.272189 255 220 0
0.587271 0.056946 0.273378 255 220 0
0.603783 0.132590 0.282866 255 220 0
0.541640 0.102885 0.329874 255 220 0
0.582981 0.149649 0.304991 255 220 0
0.630052 0.166096 0.331629 255 220 0
0.619246 0.161244 0.304236 255 220 0
0.502242 0.070395 0.270668 255 220 0
0.550047 0.047199 0.310378 255 220 0
0.563266 0.051780 0.260916 255 220 0
0.550447 0.039472 0.292011 255 220 0
0.610138 0.133539 0.340883 255 220 0
0.570477 0.105598 0.337235 255 220 0
0.508118 0.047171 0.286763 255 220 0
0.553758 0.074421 0.248237 255 220 0
0.632713 0.155423 0.334438 255 220 0
0.622768 0.168276 0.309157 255 220 0
0.596776 0.132603 0.282217 255 220 0
0.576013 0.064270 0.323826 255 220 0
0.624276 0.134009 0.289649 255 220 0
0.533634 0.041007 0.262460 255 220 0
0.540573 0.068261 0.325134 255 220 0
0.521439 0.079756 0.253354 255 220 0
0.525518 0.087066 0.254530 255 220 0
0.590378 0.060468 0.310129 255 220 0
0.510368 0.076706 0.308116 255 220 0
0.522882 0.063545 0.314350 255 220 0
0.608977 0.074130 0.308771 255 220 0
0.547823 0.074175 0.329239 255 220 0
0.551446 0.054374 0.318301 255 220 0
0.615499 0.109408 0.275344 255 220 0
0.585984 0.055536 0.305578 255 220 0
0.503372 0.070171 0.268039 255 220 0
0.591768 0.088131 0.333708 255 220 0
0.642873 0.138797 0.310114 255 220 0
0.531050 0.102392 0.263658 255 220 0
0.543501 0.130114 0.309353 255 220 0
0.592495 0.132300 0.281720 255 220 0
0.638176 0.142242 0.304028 255 220 0
0.508177 0.096188 0.284769 255 220 0
0.564607 0.067947 0.251715 255 220 0
0.580754 0.056839 0.266401 255 220 0
0.616976 0.115298 0.277807 255 220 0
0.527659 0.117180 0.289440 255 220 0
0.551622 0.102344 0.333483 255 220 0
0.631530 0.098922 0.297373 255 220 0
0.631385 0.100248 0.306332 255 220 0
0.508127 0.069557 0.261335 255 220 0
0.534227 0.036731 0.281564 255 220 0
0.538438 0.042513 0.301819 255 220 0
0.500192 0.071878 0.287399 255 220 0
0.582687 0.132034 0.336808 255 220 0
0.532266 0.121957 0.307506 255 220 0
0.623710 0.137990 0.338707 255 220 0
0.642633 0.134160 0.319324 255 220 0
0.634206 0.167580 0.320506 255 220 0
0.528269 0.103440 0.321568 255 220 0
0.610566 0.155532 0.338750 255 220 0
0.637943 0.118957 0.318424 255 220 0
0.615648 0.084487 0.316184 255 220 0
0.568924 0.073966 0.251980 255 220 0
0.550261 0.120021 0.328794 255 220 0
0.555203 0.059439 0.251750 255 220 0
0.505023 0.076579 0.267942 255 220 0
0.522130 0.037648 0.280033 255 220 0
0.640893 0.128708 0.304265 255 220 0
0.570103 0.081457 0.333775 255 220 0
0.604254 0.166261 0.313577 255 220 0
0.517231 0.097727 0.313487 255 220 0
0.634211 0.163165 0.329267 255 220 0
0.573850 0.143284 0.299806 255 220 0
0.559179 0.074561 0.330960 255 220 0
0.530476 0.076111 0.323660 255 220 0
0.613239 0.143344 0.291903 255 220 0
0.591024 0.066558 0.266015 255 220 0
0.514052 0.045479 0.292474 255 220 0
0.515392 0.102966 0.279479 255 220 0
0.582241 0.088542 0.256882 255 220 0
0.522135 0.074854 0.251647 255 220 0
0.504337 0.084546 0.275710 255 220 0
0.609659 0.124776 0.278641 255 220 0
0.505603 0.088316 0.298602 255 220 0
0.560047 0.093149 0.335073 255 220 0
0.608378 0.069853 0.285391 255 220 0
0.502614 0.056473 0.271561 255 220 0
0.519792 0.110205 0.305623 255 220 0
0.508446 0.079869 0.306111 255 220 0
0.624298 0.122950 0.335058 255 220 0
0.538128 0.104395 0.262675 255 220 0
0.541754 0.124130 0.286749 255 220 0
0.566976 0.082843 0.334101 255 220 0
0.548583 0.052906 0.316487 255 220 0
0.589143 0.108812 0.264882 255 220 0
0.596045 0.084962 0.262174 255 220 0
0.637086 0.144750 0.330416 255 220 0
0.510222 0.048380 0.292001 255 220 0
0.531761 0.076832 0.324509 255 220 0
0.549437 0.058433 0.321323 255 220 0
0.503147 0.085380 0.280973 255 220 0
0.575116 0.061870 0.321972 255 220 0
0.584094 0.116273 0.268197 255 220 0
0.614776 0.135657 0.286895 255 220 0
0.563440 0.094678 0.254188 255 220 0
0.559811 0.059727 0.253279 255 220 0
0.504353 0.056217 0.290599 255 220 0
0.561919 0.054850 0.257420 255 220 0
0.618005 0.079916 0.299161 255 220 0
0.560312 0.062819 0.325063 255 220 0
0.555133 0.136028 0.301251 255 220 0
0.559583 0.136674 0.297392 255 220 0
0.580277 0.067775 0.325357 255 220 0
0.607579 0.098436 0.268907 255 220 0
0.527553 0.081775 0.322917 255 220 0
0.608725 0.138558 0.340925 255 220 0
0.512740 0.068112 0.256924 255 220 0
0.510725 0.051694 0.261568 255 220 0
0.585288 0.104932 0.338578 255 220 0
0.627380 0.172223 0.316723 255 220 0
0.626473 0.099683 0.318865 255 220 0
0.541805 0.072079 0.327094 255 220 0
0.523817 0.111832 0.282737 255 220 0
0.537421 0.122880 0.288683 255 220 0
0.550707 0.097476 0.255030 255 220 0
0.561250 0.041652 0.282932 255 220 0
0.603847 0.118255 0.273253 255 220 0
0.538064 0.038090 0.269856 255 220 0
0.529267 0.119738 0.295074 255 220 0
0.611963 0.161338 0.304861 255 220 0
0.625353 0.171407 0.313374 255 220 0
0.580064 0.114516 0.338561 255 220 0
0.534783 0.039836 0.295210 255 220 0
0.547005 0.041672 0.301044 255 220 0
0.530612 0.053311 0.251508 255 220 0
0.595295 0.062206 0.306850 255 220 0
0.501206 0.081112 0.287399 255 220 0
0.564361 0.079836 0.333097 255 220 0
0.629844 0.100271 0.288852 255 220 0
0.587380 0.060711 0.313693 255 220 0
0.528600 0.079023 0.323151 255 220 0
0.633470 0.115349 0.292156 255 220 0
0.588095 0.096206 0.260494 255 220 0
0.602149 0.149854 0.338028 255 220 0
0.631145 0.124499 0.330906 255 220 0
0.523448 0.044311 0.298139 255 220 0
0.582179 0.151746 0.313725 255 220 0
0.643113 0.144149 0.312984 255 220 0
0.580748 0.049596 0.283903 255 220 0
0.593318 0.078432 0.327948 255 220 0
0.609531 0.171397 0.318040 255 220 0
0.511639 0.102265 0.292398 255 220 0
0.622498 0.084681 0.296564 255 220 0
0.585433 0.138095 0.335760 255 220 0
0.601824 0.147783 0.294742 255 220 0
0.581520 0.088772 0.256690 255 220 0
0.563560 0.097490 0.335949 255 220 0
0.514829 0.102869 0.280444 255 220 0
0.529430 0.038691 0.267296 255 220 0
0.632736 0.150975 0.334789 255 220 0
0.521393 0.086047 0.318952 255 220 0
0.594135 0.138972 0.287394 255 220 0
0.585937 0.141412 0.291142 255 220 0
0.586989 0.147741 0.298992 255 220 0
0.630803 0.099882 0.291396 255 220 0
0.596742 0.138445 0.286910 255 220 0
0.561952 0.140401 0.307291 255 220 0
0.578846 0.101731 0.259662 255 220 0
0.540372 0.081293 0.248491 255 220 0
0.503803 0.088705 0.289538 255 220 0
0.642385 0.132623 0.307655 255 220 0
0.601647 0.166755 0.321495 255 220 0
0.547880 0.083667 0.249036 255 220 0
0.600049 0.079446 0.325194 255 220 0
0.553243 0.051230 0.315266 255 220 0
0.572751 0.144642 0.319940 255 220 0
0.555334 0.095993 0.334349 255 220 0
0.543867 0.040947 0.265274 255 220 0
0.593668 0.103136 0.338096 255 220 0
0.588574 0.060109 0.270184 255 220 0
0.599341 0.162361 0.328389 255 220 0
0.536299 0.062943 0.247726 255 220 0
0.568589 0.141717 0.300906 255 220 0
0.586342 0.052662 0.294498 255 220 0
0.510006 0.043448 0.275785 255 220 0
0.628636 0.122735 0.288487 255 220 0
0.614838 0.174117 0.319659 255 220 0
0.575945 0.140778 0.294113 255 220 0
0.580337 0.049181 0.292075 255 220 0
0.526994 0.105789 0.319440 255 220 0
0.627251 0.167630 0.310123 255 220 0
0.576011 0.060719 0.259555 255 220 0
0.564585 0.133531 0.327285 255 220 0
0.615132 0.082686 0.276543 255 220 0
0.583833 0.116876 0.268609 255 220 0
0.571224 0.131880 0.283304 255 220 0
0.621198 0.083879 0.286484 255 220 0
0.604480 0.080985 0.267669 255 220 0
0.560859 0.122087 0.332456 255 220 0
0.562598 0.131898 0.286635 255 220 0
0.597145 0.159702 0.329011 255 220 0
0.527954 0.070768 0.320703 255 220 0
0.615363 0.173535 0.317055 255 220 0
0.542054 0.059256 0.248693 255 220 0
0.532102 0.038121 0.289005 255 220 0
0.570636 0.072594 0.330105 255 220 0
0.532314 0.107627 0.268567 255 220 0
0.568751 0.141820 0.320511 255 220 0
0.636135 0.108605 0.302667 255 220 0
0.551441 0.134179 0.300962 255 220 0
0.547724 0.053120 0.316524 255 220 0
0.538281 0.047264 0.308137 255 220 0
0.563232 0.070700 0.329455 255 220 0
0.569969 0.048362 0.270260 255 220 0
0.573714 0.141539 0.326037 255 220 0
0.547286 0.122224 0.325709 255 220 0
0.547138 0.121070 0.277975 255 220 0
0.541939 0.063855 0.247435 255 220 0
0.538483 0.043804 0.303839 255 220 0
0.603817 0.069262 0.276555 255 220 0
0.501539 0.066986 0.271753 255 220 0
0.529786 0.057272 0.314358 255 220 0
0.609119 0.169669 0.330003 255 220 0
0.617019 0.164055 0.337097 255 220 0
0.542538 0.037453 0.284524 255 220 0
0.601312 0.164524 0.327999 255 220 0
0.549329 0.039913 0.295029 255 220 0
0.527776 0.117441 0.290030 255 220 0
0.569726 0.108777 0.262093 255 220 0
0.558674 0.063957 0.325828 255 220 0
0.557618 0.113249 0.333990 255 220 0
0.546760 0.038005 0.280175 255 220 0
0.542395 0.044143 0.305227 255 220 0
0.548404 0.071657 0.328443 255 220 0
0.556324 0.040228 0.287492 255 220 0
0.636969 0.115857 0.297755 255 220 0
0.608062 0.144183 0.291885 255 220 0
0.618134 0.079205 0.292223 255 220 0
0.566116 0.135741 0.290988 255 220 0
0.612728 0.162641 0.336976 255 220 0
0.525961 0.109651 0.276068 255 220 0
0.527385 0.118425 0.295803 255 220 0
0.617694 0.111523 0.334325 255 220 0
0.630351 0.142201 0.297072 255 220 0
0.579791 0.071100 0.256290 255 220 0
0.623479 0.101190 0.324588 255 220 0
0.595226 0.131832 0.339912 255 220 0
0.542651 0.107257 0.329567 255 220 0
0.576519 0.131758 0.334586 255 220 0
0.553938 0.117708 0.331501 255 220 0
0.629159 0.129532 0.291095 255 220 0
0.613014 0.096188 0.329498 255 220 0
0.561441 0.092172 0.335198 255 220 0
0.595437 0.060066 0.300810 255 220 0
0.562320 0.140562 0.312587 255 220 0
0.562846 0.096135 0.254687 255 220 0
0.503271 0.074386 0.270113 255 220 0
0.504472 0.090237 0.289223 255 220 0
0.561940 0.070937 0.250332 255 220 0
0.635249 0.114796 0.294783 255 220 0
0.586194 0.053563 0.299468 255 220 0
0.626584 0.101050 0.320298 255 220 0
0.628971 0.098329 0.310799 255 220 0
0.532660 0.062245 0.319059 255 220 0
0.594412 0.100912 0.263845 255 220 0
0.504256 0.061427 0.294858 255 220 0
0.515466 0.052848 0.301827 255 220 0
0.635719 0.130075 0.297311 255 220 0
0.591611 0.158710 0.319633 255 220 0
0.547985 0.129548 0.318987 255 220 0
0.629281 0.104474 0.286718 255 220 0
0.619564 0.083226 0.283139 255 220 0
0.516649 0.107578 0.288444 255 220 0
0.543041 0.109571 0.266021 255 220 0
0.576708 0.084784 0.334664 255 220 0
0.574367 0.132738 0.283518 255 220 0
0.505403 0.048915 0.282125 255 220 0
0.622930 0.084992 0.292779 255 220 0
0.600015 0.121043 0.340317 255 220 0
0.605214 0.090821 0.266929 255 220 0
0.547132 0.062681 0.323749 255 220 0
0.590470 0.145993 0.334493 255 220 0
0.633197 0.104274 0.308668 255 220 0
0.579831 0.108981 0.263118 255 220 0
0.504427 0.088970 0.282615 255 220 0
0.511705 0.090631 0.268791 255 220 0
0.579268 0.136245 0.333779 255 220 0
0.598133 0.078449 0.264365 255 220 0
0.502270 0.056708 0.284213 255 220 0
0.606528 0.068286 0.296837 255 220 0
0.595317 0.100063 0.337154 255 220 0
0.623222 0.122765 0.284341 255 220 0
0.628736 0.134296 0.335664 255 220 0
0.643003 0.128710 0.310563 255 220 0
0.583835 0.059808 0.265720 255 220 0
0.637819 0.112570 0.306597 255 220 0
0.615200 0.101263 0.273676 255 220 0
0.594465 0.149339 0.334897 255 220 0
0.580029 0.149123 0.307376 255 220 0
0.563393 0.139886 0.317703 255 220 0
0.643648 0.133680 0.315754 255 220 0
0.561672 0.136771 0.321630 255 220 0
0.536698 0.069711 0.247141 255 220 0
0.603154 0.165826 0.328613 255 220 0
0.576069 0.086072 0.254558 255 220 0
0.642114 0.148989 0.313477 255 220 0
0.527343 0.069826 0.320002 255 220 0
0.626900 0.105593 0.283763 255 220 0
0.503529 0.064064 0.266752 255 220 0
0.620656 0.086510 0.309811 255 220 0
0.577338 0.079574 0.254298 255 220 0
0.549032 0.055046 0.318522 255 220 0
0.578623 0.049651 0.299522 255 220 0
0.522180 0.111840 0.307854 255 220 0
0.638076 0.121948 0.320835 255 220 0
0.507214 0.053323 0.264552 255 220 0
0.618859 0.130593 0.339220 255 220 0
0.583492 0.152413 0.312183 255 220 0
0.584444 0.051723 0.295500 255 220 0
0.538988 0.117685 0.277722 255 220 0
0.537444 0.086902 0.328510 255 220 0
0.550577 0.092920 0.333115 255 220 0
0.504968 0.069833 0.300239 255 220 0
0.619793 0.112397 0.278823 255 220 0
0.501735 0.082815 0.284461 255 220 0
0.627759 0.168146 0.331823 255 220 0
0.544893 0.046761 0.257494 255 220 0
0.554041 0.068125 0.327808 255 220 0
0.556855 0.055119 0.319093 255 220 0
0.527849 0.052190 0.309184 255 220 0
0.524239 0.110315 0.313167 255 220 0
0.501019 0.060094 0.276743 255 220 0
0.612729 0.102863 0.333063 255 220 0
0.629265 0.156973 0.336284 255 220 0
0.580143 0.074941 0.255598 255 220 0
0.565077 0.058123 0.256328 255 220 0
0.596530 0.102402 0.337596 255 220 0
0.511467 0.079208 0.260975 255 220 0
0.506060 0.071742 0.264319 255 220 0
0.627497 0.149725 0.337767 255 220 0
0.623329 0.096361 0.280515 255 220 0
0.518757 0.096792 0.266895 255 220 0
0.602039 0.156936 0.303433 255 220 0
0.532342 0.110500 0.321602 255 220 0
0.577637 0.099334 0.337585 255 220 0
0.559280 0.053851 0.317518 255 220 0
0.549159 0.059351 0.321945 255 220 0
0.616122 0.077338 0.295786 255 220 0
0.636735 0.118902 0.296945 255 220 0
0.585617 0.069193 0.260119 255 220 0
0.562855 0.071388 0.250528 255 220 0
0.517817 0.099590 0.270971 255 220 0
0.516995 0.051081 0.301478 255 220 0
0.601469 0.099907 0.266336 255 220 0
0.510724 0.087759 0.267442 255 220 0
0.632926 0.143622 0.299519 255 220 0
0.553250 0.039449 0.286917 255 220 0
0.609750 0.116134 0.274447 255 220 0
0.621397 0.163130 0.305456 255 220 0
0.631380 0.157838 0.305115 255 220 0
0.536114 0.124102 0.311154 255 220 0
0.592454 0.056388 0.291748 255 220 0
0.546151 0.040818 0.266880 255 220 0
0.570197 0.069602 0.328525 255 220 0
0.631750 0.152964 0.335369 255 220 0
0.537013 0.040541 0.297634 255 220 0
0.531108 0.092024 0.325519 255 220 0
0.583461 0.095702 0.258901 255 220 0
0.630122 0.150604 0.336458 255 220 0
0.586682 0.055383 0.304216 255 220 0
0.505948 0.054554 0.292156 255 220 0
0.543473 0.039488 0.268468 255 220 0
0.574353 0.099320 0.257806 255 220 0
0.631902 0.102491 0.292187 255 220 0
0.506792 0.048995 0.270198 255 220 0
0.524230 0.103238 0.269067 255 220 0
0.612018 0.169951 0.331797 255 220 0
0.518492 0.042288 0.291385 255 220 0
0.583149 0.082391 0.256398 255 220 0
0.638600 0.149366 0.307638 255 220 0
0.639953 0.133131 0.303418 255 220 0
0.527524 0.047665 0.304481 255 220 0
0.623183 0.137487 0.290851 255 220 0
0.521048 0.051927 0.254963 255 220 0
0.582482 0.052198 0.301777 255 220 0
0.620230 0.117071 0.335155 255 220 0
0.592397 0.089828 0.260875 255 220 0
0.553733 0.083611 0.249474 255 220 0
0.599476 0.073721 0.319967 255 220 0
0.562547 0.100528 0.335897 255 220 0
0.634310 0.104619 0.302368 255 220 0
0.564306 0.042494 0.286852 255 220 0
0.633957 0.159656 0.308270 255 220 0
0.551882 0.097153 0.333597 255 220 0
0.512689 0.094658 0.308834 255 220 0
0.591748 0.096453 0.336683 255 220 0
0.629304 0.123078 0.331862 255 220 0
0.570718 0.048494 0.305218 255 220 0
0.542432 0.081299 0.248398 255 220 0
0.571822 0.123541 0.274219 255 220 0
0.629425 0.158251 0.304352 255 220 0
0.625398 0.123929 0.334766 255 220 0
0.546266 0.052194 0.253207 255 220 0
0.618563 0.115764 0.278926 255 220 0
0.612987 0.085751 0.321196 255 220 0
0.597883 0.153612 0.334551 255 220 0
0.585489 0.152297 0.323811 255 220 0
0.537996 0.126678 0.305964 255 220 0
0.626795 0.102678 0.283681 255 220 0
0.529961 0.094449 0.324700 255 220 0
0.564055 0.140694 0.316475 255 220 0
0.642524 0.132359 0.318708 255 220 0
0.632893 0.155638 0.304891 255 220 0
0.532884 0.036876 0.282997 255 220 0
0.625774 0.151632 0.299605 255 220 0
0.553404 0.066314 0.326838 255 220 0
0.503586 0.054703 0.286655 255 220 0
0.536137 0.107838 0.325696 255 220 0
0.586262 0.154082 0.320806 255 220 0
0.603901 0.156810 0.336160 255 220 0
0.611866 0.173219 0.320767 255 220 0
0.521830 0.037997 0.282151 255 220 0
0.622353 0.086454 0.304666 255 220 0
0.571753 0.087783 0.253754 255 220 0
0.515792 0.042102 0.267761 255 220 0
0.571469 0.114864 0.266792 255 220 0
0.556895 0.040312 0.284350 255 220 0
0.614248 0.098934 0.330352 255 220 0
0.606295 0.087967 0.328136 255 220 0
0.631299 0.142670 0.297910 255 220 0
0.599329 0.068569 0.272190 255 220 0
0.515330 0.063152 0.255005 255 220 0
0.626614 0.118014 0.331742 255 220 0
0.561388 0.117512 0.334122 255 220 0
0.556224 0.076940 0.331486 255 220 0
0.559348 0.117231 0.269831 255 220 0
0.546489 0.101840 0.331906 255 220 0
0.516680 0.092808 0.314336 255 220 0
0.562630 0.140756 0.307507 255 220 0
0.556110 0.078122 0.331825 255 220 0
0.525277 0.072011 0.319378 255 220 0
0.567051 0.084418 0.251984 255 220 0
0.562034 0.138501 0.299486 255 220 0
0.523197 0.067360 0.316288 255 220 0
0.541633 0.040401 0.298088 255 220 0
0.605540 0.090603 0.330166 255 220 0
0.544426 0.051520 0.314231 255 220 0
0.535344 0.071961 0.324874 255 220 0
0.552882 0.064756 0.249031 255 220 0
0.525039 0.099861 0.264774 255 220 0
0.530593 0.073057 0.248340 255 220 0
0.588500 0.070338 0.324026 255 220 0
0.625321 0.168002 0.309614 255 220 0
0.511369 0.080164 0.261542 255 220 0
0.640489 0.119561 0.310302 255 220 0
0.585158 0.147848 0.329467 255 220 0
0.581024 0.082659 0.255659 255 220 0
0.594549 0.057996 0.293381 255 220 0
0.567087 0.047713 0.306045 255 220 0
0.555205 0.046411 0.308789 255 220 0
0.572331 0.050699 0.268074 255 220 0
0.541395 0.122352 0.283698 255 220 0
0.635040 0.136872 0.298777 255 220 0
0.556072 0.134958 0.296737 255 220 0
0.545390 0.038276 0.274606 255 220 0
0.556908 0.102075 0.257721 255 220 0
0.594755 0.058232 0.294249 255 220 0
0.542749 0.040649 0.298767 255 220 0
0.583529 0.051253 0.282971 255 220 0
0.611029 0.090749 0.270434 255 220 0
0.542688 0.093702 0.253470 255 220 0
0.593026 0.120330 0.340024 255 220 0
0.567269 0.054430 0.316299 255 220 0
0.577213 0.100529 0.337682 255 220 0
0.502493 0.059218 0.269897 255 220 0
0.520226 0.108541 0.281744 255 220 0
0.556101 0.136944 0.313933 255 220 0
0.553177 0.065018 0.326121 255 220 0
0.528204 0.075643 0.322248 255 220 0
0.612419 0.079597 0.313389 255 220 0
0.547766 0.056983 0.250714 255 220 0
0.567439 0.069772 0.328838 255 220 0
0.570031 0.074396 0.331026 255 220 0
0.553998 0.055321 0.253716 255 220 0
0.604263 0.112318 0.338741 255 220 0
0.565097 0.052846 0.260762 255 220 0
0.641379 0.122590 0.307558 255 220 0
0.506880 0.089130 0.275209 255 220 0
0.611000 0.072478 0.297131 255 220 0
0.589715 0.055096 0.296722 255 220 0
0.511930 0.056321 0.301351 255 220 0
0.625787 0.168902 0.310627 255 220 0
0.588025 0.127232 0.339110 255 220 0
0.544781 0.080120 0.330098 255 220 0
0.502281 0.081311 0.294182 255 220 0
0.566332 0.043941 0.295225 255 220 0
0.617514 0.085027 0.313844 255 220 0
0.502646 0.054292 0.274985 255 220 0
0.578117 0.149088 0.312373 255 220 0
0.582179 0.086637 0.256530 255 220 0
0.511834 0.101230 0.300560 255 220 0
0.502753 0.060813 0.290918 255 220 0
0.622459 0.166812 0.307979 255 220 0
0.621958 0.085531 0.285414 255 220 0
0.513453 0.071473 0.310036 255 220 0
0.525089 0.100215 0.265095 255 220 0
0.525290 0.081484 0.252008 255 220 0
0.596243 0.139129 0.287476 255 220 0
0.622824 0.104702 0.279748 255 220 0
0.594813 0.115055 0.269207 255 220 0
0.581784 0.097865 0.259047 255 220 0
0.623275 0.170128 0.310969 255 220 0
0.594870 0.123634 0.274866 255 220 0
0.615789 0.167088 0.308398 255 220 0
0.620749 0.108792 0.278698 255 220 0
0.575884 0.087021 0.254671 255 220 0
0.627098 0.141938 0.295064 255 220 0
0.599230 0.114444 0.270053 255 220 0
0.610133 0.169721 0.313896 255 220 0
