ply
format ascii 1.0
element vertex 1024
property float x
property float y
property float z
property uchar red
property uchar green
property uchar blue
end_header
0.571694 0.080755 0.327182 255 220 0
0.505924 0.098495 0.322991 255 220 0
0.563800 0.065947 0.262483 255 220 0
0.531774 0.038089 0.295723 255 220 0
0.551094 0.098934 0.257835 255 220 0
0.500489 0.108348 0.281007 255 220 0
0.570695 0.070872 0.319390 255 220 0
0.602125 0.146151 0.334435 255 220 0
0.595895 0.087237 0.287111 255 220 0
0.519979 0.094208 0.255259 255 220 0
0.531870 0.038864 0.298115 255 220 0
0.508955 0.050743 0.250200 255 220 0
0.518067 0.109270 0.267905 255 220 0
0.569061 0.064884 0.313861 255 220 0
0.566835 0.056488 0.277842 255 220 0
0.523276 0.118047 0.328674 255 220 0
0.479806 0.062056 0.280982 255 220 0
0.593901 0.106348 0.328207 255 220 0
0.533032 0.116613 0.333654 255 220 0
0.554407 0.053175 0.310659 255 220 0
0.551072 0.047272 0.302122 255 220 0
0.572087 0.066733 0.312812 255 220 0
0.494114 0.090490 0.313769 255 220 0
0.485347 0.052463 0.264749 255 220 0
0.503969 0.110962 0.280618 255 220 0
0.501517 0.106208 0.276246 255 220 0
0.580585 0.160001 0.300874 255 220 0
0.551424 0.073612 0.253332 255 220 0
0.494876 0.062787 0.254288 255 220 0
0.574260 0.176437 0.318657 255 220 0
0.569235 0.073199 0.263243 255 220 0
0.611044 0.155467 0.318150 255 220 0
0.588904 0.108811 0.275113 255 220 0
0.577964 0.178890 0.319244 255 220 0
0.567161 0.098156 0.336883 255 220 0
0.522850 0.036342 0.264819 255 220 0
0.553405 0.133820 0.281992 255 220 0
0.541347 0.059648 0.322985 255 220 0
0.611682 0.153354 0.319379 255 220 0
0.592313 0.109867 0.277638 255 220 0
0.535264 0.141307 0.303625 255 220 0
0.611019 0.141958 0.308203 255 220 0
0.554027 0.073955 0.254295 255 220 0
0.544119 0.074182 0.250770 255 220 0
0.582531 0.156774 0.341142 255 220 0
0.548142 0.126015 0.275606 255 220 0
0.551025 0.051653 0.310700 255 220 0
0.559164 0.068254 0.258098 255 220 0
0.554041 0.078706 0.332177 255 220 0
0.484018 0.049304 0.270130 255 220 0
0.568633 0.096301 0.262368 255 220 0
0.608754 0.132868 0.323965 255 220 0
0.557104 0.064852 0.322712 255 220 0
0.560054 0.095527 0.337111 255 220 0
0.551035 0.057550 0.318247 255 220 0
0.521843 0.110631 0.330274 255 220 0
0.547430 0.053029 0.260693 255 220 0
0.504315 0.039840 0.297412 255 220 0
0.514123 0.121786 0.287472 255 220 0
0.489183 0.096826 0.283180 255 220 0
0.581724 0.110763 0.271675 255 220 0
0.503609 0.046199 0.304485 255 220 0
0.596722 0.150425 0.338344 255 220 0
0.555297 0.046896 0.291112 255 220 0
0.525620 0.047525 0.252827 255 220 0
0.608422 0.161096 0.316770 255 220 0
0.524209 0.062061 0.323930 255 220 0
0.562730 0.136205 0.283258 255 220 0
0.573861 0.060882 0.285540 255 220 0
0.582261 0.108505 0.271310 255 220 0
0.558500 0.055685 0.266853 255 220 0
0.564930 0.149197 0.294305 255 220 0
0.587777 0.119851 0.277746 255 220 0
0.602132 0.141313 0.297032 255 220 0
0.562020 0.058256 0.311817 255 220 0
0.590542 0.156116 0.299117 255 220 0
0.516826 0.046467 0.309617 255 220 0
0.569086 0.060224 0.306143 255 220 0
0.574189 0.094407 0.264431 255 220 0
0.555347 0.119165 0.339469 255 220 0
0.576888 0.146400 0.341812 255 220 0
0.525498 0.098707 0.332803 255 220 0
0.531870 0.080809 0.248838 255 220 0
0.585792 0.077454 0.307833 255 220 0
0.533161 0.139677 0.317094 255 220 0
0.550779 0.109737 0.262926 255 220 0
0.480239 0.059397 0.281013 255 220 0
0.611667 0.131558 0.307130 255 220 0
0.581963 0.086893 0.324923 255 220 0
0.588438 0.112637 0.334714 255 220 0
0.575606 0.074941 0.268161 255 220 0
0.539367 0.145257 0.311762 255 220 0
0.521929 0.037035 0.296988 255 220 0
0.560952 0.131736 0.279627 255 220 0
0.510334 0.042156 0.302958 255 220 0
0.491853 0.094289 0.273471 255 220 0
0.534509 0.077938 0.248688 255 220 0
0.533116 0.037060 0.275043 255 220 0
0.558589 0.139461 0.286485 255 220 0
0.560737 0.050507 0.282841 255 220 0
0.556013 0.050614 0.304195 255 220 0
0.487697 0.046070 0.289638 255 220 0
0.523538 0.070013 0.246427 255 220 0
0.526797 0.035678 0.290368 255 220 0
0.532153 0.067976 0.247527 255 220 0
0.542572 0.136871 0.289206 255 220 0
0.514781 0.054617 0.248090 255 220 0
0.574688 0.063224 0.280440 255 220 0
0.525663 0.092368 0.253102 255 220 0
0.571131 0.058012 0.290940 255 220 0
0.489334 0.088800 0.307976 255 220 0
0.539068 0.061689 0.250962 255 220 0
0.554395 0.078979 0.332241 255 220 0
0.525775 0.068460 0.327441 255 220 0
0.524694 0.097385 0.256563 255 220 0
0.552575 0.074448 0.330392 255 220 0
0.507939 0.060556 0.248096 255 220 0
0.538642 0.115729 0.335655 255 220 0
0.544920 0.098727 0.256680 255 220 0
0.518584 0.108333 0.329117 255 220 0
0.517312 0.127015 0.315896 255 220 0
0.507064 0.042510 0.302120 255 220 0
0.568298 0.140334 0.286428 255 220 0
0.588870 0.081262 0.308253 255 220 0
0.534693 0.123347 0.276242 255 220 0
0.515385 0.093522 0.255860 255 220 0
0.576867 0.077646 0.267752 255 220 0
0.564191 0.146654 0.292089 255 220 0
0.608992 0.160442 0.324431 255 220 0
0.567213 0.074017 0.324887 255 220 0
0.536226 0.040290 0.298906 255 220 0
0.554145 0.085769 0.334842 255 220 0
0.600179 0.137796 0.334847 255 220 0
0.487253 0.044263 0.285936 255 220 0
0.582098 0.079649 0.271520 255 220 0
0.493424 0.061951 0.308135 255 220 0
0.578745 0.173606 0.335290 255 220 0
0.569014 0.096914 0.336099 255 220 0
0.576036 0.085781 0.328095 255 220 0
0.480125 0.073469 0.290986 255 220 0
0.554970 0.048329 0.275827 255 220 0
0.493047 0.094847 0.272358 255 220 0
0.576215 0.113622 0.339148 255 220 0
0.579243 0.088996 0.266679 255 220 0
0.519540 0.129219 0.296233 255 220 0
0.505647 0.069455 0.320457 255 220 0
0.482212 0.056918 0.290091 255 220 0
0.509238 0.040727 0.256473 255 220 0
0.527015 0.053781 0.249603 255 220 0
0.553043 0.151474 0.303125 255 220 0
0.597280 0.106265 0.281279 255 220 0
0.579787 0.162929 0.339803 255 220 0
0.480803 0.077718 0.291602 255 220 0
0.523093 0.048865 0.313396 255 220 0
0.561575 0.115244 0.267349 255 220 0
0.501094 0.038521 0.293627 255 220 0
0.552946 0.048840 0.303776 255 220 0
0.543326 0.097242 0.336696 255 220 0
0.486390 0.072428 0.304231 255 220 0
0.557844 0.151303 0.333316 255 220 0
0.577154 0.160890 0.301810 255 220 0
0.554106 0.157612 0.316213 255 220 0
0.574538 0.061363 0.294285 255 220 0
0.550110 0.047154 0.271168 255 220 0
0.525854 0.044211 0.308784 255 220 0
0.572516 0.160118 0.302097 255 220 0
0.484830 0.053569 0.265176 255 220 0
0.609392 0.118210 0.305431 255 220 0
0.604838 0.118500 0.322105 255 220 0
0.521869 0.097164 0.256939 255 220 0
0.602991 0.131171 0.330782 255 220 0
0.571572 0.070939 0.318652 255 220 0
0.556966 0.080288 0.255199 255 220 0
0.523345 0.113526 0.270025 255 220 0
0.593314 0.179425 0.321337 255 220 0
0.526268 0.107163 0.263462 255 220 0
0.563876 0.125232 0.274442 255 220 0
0.513991 0.033549 0.267770 255 220 0
0.550216 0.138005 0.287156 255 220 0
0.541110 0.145018 0.304398 255 220 0
0.593184 0.173853 0.333871 255 220 0
0.546056 0.044733 0.271146 255 220 0
0.545803 0.148994 0.307559 255 220 0
0.560720 0.065562 0.321481 255 220 0
0.502010 0.093582 0.262242 255 220 0
0.520036 0.087733 0.251273 255 220 0
0.549008 0.043536 0.282397 255 220 0
0.519723 0.083290 0.329920 255 220 0
0.546832 0.138200 0.288799 255 220 0
0.515085 0.032706 0.271468 255 220 0
0.545310 0.061808 0.253696 255 220 0
0.507381 0.034135 0.287932 255 220 0
0.506642 0.093497 0.259274 255 220 0
0.536213 0.038222 0.290061 255 220 0
0.587502 0.080572 0.310072 255 220 0
0.578744 0.130681 0.341455 255 220 0
0.526341 0.054623 0.249042 255 220 0
0.522262 0.133305 0.308678 255 220 0
0.572398 0.147973 0.292182 255 220 0
0.587178 0.076222 0.282988 255 220 0
0.572503 0.075565 0.322507 255 220 0
0.559938 0.049583 0.288359 255 220 0
0.506006 0.107643 0.319884 255 220 0
0.571631 0.066366 0.312858 255 220 0
0.539537 0.083318 0.334034 255 220 0
0.545338 0.110538 0.263459 255 220 0
0.557577 0.124440 0.273700 255 220 0
0.535304 0.048314 0.257000 255 220 0
0.525766 0.041394 0.258611 255 220 0
0.489935 0.059699 0.303843 255 220 0
0.551297 0.147338 0.330322 255 220 0
0.572807 0.094220 0.263748 255 220 0
0.520629 0.039911 0.258219 255 220 0
0.534740 0.057389 0.321991 255 220 0
0.495548 0.044282 0.258633 255 220 0
0.551277 0.076193 0.253114 255 220 0
0.488551 0.092175 0.305191 255 220 0
0.515476 0.044002 0.306623 255 220 0
0.545013 0.041455 0.283737 255 220 0
0.537766 0.100973 0.335977 255 220 0
0.540232 0.144361 0.319612 255 220 0
0.592772 0.151381 0.340045 255 220 0
0.571903 0.104602 0.337772 255 220 0
0.531538 0.131487 0.288253 255 220 0
0.598536 0.090383 0.295468 255 220 0
0.494626 0.070742 0.255383 255 220 0
0.546498 0.071414 0.251742 255 220 0
0.586424 0.181162 0.324850 255 220 0
0.603475 0.137939 0.332069 255 220 0
0.578147 0.106073 0.336634 255 220 0
0.584299 0.118485 0.338196 255 220 0
0.556631 0.155886 0.328430 255 220 0
0.505491 0.103742 0.321138 255 220 0
0.597355 0.176781 0.320322 255 220 0
0.515137 0.116257 0.277781 255 220 0
0.500270 0.036144 0.264983 255 220 0
0.541290 0.096305 0.336327 255 220 0
0.577552 0.136282 0.283820 255 220 0
0.488438 0.097848 0.290653 255 220 0
0.581606 0.107787 0.336008 255 220 0
0.561539 0.082378 0.257113 255 220 0
0.560331 0.149250 0.295898 255 220 0
0.585468 0.133835 0.283690 255 220 0
0.516934 0.129048 0.309210 255 220 0
0.512744 0.122514 0.290861 255 220 0
0.514669 0.104865 0.265164 255 220 0
0.607749 0.121575 0.318619 255 220 0
0.531664 0.040424 0.263923 255 220 0
0.499241 0.098147 0.268806 255 220 0
0.568062 0.066112 0.266462 255 220 0
0.573590 0.136552 0.283708 255 220 0
0.567214 0.054976 0.293615 255 220 0
0.510760 0.035890 0.262450 255 220 0
0.602362 0.097718 0.295368 255 220 0
0.605899 0.164374 0.315011 255 220 0
0.532269 0.079430 0.332169 255 220 0
0.562116 0.156945 0.333427 255 220 0
0.571679 0.116027 0.269858 255 220 0
0.569764 0.059322 0.277657 255 220 0
0.583635 0.157793 0.341022 255 220 0
0.530815 0.047713 0.313082 255 220 0
0.586176 0.106190 0.272859 255 220 0
0.590470 0.078723 0.290299 255 220 0
0.555139 0.092249 0.256657 255 220 0
0.572602 0.161212 0.302981 255 220 0
0.552935 0.088741 0.335796 255 220 0
0.566823 0.074588 0.325565 255 220 0
0.589454 0.180206 0.318370 255 220 0
0.507854 0.087459 0.254478 255 220 0
0.540429 0.070277 0.249764 255 220 0
0.562228 0.087856 0.258058 255 220 0
0.509370 0.120758 0.292527 255 220 0
0.547823 0.088059 0.335673 255 220 0
0.554960 0.085984 0.255171 255 220 0
0.569482 0.117208 0.340499 255 220 0
0.526509 0.088988 0.332593 255 220 0
0.601711 0.096280 0.296233 255 220 0
0.510091 0.082090 0.325756 255 220 0
0.564118 0.153280 0.336590 255 220 0
0.538258 0.115648 0.268236 255 220 0
0.495172 0.063059 0.310152 255 220 0
0.588316 0.100148 0.273156 255 220 0
0.526386 0.115648 0.271062 255 220 0
0.514664 0.041823 0.303858 255 220 0
0.501610 0.035013 0.287275 255 220 0
0.597055 0.106469 0.324887 255 220 0
0.482535 0.081204 0.295908 255 220 0
0.592429 0.099402 0.325048 255 220 0
0.501411 0.102676 0.317523 255 220 0
0.552514 0.057210 0.260483 255 220 0
0.544262 0.054466 0.257444 255 220 0
0.497146 0.088657 0.262245 255 220 0
0.498895 0.062468 0.312843 255 220 0
0.568841 0.057598 0.279829 255 220 0
0.528758 0.060598 0.323849 255 220 0
0.525185 0.078286 0.247757 255 220 0
0.486295 0.093529 0.295831 255 220 0
0.491117 0.054087 0.301533 255 220 0
0.535221 0.047472 0.257726 255 220 0
0.605574 0.109885 0.310575 255 220 0
0.492166 0.094515 0.310108 255 220 0
0.514776 0.127500 0.306100 255 220 0
0.587561 0.156948 0.299162 255 220 0
0.499539 0.112897 0.300764 255 220 0
0.506463 0.116694 0.312908 255 220 0
0.547239 0.050771 0.262889 255 220 0
0.494058 0.036374 0.271967 255 220 0
0.600078 0.152454 0.336273 255 220 0
0.590979 0.090741 0.318721 255 220 0
0.571391 0.112980 0.268441 255 220 0
0.570606 0.127624 0.341371 255 220 0
0.587825 0.085420 0.316951 255 220 0
0.541493 0.128909 0.279945 255 220 0
0.539391 0.132405 0.330829 255 220 0
0.491213 0.063613 0.257193 255 220 0
0.550570 0.051710 0.264488 255 220 0
0.531055 0.092863 0.253031 255 220 0
0.509163 0.095097 0.325658 255 220 0
0.565773 0.093545 0.260595 255 220 0
0.538701 0.140823 0.298013 255 220 0
0.495854 0.074994 0.255697 255 220 0
0.514204 0.070678 0.325182 255 220 0
0.573900 0.067869 0.312105 255 220 0
0.502932 0.110304 0.280870 255 220 0
0.540872 0.095296 0.336163 255 220 0
0.583942 0.079082 0.314097 255 220 0
0.592965 0.081989 0.291608 255 220 0
0.535071 0.053266 0.253121 255 220 0
0.539779 0.059700 0.252016 255 220 0
0.572232 0.060403 0.281188 255 220 0
0.500091 0.033211 0.279154 255 220 0
0.506351 0.078546 0.323141 255 220 0
0.496567 0.035124 0.282524 255 220 0
0.542025 0.124110 0.274949 255 220 0
0.549475 0.153203 0.314298 255 220 0
0.602592 0.162308 0.333000 255 220 0
0.544313 0.090617 0.335980 255 220 0
0.545598 0.129578 0.279452 255 220 0
0.504925 0.117782 0.294826 255 220 0
0.523109 0.100411 0.332009 255 220 0
0.568570 0.166283 0.333175 255 220 0
0.555256 0.156858 0.309728 255 220 0
0.577382 0.076640 0.268813 255 220 0
0.527036 0.052810 0.250080 255 220 0
0.558171 0.068333 0.257511 255 220 0
0.587835 0.137221 0.286523 255 220 0
0.598456 0.126404 0.333205 255 220 0
0.490882 0.057196 0.303336 255 220 0
0.517813 0.072638 0.327076 255 220 0
0.591445 0.110699 0.277222 255 220 0
0.602317 0.144201 0.334087 255 220 0
0.539702 0.074011 0.331078 255 220 0
0.555691 0.116040 0.267276 255 220 0
0.599054 0.139867 0.336016 255 220 0
0.560961 0.084574 0.257067 255 220 0
0.545711 0.131302 0.281195 255 220 0
0.527950 0.134691 0.297252 255 220 0
0.512750 0.125817 0.304669 255 220 0
0.607188 0.116355 0.314344 255 220 0
0.604187 0.125959 0.327540 255 220 0
0.522039 0.118013 0.327928 255 220 0
0.588794 0.180725 0.319827 255 220 0
0.529788 0.072094 0.329548 255 220 0
0.544783 0.122583 0.273092 255 220 0
0.516794 0.118801 0.280143 255 220 0
0.581733 0.152258 0.341645 255 220 0
0.495882 0.044030 0.297025 255 220 0
0.512983 0.040145 0.301229 255 220 0
0.480789 0.066473 0.273746 255 220 0
0.538350 0.140781 0.298278 255 220 0
0.534111 0.141551 0.312055 255 220 0
0.513374 0.039404 0.257628 255 220 0
0.565436 0.060030 0.269406 255 220 0
0.579778 0.167756 0.338451 255 220 0
0.493241 0.070023 0.311049 255 220 0
0.507417 0.032979 0.284089 255 220 0
0.552125 0.081239 0.333453 255 220 0
0.522883 0.098089 0.331943 255 220 0
0.602115 0.127974 0.330606 255 220 0
0.597257 0.165525 0.336259 255 220 0
0.487770 0.041527 0.280736 255 220 0
0.597493 0.145695 0.295769 255 220 0
0.485933 0.074744 0.303878 255 220 0
0.547864 0.047528 0.305984 255 220 0
0.565597 0.164909 0.331100 255 220 0
0.513106 0.122667 0.290653 255 220 0
0.573934 0.141081 0.287092 255 220 0
0.608270 0.125313 0.320610 255 220 0
0.564001 0.058957 0.310784 255 220 0
0.489504 0.047551 0.261779 255 220 0
0.537268 0.083437 0.333813 255 220 0
0.592667 0.163964 0.303989 255 220 0
0.554583 0.050128 0.270951 255 220 0
0.518759 0.071997 0.327164 255 220 0
0.562980 0.108017 0.339369 255 220 0
0.578384 0.157080 0.298881 255 220 0
0.526276 0.130555 0.290862 255 220 0
0.566084 0.077246 0.327814 255 220 0
0.592621 0.154326 0.339976 255 220 0
0.524875 0.135049 0.310841 255 220 0
0.562299 0.163960 0.327233 255 220 0
0.546118 0.128200 0.335970 255 220 0
0.543164 0.123218 0.335932 255 220 0
0.530304 0.138197 0.315019 255 220 0
0.541860 0.040426 0.290873 255 220 0
0.522701 0.102399 0.260551 255 220 0
0.571405 0.080581 0.262508 255 220 0
0.560933 0.123960 0.340343 255 220 0
0.554921 0.106598 0.261773 255 220 0
0.495177 0.078769 0.314766 255 220 0
0.511753 0.058151 0.247605 255 220 0
0.531749 0.117289 0.270996 255 220 0
0.575030 0.065757 0.276465 255 220 0
0.585180 0.095636 0.270620 255 220 0
0.488971 0.098773 0.297251 255 220 0
0.567601 0.074793 0.261347 255 220 0
0.609935 0.148244 0.309368 255 220 0
0.565630 0.159659 0.334695 255 220 0
0.537480 0.065720 0.249333 255 220 0
0.568865 0.065570 0.314988 255 220 0
0.559582 0.066939 0.323340 255 220 0
0.506061 0.048139 0.307567 255 220 0
0.572889 0.090695 0.263264 255 220 0
0.525926 0.135949 0.309123 255 220 0
0.530117 0.093423 0.333867 255 220 0
0.590740 0.174913 0.310941 255 220 0
0.594216 0.141360 0.291598 255 220 0
0.517016 0.034845 0.265293 255 220 0
0.521070 0.115959 0.273708 255 220 0
0.496139 0.045120 0.298408 255 220 0
0.558651 0.155828 0.304419 255 220 0
0.547145 0.137872 0.288237 255 220 0
0.606961 0.146377 0.329365 255 220 0
0.580122 0.068339 0.282324 255 220 0
0.503890 0.082532 0.253685 255 220 0
0.541925 0.147076 0.311813 255 220 0
0.593489 0.137239 0.338684 255 220 0
0.563899 0.052276 0.290256 255 220 0
0.525220 0.036682 0.265817 255 220 0
0.545670 0.056222 0.318857 255 220 0
0.541195 0.054414 0.255683 255 220 0
0.578904 0.101440 0.334727 255 220 0
0.495231 0.035108 0.278670 255 220 0
0.558381 0.148855 0.334981 255 220 0
0.574231 0.101176 0.265837 255 220 0
0.560458 0.070721 0.325920 255 220 0
0.513513 0.115728 0.278314 255 220 0
0.501603 0.111243 0.311214 255 220 0
0.592415 0.094706 0.276508 255 220 0
0.490455 0.063333 0.257847 255 220 0
0.566245 0.099821 0.262348 255 220 0
0.493757 0.105937 0.298498 255 220 0
0.480624 0.057606 0.279319 255 220 0
0.583703 0.092263 0.327614 255 220 0
0.569661 0.097710 0.263112 255 220 0
0.516211 0.108338 0.267818 255 220 0
0.506525 0.037039 0.293991 255 220 0
0.601084 0.094995 0.295641 255 220 0
0.584573 0.077324 0.276308 255 220 0
0.575614 0.168230 0.307731 255 220 0
0.571223 0.167489 0.334622 255 220 0
0.544470 0.043936 0.301046 255 220 0
0.547110 0.129037 0.278571 255 220 0
0.559538 0.122363 0.272061 255 220 0
0.573606 0.062785 0.278835 255 220 0
0.529105 0.101347 0.333873 255 220 0
0.546276 0.052356 0.260537 255 220 0
0.527968 0.073081 0.247085 255 220 0
0.486277 0.090760 0.280292 255 220 0
0.586071 0.073403 0.291929 255 220 0
0.605983 0.154391 0.330468 255 220 0
0.555032 0.157401 0.323173 255 220 0
0.517525 0.067656 0.325169 255 220 0
0.579644 0.077873 0.318203 255 220 0
0.482444 0.054432 0.287650 255 220 0
0.562011 0.051446 0.294890 255 220 0
0.512391 0.112331 0.323504 255 220 0
0.519608 0.055743 0.318584 255 220 0
0.535424 0.125874 0.278781 255 220 0
0.559486 0.154069 0.332968 255 220 0
0.611347 0.139606 0.321612 255 220 0
0.488992 0.081528 0.265869 255 220 0
0.537456 0.062643 0.250008 255 220 0
0.495796 0.099486 0.274215 255 220 0
0.517779 0.119153 0.324232 255 220 0
0.503346 0.087638 0.322072 255 220 0
0.500482 0.095102 0.319173 255 220 0
0.551620 0.099462 0.258144 255 220 0
0.598178 0.105900 0.282190 255 220 0
0.613099 0.141806 0.315372 255 220 0
0.588182 0.136683 0.286314 255 220 0
0.523343 0.043656 0.255195 255 220 0
0.606911 0.162195 0.327585 255 220 0
0.561681 0.051694 0.280093 255 220 0
0.574101 0.064447 0.305827 255 220 0
0.539393 0.043762 0.304949 255 220 0
0.530828 0.065529 0.326861 255 220 0
0.527366 0.111203 0.266558 255 220 0
0.575725 0.096290 0.333848 255 220 0
0.516977 0.047674 0.250989 255 220 0
0.525789 0.107943 0.264192 255 220 0
0.560899 0.052510 0.301765 255 220 0
0.590541 0.143101 0.340490 255 220 0
0.501597 0.032853 0.274234 255 220 0
0.567079 0.142197 0.340427 255 220 0
0.587782 0.078271 0.304417 255 220 0
0.513658 0.110906 0.271988 255 220 0
0.539954 0.040767 0.272804 255 220 0
0.568456 0.059275 0.275135 255 220 0
0.575034 0.136519 0.283783 255 220 0
0.514754 0.100058 0.328401 255 220 0
0.551212 0.151202 0.304523 255 220 0
0.594512 0.173766 0.333016 255 220 0
0.585766 0.167193 0.305249 255 220 0
0.482660 0.062032 0.268092 255 220 0
0.530915 0.045554 0.310520 255 220 0
0.545922 0.050983 0.261658 255 220 0
0.533180 0.037656 0.292362 255 220 0
0.578321 0.139136 0.342003 255 220 0
0.542634 0.106439 0.337068 255 220 0
0.490540 0.039965 0.284941 255 220 0
0.534343 0.072073 0.248060 255 220 0
0.598323 0.163549 0.336175 255 220 0
0.588145 0.174682 0.310181 255 220 0
0.568120 0.135653 0.282801 255 220 0
0.553879 0.065916 0.324822 255 220 0
0.594833 0.140572 0.291502 255 220 0
0.517802 0.036642 0.262018 255 220 0
0.518196 0.065501 0.324355 255 220 0
0.501398 0.073436 0.251517 255 220 0
0.504483 0.081212 0.252730 255 220 0
0.569268 0.063717 0.311909 255 220 0
0.488068 0.069874 0.305742 255 220 0
0.501781 0.058463 0.312844 255 220 0
0.586088 0.079558 0.311147 255 220 0
0.524449 0.072331 0.328674 255 220 0
0.531023 0.052967 0.318346 255 220 0
0.589877 0.114857 0.277324 255 220 0
0.565747 0.058208 0.307261 255 220 0
0.483939 0.061909 0.265526 255 220 0
0.566064 0.091696 0.334932 255 220 0
0.611654 0.147942 0.312723 255 220 0
0.507622 0.097244 0.261781 255 220 0
0.514270 0.126991 0.307416 255 220 0
0.563939 0.134814 0.282107 255 220 0
0.606879 0.150684 0.306348 255 220 0
0.484663 0.088575 0.281907 255 220 0
0.545720 0.067048 0.252188 255 220 0
0.562359 0.058254 0.267860 255 220 0
0.590492 0.120922 0.279728 255 220 0
0.501154 0.111889 0.287052 255 220 0
0.524534 0.100815 0.332492 255 220 0
0.605957 0.106778 0.300310 255 220 0
0.605203 0.108213 0.309222 255 220 0
0.489062 0.061788 0.259070 255 220 0
0.517963 0.032765 0.281216 255 220 0
0.520414 0.039333 0.301520 255 220 0
0.479611 0.063504 0.284672 255 220 0
0.551503 0.134176 0.336659 255 220 0
0.504231 0.117476 0.305211 255 220 0
0.591333 0.145201 0.340381 255 220 0
0.611528 0.143453 0.322008 255 220 0
0.599002 0.175584 0.322074 255 220 0
0.501848 0.098824 0.319458 255 220 0
0.576145 0.160977 0.339424 255 220 0
0.608796 0.127773 0.321211 255 220 0
0.591054 0.090774 0.318647 255 220 0
0.549244 0.073559 0.252530 255 220 0
0.521243 0.118113 0.327367 255 220 0
0.537444 0.057441 0.251957 255 220 0
0.484791 0.068471 0.265371 255 220 0
0.505937 0.032152 0.279091 255 220 0
0.611226 0.137598 0.307003 255 220 0
0.545408 0.082388 0.334110 255 220 0
0.569823 0.170454 0.313756 255 220 0
0.492014 0.091663 0.310984 255 220 0
0.599113 0.171338 0.330917 255 220 0
0.543205 0.143676 0.299046 255 220 0
0.535571 0.074148 0.330925 255 220 0
0.507296 0.072014 0.322235 255 220 0
0.582632 0.148500 0.293029 255 220 0
0.571360 0.069164 0.267757 255 220 0
0.496345 0.039109 0.290963 255 220 0
0.491244 0.096113 0.276823 255 220 0
0.560403 0.089748 0.257748 255 220 0
0.502776 0.068632 0.249950 255 220 0
0.482743 0.076409 0.272926 255 220 0
0.582032 0.129431 0.280010 255 220 0
0.482391 0.080656 0.295767 255 220 0
0.533938 0.092761 0.334678 255 220 0
0.587188 0.074883 0.287862 255 220 0
0.484699 0.048279 0.269299 255 220 0
0.493409 0.104241 0.302986 255 220 0
0.485875 0.072742 0.303580 255 220 0
0.593950 0.130297 0.337087 255 220 0
0.514440 0.100094 0.261095 255 220 0
0.514403 0.120492 0.284887 255 220 0
0.542122 0.083380 0.334257 255 220 0
0.528458 0.051128 0.316429 255 220 0
0.564350 0.110837 0.265633 255 220 0
0.574262 0.087989 0.263766 255 220 0
0.604172 0.153441 0.332595 255 220 0
0.492216 0.041505 0.290247 255 220 0
0.508438 0.072902 0.323128 255 220 0
0.528382 0.056791 0.321182 255 220 0
0.481198 0.077169 0.278107 255 220 0
0.553378 0.063396 0.322980 255 220 0
0.558261 0.117664 0.268544 255 220 0
0.585351 0.140987 0.288265 255 220 0
0.541148 0.093463 0.254032 255 220 0
0.541900 0.058322 0.253697 255 220 0
0.485504 0.048531 0.288399 255 220 0
0.544383 0.053807 0.258037 255 220 0
0.594803 0.086271 0.301857 255 220 0
0.538434 0.062549 0.325341 255 220 0
0.525475 0.134178 0.299753 255 220 0
0.529999 0.135312 0.296097 255 220 0
0.557597 0.069947 0.326480 255 220 0
0.583698 0.102891 0.270752 255 220 0
0.503738 0.077261 0.321233 255 220 0
0.576301 0.143940 0.341871 255 220 0
0.494032 0.060859 0.254916 255 220 0
0.493825 0.044391 0.259808 255 220 0
0.557329 0.107636 0.339128 255 220 0
0.591853 0.179286 0.317872 255 220 0
0.599778 0.107235 0.321516 255 220 0
0.518850 0.069472 0.326290 255 220 0
0.498340 0.106004 0.280289 255 220 0
0.510166 0.118744 0.286638 255 220 0
0.528141 0.094672 0.254207 255 220 0
0.544072 0.041020 0.283764 255 220 0
0.577342 0.122158 0.274492 255 220 0
0.522183 0.034411 0.269677 255 220 0
0.502152 0.114713 0.292699 255 220 0
0.578505 0.166393 0.305524 255 220 0
0.590111 0.178173 0.314449 255 220 0
0.550972 0.116496 0.338658 255 220 0
0.517451 0.036123 0.294803 255 220 0
0.529047 0.039550 0.301172 255 220 0
0.513838 0.048308 0.250674 255 220 0
0.574091 0.066001 0.308832 255 220 0
0.479479 0.072792 0.284523 255 220 0
0.539951 0.080057 0.333193 255 220 0
0.604545 0.107778 0.291692 255 220 0
0.566089 0.063641 0.315321 255 220 0
0.505103 0.074663 0.321576 255 220 0
0.606117 0.123237 0.294842 255 220 0
0.565082 0.098133 0.261471 255 220 0
0.568537 0.154289 0.338424 255 220 0
0.600753 0.132620 0.333233 255 220 0
0.505519 0.039202 0.297092 255 220 0
0.549724 0.153318 0.313162 255 220 0
0.611090 0.153326 0.315487 255 220 0
0.562370 0.051335 0.285493 255 220 0
0.569081 0.082177 0.329461 255 220 0
0.574198 0.176272 0.318355 255 220 0
0.486965 0.095150 0.289561 255 220 0
0.598799 0.091516 0.299375 255 220 0
0.553530 0.140514 0.335613 255 220 0
0.570630 0.151532 0.295226 255 220 0
0.559671 0.089883 0.257518 255 220 0
0.536841 0.097517 0.335627 255 220 0
0.490650 0.095962 0.277762 255 220 0
0.513679 0.033897 0.266696 255 220 0
0.598876 0.159145 0.336622 255 220 0
0.497305 0.080674 0.316889 255 220 0
0.564461 0.141724 0.287709 255 220 0
0.555847 0.143185 0.291010 255 220 0
0.555719 0.149715 0.298763 255 220 0
0.605417 0.107549 0.294286 255 220 0
0.567133 0.141517 0.287361 255 220 0
0.531394 0.139455 0.306016 255 220 0
0.555276 0.102454 0.260081 255 220 0
0.520217 0.077234 0.247529 255 220 0
0.481011 0.080680 0.286620 255 220 0
0.612054 0.141718 0.310376 255 220 0
0.566783 0.170742 0.321528 255 220 0
0.527339 0.080529 0.248380 255 220 0
0.575765 0.083975 0.327009 255 220 0
0.533343 0.050024 0.315467 255 220 0
0.540944 0.145195 0.319071 255 220 0
0.528952 0.094987 0.333669 255 220 0
0.527811 0.037895 0.265317 255 220 0
0.565880 0.106886 0.339084 255 220 0
0.569518 0.062526 0.271940 255 220 0
0.564695 0.166202 0.328398 255 220 0
0.518477 0.058511 0.246963 255 220 0
0.538128 0.141486 0.299928 255 220 0
0.567009 0.055233 0.296273 255 220 0
0.493418 0.036337 0.274148 255 220 0
0.600600 0.129910 0.290791 255 220 0
0.579042 0.179654 0.320167 255 220 0
0.545874 0.141362 0.293514 255 220 0
0.561606 0.050996 0.293643 255 220 0
0.500401 0.100964 0.317222 255 220 0
0.592620 0.174612 0.311373 255 220 0
0.557521 0.061411 0.260714 255 220 0
0.533851 0.133270 0.326255 255 220 0
0.592743 0.088317 0.279074 255 220 0
0.557907 0.118237 0.268930 255 220 0
0.542829 0.131784 0.282685 255 220 0
0.598112 0.090405 0.289264 255 220 0
0.582838 0.085174 0.269741 255 220 0
0.531310 0.121533 0.331485 255 220 0
0.534112 0.130783 0.285600 255 220 0
0.562815 0.163301 0.328971 255 220 0
0.505602 0.066356 0.319276 255 220 0
0.579765 0.179102 0.317603 255 220 0
0.524587 0.055582 0.248281 255 220 0
0.515315 0.033994 0.288515 255 220 0
0.547211 0.073605 0.330659 255 220 0
0.507986 0.102670 0.266632 255 220 0
0.537298 0.141908 0.319512 255 220 0
0.609065 0.117037 0.305610 255 220 0
0.522058 0.131881 0.299327 255 220 0
0.527578 0.051234 0.316421 255 220 0
0.519358 0.044124 0.307721 255 220 0
0.540138 0.070797 0.329698 255 220 0
0.552520 0.048565 0.271380 255 220 0
0.541976 0.142329 0.325272 255 220 0
0.518177 0.119882 0.324098 255 220 0
0.520554 0.117989 0.276447 255 220 0
0.523969 0.060111 0.246921 255 220 0
0.520199 0.040651 0.303512 255 220 0
0.583180 0.073596 0.278833 255 220 0
0.482329 0.058579 0.269215 255 220 0
0.509395 0.053096 0.313315 255 220 0
0.573406 0.174690 0.330319 255 220 0
0.581573 0.170208 0.337899 255 220 0
0.525963 0.034557 0.284552 255 220 0
0.566401 0.168586 0.328055 255 220 0
0.531867 0.038001 0.295314 255 220 0
0.501209 0.112172 0.287641 255 220 0
0.545248 0.108352 0.261925 255 220 0
0.536632 0.063486 0.326003 255 220 0
0.529109 0.112386 0.333051 255 220 0
0.530297 0.035562 0.280398 255 220 0
0.523965 0.041494 0.305077 255 220 0
0.525375 0.069892 0.327960 255 220 0
0.539138 0.039066 0.288113 255 220 0
0.609244 0.124261 0.300589 255 220 0
0.577398 0.148690 0.292747 255 220 0
0.595364 0.085476 0.294950 255 220 0
0.536908 0.135098 0.290033 255 220 0
0.577500 0.168271 0.337604 255 220 0
0.501066 0.104004 0.273778 255 220 0
0.500412 0.113188 0.293366 255 220 0
0.588848 0.118129 0.336284 255 220 0
0.599475 0.149567 0.299030 255 220 0
0.560152 0.072130 0.257413 255 220 0
0.596340 0.108446 0.327056 255 220 0
0.563800 0.135578 0.340360 255 220 0
0.515234 0.104517 0.328049 255 220 0
0.545534 0.133103 0.334152 255 220 0
0.525037 0.116315 0.330295 255 220 0
0.600151 0.136759 0.293274 255 220 0
0.586339 0.102260 0.331568 255 220 0
0.535433 0.091967 0.334889 255 220 0
0.574796 0.063803 0.302852 255 220 0
0.531475 0.139741 0.311319 255 220 0
0.540356 0.094842 0.254471 255 220 0
0.483217 0.066111 0.267503 255 220 0
0.481502 0.082278 0.286305 255 220 0
0.542777 0.069662 0.250616 255 220 0
0.607817 0.122950 0.297562 255 220 0
0.566503 0.056184 0.301210 255 220 0
0.599649 0.108627 0.322923 255 220 0
0.602824 0.106078 0.313609 255 220 0
0.511397 0.058457 0.318040 255 220 0
0.570596 0.103637 0.265018 255 220 0
0.484553 0.053753 0.292537 255 220 0
0.496373 0.046739 0.300213 255 220 0
0.606277 0.138205 0.299783 255 220 0
0.557920 0.161487 0.319363 255 220 0
0.518304 0.127133 0.317262 255 220 0
0.603576 0.111845 0.289444 255 220 0
0.596739 0.089504 0.285860 255 220 0
0.491474 0.100981 0.285738 255 220 0
0.518506 0.105890 0.264559 255 220 0
0.551501 0.086521 0.335241 255 220 0
0.545829 0.133027 0.283030 255 220 0
0.487866 0.041287 0.280143 255 220 0
0.599378 0.091821 0.295610 255 220 0
0.569855 0.125473 0.341222 255 220 0
0.582391 0.095012 0.268827 255 220 0
0.525453 0.060757 0.323403 255 220 0
0.557613 0.148955 0.334420 255 220 0
0.606386 0.112467 0.311555 255 220 0
0.555187 0.109823 0.263425 255 220 0
0.481942 0.080915 0.279731 255 220 0
0.489641 0.083255 0.266238 255 220 0
0.547746 0.137883 0.333381 255 220 0
0.577024 0.081819 0.266194 255 220 0
0.483698 0.048663 0.281912 255 220 0
0.584975 0.073273 0.299238 255 220 0
0.567940 0.104027 0.338288 255 220 0
0.595437 0.129205 0.286392 255 220 0
0.596922 0.142114 0.337661 255 220 0
0.613002 0.137957 0.313393 255 220 0
0.565081 0.061571 0.267263 255 220 0
0.610050 0.121240 0.309530 255 220 0
0.590666 0.106713 0.275817 255 220 0
0.561141 0.152776 0.334942 255 220 0
0.548233 0.150351 0.306775 255 220 0
0.532366 0.139282 0.316494 255 220 0
0.612770 0.143048 0.318502 255 220 0
0.530848 0.136037 0.320399 255 220 0
0.518069 0.065267 0.246253 255 220 0
0.568036 0.170116 0.328729 255 220 0
0.554707 0.086496 0.255186 255 220 0
0.609479 0.158011 0.315828 255 220 0
0.505147 0.065334 0.318567 255 220 0
0.601226 0.112614 0.286355 255 220 0
0.484911 0.055850 0.264379 255 220 0
0.596087 0.093305 0.312478 255 220 0
0.556777 0.080203 0.255126 255 220 0
0.528537 0.053338 0.318437 255 220 0
0.559478 0.051364 0.300988 255 220 0
0.495462 0.106193 0.305294 255 220 0
0.608439 0.130795 0.323561 255 220 0
0.489995 0.045616 0.262586 255 220 0
0.587411 0.137269 0.340821 255 220 0
0.551020 0.154119 0.311670 255 220 0
0.565193 0.054080 0.297204 255 220 0
0.512906 0.113616 0.275878 255 220 0
0.512632 0.083659 0.327180 255 220 0
0.524677 0.091329 0.332276 255 220 0
0.483956 0.062264 0.297765 255 220 0
0.593591 0.118408 0.280939 255 220 0
0.479940 0.074502 0.281578 255 220 0
0.591977 0.175519 0.333057 255 220 0
0.528500 0.043671 0.257472 255 220 0
0.531428 0.067078 0.327670 255 220 0
0.536253 0.054389 0.319378 255 220 0
0.508360 0.047734 0.308165 255 220 0
0.497427 0.105016 0.310730 255 220 0
0.482413 0.051753 0.274321 255 220 0
0.585057 0.108902 0.334972 255 220 0
0.594622 0.164688 0.337822 255 220 0
0.560063 0.075973 0.256656 255 220 0
0.547165 0.057430 0.257027 255 220 0
0.568832 0.106505 0.338737 255 220 0
0.491201 0.071772 0.258664 255 220 0
0.486595 0.063744 0.261905 255 220 0
0.593689 0.157300 0.339373 255 220 0
0.598986 0.102963 0.283139 255 220 0
0.495967 0.090213 0.264549 255 220 0
0.569282 0.160772 0.303719 255 220 0
0.505014 0.106334 0.319535 255 220 0
0.550484 0.101117 0.337892 255 220 0
0.538892 0.053407 0.317948 255 220 0
0.527963 0.057677 0.321769 255 220 0
0.593422 0.083428 0.298452 255 220 0
0.608678 0.127241 0.299704 255 220 0
0.565971 0.071019 0.261554 255 220 0
0.543619 0.070227 0.250845 255 220 0
0.494487 0.092935 0.268514 255 220 0
0.498123 0.045169 0.299975 255 220 0
0.577590 0.103553 0.267863 255 220 0
0.489090 0.080262 0.264904 255 220 0
0.601730 0.151334 0.301566 255 220 0
0.536216 0.037903 0.287409 255 220 0
0.583395 0.120804 0.276011 255 220 0
0.587604 0.169350 0.306529 255 220 0
0.598168 0.165333 0.306777 255 220 0
0.507599 0.120137 0.308991 255 220 0
0.572745 0.059646 0.293739 255 220 0
0.530011 0.038074 0.267032 255 220 0
0.547224 0.070558 0.329124 255 220 0
0.597625 0.161005 0.337111 255 220 0
0.519453 0.037136 0.297315 255 220 0
0.505870 0.087910 0.323782 255 220 0
0.560630 0.097034 0.259670 255 220 0
0.596248 0.158478 0.338172 255 220 0
0.566526 0.058123 0.305937 255 220 0
0.487211 0.047103 0.290066 255 220 0
0.527441 0.036447 0.268519 255 220 0
0.551212 0.099477 0.258065 255 220 0
0.606145 0.110286 0.295072 255 220 0
0.489828 0.041357 0.268296 255 220 0
0.500489 0.097320 0.266841 255 220 0
0.576155 0.175357 0.332242 255 220 0
0.501193 0.036477 0.290155 255 220 0
0.562085 0.083750 0.257439 255 220 0
0.606241 0.157861 0.309821 255 220 0
0.609792 0.141856 0.306018 255 220 0
0.508830 0.043133 0.303549 255 220 0
0.593261 0.143907 0.292577 255 220 0
0.504357 0.045801 0.253699 255 220 0
0.562877 0.054404 0.303369 255 220 0
0.590638 0.123961 0.337115 255 220 0
0.570112 0.092344 0.262192 255 220 0
0.533125 0.081207 0.249097 255 220 0
0.576163 0.078145 0.321884 255 220 0
0.535466 0.100405 0.335462 255 220 0
0.607762 0.112851 0.305309 255 220 0
0.546802 0.042295 0.287806 255 220 0
0.600341 0.167504 0.310012 255 220 0
0.525425 0.095698 0.332729 255 220 0
0.488122 0.087984 0.306186 255 220 0
0.564871 0.099995 0.337725 255 220 0
0.599055 0.130996 0.334131 255 220 0
0.551502 0.049323 0.306324 255 220 0
0.522262 0.077494 0.247535 255 220 0
0.544903 0.123445 0.273819 255 220 0
0.596217 0.165488 0.305914 255 220 0
0.594934 0.131401 0.336827 255 220 0
0.529406 0.049167 0.253140 255 220 0
0.591951 0.121598 0.280911 255 220 0
0.588012 0.091775 0.323498 255 220 0
0.564020 0.157435 0.334669 255 220 0
0.552433 0.154428 0.323381 255 220 0
0.509406 0.122848 0.303842 255 220 0
0.601484 0.109709 0.286331 255 220 0
0.504475 0.090161 0.322858 255 220 0
0.532983 0.140146 0.315281 255 220 0
0.611672 0.141643 0.321426 255 220 0
0.599950 0.163333 0.306673 255 220 0
0.516543 0.032765 0.282579 255 220 0
0.593651 0.158396 0.301140 255 220 0
0.531068 0.065187 0.326710 255 220 0
0.485127 0.046874 0.284456 255 220 0
0.508899 0.104226 0.323861 255 220 0
0.553130 0.156249 0.320379 255 220 0
0.569510 0.161379 0.336494 255 220 0
0.576153 0.178412 0.321150 255 220 0
0.505491 0.032492 0.281184 255 220 0
0.598032 0.093381 0.307421 255 220 0
0.550258 0.087646 0.254141 255 220 0
0.499718 0.035597 0.266439 255 220 0
0.545992 0.114679 0.266570 255 220 0
0.539850 0.039172 0.285001 255 220 0
0.587181 0.105150 0.332420 255 220 0
0.580760 0.093249 0.330063 255 220 0
0.600315 0.150163 0.299902 255 220 0
0.579035 0.072284 0.274275 255 220 0
0.497305 0.056230 0.253229 255 220 0
0.597019 0.125636 0.333991 255 220 0
0.532314 0.117085 0.333272 255 220 0
0.532323 0.076150 0.331259 255 220 0
0.533535 0.115571 0.268977 255 220 0
0.519587 0.099654 0.330684 255 220 0
0.492031 0.086727 0.311911 255 220 0
0.532011 0.139894 0.306256 255 220 0
0.532048 0.077314 0.331567 255 220 0
0.502862 0.067237 0.317799 255 220 0
0.546100 0.083697 0.252221 255 220 0
0.532099 0.137461 0.298266 255 220 0
0.501527 0.062317 0.314713 255 220 0
0.524027 0.037577 0.297991 255 220 0
0.579586 0.095802 0.331998 255 220 0
0.524620 0.049203 0.314008 255 220 0
0.512571 0.068520 0.323768 255 220 0
0.534625 0.062387 0.249017 255 220 0
0.501921 0.094005 0.262664 255 220 0
0.511546 0.067848 0.247088 255 220 0
0.565498 0.073489 0.325487 255 220 0
0.590686 0.174734 0.310765 255 220 0
0.490959 0.072716 0.259205 255 220 0
0.611651 0.128564 0.313208 255 220 0
0.552370 0.150060 0.329108 255 220 0
0.559983 0.083741 0.256594 255 220 0
0.574543 0.061526 0.295435 255 220 0
0.547958 0.048110 0.306993 255 220 0
0.536204 0.045387 0.309196 255 220 0
0.554682 0.051143 0.269261 255 220 0
0.514418 0.118637 0.281861 255 220 0
0.604693 0.144888 0.301070 255 220 0
0.526763 0.133163 0.295313 255 220 0
0.529183 0.035576 0.274766 255 220 0
0.533587 0.100046 0.257091 255 220 0
0.574673 0.061799 0.296307 255 220 0
0.525068 0.037972 0.298717 255 220 0
0.564970 0.053310 0.284658 255 220 0
0.587988 0.095715 0.272606 255 220 0
0.520736 0.089910 0.252347 255 220 0
0.563031 0.123895 0.340612 255 220 0
0.546799 0.054954 0.317099 255 220 0
0.549913 0.102252 0.337943 255 220 0
0.484324 0.050962 0.267574 255 220 0
0.495235 0.102279 0.279196 255 220 0
0.525689 0.135400 0.312444 255 220 0
0.531038 0.063861 0.326011 255 220 0
0.505172 0.071247 0.320727 255 220 0
0.588596 0.085479 0.315806 255 220 0
0.530428 0.054066 0.250620 255 220 0
0.544453 0.070389 0.329302 255 220 0
0.546344 0.075331 0.331511 255 220 0
0.536659 0.053236 0.253950 255 220 0
0.575218 0.117320 0.340037 255 220 0
0.547613 0.052265 0.261568 255 220 0
0.612296 0.131638 0.310445 255 220 0
0.484723 0.081264 0.272448 255 220 0
0.588877 0.077992 0.299654 255 220 0
0.569941 0.058099 0.298603 255 220 0
0.492464 0.049739 0.299496 255 220 0
0.590987 0.175700 0.311779 255 220 0
0.557269 0.130109 0.339314 255 220 0
0.520659 0.077865 0.329260 255 220 0
0.480181 0.073226 0.291343 255 220 0
0.548214 0.044109 0.296233 255 220 0
0.592954 0.091505 0.316387 255 220 0
0.484828 0.046172 0.272766 255 220 0
0.546092 0.150156 0.311676 255 220 0
0.560594 0.087845 0.257434 255 220 0
0.486878 0.094272 0.297743 255 220 0
0.483336 0.052898 0.288544 255 220 0
0.588078 0.173173 0.309021 255 220 0
0.598716 0.092122 0.288197 255 220 0
0.491674 0.065093 0.307918 255 220 0
0.501911 0.094367 0.262980 255 220 0
0.505070 0.075607 0.250319 255 220 0
0.566526 0.142142 0.287888 255 220 0
0.597496 0.111164 0.282171 255 220 0
0.568985 0.117801 0.270089 255 220 0
0.558695 0.098974 0.259689 255 220 0
0.588330 0.176610 0.311975 255 220 0
0.567702 0.126406 0.275560 255 220 0
0.581413 0.172626 0.309116 255 220 0
0.594988 0.114948 0.280936 255 220 0
0.554400 0.087416 0.255270 255 220 0
0.596383 0.148872 0.296875 255 220 0
0.573395 0.117755 0.271157 255 220 0
0.575208 0.174621 0.314281 255 220 0
