ply
format ascii 1.0
element vertex 1024
property float x
property float y
property float z
property uchar red
property uchar green
property uchar blue
end_header
0.555495 0.064777 0.087069 255 220 0
0.512823 0.064403 0.033807 255 220 0
0.598391 0.038627 0.042981 255 220 0
0.554043 0.009053 0.051065 255 220 0
0.591135 0.066188 0.021558 255 220 0
0.539247 0.065940 -0.000671 255 220 0
0.561127 0.053881 0.084079 255 220 0
0.566818 0.136058 0.093864 255 220 0
0.600845 0.070900 0.075266 255 220 0
0.572188 0.053392 -0.000223 255 220 0
0.552311 0.010187 0.052494 255 220 0
0.571084 0.008311 0.001444 255 220 0
0.560709 0.069247 0.002478 255 220 0
0.564433 0.046894 0.081021 255 220 0
0.589795 0.032740 0.058015 255 220 0
0.519240 0.088349 0.043860 255 220 0
0.528077 0.016490 -0.001497 255 220 0
0.568244 0.095003 0.095621 255 220 0
0.522306 0.090223 0.054306 255 220 0
0.557549 0.031504 0.072197 255 220 0
0.561896 0.023702 0.065946 255 220 0
0.567141 0.049264 0.081874 255 220 0
0.512047 0.052339 0.021870 255 220 0
0.544307 0.006222 -0.005667 255 220 0
0.541733 0.069258 0.000711 255 220 0
0.543560 0.063420 -0.002501 255 220 0
0.575900 0.138634 0.052718 255 220 0
0.596213 0.041395 0.026150 255 220 0
0.557794 0.016877 -0.009043 255 220 0
0.557582 0.155477 0.055390 255 220 0
0.601077 0.047047 0.045125 255 220 0
0.584214 0.144695 0.086495 255 220 0
0.603549 0.087875 0.056218 255 220 0
0.559516 0.158849 0.057619 255 220 0
0.544248 0.081746 0.085331 255 220 0
0.570706 0.000342 0.024907 255 220 0
0.572878 0.103824 0.029055 255 220 0
0.539266 0.036282 0.069498 255 220 0
0.583878 0.143029 0.088364 255 220 0
0.603951 0.090137 0.059937 255 220 0
0.544273 0.109723 0.028739 255 220 0
0.592308 0.130250 0.083798 255 220 0
0.597255 0.042531 0.028484 255 220 0
0.593093 0.039692 0.019249 255 220 0
0.547955 0.142275 0.081727 255 220 0
0.574459 0.094050 0.023455 255 220 0
0.555318 0.029200 0.070335 255 220 0
0.598310 0.038977 0.036205 255 220 0
0.539984 0.059120 0.078814 255 220 0
0.539662 0.003701 -0.002094 255 220 0
0.599885 0.068820 0.037419 255 220 0
0.579797 0.123434 0.095340 255 220 0
0.549842 0.045202 0.078665 255 220 0
0.539419 0.077470 0.081348 255 220 0
0.549439 0.036001 0.073640 255 220 0
0.517553 0.081153 0.046088 255 220 0
0.589383 0.021867 0.034262 255 220 0
0.534061 0.004028 0.032753 255 220 0
0.542943 0.083226 0.009115 255 220 0
0.530692 0.052409 -0.003673 255 220 0
0.601071 0.087387 0.048420 255 220 0
0.528014 0.011015 0.035116 255 220 0
0.560026 0.139375 0.091493 255 220 0
0.572844 0.022710 0.061659 255 220 0
0.580673 0.009867 0.015608 255 220 0
0.583098 0.149192 0.082137 255 220 0
0.526792 0.034390 0.057613 255 220 0
0.578134 0.108660 0.035629 255 220 0
0.588661 0.039907 0.066692 255 220 0
0.601841 0.085311 0.049203 255 220 0
0.592227 0.028161 0.045209 255 220 0
0.570745 0.123334 0.040706 255 220 0
0.600178 0.098538 0.053982 255 220 0
0.594489 0.125654 0.070445 255 220 0
0.561557 0.038464 0.076736 255 220 0
0.584183 0.137175 0.059542 255 220 0
0.533214 0.015414 0.047553 255 220 0
0.570385 0.041257 0.077269 255 220 0
0.602264 0.068738 0.043168 255 220 0
0.533043 0.099214 0.072804 255 220 0
0.544273 0.131042 0.081295 255 220 0
0.518918 0.071084 0.053749 255 220 0
0.585784 0.042617 0.007600 255 220 0
0.579427 0.062204 0.084900 255 220 0
0.533091 0.109717 0.036703 255 220 0
0.586530 0.077212 0.021583 255 220 0
0.528511 0.014065 -0.000406 255 220 0
0.594174 0.120317 0.086553 255 220 0
0.563741 0.072891 0.090864 255 220 0
0.559386 0.100630 0.094349 255 220 0
0.601696 0.051086 0.052274 255 220 0
0.540861 0.115794 0.035820 255 220 0
0.546500 0.005746 0.045425 255 220 0
0.579860 0.103381 0.033291 255 220 0
0.533945 0.008623 0.039911 255 220 0
0.539765 0.049160 -0.007542 255 220 0
0.587862 0.040521 0.010153 255 220 0
0.570150 0.005211 0.038561 255 220 0
0.572762 0.111220 0.033972 255 220 0
0.582366 0.026257 0.058869 255 220 0
0.563527 0.028466 0.069756 255 220 0
0.528085 0.004563 0.014330 255 220 0
0.582557 0.029824 0.003394 255 220 0
0.554732 0.004661 0.044781 255 220 0
0.587726 0.030232 0.010652 255 220 0
0.560057 0.105109 0.025491 255 220 0
0.576344 0.013161 0.002934 255 220 0
0.592810 0.041565 0.063196 255 220 0
0.577738 0.052742 0.002796 255 220 0
0.583033 0.037310 0.069228 255 220 0
0.513145 0.048619 0.015221 255 220 0
0.590293 0.026512 0.019525 255 220 0
0.540160 0.059480 0.079021 255 220 0
0.524892 0.041441 0.059165 255 220 0
0.574239 0.057822 0.002969 255 220 0
0.540557 0.054407 0.077855 255 220 0
0.571329 0.017099 -0.003502 255 220 0
0.524705 0.091110 0.059757 255 220 0
0.587801 0.064248 0.016597 255 220 0
0.516329 0.077953 0.043741 255 220 0
0.523988 0.093425 0.028662 255 220 0
0.532317 0.008002 0.036998 255 220 0
0.579340 0.114505 0.040372 255 220 0
0.580974 0.066686 0.086193 255 220 0
0.565028 0.088192 0.015383 255 220 0
0.568672 0.051666 -0.002791 255 220 0
0.602684 0.053926 0.052086 255 220 0
0.572021 0.120375 0.039464 255 220 0
0.577919 0.149898 0.087804 255 220 0
0.554548 0.056852 0.084414 255 220 0
0.554601 0.012775 0.055607 255 220 0
0.537669 0.066303 0.078603 255 220 0
0.565709 0.127650 0.095222 255 220 0
0.530603 0.002152 0.012092 255 220 0
0.603355 0.057746 0.057611 255 220 0
0.517459 0.024041 0.025944 255 220 0
0.548630 0.156483 0.070344 255 220 0
0.546157 0.080908 0.086449 255 220 0
0.557465 0.070818 0.089208 255 220 0
0.520270 0.029017 0.002050 255 220 0
0.583718 0.021630 0.050870 255 220 0
0.541356 0.049823 -0.007620 255 220 0
0.547785 0.099160 0.088583 255 220 0
0.604383 0.065200 0.049715 255 220 0
0.539753 0.093052 0.016505 255 220 0
0.516278 0.036211 0.040368 255 220 0
0.523361 0.013602 0.007700 255 220 0
0.567303 -0.000212 0.008712 255 220 0
0.583593 0.015696 0.012613 255 220 0
0.556082 0.123860 0.037707 255 220 0
0.604880 0.088520 0.066822 255 220 0
0.546692 0.147250 0.077159 255 220 0
0.520018 0.033341 0.001692 255 220 0
0.534556 0.019877 0.053685 255 220 0
0.590283 0.085891 0.030360 255 220 0
0.534725 0.001367 0.028404 255 220 0
0.561862 0.025930 0.067880 255 220 0
0.528261 0.074804 0.069045 255 220 0
0.514895 0.031659 0.015461 255 220 0
0.537260 0.129584 0.061106 255 220 0
0.572831 0.138758 0.050716 255 220 0
0.546848 0.132016 0.045345 255 220 0
0.582692 0.041891 0.072824 255 220 0
0.583899 0.018556 0.044769 255 220 0
0.540091 0.015419 0.053877 255 220 0
0.569520 0.136890 0.047935 255 220 0
0.543576 0.007213 -0.006062 255 220 0
0.594694 0.106732 0.087733 255 220 0
0.579384 0.108434 0.095579 255 220 0
0.572060 0.056954 0.001336 255 220 0
0.571001 0.121408 0.096386 255 220 0
0.562258 0.054054 0.084174 255 220 0
0.598198 0.049463 0.029271 255 220 0
0.562479 0.074977 0.006287 255 220 0
0.568371 0.163573 0.069433 255 220 0
0.569658 0.068626 0.005794 255 220 0
0.586040 0.097109 0.033754 255 220 0
0.562705 -0.004114 0.021572 255 220 0
0.566677 0.107811 0.029069 255 220 0
0.547447 0.114868 0.032203 255 220 0
0.559455 0.160159 0.079281 255 220 0
0.581313 0.015214 0.042663 255 220 0
0.548075 0.120343 0.036381 255 220 0
0.553154 0.046607 0.080134 255 220 0
0.554920 0.049321 -0.007790 255 220 0
0.575542 0.046607 -0.000950 255 220 0
0.575158 0.016559 0.052514 255 220 0
0.518057 0.054452 0.052332 255 220 0
0.563165 0.107394 0.027771 255 220 0
0.560795 -0.004069 0.025025 255 220 0
0.592523 0.028630 0.025606 255 220 0
0.543430 -0.002110 0.030230 255 220 0
0.560241 0.049955 -0.006543 255 220 0
0.561192 0.009428 0.050327 255 220 0
0.578757 0.065962 0.086659 255 220 0
0.546762 0.116447 0.086902 255 220 0
0.583494 0.016243 0.011531 255 220 0
0.532243 0.099569 0.025456 255 220 0
0.577443 0.123728 0.044798 255 220 0
0.598623 0.057536 0.069721 255 220 0
0.559785 0.059303 0.086031 255 220 0
0.577842 0.026026 0.062249 255 220 0
0.514589 0.072678 0.029144 255 220 0
0.566820 0.048805 0.081696 255 220 0
0.528495 0.060136 0.068711 255 220 0
0.582397 0.076680 0.017955 255 220 0
0.582356 0.094641 0.029150 255 220 0
0.584145 0.013721 0.024823 255 220 0
0.576917 0.004944 0.021329 255 220 0
0.518370 0.020342 0.021344 255 220 0
0.535251 0.123675 0.055759 255 220 0
0.601837 0.068104 0.041817 255 220 0
0.573808 0.002166 0.017958 255 220 0
0.535648 0.032298 0.064941 255 220 0
0.556210 0.000049 -0.000322 255 220 0
0.596114 0.043789 0.025155 255 220 0
0.514444 0.051212 0.011853 255 220 0
0.534641 0.012255 0.045351 255 220 0
0.571593 0.013767 0.051255 255 220 0
0.524783 0.076847 0.063653 255 220 0
0.535760 0.116372 0.041887 255 220 0
0.556041 0.139550 0.089623 255 220 0
0.546419 0.089241 0.087317 255 220 0
0.553596 0.097023 0.018818 255 220 0
0.596329 0.075867 0.081719 255 220 0
0.556332 0.024579 -0.010799 255 220 0
0.594168 0.037802 0.022339 255 220 0
0.561016 0.164029 0.066512 255 220 0
0.569971 0.128192 0.095608 255 220 0
0.551401 0.092051 0.090438 255 220 0
0.553669 0.105704 0.092110 255 220 0
0.539729 0.132897 0.055696 255 220 0
0.513562 0.069017 0.030755 255 220 0
0.572019 0.161916 0.072312 255 220 0
0.551064 0.076705 0.004986 255 220 0
0.555270 -0.005544 0.009512 255 220 0
0.527208 0.073337 0.067670 255 220 0
0.587780 0.112577 0.046195 255 220 0
0.524655 0.054352 0.000477 255 220 0
0.554101 0.094468 0.091908 255 220 0
0.599773 0.052914 0.033086 255 220 0
0.566454 0.122465 0.038577 255 220 0
0.593400 0.112226 0.052275 255 220 0
0.528499 0.094237 0.023373 255 220 0
0.539484 0.084097 0.010202 255 220 0
0.560680 0.063756 -0.000404 255 220 0
0.583722 0.111569 0.094379 255 220 0
0.577094 0.006334 0.029202 255 220 0
0.547956 0.053994 -0.006668 255 220 0
0.598361 0.040481 0.048512 255 220 0
0.585156 0.111814 0.043312 255 220 0
0.578604 0.033833 0.069186 255 220 0
0.564261 -0.003520 0.015134 255 220 0
0.598547 0.083825 0.082160 255 220 0
0.582470 0.151411 0.078278 255 220 0
0.525166 0.054294 0.063593 255 220 0
0.539731 0.136071 0.062485 255 220 0
0.595258 0.089587 0.038762 255 220 0
0.591743 0.036160 0.059088 255 220 0
0.548729 0.143509 0.082112 255 220 0
0.540099 0.020685 0.059133 255 220 0
0.603509 0.084331 0.053602 255 220 0
0.595354 0.061889 0.076116 255 220 0
0.595154 0.060648 0.025505 255 220 0
0.568864 0.138093 0.048262 255 220 0
0.535967 0.068983 0.077540 255 220 0
0.553752 0.057404 0.084430 255 220 0
0.567873 0.162881 0.064576 255 220 0
0.564945 0.043754 -0.007138 255 220 0
0.591565 0.034872 0.017172 255 220 0
0.599211 0.058465 0.032597 255 220 0
0.536082 0.081822 0.009493 255 220 0
0.532628 0.067017 0.074133 255 220 0
0.596505 0.054389 0.026215 255 220 0
0.542005 0.101086 0.083798 255 220 0
0.520357 0.062027 0.057129 255 220 0
0.597561 0.082421 0.082703 255 220 0
0.514640 0.050221 0.043279 255 220 0
0.539002 0.133568 0.067029 255 220 0
0.573781 0.080506 0.014762 255 220 0
0.517101 0.025854 0.028165 255 220 0
0.605116 0.079150 0.057028 255 220 0
0.563654 0.077934 0.008456 255 220 0
0.536247 0.009541 0.043589 255 220 0
0.539939 -0.002835 0.025562 255 220 0
0.572807 0.095403 0.095556 255 220 0
0.517828 0.037775 0.004731 255 220 0
0.569984 0.087507 0.094527 255 220 0
0.513503 0.066406 0.025852 255 220 0
0.592730 0.027115 0.036413 255 220 0
0.589521 0.021934 0.029505 255 220 0
0.551919 0.043386 -0.009710 255 220 0
0.517696 0.026649 0.032689 255 220 0
0.589634 0.034616 0.060394 255 220 0
0.530030 0.034134 0.061120 255 220 0
0.582192 0.038346 0.003008 255 220 0
0.519678 0.050485 0.003692 255 220 0
0.521208 0.014925 0.022255 255 220 0
0.583609 0.013008 0.025492 255 220 0
0.588852 0.098610 0.090935 255 220 0
0.513155 0.055123 0.016929 255 220 0
0.529405 0.091730 0.020271 255 220 0
0.582076 0.137221 0.057276 255 220 0
0.523865 0.073099 0.010469 255 220 0
0.519446 0.080358 0.022199 255 220 0
0.587786 0.020002 0.036244 255 220 0
0.545930 -0.005818 0.009800 255 220 0
0.563695 0.141843 0.091842 255 220 0
0.574162 0.077891 0.091844 255 220 0
0.596286 0.086385 0.038508 255 220 0
0.541487 0.111453 0.082126 255 220 0
0.573645 0.071737 0.090041 255 220 0
0.566592 0.095799 0.020912 255 220 0
0.527718 0.106477 0.052227 255 220 0
0.553131 0.017186 -0.009879 255 220 0
0.588819 0.021990 0.039329 255 220 0
0.581420 0.054571 0.006322 255 220 0
0.513280 0.062392 0.038796 255 220 0
0.599411 0.065189 0.035072 255 220 0
0.550742 0.109264 0.027522 255 220 0
0.556675 0.028999 -0.010979 255 220 0
0.518554 0.040278 0.049047 255 220 0
0.568819 0.050698 0.082323 255 220 0
0.540885 0.068405 0.000354 255 220 0
0.527105 0.072242 0.067566 255 220 0
0.573487 0.064259 0.087311 255 220 0
0.595889 0.065843 0.077756 255 220 0
0.586519 0.017790 0.020649 255 220 0
0.590128 0.024956 0.021292 255 220 0
0.590769 0.038363 0.062819 255 220 0
0.544961 -0.006197 0.019647 255 220 0
0.514232 0.045485 0.039995 255 220 0
0.539985 -0.004742 0.018900 255 220 0
0.570904 0.090579 0.019356 255 220 0
0.545378 0.126336 0.042162 255 220 0
0.567189 0.151383 0.088540 255 220 0
0.529863 0.068617 0.071174 255 220 0
0.569698 0.097403 0.023220 255 220 0
0.531565 0.078210 0.008821 255 220 0
0.517772 0.071982 0.051081 255 220 0
0.543721 0.146584 0.064055 255 220 0
0.552421 0.130584 0.042052 255 220 0
0.602320 0.053259 0.053437 255 220 0
0.583318 0.014848 0.013225 255 220 0
0.598060 0.038710 0.035108 255 220 0
0.592725 0.116497 0.054803 255 220 0
0.566443 0.116082 0.096253 255 220 0
0.519538 0.018114 0.022387 255 220 0
0.519497 0.043357 0.052222 255 220 0
0.603615 0.090648 0.058820 255 220 0
0.567322 0.134191 0.094331 255 220 0
0.531344 0.050833 0.069565 255 220 0
0.586293 0.085149 0.026025 255 220 0
0.563963 0.129524 0.094621 255 220 0
0.599278 0.054858 0.032019 255 220 0
0.568393 0.099347 0.023954 255 220 0
0.544379 0.100566 0.021388 255 220 0
0.529180 0.089389 0.018413 255 220 0
0.586790 0.105781 0.092670 255 220 0
0.574506 0.116233 0.096572 255 220 0
0.518948 0.087889 0.042522 255 220 0
0.566327 0.163436 0.064937 255 220 0
0.525851 0.046254 0.062274 255 220 0
0.574229 0.089532 0.020468 255 220 0
0.550304 0.079919 0.006957 255 220 0
0.547323 0.137838 0.082823 255 220 0
0.528361 0.005832 0.025468 255 220 0
0.537133 0.007106 0.041172 255 220 0
0.533766 0.019837 -0.006906 255 220 0
0.550313 0.109177 0.027468 255 220 0
0.537307 0.110968 0.033469 255 220 0
0.569347 -0.000248 0.012714 255 220 0
0.594799 0.034463 0.050422 255 220 0
0.547379 0.151647 0.074853 255 220 0
0.514705 0.032154 0.025407 255 220 0
0.546337 -0.003799 0.028040 255 220 0
0.537593 0.061250 0.077605 255 220 0
0.517811 0.069698 0.051555 255 220 0
0.570732 0.118106 0.096594 255 220 0
0.560985 0.153608 0.086093 255 220 0
0.534927 -0.001133 0.009791 255 220 0
0.591993 0.128467 0.065136 255 220 0
0.514700 0.033700 0.014239 255 220 0
0.556876 0.023730 0.066224 255 220 0
0.543306 0.144199 0.061027 255 220 0
0.539872 0.084302 0.010270 255 220 0
0.582634 0.116749 0.044480 255 220 0
0.582388 0.115578 0.094973 255 220 0
0.563615 0.039476 0.077213 255 220 0
0.549604 0.002125 -0.003348 255 220 0
0.527109 0.059641 0.066966 255 220 0
0.581578 0.145962 0.061962 255 220 0
0.586912 0.022496 0.046845 255 220 0
0.520115 0.042997 0.053118 255 220 0
0.538984 0.090488 0.081236 255 220 0
0.576044 0.134978 0.050726 255 220 0
0.548173 0.095204 0.017194 255 220 0
0.551441 0.060103 0.084641 255 220 0
0.555808 0.142314 0.088617 255 220 0
0.532326 0.102232 0.028186 255 220 0
0.543956 0.141858 0.056463 255 220 0
0.528781 0.104962 0.061497 255 220 0
0.527110 0.099450 0.060882 255 220 0
0.532761 0.107260 0.033787 255 220 0
0.564296 0.013089 0.054118 255 220 0
0.569659 0.062722 0.002787 255 220 0
0.602633 0.054533 0.043989 255 220 0
0.535899 0.105343 0.075841 255 220 0
0.590378 0.075085 0.024584 255 220 0
0.512761 0.041570 0.026669 255 220 0
0.574426 0.015693 -0.000501 255 220 0
0.567242 0.080850 0.011632 255 220 0
0.595794 0.043455 0.060057 255 220 0
0.605120 0.073655 0.054494 255 220 0
0.520132 0.056390 0.004955 255 220 0
0.601256 0.047862 0.042277 255 220 0
0.590332 0.136157 0.081998 255 220 0
0.541022 0.139749 0.064961 255 220 0
0.590160 0.029707 0.016178 255 220 0
0.563433 0.047674 0.081435 255 220 0
0.550936 0.047921 0.080185 255 220 0
0.527304 0.013966 0.038287 255 220 0
0.602464 0.064684 0.042576 255 220 0
0.534241 0.103091 0.027508 255 220 0
0.521600 0.067373 0.059173 255 220 0
0.574509 0.157003 0.062068 255 220 0
0.593088 0.122852 0.061368 255 220 0
0.566491 -0.002492 0.021636 255 220 0
0.558089 0.077293 0.006458 255 220 0
0.527456 0.007152 0.026246 255 220 0
0.558673 0.129639 0.041166 255 220 0
0.563809 0.107073 0.027709 255 220 0
0.573796 0.136716 0.093766 255 220 0
0.594804 0.048117 0.066706 255 220 0
0.563138 0.037923 -0.008965 255 220 0
0.542448 0.118187 0.037089 255 220 0
0.558395 0.126017 0.093320 255 220 0
0.578977 0.029894 0.065456 255 220 0
0.571565 0.001421 0.027105 255 220 0
0.545433 0.033468 0.070733 255 220 0
0.588731 0.020834 0.026237 255 220 0
0.553595 0.087524 0.091040 255 220 0
0.541899 -0.005692 0.015426 255 220 0
0.536558 0.127640 0.063293 255 220 0
0.600847 0.075430 0.042165 255 220 0
0.549410 0.052154 0.081402 255 220 0
0.549605 0.075870 0.004375 255 220 0
0.517722 0.073660 0.019309 255 220 0
0.605781 0.075510 0.063659 255 220 0
0.552155 0.016829 -0.009886 255 220 0
0.598063 0.071573 0.034738 255 220 0
0.522027 0.064637 0.007001 255 220 0
0.530122 0.012191 -0.000745 255 220 0
0.562623 0.078876 0.092290 255 220 0
0.599953 0.070541 0.038213 255 220 0
0.559571 0.067874 0.001413 255 220 0
0.538236 0.001384 0.032819 255 220 0
0.597648 0.080943 0.082251 255 220 0
0.601674 0.056894 0.063170 255 220 0
0.567001 0.146292 0.051453 255 220 0
0.544390 0.148632 0.066493 255 220 0
0.558408 0.018676 0.061651 255 220 0
0.571403 0.097133 0.023834 255 220 0
0.585014 0.092901 0.030017 255 220 0
0.593277 0.040623 0.061512 255 220 0
0.520421 0.074684 0.056179 255 220 0
0.588755 0.020908 0.033558 255 220 0
0.584894 0.033978 0.005992 255 220 0
0.531206 0.045432 -0.005832 255 220 0
0.591503 0.055947 0.075712 255 220 0
0.571832 0.144291 0.091497 255 220 0
0.542397 0.133125 0.050665 255 220 0
0.521004 0.038231 0.052205 255 220 0
0.567640 0.062651 0.087425 255 220 0
0.525458 0.010910 0.006962 255 220 0
0.574357 0.029340 0.067472 255 220 0
0.515986 0.079333 0.034586 255 220 0
0.527971 0.026365 0.052729 255 220 0
0.563510 0.091183 0.016839 255 220 0
0.538459 0.132588 0.061203 255 220 0
0.582864 0.130161 0.093608 255 220 0
0.544172 0.035073 -0.010854 255 220 0
0.589839 0.026867 0.017503 255 220 0
0.541577 0.055237 -0.005839 255 220 0
0.518690 0.087325 0.036802 255 220 0
0.512414 0.053240 0.034573 255 220 0
0.512132 0.059194 0.028507 255 220 0
0.591233 0.066874 0.021972 255 220 0
0.604845 0.088539 0.068152 255 220 0
0.588483 0.131741 0.090034 255 220 0
0.593147 0.116039 0.055061 255 220 0
0.577633 0.005962 0.016734 255 220 0
0.574090 0.151532 0.087955 255 220 0
0.584944 0.027205 0.057350 255 220 0
0.573760 0.046511 0.079288 255 220 0
0.552115 0.017828 0.060793 255 220 0
0.528927 0.039832 0.063114 255 220 0
0.567889 0.073241 0.007432 255 220 0
0.552398 0.081665 0.089760 255 220 0
0.576141 0.007535 0.008388 255 220 0
0.568750 0.069362 0.005722 255 220 0
0.568505 0.031138 0.070960 255 220 0
0.554712 0.131146 0.090785 255 220 0
0.549605 -0.006918 0.017523 255 220 0
0.538887 0.124329 0.074836 255 220 0
0.583227 0.062960 0.083767 255 220 0
0.554628 0.070324 0.001675 255 220 0
0.576202 0.010137 0.040710 255 220 0
0.592704 0.035393 0.056526 255 220 0
0.586084 0.112160 0.044366 255 220 0
0.514762 0.068971 0.043030 255 220 0
0.553832 0.123353 0.037452 255 220 0
0.560987 0.160280 0.079654 255 220 0
0.575772 0.147491 0.057104 255 220 0
0.539447 0.015195 -0.008080 255 220 0
0.542174 0.018252 0.058128 255 220 0
0.587780 0.019680 0.034458 255 220 0
0.557484 0.008475 0.049929 255 220 0
0.545553 0.124498 0.084520 255 220 0
0.526953 0.083469 0.066144 255 220 0
0.533827 -0.001273 0.014945 255 220 0
0.588570 0.034781 0.011326 255 220 0
0.561892 0.151978 0.087346 255 220 0
0.573318 0.156008 0.059843 255 220 0
0.582162 0.109429 0.039200 255 220 0
0.546043 0.045728 0.077534 255 220 0
0.593626 0.122241 0.061959 255 220 0
0.569311 -0.001084 0.019482 255 220 0
0.522188 0.036217 0.052753 255 220 0
0.563593 0.028269 -0.009481 255 220 0
0.564320 0.036665 -0.008808 255 220 0
0.566073 0.045530 0.080207 255 220 0
0.515087 0.029879 0.018363 255 220 0
0.519901 0.023556 0.035842 255 220 0
0.577073 0.064801 0.086693 255 220 0
0.522852 0.044992 0.057946 255 220 0
0.536064 0.026569 0.061245 255 220 0
0.602219 0.094236 0.056600 255 220 0
0.567424 0.038659 0.076295 255 220 0
0.542201 0.015006 -0.008866 255 220 0
0.545329 0.074997 0.085156 255 220 0
0.589063 0.136824 0.085498 255 220 0
0.558841 0.054169 -0.005292 255 220 0
0.528130 0.091319 0.020943 255 220 0
0.579883 0.107461 0.036103 255 220 0
0.590317 0.137247 0.077179 255 220 0
0.529063 0.043186 -0.005237 255 220 0
0.593582 0.033505 0.023366 255 220 0
0.593951 0.031748 0.047791 255 220 0
0.600505 0.100555 0.056858 255 220 0
0.535058 0.070425 0.002772 255 220 0
0.518361 0.072804 0.052266 255 220 0
0.596814 0.094152 0.085287 255 220 0
0.589692 0.096710 0.090266 255 220 0
0.550409 0.015189 -0.009586 255 220 0
0.555612 -0.001775 0.033462 255 220 0
0.542014 0.008259 0.046722 255 220 0
0.525155 0.018394 0.000397 255 220 0
0.531564 0.112140 0.063929 255 220 0
0.523515 0.079349 0.015325 255 220 0
0.555199 0.133337 0.090649 255 220 0
0.582460 0.133942 0.092878 255 220 0
0.571929 0.161460 0.074957 255 220 0
0.512621 0.063138 0.028557 255 220 0
0.544618 0.144404 0.074964 255 220 0
0.582155 0.118153 0.095020 255 220 0
0.574266 0.077930 0.091837 255 220 0
0.595323 0.040668 0.024131 255 220 0
0.518811 0.087695 0.041572 255 220 0
0.588725 0.022198 0.020300 255 220 0
0.542488 0.021463 -0.010288 255 220 0
0.549040 -0.005738 0.023942 255 220 0
0.593594 0.125953 0.084410 255 220 0
0.532483 0.060748 0.073078 255 220 0
0.558525 0.147881 0.050816 255 220 0
0.512587 0.052496 0.018234 255 220 0
0.565795 0.158802 0.082137 255 220 0
0.552868 0.113289 0.030483 255 220 0
0.528643 0.049894 0.066577 255 220 0
0.515939 0.039347 0.041941 255 220 0
0.583738 0.126956 0.052261 255 220 0
0.599465 0.044431 0.050757 255 220 0
0.533414 0.000313 0.023192 255 220 0
0.536786 0.051266 -0.006266 255 220 0
0.598083 0.059762 0.030584 255 220 0
0.565971 0.023789 -0.008175 255 220 0
0.535081 0.029693 -0.008990 255 220 0
0.594031 0.106581 0.048743 255 220 0
0.517867 0.037193 0.004697 255 220 0
0.523641 0.067835 0.062537 255 220 0
0.595146 0.057013 0.073351 255 220 0
0.540795 0.002766 -0.001879 255 220 0
0.518611 0.063623 0.010233 255 220 0
0.515002 0.031728 0.014583 255 220 0
0.560305 0.119258 0.094595 255 220 0
0.563796 0.058512 -0.001876 255 220 0
0.545105 0.081662 0.007968 255 220 0
0.530083 0.060885 0.070623 255 220 0
0.535839 0.023866 0.058738 255 220 0
0.593693 0.082120 0.032413 255 220 0
0.603195 0.062525 0.044641 255 220 0
0.569105 0.143254 0.091936 255 220 0
0.530987 0.001443 0.019174 255 220 0
0.516006 0.040623 0.043064 255 220 0
0.531961 0.029991 0.060196 255 220 0
0.530194 0.030829 -0.006835 255 220 0
0.547206 0.042909 0.076698 255 220 0
0.587009 0.087547 0.028167 255 220 0
0.589532 0.119734 0.053154 255 220 0
0.587502 0.057856 0.013768 255 220 0
0.590423 0.024438 0.024270 255 220 0
0.527350 0.006166 0.011281 255 220 0
0.589211 0.021427 0.030173 255 220 0
0.589374 0.071983 0.084582 255 220 0
0.535387 0.038679 0.068213 255 220 0
0.540901 0.099836 0.021492 255 220 0
0.546577 0.101500 0.021853 255 220 0
0.547106 0.050776 0.080027 255 220 0
0.603571 0.080227 0.051454 255 220 0
0.513934 0.043300 0.037300 255 220 0
0.543983 0.128554 0.081644 255 220 0
0.556880 0.014919 -0.008648 255 220 0
0.554175 -0.000103 -0.000761 255 220 0
0.535348 0.088654 0.077292 255 220 0
0.569923 0.162533 0.066166 255 220 0
0.577075 0.096303 0.094973 255 220 0
0.520972 0.040474 0.053334 255 220 0
0.538458 0.063046 -0.001947 255 220 0
0.541055 0.079190 0.006718 255 220 0
0.578471 0.055741 0.004569 255 220 0
0.570962 0.013117 0.050751 255 220 0
0.595333 0.097593 0.043961 255 220 0
0.566818 -0.000920 0.028233 255 220 0
0.531428 0.074247 0.006389 255 220 0
0.570691 0.144929 0.052514 255 220 0
0.571314 0.160500 0.063016 255 220 0
0.530830 0.095431 0.070025 255 220 0
0.545116 0.003403 0.041154 255 220 0
0.548116 0.010599 0.052378 255 220 0
0.574202 0.007296 0.005831 255 220 0
0.571459 0.048457 0.080825 255 220 0
0.524602 0.027206 -0.002490 255 220 0
0.529592 0.056997 0.069385 255 220 0
0.602100 0.093416 0.078303 255 220 0
0.561424 0.045179 0.080303 255 220 0
0.514769 0.041219 0.039223 255 220 0
0.599910 0.109064 0.076987 255 220 0
0.598018 0.069530 0.033845 255 220 0
0.540598 0.135935 0.070999 255 220 0
0.567600 0.122603 0.096050 255 220 0
0.535151 0.003674 0.033556 255 220 0
0.546370 0.126332 0.041546 255 220 0
0.586326 0.142250 0.085380 255 220 0
0.581483 0.027871 0.061514 255 220 0
0.551967 0.065826 0.086368 255 220 0
0.557771 0.155257 0.055195 255 220 0
0.524621 0.051233 -0.000480 255 220 0
0.593579 0.077620 0.084166 255 220 0
0.533315 0.118543 0.062792 255 220 0
0.573796 0.127150 0.044567 255 220 0
0.597746 0.059670 0.029887 255 220 0
0.524625 0.073258 0.063787 255 220 0
0.535705 0.051116 -0.006009 255 220 0
0.563258 -0.004026 0.020543 255 220 0
0.562212 0.147981 0.089303 255 220 0
0.512535 0.044258 0.028992 255 220 0
0.575713 0.115058 0.038174 255 220 0
0.567361 0.114781 0.034004 255 220 0
0.561198 0.122184 0.037167 255 220 0
0.600808 0.093820 0.080691 255 220 0
0.577795 0.115483 0.039845 255 220 0
0.540011 0.107344 0.028196 255 220 0
0.592113 0.070957 0.024909 255 220 0
0.579051 0.036048 -0.000261 255 220 0
0.523622 0.035452 -0.002333 255 220 0
0.591435 0.130619 0.086023 255 220 0
0.550756 0.148588 0.053797 255 220 0
0.583060 0.041131 0.004255 255 220 0
0.558187 0.068857 0.088824 255 220 0
0.539927 0.023902 0.061787 255 220 0
0.536587 0.117265 0.041777 255 220 0
0.520857 0.068540 0.057785 255 220 0
0.573614 0.003159 0.028206 255 220 0
0.541231 0.090098 0.083374 255 220 0
0.595562 0.038273 0.054193 255 220 0
0.544592 0.144786 0.058236 255 220 0
0.579438 0.017641 0.003602 255 220 0
0.548912 0.110048 0.028206 255 220 0
0.576504 0.034437 0.070735 255 220 0
0.543902 -0.005678 0.010817 255 220 0
0.598718 0.113411 0.068557 255 220 0
0.559525 0.159994 0.058753 255 220 0
0.558870 0.110901 0.029322 255 220 0
0.575022 0.028616 0.066495 255 220 0
0.513144 0.064469 0.025454 255 220 0
0.575487 0.157260 0.063738 255 220 0
0.595701 0.032431 0.038797 255 220 0
0.527251 0.105192 0.045121 255 220 0
0.604519 0.069890 0.067445 255 220 0
0.586452 0.088064 0.028013 255 220 0
0.565317 0.099307 0.022817 255 220 0
0.600579 0.074820 0.077303 255 220 0
0.604819 0.062934 0.055335 255 220 0
0.522421 0.094149 0.050250 255 220 0
0.557328 0.096593 0.019036 255 220 0
0.543075 0.141628 0.058163 255 220 0
0.517302 0.033057 0.040453 255 220 0
0.561925 0.159254 0.057710 255 220 0
0.582802 0.016596 0.009539 255 220 0
0.548397 -0.000144 0.036126 255 220 0
0.536772 0.052284 0.074581 255 220 0
0.555204 0.060193 -0.003396 255 220 0
0.533992 0.113270 0.040511 255 220 0
0.594413 0.105556 0.087967 255 220 0
0.539034 0.096711 0.019521 255 220 0
0.535241 0.023743 0.058095 255 220 0
0.536465 0.013525 0.048720 255 220 0
0.532847 0.047662 0.069883 255 220 0
0.585293 0.020547 0.046161 255 220 0
0.532927 0.115749 0.047437 255 220 0
0.519013 0.088102 0.036775 255 220 0
0.555611 0.079525 0.007331 255 220 0
0.583099 0.020554 0.006894 255 220 0
0.540330 0.009771 0.047514 255 220 0
0.599111 0.053372 0.064970 255 220 0
0.538613 0.011988 -0.006559 255 220 0
0.525056 0.020433 0.042961 255 220 0
0.548576 0.155396 0.063050 255 220 0
0.548850 0.154359 0.075012 255 220 0
0.558491 0.002479 0.040670 255 220 0
0.545854 0.147443 0.058492 255 220 0
0.554412 0.008929 0.050883 255 220 0
0.534646 0.070799 0.003119 255 220 0
0.583593 0.074333 0.017509 255 220 0
0.533621 0.039219 0.067137 255 220 0
0.520344 0.085099 0.052429 255 220 0
0.564410 0.003894 0.040608 255 220 0
0.541689 0.011772 0.050904 255 220 0
0.524153 0.042787 0.058818 255 220 0
0.564551 0.010674 0.050805 255 220 0
0.597764 0.111722 0.082660 255 220 0
0.580380 0.125767 0.048411 255 220 0
0.594857 0.070297 0.080615 255 220 0
0.555717 0.102108 0.022652 255 220 0
0.546420 0.151431 0.072572 255 220 0
0.545196 0.060819 -0.003810 255 220 0
0.529853 0.072454 0.006075 255 220 0
0.558178 0.106222 0.094079 255 220 0
0.590715 0.133171 0.067542 255 220 0
0.599243 0.042823 0.035305 255 220 0
0.570613 0.097446 0.095929 255 220 0
0.537117 0.117167 0.074454 255 220 0
0.515071 0.073295 0.041832 255 220 0
0.529413 0.109214 0.058463 255 220 0
0.519356 0.087393 0.046653 255 220 0
0.596174 0.120221 0.067908 255 220 0
0.560903 0.089703 0.093828 255 220 0
0.524551 0.067487 0.063938 255 220 0
0.576448 0.045612 0.077980 255 220 0
0.536168 0.108458 0.031689 255 220 0
0.586558 0.059039 0.013112 255 220 0
0.540005 0.019140 -0.009272 255 220 0
0.524087 0.037053 -0.002668 255 220 0
0.592573 0.035012 0.019535 255 220 0
0.599091 0.109641 0.080048 255 220 0
0.572489 0.035981 0.073388 255 220 0
0.575871 0.097818 0.095413 255 220 0
0.584999 0.094747 0.092159 255 220 0
0.522628 0.026792 0.045920 255 220 0
0.598827 0.076733 0.038400 255 220 0
0.523356 0.011552 0.011857 255 220 0
0.526194 0.009036 0.027135 255 220 0
0.595481 0.124162 0.076030 255 220 0
0.546894 0.137169 0.048939 255 220 0
0.523655 0.094000 0.030218 255 220 0
0.602836 0.096706 0.074961 255 220 0
0.602194 0.073085 0.074359 255 220 0
0.530120 0.057352 -0.001604 255 220 0
0.563664 0.065613 0.001542 255 220 0
0.535536 0.066414 0.076828 255 220 0
0.567025 0.101308 0.024752 255 220 0
0.535441 -0.001430 0.009533 255 220 0
0.596708 0.077475 0.081977 255 220 0
0.541219 0.109185 0.082134 255 220 0
0.604578 0.072074 0.051563 255 220 0
0.528103 0.033379 0.058500 255 220 0
0.536440 0.127454 0.062362 255 220 0
0.588527 0.101433 0.091395 255 220 0
0.589151 0.078489 0.024927 255 220 0
0.529280 0.034846 -0.006332 255 220 0
0.544236 0.036944 -0.010663 255 220 0
0.531184 0.114220 0.058088 255 220 0
0.603674 0.057709 0.049948 255 220 0
0.530863 0.004830 0.005692 255 220 0
0.585419 0.056675 0.079845 255 220 0
0.543387 0.087767 0.085096 255 220 0
0.598476 0.110749 0.062284 255 220 0
0.561174 0.131383 0.093592 255 220 0
0.590103 0.127735 0.089771 255 220 0
0.596031 0.035513 0.048307 255 220 0
0.591955 0.110426 0.090028 255 220 0
0.604360 0.086427 0.058509 255 220 0
0.538218 0.132078 0.064030 255 220 0
0.550214 0.122134 0.037141 255 220 0
0.533015 0.109046 0.035872 255 220 0
0.585894 0.133328 0.091525 255 220 0
0.529326 0.106168 0.038360 255 220 0
0.579264 0.023879 0.000887 255 220 0
0.546377 0.149422 0.059622 255 220 0
0.596291 0.054817 0.025901 255 220 0
0.584694 0.146369 0.083136 255 220 0
0.517576 0.031856 0.039965 255 220 0
0.603454 0.096368 0.071068 255 220 0
0.544073 0.009288 -0.007198 255 220 0
0.582040 0.080668 0.090475 255 220 0
0.598128 0.049322 0.029116 255 220 0
0.534287 0.026308 0.059484 255 220 0
0.568180 0.029564 0.069798 255 220 0
0.518197 0.066365 0.012613 255 220 0
0.580007 0.121312 0.095457 255 220 0
0.549467 0.000527 -0.001912 255 220 0
0.552704 0.124837 0.090541 255 220 0
0.548293 0.127195 0.041217 255 220 0
0.574661 0.033020 0.070436 255 220 0
0.551105 0.073323 0.002952 255 220 0
0.515226 0.052584 0.045519 255 220 0
0.519201 0.063748 0.054976 255 220 0
0.518600 0.020336 0.012444 255 220 0
0.601877 0.099128 0.060527 255 220 0
0.526965 0.028501 -0.004624 255 220 0
0.559129 0.161317 0.077426 255 220 0
0.579467 0.007636 0.021795 255 220 0
0.528648 0.041589 0.063615 255 220 0
0.538772 0.029412 0.065121 255 220 0
0.528452 0.014254 0.040386 255 220 0
0.515625 0.066580 0.017917 255 220 0
0.535355 0.006281 -0.001130 255 220 0
0.557133 0.096247 0.093275 255 220 0
0.558105 0.152382 0.085557 255 220 0
0.599499 0.046353 0.033626 255 220 0
0.591615 0.025435 0.030367 255 220 0
0.543512 0.090429 0.085288 255 220 0
0.551544 0.025202 -0.011280 255 220 0
0.546540 0.016871 -0.009972 255 220 0
0.556791 0.145331 0.088090 255 220 0
0.604880 0.086086 0.070192 255 220 0
0.549337 0.044930 -0.009446 255 220 0
0.566097 0.136946 0.046592 255 220 0
0.514251 0.071123 0.028609 255 220 0
0.532007 0.080504 0.073647 255 220 0
0.541669 0.028922 0.066276 255 220 0
0.531192 0.030821 0.060039 255 220 0
0.591102 0.068392 0.082196 255 220 0
0.597844 0.114288 0.080816 255 220 0
0.600231 0.043877 0.042387 255 220 0
0.592942 0.035800 0.020104 255 220 0
0.545263 0.047767 -0.008624 255 220 0
0.527653 0.007944 0.028640 255 220 0
0.601498 0.078865 0.045134 255 220 0
0.545022 0.033740 -0.011059 255 220 0
0.590281 0.135822 0.070267 255 220 0
0.563154 0.008714 0.048661 255 220 0
0.598414 0.098069 0.049533 255 220 0
0.575951 0.150214 0.058594 255 220 0
0.583187 0.149093 0.067206 255 220 0
0.522871 0.083328 0.019382 255 220 0
0.581980 0.039712 0.071724 255 220 0
0.573842 0.004153 0.030808 255 220 0
0.538092 0.049139 0.074455 255 220 0
0.560890 0.149516 0.088225 255 220 0
0.544574 0.005267 0.043907 255 220 0
0.512860 0.054404 0.037369 255 220 0
0.596381 0.067074 0.029900 255 220 0
0.559335 0.146918 0.088714 255 220 0
0.568927 0.038569 0.075978 255 220 0
0.527378 0.005493 0.013979 255 220 0
0.571109 0.002178 0.030497 255 220 0
0.591013 0.066772 0.021634 255 220 0
0.600558 0.096740 0.080921 255 220 0
0.545437 -0.002699 0.003001 255 220 0
0.550292 0.053217 -0.006871 255 220 0
0.548994 0.157027 0.066027 255 220 0
0.537458 -0.001097 0.026761 255 220 0
0.599820 0.054413 0.033280 255 220 0
0.586901 0.144475 0.076960 255 220 0
0.593080 0.129504 0.081531 255 220 0
0.532432 0.009265 0.038982 255 220 0
0.591567 0.125193 0.060620 255 220 0
0.565707 0.002968 0.002033 255 220 0
0.568558 0.033696 0.072838 255 220 0
0.558426 0.112372 0.094170 255 220 0
0.601262 0.065389 0.039471 255 220 0
0.586421 0.043355 0.008522 255 220 0
0.562567 0.062598 0.087390 255 220 0
0.523634 0.075642 0.061890 255 220 0
0.594008 0.101182 0.088085 255 220 0
0.569779 0.015652 0.054945 255 220 0
0.582162 0.152218 0.070220 255 220 0
0.519108 0.068181 0.054523 255 220 0
0.513683 0.047255 0.013436 255 220 0
0.541965 0.083052 0.083777 255 220 0
0.565890 0.120761 0.095948 255 220 0
0.558987 0.026419 0.068435 255 220 0
0.580420 0.036816 0.001077 255 220 0
0.573726 0.090498 0.020782 255 220 0
0.582485 0.148614 0.065243 255 220 0
0.561095 0.120521 0.094780 255 220 0
0.582913 0.012443 0.017948 255 220 0
0.600588 0.101754 0.058453 255 220 0
0.568589 0.078865 0.092669 255 220 0
0.540085 0.137213 0.064480 255 220 0
0.540664 0.129660 0.049874 255 220 0
0.527698 0.085577 0.016422 255 220 0
0.603826 0.093655 0.072074 255 220 0
0.512451 0.056057 0.035140 255 220 0
0.534268 0.109840 0.035241 255 220 0
0.583095 0.132160 0.093117 255 220 0
0.584596 0.147620 0.068945 255 220 0
0.553650 -0.001925 0.033389 255 220 0
0.584674 0.140453 0.062365 255 220 0
0.529222 0.039543 0.063278 255 220 0
0.530081 0.003878 0.008886 255 220 0
0.513853 0.070764 0.034770 255 220 0
0.543222 0.131111 0.047833 255 220 0
0.542234 0.142654 0.068330 255 220 0
0.556920 0.158228 0.057776 255 220 0
0.547185 -0.005201 0.024925 255 220 0
0.587056 0.080451 0.088437 255 220 0
0.593965 0.054626 0.021809 255 220 0
0.553865 -0.005981 0.010257 255 220 0
0.580309 0.081282 0.019268 255 220 0
0.567305 0.010474 0.049199 255 220 0
0.560673 0.092808 0.094135 255 220 0
0.558772 0.079452 0.091601 255 220 0
0.590610 0.134089 0.068527 255 220 0
0.599713 0.050364 0.059468 255 220 0
0.560622 0.011067 -0.006168 255 220 0
0.564940 0.115105 0.096008 255 220 0
0.522070 0.090432 0.053421 255 220 0
0.526069 0.051034 0.063979 255 220 0
0.570037 0.079349 0.012021 255 220 0
0.516397 0.070162 0.047993 255 220 0
0.512225 0.047931 0.020295 255 220 0
0.540227 0.107957 0.028653 255 220 0
0.525586 0.052123 0.063655 255 220 0
0.516469 0.032975 0.037328 255 220 0
0.592790 0.049504 0.018815 255 220 0
0.546283 0.104419 0.024116 255 220 0
0.518124 0.027461 0.035789 255 220 0
0.547157 0.006952 0.047380 255 220 0
0.556402 0.081891 0.091335 255 220 0
0.535124 0.020681 0.055045 255 220 0
0.518613 0.037584 0.047609 255 220 0
0.588658 0.025752 0.014969 255 220 0
0.554525 0.049768 -0.007694 255 220 0
0.574066 0.024819 -0.003804 255 220 0
0.552977 0.056007 0.083784 255 220 0
0.574612 0.156792 0.061966 255 220 0
0.550925 0.026126 -0.011363 255 220 0
0.589899 0.118394 0.091445 255 220 0
0.536700 0.126359 0.054902 255 220 0
0.599012 0.053741 0.031273 255 220 0
0.581843 0.042226 0.073543 255 220 0
0.556166 0.024467 0.066790 255 220 0
0.546744 0.019228 0.060942 255 220 0
0.588153 0.023229 0.045496 255 220 0
0.547444 0.079426 0.006508 255 220 0
0.593053 0.130341 0.073852 255 220 0
0.545086 0.098506 0.019726 255 220 0
0.567775 0.002754 0.036097 255 220 0
0.579726 0.062698 0.008675 255 220 0
0.581278 0.042654 0.074132 255 220 0
0.547308 0.007705 0.048465 255 220 0
0.583737 0.030287 0.062178 255 220 0
0.605569 0.074748 0.057725 255 220 0
0.575098 0.049029 -0.000386 255 220 0
0.537130 0.105855 0.077485 255 220 0
0.547564 0.032271 0.070712 255 220 0
0.531512 0.081450 0.072958 255 220 0
0.541638 0.004966 -0.004062 255 220 0
0.537379 0.058532 -0.003731 255 220 0
0.531684 0.103021 0.029709 255 220 0
0.529795 0.038162 0.063179 255 220 0
0.515648 0.037843 0.039699 255 220 0
0.575002 0.071812 0.089794 255 220 0
0.585148 0.016990 0.015557 255 220 0
0.536091 0.048303 0.072713 255 220 0
0.535454 0.053844 0.074047 255 220 0
0.586993 0.018292 0.022303 255 220 0
0.546229 0.102575 0.087412 255 220 0
0.588914 0.021319 0.035191 255 220 0
0.592169 0.121066 0.089163 255 220 0
0.536476 0.034758 -0.009352 255 220 0
0.587472 0.062234 0.081441 255 220 0
0.576613 0.038278 0.073470 255 220 0
0.523881 0.010800 0.023094 255 220 0
0.574014 0.157948 0.062566 255 220 0
0.533787 0.110128 0.070847 255 220 0
0.519509 0.049407 0.054116 255 220 0
0.520062 0.028854 0.002396 255 220 0
0.564460 0.019046 0.060986 255 220 0
0.577164 0.078760 0.091433 255 220 0
0.538476 0.001323 0.001124 255 220 0
0.545188 0.122163 0.038975 255 220 0
0.598559 0.057945 0.031060 255 220 0
0.518629 0.051638 0.005147 255 220 0
0.525504 0.009809 0.008615 255 220 0
0.574213 0.154371 0.059465 255 220 0
0.601665 0.076448 0.076512 255 220 0
0.516237 0.026565 0.023681 255 220 0
0.554264 0.050160 -0.007597 255 220 0
0.566828 0.031088 -0.008376 255 220 0
0.576958 0.116009 0.039595 255 220 0
0.604072 0.093390 0.066141 255 220 0
0.593150 0.090634 0.036543 255 220 0
0.594935 0.068439 0.028016 255 220 0
0.572011 0.158173 0.060601 255 220 0
0.587746 0.099372 0.036792 255 220 0
0.569653 0.152174 0.055093 255 220 0
0.603041 0.096177 0.062494 255 220 0
0.595965 0.055631 0.025479 255 220 0
0.590236 0.131391 0.064183 255 220 0
0.595365 0.091873 0.040305 255 220 0
0.561539 0.153306 0.053666 255 220 0
