ply
format ascii 1.0
element vertex 1024
property float x
property float y
property float z
property uchar red
property uchar green
property uchar blue
end_header
0.608000 0.067594 0.164373 255 220 0
0.568143 0.059693 0.109538 255 220 0
0.656356 0.048534 0.122350 255 220 0
0.617218 0.012090 0.129188 255 220 0
0.645509 0.074325 0.100251 255 220 0
0.595308 0.065290 0.076071 255 220 0
0.615470 0.057757 0.161765 255 220 0
0.607107 0.139822 0.170513 255 220 0
0.652150 0.081045 0.154212 255 220 0
0.629825 0.058378 0.077961 255 220 0
0.615267 0.012934 0.130532 255 220 0
0.636119 0.013754 0.080268 255 220 0
0.615785 0.072135 0.079984 255 220 0
0.620005 0.051388 0.158941 255 220 0
0.648256 0.041434 0.137134 255 220 0
0.570107 0.084458 0.119464 255 220 0
0.592505 0.014667 0.075570 255 220 0
0.615226 0.099587 0.172945 255 220 0
0.572401 0.086905 0.129989 255 220 0
0.616117 0.034994 0.150096 255 220 0
0.621940 0.027966 0.144133 255 220 0
0.622247 0.054181 0.159860 255 220 0
0.569849 0.047565 0.097764 255 220 0
0.610362 0.007195 0.072176 255 220 0
0.597154 0.068985 0.077496 255 220 0
0.600048 0.063504 0.074444 255 220 0
0.617278 0.143511 0.129707 255 220 0
0.654426 0.050756 0.105408 255 220 0
0.622027 0.019908 0.069155 255 220 0
0.596336 0.157108 0.131425 255 220 0
0.657526 0.057301 0.124466 255 220 0
0.623118 0.151158 0.163681 255 220 0
0.652773 0.098068 0.135025 255 220 0
0.597596 0.160774 0.133675 255 220 0
0.594182 0.082449 0.161952 255 220 0
0.636125 0.006036 0.103818 255 220 0
0.620999 0.108479 0.106477 255 220 0
0.597419 0.036653 0.146631 255 220 0
0.622987 0.149476 0.165561 255 220 0
0.652646 0.100398 0.138722 255 220 0
0.591849 0.109553 0.104984 255 220 0
0.633589 0.138231 0.161513 255 220 0
0.655172 0.052070 0.107763 255 220 0
0.651910 0.048501 0.098420 255 220 0
0.587977 0.142722 0.157574 255 220 0
0.624396 0.099054 0.101090 255 220 0
0.614374 0.032337 0.148185 255 220 0
0.656490 0.048807 0.115571 255 220 0
0.593979 0.059374 0.155620 255 220 0
0.606058 0.003971 0.075607 255 220 0
0.653063 0.078507 0.116392 255 220 0
0.621924 0.129536 0.172672 255 220 0
0.606000 0.047281 0.156058 255 220 0
0.590289 0.077398 0.157853 255 220 0
0.607324 0.038098 0.151160 255 220 0
0.569544 0.077101 0.121735 255 220 0
0.650598 0.030438 0.113549 255 220 0
0.599090 0.003666 0.110208 255 220 0
0.595702 0.083034 0.085727 255 220 0
0.589233 0.050503 0.072950 255 220 0
0.650723 0.097109 0.127148 255 220 0
0.591882 0.009575 0.112232 255 220 0
0.599961 0.141947 0.167836 255 220 0
0.633064 0.028765 0.140281 255 220 0
0.644744 0.017000 0.094762 255 220 0
0.621449 0.155370 0.159216 255 220 0
0.585915 0.032617 0.134310 255 220 0
0.625117 0.114176 0.113173 255 220 0
0.645608 0.048389 0.145651 255 220 0
0.651794 0.095196 0.127991 255 220 0
0.651923 0.037211 0.124500 255 220 0
0.615207 0.127465 0.117741 255 220 0
0.647777 0.108006 0.132502 255 220 0
0.637032 0.133945 0.148323 255 220 0
0.618735 0.042561 0.154678 255 220 0
0.625408 0.143505 0.136863 255 220 0
0.595782 0.014882 0.124790 255 220 0
0.626952 0.046782 0.155503 255 220 0
0.655190 0.078871 0.122228 255 220 0
0.580755 0.097710 0.148744 255 220 0
0.586222 0.131031 0.157173 255 220 0
0.572246 0.067464 0.129594 255 220 0
0.644690 0.050074 0.086459 255 220 0
0.632095 0.069004 0.163155 255 220 0
0.580511 0.107763 0.112516 255 220 0
0.639149 0.084433 0.099934 255 220 0
0.593290 0.012357 0.076713 255 220 0
0.636958 0.128769 0.164487 255 220 0
0.614633 0.076995 0.168355 255 220 0
0.605618 0.103658 0.171252 255 220 0
0.657183 0.061448 0.131572 255 220 0
0.587200 0.115036 0.111838 255 220 0
0.610557 0.007531 0.123316 255 220 0
0.627784 0.109236 0.110982 255 220 0
0.597930 0.008239 0.117285 255 220 0
0.598866 0.048769 0.069479 255 220 0
0.646982 0.048373 0.089120 255 220 0
0.634225 0.010862 0.117365 255 220 0
0.619467 0.115795 0.111273 255 220 0
0.641973 0.033817 0.137802 255 220 0
0.622608 0.032968 0.147930 255 220 0
0.593850 0.003044 0.091565 255 220 0
0.643792 0.036887 0.082327 255 220 0
0.618874 0.007819 0.123002 255 220 0
0.648528 0.038208 0.089770 255 220 0
0.608296 0.107590 0.102409 255 220 0
0.640442 0.019421 0.081883 255 220 0
0.649562 0.050681 0.142291 255 220 0
0.635281 0.058684 0.081199 255 220 0
0.640390 0.044917 0.148011 255 220 0
0.571812 0.044021 0.091219 255 220 0
0.651318 0.035042 0.098789 255 220 0
0.594085 0.059760 0.155828 255 220 0
0.582815 0.039269 0.135681 255 220 0
0.630987 0.063115 0.081161 255 220 0
0.595361 0.054813 0.154756 255 220 0
0.635107 0.022418 0.075202 255 220 0
0.574400 0.088224 0.135513 255 220 0
0.642743 0.071817 0.095196 255 220 0
0.568960 0.073723 0.119391 255 220 0
0.574555 0.090119 0.104382 255 220 0
0.596545 0.007333 0.114322 255 220 0
0.625149 0.120180 0.117868 255 220 0
0.632828 0.073691 0.164438 255 220 0
0.616394 0.091645 0.092755 255 220 0
0.626748 0.056072 0.075288 255 220 0
0.657695 0.064410 0.131379 255 220 0
0.617004 0.124748 0.116594 255 220 0
0.616002 0.155257 0.164671 255 220 0
0.608482 0.059599 0.161804 255 220 0
0.616971 0.015893 0.133691 255 220 0
0.590520 0.066072 0.155213 255 220 0
0.607350 0.131358 0.171955 255 220 0
0.596819 0.001065 0.089460 255 220 0
0.657504 0.068337 0.136867 255 220 0
0.579695 0.020591 0.102469 255 220 0
0.586750 0.156747 0.146011 255 220 0
0.596156 0.081949 0.163153 255 220 0
0.608858 0.073896 0.166493 255 220 0
0.582600 0.025758 0.078626 255 220 0
0.644390 0.029409 0.129931 255 220 0
0.600327 0.049686 0.069452 255 220 0
0.594660 0.100236 0.165071 255 220 0
0.657601 0.075789 0.128903 255 220 0
0.590639 0.092259 0.092841 255 220 0
0.575943 0.032521 0.116652 255 220 0
0.587966 0.011117 0.084623 255 220 0
0.633511 0.004786 0.087515 255 220 0
0.646779 0.023206 0.091791 255 220 0
0.600790 0.125529 0.114179 255 220 0
0.653553 0.099016 0.145662 255 220 0
0.586093 0.147379 0.152887 255 220 0
0.581651 0.029977 0.078194 255 220 0
0.596121 0.019558 0.130900 255 220 0
0.641062 0.093690 0.108715 255 220 0
0.600358 0.001114 0.105927 255 220 0
0.621461 0.030175 0.146030 255 220 0
0.580227 0.072813 0.145176 255 220 0
0.576329 0.027588 0.091783 255 220 0
0.580360 0.128256 0.136756 255 220 0
0.614313 0.143108 0.127589 255 220 0
0.590038 0.132107 0.121336 255 220 0
0.639153 0.049409 0.151521 255 220 0
0.645321 0.026355 0.123889 255 220 0
0.602305 0.016081 0.131370 255 220 0
0.611471 0.140693 0.124712 255 220 0
0.609493 0.008048 0.071738 255 220 0
0.639669 0.115468 0.165892 255 220 0
0.623986 0.114678 0.173123 255 220 0
0.629047 0.061884 0.079460 255 220 0
0.613549 0.126090 0.173414 255 220 0
0.616552 0.058115 0.161900 255 220 0
0.654924 0.059069 0.108479 255 220 0
0.616429 0.078112 0.083770 255 220 0
0.605069 0.167002 0.145745 255 220 0
0.624573 0.073034 0.083646 255 220 0
0.634891 0.104079 0.111774 255 220 0
0.629110 0.000287 0.100249 255 220 0
0.614229 0.111383 0.106195 255 220 0
0.593988 0.115183 0.108487 255 220 0
0.596452 0.162242 0.155297 255 220 0
0.643409 0.022613 0.121737 255 220 0
0.593535 0.120722 0.112603 255 220 0
0.608972 0.049227 0.157630 255 220 0
0.613783 0.051437 0.069806 255 220 0
0.634280 0.052237 0.077465 255 220 0
0.636727 0.023004 0.131325 255 220 0
0.574203 0.050908 0.128397 255 220 0
0.610889 0.110379 0.104771 255 220 0
0.627082 0.000044 0.103626 255 220 0
0.652921 0.037553 0.104918 255 220 0
0.609437 -0.000856 0.108136 255 220 0
0.618872 0.052954 0.071244 255 220 0
0.624230 0.013639 0.128717 255 220 0
0.630744 0.072614 0.164830 255 220 0
0.590863 0.117099 0.163091 255 220 0
0.646635 0.023719 0.090698 255 220 0
0.581803 0.097518 0.101400 255 220 0
0.621579 0.129000 0.122079 255 220 0
0.652390 0.067450 0.148789 255 220 0
0.613173 0.062898 0.163582 255 220 0
0.637418 0.032869 0.141010 255 220 0
0.568702 0.068107 0.104820 255 220 0
0.622014 0.053674 0.159677 255 220 0
0.582894 0.058385 0.145073 255 220 0
0.635309 0.083193 0.096159 255 220 0
0.631853 0.100995 0.107071 255 220 0
0.647160 0.021455 0.104042 255 220 0
0.641628 0.011572 0.100409 255 220 0
0.581388 0.017055 0.097964 255 220 0
0.579571 0.122051 0.131427 255 220 0
0.654928 0.078163 0.120871 255 220 0
0.639158 0.008289 0.096965 255 220 0
0.594694 0.032085 0.142000 255 220 0
0.622898 0.003126 0.078063 255 220 0
0.653973 0.053092 0.104374 255 220 0
0.572798 0.046764 0.087863 255 220 0
0.597798 0.011984 0.122692 255 220 0
0.633726 0.019649 0.129974 255 220 0
0.576678 0.074205 0.139625 255 220 0
0.581834 0.114813 0.117697 255 220 0
0.596080 0.141443 0.165812 255 220 0
0.595003 0.090217 0.163905 255 220 0
0.603532 0.098489 0.095618 255 220 0
0.646621 0.085251 0.160413 255 220 0
0.619384 0.027246 0.067228 255 220 0
0.653157 0.046842 0.101577 255 220 0
0.597863 0.166208 0.142539 255 220 0
0.611444 0.132603 0.172494 255 220 0
0.599323 0.093841 0.167169 255 220 0
0.599236 0.107695 0.168720 255 220 0
0.582463 0.131886 0.131394 255 220 0
0.568230 0.064340 0.106446 255 220 0
0.608823 0.165997 0.148785 255 220 0
0.604948 0.077913 0.082009 255 220 0
0.622502 -0.002459 0.087938 255 220 0
0.579486 0.071180 0.143784 255 220 0
0.633552 0.119728 0.124037 255 220 0
0.582797 0.051454 0.076838 255 220 0
0.601526 0.096684 0.168705 255 220 0
0.655753 0.062766 0.112299 255 220 0
0.611207 0.125879 0.115465 255 220 0
0.638905 0.120366 0.130331 255 220 0
0.579078 0.091621 0.099257 255 220 0
0.592106 0.083328 0.086669 255 220 0
0.616779 0.066690 0.077186 255 220 0
0.627791 0.118478 0.172041 255 220 0
0.641257 0.013040 0.108261 255 220 0
0.606104 0.054901 0.070591 255 220 0
0.655800 0.050405 0.127847 255 220 0
0.631208 0.118516 0.121068 255 220 0
0.636602 0.040753 0.147853 255 220 0
0.630803 0.001075 0.093867 255 220 0
0.647474 0.093470 0.160817 255 220 0
0.620618 0.157421 0.155303 255 220 0
0.580784 0.052027 0.139922 255 220 0
0.581668 0.135075 0.138130 255 220 0
0.645017 0.098231 0.117243 255 220 0
0.649569 0.045138 0.138228 255 220 0
0.588521 0.144070 0.157969 255 220 0
0.601231 0.021320 0.136542 255 220 0
0.653423 0.094544 0.132464 255 220 0
0.648194 0.071256 0.154989 255 220 0
0.650227 0.069562 0.104431 255 220 0
0.610612 0.141774 0.124996 255 220 0
0.588443 0.068423 0.154045 255 220 0
0.607606 0.060011 0.161782 255 220 0
0.604887 0.166195 0.140883 255 220 0
0.624556 0.047614 0.070923 255 220 0
0.651284 0.043477 0.096360 255 220 0
0.654303 0.068143 0.111705 255 220 0
0.589157 0.080516 0.085865 255 220 0
0.585614 0.065901 0.150544 255 220 0
0.652565 0.063620 0.105288 255 220 0
0.588837 0.101136 0.160041 255 220 0
0.575026 0.058800 0.133163 255 220 0
0.646712 0.091927 0.161343 255 220 0
0.571897 0.046091 0.119286 255 220 0
0.581182 0.132526 0.142680 255 220 0
0.626314 0.085510 0.092583 255 220 0
0.578954 0.022339 0.104647 255 220 0
0.655725 0.089731 0.136027 255 220 0
0.617012 0.081241 0.085937 255 220 0
0.599899 0.009558 0.121034 255 220 0
0.606304 -0.002190 0.103350 255 220 0
0.619659 0.100738 0.173047 255 220 0
0.578639 0.034013 0.081080 255 220 0
0.618223 0.092475 0.172031 255 220 0
0.568800 0.061713 0.101585 255 220 0
0.652944 0.036187 0.115746 255 220 0
0.650914 0.030486 0.108800 255 220 0
0.611884 0.045071 0.067863 255 220 0
0.579228 0.023261 0.109178 255 220 0
0.647693 0.043278 0.139476 255 220 0
0.589007 0.032931 0.137941 255 220 0
0.642040 0.045227 0.081799 255 220 0
0.578403 0.046844 0.079919 255 220 0
0.585043 0.012192 0.099064 255 220 0
0.646723 0.020669 0.104701 255 220 0
0.635125 0.106519 0.168992 255 220 0
0.570679 0.050452 0.092827 255 220 0
0.580509 0.089272 0.096230 255 220 0
0.623415 0.143181 0.134518 255 220 0
0.578521 0.069897 0.086507 255 220 0
0.572497 0.076424 0.097950 255 220 0
0.649254 0.028351 0.115498 255 220 0
0.613332 -0.004275 0.087874 255 220 0
0.603155 0.144991 0.168286 255 220 0
0.624037 0.083661 0.169655 255 220 0
0.646570 0.095243 0.117076 255 220 0
0.586681 0.111259 0.158194 255 220 0
0.624616 0.077491 0.167927 255 220 0
0.616457 0.099453 0.098224 255 220 0
0.575131 0.103812 0.127871 255 220 0
0.617414 0.019433 0.068137 255 220 0
0.649820 0.030510 0.118588 255 220 0
0.638466 0.061127 0.084834 255 220 0
0.568726 0.057829 0.114571 255 220 0
0.653289 0.074829 0.114084 255 220 0
0.598348 0.110162 0.104021 255 220 0
0.618999 0.031660 0.066994 255 220 0
0.577167 0.036984 0.125348 255 220 0
0.623646 0.055877 0.160351 255 220 0
0.596474 0.068001 0.077120 255 220 0
0.579570 0.070082 0.143693 255 220 0
0.625806 0.070067 0.165306 255 220 0
0.648002 0.075258 0.156588 255 220 0
0.648995 0.025825 0.099900 255 220 0
0.651341 0.033496 0.100572 255 220 0
0.648095 0.047182 0.141885 255 220 0
0.612045 -0.004725 0.097682 255 220 0
0.572409 0.041325 0.116061 255 220 0
0.606932 -0.004120 0.096724 255 220 0
0.621631 0.095006 0.096912 255 220 0
0.589655 0.126235 0.118186 255 220 0
0.605154 0.154950 0.164975 255 220 0
0.582743 0.066996 0.147458 255 220 0
0.619160 0.101569 0.100623 255 220 0
0.585331 0.076199 0.085076 255 220 0
0.571076 0.068137 0.126871 255 220 0
0.583801 0.146117 0.139691 255 220 0
0.595898 0.131590 0.118279 255 220 0
0.657392 0.063704 0.132725 255 220 0
0.646623 0.022330 0.092406 255 220 0
0.656332 0.048493 0.114469 255 220 0
0.637433 0.124488 0.132767 255 220 0
0.609943 0.120081 0.173189 255 220 0
0.582866 0.015061 0.099084 255 220 0
0.577460 0.040204 0.128510 255 220 0
0.652275 0.100836 0.137586 255 220 0
0.607894 0.138068 0.171027 255 220 0
0.587204 0.049690 0.146176 255 220 0
0.637426 0.092260 0.104243 255 220 0
0.605343 0.132912 0.171260 255 220 0
0.654988 0.064592 0.111185 255 220 0
0.617523 0.103276 0.101278 255 220 0
0.593760 0.100477 0.097782 255 220 0
0.580749 0.086910 0.094401 255 220 0
0.631839 0.113264 0.170538 255 220 0
0.617851 0.121569 0.173811 255 220 0
0.569949 0.083944 0.118122 255 220 0
0.603258 0.166489 0.141177 255 220 0
0.582841 0.044201 0.138751 255 220 0
0.625036 0.094535 0.098165 255 220 0
0.603588 0.080973 0.083901 255 220 0
0.588044 0.138251 0.158712 255 220 0
0.593466 0.004437 0.102684 255 220 0
0.601271 0.007283 0.118690 255 220 0
0.597775 0.018864 0.070331 255 220 0
0.597941 0.110004 0.103952 255 220 0
0.584589 0.109668 0.109426 255 220 0
0.635370 0.005123 0.091592 255 220 0
0.653207 0.043897 0.129711 255 220 0
0.586136 0.151810 0.150543 255 220 0
0.575662 0.028130 0.101705 255 220 0
0.612670 -0.002059 0.106083 255 220 0
0.591319 0.061068 0.154289 255 220 0
0.571472 0.065895 0.127381 255 220 0
0.613821 0.122790 0.173662 255 220 0
0.598771 0.156095 0.162260 255 220 0
0.601715 -0.001479 0.087376 255 220 0
0.634320 0.136260 0.142882 255 220 0
0.575849 0.029559 0.090523 255 220 0
0.616978 0.027165 0.144220 255 220 0
0.583907 0.143670 0.136686 255 220 0
0.592451 0.083596 0.086748 255 220 0
0.627860 0.122974 0.122064 255 220 0
0.625791 0.122216 0.172524 255 220 0
0.620576 0.043904 0.155217 255 220 0
0.616166 0.004053 0.074757 255 220 0
0.581680 0.057652 0.143285 255 220 0
0.621292 0.151758 0.139049 255 220 0
0.647556 0.030758 0.126018 255 220 0
0.578092 0.039960 0.129434 255 220 0
0.587714 0.090162 0.157527 255 220 0
0.618104 0.139913 0.127779 255 220 0
0.598553 0.095782 0.093817 255 220 0
0.604874 0.062292 0.161864 255 220 0
0.595433 0.144121 0.164757 255 220 0
0.581336 0.100181 0.104090 255 220 0
0.585116 0.141430 0.132185 255 220 0
0.576058 0.102574 0.137197 255 220 0
0.575347 0.096856 0.136603 255 220 0
0.580709 0.105260 0.109627 255 220 0
0.626532 0.017797 0.132567 255 220 0
0.625671 0.067186 0.080731 255 220 0
0.657868 0.064931 0.123277 255 220 0
0.582435 0.104254 0.151795 255 220 0
0.643173 0.083000 0.103111 255 220 0
0.572140 0.037105 0.102750 255 220 0
0.638271 0.021570 0.078340 255 220 0
0.619938 0.084739 0.089202 255 220 0
0.652317 0.053012 0.139240 255 220 0
0.656739 0.084291 0.133579 255 220 0
0.577824 0.052753 0.081110 255 220 0
0.657683 0.058110 0.121615 255 220 0
0.630738 0.143714 0.159550 255 220 0
0.582233 0.138937 0.140597 255 220 0
0.650792 0.038141 0.095392 255 220 0
0.618873 0.051995 0.159305 255 220 0
0.606568 0.050156 0.157576 255 220 0
0.590568 0.012394 0.115329 255 220 0
0.656081 0.074901 0.121705 255 220 0
0.583108 0.101340 0.103473 255 220 0
0.575286 0.064296 0.135171 255 220 0
0.612497 0.161476 0.138718 255 220 0
0.636478 0.130871 0.139244 255 220 0
0.632570 0.002514 0.100432 255 220 0
0.611714 0.079670 0.083739 255 220 0
0.592325 0.005596 0.103408 255 220 0
0.602251 0.131687 0.117646 255 220 0
0.611580 0.110168 0.104738 255 220 0
0.613879 0.141626 0.170670 255 220 0
0.650304 0.057503 0.145774 255 220 0
0.623812 0.041548 0.069117 255 220 0
0.588317 0.117669 0.113129 255 220 0
0.600488 0.128520 0.169801 255 220 0
0.637769 0.036899 0.144199 255 220 0
0.636704 0.007261 0.106030 255 220 0
0.603911 0.034910 0.148142 255 220 0
0.650448 0.029242 0.105522 255 220 0
0.602210 0.089745 0.167923 255 220 0
0.609114 -0.004771 0.093340 255 220 0
0.579902 0.126242 0.138944 255 220 0
0.652728 0.085227 0.121070 255 220 0
0.604316 0.054088 0.158670 255 220 0
0.603672 0.076842 0.081355 255 220 0
0.572021 0.069509 0.095098 255 220 0
0.656717 0.086309 0.142733 255 220 0
0.616511 0.018919 0.068098 255 220 0
0.650919 0.080897 0.113602 255 220 0
0.578247 0.061218 0.083101 255 220 0
0.595201 0.010773 0.076464 255 220 0
0.612485 0.082724 0.169647 255 220 0
0.652813 0.080223 0.117162 255 220 0
0.614933 0.070583 0.078896 255 220 0
0.603639 0.001750 0.110472 255 220 0
0.647060 0.090480 0.160917 255 220 0
0.655766 0.067267 0.142370 255 220 0
0.607294 0.149578 0.127990 255 220 0
0.584023 0.148269 0.142121 255 220 0
0.619505 0.022395 0.139785 255 220 0
0.620861 0.101591 0.101306 255 220 0
0.634725 0.099727 0.108066 255 220 0
0.650245 0.049815 0.140641 255 220 0
0.573035 0.071284 0.132024 255 220 0
0.650167 0.029382 0.112837 255 220 0
0.645305 0.041392 0.084949 255 220 0
0.590979 0.043689 0.070919 255 220 0
0.645397 0.064755 0.154528 255 220 0
0.610782 0.148751 0.168213 255 220 0
0.585255 0.132509 0.126465 255 220 0
0.579793 0.035399 0.128628 255 220 0
0.620305 0.067513 0.165223 255 220 0
0.590507 0.008804 0.084006 255 220 0
0.633227 0.035605 0.146047 255 220 0
0.568761 0.074947 0.110210 255 220 0
0.588598 0.024856 0.129596 255 220 0
0.614346 0.094355 0.094106 255 220 0
0.581042 0.131418 0.136853 255 220 0
0.623905 0.136663 0.170957 255 220 0
0.605669 0.035579 0.066551 255 220 0
0.650892 0.035300 0.096746 255 220 0
0.599579 0.055077 0.071158 255 220 0
0.570016 0.083296 0.112406 255 220 0
0.569554 0.048624 0.110457 255 220 0
0.568534 0.054396 0.104295 255 220 0
0.645476 0.075021 0.100658 255 220 0
0.653462 0.099041 0.146989 255 220 0
0.629323 0.139122 0.167575 255 220 0
0.637914 0.124108 0.133047 255 220 0
0.642349 0.012655 0.095830 255 220 0
0.611953 0.156236 0.164651 255 220 0
0.644418 0.035166 0.136369 255 220 0
0.629328 0.052540 0.157570 255 220 0
0.613479 0.020508 0.138702 255 220 0
0.586899 0.038385 0.139805 255 220 0
0.622002 0.077306 0.085146 255 220 0
0.602049 0.083758 0.166688 255 220 0
0.640953 0.013887 0.087410 255 220 0
0.623560 0.073609 0.083529 255 220 0
0.627023 0.036438 0.149282 255 220 0
0.596112 0.132946 0.167050 255 220 0
0.616826 -0.004685 0.095748 255 220 0
0.582282 0.123462 0.150616 255 220 0
0.635760 0.070369 0.162156 255 220 0
0.609646 0.072182 0.078934 255 220 0
0.639290 0.016742 0.119669 255 220 0
0.650745 0.044520 0.135716 255 220 0
0.632022 0.119020 0.122152 255 220 0
0.568930 0.064599 0.118758 255 220 0
0.598668 0.124653 0.113846 255 220 0
0.597927 0.162619 0.155726 255 220 0
0.615513 0.152262 0.133951 255 220 0
0.604186 0.015218 0.069445 255 220 0
0.603719 0.019256 0.135654 255 220 0
0.649372 0.028017 0.113717 255 220 0
0.620750 0.012081 0.128192 255 220 0
0.588436 0.124818 0.160543 255 220 0
0.577622 0.081116 0.142096 255 220 0
0.600448 -0.001754 0.092486 255 220 0
0.648581 0.042840 0.090406 255 220 0
0.599883 0.154649 0.163571 255 220 0
0.611577 0.160278 0.136465 255 220 0
0.628816 0.115632 0.116882 255 220 0
0.602214 0.047161 0.154775 255 220 0
0.637084 0.130363 0.139863 255 220 0
0.635203 0.004351 0.098365 255 220 0
0.581270 0.033614 0.129251 255 220 0
0.625876 0.032100 0.068765 255 220 0
0.625179 0.040505 0.069338 255 220 0
0.621879 0.050308 0.158211 255 220 0
0.576696 0.025890 0.094716 255 220 0
0.581786 0.020603 0.112459 255 220 0
0.629275 0.071190 0.164817 255 220 0
0.580267 0.042422 0.134332 255 220 0
0.596199 0.026473 0.138410 255 220 0
0.650395 0.104124 0.135260 255 220 0
0.624502 0.043721 0.154457 255 220 0
0.606963 0.015480 0.068767 255 220 0
0.596369 0.075971 0.161920 255 220 0
0.629237 0.144191 0.162988 255 220 0
0.616747 0.056889 0.072378 255 220 0
0.579294 0.088662 0.096859 255 220 0
0.627019 0.113287 0.113730 255 220 0
0.630735 0.144744 0.154717 255 220 0
0.589215 0.041125 0.071465 255 220 0
0.653249 0.042516 0.102646 255 220 0
0.652925 0.041056 0.127091 255 220 0
0.647651 0.110074 0.135357 255 220 0
0.590300 0.069048 0.079284 255 220 0
0.571473 0.069055 0.128064 255 220 0
0.643934 0.103393 0.163719 255 220 0
0.636295 0.104778 0.168384 255 220 0
0.615050 0.017015 0.068357 255 220 0
0.621257 0.001520 0.111824 255 220 0
0.605669 0.009276 0.124403 255 220 0
0.589235 0.016077 0.077322 255 220 0
0.577517 0.110134 0.139625 255 220 0
0.576949 0.076044 0.091251 255 220 0
0.596236 0.135185 0.166900 255 220 0
0.622910 0.140319 0.170155 255 220 0
0.608703 0.165555 0.151432 255 220 0
0.568362 0.058367 0.104304 255 220 0
0.584607 0.144210 0.150658 255 220 0
0.625133 0.124717 0.172523 255 220 0
0.624133 0.083717 0.169651 255 220 0
0.653751 0.049875 0.103368 255 220 0
0.569884 0.083722 0.117171 255 220 0
0.650454 0.030535 0.099568 255 220 0
0.606236 0.021884 0.067259 255 220 0
0.615817 -0.003558 0.102121 255 220 0
0.635542 0.134212 0.162239 255 220 0
0.586548 0.059686 0.149579 255 220 0
0.598704 0.149734 0.127006 255 220 0
0.570501 0.047778 0.094150 255 220 0
0.602811 0.161980 0.158413 255 220 0
0.599659 0.114509 0.107000 255 220 0
0.584818 0.048290 0.143102 255 220 0
0.575028 0.035571 0.118163 255 220 0
0.626950 0.133290 0.129726 255 220 0
0.656145 0.054503 0.130072 255 220 0
0.599449 -0.000188 0.100686 255 220 0
0.595532 0.050363 0.070609 255 220 0
0.653057 0.069217 0.109631 255 220 0
0.628908 0.028087 0.070228 255 220 0
0.597525 0.028783 0.068150 255 220 0
0.640601 0.114873 0.126911 255 220 0
0.578775 0.033445 0.081056 255 220 0
0.577086 0.065119 0.138603 255 220 0
0.648905 0.066390 0.152292 255 220 0
0.607321 0.003238 0.075880 255 220 0
0.574919 0.059680 0.086215 255 220 0
0.576459 0.027666 0.090908 255 220 0
0.603436 0.122182 0.171250 255 220 0
0.620775 0.062023 0.075913 255 220 0
0.598137 0.081840 0.084687 255 220 0
0.584259 0.059403 0.147032 255 220 0
0.596524 0.023748 0.135937 255 220 0
0.644963 0.090554 0.110953 255 220 0
0.657076 0.072911 0.123829 255 220 0
0.608249 0.147280 0.168564 255 220 0
0.597032 0.000490 0.096562 255 220 0
0.574838 0.036850 0.119268 255 220 0
0.591632 0.029158 0.137154 255 220 0
0.592435 0.029113 0.070099 255 220 0
0.603860 0.044566 0.154026 255 220 0
0.637650 0.094761 0.106374 255 220 0
0.633817 0.127136 0.130949 255 220 0
0.643619 0.065439 0.092456 255 220 0
0.651598 0.033059 0.103566 255 220 0
0.592983 0.004476 0.088466 255 220 0
0.650665 0.029940 0.109464 255 220 0
0.640294 0.080292 0.163068 255 220 0
0.593251 0.038363 0.145163 255 220 0
0.590449 0.099182 0.097764 255 220 0
0.595753 0.101766 0.098316 255 220 0
0.602328 0.052336 0.157229 255 220 0
0.654249 0.090489 0.130383 255 220 0
0.572585 0.039098 0.113390 255 220 0
0.586334 0.128532 0.157548 255 220 0
0.621434 0.017829 0.069544 255 220 0
0.620934 0.002636 0.077549 255 220 0
0.584591 0.087717 0.153476 255 220 0
0.606901 0.166205 0.142555 255 220 0
0.623739 0.102328 0.172613 255 220 0
0.579345 0.037615 0.129721 255 220 0
0.595059 0.062294 0.074809 255 220 0
0.594604 0.078720 0.083321 255 220 0
0.635436 0.061778 0.082952 255 220 0
0.633232 0.018899 0.129456 255 220 0
0.643561 0.106184 0.122319 255 220 0
0.632369 0.004176 0.107012 255 220 0
0.585948 0.072247 0.082701 255 220 0
0.611113 0.148854 0.129211 255 220 0
0.608734 0.164404 0.139492 255 220 0
0.579311 0.093589 0.145941 255 220 0
0.609751 0.004954 0.119031 255 220 0
0.611069 0.012645 0.130251 255 220 0
0.639184 0.013308 0.084786 255 220 0
0.626677 0.054092 0.158989 255 220 0
0.587349 0.024650 0.074283 255 220 0
0.584467 0.055477 0.145836 255 220 0
0.649544 0.103483 0.156953 255 220 0
0.617351 0.049192 0.158135 255 220 0
0.573675 0.037200 0.115375 255 220 0
0.644853 0.118540 0.155318 255 220 0
0.651249 0.078868 0.112739 255 220 0
0.582204 0.135158 0.146672 255 220 0
0.610013 0.126702 0.172931 255 220 0
0.600191 0.003505 0.111057 255 220 0
0.590658 0.126390 0.117609 255 220 0
0.625647 0.149087 0.162684 255 220 0
0.640731 0.035286 0.140387 255 220 0
0.604378 0.068038 0.163523 255 220 0
0.596567 0.156921 0.131241 255 220 0
0.583317 0.048364 0.075928 255 220 0
0.643523 0.086545 0.162726 255 220 0
0.578230 0.116730 0.138458 255 220 0
0.617429 0.131767 0.121657 255 220 0
0.652768 0.069065 0.108923 255 220 0
0.577109 0.070641 0.139807 255 220 0
0.594481 0.050039 0.070827 255 220 0
0.629681 0.000456 0.099240 255 220 0
0.600781 0.150777 0.165599 255 220 0
0.571380 0.039738 0.105021 255 220 0
0.621572 0.120105 0.115526 255 220 0
0.613554 0.118413 0.111046 255 220 0
0.606131 0.124719 0.113859 255 220 0
0.648109 0.103688 0.159284 255 220 0
0.623486 0.120884 0.117268 255 220 0
0.588064 0.106496 0.104315 255 220 0
0.645551 0.079219 0.103564 255 220 0
0.639455 0.042412 0.078447 255 220 0
0.585015 0.032621 0.074278 255 220 0
0.632578 0.138470 0.163697 255 220 0
0.590812 0.149170 0.129678 255 220 0
0.642385 0.048128 0.083035 255 220 0
0.609908 0.072079 0.166167 255 220 0
0.600424 0.024487 0.139139 255 220 0
0.582506 0.115829 0.117604 255 220 0
0.574417 0.065312 0.133739 255 220 0
0.638393 0.009324 0.107182 255 220 0
0.589907 0.090168 0.159755 255 220 0
0.653179 0.047813 0.133450 255 220 0
0.585188 0.144438 0.133937 255 220 0
0.642724 0.024358 0.082601 255 220 0
0.596388 0.110638 0.104623 255 220 0
0.634369 0.041015 0.149311 255 220 0
0.611269 -0.004464 0.088811 255 220 0
0.643298 0.122556 0.146784 255 220 0
0.597371 0.161914 0.134792 255 220 0
0.606015 0.113138 0.106104 255 220 0
0.634041 0.034992 0.145107 255 220 0
0.568782 0.059739 0.101203 255 220 0
0.613352 0.161906 0.140421 255 220 0
0.654898 0.041942 0.118160 255 220 0
0.575167 0.102406 0.120773 255 220 0
0.656251 0.080590 0.146552 255 220 0
0.637021 0.095177 0.106191 255 220 0
0.614545 0.102718 0.100026 255 220 0
0.651159 0.084885 0.156178 255 220 0
0.658180 0.073676 0.134570 255 220 0
0.572028 0.090760 0.125881 255 220 0
0.607272 0.098685 0.095984 255 220 0
0.584218 0.141072 0.133855 255 220 0
0.577470 0.029582 0.116824 255 220 0
0.599900 0.161573 0.133851 255 220 0
0.645973 0.023935 0.088676 255 220 0
0.613772 0.001957 0.114186 255 220 0
0.592114 0.052063 0.151372 255 220 0
0.612091 0.062244 0.074042 255 220 0
0.580660 0.111449 0.116302 255 220 0
0.639577 0.114265 0.166133 255 220 0
0.589205 0.095774 0.095772 255 220 0
0.595981 0.023523 0.135275 255 220 0
0.599251 0.013568 0.126108 255 220 0
0.589197 0.046814 0.146599 255 220 0
0.646310 0.028562 0.125303 255 220 0
0.578924 0.113777 0.123143 255 220 0
0.570207 0.084115 0.112380 255 220 0
0.608868 0.081468 0.084483 255 220 0
0.645718 0.027866 0.085985 255 220 0
0.603727 0.010496 0.125107 255 220 0
0.653750 0.063384 0.144124 255 220 0
0.603834 0.011930 0.070981 255 220 0
0.587096 0.018440 0.119816 255 220 0
0.587168 0.155603 0.138737 255 220 0
0.587131 0.154729 0.150716 255 220 0
0.623103 0.006256 0.119071 255 220 0
0.585983 0.147269 0.134201 255 220 0
0.617609 0.012028 0.129022 255 220 0
0.589819 0.069352 0.079609 255 220 0
0.636894 0.081073 0.095795 255 220 0
0.591465 0.038594 0.144013 255 220 0
0.571389 0.081510 0.128117 255 220 0
0.628705 0.008631 0.119212 255 220 0
0.604600 0.012724 0.128516 255 220 0
0.581878 0.040471 0.135287 255 220 0
0.627315 0.015428 0.129303 255 220 0
0.642072 0.120855 0.160864 255 220 0
0.623991 0.131528 0.125770 255 220 0
0.646135 0.079505 0.159338 255 220 0
0.604628 0.103888 0.099452 255 220 0
0.585318 0.151418 0.148230 255 220 0
0.602142 0.061199 0.073238 255 220 0
0.584705 0.070215 0.082355 255 220 0
0.603515 0.108969 0.170851 255 220 0
0.632186 0.140708 0.145166 255 220 0
0.656810 0.052746 0.114649 255 220 0
0.617144 0.102391 0.173306 255 220 0
0.581738 0.116103 0.150276 255 220 0
0.568567 0.068904 0.117507 255 220 0
0.576100 0.106846 0.134126 255 220 0
0.570267 0.083558 0.122273 255 220 0
0.639692 0.128845 0.145935 255 220 0
0.608940 0.093129 0.170954 255 220 0
0.577984 0.064939 0.140043 255 220 0
0.632178 0.052088 0.156379 255 220 0
0.583952 0.106988 0.107642 255 220 0
0.642519 0.066444 0.091747 255 220 0
0.604132 0.019190 0.068215 255 220 0
0.585222 0.034274 0.073936 255 220 0
0.652159 0.043802 0.098757 255 220 0
0.643829 0.119000 0.158337 255 220 0
0.630052 0.041895 0.151785 255 220 0
0.622286 0.103625 0.172985 255 220 0
0.631918 0.102082 0.170127 255 220 0
0.583535 0.024333 0.122584 255 220 0
0.650673 0.086144 0.117212 255 220 0
0.588134 0.009131 0.088807 255 220 0
0.590735 0.007252 0.104219 255 220 0
0.638032 0.132686 0.153964 255 220 0
0.589087 0.137227 0.124850 255 220 0
0.574069 0.090644 0.105916 255 220 0
0.649860 0.106821 0.153592 255 220 0
0.653154 0.083416 0.153324 255 220 0
0.587770 0.055301 0.074922 255 220 0
0.619335 0.069033 0.079215 255 220 0
0.588471 0.065812 0.153356 255 220 0
0.615819 0.104991 0.101993 255 220 0
0.602281 -0.001689 0.087142 255 220 0
0.646719 0.086901 0.160660 255 220 0
0.586791 0.108978 0.158226 255 220 0
0.656583 0.082617 0.130654 255 220 0
0.587338 0.031845 0.135262 255 220 0
0.579854 0.126031 0.138012 255 220 0
0.634320 0.109253 0.169396 255 220 0
0.641387 0.086156 0.103356 255 220 0
0.590851 0.032926 0.070506 255 220 0
0.605415 0.037436 0.066716 255 220 0
0.577033 0.112072 0.133742 255 220 0
0.658131 0.068287 0.129223 255 220 0
0.596888 0.003693 0.083036 255 220 0
0.639116 0.064501 0.158416 255 220 0
0.592348 0.088242 0.161592 255 220 0
0.643750 0.119837 0.140547 255 220 0
0.602328 0.134274 0.170097 255 220 0
0.631592 0.135438 0.167435 255 220 0
0.654333 0.045118 0.127629 255 220 0
0.636267 0.118678 0.168024 255 220 0
0.653719 0.096794 0.137367 255 220 0
0.580775 0.130900 0.139676 255 220 0
0.595316 0.122849 0.113416 255 220 0
0.580581 0.107082 0.111693 255 220 0
0.626450 0.140270 0.168943 255 220 0
0.577321 0.103653 0.114082 255 220 0
0.641630 0.030457 0.079787 255 220 0
0.586126 0.149317 0.135320 255 220 0
0.652296 0.064004 0.104959 255 220 0
0.623449 0.152859 0.160317 255 220 0
0.577957 0.028438 0.116365 255 220 0
0.650680 0.106556 0.149731 255 220 0
0.609686 0.010167 0.070591 255 220 0
0.631397 0.087693 0.168545 255 220 0
0.654885 0.058917 0.108325 255 220 0
0.594562 0.025905 0.136587 255 220 0
0.627010 0.034822 0.148132 255 220 0
0.573962 0.062336 0.088536 255 220 0
0.622477 0.127480 0.172829 255 220 0
0.616237 0.002467 0.076210 255 220 0
0.595186 0.126388 0.166826 255 220 0
0.592423 0.127557 0.117339 255 220 0
0.632800 0.039310 0.148964 255 220 0
0.605628 0.074567 0.080030 255 220 0
0.571994 0.048537 0.121511 255 220 0
0.573688 0.060288 0.130942 255 220 0
0.581972 0.017010 0.089080 255 220 0
0.649092 0.108925 0.139097 255 220 0
0.589549 0.026300 0.072221 255 220 0
0.596014 0.163315 0.153413 255 220 0
0.643677 0.014653 0.100931 255 220 0
0.586313 0.040076 0.140268 255 220 0
0.598242 0.029758 0.142343 255 220 0
0.591568 0.012887 0.117466 255 220 0
0.571180 0.062167 0.093735 255 220 0
0.601349 0.005809 0.076368 255 220 0
0.604165 0.098952 0.170159 255 220 0
0.596156 0.154404 0.161634 255 220 0
0.656547 0.056256 0.112927 255 220 0
0.652364 0.034293 0.109689 255 220 0
0.592024 0.090889 0.161749 255 220 0
0.614582 0.027063 0.066555 255 220 0
0.610975 0.018029 0.067799 255 220 0
0.595925 0.147255 0.164222 255 220 0
0.653820 0.096646 0.149066 255 220 0
0.609074 0.046167 0.068006 255 220 0
0.608142 0.140169 0.123240 255 220 0
0.568647 0.066512 0.104296 255 220 0
0.582792 0.079095 0.149831 255 220 0
0.601132 0.029766 0.143614 255 220 0
0.590743 0.029848 0.136956 255 220 0
0.642686 0.077017 0.160804 255 220 0
0.641801 0.123382 0.158986 255 220 0
0.657326 0.054010 0.121747 255 220 0
0.652370 0.044646 0.099327 255 220 0
0.604558 0.048298 0.068629 255 220 0
0.592293 0.006430 0.105794 255 220 0
0.652684 0.088747 0.124009 255 220 0
0.606735 0.034404 0.066399 255 220 0
0.631212 0.143274 0.147831 255 220 0
0.626349 0.013246 0.127138 255 220 0
0.646295 0.107212 0.127997 255 220 0
0.615179 0.154990 0.135405 255 220 0
0.622151 0.155159 0.144302 255 220 0
0.575494 0.079897 0.095221 255 220 0
0.638855 0.047133 0.150428 255 220 0
0.638349 0.010364 0.109776 255 220 0
0.593939 0.049180 0.151344 255 220 0
0.599267 0.152062 0.164449 255 220 0
0.608799 0.006726 0.121733 255 220 0
0.569688 0.049870 0.113250 255 220 0
0.650199 0.076140 0.108772 255 220 0
0.598145 0.149247 0.164918 255 220 0
0.626011 0.043880 0.154199 255 220 0
0.593014 0.003840 0.091173 255 220 0
0.635995 0.007961 0.109390 255 220 0
0.645289 0.074882 0.100314 255 220 0
0.647371 0.106528 0.159460 255 220 0
0.612603 -0.001340 0.081015 255 220 0
0.608543 0.054520 0.070488 255 220 0
0.587192 0.157306 0.141704 255 220 0
0.603524 -0.000877 0.104428 255 220 0
0.655544 0.064254 0.112472 255 220 0
0.626183 0.151304 0.154260 255 220 0
0.634563 0.137604 0.159288 255 220 0
0.596370 0.008614 0.116290 255 220 0
0.634622 0.132922 0.138403 255 220 0
0.631680 0.007599 0.080733 255 220 0
0.626578 0.038986 0.151122 255 220 0
0.602739 0.115076 0.170858 255 220 0
0.654904 0.075370 0.118546 255 220 0
0.645159 0.050915 0.087393 255 220 0
0.615315 0.066620 0.164996 255 220 0
0.575815 0.072811 0.137838 255 220 0
0.639895 0.109886 0.166302 255 220 0
0.631479 0.021239 0.133564 255 220 0
0.620504 0.158096 0.147227 255 220 0
0.572882 0.064639 0.130419 255 220 0
0.572638 0.042750 0.089476 255 220 0
0.591778 0.083345 0.160292 255 220 0
0.608637 0.124601 0.172791 255 220 0
0.618525 0.030185 0.146469 255 220 0
0.640624 0.043407 0.079824 255 220 0
0.624368 0.095407 0.098446 255 220 0
0.621617 0.154553 0.142321 255 220 0
0.603998 0.123559 0.171445 255 220 0
0.646432 0.019932 0.097146 255 220 0
0.647471 0.111283 0.136936 255 220 0
0.618351 0.083705 0.170253 255 220 0
0.581748 0.136277 0.140119 255 220 0
0.584152 0.128799 0.125662 255 220 0
0.579998 0.082889 0.092413 255 220 0
0.651455 0.103951 0.150791 255 220 0
0.569101 0.051413 0.110982 255 220 0
0.581709 0.108067 0.111098 255 220 0
0.623822 0.138669 0.170445 255 220 0
0.623713 0.153954 0.146116 255 220 0
0.619352 0.001047 0.111678 255 220 0
0.625237 0.146842 0.139653 255 220 0
0.587231 0.038151 0.139985 255 220 0
0.596148 0.002652 0.086211 255 220 0
0.568068 0.066145 0.110443 255 220 0
0.586514 0.130636 0.123698 255 220 0
0.582813 0.142031 0.143965 255 220 0
0.595135 0.159732 0.133742 255 220 0
0.613861 -0.003328 0.103025 255 220 0
0.636456 0.088293 0.166703 255 220 0
0.650199 0.063395 0.100784 255 220 0
0.621160 -0.003117 0.088635 255 220 0
0.632439 0.087396 0.097322 255 220 0
0.630126 0.015674 0.127806 255 220 0
0.608187 0.096155 0.171205 255 220 0
0.608622 0.082647 0.168804 255 220 0
0.631892 0.141603 0.146132 255 220 0
0.655061 0.060470 0.138695 255 220 0
0.625658 0.014672 0.072223 255 220 0
0.608633 0.118867 0.172901 255 220 0
0.572168 0.087064 0.129093 255 220 0
0.582198 0.048966 0.140391 255 220 0
0.622926 0.083725 0.089720 255 220 0
0.570145 0.066088 0.123761 255 220 0
0.570816 0.043234 0.096264 255 220 0
0.588157 0.107141 0.104771 255 220 0
0.581554 0.049957 0.140033 255 220 0
0.576788 0.029336 0.113671 255 220 0
0.650007 0.058123 0.097826 255 220 0
0.594891 0.104616 0.100522 255 220 0
0.579391 0.024159 0.112279 255 220 0
0.610927 0.008846 0.125276 255 220 0
0.605895 0.084658 0.168410 255 220 0
0.596493 0.020457 0.132269 255 220 0
0.577727 0.034325 0.123955 255 220 0
0.650014 0.033982 0.094186 255 220 0
0.613316 0.051813 0.069880 255 220 0
0.636540 0.030482 0.074888 255 220 0
0.607099 0.058500 0.161128 255 220 0
0.612638 0.161284 0.138624 255 220 0
0.613822 0.027871 0.066435 255 220 0
0.632868 0.126207 0.169242 255 220 0
0.580590 0.124929 0.130584 255 220 0
0.654940 0.063440 0.110446 255 220 0
0.638232 0.049605 0.152202 255 220 0
0.616134 0.027778 0.144747 255 220 0
0.607948 0.021001 0.138625 255 220 0
0.648712 0.031674 0.124706 255 220 0
0.600869 0.080010 0.083351 255 220 0
0.634705 0.138359 0.151602 255 220 0
0.594864 0.098549 0.096180 255 220 0
0.632390 0.008025 0.114851 255 220 0
0.635359 0.068882 0.086998 255 220 0
0.637580 0.049938 0.152763 255 220 0
0.610908 0.009623 0.126354 255 220 0
0.642526 0.038047 0.141099 255 220 0
0.656871 0.085471 0.136807 255 220 0
0.633419 0.054557 0.077975 255 220 0
0.583498 0.104976 0.153476 255 220 0
0.606210 0.034083 0.148221 255 220 0
0.582176 0.079940 0.149108 255 220 0
0.607875 0.005528 0.073697 255 220 0
0.594813 0.057649 0.073055 255 220 0
0.580512 0.100866 0.105576 255 220 0
0.588028 0.036883 0.139928 255 220 0
0.575079 0.034020 0.115935 255 220 0
0.625951 0.077787 0.167731 255 220 0
0.647980 0.024766 0.094773 255 220 0
0.592175 0.048009 0.149540 255 220 0
0.590578 0.053379 0.150765 255 220 0
0.649313 0.026413 0.101563 255 220 0
0.592609 0.103336 0.163790 255 220 0
0.650190 0.029828 0.114468 255 220 0
0.634755 0.129198 0.167008 255 220 0
0.598077 0.034006 0.067764 255 220 0
0.640157 0.070337 0.160004 255 220 0
0.633733 0.044844 0.151990 255 220 0
0.588326 0.008573 0.100067 255 220 0
0.611834 0.162330 0.139183 255 220 0
0.579763 0.108578 0.146652 255 220 0
0.576397 0.046189 0.130311 255 220 0
0.582407 0.025566 0.078967 255 220 0
0.625435 0.023757 0.139345 255 220 0
0.626868 0.085012 0.169346 255 220 0
0.605153 0.001457 0.078813 255 220 0
0.590285 0.122060 0.115057 255 220 0
0.653808 0.067509 0.110152 255 220 0
0.577121 0.047820 0.081316 255 220 0
0.590668 0.007740 0.085676 255 220 0
0.612746 0.158809 0.136146 255 220 0
0.651991 0.086663 0.155404 255 220 0
0.578164 0.022858 0.100124 255 220 0
0.612991 0.052157 0.069961 255 220 0
0.628555 0.035425 0.069949 255 220 0
0.622585 0.121262 0.116978 255 220 0
0.651979 0.103679 0.144876 255 220 0
0.642856 0.098895 0.114930 255 220 0
0.648623 0.077231 0.106814 255 220 0
0.609902 0.162204 0.137140 255 220 0
0.636077 0.106619 0.114841 255 220 0
0.608790 0.155850 0.131638 255 220 0
0.650648 0.106225 0.141151 255 220 0
0.651857 0.064749 0.104512 255 220 0
0.632143 0.138843 0.141818 255 220 0
0.644683 0.100517 0.118754 255 220 0
0.600664 0.155608 0.129887 255 220 0
