ply
format ascii 1.0
element vertex 1024
property float x
property float y
property float z
property uchar red
property uchar green
property uchar blue
end_header
0.527910 0.092398 0.314018 255 220 0
0.460817 0.100929 0.323162 255 220 0
0.509971 0.081106 0.250628 255 220 0
0.488509 0.046792 0.286245 255 220 0
0.492563 0.112212 0.251393 255 220 0
0.446416 0.112779 0.283899 255 220 0
0.526724 0.083032 0.305636 255 220 0
0.550667 0.160779 0.321866 255 220 0
0.543165 0.104967 0.271090 255 220 0
0.462365 0.103332 0.253913 255 220 0
0.488954 0.047406 0.288644 255 220 0
0.456159 0.059198 0.246841 255 220 0
0.460971 0.117069 0.268048 255 220 0
0.524852 0.077268 0.299947 255 220 0
0.516997 0.071137 0.264260 255 220 0
0.476319 0.122296 0.327496 255 220 0
0.432101 0.064145 0.283199 255 220 0
0.546508 0.120737 0.313497 255 220 0
0.486937 0.121914 0.330523 255 220 0
0.511453 0.063857 0.298300 255 220 0
0.507350 0.058144 0.289971 255 220 0
0.527371 0.079593 0.298558 255 220 0
0.448594 0.091991 0.315459 255 220 0
0.435669 0.056567 0.265420 255 220 0
0.449405 0.115878 0.283149 255 220 0
0.446796 0.111137 0.278853 255 220 0
0.521652 0.173725 0.294069 255 220 0
0.495234 0.087559 0.244558 255 220 0
0.441691 0.068826 0.254454 255 220 0
0.516748 0.187843 0.314144 255 220 0
0.514494 0.088983 0.251092 255 220 0
0.555131 0.172356 0.305205 255 220 0
0.531387 0.126113 0.262581 255 220 0
0.520157 0.190748 0.314295 255 220 0
0.523117 0.108277 0.325947 255 220 0
0.474249 0.045932 0.257372 255 220 0
0.494939 0.145332 0.277915 255 220 0
0.500222 0.067560 0.313284 255 220 0
0.556250 0.170275 0.306100 255 220 0
0.535048 0.127463 0.264553 255 220 0
0.480374 0.148680 0.303009 255 220 0
0.554948 0.159695 0.294201 255 220 0
0.497907 0.088199 0.245075 255 220 0
0.487566 0.087268 0.243389 255 220 0
0.531496 0.168045 0.332884 255 220 0
0.489600 0.137320 0.271856 255 220 0
0.508358 0.061874 0.298793 255 220 0
0.504343 0.083032 0.247364 255 220 0
0.511907 0.087542 0.321833 255 220 0
0.435780 0.052891 0.270632 255 220 0
0.510830 0.111774 0.252497 255 220 0
0.556839 0.149314 0.309197 255 220 0
0.514865 0.074941 0.310724 255 220 0
0.516568 0.104664 0.327178 255 220 0
0.509038 0.067181 0.306738 255 220 0
0.476158 0.114660 0.328625 255 220 0
0.495317 0.066162 0.250554 255 220 0
0.461856 0.044532 0.292904 255 220 0
0.459215 0.127529 0.289086 255 220 0
0.437263 0.099656 0.286946 255 220 0
0.523503 0.127264 0.260660 255 220 0
0.461691 0.050226 0.300554 255 220 0
0.545596 0.163968 0.327047 255 220 0
0.509452 0.059125 0.278402 255 220 0
0.473292 0.058190 0.246177 255 220 0
0.551609 0.177640 0.304840 255 220 0
0.483399 0.067461 0.317457 255 220 0
0.503959 0.148915 0.277734 255 220 0
0.524729 0.075939 0.270975 255 220 0
0.524241 0.125135 0.259997 255 220 0
0.506920 0.069924 0.254886 255 220 0
0.506533 0.161298 0.289384 255 220 0
0.529389 0.136676 0.266390 255 220 0
0.544280 0.158572 0.284761 255 220 0
0.518445 0.069869 0.298566 255 220 0
0.531512 0.171413 0.290230 255 220 0
0.475493 0.052003 0.303277 255 220 0
0.524019 0.073200 0.291944 255 220 0
0.516868 0.110545 0.253362 255 220 0
0.509443 0.127183 0.332525 255 220 0
0.527431 0.156958 0.333567 255 220 0
0.481696 0.103226 0.329346 255 220 0
0.474436 0.092218 0.244274 255 220 0
0.538437 0.092456 0.292264 255 220 0
0.481053 0.145848 0.316426 255 220 0
0.491847 0.122487 0.257446 255 220 0
0.432864 0.061577 0.282905 255 220 0
0.556690 0.149589 0.292065 255 220 0
0.536717 0.100064 0.310567 255 220 0
0.541612 0.125730 0.321423 255 220 0
0.521401 0.091264 0.254950 255 220 0
0.485397 0.152601 0.310628 255 220 0
0.479289 0.044275 0.289121 255 220 0
0.502111 0.144501 0.274071 255 220 0
0.468466 0.047287 0.297494 255 220 0
0.438365 0.098194 0.276724 255 220 0
0.477341 0.089765 0.243393 255 220 0
0.486074 0.047386 0.265648 255 220 0
0.500119 0.151325 0.281929 255 220 0
0.512747 0.064026 0.269676 255 220 0
0.512130 0.061999 0.291443 255 220 0
0.443425 0.048874 0.288797 255 220 0
0.467229 0.080546 0.242372 255 220 0
0.482963 0.044076 0.281650 255 220 0
0.476084 0.079674 0.241741 255 220 0
0.485351 0.146321 0.287178 255 220 0
0.460951 0.063992 0.244108 255 220 0
0.524285 0.078719 0.266050 255 220 0
0.467730 0.102465 0.250626 255 220 0
0.523443 0.072348 0.276480 255 220 0
0.443065 0.090046 0.310468 255 220 0
0.484257 0.074204 0.243302 255 220 0
0.512229 0.087856 0.321859 255 220 0
0.484776 0.073761 0.321219 255 220 0
0.466802 0.107045 0.254656 255 220 0
0.510681 0.083252 0.319945 255 220 0
0.453538 0.068891 0.245875 255 220 0
0.492888 0.121695 0.331412 255 220 0
0.486358 0.111216 0.251331 255 220 0
0.473056 0.112011 0.327851 255 220 0
0.466985 0.131190 0.316864 255 220 0
0.465079 0.047233 0.297283 255 220 0
0.509456 0.153561 0.280244 255 220 0
0.541033 0.096623 0.292488 255 220 0
0.476954 0.132744 0.274601 255 220 0
0.458088 0.101966 0.255248 255 220 0
0.522212 0.094142 0.254580 255 220 0
0.505719 0.158834 0.287105 255 220 0
0.553681 0.176549 0.312186 255 220 0
0.523965 0.085269 0.311929 255 220 0
0.493166 0.049375 0.288785 255 220 0
0.511617 0.094348 0.325085 255 220 0
0.549902 0.152224 0.321832 255 220 0
0.442527 0.047282 0.285080 255 220 0
0.527761 0.096598 0.257537 255 220 0
0.450466 0.064095 0.307396 255 220 0
0.524588 0.184537 0.329388 255 220 0
0.524932 0.107366 0.324736 255 220 0
0.531677 0.097912 0.314616 255 220 0
0.432846 0.074774 0.294012 255 220 0
0.506090 0.061544 0.263615 255 220 0
0.439250 0.098989 0.275475 255 220 0
0.530411 0.124674 0.328014 255 220 0
0.522894 0.105760 0.254169 255 220 0
0.465195 0.135032 0.297409 255 220 0
0.463734 0.072384 0.318016 255 220 0
0.436798 0.058783 0.291221 255 220 0
0.458872 0.048915 0.252003 255 220 0
0.473258 0.064788 0.243356 255 220 0
0.496318 0.161264 0.300335 255 220 0
0.541022 0.124356 0.266908 255 220 0
0.527795 0.173829 0.332630 255 220 0
0.433086 0.079023 0.294892 255 220 0
0.482004 0.054995 0.306099 255 220 0
0.502498 0.129145 0.260391 255 220 0
0.458175 0.043035 0.289640 255 220 0
0.509288 0.059843 0.291407 255 220 0
0.499977 0.104025 0.329881 255 220 0
0.441561 0.073719 0.305789 255 220 0
0.506670 0.159698 0.329056 255 220 0
0.518372 0.174055 0.295675 255 220 0
0.499030 0.166577 0.313545 255 220 0
0.526966 0.075909 0.279470 255 220 0
0.500631 0.060018 0.259798 255 220 0
0.484416 0.051106 0.300659 255 220 0
0.514005 0.172618 0.296702 255 220 0
0.435105 0.057558 0.266033 255 220 0
0.555838 0.136202 0.289555 255 220 0
0.554488 0.134700 0.306724 255 220 0
0.464148 0.106403 0.255502 255 220 0
0.552715 0.146357 0.316735 255 220 0
0.527432 0.083273 0.304765 255 220 0
0.500141 0.094806 0.246034 255 220 0
0.465973 0.121872 0.269593 255 220 0
0.535435 0.193298 0.313691 255 220 0
0.468394 0.116450 0.262052 255 220 0
0.504809 0.138846 0.267868 255 220 0
0.466523 0.041720 0.261565 255 220 0
0.492271 0.148660 0.283927 255 220 0
0.485745 0.153117 0.303083 255 220 0
0.538358 0.186915 0.325475 255 220 0
0.496982 0.057057 0.260265 255 220 0
0.490408 0.157488 0.305724 255 220 0
0.518068 0.076237 0.308947 255 220 0
0.446247 0.099699 0.263865 255 220 0
0.462490 0.097219 0.249392 255 220 0
0.502116 0.055518 0.270657 255 220 0
0.477474 0.087383 0.326099 255 220 0
0.489258 0.148263 0.286152 255 220 0
0.468389 0.040788 0.264917 255 220 0
0.490834 0.075014 0.244891 255 220 0
0.463787 0.039981 0.282542 255 220 0
0.450214 0.100473 0.260132 255 220 0
0.491757 0.047938 0.279927 255 220 0
0.540129 0.095624 0.294448 255 220 0
0.531155 0.141720 0.331422 255 220 0
0.472390 0.065563 0.243004 255 220 0
0.469663 0.138596 0.309506 255 220 0
0.513565 0.161288 0.285872 255 220 0
0.535290 0.093143 0.267559 255 220 0
0.528478 0.087708 0.308810 255 220 0
0.513118 0.062623 0.275137 255 220 0
0.459161 0.110189 0.320956 255 220 0
0.526981 0.079163 0.298649 255 220 0
0.497543 0.089923 0.326640 255 220 0
0.486546 0.122473 0.259002 255 220 0
0.498633 0.137226 0.268177 255 220 0
0.483408 0.060049 0.248632 255 220 0
0.475290 0.051758 0.251246 255 220 0
0.446547 0.061674 0.303595 255 220 0
0.500232 0.155064 0.326907 255 220 0
0.515417 0.110213 0.252920 255 220 0
0.470399 0.049597 0.251629 255 220 0
0.493885 0.064466 0.313264 255 220 0
0.445492 0.050347 0.256865 255 220 0
0.494725 0.090103 0.244612 255 220 0
0.441356 0.093460 0.308192 255 220 0
0.473929 0.049583 0.300351 255 220 0
0.498738 0.052807 0.272481 255 220 0
0.493955 0.106976 0.330505 255 220 0
0.487822 0.151299 0.318084 255 220 0
0.541946 0.164239 0.329500 255 220 0
0.527089 0.115252 0.326585 255 220 0
0.475103 0.139512 0.287686 255 220 0
0.546905 0.107873 0.279108 255 220 0
0.440649 0.076572 0.256314 255 220 0
0.490415 0.084803 0.243664 255 220 0
0.529162 0.193800 0.318510 255 220 0
0.552574 0.153021 0.318542 255 220 0
0.532774 0.117664 0.324505 255 220 0
0.537495 0.130682 0.326110 255 220 0
0.503996 0.164388 0.324910 255 220 0
0.459386 0.106177 0.321912 255 220 0
0.539514 0.191326 0.311737 255 220 0
0.459085 0.122878 0.278894 255 220 0
0.452308 0.042539 0.261496 255 220 0
0.498043 0.102839 0.329790 255 220 0
0.518494 0.151044 0.275678 255 220 0
0.437808 0.100046 0.294496 255 220 0
0.535810 0.119887 0.323442 255 220 0
0.504691 0.097384 0.247299 255 220 0
0.502344 0.160592 0.291760 255 220 0
0.526490 0.149753 0.273926 255 220 0
0.465109 0.133604 0.310569 255 220 0
0.458415 0.127821 0.292717 255 220 0
0.457703 0.112428 0.265549 255 220 0
0.556283 0.138388 0.303082 255 220 0
0.482153 0.051267 0.255322 255 220 0
0.444202 0.103366 0.271211 255 220 0
0.514847 0.081597 0.253792 255 220 0
0.514580 0.150759 0.276292 255 220 0
0.520511 0.068614 0.279508 255 220 0
0.462085 0.043942 0.257140 255 220 0
0.549689 0.115663 0.279020 255 220 0
0.548408 0.180643 0.303868 255 220 0
0.490604 0.085186 0.325731 255 220 0
0.510141 0.165865 0.328939 255 220 0
0.512713 0.131170 0.261141 255 220 0
0.519458 0.074362 0.263827 255 220 0
0.532420 0.169215 0.332666 255 220 0
0.489613 0.054968 0.304323 255 220 0
0.528638 0.123294 0.260608 255 220 0
0.539550 0.095575 0.274377 255 220 0
0.497125 0.106262 0.248901 255 220 0
0.514116 0.173650 0.297654 255 220 0
0.510242 0.097048 0.326511 255 220 0
0.523640 0.085732 0.312716 255 220 0
0.531020 0.193728 0.311537 255 220 0
0.451258 0.095010 0.254655 255 220 0
0.484275 0.082960 0.242689 255 220 0
0.504848 0.102826 0.248615 255 220 0
0.455661 0.125496 0.294781 255 220 0
0.505325 0.095661 0.327228 255 220 0
0.497463 0.100150 0.246892 255 220 0
0.523653 0.127172 0.330860 255 220 0
0.483867 0.093784 0.328054 255 220 0
0.549398 0.114092 0.279848 255 220 0
0.467463 0.085125 0.323604 255 220 0
0.513146 0.162310 0.331342 255 220 0
0.479898 0.126194 0.265408 255 220 0
0.452406 0.065298 0.309168 255 220 0
0.531539 0.117608 0.259957 255 220 0
0.468863 0.124325 0.270271 255 220 0
0.472895 0.047507 0.297582 255 220 0
0.457931 0.040080 0.282998 255 220 0
0.548944 0.121529 0.309698 255 220 0
0.435140 0.082415 0.299132 255 220 0
0.545359 0.113886 0.310012 255 220 0
0.454869 0.104798 0.318989 255 220 0
0.499704 0.071023 0.249842 255 220 0
0.491442 0.067358 0.248063 255 220 0
0.442130 0.094149 0.264265 255 220 0
0.456612 0.065054 0.311093 255 220 0
0.519183 0.072380 0.265958 255 220 0
0.488000 0.066664 0.316439 255 220 0
0.468039 0.088857 0.244157 255 220 0
0.437235 0.095122 0.299544 255 220 0
0.447973 0.056457 0.300599 255 220 0
0.483568 0.059156 0.249280 255 220 0
0.554132 0.127088 0.294491 255 220 0
0.445503 0.095943 0.312592 255 220 0
0.462619 0.131984 0.307757 255 220 0
0.528512 0.171811 0.290877 255 220 0
0.448617 0.115780 0.303852 255 220 0
0.457158 0.119672 0.314885 255 220 0
0.495828 0.063754 0.252528 255 220 0
0.447535 0.041410 0.269455 255 220 0
0.548222 0.166588 0.324616 255 220 0
0.543854 0.105562 0.303259 255 220 0
0.512551 0.128218 0.259519 255 220 0
0.523597 0.137559 0.332489 255 220 0
0.541121 0.099984 0.301584 255 220 0
0.483570 0.138942 0.277549 255 220 0
0.490611 0.138601 0.328108 255 220 0
0.438562 0.068926 0.258023 255 220 0
0.499254 0.065042 0.253596 255 220 0
0.472907 0.103720 0.249652 255 220 0
0.464900 0.097847 0.324886 255 220 0
0.508059 0.108771 0.251007 255 220 0
0.482731 0.149073 0.296859 255 220 0
0.441368 0.080923 0.256801 255 220 0
0.472801 0.074475 0.321252 255 220 0
0.528861 0.081019 0.297651 255 220 0
0.448524 0.115064 0.283517 255 220 0
0.497732 0.101794 0.329610 255 220 0
0.537602 0.093373 0.298881 255 220 0
0.541814 0.099063 0.275524 255 220 0
0.481829 0.065173 0.245335 255 220 0
0.485398 0.072268 0.244023 255 220 0
0.522387 0.075535 0.266953 255 220 0
0.455157 0.038644 0.275139 255 220 0
0.463777 0.081277 0.321371 255 220 0
0.452114 0.039805 0.279241 255 220 0
0.483758 0.134621 0.272112 255 220 0
0.494716 0.161701 0.312073 255 220 0
0.548816 0.176900 0.321885 255 220 0
0.501640 0.097671 0.328386 255 220 0
0.487392 0.140216 0.276405 255 220 0
0.452137 0.121772 0.297540 255 220 0
0.479005 0.104626 0.329147 255 220 0
0.515204 0.176014 0.328426 255 220 0
0.499031 0.166440 0.306918 255 220 0
0.523039 0.093147 0.255434 255 220 0
0.473490 0.063799 0.243729 255 220 0
0.503255 0.083010 0.246971 255 220 0
0.528899 0.153236 0.276602 255 220 0
0.549352 0.140843 0.319463 255 220 0
0.447690 0.059371 0.302698 255 220 0
0.476424 0.076789 0.322655 255 220 0
0.534019 0.128191 0.264375 255 220 0
0.551034 0.158904 0.321309 255 220 0
0.498324 0.080957 0.322845 255 220 0
0.496652 0.129106 0.261431 255 220 0
0.548763 0.154030 0.323369 255 220 0
0.503842 0.099475 0.247561 255 220 0
0.487612 0.141814 0.278255 255 220 0
0.472889 0.141553 0.297436 255 220 0
0.460590 0.130135 0.306555 255 220 0
0.555594 0.133447 0.298504 255 220 0
0.553931 0.141601 0.312860 255 220 0
0.474979 0.122140 0.326980 255 220 0
0.530584 0.194048 0.313129 255 220 0
0.488621 0.077771 0.322915 255 220 0
0.486289 0.133629 0.269664 255 220 0
0.460821 0.125461 0.281154 255 220 0
0.531382 0.163438 0.333096 255 220 0
0.453039 0.047506 0.294403 255 220 0
0.470976 0.045793 0.295145 255 220 0
0.431146 0.069142 0.276348 255 220 0
0.482445 0.148964 0.297177 255 220 0
0.480798 0.148179 0.311496 255 220 0
0.463285 0.048113 0.252283 255 220 0
0.513607 0.075018 0.256571 255 220 0
0.526925 0.178688 0.331757 255 220 0
0.449815 0.071842 0.311038 255 220 0
0.463247 0.039109 0.278662 255 220 0
0.509960 0.089685 0.323658 255 220 0
0.479066 0.102305 0.328906 255 220 0
0.552232 0.143088 0.316418 255 220 0
0.543823 0.179101 0.326320 255 220 0
0.442402 0.045010 0.279638 255 220 0
0.538971 0.162332 0.284751 255 220 0
0.440757 0.075966 0.305740 255 220 0
0.504916 0.057678 0.294345 255 220 0
0.512092 0.174381 0.326788 255 220 0
0.458709 0.128037 0.292464 255 220 0
0.514977 0.155048 0.279971 255 220 0
0.556692 0.142015 0.305290 255 220 0
0.520094 0.070912 0.297271 255 220 0
0.439781 0.052506 0.261318 255 220 0
0.495277 0.089736 0.326835 255 220 0
0.533506 0.179129 0.295362 255 220 0
0.504573 0.063601 0.259074 255 220 0
0.477443 0.076283 0.322514 255 220 0
0.518266 0.117256 0.330041 255 220 0
0.519503 0.170667 0.292232 255 220 0
0.470583 0.137670 0.291084 255 220 0
0.523006 0.088098 0.315298 255 220 0
0.541415 0.167131 0.329734 255 220 0
0.472393 0.140539 0.311328 255 220 0
0.508275 0.173244 0.323492 255 220 0
0.498657 0.135044 0.331567 255 220 0
0.496400 0.129709 0.331586 255 220 0
0.478068 0.144126 0.314759 255 220 0
0.497132 0.050856 0.279932 255 220 0
0.464975 0.111442 0.259384 255 220 0
0.515539 0.096630 0.250678 255 220 0
0.514443 0.132646 0.332845 255 220 0
0.496062 0.120050 0.255293 255 220 0
0.451294 0.080496 0.315155 255 220 0
0.457465 0.067088 0.244497 255 220 0
0.473868 0.126706 0.269414 255 220 0
0.523554 0.081542 0.262332 255 220 0
0.528579 0.112885 0.257604 255 220 0
0.439446 0.100581 0.300953 255 220 0
0.512345 0.090457 0.249671 255 220 0
0.553317 0.165669 0.296120 255 220 0
0.513460 0.168953 0.329815 255 220 0
0.481897 0.078073 0.242361 255 220 0
0.524785 0.077841 0.301150 255 220 0
0.517134 0.077309 0.311098 255 220 0
0.464411 0.052276 0.303322 255 220 0
0.515851 0.106776 0.252102 255 220 0
0.472981 0.141694 0.309543 255 220 0
0.487061 0.098585 0.329080 255 220 0
0.531549 0.189192 0.303535 255 220 0
0.535544 0.157875 0.280836 255 220 0
0.468843 0.043598 0.258726 255 220 0
0.464140 0.123700 0.273830 255 220 0
0.453411 0.048525 0.295815 255 220 0
0.501474 0.166266 0.301020 255 220 0
0.489499 0.148021 0.285515 255 220 0
0.554400 0.162033 0.316066 255 220 0
0.529285 0.084408 0.267417 255 220 0
0.447869 0.089640 0.254117 255 220 0
0.487668 0.154754 0.310398 255 220 0
0.544173 0.150467 0.326719 255 220 0
0.516992 0.065710 0.276549 255 220 0
0.476702 0.046532 0.257964 255 220 0
0.504093 0.065070 0.308157 255 220 0
0.488131 0.066995 0.246873 255 220 0
0.533739 0.113326 0.322071 255 220 0
0.450093 0.039865 0.275699 255 220 0
0.507814 0.157241 0.330364 255 220 0
0.516318 0.117140 0.255365 255 220 0
0.517993 0.080991 0.313825 255 220 0
0.457670 0.122089 0.279653 255 220 0
0.452794 0.113720 0.313573 255 220 0
0.536847 0.112581 0.262011 255 220 0
0.437981 0.068498 0.258771 255 220 0
0.508056 0.114915 0.253227 255 220 0
0.443438 0.108246 0.302001 255 220 0
0.433147 0.059980 0.281011 255 220 0
0.538239 0.105428 0.313398 255 220 0
0.511793 0.113259 0.253176 255 220 0
0.459264 0.115893 0.268203 255 220 0
0.463721 0.042312 0.288901 255 220 0
0.548839 0.112775 0.279259 255 220 0
0.531362 0.094323 0.261575 255 220 0
0.517056 0.180679 0.302433 255 220 0
0.517908 0.177480 0.329488 255 220 0
0.501138 0.053991 0.289769 255 220 0
0.488769 0.139956 0.275225 255 220 0
0.500499 0.135564 0.266032 255 220 0
0.522985 0.078243 0.264628 255 220 0
0.485077 0.106268 0.330005 255 220 0
0.494249 0.065346 0.250541 255 220 0
0.471281 0.084156 0.242522 255 220 0
0.434656 0.093453 0.284062 255 220 0
0.536241 0.089588 0.276253 255 220 0
0.552644 0.169733 0.318068 255 220 0
0.501262 0.166020 0.320182 255 220 0
0.476415 0.071959 0.320372 255 220 0
0.534337 0.091290 0.303548 255 220 0
0.436881 0.056529 0.288556 255 220 0
0.516126 0.064306 0.281345 255 220 0
0.465468 0.115470 0.323816 255 220 0
0.478713 0.060940 0.312439 255 220 0
0.477822 0.135168 0.277196 255 220 0
0.507855 0.162685 0.328684 255 220 0
0.558075 0.156496 0.307063 255 220 0
0.435764 0.085709 0.268588 255 220 0
0.482388 0.074985 0.242739 255 220 0
0.441691 0.103832 0.277244 255 220 0
0.469993 0.122918 0.324217 255 220 0
0.459502 0.089906 0.321702 255 220 0
0.455228 0.097073 0.320063 255 220 0
0.493067 0.112786 0.251652 255 220 0
0.542113 0.124059 0.267609 255 220 0
0.558335 0.159346 0.300845 255 220 0
0.529267 0.152768 0.276285 255 220 0
0.472004 0.053885 0.248537 255 220 0
0.552023 0.177770 0.315808 255 220 0
0.513003 0.065521 0.266927 255 220 0
0.528312 0.078099 0.291145 255 220 0
0.496945 0.052835 0.294472 255 220 0
0.489959 0.071618 0.319486 255 220 0
0.469534 0.120382 0.265269 255 220 0
0.531126 0.107852 0.321289 255 220 0
0.464509 0.057245 0.245913 255 220 0
0.467966 0.117103 0.262925 255 220 0
0.516196 0.064727 0.288378 255 220 0
0.540901 0.155716 0.329556 255 220 0
0.455748 0.038841 0.270019 255 220 0
0.518147 0.151518 0.333546 255 220 0
0.539633 0.093778 0.288642 255 220 0
0.457234 0.117782 0.272979 255 220 0
0.491849 0.052165 0.262594 255 220 0
0.517718 0.074304 0.261582 255 220 0
0.516005 0.150925 0.276108 255 220 0
0.470235 0.103347 0.327052 255 220 0
0.494830 0.160641 0.302002 255 220 0
0.539502 0.187075 0.324395 255 220 0
0.526611 0.181258 0.298115 255 220 0
0.432470 0.065409 0.270063 255 220 0
0.489503 0.053026 0.301593 255 220 0
0.494287 0.063862 0.251574 255 220 0
0.489305 0.046793 0.282663 255 220 0
0.529780 0.149972 0.332823 255 220 0
0.498213 0.112986 0.331226 255 220 0
0.446085 0.043569 0.283124 255 220 0
0.477801 0.083992 0.242260 255 220 0
0.545095 0.177306 0.325865 255 220 0
0.528908 0.188650 0.303227 255 220 0
0.509194 0.149163 0.276283 255 220 0
0.511984 0.075393 0.313461 255 220 0
0.536227 0.157191 0.280560 255 220 0
0.468769 0.045708 0.255545 255 220 0
0.477188 0.069981 0.319255 255 220 0
0.446182 0.080453 0.251583 255 220 0
0.448434 0.088486 0.252953 255 220 0
0.524835 0.076279 0.297889 255 220 0
0.443801 0.071329 0.306735 255 220 0
0.459928 0.061506 0.310211 255 220 0
0.539080 0.094348 0.295656 255 220 0
0.483227 0.077312 0.323022 255 220 0
0.490139 0.059824 0.309935 255 220 0
0.531986 0.132069 0.265140 255 220 0
0.521229 0.070661 0.293440 255 220 0
0.433251 0.065644 0.267312 255 220 0
0.522497 0.101877 0.323626 255 220 0
0.555658 0.165383 0.299077 255 220 0
0.451166 0.104139 0.262766 255 220 0
0.462437 0.131320 0.309088 255 220 0
0.505097 0.147792 0.276263 255 220 0
0.549466 0.167856 0.293929 255 220 0
0.433661 0.090956 0.285725 255 220 0
0.490291 0.080351 0.243830 255 220 0
0.510544 0.072936 0.255433 255 220 0
0.532270 0.137980 0.267953 255 220 0
0.447750 0.115955 0.290036 255 220 0
0.480433 0.105193 0.329407 255 220 0
0.552974 0.124779 0.284075 255 220 0
0.553728 0.125477 0.293075 255 220 0
0.437048 0.066691 0.260071 255 220 0
0.473010 0.040583 0.273967 255 220 0
0.478372 0.046020 0.294044 255 220 0
0.432419 0.065294 0.286984 255 220 0
0.503278 0.141658 0.331851 255 220 0
0.453444 0.120658 0.307809 255 220 0
0.541387 0.157910 0.329506 255 220 0
0.557840 0.160294 0.307779 255 220 0
0.541598 0.190255 0.313051 255 220 0
0.456142 0.100922 0.320449 255 220 0
0.524422 0.171413 0.332718 255 220 0
0.557007 0.144478 0.306015 255 220 0
0.543909 0.105611 0.303176 255 220 0
0.492967 0.087255 0.244152 255 220 0
0.474086 0.122164 0.326581 255 220 0
0.483397 0.069711 0.244166 255 220 0
0.433224 0.072256 0.267622 255 220 0
0.460974 0.038426 0.273948 255 220 0
0.555474 0.155500 0.292582 255 220 0
0.503395 0.089827 0.325593 255 220 0
0.512262 0.181645 0.309565 255 220 0
0.445879 0.093044 0.313210 255 220 0
0.543898 0.185470 0.321301 255 220 0
0.486953 0.152455 0.297344 255 220 0
0.494254 0.080520 0.323436 255 220 0
0.465351 0.075022 0.319707 255 220 0
0.523627 0.163194 0.284947 255 220 0
0.517917 0.084988 0.254763 255 220 0
0.452976 0.043129 0.287922 255 220 0
0.438170 0.099679 0.280287 255 220 0
0.502774 0.104459 0.248809 255 220 0
0.447837 0.076012 0.249356 255 220 0
0.431643 0.079287 0.276127 255 220 0
0.523009 0.145171 0.270516 255 220 0
0.435042 0.081862 0.298968 255 220 0
0.491018 0.098415 0.329140 255 220 0
0.536381 0.091486 0.272208 255 220 0
0.436417 0.052030 0.269603 255 220 0
0.444153 0.106213 0.306301 255 220 0
0.440897 0.074001 0.305271 255 220 0
0.545199 0.143786 0.324425 255 220 0
0.457320 0.107963 0.261157 255 220 0
0.459167 0.126468 0.286383 255 220 0
0.500096 0.090334 0.326408 255 220 0
0.487513 0.057778 0.308337 255 220 0
0.505436 0.125301 0.257809 255 220 0
0.517624 0.104263 0.252099 255 220 0
0.551398 0.168393 0.320382 255 220 0
0.448517 0.044962 0.288172 255 220 0
0.466519 0.075999 0.320464 255 220 0
0.487615 0.063034 0.313536 255 220 0
0.431013 0.079464 0.281547 255 220 0
0.511469 0.072959 0.311508 255 220 0
0.499188 0.130985 0.262372 255 220 0
0.526331 0.156485 0.279098 255 220 0
0.482852 0.105667 0.248909 255 220 0
0.487953 0.071090 0.245167 255 220 0
0.440746 0.051081 0.288200 255 220 0
0.491754 0.066684 0.248561 255 220 0
0.544984 0.102846 0.285642 255 220 0
0.497461 0.069853 0.316377 255 220 0
0.471011 0.140525 0.300275 255 220 0
0.474590 0.142534 0.296001 255 220 0
0.515409 0.079784 0.314806 255 220 0
0.526245 0.119831 0.258672 255 220 0
0.461036 0.079771 0.319841 255 220 0
0.527181 0.154442 0.333498 255 220 0
0.441229 0.066760 0.255037 255 220 0
0.444020 0.050130 0.258330 255 220 0
0.512764 0.116099 0.330765 255 220 0
0.533380 0.193192 0.310540 255 220 0
0.550869 0.122901 0.305986 255 220 0
0.477686 0.073862 0.321406 255 220 0
0.444484 0.110210 0.283356 255 220 0
0.455588 0.124024 0.288682 255 220 0
0.470061 0.105015 0.251486 255 220 0
0.497881 0.052243 0.272632 255 220 0
0.518324 0.137706 0.265257 255 220 0
0.474753 0.043596 0.262070 255 220 0
0.449424 0.118496 0.295658 255 220 0
0.519690 0.179424 0.299590 255 220 0
0.531183 0.192083 0.307388 255 220 0
0.505365 0.123985 0.332253 255 220 0
0.474632 0.042893 0.287685 255 220 0
0.486690 0.047475 0.292201 255 220 0
0.461312 0.057450 0.246218 255 220 0
0.528670 0.079426 0.294236 255 220 0
0.431091 0.074457 0.287729 255 220 0
0.498201 0.086818 0.325439 255 220 0
0.549859 0.126159 0.275972 255 220 0
0.522387 0.075520 0.301785 255 220 0
0.462757 0.077374 0.319695 255 220 0
0.550031 0.141432 0.280225 255 220 0
0.506972 0.113144 0.252415 255 220 0
0.517667 0.163804 0.332455 255 220 0
0.550812 0.147304 0.319666 255 220 0
0.463049 0.044093 0.292319 255 220 0
0.494731 0.161927 0.310927 255 220 0
0.554947 0.170431 0.302387 255 220 0
0.514730 0.064892 0.272063 255 220 0
0.525612 0.093278 0.316844 255 220 0
0.516652 0.187692 0.313844 255 220 0
0.436508 0.097249 0.293433 255 220 0
0.547751 0.108761 0.282996 255 220 0
0.504258 0.148275 0.331060 255 220 0
0.511964 0.164344 0.289499 255 220 0
0.502000 0.104505 0.248725 255 220 0
0.493425 0.103456 0.330002 255 220 0
0.437786 0.099381 0.281297 255 220 0
0.465975 0.042094 0.260600 255 220 0
0.546273 0.173003 0.325794 255 220 0
0.453525 0.082533 0.317038 255 220 0
0.505783 0.154304 0.282305 255 220 0
0.497826 0.154306 0.287194 255 220 0
0.498330 0.160204 0.295424 255 220 0
0.551223 0.125878 0.278339 255 220 0
0.508348 0.154500 0.281473 255 220 0
0.477285 0.146141 0.305861 255 220 0
0.496614 0.116124 0.253186 255 220 0
0.463289 0.087134 0.244712 255 220 0
0.431982 0.082321 0.290250 255 220 0
0.556393 0.159454 0.296126 255 220 0
0.510720 0.180966 0.317744 255 220 0
0.469971 0.091334 0.244598 255 220 0
0.531437 0.096165 0.313431 255 220 0
0.492231 0.057444 0.306430 255 220 0
0.488309 0.152260 0.317507 255 220 0
0.485692 0.099979 0.329238 255 220 0
0.478979 0.048131 0.257131 255 220 0
0.521180 0.116567 0.329145 255 220 0
0.517744 0.077885 0.258568 255 220 0
0.510544 0.175716 0.324420 255 220 0
0.463850 0.068436 0.242716 255 220 0
0.482449 0.149515 0.298898 255 220 0
0.520776 0.068655 0.282173 255 220 0
0.447325 0.041134 0.271702 255 220 0
0.543056 0.147523 0.277851 255 220 0
0.521283 0.191591 0.315081 255 220 0
0.488809 0.150926 0.291236 255 220 0
0.515555 0.063890 0.280152 255 220 0
0.454045 0.102985 0.318712 255 220 0
0.533500 0.189131 0.303600 255 220 0
0.504095 0.075862 0.249578 255 220 0
0.484249 0.138989 0.324683 255 220 0
0.538453 0.106142 0.263872 255 220 0
0.498844 0.131474 0.262866 255 220 0
0.485023 0.141781 0.280267 255 220 0
0.545328 0.108261 0.273106 255 220 0
0.527452 0.102281 0.256179 255 220 0
0.484232 0.126679 0.329160 255 220 0
0.477203 0.139363 0.284568 255 220 0
0.509186 0.172546 0.325042 255 220 0
0.463860 0.069398 0.316578 255 220 0
0.521577 0.191324 0.312390 255 220 0
0.470418 0.066314 0.242657 255 220 0
0.471642 0.040921 0.281701 255 220 0
0.505613 0.081644 0.321073 255 220 0
0.451745 0.109216 0.267962 255 220 0
0.485254 0.148469 0.318274 255 220 0
0.555700 0.134985 0.289678 255 220 0
0.467892 0.137804 0.300246 255 220 0
0.486641 0.057760 0.308494 255 220 0
0.477901 0.050176 0.300754 255 220 0
0.498896 0.077940 0.321116 255 220 0
0.502840 0.061737 0.259712 255 220 0
0.490837 0.149149 0.323134 255 220 0
0.470263 0.123704 0.324083 255 220 0
0.463894 0.125444 0.276794 255 220 0
0.468990 0.070794 0.241856 255 220 0
0.478369 0.047154 0.296157 255 220 0
0.530948 0.090271 0.263947 255 220 0
0.432793 0.061874 0.270900 255 220 0
0.468111 0.057247 0.308830 255 220 0
0.518319 0.185196 0.325560 255 220 0
0.528261 0.181401 0.331129 255 220 0
0.481203 0.043252 0.275993 255 220 0
0.511842 0.178335 0.324006 255 220 0
0.488535 0.046746 0.285819 255 220 0
0.447879 0.116201 0.290630 255 220 0
0.486446 0.120408 0.257310 255 220 0
0.495710 0.070478 0.317431 255 220 0
0.483535 0.117227 0.330229 255 220 0
0.484520 0.045141 0.271252 255 220 0
0.482225 0.048410 0.297106 255 220 0
0.484303 0.075083 0.321932 255 220 0
0.494135 0.049318 0.277581 255 220 0
0.554024 0.142489 0.285401 255 220 0
0.518451 0.162663 0.285611 255 220 0
0.544338 0.102615 0.278701 255 220 0
0.480213 0.143714 0.288821 255 220 0
0.524482 0.178933 0.331377 255 220 0
0.446172 0.109067 0.276308 255 220 0
0.448046 0.116698 0.296475 255 220 0
0.541613 0.131104 0.323402 255 220 0
0.541024 0.166211 0.287958 255 220 0
0.504688 0.087047 0.246880 255 220 0
0.548404 0.123231 0.312134 255 220 0
0.515775 0.144523 0.333441 255 220 0
0.470074 0.107842 0.327039 255 220 0
0.497130 0.139929 0.330346 255 220 0
0.478557 0.120723 0.328613 255 220 0
0.542220 0.154052 0.281003 255 220 0
0.540287 0.115402 0.317741 255 220 0
0.492615 0.097827 0.329009 255 220 0
0.528514 0.077766 0.288047 255 220 0
0.478320 0.146070 0.311071 255 220 0
0.481988 0.106887 0.249607 255 220 0
0.432388 0.069556 0.269768 255 220 0
0.432199 0.083990 0.290005 255 220 0
0.486800 0.082626 0.243053 255 220 0
0.552233 0.141202 0.282564 255 220 0
0.521088 0.069184 0.287189 255 220 0
0.550831 0.124161 0.307518 255 220 0
0.552501 0.122731 0.297593 255 220 0
0.470270 0.062500 0.313607 255 220 0
0.512313 0.119114 0.255432 255 220 0
0.439937 0.055820 0.292910 255 220 0
0.453773 0.050032 0.297694 255 220 0
0.549224 0.155898 0.286436 255 220 0
0.502847 0.170724 0.316321 255 220 0
0.468192 0.131352 0.318039 255 220 0
0.547981 0.130194 0.274320 255 220 0
0.543467 0.107411 0.269928 255 220 0
0.439450 0.103907 0.289436 255 220 0
0.461198 0.114023 0.264376 255 220 0
0.509021 0.094691 0.326013 255 220 0
0.487853 0.143409 0.280192 255 220 0
0.442414 0.044827 0.279017 255 220 0
0.547571 0.109402 0.279233 255 220 0
0.523108 0.135338 0.332275 255 220 0
0.525605 0.111997 0.256280 255 220 0
0.484678 0.066385 0.316600 255 220 0
0.506948 0.157270 0.329959 255 220 0
0.554781 0.129685 0.295549 255 220 0
0.496224 0.123160 0.257166 255 220 0
0.431570 0.083157 0.283358 255 220 0
0.436247 0.087481 0.268996 255 220 0
0.498537 0.145014 0.329647 255 220 0
0.521547 0.098392 0.253415 255 220 0
0.437755 0.051402 0.282175 255 220 0
0.536559 0.088803 0.283595 255 220 0
0.523398 0.114089 0.327735 255 220 0
0.537292 0.146400 0.274385 255 220 0
0.546711 0.155835 0.325567 255 220 0
0.558356 0.155667 0.298563 255 220 0
0.512666 0.076637 0.254678 255 220 0
0.556865 0.139006 0.293738 255 220 0
0.533500 0.124241 0.262764 255 220 0
0.510001 0.161506 0.330206 255 220 0
0.492457 0.159226 0.304655 255 220 0
0.480216 0.145387 0.315941 255 220 0
0.558445 0.160310 0.304086 255 220 0
0.479877 0.141700 0.319733 255 220 0
0.462467 0.075100 0.242723 255 220 0
0.513368 0.180030 0.324521 255 220 0
0.497154 0.100620 0.246999 255 220 0
0.552851 0.174808 0.303443 255 220 0
0.463413 0.068374 0.315867 255 220 0
0.545016 0.130834 0.271780 255 220 0
0.434747 0.059876 0.265450 255 220 0
0.547337 0.109244 0.296480 255 220 0
0.499954 0.094700 0.245988 255 220 0
0.487688 0.059834 0.310497 255 220 0
0.514811 0.063448 0.287759 255 220 0
0.446340 0.108273 0.308383 255 220 0
0.556718 0.147250 0.308663 255 220 0
0.440655 0.050610 0.261842 255 220 0
0.538649 0.149493 0.329888 255 220 0
0.495614 0.163003 0.309312 255 220 0
0.519327 0.067197 0.283298 255 220 0
0.456888 0.120086 0.277176 255 220 0
0.470007 0.086935 0.324698 255 220 0
0.481728 0.095859 0.328285 255 220 0
0.439260 0.063782 0.298933 255 220 0
0.535833 0.135852 0.268359 255 220 0
0.430773 0.076415 0.284922 255 220 0
0.536820 0.188446 0.325046 255 220 0
0.477453 0.054471 0.249861 255 220 0
0.490500 0.073177 0.320317 255 220 0
0.495248 0.061896 0.310157 255 220 0
0.466814 0.052159 0.303465 255 220 0
0.449420 0.107014 0.313254 255 220 0
0.434693 0.054794 0.275250 255 220 0
0.538837 0.121546 0.321923 255 220 0
0.541655 0.177795 0.328237 255 220 0
0.503975 0.090882 0.246513 255 220 0
0.493818 0.070724 0.247419 255 220 0
0.524039 0.116632 0.328249 255 220 0
0.437797 0.076881 0.260228 255 220 0
0.434930 0.068080 0.263467 255 220 0
0.541968 0.170260 0.329233 255 220 0
0.543449 0.121207 0.268122 255 220 0
0.441216 0.095361 0.266876 255 220 0
0.511076 0.172696 0.298922 255 220 0
0.458294 0.108780 0.320667 255 220 0
0.506686 0.108781 0.330152 255 220 0
0.497675 0.061397 0.308199 255 220 0
0.487205 0.063810 0.314269 255 220 0
0.543360 0.100078 0.282284 255 220 0
0.552931 0.145414 0.284912 255 220 0
0.511272 0.086485 0.249809 255 220 0
0.487592 0.083286 0.243182 255 220 0
0.440174 0.097568 0.271277 255 220 0
0.455631 0.048745 0.297005 255 220 0
0.519670 0.119822 0.256979 255 220 0
0.435838 0.084540 0.267508 255 220 0
0.543473 0.168100 0.290211 255 220 0
0.491303 0.047806 0.277297 255 220 0
0.524676 0.137118 0.265551 255 220 0
0.528370 0.183559 0.299246 255 220 0
0.539214 0.181065 0.297252 255 220 0
0.457097 0.123502 0.311168 255 220 0
0.525333 0.073997 0.279091 255 220 0
0.481421 0.048500 0.258440 255 220 0
0.505721 0.078742 0.319282 255 220 0
0.544912 0.174630 0.326668 255 220 0
0.476926 0.044004 0.289888 255 220 0
0.462247 0.090414 0.322958 255 220 0
0.502436 0.111554 0.251333 255 220 0
0.544087 0.171867 0.327714 255 220 0
0.521751 0.070777 0.291997 255 220 0
0.442902 0.049797 0.289399 255 220 0
0.479401 0.046428 0.260198 255 220 0
0.492653 0.112749 0.251648 255 220 0
0.551735 0.128630 0.279237 255 220 0
0.442099 0.045987 0.267069 255 220 0
0.445155 0.102861 0.268988 255 220 0
0.521274 0.186110 0.327022 255 220 0
0.457880 0.041269 0.286030 255 220 0
0.505110 0.098794 0.247650 255 220 0
0.548590 0.174615 0.298114 255 220 0
0.553356 0.159571 0.292267 255 220 0
0.466988 0.047999 0.298429 255 220 0
0.534476 0.160188 0.282202 255 220 0
0.452959 0.053429 0.250619 255 220 0
0.518184 0.066767 0.289777 255 220 0
0.542776 0.137058 0.324445 255 220 0
0.512737 0.108087 0.251694 255 220 0
0.475657 0.092770 0.244344 255 220 0
0.531600 0.090815 0.307794 255 220 0
0.491690 0.106126 0.330352 255 220 0
0.554903 0.130688 0.289222 255 220 0
0.501137 0.053609 0.276230 255 220 0
0.541662 0.183294 0.300241 255 220 0
0.481991 0.100249 0.329005 255 220 0
0.441653 0.089192 0.308852 255 220 0
0.520811 0.109713 0.327347 255 220 0
0.549531 0.145399 0.320694 255 220 0
0.508297 0.059941 0.294204 255 220 0
0.465250 0.087679 0.244381 255 220 0
0.486434 0.134448 0.270435 255 220 0
0.537132 0.181003 0.296764 255 220 0
0.545970 0.145032 0.324100 255 220 0
0.476831 0.060325 0.245970 255 220 0
0.533829 0.138773 0.268919 255 220 0
0.541727 0.105836 0.308560 255 220 0
0.512167 0.166531 0.329865 255 220 0
0.499144 0.162704 0.320566 255 220 0
0.457551 0.126787 0.306057 255 220 0
0.545630 0.128003 0.271439 255 220 0
0.460431 0.092503 0.322508 255 220 0
0.480481 0.146412 0.314725 255 220 0
0.558100 0.158567 0.307014 255 220 0
0.541182 0.179349 0.296649 255 220 0
0.471882 0.040288 0.275554 255 220 0
0.534633 0.173964 0.291876 255 220 0
0.490208 0.071325 0.319264 255 220 0
0.439849 0.049662 0.284248 255 220 0
0.463155 0.106949 0.324025 255 220 0
0.499031 0.164807 0.317672 255 220 0
0.517360 0.171076 0.331054 255 220 0
0.518809 0.189889 0.316438 255 220 0
0.460889 0.038556 0.276110 255 220 0
0.548276 0.109941 0.291190 255 220 0
0.492481 0.101200 0.246867 255 220 0
0.452112 0.041821 0.262968 255 220 0
0.487243 0.126442 0.262322 255 220 0
0.494233 0.049737 0.274416 255 220 0
0.540902 0.118316 0.318698 255 220 0
0.535706 0.105819 0.316409 255 220 0
0.541931 0.166859 0.288720 255 220 0
0.526222 0.088704 0.260089 255 220 0
0.444686 0.062766 0.252375 255 220 0
0.548197 0.139828 0.320415 255 220 0
0.486107 0.122305 0.330319 255 220 0
0.490900 0.082016 0.324524 255 220 0
0.475446 0.125400 0.266960 255 220 0
0.475421 0.103473 0.328400 255 220 0
0.446692 0.088109 0.313655 255 220 0
0.477875 0.146646 0.306029 255 220 0
0.490543 0.083106 0.324982 255 220 0
0.460803 0.069983 0.315695 255 220 0
0.488568 0.096845 0.245350 255 220 0
0.476771 0.144804 0.297957 255 220 0
0.459545 0.065148 0.312448 255 220 0
0.481452 0.045038 0.289786 255 220 0
0.534602 0.108041 0.318750 255 220 0
0.483564 0.055502 0.306462 255 220 0
0.471217 0.072209 0.319953 255 220 0
0.479477 0.074400 0.242244 255 220 0
0.446186 0.100076 0.264334 255 220 0
0.455943 0.076670 0.244932 255 220 0
0.522473 0.084465 0.312771 255 220 0
0.531487 0.189020 0.303356 255 220 0
0.437543 0.077742 0.260890 255 220 0
0.558189 0.146212 0.297744 255 220 0
0.500706 0.157987 0.325781 255 220 0
0.502906 0.098547 0.247192 255 220 0
0.527165 0.075991 0.280611 255 220 0
0.505123 0.058197 0.295371 255 220 0
0.494429 0.053698 0.299347 255 220 0
0.504225 0.064734 0.257495 255 220 0
0.458849 0.124846 0.283241 255 220 0
0.547080 0.162186 0.288600 255 220 0
0.471562 0.140009 0.295602 255 220 0
0.482378 0.045385 0.265931 255 220 0
0.475228 0.110891 0.253854 255 220 0
0.527421 0.076219 0.281468 255 220 0
0.482553 0.045525 0.290350 255 220 0
0.516857 0.067267 0.270972 255 220 0
0.531676 0.113222 0.259062 255 220 0
0.463099 0.099394 0.250525 255 220 0
0.516546 0.132859 0.332733 255 220 0
0.505024 0.064098 0.306117 255 220 0
0.505996 0.109817 0.330409 255 220 0
0.435390 0.054746 0.268228 255 220 0
0.441725 0.106168 0.282485 255 220 0
0.473442 0.140890 0.312788 255 220 0
0.490215 0.070060 0.318460 255 220 0
0.463096 0.074068 0.318532 255 220 0
0.541649 0.100230 0.300332 255 220 0
0.476737 0.065480 0.243778 255 220 0
0.503077 0.078172 0.319929 255 220 0
0.504709 0.083168 0.322222 255 220 0
0.483536 0.065311 0.245864 255 220 0
0.529140 0.128124 0.329407 255 220 0
0.495756 0.065373 0.251307 255 220 0
0.557913 0.149529 0.295210 255 220 0
0.432871 0.084395 0.275763 255 220 0
0.539842 0.093985 0.283756 255 220 0
0.523707 0.071740 0.284207 255 220 0
0.449453 0.052493 0.297959 255 220 0
0.531847 0.189947 0.304387 255 220 0
0.509906 0.138273 0.333056 255 220 0
0.478947 0.082202 0.324781 255 220 0
0.432998 0.074517 0.294329 255 220 0
0.503862 0.055021 0.284408 255 220 0
0.545244 0.106756 0.300695 255 220 0
0.437458 0.049730 0.272780 255 220 0
0.491314 0.158394 0.309815 255 220 0
0.503141 0.102628 0.248290 255 220 0
0.438067 0.095807 0.301384 255 220 0
0.438111 0.055078 0.289132 255 220 0
0.528816 0.187230 0.301962 255 220 0
0.545500 0.110115 0.272113 255 220 0
0.448324 0.066967 0.307785 255 220 0
0.446189 0.100410 0.264678 255 220 0
0.449261 0.083198 0.249964 255 220 0
0.507776 0.154997 0.282155 255 220 0
0.540782 0.129163 0.268202 255 220 0
0.509907 0.132526 0.262008 255 220 0
0.500310 0.113196 0.251874 255 220 0
0.529181 0.190457 0.305133 255 220 0
0.508597 0.140468 0.268399 255 220 0
0.522409 0.185744 0.303179 255 220 0
0.537631 0.132632 0.267787 255 220 0
0.496755 0.101480 0.247221 255 220 0
0.537696 0.165237 0.286326 255 220 0
0.514409 0.133030 0.262273 255 220 0
0.517081 0.186484 0.309520 255 220 0
