ply
format ascii 1.0
element vertex 1024
property float x
property float y
property float z
property uchar red
property uchar green
property uchar blue
end_header
0.612449 0.051749 0.092474 255 220 0
0.562061 0.044157 0.047072 255 220 0
0.649321 0.022929 0.044751 255 220 0
0.608516 -0.007411 0.062669 255 220 0
0.637268 0.047814 0.022243 255 220 0
0.582639 0.043184 0.008798 255 220 0
0.618147 0.040837 0.089671 255 220 0
0.620673 0.123748 0.090508 255 220 0
0.654979 0.058438 0.072982 255 220 0
0.615897 0.032085 0.005126 255 220 0
0.606967 -0.006206 0.064244 255 220 0
0.617600 -0.012591 0.011252 255 220 0
0.604110 0.047660 0.008115 255 220 0
0.621321 0.033710 0.086802 255 220 0
0.643526 0.018286 0.061468 255 220 0
0.568616 0.069253 0.053623 255 220 0
0.574272 -0.006495 0.014515 255 220 0
0.624660 0.083184 0.095930 255 220 0
0.573168 0.072318 0.063210 255 220 0
0.614017 0.017226 0.080716 255 220 0
0.617764 0.009001 0.074620 255 220 0
0.623991 0.036263 0.086976 255 220 0
0.560107 0.030903 0.036625 255 220 0
0.590200 -0.016478 0.008783 255 220 0
0.585120 0.046724 0.009437 255 220 0
0.586748 0.040664 0.006546 255 220 0
0.623050 0.122421 0.048381 255 220 0
0.644386 0.023852 0.028306 255 220 0
0.602374 -0.005696 0.002275 255 220 0
0.604458 0.138699 0.052348 255 220 0
0.651833 0.031627 0.045619 255 220 0
0.636191 0.132269 0.079639 255 220 0
0.653713 0.073448 0.052213 255 220 0
0.606525 0.142359 0.053904 255 220 0
0.600133 0.067981 0.090958 255 220 0
0.621345 -0.018101 0.035122 255 220 0
0.618324 0.085259 0.028953 255 220 0
0.595297 0.020961 0.080556 255 220 0
0.636245 0.130793 0.081689 255 220 0
0.654563 0.076097 0.055585 255 220 0
0.589736 0.089939 0.032690 255 220 0
0.644561 0.117960 0.077066 255 220 0
0.645714 0.025265 0.030322 255 220 0
0.640326 0.021322 0.022192 255 220 0
0.599826 0.127914 0.081033 255 220 0
0.619556 0.075030 0.024132 255 220 0
0.611655 0.014655 0.079467 255 220 0
0.648162 0.022573 0.038075 255 220 0
0.596180 0.044650 0.087407 255 220 0
0.586321 -0.018801 0.013283 255 220 0
0.648230 0.052420 0.036161 255 220 0
0.634412 0.111875 0.091072 255 220 0
0.606659 0.031199 0.087002 255 220 0
0.594989 0.063126 0.088233 255 220 0
0.605992 0.021519 0.083010 255 220 0
0.567705 0.062263 0.056771 255 220 0
0.640016 0.005009 0.039242 255 220 0
0.586229 -0.015101 0.048385 255 220 0
0.586844 0.061524 0.016162 255 220 0
0.574493 0.029082 0.008522 255 220 0
0.650077 0.072058 0.045000 255 220 0
0.580243 -0.008155 0.051012 255 220 0
0.613420 0.126525 0.088957 255 220 0
0.627944 0.008012 0.068739 255 220 0
0.629183 -0.009195 0.023470 255 220 0
0.634155 0.136243 0.075108 255 220 0
0.581245 0.017351 0.071073 255 220 0
0.624264 0.090956 0.034100 255 220 0
0.643363 0.026260 0.069488 255 220 0
0.651075 0.070106 0.045844 255 220 0
0.644179 0.012510 0.048934 255 220 0
0.616947 0.105766 0.038875 255 220 0
0.649439 0.083679 0.049541 255 220 0
0.644882 0.112100 0.064037 255 220 0
0.618288 0.024774 0.083863 255 220 0
0.632367 0.122009 0.053887 255 220 0
0.587069 -0.002289 0.061970 255 220 0
0.626919 0.027959 0.082695 255 220 0
0.651479 0.053030 0.041432 255 220 0
0.586143 0.083596 0.078790 255 220 0
0.596758 0.116557 0.082276 255 220 0
0.570815 0.053102 0.065039 255 220 0
0.631132 0.022731 0.011649 255 220 0
0.635853 0.049929 0.086731 255 220 0
0.579955 0.090306 0.042317 255 220 0
0.632112 0.058588 0.021956 255 220 0
0.575007 -0.008775 0.015749 255 220 0
0.647390 0.108448 0.080421 255 220 0
0.620718 0.060536 0.094096 255 220 0
0.615411 0.088289 0.095570 255 220 0
0.653334 0.036404 0.052156 255 220 0
0.587138 0.096567 0.039616 255 220 0
0.600381 -0.011583 0.058662 255 220 0
0.625897 0.085537 0.032030 255 220 0
0.586977 -0.009799 0.054995 255 220 0
0.583017 0.025819 0.003569 255 220 0
0.633698 0.020996 0.014022 255 220 0
0.622658 -0.011874 0.048158 255 220 0
0.618564 0.093112 0.033094 255 220 0
0.636698 0.011632 0.064124 255 220 0
0.619701 0.014195 0.077644 255 220 0
0.577425 -0.016713 0.031201 255 220 0
0.628011 0.009453 0.009260 255 220 0
0.608459 -0.012398 0.056806 255 220 0
0.634220 0.010816 0.015518 255 220 0
0.605052 0.085652 0.027396 255 220 0
0.622748 -0.007405 0.011403 255 220 0
0.646815 0.027713 0.065227 255 220 0
0.621879 0.031974 0.007259 255 220 0
0.638356 0.023714 0.073135 255 220 0
0.560358 0.026562 0.030273 255 220 0
0.638348 0.008139 0.024175 255 220 0
0.596365 0.045036 0.087547 255 220 0
0.579217 0.024442 0.072230 255 220 0
0.618170 0.036900 0.007507 255 220 0
0.596859 0.039890 0.086824 255 220 0
0.616575 -0.004358 0.005513 255 220 0
0.576337 0.073859 0.068092 255 220 0
0.633313 0.045240 0.018093 255 220 0
0.566310 0.058792 0.054969 255 220 0
0.570636 0.072918 0.037443 255 220 0
0.584950 -0.010782 0.052456 255 220 0
0.625866 0.097303 0.038005 255 220 0
0.637330 0.054579 0.087323 255 220 0
0.609323 0.067995 0.018283 255 220 0
0.612125 0.029963 0.003335 255 220 0
0.654120 0.039247 0.051540 255 220 0
0.618178 0.102749 0.037732 255 220 0
0.629896 0.137322 0.081443 255 220 0
0.611545 0.043560 0.090776 255 220 0
0.609567 -0.003220 0.066686 255 220 0
0.593461 0.051673 0.086887 255 220 0
0.620265 0.115487 0.092825 255 220 0
0.579693 -0.019239 0.028827 255 220 0
0.655431 0.043641 0.056494 255 220 0
0.567669 0.003418 0.042460 255 220 0
0.597913 0.140885 0.068385 255 220 0
0.602237 0.067340 0.091828 255 220 0
0.614387 0.058052 0.093680 255 220 0
0.566425 0.006007 0.018060 255 220 0
0.637040 0.006262 0.056491 255 220 0
0.584537 0.026534 0.003173 255 220 0
0.603151 0.085766 0.091917 255 220 0
0.654791 0.050275 0.047859 255 220 0
0.584301 0.071925 0.022996 255 220 0
0.568077 0.016955 0.055655 255 220 0
0.571222 -0.008605 0.024585 255 220 0
0.615487 -0.020462 0.019815 255 220 0
0.631268 -0.003594 0.019499 255 220 0
0.601989 0.105390 0.038244 255 220 0
0.656647 0.075238 0.062354 255 220 0
0.597587 0.132335 0.076274 255 220 0
0.565877 0.010257 0.017336 255 220 0
0.589101 0.002833 0.067350 255 220 0
0.636698 0.068271 0.029143 255 220 0
0.586353 -0.018168 0.044260 255 220 0
0.617907 0.011414 0.076312 255 220 0
0.582212 0.058756 0.078202 255 220 0
0.563074 0.009803 0.031848 255 220 0
0.586767 0.112740 0.063715 255 220 0
0.619703 0.122214 0.046898 255 220 0
0.593621 0.113913 0.046455 255 220 0
0.638325 0.028625 0.076284 255 220 0
0.636438 0.002584 0.050763 255 220 0
0.594839 -0.001354 0.067072 255 220 0
0.616108 0.119937 0.044878 255 220 0
0.589362 -0.015563 0.008419 255 220 0
0.648851 0.095089 0.082795 255 220 0
0.634885 0.096976 0.092808 255 220 0
0.615814 0.035781 0.006338 255 220 0
0.626016 0.109617 0.093712 255 220 0
0.619267 0.041064 0.089565 255 220 0
0.646378 0.032274 0.030279 255 220 0
0.606128 0.053819 0.011023 255 220 0
0.616839 0.148631 0.063629 255 220 0
0.613487 0.047745 0.009988 255 220 0
0.632415 0.079600 0.032088 255 220 0
0.613184 -0.023196 0.033562 255 220 0
0.611987 0.088973 0.029585 255 220 0
0.593119 0.095537 0.035089 255 220 0
0.609779 0.145896 0.075067 255 220 0
0.633746 -0.001059 0.049431 255 220 0
0.594084 0.101436 0.038568 255 220 0
0.610075 0.032879 0.087777 255 220 0
0.597914 0.026563 0.000867 255 220 0
0.619472 0.025401 0.004520 255 220 0
0.629142 0.001048 0.059971 255 220 0
0.570678 0.036392 0.065376 255 220 0
0.608345 0.088284 0.028916 255 220 0
0.611837 -0.022871 0.037258 255 220 0
0.641379 0.010962 0.029587 255 220 0
0.595418 -0.021084 0.044983 255 220 0
0.603320 0.027535 0.001173 255 220 0
0.615428 -0.006827 0.060757 255 220 0
0.635257 0.053819 0.088208 255 220 0
0.600909 0.102731 0.088778 255 220 0
0.630970 -0.003166 0.018400 255 220 0
0.577930 0.079025 0.032376 255 220 0
0.624170 0.106851 0.041778 255 220 0
0.652670 0.044493 0.069172 255 220 0
0.616824 0.046374 0.091286 255 220 0
0.632779 0.011570 0.068195 255 220 0
0.562608 0.051971 0.041416 255 220 0
0.623673 0.035775 0.086897 255 220 0
0.583213 0.044154 0.079238 255 220 0
0.627499 0.057518 0.019109 255 220 0
0.628200 0.076524 0.028395 255 220 0
0.633832 -0.004273 0.031593 255 220 0
0.626652 -0.013647 0.030165 255 220 0
0.568056 -0.000696 0.038148 255 220 0
0.584281 0.106234 0.059352 255 220 0
0.650882 0.052242 0.040234 255 220 0
0.623215 -0.016881 0.027622 255 220 0
0.591240 0.016385 0.077043 255 220 0
0.603121 -0.021582 0.012706 255 220 0
0.643998 0.026125 0.027115 255 220 0
0.560967 0.028844 0.026507 255 220 0
0.588310 -0.005599 0.059879 255 220 0
0.625586 -0.002001 0.059576 255 220 0
0.577824 0.060089 0.073270 255 220 0
0.583024 0.097563 0.046342 255 220 0
0.609187 0.126346 0.087746 255 220 0
0.602164 0.075722 0.091842 255 220 0
0.598091 0.076667 0.022656 255 220 0
0.651255 0.063859 0.079575 255 220 0
0.600226 0.001719 0.000049 255 220 0
0.641975 0.019806 0.025235 255 220 0
0.609104 0.148487 0.061902 255 220 0
0.624498 0.116237 0.092465 255 220 0
0.607406 0.079038 0.093835 255 220 0
0.609138 0.092871 0.093807 255 220 0
0.588170 0.115572 0.057687 255 220 0
0.562053 0.048457 0.043513 255 220 0
0.620980 0.147428 0.066027 255 220 0
0.594572 0.054943 0.011420 255 220 0
0.604046 -0.026162 0.023051 255 220 0
0.581040 0.057114 0.077161 255 220 0
0.635208 0.096328 0.042549 255 220 0
0.569080 0.031200 0.013386 255 220 0
0.610163 0.081700 0.094613 255 220 0
0.648334 0.036160 0.033443 255 220 0
0.612432 0.104511 0.037560 255 220 0
0.641721 0.096834 0.047649 255 220 0
0.574212 0.073359 0.031443 255 220 0
0.583553 0.062363 0.017704 255 220 0
0.603938 0.041903 0.005813 255 220 0
0.638799 0.100142 0.090629 255 220 0
0.627979 -0.011445 0.037737 255 220 0
0.590960 0.031043 0.002645 255 220 0
0.650053 0.025341 0.050012 255 220 0
0.632213 0.095166 0.040213 255 220 0
0.634177 0.020076 0.074141 255 220 0
0.613678 -0.023208 0.026931 255 220 0
0.653065 0.071903 0.078889 255 220 0
0.632808 0.138024 0.071207 255 220 0
0.579458 0.037684 0.075307 255 220 0
0.589055 0.119429 0.064052 255 220 0
0.642710 0.073012 0.036240 255 220 0
0.645424 0.021874 0.061881 255 220 0
0.600580 0.129210 0.081168 255 220 0
0.595373 0.004422 0.071731 255 220 0
0.653463 0.069654 0.049989 255 220 0
0.650202 0.049349 0.075565 255 220 0
0.642159 0.042878 0.026001 255 220 0
0.615445 0.121140 0.045190 255 220 0
0.591466 0.054158 0.085860 255 220 0
0.610731 0.044078 0.090868 255 220 0
0.615628 0.147421 0.059005 255 220 0
0.608214 0.021500 0.000423 255 220 0
0.638765 0.016256 0.020860 255 220 0
0.647392 0.041605 0.032523 255 220 0
0.580215 0.059892 0.017774 255 220 0
0.587751 0.051718 0.083240 255 220 0
0.643955 0.036786 0.027080 255 220 0
0.596595 0.086953 0.087965 255 220 0
0.573271 0.044508 0.068993 255 220 0
0.652256 0.070524 0.079716 255 220 0
0.566130 0.031114 0.057439 255 220 0
0.589188 0.117382 0.068872 255 220 0
0.618288 0.060644 0.016996 255 220 0
0.567562 0.005435 0.044526 255 220 0
0.655874 0.064924 0.053591 255 220 0
0.607460 0.057029 0.012681 255 220 0
0.589770 -0.008414 0.058149 255 220 0
0.591286 -0.022428 0.041030 255 220 0
0.629127 0.083759 0.095091 255 220 0
0.563945 0.014891 0.020250 255 220 0
0.626626 0.075692 0.095291 255 220 0
0.561375 0.045353 0.038957 255 220 0
0.643359 0.010582 0.040313 255 220 0
0.639405 0.004589 0.034540 255 220 0
0.594988 0.020345 0.000032 255 220 0
0.568812 0.006716 0.048798 255 220 0
0.643634 0.020389 0.063652 255 220 0
0.585000 0.017589 0.074020 255 220 0
0.627112 0.017868 0.008126 255 220 0
0.564892 0.027489 0.017716 255 220 0
0.571301 -0.005872 0.039103 255 220 0
0.633448 -0.004934 0.032405 255 220 0
0.644046 0.087114 0.087658 255 220 0
0.560270 0.033204 0.031326 255 220 0
0.574761 0.070583 0.028490 255 220 0
0.629932 0.121736 0.051997 255 220 0
0.568811 0.050832 0.021536 255 220 0
0.565881 0.059081 0.033077 255 220 0
0.638856 0.003296 0.041625 255 220 0
0.594896 -0.026780 0.024866 255 220 0
0.616953 0.129162 0.088473 255 220 0
0.630867 0.066026 0.092900 255 220 0
0.643865 0.069846 0.036131 255 220 0
0.595241 0.097062 0.085415 255 220 0
0.630419 0.059702 0.091801 255 220 0
0.611303 0.076189 0.022735 255 220 0
0.577266 0.088474 0.058741 255 220 0
0.597628 -0.005662 0.002176 255 220 0
0.640246 0.005632 0.044298 255 220 0
0.625958 0.034303 0.009954 255 220 0
0.563405 0.042692 0.052091 255 220 0
0.647599 0.048551 0.034278 255 220 0
0.595951 0.089617 0.030495 255 220 0
0.600287 0.006107 -0.000606 255 220 0
0.571451 0.021986 0.063424 255 220 0
0.625636 0.037802 0.087010 255 220 0
0.584276 0.045806 0.009305 255 220 0
0.580984 0.056010 0.077180 255 220 0
0.630257 0.051982 0.089860 255 220 0
0.650764 0.053469 0.076711 255 220 0
0.635293 -0.000565 0.026721 255 220 0
0.638549 0.006769 0.026086 255 220 0
0.644923 0.024410 0.065492 255 220 0
0.595502 -0.026179 0.034731 255 220 0
0.565480 0.026052 0.054732 255 220 0
0.590397 -0.025010 0.034660 255 220 0
0.615605 0.071014 0.021010 255 220 0
0.591992 0.107881 0.044109 255 220 0
0.619347 0.138443 0.083754 255 220 0
0.584472 0.052892 0.080626 255 220 0
0.614636 0.078146 0.024347 255 220 0
0.575860 0.056051 0.018186 255 220 0
0.569217 0.053674 0.062517 255 220 0
0.592645 0.130200 0.063945 255 220 0
0.598681 0.112374 0.042459 255 220 0
0.654009 0.038709 0.052990 255 220 0
0.631140 -0.004384 0.020227 255 220 0
0.647759 0.022184 0.037063 255 220 0
0.641210 0.101313 0.049833 255 220 0
0.621800 0.104126 0.094825 255 220 0
0.569496 -0.002756 0.039197 255 220 0
0.572704 0.025412 0.066096 255 220 0
0.654029 0.076475 0.054494 255 220 0
0.621349 0.121960 0.091064 255 220 0
0.586678 0.035111 0.080508 255 220 0
0.632128 0.066925 0.025599 255 220 0
0.618344 0.117217 0.092337 255 220 0
0.647570 0.037962 0.032289 255 220 0
0.613355 0.080102 0.025093 255 220 0
0.589205 0.080083 0.026328 255 220 0
0.574380 0.068056 0.026925 255 220 0
0.641882 0.094336 0.089009 255 220 0
0.629792 0.104633 0.093824 255 220 0
0.568145 0.068645 0.052399 255 220 0
0.614129 0.147947 0.059555 255 220 0
0.580379 0.029585 0.074669 255 220 0
0.619116 0.070222 0.021666 255 220 0
0.593950 0.058310 0.013172 255 220 0
0.599623 0.123591 0.082635 255 220 0
0.579367 -0.014290 0.041975 255 220 0
0.590402 -0.011048 0.055865 255 220 0
0.578848 -0.003499 0.007965 255 220 0
0.595524 0.089507 0.030521 255 220 0
0.583537 0.091385 0.038340 255 220 0
0.618130 -0.020002 0.023420 255 220 0
0.647177 0.019415 0.053038 255 220 0
0.597656 0.136495 0.073478 255 220 0
0.564414 0.011314 0.041601 255 220 0
0.598037 -0.022873 0.042524 255 220 0
0.593513 0.046546 0.086401 255 220 0
0.569457 0.051454 0.063195 255 220 0
0.625968 0.106345 0.094275 255 220 0
0.612721 0.140151 0.082137 255 220 0
0.583782 -0.022568 0.026183 255 220 0
0.641433 0.114247 0.058956 255 220 0
0.562576 0.011697 0.030484 255 220 0
0.612856 0.008856 0.075700 255 220 0
0.591896 0.127499 0.061266 255 220 0
0.583935 0.062589 0.017688 255 220 0
0.629631 0.100090 0.041295 255 220 0
0.637351 0.104134 0.091045 255 220 0
0.620335 0.025911 0.083902 255 220 0
0.596017 -0.020097 0.010599 255 220 0
0.581602 0.043425 0.077795 255 220 0
0.629683 0.130887 0.055845 255 220 0
0.639512 0.006835 0.051939 255 220 0
0.573473 0.025172 0.066912 255 220 0
0.593811 0.076034 0.086949 255 220 0
0.623085 0.118588 0.046751 255 220 0
0.592591 0.074473 0.022109 255 220 0
0.608333 0.046689 0.091190 255 220 0
0.608645 0.128979 0.086531 255 220 0
0.578290 0.081956 0.034789 255 220 0
0.591954 0.124728 0.056901 255 220 0
0.579850 0.087969 0.067820 255 220 0
0.578416 0.082360 0.068013 255 220 0
0.579312 0.087549 0.039740 255 220 0
0.618876 -0.002672 0.063629 255 220 0
0.613350 0.041567 0.007598 255 220 0
0.652769 0.039011 0.043536 255 220 0
0.589091 0.090116 0.080727 255 220 0
0.636495 0.056939 0.024486 255 220 0
0.562166 0.020725 0.042254 255 220 0
0.620177 -0.005321 0.008096 255 220 0
0.611331 0.060400 0.014943 255 220 0
0.649160 0.029387 0.061482 255 220 0
0.655791 0.059201 0.051627 255 220 0
0.565206 0.033506 0.018319 255 220 0
0.651518 0.032150 0.042715 255 220 0
0.642000 0.123565 0.075051 255 220 0
0.590509 0.123392 0.065924 255 220 0
0.637514 0.010963 0.020604 255 220 0
0.620355 0.034488 0.087295 255 220 0
0.607823 0.034101 0.088058 255 220 0
0.579874 -0.004924 0.053960 255 220 0
0.651811 0.048947 0.041205 255 220 0
0.580023 0.082817 0.033733 255 220 0
0.574516 0.050083 0.070289 255 220 0
0.622109 0.141587 0.056033 255 220 0
0.642238 0.108321 0.055615 255 220 0
0.616836 -0.021425 0.032859 255 220 0
0.601697 0.055962 0.011677 255 220 0
0.578523 -0.012934 0.042760 255 220 0
0.604761 0.111595 0.040671 255 220 0
0.608988 0.087984 0.028782 255 220 0
0.627503 0.124671 0.089223 255 220 0
0.648962 0.034668 0.067727 255 220 0
0.606474 0.015444 -0.000523 255 220 0
0.588767 0.099140 0.040377 255 220 0
0.612847 0.113374 0.092292 255 220 0
0.634183 0.015792 0.070793 255 220 0
0.622474 -0.016767 0.037039 255 220 0
0.601729 0.018540 0.081043 255 220 0
0.638177 0.003127 0.031563 255 220 0
0.609918 0.074689 0.094506 255 220 0
0.591794 -0.026236 0.031030 255 220 0
0.586526 0.111005 0.066163 255 220 0
0.649549 0.059519 0.040035 255 220 0
0.606271 0.038372 0.089095 255 220 0
0.593084 0.053991 0.011134 255 220 0
0.564105 0.052056 0.031156 255 220 0
0.657771 0.062018 0.060345 255 220 0
0.596684 -0.006057 0.002360 255 220 0
0.645858 0.054806 0.033558 255 220 0
0.566931 0.041990 0.019235 255 220 0
0.576648 -0.010608 0.015335 255 220 0
0.619502 0.066587 0.095105 255 220 0
0.648323 0.054216 0.036765 255 220 0
0.602897 0.046139 0.007383 255 220 0
0.590505 -0.017554 0.048029 255 220 0
0.652354 0.069012 0.079399 255 220 0
0.654691 0.043302 0.062307 255 220 0
0.613647 0.129543 0.047841 255 220 0
0.593571 0.132514 0.066037 255 220 0
0.613934 0.003422 0.071444 255 220 0
0.616429 0.078010 0.024702 255 220 0
0.631055 0.074991 0.028985 255 220 0
0.647064 0.026621 0.063588 255 220 0
0.572474 0.056992 0.066839 255 220 0
0.639341 0.003957 0.038743 255 220 0
0.630488 0.013943 0.011039 255 220 0
0.575054 0.021947 0.006986 255 220 0
0.646675 0.043247 0.076356 255 220 0
0.624785 0.131886 0.086587 255 220 0
0.590001 0.115387 0.052292 255 220 0
0.574475 0.020376 0.066327 255 220 0
0.624600 0.050160 0.091069 255 220 0
0.573326 -0.011272 0.023779 255 220 0
0.629973 0.015264 0.073571 255 220 0
0.564463 0.059203 0.045900 255 220 0
0.582093 0.008917 0.066853 255 220 0
0.607886 0.071057 0.019672 255 220 0
0.587796 0.115783 0.063331 255 220 0
0.636788 0.118505 0.088233 255 220 0
0.587636 0.011654 0.000952 255 220 0
0.637564 0.008265 0.022228 255 220 0
0.584729 0.032108 0.004369 255 220 0
0.567027 0.067483 0.046876 255 220 0
0.562404 0.033125 0.048957 255 220 0
0.560843 0.038405 0.042476 255 220 0
0.637391 0.048542 0.022568 255 220 0
0.656820 0.075394 0.063664 255 220 0
0.641681 0.119932 0.083665 255 220 0
0.641692 0.100901 0.050061 255 220 0
0.626581 -0.013082 0.025439 255 220 0
0.626052 0.138808 0.082052 255 220 0
0.638950 0.012521 0.062126 255 220 0
0.630268 0.033525 0.083633 255 220 0
0.607643 0.002237 0.071697 255 220 0
0.583904 0.023414 0.075612 255 220 0
0.611740 0.052430 0.011442 255 220 0
0.608867 0.068686 0.094002 255 220 0
0.623717 -0.012441 0.017331 255 220 0
0.612539 0.048432 0.009994 255 220 0
0.624647 0.017176 0.077769 255 220 0
0.608530 0.118061 0.089905 255 220 0
0.599790 -0.026928 0.031965 255 220 0
0.590814 0.109001 0.077442 255 220 0
0.639380 0.050716 0.084933 255 220 0
0.597927 0.048402 0.008204 255 220 0
0.628686 -0.006513 0.048822 255 220 0
0.646014 0.020886 0.059282 255 220 0
0.633272 0.095656 0.041066 255 220 0
0.565159 0.049728 0.055382 255 220 0
0.599760 0.104769 0.038404 255 220 0
0.611341 0.146117 0.075174 255 220 0
0.623113 0.131671 0.051863 255 220 0
0.584527 -0.008005 0.006340 255 220 0
0.597399 0.001984 0.070642 255 220 0
0.638589 0.002791 0.039901 255 220 0
0.611763 -0.007964 0.061054 255 220 0
0.598892 0.110438 0.085863 255 220 0
0.579981 0.067015 0.074735 255 220 0
0.583511 -0.022218 0.031437 255 220 0
0.634902 0.015441 0.015609 255 220 0
0.613903 0.138698 0.083377 255 220 0
0.620642 0.140320 0.054134 255 220 0
0.628751 0.092251 0.036885 255 220 0
0.602706 0.031452 0.086453 255 220 0
0.642895 0.107797 0.056167 255 220 0
0.619201 -0.020135 0.030154 255 220 0
0.575841 0.018479 0.066867 255 220 0
0.607384 0.005815 -0.000179 255 220 0
0.607735 0.014257 -0.000439 255 220 0
0.622887 0.032336 0.085868 255 220 0
0.563816 0.008341 0.034837 255 220 0
0.571653 0.004057 0.051835 255 220 0
0.633666 0.052601 0.088623 255 220 0
0.576815 0.027763 0.071022 255 220 0
0.591395 0.010326 0.073893 255 220 0
0.652104 0.079756 0.052195 255 220 0
0.623993 0.025157 0.082464 255 220 0
0.587130 -0.008164 0.005142 255 220 0
0.601551 0.061299 0.091257 255 220 0
0.641258 0.124539 0.078630 255 220 0
0.601899 0.031796 0.002225 255 220 0
0.573632 0.070194 0.029395 255 220 0
0.626130 0.089883 0.034398 255 220 0
0.641169 0.124149 0.070216 255 220 0
0.573160 0.019690 0.008130 255 220 0
0.641799 0.015618 0.026749 255 220 0
0.646082 0.016411 0.050850 255 220 0
0.650098 0.085994 0.052120 255 220 0
0.578794 0.047829 0.012427 255 220 0
0.569937 0.054636 0.063507 255 220 0
0.651264 0.082419 0.081253 255 220 0
0.644877 0.085190 0.087048 255 220 0
0.595102 -0.007726 0.003093 255 220 0
0.607917 -0.019928 0.046161 255 220 0
0.596019 -0.009133 0.060420 255 220 0
0.571580 -0.004525 0.016665 255 220 0
0.582572 0.095466 0.069075 255 220 0
0.568874 0.057531 0.025764 255 220 0
0.608867 0.120243 0.089484 255 220 0
0.636063 0.122171 0.087220 255 220 0
0.621330 0.147245 0.068684 255 220 0
0.561111 0.042349 0.042068 255 220 0
0.595358 0.129196 0.074725 255 220 0
0.636984 0.106689 0.090883 255 220 0
0.630965 0.066068 0.092873 255 220 0
0.643234 0.022886 0.026535 255 220 0
0.567872 0.068349 0.051507 255 220 0
0.637165 0.003868 0.025601 255 220 0
0.586829 -0.001881 0.003081 255 220 0
0.600171 -0.025114 0.038248 255 220 0
0.646167 0.113804 0.077871 255 220 0
0.587794 0.045373 0.082827 255 220 0
0.605099 0.130715 0.048430 255 220 0
0.560062 0.030705 0.032952 255 220 0
0.616554 0.145098 0.076980 255 220 0
0.598284 0.094009 0.032677 255 220 0
0.583600 0.033759 0.078098 255 220 0
0.567813 0.020221 0.056955 255 220 0
0.631363 0.111083 0.047784 255 220 0
0.651271 0.029544 0.051662 255 220 0
0.584304 -0.019807 0.039453 255 220 0
0.580162 0.027924 0.005101 255 220 0
0.645892 0.042640 0.030603 255 220 0
0.610184 0.001593 0.001147 255 220 0
0.579265 0.006134 0.004764 255 220 0
0.642107 0.090883 0.044617 255 220 0
0.564010 0.014310 0.020266 255 220 0
0.577029 0.050971 0.073220 255 220 0
0.649839 0.044209 0.073349 255 220 0
0.587524 -0.019663 0.013402 255 220 0
0.564126 0.041179 0.023057 255 220 0
0.563038 0.009785 0.030961 255 220 0
0.615309 0.106864 0.093882 255 220 0
0.607075 0.036665 0.004366 255 220 0
0.588884 0.059938 0.014836 255 220 0
0.585036 0.045159 0.080788 255 220 0
0.590932 0.007372 0.071725 255 220 0
0.640594 0.064873 0.030970 255 220 0
0.652976 0.047044 0.043323 255 220 0
0.622223 0.130791 0.087557 255 220 0
0.581220 -0.019196 0.035789 255 220 0
0.567982 0.021608 0.057925 255 220 0
0.586992 0.013453 0.073197 255 220 0
0.574720 0.007289 0.007559 255 220 0
0.603881 0.028610 0.085714 255 220 0
0.633034 0.069558 0.027358 255 220 0
0.637622 0.104231 0.048418 255 220 0
0.632936 0.038582 0.015973 255 220 0
0.639334 0.006573 0.029013 255 220 0
0.576134 -0.015464 0.028171 255 220 0
0.639231 0.004142 0.035295 255 220 0
0.645063 0.060015 0.083880 255 220 0
0.591136 0.023054 0.079689 255 220 0
0.585833 0.079228 0.027061 255 220 0
0.591393 0.081147 0.026341 255 220 0
0.603861 0.036768 0.088248 255 220 0
0.653419 0.065356 0.048262 255 220 0
0.564888 0.023590 0.052342 255 220 0
0.596666 0.114109 0.082904 255 220 0
0.601645 -0.007637 0.002997 255 220 0
0.601054 -0.021860 0.012617 255 220 0
0.589711 0.073658 0.083836 255 220 0
0.617917 0.147322 0.060269 255 220 0
0.633194 0.084765 0.093744 255 220 0
0.574494 0.022721 0.067227 255 220 0
0.581824 0.040144 0.007948 255 220 0
0.584834 0.057189 0.014497 255 220 0
0.622710 0.035167 0.008595 255 220 0
0.624922 -0.002724 0.059245 255 220 0
0.643148 0.081510 0.040569 255 220 0
0.618102 -0.019168 0.039136 255 220 0
0.575567 0.051856 0.016199 255 220 0
0.617528 0.128447 0.048419 255 220 0
0.618911 0.145032 0.057145 255 220 0
0.583740 0.079461 0.076778 255 220 0
0.598479 -0.014409 0.054914 255 220 0
0.602789 -0.005977 0.064768 255 220 0
0.621418 -0.013020 0.015156 255 220 0
0.628130 0.035526 0.085327 255 220 0
0.570088 0.003913 0.013076 255 220 0
0.584577 0.041148 0.080024 255 220 0
0.655426 0.081179 0.073611 255 220 0
0.618337 0.031811 0.086745 255 220 0
0.566129 0.021754 0.054295 255 220 0
0.652182 0.096506 0.071176 255 220 0
0.645790 0.052682 0.032882 255 220 0
0.591249 0.120208 0.072288 255 220 0
0.622542 0.110633 0.093816 255 220 0
0.587450 -0.015325 0.049032 255 220 0
0.592874 0.107853 0.043344 255 220 0
0.638236 0.129808 0.078437 255 220 0
0.636151 0.013475 0.066710 255 220 0
0.608801 0.052576 0.092254 255 220 0
0.604626 0.138469 0.052147 255 220 0
0.569072 0.027999 0.012750 255 220 0
0.648827 0.065744 0.082254 255 220 0
0.583761 0.101783 0.067063 255 220 0
0.620346 0.110080 0.041811 255 220 0
0.645456 0.042463 0.029981 255 220 0
0.577890 0.056530 0.073771 255 220 0
0.579144 0.027758 0.005543 255 220 0
0.613563 -0.023193 0.032453 255 220 0
0.614749 0.134940 0.085630 255 220 0
0.562155 0.023627 0.044315 255 220 0
0.621915 0.097479 0.036378 255 220 0
0.613042 0.096438 0.033656 255 220 0
0.607044 0.103874 0.037048 255 220 0
0.654503 0.081775 0.076127 255 220 0
0.624205 0.098159 0.037644 255 220 0
0.585582 0.087347 0.033071 255 220 0
0.638489 0.052940 0.024921 255 220 0
0.623632 0.015120 0.005640 255 220 0
0.568683 0.012084 0.012600 255 220 0
0.644028 0.118521 0.079357 255 220 0
0.597865 0.131414 0.052543 255 220 0
0.628007 0.020799 0.008944 255 220 0
0.615148 0.056093 0.093374 255 220 0
0.595438 0.007887 0.074058 255 220 0
0.583772 0.098472 0.046015 255 220 0
0.573501 0.051070 0.068934 255 220 0
0.624570 -0.014844 0.037624 255 220 0
0.596382 0.075958 0.088724 255 220 0
0.648306 0.023622 0.056254 255 220 0
0.592694 0.127847 0.058261 255 220 0
0.625652 -0.002759 0.011132 255 220 0
0.594209 0.090393 0.031387 255 220 0
0.632314 0.020752 0.075943 255 220 0
0.593047 -0.026617 0.026179 255 220 0
0.649444 0.099908 0.062672 255 220 0
0.606647 0.143614 0.054907 255 220 0
0.604155 0.091756 0.030797 255 220 0
0.630517 0.014469 0.072574 255 220 0
0.561067 0.043372 0.038809 255 220 0
0.623320 0.142054 0.057491 255 220 0
0.646363 0.016230 0.041667 255 220 0
0.575767 0.086444 0.051959 255 220 0
0.657435 0.056773 0.064804 255 220 0
0.632431 0.070034 0.027247 255 220 0
0.610147 0.079821 0.024476 255 220 0
0.654814 0.062533 0.074652 255 220 0
0.656227 0.048621 0.053527 255 220 0
0.572427 0.075805 0.058832 255 220 0
0.601830 0.076412 0.022309 255 220 0
0.591365 0.124639 0.058736 255 220 0
0.569278 0.013871 0.055875 255 220 0
0.608892 0.142867 0.053566 255 220 0
0.629956 -0.003049 0.016522 255 220 0
0.601128 -0.018322 0.049785 255 220 0
0.592735 0.037289 0.084420 255 220 0
0.598271 0.037833 0.004097 255 220 0
0.581240 0.094267 0.045572 255 220 0
0.648676 0.093934 0.083182 255 220 0
0.583859 0.075844 0.025725 255 220 0
0.590249 0.007160 0.071203 255 220 0
0.590564 -0.003915 0.062773 255 220 0
0.588389 0.032052 0.080881 255 220 0
0.637918 0.004762 0.051715 255 220 0
0.581133 0.097403 0.052310 255 220 0
0.567298 0.068266 0.046723 255 220 0
0.599264 0.058171 0.012721 255 220 0
0.629613 0.000624 0.013498 255 220 0
0.594397 -0.007616 0.061324 255 220 0
0.652642 0.039884 0.064825 255 220 0
0.584123 -0.011069 0.008274 255 220 0
0.578025 0.001896 0.058296 255 220 0
0.596780 0.139049 0.061332 255 220 0
0.598979 0.139265 0.073137 255 220 0
0.611645 -0.014839 0.052371 255 220 0
0.593830 0.130564 0.058055 255 220 0
0.608858 -0.007538 0.062443 255 220 0
0.578422 0.048220 0.012798 255 220 0
0.628741 0.055188 0.018703 255 220 0
0.589197 0.023409 0.078866 255 220 0
0.571228 0.066952 0.062173 255 220 0
0.617393 -0.013202 0.051220 255 220 0
0.596155 -0.005222 0.064243 255 220 0
0.578358 0.025715 0.071880 255 220 0
0.618745 -0.005405 0.060565 255 220 0
0.650804 0.099648 0.076839 255 220 0
0.627516 0.109369 0.044658 255 220 0
0.649944 0.058150 0.079260 255 220 0
0.600497 0.082202 0.025594 255 220 0
0.596367 0.136006 0.071412 255 220 0
0.588302 0.038010 0.005244 255 220 0
0.574065 0.049977 0.016316 255 220 0
0.613863 0.093770 0.094965 255 220 0
0.640284 0.119119 0.061076 255 220 0
0.648726 0.026340 0.036673 255 220 0
0.626907 0.085739 0.095616 255 220 0
0.589412 0.101773 0.078037 255 220 0
0.565033 0.053914 0.053742 255 220 0
0.579760 0.091907 0.064332 255 220 0
0.569221 0.068595 0.056439 255 220 0
0.646452 0.106506 0.061793 255 220 0
0.617439 0.077436 0.095858 255 220 0
0.578165 0.050808 0.074483 255 220 0
0.632765 0.032605 0.082000 255 220 0
0.582276 0.088660 0.037016 255 220 0
0.631836 0.039653 0.015368 255 220 0
0.584669 -0.004185 0.004702 255 220 0
0.569000 0.013660 0.012042 255 220 0
0.640121 0.016680 0.023005 255 220 0
0.651821 0.097364 0.074259 255 220 0
0.628684 0.022400 0.079048 255 220 0
0.631991 0.086267 0.094226 255 220 0
0.640656 0.083246 0.089852 255 220 0
0.575736 0.008424 0.060986 255 220 0
0.646895 0.060343 0.036539 255 220 0
0.571982 -0.010213 0.028866 255 220 0
0.577312 -0.011020 0.043656 255 220 0
0.646817 0.111234 0.069506 255 220 0
0.593938 0.119408 0.049485 255 220 0
0.570519 0.073637 0.038971 255 220 0
0.655445 0.084133 0.069895 255 220 0
0.656044 0.060570 0.071666 255 220 0
0.573975 0.034187 0.010174 255 220 0
0.607081 0.044070 0.007066 255 220 0
0.591073 0.051514 0.085476 255 220 0
0.612020 0.082079 0.025910 255 220 0
0.584265 -0.022869 0.025875 255 220 0
0.651579 0.065499 0.079613 255 220 0
0.595105 0.094799 0.085683 255 220 0
0.654887 0.057305 0.048986 255 220 0
0.582732 0.016490 0.071830 255 220 0
0.586275 0.110720 0.065285 255 220 0
0.643639 0.089954 0.087893 255 220 0
0.635148 0.060308 0.024696 255 220 0
0.573671 0.011296 0.007817 255 220 0
0.587624 0.013535 0.000950 255 220 0
0.581167 0.096914 0.063199 255 220 0
0.654549 0.042825 0.048919 255 220 0
0.578798 -0.017228 0.022243 255 220 0
0.641282 0.044153 0.081328 255 220 0
0.598909 0.073906 0.090290 255 220 0
0.648374 0.096604 0.056803 255 220 0
0.615328 0.118846 0.091597 255 220 0
0.643462 0.115989 0.083529 255 220 0
0.648002 0.020290 0.050661 255 220 0
0.646301 0.098888 0.085137 255 220 0
0.654951 0.072278 0.054472 255 220 0
0.588029 0.115559 0.066195 255 220 0
0.596212 0.103380 0.038798 255 220 0
0.579788 0.089550 0.041576 255 220 0
0.639272 0.121559 0.085396 255 220 0
0.576701 0.086798 0.044891 255 220 0
0.624706 0.003153 0.007897 255 220 0
0.594411 0.132668 0.058891 255 220 0
0.643670 0.037170 0.026765 255 220 0
0.636045 0.133605 0.076102 255 220 0
0.569538 0.012638 0.055466 255 220 0
0.655464 0.083419 0.066004 255 220 0
0.589559 -0.013598 0.007024 255 220 0
0.638265 0.068960 0.090020 255 220 0
0.646293 0.032115 0.030152 255 220 0
0.589382 0.009813 0.072475 255 220 0
0.624234 0.015478 0.076830 255 220 0
0.563935 0.044133 0.025200 255 220 0
0.634756 0.109787 0.091356 255 220 0
0.596196 -0.021542 0.012185 255 220 0
0.606867 0.111684 0.090593 255 220 0
0.594670 0.108754 0.042628 255 220 0
0.630530 0.019239 0.076081 255 220 0
0.594484 0.051373 0.009739 255 220 0
0.566925 0.033717 0.059319 255 220 0
0.571697 0.045951 0.066900 255 220 0
0.566891 -0.001613 0.029369 255 220 0
0.652105 0.085010 0.055641 255 220 0
0.572012 0.005074 0.010475 255 220 0
0.609102 0.146843 0.073186 255 220 0
0.629087 -0.010822 0.029955 255 220 0
0.583608 0.025200 0.075981 255 220 0
0.594511 0.013661 0.076992 255 220 0
0.581318 -0.004374 0.055809 255 220 0
0.562216 0.044792 0.030804 255 220 0
0.582080 -0.016310 0.014678 255 220 0
0.613267 0.083731 0.095297 255 220 0
0.609866 0.138762 0.082193 255 220 0
0.648517 0.029685 0.034644 255 220 0
0.641408 0.008242 0.034715 255 220 0
0.598913 0.076576 0.090205 255 220 0
0.595393 0.002096 0.000289 255 220 0
0.591132 -0.006250 0.003177 255 220 0
0.609362 0.131963 0.085566 255 220 0
0.657311 0.073168 0.065896 255 220 0
0.592396 0.021803 0.000561 255 220 0
0.612520 0.119716 0.044106 255 220 0
0.562279 0.050356 0.041093 255 220 0
0.586305 0.065047 0.081574 255 220 0
0.597577 0.013410 0.077706 255 220 0
0.586163 0.014231 0.073088 255 220 0
0.646596 0.056269 0.081601 255 220 0
0.650450 0.102011 0.074771 255 220 0
0.650748 0.028159 0.043369 255 220 0
0.640530 0.017536 0.023428 255 220 0
0.588348 0.024544 0.001754 255 220 0
0.579047 -0.011891 0.045003 255 220 0
0.650463 0.063266 0.042518 255 220 0
0.588517 0.010342 0.000741 255 220 0
0.640133 0.122018 0.063568 255 220 0
0.617143 -0.007629 0.058872 255 220 0
0.647031 0.082682 0.045501 255 220 0
0.623369 0.134539 0.053037 255 220 0
0.631914 0.134606 0.060437 255 220 0
0.568651 0.061879 0.029473 255 220 0
0.637573 0.026317 0.075527 255 220 0
0.625146 -0.013578 0.040048 255 220 0
0.594193 0.034204 0.084385 255 220 0
0.613191 0.136301 0.084638 255 220 0
0.598271 -0.012294 0.057528 255 220 0
0.563216 0.034590 0.051521 255 220 0
0.643697 0.049768 0.029507 255 220 0
0.611880 0.133707 0.085617 255 220 0
0.625431 0.025096 0.081919 255 220 0
0.576621 -0.015854 0.030881 255 220 0
0.622513 -0.015683 0.040372 255 220 0
0.637127 0.048398 0.022282 255 220 0
0.654128 0.084691 0.076113 255 220 0
0.593172 -0.024403 0.017969 255 220 0
0.593276 0.030343 0.002143 255 220 0
0.597566 0.140994 0.064034 255 220 0
0.588930 -0.020677 0.042441 255 220 0
0.648327 0.037672 0.033482 255 220 0
0.637361 0.131173 0.069861 255 220 0
0.645010 0.117015 0.074786 255 220 0
0.585303 -0.009317 0.054265 255 220 0
0.640490 0.110509 0.054902 255 220 0
0.612690 -0.018056 0.013208 255 220 0
0.624849 0.019914 0.079361 255 220 0
0.613776 0.099901 0.094426 255 220 0
0.650101 0.049279 0.038282 255 220 0
0.631864 0.023586 0.012381 255 220 0
0.619594 0.049900 0.091857 255 220 0
0.576483 0.058663 0.071840 255 220 0
0.648540 0.089583 0.083782 255 220 0
0.624269 0.000181 0.063313 255 220 0
0.631199 0.137982 0.063264 255 220 0
0.571286 0.050305 0.066047 255 220 0
0.560686 0.025044 0.028563 255 220 0
0.597565 0.069026 0.089675 255 220 0
0.620944 0.108723 0.094167 255 220 0
0.615132 0.011841 0.077275 255 220 0
0.625148 0.016076 0.006660 255 220 0
0.618615 0.071195 0.021964 255 220 0
0.630942 0.133898 0.058668 255 220 0
0.616046 0.108170 0.093816 255 220 0
0.631614 -0.006303 0.025161 255 220 0
0.650362 0.087353 0.053559 255 220 0
0.625445 0.066855 0.094517 255 220 0
0.589652 0.120784 0.065844 255 220 0
0.588363 0.111792 0.052127 255 220 0
0.572821 0.064003 0.025573 255 220 0
0.656140 0.080842 0.067191 255 220 0
0.562371 0.035985 0.049240 255 220 0
0.580880 0.090325 0.040679 255 220 0
0.636827 0.120451 0.087523 255 220 0
0.633658 0.133378 0.062059 255 220 0
0.605979 -0.020163 0.046420 255 220 0
0.633108 0.125578 0.056269 255 220 0
0.584237 0.023156 0.075753 255 220 0
0.578580 -0.017876 0.025596 255 220 0
0.562870 0.050620 0.047244 255 220 0
0.590484 0.113126 0.049570 255 220 0
0.592067 0.126675 0.068760 255 220 0
0.604025 0.141653 0.054536 255 220 0
0.598465 -0.024554 0.039462 255 220 0
0.642904 0.068736 0.087230 255 220 0
0.640747 0.036464 0.023138 255 220 0
0.602802 -0.026576 0.024051 255 220 0
0.625387 0.062143 0.020296 255 220 0
0.621221 -0.005658 0.058563 255 220 0
0.617085 0.080545 0.095900 255 220 0
0.615564 0.066932 0.094995 255 220 0
0.640283 0.120129 0.061973 255 220 0
0.652545 0.036350 0.059611 255 220 0
0.605938 -0.011059 0.005198 255 220 0
0.620334 0.103070 0.094920 255 220 0
0.572785 0.072425 0.062359 255 220 0
0.580593 0.034521 0.075852 255 220 0
0.614233 0.059061 0.015019 255 220 0
0.567481 0.051491 0.059880 255 220 0
0.560283 0.026367 0.035470 255 220 0
0.585832 0.088012 0.033427 255 220 0
0.580004 0.035551 0.075507 255 220 0
0.567972 0.013433 0.052947 255 220 0
0.639408 0.031017 0.020877 255 220 0
0.591293 0.084271 0.028332 255 220 0
0.569672 0.007861 0.051696 255 220 0
0.601267 -0.010157 0.060361 255 220 0
0.613049 0.069234 0.094882 255 220 0
0.589828 0.003796 0.068518 255 220 0
0.571435 0.019162 0.062260 255 220 0
0.636066 0.006847 0.020036 255 220 0
0.597514 0.027001 0.000982 255 220 0
0.618793 0.003394 0.004038 255 220 0
0.609945 0.042591 0.090492 255 220 0
0.622206 0.141371 0.055937 255 220 0
0.594718 0.002981 0.000219 255 220 0
0.644048 0.106871 0.086100 255 220 0
0.585426 0.108871 0.058020 255 220 0
0.647254 0.036765 0.031706 255 220 0
0.637581 0.028998 0.077095 255 220 0
0.612202 0.009618 0.076300 255 220 0
0.602291 0.003429 0.072576 255 220 0
0.640484 0.007474 0.050344 255 220 0
0.591087 0.057659 0.013239 255 220 0
0.643735 0.117053 0.067167 255 220 0
0.589758 0.077893 0.024779 255 220 0
0.620069 -0.014665 0.046356 255 220 0
0.624199 0.042556 0.011761 255 220 0
0.637092 0.029462 0.077725 255 220 0
0.601543 -0.009290 0.061331 255 220 0
0.638341 0.016034 0.066768 255 220 0
0.656677 0.060640 0.054623 255 220 0
0.618985 0.027849 0.004914 255 220 0
0.590533 0.090844 0.082093 255 220 0
0.603895 0.017434 0.080794 255 220 0
0.585656 0.065896 0.080886 255 220 0
0.587890 -0.017668 0.010911 255 220 0
0.580734 0.035431 0.006802 255 220 0
0.577850 0.082872 0.036313 255 220 0
0.584864 0.021795 0.075695 255 220 0
0.567259 0.018483 0.054944 255 220 0
0.631715 0.059805 0.091333 255 220 0
0.633189 -0.001941 0.022017 255 220 0
0.591994 0.033113 0.083076 255 220 0
0.591263 0.038731 0.083960 255 220 0
0.635990 0.000124 0.028222 255 220 0
0.601242 0.088977 0.090691 255 220 0
0.639730 0.004541 0.040282 255 220 0
0.645779 0.109381 0.083237 255 220 0
0.580300 0.011186 0.003699 255 220 0
0.643244 0.049925 0.082033 255 220 0
0.632634 0.024856 0.078244 255 220 0
0.574300 -0.009778 0.039891 255 220 0
0.621646 0.142557 0.056512 255 220 0
0.585958 0.094270 0.075704 255 220 0
0.572673 0.031621 0.067376 255 220 0
0.566283 0.005873 0.018449 255 220 0
0.619778 0.003965 0.069780 255 220 0
0.633713 0.066967 0.091930 255 220 0
0.585788 -0.020880 0.016863 255 220 0
0.591540 0.103396 0.041408 255 220 0
0.646538 0.040902 0.031167 255 220 0
0.564021 0.028743 0.019204 255 220 0
0.573691 -0.012194 0.025501 255 220 0
0.621558 0.138690 0.053775 255 220 0
0.655670 0.064113 0.073544 255 220 0
0.565969 0.005643 0.040193 255 220 0
0.597250 0.027390 0.001082 255 220 0
0.610589 0.008860 0.000115 255 220 0
0.623312 0.098621 0.037483 255 220 0
0.655470 0.079976 0.061349 255 220 0
0.640226 0.073739 0.034301 255 220 0
0.641898 0.050872 0.027758 255 220 0
0.619351 0.142498 0.054883 255 220 0
0.634446 0.082232 0.034581 255 220 0
0.616501 0.135872 0.050426 255 220 0
0.653727 0.082327 0.057666 255 220 0
0.643237 0.037922 0.026325 255 220 0
0.639386 0.116983 0.058024 255 220 0
0.642929 0.075448 0.037520 255 220 0
0.608213 0.136523 0.050225 255 220 0
