ply
format ascii 1.0
element vertex 1024
property float x
property float y
property float z
property uchar red
property uchar green
property uchar blue
end_header
0.390474 0.105403 0.096088 255 220 0
0.337587 0.090162 0.055734 255 220 0
0.426417 0.083147 0.044315 255 220 0
0.392948 0.046568 0.065494 255 220 0
0.408364 0.105936 0.023676 255 220 0
0.354078 0.092734 0.015600 255 220 0
0.397513 0.095559 0.092490 255 220 0
0.386970 0.177803 0.094941 255 220 0
0.429217 0.118920 0.072641 255 220 0
0.388128 0.087108 0.008407 255 220 0
0.391396 0.047501 0.067241 255 220 0
0.397485 0.043238 0.013326 255 220 0
0.374390 0.100583 0.012897 255 220 0
0.401467 0.089049 0.089162 255 220 0
0.423152 0.077531 0.061415 255 220 0
0.340720 0.115939 0.062167 255 220 0
0.354294 0.042320 0.020996 255 220 0
0.397848 0.138361 0.099026 255 220 0
0.345678 0.119629 0.071323 255 220 0
0.396283 0.071650 0.083458 255 220 0
0.400647 0.064168 0.076838 255 220 0
0.403704 0.091994 0.089128 255 220 0
0.336705 0.076834 0.045235 255 220 0
0.370937 0.035045 0.013493 255 220 0
0.356020 0.096621 0.016070 255 220 0
0.358284 0.090917 0.012896 255 220 0
0.385248 0.177146 0.052765 255 220 0
0.419758 0.083378 0.028463 255 220 0
0.380530 0.047673 0.006057 255 220 0
0.364816 0.190223 0.058919 255 220 0
0.427596 0.092128 0.045126 255 220 0
0.399763 0.188762 0.082784 255 220 0
0.423498 0.133670 0.052442 255 220 0
0.366424 0.194155 0.060344 255 220 0
0.375658 0.119471 0.096164 255 220 0
0.404451 0.038242 0.036579 255 220 0
0.384515 0.139833 0.033068 255 220 0
0.377290 0.072351 0.085234 255 220 0
0.400258 0.187300 0.084785 255 220 0
0.424256 0.136399 0.055773 255 220 0
0.356075 0.139866 0.039719 255 220 0
0.409987 0.175989 0.079074 255 220 0
0.421044 0.084971 0.030369 255 220 0
0.415552 0.080272 0.022726 255 220 0
0.364875 0.178650 0.087671 255 220 0
0.386855 0.129963 0.027920 255 220 0
0.394243 0.068743 0.082391 255 220 0
0.424658 0.082654 0.037780 255 220 0
0.375104 0.095832 0.092497 255 220 0
0.367949 0.032103 0.018301 255 220 0
0.419812 0.112142 0.036541 255 220 0
0.402398 0.168272 0.093875 255 220 0
0.387483 0.084228 0.090754 255 220 0
0.371097 0.113875 0.093852 255 220 0
0.387955 0.074592 0.086631 255 220 0
0.341250 0.108873 0.065232 255 220 0
0.419553 0.064008 0.039351 255 220 0
0.370828 0.035513 0.053314 255 220 0
0.356054 0.111461 0.022922 255 220 0
0.348279 0.077515 0.015813 255 220 0
0.419416 0.131764 0.045595 255 220 0
0.364116 0.041398 0.056676 255 220 0
0.379249 0.179398 0.094178 255 220 0
0.410207 0.064855 0.069957 255 220 0
0.409562 0.048360 0.024412 255 220 0
0.396677 0.192390 0.078568 255 220 0
0.363098 0.066606 0.077110 255 220 0
0.389970 0.146371 0.037730 255 220 0
0.422542 0.085324 0.069589 255 220 0
0.420791 0.129992 0.046291 255 220 0
0.423437 0.072014 0.048751 255 220 0
0.380925 0.159793 0.043538 255 220 0
0.417412 0.143105 0.050437 255 220 0
0.409909 0.170340 0.065949 255 220 0
0.399603 0.079762 0.086336 255 220 0
0.395023 0.178191 0.057313 255 220 0
0.371003 0.048207 0.067035 255 220 0
0.407460 0.084292 0.084393 255 220 0
0.423441 0.113227 0.041478 255 220 0
0.358216 0.132733 0.085794 255 220 0
0.363783 0.166942 0.088955 255 220 0
0.346589 0.100273 0.072944 255 220 0
0.405231 0.080264 0.013178 255 220 0
0.413169 0.107379 0.088019 255 220 0
0.347384 0.138606 0.050272 255 220 0
0.401568 0.115750 0.024143 255 220 0
0.355501 0.040179 0.022099 255 220 0
0.414609 0.167029 0.081918 255 220 0
0.397371 0.115387 0.097082 255 220 0
0.387920 0.141927 0.099699 255 220 0
0.428977 0.097041 0.051588 255 220 0
0.353177 0.145950 0.047016 255 220 0
0.385212 0.041178 0.062218 255 220 0
0.392221 0.141296 0.035387 255 220 0
0.371393 0.040823 0.059936 255 220 0
0.356666 0.075686 0.009969 255 220 0
0.408267 0.078945 0.015246 255 220 0
0.406076 0.044514 0.049558 255 220 0
0.383929 0.147597 0.037341 255 220 0
0.417766 0.069855 0.064582 255 220 0
0.402034 0.069585 0.079772 255 220 0
0.360696 0.032628 0.037053 255 220 0
0.404023 0.066673 0.010812 255 220 0
0.393087 0.041675 0.059554 255 220 0
0.410540 0.068969 0.016453 255 220 0
0.371260 0.138113 0.032842 255 220 0
0.401737 0.049178 0.013085 255 220 0
0.425271 0.087337 0.065041 255 220 0
0.394237 0.087940 0.009935 255 220 0
0.418396 0.081988 0.073655 255 220 0
0.336996 0.072631 0.038793 255 220 0
0.415894 0.066929 0.024597 255 220 0
0.375240 0.096242 0.092627 255 220 0
0.360102 0.073275 0.078620 255 220 0
0.389840 0.092209 0.010659 255 220 0
0.376465 0.091245 0.091742 255 220 0
0.394596 0.051239 0.007904 255 220 0
0.349040 0.121625 0.075903 255 220 0
0.404467 0.102790 0.019880 255 220 0
0.340246 0.105236 0.063499 255 220 0
0.340487 0.119985 0.045954 255 220 0
0.369301 0.039546 0.057588 255 220 0
0.390936 0.152867 0.041599 255 220 0
0.413944 0.112201 0.088567 255 220 0
0.377324 0.121423 0.022955 255 220 0
0.384577 0.084423 0.006951 255 220 0
0.429237 0.099977 0.050962 255 220 0
0.382496 0.157018 0.042211 255 220 0
0.392964 0.192733 0.085316 255 220 0
0.390709 0.097186 0.094304 255 220 0
0.393725 0.050848 0.069480 255 220 0
0.371271 0.102335 0.092406 255 220 0
0.388110 0.169568 0.097100 255 220 0
0.363083 0.030513 0.034410 255 220 0
0.430332 0.104492 0.055859 255 220 0
0.349070 0.050871 0.049673 255 220 0
0.359665 0.191232 0.075569 255 220 0
0.377914 0.119169 0.096807 255 220 0
0.391503 0.111927 0.097238 255 220 0
0.344968 0.053387 0.025580 255 220 0
0.418178 0.064658 0.056834 255 220 0
0.358005 0.076636 0.009441 255 220 0
0.375907 0.137503 0.097220 255 220 0
0.427780 0.110995 0.047482 255 220 0
0.352604 0.121279 0.030207 255 220 0
0.348666 0.064214 0.063065 255 220 0
0.352651 0.039685 0.031268 255 220 0
0.397521 0.035076 0.021877 255 220 0
0.410322 0.054248 0.020382 255 220 0
0.366229 0.157038 0.044380 255 220 0
0.427124 0.135840 0.062281 255 220 0
0.361495 0.182688 0.083257 255 220 0
0.343685 0.057499 0.025009 255 220 0
0.372733 0.053553 0.072302 255 220 0
0.405269 0.125994 0.031057 255 220 0
0.371017 0.032532 0.049129 255 220 0
0.400577 0.066562 0.078562 255 220 0
0.358222 0.107588 0.085039 255 220 0
0.342473 0.056509 0.039714 255 220 0
0.352694 0.161699 0.071392 255 220 0
0.381844 0.176417 0.051616 255 220 0
0.357493 0.164064 0.053569 255 220 0
0.417908 0.086811 0.076901 255 220 0
0.417588 0.060968 0.051112 255 220 0
0.379003 0.050336 0.071363 255 220 0
0.378469 0.173609 0.049911 255 220 0
0.369932 0.035816 0.013234 255 220 0
0.418396 0.154059 0.083835 255 220 0
0.405394 0.153628 0.095220 255 220 0
0.387585 0.090736 0.009704 255 220 0
0.394775 0.164685 0.097281 255 220 0
0.398567 0.095963 0.092279 255 220 0
0.420583 0.091996 0.030419 255 220 0
0.375693 0.106966 0.015729 255 220 0
0.376548 0.201930 0.069140 255 220 0
0.383777 0.102151 0.013835 255 220 0
0.399568 0.136475 0.034666 255 220 0
0.397082 0.031920 0.035719 255 220 0
0.377769 0.142484 0.034408 255 220 0
0.358755 0.145917 0.041897 255 220 0
0.371203 0.198029 0.081156 255 220 0
0.415385 0.056951 0.049971 255 220 0
0.359123 0.151871 0.045396 255 220 0
0.390651 0.086427 0.091225 255 220 0
0.370907 0.078815 0.005824 255 220 0
0.392634 0.081085 0.007300 255 220 0
0.411597 0.058228 0.060960 255 220 0
0.349132 0.083754 0.072916 255 220 0
0.374232 0.141227 0.034087 255 220 0
0.396083 0.032002 0.039536 255 220 0
0.418973 0.070165 0.029745 255 220 0
0.380455 0.031095 0.048886 255 220 0
0.376094 0.080635 0.005616 255 220 0
0.399452 0.048261 0.062921 255 220 0
0.412117 0.111114 0.089634 255 220 0
0.370705 0.153914 0.094701 255 220 0
0.409851 0.054629 0.019328 255 220 0
0.346172 0.127210 0.040329 255 220 0
0.388142 0.161997 0.045735 255 220 0
0.428769 0.104811 0.068764 255 220 0
0.395502 0.100803 0.094353 255 220 0
0.414339 0.069142 0.069019 255 220 0
0.336316 0.097999 0.050228 255 220 0
0.403460 0.091462 0.089070 255 220 0
0.361620 0.093326 0.085641 255 220 0
0.396917 0.113976 0.021743 255 220 0
0.395541 0.132789 0.031340 255 220 0
0.414172 0.053908 0.032145 255 220 0
0.408457 0.043517 0.031223 255 220 0
0.349664 0.046899 0.045253 255 220 0
0.350840 0.154909 0.067150 255 220 0
0.422858 0.112362 0.040327 255 220 0
0.405335 0.039793 0.028960 255 220 0
0.373673 0.067209 0.082039 255 220 0
0.384833 0.032042 0.016002 255 220 0
0.418898 0.085567 0.027369 255 220 0
0.336851 0.075004 0.035037 255 220 0
0.372533 0.045151 0.064758 255 220 0
0.408547 0.054654 0.060850 255 220 0
0.353202 0.108235 0.080596 255 220 0
0.349659 0.146233 0.054137 255 220 0
0.374997 0.178553 0.093387 255 220 0
0.376518 0.127432 0.097017 255 220 0
0.365364 0.128163 0.028612 255 220 0
0.425370 0.123635 0.079690 255 220 0
0.377023 0.054664 0.004222 255 220 0
0.417719 0.079019 0.025556 255 220 0
0.368799 0.200564 0.068184 255 220 0
0.392111 0.170987 0.096340 255 220 0
0.381345 0.131529 0.098556 255 220 0
0.380856 0.145460 0.098668 255 220 0
0.353014 0.164759 0.065319 255 220 0
0.336539 0.094429 0.052291 255 220 0
0.381048 0.201387 0.071089 255 220 0
0.364205 0.106229 0.017293 255 220 0
0.387513 0.027602 0.026099 255 220 0
0.357226 0.105786 0.084082 255 220 0
0.400726 0.153366 0.045174 255 220 0
0.343120 0.078710 0.021235 255 220 0
0.383711 0.134591 0.099117 255 220 0
0.422210 0.096125 0.033461 255 220 0
0.376556 0.157841 0.042647 255 220 0
0.407559 0.154871 0.049614 255 220 0
0.343322 0.121030 0.039641 255 220 0
0.352845 0.111754 0.024802 255 220 0
0.374899 0.094888 0.010495 255 220 0
0.408517 0.157393 0.092737 255 220 0
0.410179 0.045854 0.038674 255 220 0
0.363548 0.082117 0.008382 255 220 0
0.427287 0.085611 0.049530 255 220 0
0.397731 0.151756 0.043120 255 220 0
0.414969 0.077723 0.074987 255 220 0
0.396898 0.032030 0.029073 255 220 0
0.425806 0.131868 0.079010 255 220 0
0.394677 0.193958 0.074860 255 220 0
0.358557 0.086366 0.081956 255 220 0
0.353918 0.168666 0.071651 255 220 0
0.411143 0.131588 0.037630 255 220 0
0.424490 0.081372 0.061718 255 220 0
0.365425 0.180050 0.087759 255 220 0
0.379086 0.056094 0.076075 255 220 0
0.423627 0.129900 0.050169 255 220 0
0.426224 0.109169 0.075478 255 220 0
0.414330 0.101819 0.026820 255 220 0
0.377659 0.174689 0.050315 255 220 0
0.368814 0.104476 0.091638 255 220 0
0.389838 0.097567 0.094488 255 220 0
0.375081 0.200572 0.064632 255 220 0
0.381779 0.075464 0.004250 255 220 0
0.414685 0.075030 0.021441 255 220 0
0.420331 0.101355 0.032761 255 220 0
0.349964 0.108782 0.025145 255 220 0
0.365286 0.101491 0.089344 255 220 0
0.417166 0.096084 0.027578 255 220 0
0.368880 0.137655 0.093963 255 220 0
0.350761 0.092156 0.076440 255 220 0
0.425314 0.130373 0.079881 255 220 0
0.344695 0.077869 0.065351 255 220 0
0.354860 0.166635 0.076387 255 220 0
0.387163 0.115605 0.020623 255 220 0
0.348855 0.052831 0.051784 255 220 0
0.427108 0.125591 0.053407 255 220 0
0.376662 0.110337 0.017319 255 220 0
0.374237 0.042616 0.062829 255 220 0
0.376209 0.029135 0.045332 255 220 0
0.402060 0.139647 0.097763 255 220 0
0.341349 0.061746 0.028204 255 220 0
0.400899 0.131283 0.098027 255 220 0
0.335903 0.091286 0.047755 255 220 0
0.422064 0.070036 0.040211 255 220 0
0.418543 0.063527 0.034725 255 220 0
0.368931 0.072216 0.005143 255 220 0
0.350313 0.054268 0.055939 255 220 0
0.423146 0.079610 0.063623 255 220 0
0.367047 0.067421 0.079675 255 220 0
0.401695 0.074845 0.009961 255 220 0
0.340032 0.074350 0.025873 255 220 0
0.353767 0.042302 0.045765 255 220 0
0.413982 0.053189 0.032975 255 220 0
0.415431 0.145388 0.088968 255 220 0
0.335965 0.079166 0.040000 255 220 0
0.344001 0.118396 0.036586 255 220 0
0.392483 0.177545 0.055667 255 220 0
0.340576 0.097994 0.029811 255 220 0
0.337562 0.105594 0.041769 255 220 0
0.418926 0.062116 0.041798 255 220 0
0.378807 0.025520 0.028796 255 220 0
0.382254 0.182567 0.093406 255 220 0
0.406351 0.122433 0.095012 255 220 0
0.412766 0.128647 0.037336 255 220 0
0.365693 0.147435 0.091788 255 220 0
0.406800 0.116127 0.093820 255 220 0
0.378424 0.129800 0.027373 255 220 0
0.346696 0.136261 0.066837 255 220 0
0.375853 0.046950 0.006429 255 220 0
0.420192 0.064627 0.044372 255 220 0
0.398148 0.090873 0.012264 255 220 0
0.339647 0.088898 0.060561 255 220 0
0.419614 0.108233 0.034644 255 220 0
0.362008 0.140554 0.036914 255 220 0
0.376323 0.059010 0.003663 255 220 0
0.351971 0.069668 0.070573 255 220 0
0.405079 0.093775 0.089034 255 220 0
0.355323 0.095580 0.016001 255 220 0
0.357347 0.104688 0.084082 255 220 0
0.407665 0.108492 0.091731 255 220 0
0.426241 0.113319 0.076655 255 220 0
0.414527 0.057833 0.027237 255 220 0
0.416502 0.065596 0.026448 255 220 0
0.423962 0.083773 0.065417 255 220 0
0.380305 0.026146 0.038564 255 220 0
0.344584 0.072785 0.062608 255 220 0
0.375099 0.026486 0.039025 255 220 0
0.383293 0.125388 0.025115 255 220 0
0.356610 0.157863 0.051261 255 220 0
0.382659 0.192142 0.088683 255 220 0
0.361615 0.102144 0.087095 255 220 0
0.381552 0.132253 0.028691 255 220 0
0.346335 0.104293 0.025900 255 220 0
0.344675 0.100599 0.070605 255 220 0
0.355731 0.179872 0.071432 255 220 0
0.362302 0.163378 0.049058 255 220 0
0.429360 0.099419 0.052403 255 220 0
0.410395 0.053442 0.021101 255 220 0
0.424222 0.082213 0.036805 255 220 0
0.406571 0.159197 0.051938 255 220 0
0.391615 0.158585 0.098682 255 220 0
0.351511 0.045089 0.046107 255 220 0
0.352931 0.073233 0.073185 255 220 0
0.423561 0.136694 0.054748 255 220 0
0.387972 0.176143 0.095387 255 220 0
0.366582 0.084944 0.086358 255 220 0
0.400633 0.123959 0.027954 255 220 0
0.385899 0.170973 0.096844 255 220 0
0.421058 0.097789 0.032429 255 220 0
0.380060 0.133974 0.029604 255 220 0
0.356468 0.130093 0.033221 255 220 0
0.343869 0.115851 0.035010 255 220 0
0.412300 0.152164 0.090689 255 220 0
0.399284 0.160368 0.096907 255 220 0
0.340230 0.115272 0.060983 255 220 0
0.373581 0.200848 0.065340 255 220 0
0.360677 0.078522 0.081048 255 220 0
0.386934 0.125163 0.025402 255 220 0
0.363239 0.109442 0.019172 255 220 0
0.365521 0.174341 0.089187 255 220 0
0.363311 0.035260 0.047634 255 220 0
0.375043 0.040132 0.060435 255 220 0
0.357652 0.046051 0.014094 255 220 0
0.361608 0.140378 0.036979 255 220 0
0.350329 0.140268 0.045986 255 220 0
0.400409 0.035928 0.025212 255 220 0
0.425706 0.079282 0.052692 255 220 0
0.360622 0.186824 0.080562 255 220 0
0.344537 0.058152 0.049318 255 220 0
0.383062 0.029763 0.046140 255 220 0
0.372083 0.097284 0.091803 255 220 0
0.345330 0.098441 0.071206 255 220 0
0.395303 0.161444 0.097773 255 220 0
0.375718 0.192781 0.087769 255 220 0
0.367358 0.027896 0.031301 255 220 0
0.405668 0.171942 0.061284 255 220 0
0.341546 0.058309 0.038449 255 220 0
0.395958 0.063235 0.078395 255 220 0
0.355151 0.177104 0.068780 255 220 0
0.353183 0.112039 0.024753 255 220 0
0.394527 0.156198 0.044563 255 220 0
0.406507 0.161100 0.093383 255 220 0
0.401438 0.081212 0.086199 255 220 0
0.377407 0.032388 0.014643 255 220 0
0.360006 0.092359 0.084349 255 220 0
0.391181 0.186513 0.059726 255 220 0
0.420055 0.065648 0.052074 255 220 0
0.353807 0.073114 0.073914 255 220 0
0.367769 0.126438 0.092982 255 220 0
0.385725 0.173378 0.051054 255 220 0
0.360254 0.125123 0.028562 255 220 0
0.387103 0.099760 0.095104 255 220 0
0.373925 0.181074 0.092292 255 220 0
0.346307 0.130146 0.042760 255 220 0
0.355204 0.174406 0.064370 255 220 0
0.350233 0.136116 0.075602 255 220 0
0.349730 0.130349 0.075809 255 220 0
0.346927 0.135798 0.047711 255 220 0
0.402472 0.052894 0.065531 255 220 0
0.384377 0.096046 0.011332 255 220 0
0.427137 0.099581 0.043128 255 220 0
0.360276 0.139627 0.087576 255 220 0
0.406390 0.114805 0.026190 255 220 0
0.340907 0.067079 0.050402 255 220 0
0.398547 0.050847 0.010096 255 220 0
0.380160 0.114267 0.019263 255 220 0
0.426932 0.089388 0.061121 255 220 0
0.427732 0.119941 0.051332 255 220 0
0.339450 0.080336 0.026578 255 220 0
0.426911 0.092613 0.042280 255 220 0
0.406381 0.181127 0.077450 255 220 0
0.354909 0.172798 0.073459 255 220 0
0.414267 0.069607 0.021191 255 220 0
0.400445 0.089659 0.089765 255 220 0
0.388274 0.087272 0.091755 255 220 0
0.363541 0.044509 0.059718 255 220 0
0.424390 0.109251 0.041127 255 220 0
0.347766 0.131279 0.041557 255 220 0
0.351234 0.097849 0.077732 255 220 0
0.382068 0.195866 0.060903 255 220 0
0.407058 0.166242 0.057747 255 220 0
0.400319 0.034255 0.034699 255 220 0
0.371068 0.108371 0.016867 255 220 0
0.362347 0.036459 0.048529 255 220 0
0.368216 0.163590 0.046661 255 220 0
0.374898 0.141034 0.033883 255 220 0
0.393401 0.179813 0.093008 255 220 0
0.426534 0.094529 0.067472 255 220 0
0.380931 0.069214 0.003344 255 220 0
0.354446 0.148744 0.047670 255 220 0
0.381103 0.166302 0.097256 255 220 0
0.415313 0.073517 0.071559 255 220 0
0.405543 0.039726 0.038404 255 220 0
0.384040 0.070984 0.085028 255 220 0
0.417266 0.061907 0.031851 255 220 0
0.384568 0.127632 0.098877 255 220 0
0.376298 0.025522 0.035248 255 220 0
0.352979 0.159933 0.073812 255 220 0
0.420377 0.119335 0.040425 255 220 0
0.386179 0.091235 0.093037 255 220 0
0.362865 0.105054 0.017134 255 220 0
0.336734 0.098389 0.039875 255 220 0
0.430115 0.122982 0.059873 255 220 0
0.375007 0.046408 0.006696 255 220 0
0.416842 0.114135 0.034240 255 220 0
0.339895 0.088981 0.027509 255 220 0
0.357361 0.038634 0.021484 255 220 0
0.395322 0.121159 0.098342 255 220 0
0.419681 0.113925 0.037173 255 220 0
0.373366 0.098893 0.012254 255 220 0
0.375380 0.033776 0.052482 255 220 0
0.425617 0.128898 0.079522 255 220 0
0.430247 0.104001 0.061708 255 220 0
0.374832 0.182680 0.053319 255 220 0
0.356485 0.182290 0.073474 255 220 0
0.397446 0.058071 0.073931 255 220 0
0.383370 0.132402 0.028863 255 220 0
0.398647 0.131728 0.031610 255 220 0
0.425523 0.086310 0.063361 255 220 0
0.347787 0.104366 0.074658 255 220 0
0.419006 0.062865 0.038898 255 220 0
0.405927 0.071490 0.012437 255 220 0
0.349803 0.070570 0.014068 255 220 0
0.423805 0.102577 0.076477 255 220 0
0.389325 0.186519 0.090816 255 220 0
0.354296 0.164902 0.059768 255 220 0
0.355490 0.068543 0.073125 255 220 0
0.402518 0.105783 0.093453 255 220 0
0.355058 0.037393 0.030198 255 220 0
0.411542 0.072306 0.074728 255 220 0
0.337448 0.105406 0.054669 255 220 0
0.364837 0.058444 0.072637 255 220 0
0.375569 0.124208 0.024548 255 220 0
0.353185 0.164870 0.070976 255 220 0
0.403396 0.175215 0.090966 255 220 0
0.363177 0.062456 0.006590 255 220 0
0.414907 0.066941 0.022741 255 220 0
0.357434 0.082162 0.010737 255 220 0
0.338757 0.113983 0.055573 255 220 0
0.339860 0.079315 0.057327 255 220 0
0.336835 0.084319 0.051152 255 220 0
0.408403 0.106672 0.024004 255 220 0
0.427401 0.136012 0.063570 255 220 0
0.407514 0.177434 0.085969 255 220 0
0.407132 0.158867 0.052109 255 220 0
0.407820 0.044095 0.026541 255 220 0
0.389015 0.193583 0.086336 255 220 0
0.419635 0.071105 0.062392 255 220 0
0.409964 0.090314 0.085120 255 220 0
0.391480 0.055895 0.074779 255 220 0
0.365211 0.072986 0.081498 255 220 0
0.381467 0.106488 0.015559 255 220 0
0.384433 0.121541 0.098344 255 220 0
0.404085 0.044323 0.018772 255 220 0
0.382738 0.102679 0.013950 255 220 0
0.406434 0.073316 0.079474 255 220 0
0.375880 0.170256 0.095414 255 220 0
0.384356 0.026109 0.035371 255 220 0
0.358650 0.158565 0.084564 255 220 0
0.416327 0.108731 0.085899 255 220 0
0.368209 0.100329 0.013614 255 220 0
0.411216 0.050764 0.049743 255 220 0
0.424962 0.080508 0.059053 255 220 0
0.398781 0.152404 0.043875 255 220 0
0.340591 0.096102 0.063820 255 220 0
0.364154 0.156069 0.044747 255 220 0
0.372714 0.198495 0.081113 255 220 0
0.384200 0.186265 0.056432 255 220 0
0.363778 0.042519 0.011814 255 220 0
0.381351 0.054017 0.074736 255 220 0
0.418568 0.061586 0.040098 255 220 0
0.396062 0.046551 0.063553 255 220 0
0.367210 0.161218 0.092174 255 220 0
0.354375 0.115408 0.081996 255 220 0
0.367568 0.028163 0.036562 255 220 0
0.410488 0.073643 0.016581 255 220 0
0.377234 0.191527 0.088853 255 220 0
0.380636 0.194394 0.059131 255 220 0
0.394455 0.148347 0.040086 255 220 0
0.383505 0.083851 0.090605 255 220 0
0.407841 0.165826 0.058219 255 220 0
0.402163 0.035923 0.031802 255 220 0
0.357186 0.066885 0.073485 255 220 0
0.383383 0.059851 0.003379 255 220 0
0.382367 0.068243 0.003276 255 220 0
0.403128 0.087949 0.088047 255 220 0
0.343736 0.055165 0.042581 255 220 0
0.353831 0.052077 0.058620 255 220 0
0.410790 0.109655 0.090177 255 220 0
0.357096 0.076178 0.077731 255 220 0
0.374464 0.061273 0.078753 255 220 0
0.420918 0.139641 0.052725 255 220 0
0.405005 0.081060 0.084389 255 220 0
0.366238 0.042786 0.010361 255 220 0
0.378137 0.113099 0.096170 255 220 0
0.405861 0.181946 0.081106 255 220 0
0.374131 0.084609 0.006899 255 220 0
0.343046 0.117826 0.037590 255 220 0
0.392003 0.145608 0.037818 255 220 0
0.404983 0.181602 0.072735 255 220 0
0.348415 0.068033 0.015343 255 220 0
0.418362 0.074846 0.026985 255 220 0
0.424883 0.076156 0.050556 255 220 0
0.417955 0.145479 0.052990 255 220 0
0.349935 0.096682 0.019694 255 220 0
0.345330 0.101657 0.071541 255 220 0
0.422614 0.141947 0.081776 255 220 0
0.416489 0.143625 0.088236 255 220 0
0.373791 0.044503 0.007545 255 220 0
0.392668 0.034224 0.048848 255 220 0
0.380718 0.042889 0.064453 255 220 0
0.351556 0.043822 0.023445 255 220 0
0.351848 0.143943 0.076750 255 220 0
0.340007 0.104590 0.034163 255 220 0
0.375823 0.172466 0.095010 255 220 0
0.402002 0.178724 0.090112 255 220 0
0.381690 0.201245 0.073693 255 220 0
0.336433 0.088258 0.050809 255 220 0
0.359645 0.179244 0.081865 255 220 0
0.405725 0.163564 0.093316 255 220 0
0.406438 0.122491 0.094976 255 220 0
0.418600 0.082251 0.026794 255 220 0
0.339919 0.114942 0.060116 255 220 0
0.415552 0.062516 0.026037 255 220 0
0.364740 0.048953 0.008483 255 220 0
0.385079 0.027919 0.041625 255 220 0
0.412303 0.172138 0.079623 255 220 0
0.366290 0.095237 0.088786 255 220 0
0.366311 0.182469 0.054777 255 220 0
0.336320 0.076656 0.041581 255 220 0
0.378178 0.198310 0.082370 255 220 0
0.363826 0.145248 0.038953 255 220 0
0.363528 0.083134 0.084234 255 220 0
0.348022 0.067387 0.064458 255 220 0
0.395146 0.167284 0.051095 255 220 0
0.427985 0.089944 0.051146 255 220 0
0.368777 0.030618 0.044512 255 220 0
0.353683 0.077298 0.011823 255 220 0
0.418500 0.102149 0.031023 255 220 0
0.386935 0.056122 0.004327 255 220 0
0.356214 0.055647 0.011085 255 220 0
0.408573 0.149079 0.046426 255 220 0
0.341507 0.061183 0.028200 255 220 0
0.353859 0.099108 0.080420 255 220 0
0.426456 0.104051 0.073193 255 220 0
0.369280 0.031444 0.018281 255 220 0
0.337654 0.087708 0.031571 255 220 0
0.342351 0.056492 0.038835 255 220 0
0.384712 0.160259 0.098447 255 220 0
0.378662 0.090227 0.008626 255 220 0
0.358174 0.110230 0.021366 255 220 0
0.363409 0.094599 0.087026 255 220 0
0.374257 0.058297 0.076575 255 220 0
0.409817 0.123249 0.032413 255 220 0
0.426049 0.107546 0.043076 255 220 0
0.387079 0.185023 0.092010 255 220 0
0.365280 0.030753 0.041187 255 220 0
0.348067 0.068777 0.065437 255 220 0
0.369575 0.063662 0.078566 255 220 0
0.351850 0.056044 0.014342 255 220 0
0.385033 0.081238 0.089689 255 220 0
0.401285 0.126691 0.029673 255 220 0
0.402442 0.161514 0.050952 255 220 0
0.404934 0.096171 0.017659 255 220 0
0.417601 0.065509 0.029278 255 220 0
0.358923 0.033674 0.034195 255 220 0
0.418520 0.063052 0.035483 255 220 0
0.420331 0.118824 0.084499 255 220 0
0.372784 0.073759 0.084831 255 220 0
0.353364 0.128706 0.034264 255 220 0
0.358449 0.131493 0.033041 255 220 0
0.383980 0.089272 0.092396 255 220 0
0.424089 0.125661 0.048358 255 220 0
0.344149 0.070276 0.060233 255 220 0
0.364144 0.164506 0.089533 255 220 0
0.380194 0.045635 0.006804 255 220 0
0.382836 0.031439 0.016112 255 220 0
0.363803 0.123459 0.090237 255 220 0
0.377473 0.200831 0.065661 255 220 0
0.405759 0.141298 0.096043 255 220 0
0.355228 0.070855 0.074072 255 220 0
0.353672 0.089608 0.014766 255 220 0
0.354596 0.106873 0.021368 255 220 0
0.394683 0.091216 0.011254 255 220 0
0.407975 0.053836 0.060569 255 220 0
0.410667 0.140018 0.042085 255 220 0
0.401841 0.036645 0.040869 255 220 0
0.346510 0.100118 0.023857 255 220 0
0.378876 0.182213 0.053485 255 220 0
0.378495 0.198750 0.062404 255 220 0
0.356306 0.128280 0.083938 255 220 0
0.383411 0.038109 0.058613 255 220 0
0.387309 0.047057 0.068180 255 220 0
0.401698 0.043398 0.016823 255 220 0
0.407719 0.091937 0.087062 255 220 0
0.348393 0.051936 0.020212 255 220 0
0.363514 0.090571 0.086221 255 220 0
0.426124 0.141436 0.073734 255 220 0
0.398831 0.086698 0.089358 255 220 0
0.345856 0.068649 0.062012 255 220 0
0.420268 0.156065 0.071978 255 220 0
0.417042 0.112032 0.033527 255 220 0
0.356784 0.169731 0.079645 255 220 0
0.391214 0.165134 0.097751 255 220 0
0.372128 0.035482 0.053832 255 220 0
0.357403 0.157982 0.050412 255 220 0
0.402039 0.186667 0.081331 255 220 0
0.417199 0.071570 0.067250 255 220 0
0.386738 0.105639 0.096249 255 220 0
0.364997 0.190023 0.058697 255 220 0
0.343553 0.075553 0.020531 255 220 0
0.422959 0.125090 0.082638 255 220 0
0.351813 0.150382 0.074773 255 220 0
0.383879 0.164575 0.046220 255 220 0
0.418036 0.101909 0.030444 255 220 0
0.353881 0.104730 0.081008 255 220 0
0.352755 0.076970 0.012359 255 220 0
0.397342 0.031990 0.034579 255 220 0
0.378887 0.187938 0.090926 255 220 0
0.340646 0.069928 0.052519 255 220 0
0.386862 0.152421 0.040376 255 220 0
0.378036 0.149995 0.038521 255 220 0
0.371313 0.156356 0.042657 255 220 0
0.425378 0.141861 0.076342 255 220 0
0.389133 0.153449 0.041423 255 220 0
0.352443 0.136642 0.040451 255 220 0
0.409024 0.111173 0.026335 255 220 0
0.398460 0.071593 0.007771 255 220 0
0.345673 0.059782 0.020061 255 220 0
0.409606 0.176443 0.081419 255 220 0
0.359511 0.181977 0.059600 255 220 0
0.402193 0.077876 0.010754 255 220 0
0.392530 0.110117 0.096815 255 220 0
0.378837 0.059509 0.078462 255 220 0
0.350217 0.147252 0.053758 255 220 0
0.349944 0.098670 0.076507 255 220 0
0.407357 0.041956 0.038822 255 220 0
0.370487 0.126762 0.094492 255 220 0
0.426474 0.083594 0.055875 255 220 0
0.355575 0.177594 0.065719 255 220 0
0.403827 0.054230 0.012633 255 220 0
0.360264 0.141037 0.037991 255 220 0
0.413214 0.078082 0.076979 255 220 0
0.377098 0.025377 0.030289 255 220 0
0.416180 0.159041 0.063865 255 220 0
0.366447 0.195407 0.061358 255 220 0
0.369759 0.143973 0.036451 255 220 0
0.412102 0.071615 0.073664 255 220 0
0.335898 0.089282 0.047594 255 220 0
0.383332 0.196511 0.062245 255 220 0
0.424258 0.076082 0.041389 255 220 0
0.344857 0.134062 0.060192 255 220 0
0.431065 0.117722 0.064225 255 220 0
0.400607 0.127065 0.029633 255 220 0
0.376891 0.133189 0.029301 255 220 0
0.428577 0.122926 0.074410 255 220 0
0.430026 0.109555 0.052941 255 220 0
0.343955 0.122982 0.067120 255 220 0
0.369041 0.128511 0.027891 255 220 0
0.354825 0.174212 0.066251 255 220 0
0.350355 0.061360 0.063095 255 220 0
0.368635 0.195037 0.059785 255 220 0
0.408646 0.054595 0.017562 255 220 0
0.386113 0.034702 0.053161 255 220 0
0.372582 0.088035 0.089700 255 220 0
0.369802 0.089977 0.009256 255 220 0
0.348350 0.142700 0.053473 255 220 0
0.418447 0.152889 0.084211 255 220 0
0.351825 0.125059 0.033054 255 220 0
0.373567 0.057982 0.076118 255 220 0
0.374774 0.047154 0.067451 255 220 0
0.368783 0.082195 0.086491 255 220 0
0.418794 0.063349 0.051962 255 220 0
0.348431 0.145734 0.060257 255 220 0
0.338883 0.114799 0.055412 255 220 0
0.368435 0.110156 0.018195 255 220 0
0.407422 0.058186 0.014670 255 220 0
0.378977 0.044122 0.065547 255 220 0
0.429030 0.100284 0.064338 255 220 0
0.364061 0.039417 0.013710 255 220 0
0.361085 0.050919 0.064368 255 220 0
0.358128 0.189284 0.068623 255 220 0
0.361449 0.189772 0.080155 255 220 0
0.396154 0.039802 0.054771 255 220 0
0.356240 0.180458 0.065464 255 220 0
0.393281 0.046499 0.065232 255 220 0
0.349545 0.097007 0.020109 255 220 0
0.398465 0.111876 0.021163 255 220 0
0.370740 0.073805 0.084212 255 220 0
0.344515 0.114030 0.070363 255 220 0
0.401424 0.042343 0.053095 255 220 0
0.380620 0.046747 0.068332 255 220 0
0.359022 0.074397 0.078386 255 220 0
0.402466 0.050195 0.062434 255 220 0
0.418991 0.158910 0.077819 255 220 0
0.391323 0.164998 0.048326 255 220 0
0.424953 0.117792 0.079378 255 220 0
0.367149 0.133992 0.031421 255 220 0
0.359224 0.186149 0.078624 255 220 0
0.360098 0.088553 0.011388 255 220 0
0.345344 0.098023 0.024080 255 220 0
0.385472 0.147094 0.099373 255 220 0
0.403983 0.176555 0.063616 255 220 0
0.424475 0.086472 0.036415 255 220 0
0.399619 0.141244 0.098550 255 220 0
0.358476 0.151202 0.085132 255 220 0
0.339639 0.100225 0.062295 255 220 0
0.349169 0.140012 0.072230 255 220 0
0.341703 0.115369 0.064894 255 220 0
0.412108 0.165083 0.063435 255 220 0
0.391657 0.131535 0.099540 255 220 0
0.355128 0.099119 0.081560 255 220 0
0.412396 0.089815 0.083228 255 220 0
0.349387 0.137385 0.044732 255 220 0
0.403623 0.097057 0.017190 255 220 0
0.363148 0.046324 0.010256 255 220 0
0.345678 0.061391 0.019511 255 220 0
0.416167 0.075651 0.023450 255 220 0
0.420090 0.156834 0.075100 255 220 0
0.409702 0.079109 0.080465 255 220 0
0.404389 0.142585 0.096676 255 220 0
0.412934 0.141014 0.091399 255 220 0
0.358077 0.056979 0.067418 255 220 0
0.417287 0.119747 0.037228 255 220 0
0.354085 0.038192 0.035415 255 220 0
0.360945 0.038149 0.049584 255 220 0
0.412501 0.169759 0.071179 255 220 0
0.357243 0.169519 0.056676 255 220 0
0.340413 0.120666 0.047502 255 220 0
0.425299 0.144380 0.070102 255 220 0
0.429793 0.121203 0.071274 255 220 0
0.347130 0.082460 0.017623 255 220 0
0.377770 0.097520 0.011479 255 220 0
0.368808 0.101806 0.091235 255 220 0
0.378519 0.135707 0.030593 255 220 0
0.367848 0.027677 0.030940 255 220 0
0.425433 0.125305 0.079733 255 220 0
0.365945 0.145177 0.092017 255 220 0
0.426877 0.117943 0.048752 255 220 0
0.364772 0.065989 0.077696 255 220 0
0.352689 0.159617 0.072957 255 220 0
0.414606 0.148125 0.089306 255 220 0
0.404555 0.117914 0.026608 255 220 0
0.350213 0.059831 0.014792 255 220 0
0.362868 0.064312 0.006632 255 220 0
0.349644 0.145187 0.071076 255 220 0
0.428828 0.103595 0.048392 255 220 0
0.361219 0.032397 0.027994 255 220 0
0.418868 0.102579 0.081977 255 220 0
0.373451 0.125129 0.095753 255 220 0
0.415057 0.155647 0.058058 255 220 0
0.382604 0.172105 0.096443 255 220 0
0.409874 0.173826 0.085569 255 220 0
0.426137 0.080293 0.050266 255 220 0
0.415528 0.157387 0.086503 255 220 0
0.425128 0.132698 0.054540 255 220 0
0.353739 0.164668 0.073797 255 220 0
0.360928 0.154128 0.045458 255 220 0
0.347264 0.137837 0.049535 255 220 0
0.405066 0.178644 0.087966 255 220 0
0.345003 0.134606 0.053076 255 220 0
0.401635 0.059936 0.009641 255 220 0
0.356563 0.182623 0.066286 255 220 0
0.416794 0.096420 0.027302 255 220 0
0.399051 0.190080 0.079310 255 220 0
0.350765 0.060187 0.062635 255 220 0
0.425037 0.143703 0.066213 255 220 0
0.369673 0.037796 0.011872 255 220 0
0.412862 0.126530 0.091481 255 220 0
0.420512 0.091827 0.030298 255 220 0
0.372424 0.060454 0.077530 255 220 0
0.406201 0.071580 0.078542 255 220 0
0.337217 0.090580 0.033788 255 220 0
0.403095 0.166264 0.094077 255 220 0
0.377971 0.030980 0.016170 255 220 0
0.375324 0.163691 0.096119 255 220 0
0.358952 0.159162 0.049542 255 220 0
0.411715 0.076303 0.077259 255 220 0
0.364513 0.102702 0.015549 255 220 0
0.345255 0.080553 0.067201 255 220 0
0.348776 0.093342 0.074547 255 220 0
0.347776 0.045865 0.036613 255 220 0
0.420438 0.144805 0.056271 255 220 0
0.349835 0.053406 0.017460 255 220 0
0.370199 0.198868 0.079373 255 220 0
0.410381 0.046696 0.030837 255 220 0
0.364675 0.074700 0.081935 255 220 0
0.377311 0.065042 0.081603 255 220 0
0.365060 0.045270 0.061428 255 220 0
0.335992 0.090919 0.039548 255 220 0
0.363531 0.033876 0.020165 255 220 0
0.386507 0.137087 0.099536 255 220 0
0.373138 0.190954 0.088075 255 220 0
0.423536 0.089754 0.034492 255 220 0
0.419950 0.067451 0.034783 255 220 0
0.373024 0.127767 0.095729 255 220 0
0.372241 0.054264 0.004947 255 220 0
0.369667 0.045326 0.008054 255 220 0
0.374060 0.184140 0.091328 255 220 0
0.428462 0.133879 0.065693 255 220 0
0.366209 0.073238 0.005958 255 220 0
0.374901 0.172823 0.049493 255 220 0
0.336215 0.096355 0.049903 255 220 0
0.361589 0.114429 0.088130 255 220 0
0.380434 0.065279 0.082004 255 220 0
0.368625 0.064298 0.078558 255 220 0
0.422199 0.115385 0.081995 255 220 0
0.418061 0.161199 0.075849 255 220 0
0.426851 0.088546 0.042917 255 220 0
0.416476 0.076559 0.023851 255 220 0
0.361920 0.075290 0.007607 255 220 0
0.362924 0.037558 0.050732 255 220 0
0.420934 0.123163 0.042889 255 220 0
0.364229 0.061304 0.006263 255 220 0
0.403629 0.179376 0.066176 255 220 0
0.401072 0.047754 0.060857 255 220 0
0.414795 0.141763 0.046633 255 220 0
0.384117 0.189129 0.057640 255 220 0
0.393249 0.190511 0.064157 255 220 0
0.339476 0.108823 0.037973 255 220 0
0.417457 0.084418 0.076171 255 220 0
0.407968 0.043282 0.041206 255 220 0
0.374498 0.085223 0.089451 255 220 0
0.377041 0.189040 0.090124 255 220 0
0.383137 0.040147 0.061282 255 220 0
0.340684 0.080873 0.059830 255 220 0
0.415105 0.108843 0.030310 255 220 0
0.376262 0.186263 0.091169 255 220 0
0.406372 0.081233 0.083703 255 220 0
0.359738 0.033350 0.036834 255 220 0
0.405748 0.040781 0.041740 255 220 0
0.408137 0.106489 0.023742 255 220 0
0.424548 0.144680 0.076431 255 220 0
0.376039 0.027636 0.022159 255 220 0
0.365882 0.081799 0.007637 255 220 0
0.358866 0.191312 0.071277 255 220 0
0.373761 0.030479 0.047009 255 220 0
0.421968 0.097616 0.033535 255 220 0
0.400096 0.187930 0.072917 255 220 0
0.410346 0.175143 0.076741 255 220 0
0.369599 0.041037 0.059386 255 220 0
0.404922 0.168128 0.057260 255 220 0
0.393725 0.037047 0.015635 255 220 0
0.406361 0.076041 0.081099 255 220 0
0.384362 0.153137 0.098984 255 220 0
0.422361 0.109325 0.038396 255 220 0
0.405889 0.081219 0.013853 255 220 0
0.397723 0.104723 0.094726 255 220 0
0.351966 0.106623 0.079274 255 220 0
0.419062 0.148568 0.084723 255 220 0
0.407286 0.056573 0.064747 255 220 0
0.392299 0.193711 0.067117 255 220 0
0.347597 0.097580 0.073836 255 220 0
0.337384 0.071195 0.037025 255 220 0
0.372840 0.120102 0.095165 255 220 0
0.389981 0.162990 0.098215 255 220 0
0.397881 0.066535 0.079803 255 220 0
0.399901 0.072772 0.008658 255 220 0
0.386318 0.126041 0.025770 255 220 0
0.392227 0.189669 0.062477 255 220 0
0.385222 0.161666 0.098338 255 220 0
0.411663 0.051592 0.025919 255 220 0
0.418145 0.146854 0.054426 255 220 0
0.401058 0.122376 0.097175 255 220 0
0.354472 0.170087 0.073406 255 220 0
0.353239 0.161094 0.059684 255 220 0
0.342841 0.111610 0.033728 255 220 0
0.426229 0.141259 0.067269 255 220 0
0.339403 0.082130 0.057675 255 220 0
0.348124 0.138782 0.048552 255 220 0
0.403055 0.177146 0.090298 255 220 0
0.395321 0.189566 0.065571 255 220 0
0.390828 0.033681 0.049292 255 220 0
0.395427 0.181816 0.059689 255 220 0
0.365593 0.072783 0.081600 255 220 0
0.361447 0.031701 0.031337 255 220 0
0.337377 0.096670 0.055970 255 220 0
0.354852 0.162765 0.056961 255 220 0
0.356208 0.176269 0.076200 255 220 0
0.364144 0.193055 0.061204 255 220 0
0.383438 0.028192 0.043014 255 220 0
0.417172 0.127067 0.088242 255 220 0
0.413667 0.095280 0.023967 255 220 0
0.386457 0.026988 0.027208 255 220 0
0.394232 0.118197 0.023237 255 220 0
0.404734 0.050353 0.060191 255 220 0
0.390822 0.134547 0.099686 255 220 0
0.391389 0.120873 0.098630 255 220 0
0.403914 0.177545 0.064531 255 220 0
0.428965 0.096814 0.059081 255 220 0
0.385175 0.042929 0.008492 255 220 0
0.390353 0.157308 0.098898 255 220 0
0.345198 0.119679 0.070517 255 220 0
0.360226 0.083420 0.082314 255 220 0
0.383230 0.113408 0.019021 255 220 0
0.343047 0.098183 0.068104 255 220 0
0.337479 0.072392 0.043967 255 220 0
0.352619 0.137336 0.040795 255 220 0
0.359451 0.084345 0.082053 255 220 0
0.348846 0.060738 0.060302 255 220 0
0.412985 0.089704 0.021727 255 220 0
0.358059 0.134548 0.035103 255 220 0
0.351270 0.055517 0.058763 255 220 0
0.386029 0.042716 0.063853 255 220 0
0.388543 0.122744 0.098818 255 220 0
0.373413 0.054611 0.073413 255 220 0
0.352284 0.066885 0.069353 255 220 0
0.413438 0.065317 0.020676 255 220 0
0.370456 0.079183 0.005988 255 220 0
0.395399 0.059255 0.006391 255 220 0
0.389262 0.095977 0.094158 255 220 0
0.382189 0.195669 0.060793 255 220 0
0.371431 0.055030 0.004965 255 220 0
0.412151 0.164902 0.087863 255 220 0
0.351412 0.157703 0.065771 255 220 0
0.420878 0.096560 0.031853 255 220 0
0.417201 0.087055 0.077791 255 220 0
0.395257 0.063879 0.079073 255 220 0
0.386123 0.056211 0.076209 255 220 0
0.420747 0.066444 0.050405 255 220 0
0.360537 0.108343 0.019508 255 220 0
0.408317 0.175026 0.069288 255 220 0
0.357200 0.128029 0.031575 255 220 0
0.403792 0.041357 0.047958 255 220 0
0.395298 0.098727 0.014423 255 220 0
0.416710 0.087431 0.078475 255 220 0
0.386261 0.043610 0.064809 255 220 0
0.418951 0.074446 0.067149 255 220 0
0.428679 0.121483 0.054258 255 220 0
0.391810 0.083421 0.007795 255 220 0
0.361716 0.140566 0.088809 255 220 0
0.386316 0.070240 0.084542 255 220 0
0.360748 0.115168 0.087529 255 220 0
0.369072 0.033488 0.015811 255 220 0
0.353231 0.084789 0.013627 255 220 0
0.345885 0.130969 0.044341 255 220 0
0.366418 0.071541 0.081450 255 220 0
0.347549 0.065596 0.062472 255 220 0
0.408009 0.116438 0.093229 255 220 0
0.412202 0.056170 0.022734 255 220 0
0.372379 0.083803 0.088342 255 220 0
0.370862 0.089227 0.089420 255 220 0
0.415255 0.058615 0.028676 255 220 0
0.373401 0.140376 0.096261 255 220 0
0.419451 0.063494 0.040403 255 220 0
0.413165 0.167675 0.084900 255 220 0
0.356324 0.060806 0.010038 255 220 0
0.419953 0.108585 0.082614 255 220 0
0.413112 0.082169 0.079330 255 220 0
0.357410 0.038919 0.046164 255 220 0
0.381509 0.196747 0.061447 255 220 0
0.356034 0.143260 0.082983 255 220 0
0.352048 0.079349 0.074601 255 220 0
0.344889 0.053229 0.025978 255 220 0
0.402931 0.059549 0.071710 255 220 0
0.408900 0.123824 0.093787 255 220 0
0.368117 0.029943 0.021868 255 220 0
0.356602 0.153382 0.048517 255 220 0
0.419466 0.100534 0.031482 255 220 0
0.339128 0.075439 0.027468 255 220 0
0.355737 0.036531 0.031854 255 220 0
0.381757 0.192933 0.058647 255 220 0
0.429055 0.124629 0.073259 255 220 0
0.346818 0.052811 0.047636 255 220 0
0.370146 0.079524 0.006122 255 220 0
0.386079 0.063367 0.003423 255 220 0
0.388165 0.153764 0.041362 255 220 0
0.425117 0.140335 0.061504 255 220 0
0.408392 0.131921 0.035963 255 220 0
0.412987 0.109657 0.028774 255 220 0
0.379099 0.196333 0.060052 255 220 0
0.401399 0.139381 0.037005 255 220 0
0.376896 0.189366 0.055751 255 220 0
0.422659 0.142402 0.058066 255 220 0
0.416205 0.097096 0.026923 255 220 0
0.403130 0.174323 0.060621 255 220 0
0.411102 0.134019 0.038937 255 220 0
0.368632 0.188687 0.056385 255 220 0
