ply
format ascii 1.0
element vertex 1024
property float x
property float y
property float z
property uchar red
property uchar green
property uchar blue
end_header
0.174459 0.134875 0.094884 255 220 0
0.124613 0.088262 0.094232 255 220 0
0.184044 0.114185 0.032053 255 220 0
0.190032 0.075661 0.069293 255 220 0
0.149436 0.120377 0.026127 255 220 0
0.114172 0.084820 0.052179 255 220 0
0.182452 0.128077 0.087863 255 220 0
0.135047 0.195715 0.095541 255 220 0
0.182563 0.154875 0.052838 255 220 0
0.136982 0.091359 0.026108 255 220 0
0.189382 0.076380 0.071614 255 220 0
0.168064 0.058671 0.024774 255 220 0
0.122964 0.098893 0.037820 255 220 0
0.186764 0.123012 0.082878 255 220 0
0.193379 0.113245 0.047755 255 220 0
0.117142 0.113761 0.097335 255 220 0
0.142430 0.042971 0.056737 255 220 0
0.164532 0.167209 0.092599 255 220 0
0.123438 0.121726 0.101689 255 220 0
0.188974 0.104160 0.081526 255 220 0
0.192368 0.097413 0.073664 255 220 0
0.186823 0.126441 0.081494 255 220 0
0.125305 0.073183 0.086436 255 220 0
0.153807 0.041037 0.040828 255 220 0
0.113811 0.089100 0.051368 255 220 0
0.116621 0.084104 0.047511 255 220 0
0.112516 0.181587 0.062756 255 220 0
0.171155 0.106887 0.023319 255 220 0
0.150311 0.053516 0.029044 255 220 0
0.094896 0.186610 0.079805 255 220 0
0.180767 0.122668 0.031935 255 220 0
0.132191 0.206588 0.078072 255 220 0
0.160798 0.159177 0.039954 255 220 0
0.094771 0.191087 0.079959 255 220 0
0.157125 0.141143 0.103696 255 220 0
0.187363 0.064231 0.039293 255 220 0
0.120641 0.143024 0.047665 255 220 0
0.176326 0.097723 0.094293 255 220 0
0.134298 0.206132 0.079391 255 220 0
0.161664 0.162855 0.042152 255 220 0
0.104263 0.133726 0.069991 255 220 0
0.143814 0.198495 0.069080 255 220 0
0.172228 0.109359 0.024067 255 220 0
0.166844 0.100771 0.021254 255 220 0
0.115522 0.185405 0.102907 255 220 0
0.124584 0.133855 0.042209 255 220 0
0.188468 0.100506 0.081910 255 220 0
0.179712 0.111062 0.027867 255 220 0
0.166736 0.119366 0.101255 255 220 0
0.155677 0.038769 0.046490 255 220 0
0.160886 0.134240 0.029559 255 220 0
0.150018 0.193312 0.085537 255 220 0
0.180281 0.113747 0.092545 255 220 0
0.155578 0.133778 0.104608 255 220 0
0.183334 0.104346 0.089025 255 220 0
0.122635 0.108800 0.099527 255 220 0
0.186340 0.093383 0.032310 255 220 0
0.173950 0.053553 0.072821 255 220 0
0.109896 0.104035 0.056737 255 220 0
0.117898 0.069413 0.055923 255 220 0
0.155400 0.153810 0.036916 255 220 0
0.168053 0.056986 0.079485 255 220 0
0.128485 0.193778 0.099532 255 220 0
0.195137 0.099725 0.062429 255 220 0
0.179583 0.071306 0.026412 255 220 0
0.126056 0.207204 0.076509 255 220 0
0.165171 0.084609 0.096299 255 220 0
0.123543 0.152278 0.048098 255 220 0
0.193238 0.122234 0.054618 255 220 0
0.157604 0.153039 0.036665 255 220 0
0.189846 0.104724 0.037469 255 220 0
0.113491 0.162042 0.058063 255 220 0
0.150794 0.164292 0.041915 255 220 0
0.139857 0.189575 0.058642 255 220 0
0.188684 0.113377 0.081792 255 220 0
0.121124 0.187781 0.060555 255 220 0
0.174740 0.068784 0.083628 255 220 0
0.190873 0.119837 0.075508 255 220 0
0.165400 0.138135 0.031341 255 220 0
0.133004 0.142477 0.105708 255 220 0
0.121307 0.175239 0.104673 255 220 0
0.134632 0.105851 0.102582 255 220 0
0.154767 0.093729 0.019764 255 220 0
0.185102 0.143183 0.074840 255 220 0
0.104274 0.132387 0.083654 255 220 0
0.140017 0.126290 0.030492 255 220 0
0.144913 0.041938 0.056915 255 220 0
0.152992 0.193463 0.068662 255 220 0
0.174748 0.146563 0.091489 255 220 0
0.156182 0.166532 0.099045 255 220 0
0.182578 0.129439 0.036256 255 220 0
0.102938 0.140055 0.077530 255 220 0
0.185680 0.066912 0.071326 255 220 0
0.126455 0.148075 0.044910 255 220 0
0.175075 0.060390 0.077755 255 220 0
0.121647 0.069397 0.046239 255 220 0
0.158603 0.094432 0.019618 255 220 0
0.192008 0.074263 0.048685 255 220 0
0.118526 0.150807 0.051387 255 220 0
0.195119 0.105425 0.053567 255 220 0
0.192117 0.103546 0.075149 255 220 0
0.160001 0.042050 0.065857 255 220 0
0.159541 0.080774 0.018685 255 220 0
0.189537 0.069673 0.064481 255 220 0
0.165817 0.087084 0.019299 255 220 0
0.112171 0.136175 0.055415 255 220 0
0.167911 0.065430 0.021998 255 220 0
0.191788 0.123675 0.049327 255 220 0
0.141597 0.094984 0.023678 255 220 0
0.194120 0.118936 0.060380 255 220 0
0.124310 0.067699 0.081126 255 220 0
0.174749 0.089944 0.022644 255 220 0
0.166691 0.119815 0.101275 255 220 0
0.160513 0.089640 0.099252 255 220 0
0.136767 0.097140 0.026854 255 220 0
0.169600 0.115714 0.099869 255 220 0
0.159249 0.062779 0.022096 255 220 0
0.127125 0.126191 0.103338 255 220 0
0.146357 0.114942 0.025434 255 220 0
0.122875 0.104725 0.098763 255 220 0
0.106618 0.112217 0.084445 255 220 0
0.173057 0.057734 0.077132 255 220 0
0.122937 0.159461 0.050577 255 220 0
0.183500 0.147828 0.074782 255 220 0
0.119698 0.121151 0.043984 255 220 0
0.135115 0.087175 0.027081 255 220 0
0.180961 0.131890 0.035578 255 220 0
0.115296 0.159865 0.056081 255 220 0
0.126767 0.208079 0.084136 255 220 0
0.177836 0.127320 0.093371 255 220 0
0.190469 0.080887 0.071994 255 220 0
0.160756 0.123429 0.103427 255 220 0
0.141087 0.189710 0.096651 255 220 0
0.161367 0.040367 0.062326 255 220 0
0.181969 0.137725 0.038819 255 220 0
0.149231 0.057029 0.082791 255 220 0
0.099360 0.190508 0.096226 255 220 0
0.159175 0.141979 0.102867 255 220 0
0.172487 0.141277 0.095144 255 220 0
0.132739 0.050213 0.065905 255 220 0
0.194038 0.098732 0.047145 255 220 0
0.121829 0.070592 0.045009 255 220 0
0.148778 0.157154 0.104266 255 220 0
0.172624 0.139770 0.033579 255 220 0
0.106304 0.113368 0.064570 255 220 0
0.149123 0.072491 0.093676 255 220 0
0.147889 0.043172 0.065974 255 220 0
0.176584 0.054239 0.031668 255 220 0
0.175082 0.075469 0.022684 255 220 0
0.105088 0.154049 0.067539 255 220 0
0.167282 0.165504 0.045661 255 220 0
0.108875 0.186199 0.101359 255 220 0
0.129486 0.053082 0.066185 255 220 0
0.175962 0.075704 0.086780 255 220 0
0.140994 0.138735 0.033752 255 220 0
0.173430 0.049774 0.069374 255 220 0
0.192002 0.099981 0.075070 255 220 0
0.145258 0.120511 0.105278 255 220 0
0.136694 0.056230 0.078708 255 220 0
0.107209 0.160918 0.097252 255 220 0
0.109925 0.179247 0.063874 255 220 0
0.100203 0.159439 0.080077 255 220 0
0.193024 0.123900 0.063240 255 220 0
0.192543 0.093560 0.042936 255 220 0
0.181457 0.075141 0.082304 255 220 0
0.108113 0.174950 0.064543 255 220 0
0.152587 0.041224 0.041216 255 220 0
0.163129 0.184348 0.068029 255 220 0
0.160152 0.182259 0.084929 255 220 0
0.135448 0.094674 0.027446 255 220 0
0.148270 0.188206 0.092848 255 220 0
0.182874 0.128782 0.087061 255 220 0
0.168402 0.115264 0.024333 255 220 0
0.122117 0.105796 0.039267 255 220 0
0.102421 0.204536 0.080908 255 220 0
0.129185 0.104283 0.032953 255 220 0
0.133616 0.146620 0.039977 255 220 0
0.184974 0.055561 0.043052 255 220 0
0.115305 0.143031 0.052752 255 220 0
0.104205 0.140692 0.070093 255 220 0
0.106837 0.202697 0.093764 255 220 0
0.192444 0.088859 0.043366 255 220 0
0.103265 0.147054 0.072636 255 220 0
0.181621 0.117056 0.091013 255 220 0
0.127848 0.076524 0.034385 255 220 0
0.142575 0.087614 0.022570 255 220 0
0.194812 0.091804 0.054432 255 220 0
0.144687 0.092576 0.101158 255 220 0
0.113313 0.140434 0.054616 255 220 0
0.186199 0.056397 0.046709 255 220 0
0.177907 0.095542 0.024910 255 220 0
0.180590 0.052226 0.063550 255 220 0
0.130433 0.080106 0.031106 255 220 0
0.192382 0.078936 0.063331 255 220 0
0.183324 0.146485 0.076737 255 220 0
0.135620 0.168495 0.105237 255 220 0
0.174021 0.075288 0.022117 255 220 0
0.104051 0.119016 0.076486 255 220 0
0.118530 0.167501 0.055498 255 220 0
0.187351 0.141315 0.050098 255 220 0
0.179376 0.132376 0.090521 255 220 0
0.195373 0.104794 0.059178 255 220 0
0.116962 0.092849 0.090521 255 220 0
0.186891 0.125866 0.081597 255 220 0
0.155098 0.109722 0.103832 255 220 0
0.136442 0.122167 0.031359 255 220 0
0.130960 0.140811 0.039742 255 220 0
0.183972 0.080303 0.029818 255 220 0
0.184747 0.068756 0.032568 255 220 0
0.149369 0.052484 0.078921 255 220 0
0.107153 0.153013 0.095007 255 220 0
0.164838 0.136803 0.030773 255 220 0
0.183285 0.063599 0.032644 255 220 0
0.174754 0.090857 0.093928 255 220 0
0.166267 0.044756 0.034559 255 220 0
0.168894 0.108102 0.022939 255 220 0
0.121088 0.068547 0.078184 255 220 0
0.176170 0.066058 0.080910 255 220 0
0.194431 0.087463 0.056191 255 220 0
0.139160 0.117711 0.104710 255 220 0
0.104008 0.141069 0.085340 255 220 0
0.125546 0.191109 0.101444 255 220 0
0.154160 0.148629 0.103810 255 220 0
0.110899 0.123928 0.055617 255 220 0
0.181139 0.159566 0.060755 255 220 0
0.143416 0.057599 0.029619 255 220 0
0.170434 0.101417 0.022237 255 220 0
0.097228 0.199969 0.084781 255 220 0
0.142767 0.192303 0.093640 255 220 0
0.156248 0.154568 0.102131 255 220 0
0.148964 0.166451 0.102414 255 220 0
0.102775 0.161837 0.092170 255 220 0
0.119971 0.090481 0.092067 255 220 0
0.106825 0.206459 0.079786 255 220 0
0.115302 0.101048 0.047390 255 220 0
0.175549 0.045070 0.041086 255 220 0
0.144979 0.118264 0.105119 255 220 0
0.131330 0.164892 0.047590 255 220 0
0.116495 0.070041 0.063345 255 220 0
0.156643 0.158332 0.101146 255 220 0
0.169021 0.120411 0.025770 255 220 0
0.110976 0.158338 0.059974 255 220 0
0.137606 0.170278 0.047058 255 220 0
0.104822 0.112326 0.077682 255 220 0
0.108483 0.103580 0.060159 255 220 0
0.124946 0.093439 0.035630 255 220 0
0.159156 0.186002 0.081046 255 220 0
0.188597 0.073738 0.037497 255 220 0
0.122386 0.077220 0.040810 255 220 0
0.186089 0.118254 0.035697 255 220 0
0.129002 0.161678 0.047745 255 220 0
0.194564 0.114286 0.063526 255 220 0
0.181378 0.053553 0.037832 255 220 0
0.176955 0.166651 0.059891 255 220 0
0.121973 0.206630 0.074720 255 220 0
0.154572 0.101357 0.102757 255 220 0
0.104692 0.167509 0.096679 255 220 0
0.145644 0.147922 0.035473 255 220 0
0.192535 0.117193 0.047171 255 220 0
0.115247 0.186862 0.102640 255 220 0
0.181041 0.081590 0.085991 255 220 0
0.161615 0.155276 0.038081 255 220 0
0.186840 0.146115 0.056971 255 220 0
0.157268 0.120160 0.025113 255 220 0
0.107215 0.175684 0.065343 255 220 0
0.157577 0.124065 0.104263 255 220 0
0.177132 0.127357 0.094037 255 220 0
0.099768 0.201400 0.078179 255 220 0
0.136284 0.077489 0.026651 255 220 0
0.168215 0.095501 0.020778 255 220 0
0.164727 0.123969 0.026294 255 220 0
0.108149 0.099965 0.062177 255 220 0
0.155445 0.119376 0.104553 255 220 0
0.162512 0.116566 0.024067 255 220 0
0.142143 0.153485 0.105852 255 220 0
0.143408 0.101566 0.102951 255 220 0
0.177812 0.165427 0.060894 255 220 0
0.140674 0.083408 0.097784 255 220 0
0.108801 0.167574 0.099928 255 220 0
0.128265 0.119338 0.036277 255 220 0
0.149181 0.059283 0.084599 255 220 0
0.167864 0.153929 0.038628 255 220 0
0.121913 0.109582 0.039939 255 220 0
0.177638 0.063959 0.078363 255 220 0
0.176797 0.047751 0.063251 255 220 0
0.166166 0.169617 0.089061 255 220 0
0.127369 0.056795 0.070112 255 220 0
0.169698 0.162003 0.090026 255 220 0
0.118778 0.086126 0.088833 255 220 0
0.185498 0.099859 0.031457 255 220 0
0.183503 0.091151 0.029207 255 220 0
0.129441 0.069822 0.035066 255 220 0
0.151607 0.062376 0.087050 255 220 0
0.193465 0.115714 0.049515 255 220 0
0.168826 0.087673 0.095991 255 220 0
0.153379 0.086649 0.019336 255 220 0
0.118921 0.066454 0.068940 255 220 0
0.154796 0.050304 0.076913 255 220 0
0.184628 0.079858 0.030603 255 220 0
0.168061 0.177235 0.073979 255 220 0
0.120929 0.073305 0.082663 255 220 0
0.105048 0.109387 0.074845 255 220 0
0.118837 0.185706 0.060758 255 220 0
0.109440 0.088314 0.071605 255 220 0
0.109666 0.097331 0.082939 255 220 0
0.188111 0.092244 0.034660 255 220 0
0.171926 0.040616 0.048465 255 220 0
0.128585 0.197482 0.097094 255 220 0
0.176388 0.155609 0.084414 255 220 0
0.148100 0.145938 0.034288 255 220 0
0.133894 0.160003 0.105942 255 220 0
0.179257 0.149973 0.083235 255 220 0
0.118522 0.130180 0.046809 255 220 0
0.113482 0.135141 0.097365 255 220 0
0.147613 0.051136 0.032141 255 220 0
0.189052 0.095705 0.035950 255 220 0
0.144040 0.099792 0.023188 255 220 0
0.129160 0.089465 0.096881 255 220 0
0.161738 0.130203 0.028184 255 220 0
0.106602 0.135834 0.064192 255 220 0
0.140458 0.060906 0.029558 255 220 0
0.152537 0.080818 0.097684 255 220 0
0.186835 0.128501 0.080584 255 220 0
0.113814 0.087901 0.051737 255 220 0
0.145615 0.117362 0.105054 255 220 0
0.182623 0.143080 0.081097 255 220 0
0.185371 0.150069 0.057875 255 220 0
0.179725 0.082340 0.025642 255 220 0
0.176792 0.089599 0.023775 255 220 0
0.192862 0.120186 0.050436 255 220 0
0.177671 0.044737 0.055398 255 220 0
0.141742 0.078132 0.095688 255 220 0
0.174117 0.043093 0.058876 255 220 0
0.122965 0.127621 0.042121 255 220 0
0.101519 0.153021 0.078798 255 220 0
0.121629 0.204480 0.092997 255 220 0
0.151409 0.117787 0.104938 255 220 0
0.120141 0.133952 0.045980 255 220 0
0.108270 0.094865 0.064982 255 220 0
0.131936 0.104654 0.101848 255 220 0
0.100208 0.177854 0.095341 255 220 0
0.101575 0.159389 0.073591 255 220 0
0.182068 0.131896 0.036664 255 220 0
0.175906 0.075021 0.023222 255 220 0
0.179129 0.110208 0.027349 255 220 0
0.135939 0.174332 0.049481 255 220 0
0.149858 0.182098 0.095903 255 220 0
0.152003 0.051917 0.078516 255 220 0
0.152755 0.085080 0.099179 255 220 0
0.160506 0.162521 0.041744 255 220 0
0.136807 0.194817 0.095312 255 220 0
0.163129 0.104676 0.101502 255 220 0
0.137199 0.134177 0.034047 255 220 0
0.138713 0.189964 0.097756 255 220 0
0.166854 0.121075 0.025619 255 220 0
0.118708 0.135123 0.047592 255 220 0
0.106110 0.123451 0.064615 255 220 0
0.105426 0.106653 0.073679 255 220 0
0.163363 0.182367 0.077181 255 220 0
0.153383 0.186160 0.089885 255 220 0
0.116528 0.112627 0.096684 255 220 0
0.098950 0.201257 0.079641 255 220 0
0.159522 0.095146 0.100818 255 220 0
0.125757 0.128968 0.040178 255 220 0
0.113981 0.104014 0.049452 255 220 0
0.118917 0.182401 0.103768 255 220 0
0.165932 0.048599 0.072760 255 220 0
0.178218 0.061402 0.075979 255 220 0
0.139346 0.045430 0.049169 255 220 0
0.106446 0.135541 0.064484 255 220 0
0.103285 0.133691 0.078446 255 220 0
0.179877 0.057147 0.032610 255 220 0
0.189794 0.113116 0.039222 255 220 0
0.104806 0.188604 0.099690 255 220 0
0.142238 0.061406 0.085163 255 220 0
0.181662 0.051278 0.059800 255 220 0
0.163549 0.119204 0.102493 255 220 0
0.133785 0.103234 0.101954 255 220 0
0.150518 0.185765 0.092950 255 220 0
0.116011 0.201982 0.096407 255 220 0
0.164057 0.038863 0.057298 255 220 0
0.133706 0.187842 0.057424 255 220 0
0.134495 0.057030 0.078234 255 220 0
0.190376 0.095209 0.077720 255 220 0
0.099834 0.174420 0.093580 255 220 0
0.108549 0.103947 0.059916 255 220 0
0.125282 0.164678 0.050785 255 220 0
0.156227 0.188601 0.082739 255 220 0
0.189161 0.115320 0.080576 255 220 0
0.160231 0.041675 0.037904 255 220 0
0.153797 0.107848 0.103767 255 220 0
0.115509 0.194178 0.064726 255 220 0
0.192400 0.098884 0.042200 255 220 0
0.153799 0.085549 0.099241 255 220 0
0.146503 0.143044 0.105809 255 220 0
0.113862 0.177998 0.061126 255 220 0
0.108847 0.119244 0.058653 255 220 0
0.174445 0.128349 0.096149 255 220 0
0.122971 0.192525 0.101188 255 220 0
0.103918 0.122350 0.078335 255 220 0
0.098962 0.170762 0.090032 255 220 0
0.120517 0.139103 0.102281 255 220 0
0.123173 0.133980 0.102789 255 220 0
0.104052 0.128995 0.081893 255 220 0
0.193495 0.084944 0.063587 255 220 0
0.131385 0.098481 0.030631 255 220 0
0.175676 0.128317 0.030553 255 220 0
0.131888 0.149804 0.105857 255 220 0
0.144897 0.128024 0.029259 255 220 0
0.135783 0.068005 0.088138 255 220 0
0.163319 0.064687 0.021495 255 220 0
0.123369 0.114970 0.039380 255 220 0
0.189898 0.124915 0.045177 255 220 0
0.170072 0.148661 0.036631 255 220 0
0.115870 0.071612 0.069811 255 220 0
0.178584 0.121944 0.030058 255 220 0
0.137890 0.201002 0.069895 255 220 0
0.104233 0.172028 0.097507 255 220 0
0.170521 0.090569 0.020866 255 220 0
0.186057 0.123316 0.083968 255 220 0
0.179815 0.116999 0.092853 255 220 0
0.167651 0.060375 0.082246 255 220 0
0.167878 0.134970 0.030522 255 220 0
0.103745 0.123545 0.076490 255 220 0
0.141540 0.107071 0.103664 255 220 0
0.105076 0.198985 0.071048 255 220 0
0.135720 0.182390 0.053798 255 220 0
0.185527 0.058560 0.040283 255 220 0
0.118779 0.105510 0.042933 255 220 0
0.165119 0.049523 0.074045 255 220 0
0.104349 0.161203 0.068134 255 220 0
0.113768 0.140471 0.054056 255 220 0
0.137516 0.199431 0.090135 255 220 0
0.190300 0.131139 0.050470 255 220 0
0.138371 0.071470 0.026476 255 220 0
0.102753 0.143178 0.077276 255 220 0
0.137937 0.184136 0.100985 255 220 0
0.195157 0.109740 0.060602 255 220 0
0.188314 0.066507 0.040094 255 220 0
0.181601 0.099174 0.090105 255 220 0
0.181953 0.088364 0.027677 255 220 0
0.160612 0.152584 0.100490 255 220 0
0.173495 0.041585 0.055137 255 220 0
0.109538 0.160244 0.099035 255 220 0
0.159659 0.141870 0.032284 255 220 0
0.177026 0.119979 0.095104 255 220 0
0.114879 0.099449 0.048072 255 220 0
0.111739 0.090193 0.081967 255 220 0
0.174588 0.154848 0.042035 255 220 0
0.147435 0.050411 0.032865 255 220 0
0.156637 0.134076 0.029474 255 220 0
0.112314 0.079547 0.070230 255 220 0
0.146667 0.041158 0.055322 255 220 0
0.171070 0.151120 0.093682 255 220 0
0.160224 0.135923 0.030131 255 220 0
0.122771 0.096826 0.037929 255 220 0
0.177561 0.053615 0.069447 255 220 0
0.178580 0.164164 0.060436 255 220 0
0.185161 0.139052 0.043563 255 220 0
0.102776 0.182381 0.069384 255 220 0
0.100566 0.180869 0.096509 255 220 0
0.191714 0.089976 0.073289 255 220 0
0.121419 0.134860 0.045031 255 220 0
0.133792 0.141216 0.038110 255 220 0
0.191616 0.122375 0.047837 255 220 0
0.134288 0.110390 0.103211 255 220 0
0.186301 0.092038 0.032282 255 220 0
0.159279 0.086194 0.018816 255 220 0
0.121551 0.063485 0.053664 255 220 0
0.188983 0.139756 0.059264 255 220 0
0.130186 0.202932 0.090765 255 220 0
0.100742 0.160779 0.086951 255 220 0
0.156861 0.082029 0.097636 255 220 0
0.181289 0.139208 0.085572 255 220 0
0.150165 0.041825 0.063694 255 220 0
0.194771 0.108155 0.065404 255 220 0
0.116309 0.101059 0.093353 255 220 0
0.168186 0.076882 0.091731 255 220 0
0.117896 0.123343 0.046289 255 220 0
0.105743 0.163729 0.096603 255 220 0
0.145729 0.198824 0.082558 255 220 0
0.131088 0.059529 0.039734 255 220 0
0.173103 0.088993 0.021745 255 220 0
0.119321 0.075537 0.046350 255 220 0
0.113372 0.109273 0.093235 255 220 0
0.132463 0.080278 0.094229 255 220 0
0.124673 0.081511 0.091050 255 220 0
0.149261 0.121129 0.026361 255 220 0
0.168051 0.166158 0.046528 255 220 0
0.144911 0.200862 0.076076 255 220 0
0.136583 0.174323 0.049284 255 220 0
0.181609 0.067572 0.029190 255 220 0
0.124118 0.207548 0.087307 255 220 0
0.194665 0.106584 0.050686 255 220 0
0.189961 0.126265 0.074551 255 220 0
0.189093 0.085972 0.077549 255 220 0
0.165689 0.092308 0.098510 255 220 0
0.126285 0.107636 0.035685 255 220 0
0.163307 0.147102 0.100188 255 220 0
0.174905 0.063907 0.025191 255 220 0
0.128256 0.104359 0.033662 255 220 0
0.193149 0.108437 0.072254 255 220 0
0.131372 0.184907 0.102600 255 220 0
0.178867 0.045348 0.050418 255 220 0
0.119692 0.164608 0.104278 255 220 0
0.185530 0.144965 0.071243 255 220 0
0.119162 0.096423 0.042090 255 220 0
0.192537 0.081776 0.045718 255 220 0
0.191929 0.115821 0.044758 255 220 0
0.129794 0.162887 0.047718 255 220 0
0.127870 0.097064 0.098879 255 220 0
0.104321 0.152494 0.069080 255 220 0
0.107632 0.203691 0.092823 255 220 0
0.109088 0.190171 0.066257 255 220 0
0.144209 0.044128 0.043706 255 220 0
0.182972 0.080291 0.083580 255 220 0
0.187256 0.091124 0.033515 255 220 0
0.191210 0.076298 0.065876 255 220 0
0.128220 0.172643 0.105247 255 220 0
0.137089 0.124806 0.105081 255 220 0
0.166772 0.040784 0.061388 255 220 0
0.163497 0.091142 0.019398 255 220 0
0.118253 0.201834 0.096379 255 220 0
0.103910 0.196599 0.070493 255 220 0
0.126878 0.156497 0.047293 255 220 0
0.177628 0.111786 0.094805 255 220 0
0.136717 0.182488 0.053711 255 220 0
0.184484 0.059855 0.036847 255 220 0
0.159058 0.081383 0.096922 255 220 0
0.144799 0.064365 0.025106 255 220 0
0.139822 0.071183 0.025570 255 220 0
0.187900 0.122384 0.081000 255 220 0
0.139721 0.056448 0.080262 255 220 0
0.156532 0.062704 0.087113 255 220 0
0.183414 0.144859 0.077975 255 220 0
0.156506 0.090677 0.100315 255 220 0
0.176599 0.085039 0.090864 255 220 0
0.156148 0.163395 0.041679 255 220 0
0.190788 0.116062 0.076994 255 220 0
0.145040 0.044897 0.041069 255 220 0
0.162054 0.136626 0.102266 255 220 0
0.138995 0.202618 0.073131 255 220 0
0.127731 0.083148 0.033279 255 220 0
0.105185 0.108819 0.076225 255 220 0
0.125385 0.152457 0.046959 255 220 0
0.134258 0.199415 0.066946 255 220 0
0.122516 0.061127 0.055533 255 220 0
0.173713 0.098503 0.023028 255 220 0
0.189697 0.109433 0.038023 255 220 0
0.151289 0.167340 0.043621 255 220 0
0.111410 0.087829 0.057910 255 220 0
0.132340 0.106116 0.102199 255 220 0
0.171091 0.174934 0.063944 255 220 0
0.169307 0.175910 0.072771 255 220 0
0.147982 0.048538 0.034286 255 220 0
0.187492 0.059797 0.056200 255 220 0
0.182842 0.067279 0.075791 255 220 0
0.141030 0.043923 0.060325 255 220 0
0.118296 0.146865 0.102180 255 220 0
0.107965 0.095117 0.075387 255 220 0
0.130014 0.186672 0.102295 255 220 0
0.142557 0.201041 0.082682 255 220 0
0.108680 0.207387 0.081491 255 220 0
0.122238 0.084652 0.090986 255 220 0
0.108605 0.182058 0.101373 255 220 0
0.154410 0.190399 0.083134 255 220 0
0.176401 0.155683 0.084332 255 220 0
0.170058 0.104941 0.022680 255 220 0
0.116032 0.111953 0.096176 255 220 0
0.177469 0.086431 0.024035 255 220 0
0.139934 0.049057 0.040414 255 220 0
0.181672 0.049111 0.054988 255 220 0
0.147642 0.196259 0.068163 255 220 0
0.159000 0.114199 0.103550 255 220 0
0.097705 0.179240 0.075646 255 220 0
0.123250 0.071760 0.083737 255 220 0
0.112170 0.206096 0.090568 255 220 0
0.106555 0.141240 0.064707 255 220 0
0.160824 0.101244 0.101637 255 220 0
0.147796 0.075402 0.095156 255 220 0
0.123497 0.176503 0.055573 255 220 0
0.185228 0.122772 0.036545 255 220 0
0.170463 0.045816 0.067023 255 220 0
0.119715 0.070166 0.049497 255 220 0
0.162161 0.123394 0.025989 255 220 0
0.149630 0.062850 0.023770 255 220 0
0.131978 0.052234 0.047547 255 220 0
0.139585 0.164702 0.043937 255 220 0
0.127760 0.056370 0.070019 255 220 0
0.144112 0.110028 0.104241 255 220 0
0.188399 0.141086 0.055037 255 220 0
0.156923 0.038723 0.045683 255 220 0
0.113481 0.078792 0.074834 255 220 0
0.136167 0.055898 0.078076 255 220 0
0.144095 0.180716 0.099828 255 220 0
0.128945 0.090342 0.031917 255 220 0
0.111190 0.103342 0.054231 255 220 0
0.156413 0.111960 0.103865 255 220 0
0.176833 0.081719 0.089262 255 220 0
0.146233 0.138592 0.032141 255 220 0
0.170890 0.134752 0.031105 255 220 0
0.129990 0.201106 0.093075 255 220 0
0.166255 0.043521 0.066445 255 220 0
0.147632 0.076921 0.095904 255 220 0
0.171903 0.085095 0.093618 255 220 0
0.130416 0.051828 0.052763 255 220 0
0.179533 0.109858 0.093175 255 220 0
0.137163 0.137324 0.035017 255 220 0
0.131396 0.174386 0.051140 255 220 0
0.148867 0.108729 0.023421 255 220 0
0.179053 0.090826 0.025388 255 220 0
0.156775 0.041374 0.064616 255 220 0
0.184114 0.090963 0.029832 255 220 0
0.182523 0.154862 0.067656 255 220 0
0.172278 0.097017 0.096652 255 220 0
0.105185 0.121331 0.067315 255 220 0
0.106692 0.125397 0.063277 255 220 0
0.176153 0.117209 0.095918 255 220 0
0.163136 0.151242 0.036383 255 220 0
0.141481 0.075064 0.094061 255 220 0
0.123079 0.173454 0.104938 255 220 0
0.151485 0.051848 0.029858 255 220 0
0.165239 0.043471 0.035844 255 220 0
0.143833 0.138047 0.105999 255 220 0
0.101830 0.202894 0.077573 255 220 0
0.167025 0.171996 0.085460 255 220 0
0.156003 0.084213 0.098534 255 220 0
0.115032 0.081702 0.051776 255 220 0
0.110390 0.099011 0.056394 255 220 0
0.140939 0.098397 0.024445 255 220 0
0.194300 0.086441 0.056314 255 220 0
0.143365 0.156380 0.039269 255 220 0
0.188554 0.063118 0.044305 255 220 0
0.109440 0.090702 0.063270 255 220 0
0.105908 0.183642 0.067104 255 220 0
0.101914 0.200508 0.074366 255 220 0
0.132960 0.137298 0.105392 255 220 0
0.184118 0.062439 0.069533 255 220 0
0.187245 0.074652 0.074812 255 220 0
0.172709 0.061559 0.025060 255 220 0
0.188582 0.127365 0.077439 255 220 0
0.133092 0.048688 0.059565 255 220 0
0.158097 0.108274 0.103185 255 220 0
0.169658 0.173439 0.055402 255 220 0
0.186214 0.119987 0.084627 255 220 0
0.144400 0.074882 0.094479 255 220 0
0.157331 0.183211 0.057388 255 220 0
0.157467 0.132120 0.028798 255 220 0
0.110256 0.172014 0.101370 255 220 0
0.145809 0.187315 0.095350 255 220 0
0.175135 0.054203 0.072460 255 220 0
0.101575 0.153182 0.077642 255 220 0
0.134081 0.205242 0.075562 255 220 0
0.195233 0.107496 0.056034 255 220 0
0.171825 0.133636 0.097243 255 220 0
0.095008 0.186442 0.079520 255 220 0
0.118021 0.067270 0.062544 255 220 0
0.180245 0.160761 0.064549 255 220 0
0.114021 0.151814 0.100570 255 220 0
0.114519 0.168174 0.058415 255 220 0
0.161662 0.122824 0.025804 255 220 0
0.141605 0.115076 0.104660 255 220 0
0.119510 0.069675 0.050484 255 220 0
0.184534 0.055377 0.041982 255 220 0
0.122270 0.200024 0.097079 255 220 0
0.135257 0.071010 0.089971 255 220 0
0.119700 0.157075 0.052033 255 220 0
0.113829 0.150887 0.055837 255 220 0
0.108081 0.154964 0.063125 255 220 0
0.170265 0.174304 0.057936 255 220 0
0.121300 0.159190 0.051509 255 220 0
0.103734 0.129712 0.072771 255 220 0
0.148629 0.125980 0.027827 255 220 0
0.151639 0.081877 0.019535 255 220 0
0.127180 0.054338 0.061014 255 220 0
0.144526 0.199452 0.071184 255 220 0
0.095702 0.177572 0.083579 255 220 0
0.152609 0.089710 0.019652 255 220 0
0.173893 0.139993 0.094204 255 220 0
0.180378 0.085172 0.088030 255 220 0
0.103689 0.142057 0.084695 255 220 0
0.139600 0.106892 0.103446 255 220 0
0.188670 0.069286 0.039330 255 220 0
0.149006 0.144870 0.105393 255 220 0
0.189797 0.118123 0.041285 255 220 0
0.098311 0.174078 0.090869 255 220 0
0.166593 0.070494 0.020351 255 220 0
0.105701 0.135884 0.066094 255 220 0
0.194187 0.114503 0.066169 255 220 0
0.171577 0.040266 0.050684 255 220 0
0.148826 0.181675 0.053305 255 220 0
0.094678 0.192489 0.080749 255 220 0
0.110036 0.141744 0.059165 255 220 0
0.194961 0.107456 0.064222 255 220 0
0.119699 0.084342 0.088720 255 220 0
0.106321 0.200456 0.071364 255 220 0
0.184590 0.106322 0.031047 255 220 0
0.109896 0.130478 0.093151 255 220 0
0.180127 0.152008 0.044994 255 220 0
0.136482 0.137364 0.035388 255 220 0
0.116743 0.133086 0.049248 255 220 0
0.181014 0.158623 0.054611 255 220 0
0.177713 0.141088 0.036625 255 220 0
0.118396 0.122653 0.099324 255 220 0
0.112911 0.125477 0.052840 255 220 0
0.099762 0.171017 0.091768 255 220 0
0.151748 0.070707 0.092712 255 220 0
0.095578 0.192562 0.078183 255 220 0
0.172293 0.074239 0.021422 255 220 0
0.184908 0.058909 0.063572 255 220 0
0.167465 0.110765 0.100575 255 220 0
0.123234 0.086780 0.037718 255 220 0
0.104532 0.137289 0.085615 255 220 0
0.163945 0.183471 0.068309 255 220 0
0.105326 0.117194 0.067291 255 220 0
0.176276 0.081031 0.089310 255 220 0
0.178105 0.069507 0.081717 255 220 0
0.166109 0.103220 0.100313 255 220 0
0.192621 0.096359 0.042880 255 220 0
0.106549 0.142016 0.090985 255 220 0
0.112967 0.109980 0.093024 255 220 0
0.116733 0.106407 0.045559 255 220 0
0.168152 0.075972 0.019809 255 220 0
0.181574 0.067983 0.077700 255 220 0
0.187534 0.136155 0.046425 255 220 0
0.146938 0.042138 0.045079 255 220 0
0.165111 0.066354 0.087396 255 220 0
0.095702 0.186090 0.091589 255 220 0
0.103690 0.191358 0.098848 255 220 0
0.190154 0.067819 0.058827 255 220 0
0.097202 0.176742 0.090246 255 220 0
0.190164 0.075655 0.068884 255 220 0
0.111189 0.088081 0.058473 255 220 0
0.138276 0.120793 0.029984 255 220 0
0.170515 0.096052 0.097377 255 220 0
0.124950 0.116127 0.101654 255 220 0
0.191681 0.071608 0.054316 255 220 0
0.182828 0.071759 0.078932 255 220 0
0.159077 0.090106 0.099702 255 220 0
0.193256 0.081663 0.061126 255 220 0
0.158014 0.186943 0.062816 255 220 0
0.120565 0.172155 0.055654 255 220 0
0.183625 0.154253 0.060796 255 220 0
0.110654 0.130537 0.056762 255 220 0
0.103177 0.186870 0.098976 255 220 0
0.118296 0.082324 0.045234 255 220 0
0.109797 0.088493 0.064160 255 220 0
0.151715 0.169922 0.100209 255 220 0
0.131415 0.191869 0.060268 255 220 0
0.176964 0.113872 0.026854 255 220 0
0.164071 0.170263 0.091138 255 220 0
0.123563 0.158346 0.104890 255 220 0
0.124353 0.099783 0.098196 255 220 0
0.116087 0.141017 0.100185 255 220 0
0.119513 0.114493 0.098939 255 220 0
0.142737 0.185141 0.055349 255 220 0
0.163922 0.158992 0.096759 255 220 0
0.145575 0.110893 0.104398 255 220 0
0.190931 0.126227 0.071585 255 220 0
0.103434 0.130441 0.078024 255 220 0
0.147270 0.108828 0.023822 255 220 0
0.141059 0.046689 0.042807 255 220 0
0.126092 0.055564 0.060558 255 220 0
0.169966 0.097242 0.021500 255 220 0
0.158425 0.184758 0.059993 255 220 0
0.193019 0.115053 0.071055 255 220 0
0.165750 0.172755 0.086776 255 220 0
0.169772 0.173198 0.077450 255 220 0
0.161540 0.071324 0.091596 255 220 0
0.155660 0.140017 0.031564 255 220 0
0.151767 0.043719 0.068453 255 220 0
0.163837 0.050747 0.075716 255 220 0
0.144638 0.191704 0.061291 255 220 0
0.098883 0.165003 0.082679 255 220 0
0.107019 0.113248 0.085726 255 220 0
0.165740 0.174546 0.052962 255 220 0
0.181114 0.156661 0.051382 255 220 0
0.115543 0.073782 0.058026 255 220 0
0.126125 0.097161 0.034686 255 220 0
0.158708 0.121631 0.103963 255 220 0
0.117273 0.136308 0.049293 255 220 0
0.164323 0.038760 0.056716 255 220 0
0.180366 0.161048 0.060740 255 220 0
0.135322 0.158222 0.105991 255 220 0
0.169156 0.145804 0.035088 255 220 0
0.166947 0.084923 0.095773 255 220 0
0.109056 0.159593 0.098525 255 220 0
0.166285 0.179375 0.074723 255 220 0
0.142273 0.130106 0.030668 255 220 0
0.127606 0.054585 0.054076 255 220 0
0.129962 0.061022 0.039939 255 220 0
0.113224 0.145328 0.098939 255 220 0
0.177538 0.134070 0.033736 255 220 0
0.155827 0.039294 0.058281 255 220 0
0.188374 0.139464 0.066624 255 220 0
0.152536 0.145028 0.104645 255 220 0
0.146768 0.176520 0.049344 255 220 0
0.135647 0.189504 0.099395 255 220 0
0.148159 0.198563 0.074371 255 220 0
0.188341 0.113422 0.037012 255 220 0
0.160832 0.186894 0.071858 255 220 0
0.163497 0.159628 0.040669 255 220 0
0.107679 0.164636 0.098536 255 220 0
0.103419 0.149746 0.071591 255 220 0
0.104198 0.131450 0.083140 255 220 0
0.143625 0.201540 0.079131 255 220 0
0.106068 0.128835 0.087353 255 220 0
0.160665 0.073639 0.019221 255 220 0
0.096761 0.178994 0.090697 255 220 0
0.161943 0.116623 0.024065 255 220 0
0.129249 0.206382 0.075703 255 220 0
0.152386 0.069716 0.092107 255 220 0
0.163899 0.172669 0.050005 255 220 0
0.150712 0.042416 0.040264 255 220 0
0.177043 0.160673 0.077663 255 220 0
0.168376 0.115052 0.024279 255 220 0
0.174964 0.083143 0.091107 255 220 0
0.193381 0.106559 0.071659 255 220 0
0.112873 0.081777 0.076853 255 220 0
0.151616 0.191915 0.085296 255 220 0
0.162116 0.041149 0.038801 255 220 0
0.134647 0.179224 0.103545 255 220 0
0.101612 0.154555 0.076011 255 220 0
0.194183 0.112452 0.067302 255 220 0
0.116392 0.097590 0.045833 255 220 0
0.140665 0.086517 0.098914 255 220 0
0.140459 0.101221 0.102610 255 220 0
0.144139 0.048199 0.073128 255 220 0
0.155041 0.168750 0.044773 255 220 0
0.131942 0.049695 0.056486 255 220 0
0.104801 0.202477 0.092928 255 220 0
0.184289 0.072155 0.031086 255 220 0
0.164679 0.093709 0.099168 255 220 0
0.178149 0.090304 0.091421 255 220 0
0.169203 0.062161 0.082704 255 220 0
0.114810 0.083339 0.082201 255 220 0
0.152671 0.039106 0.050611 255 220 0
0.157548 0.161734 0.099793 255 220 0
0.115293 0.199466 0.098207 255 220 0
0.173674 0.115748 0.025851 255 220 0
0.182539 0.095124 0.028385 255 220 0
0.150901 0.147130 0.104862 255 220 0
0.140664 0.055565 0.033060 255 220 0
0.144962 0.047758 0.037153 255 220 0
0.121030 0.194936 0.100313 255 220 0
0.170951 0.165385 0.047611 255 220 0
0.127453 0.069867 0.037339 255 220 0
0.105812 0.172719 0.066345 255 220 0
0.117551 0.091288 0.090333 255 220 0
0.145749 0.128714 0.105696 255 220 0
0.180408 0.091879 0.089875 255 220 0
0.170919 0.085263 0.094174 255 220 0
0.184264 0.151871 0.064557 255 220 0
0.155205 0.187950 0.061775 255 220 0
0.180915 0.118599 0.030634 255 220 0
0.169930 0.098273 0.021630 255 220 0
0.124286 0.070432 0.041209 255 220 0
0.166100 0.051376 0.075458 255 220 0
0.159388 0.146154 0.033900 255 220 0
0.132231 0.058853 0.038852 255 220 0
0.131066 0.194948 0.062512 255 220 0
0.192704 0.078515 0.060712 255 220 0
0.147695 0.160925 0.040438 255 220 0
0.108211 0.192982 0.067255 255 220 0
0.117215 0.199813 0.067015 255 220 0
0.107425 0.099727 0.078729 255 220 0
0.193538 0.121428 0.062941 255 220 0
0.189653 0.071404 0.040866 255 220 0
0.170082 0.109023 0.099251 255 220 0
0.120021 0.199994 0.097531 255 220 0
0.184274 0.064906 0.071822 255 220 0
0.133539 0.082718 0.095733 255 220 0
0.156070 0.127607 0.027398 255 220 0
0.121412 0.197602 0.098855 255 220 0
0.191299 0.116548 0.075627 255 220 0
0.158860 0.042224 0.066248 255 220 0
0.189640 0.068519 0.042639 255 220 0
0.149034 0.120785 0.026311 255 220 0
0.168317 0.176437 0.058484 255 220 0
0.165529 0.039314 0.044782 255 220 0
0.123786 0.077650 0.038820 255 220 0
0.096560 0.188949 0.093261 255 220 0
0.175280 0.048447 0.066049 255 220 0
0.168141 0.121626 0.025964 255 220 0
0.127772 0.202990 0.069967 255 220 0
0.143291 0.197195 0.067000 255 220 0
0.173438 0.059691 0.078385 255 220 0
0.133037 0.183019 0.054670 255 220 0
0.169746 0.052522 0.028917 255 220 0
0.192563 0.111260 0.073582 255 220 0
0.147707 0.174584 0.100517 255 220 0
0.165027 0.133389 0.029543 255 220 0
0.155090 0.095023 0.019906 255 220 0
0.179142 0.136765 0.089466 255 220 0
0.138431 0.115419 0.104400 255 220 0
0.166808 0.180138 0.068383 255 220 0
0.194591 0.089808 0.060056 255 220 0
0.116466 0.203103 0.069933 255 220 0
0.137144 0.104197 0.102715 255 220 0
0.124394 0.066073 0.079487 255 220 0
0.154335 0.140258 0.104574 255 220 0
0.146267 0.185112 0.096474 255 220 0
0.190779 0.099260 0.077677 255 220 0
0.152504 0.083743 0.019377 255 220 0
0.125076 0.129593 0.040835 255 220 0
0.116064 0.198164 0.066285 255 220 0
0.143687 0.182103 0.099425 255 220 0
0.180194 0.075398 0.026342 255 220 0
0.151469 0.169042 0.044649 255 220 0
0.173847 0.154106 0.089311 255 220 0
0.105264 0.169494 0.097745 255 220 0
0.101878 0.157039 0.087543 255 220 0
0.106184 0.102185 0.073295 255 220 0
0.166499 0.171355 0.050157 255 220 0
0.130909 0.082636 0.094761 255 220 0
0.103816 0.132310 0.081831 255 220 0
0.144178 0.200154 0.082213 255 220 0
0.119856 0.200255 0.066918 255 220 0
0.186713 0.058728 0.057659 255 220 0
0.120804 0.191803 0.062193 255 220 0
0.166109 0.092316 0.098365 255 220 0
0.158054 0.039803 0.060831 255 220 0
0.121318 0.093876 0.094501 255 220 0
0.100761 0.158297 0.084383 255 220 0
0.104800 0.176385 0.098904 255 220 0
0.094179 0.189488 0.082018 255 220 0
0.181107 0.049116 0.057080 255 220 0
0.178106 0.161870 0.072487 255 220 0
0.158628 0.113371 0.023267 255 220 0
0.175693 0.044456 0.042611 255 220 0
0.133221 0.125199 0.034131 255 220 0
0.193602 0.082021 0.057971 255 220 0
0.161903 0.161307 0.097353 255 220 0
0.168626 0.149389 0.096265 255 220 0
0.131339 0.192977 0.061035 255 220 0
0.186533 0.131525 0.042273 255 220 0
0.157176 0.052012 0.028255 255 220 0
0.149732 0.180556 0.096839 255 220 0
0.122665 0.121331 0.101329 255 220 0
0.157398 0.099587 0.102068 255 220 0
0.125811 0.115379 0.037358 255 220 0
0.130733 0.101153 0.100832 255 220 0
0.127424 0.069264 0.084988 255 220 0
0.103684 0.130488 0.072936 255 220 0
0.156260 0.099997 0.102315 255 220 0
0.149576 0.068714 0.091378 255 220 0
0.159805 0.107595 0.021919 255 220 0
0.105944 0.128511 0.065141 255 220 0
0.153096 0.064699 0.088733 255 220 0
0.186314 0.069067 0.072138 255 220 0
0.165804 0.149928 0.098103 255 220 0
0.176474 0.077231 0.087257 255 220 0
0.153527 0.078165 0.096538 255 220 0
0.171837 0.086372 0.020979 255 220 0
0.127434 0.076712 0.034783 255 220 0
0.155002 0.069568 0.020346 255 220 0
0.177362 0.125652 0.094127 255 220 0
0.105203 0.198828 0.070889 255 220 0
0.139725 0.055909 0.033552 255 220 0
0.155405 0.192457 0.074913 255 220 0
0.105439 0.155236 0.093539 255 220 0
0.167050 0.119765 0.025274 255 220 0
0.192866 0.124100 0.064374 255 220 0
0.189913 0.095693 0.078678 255 220 0
0.185944 0.084543 0.081894 255 220 0
0.191624 0.099339 0.040443 255 220 0
0.112827 0.102086 0.051343 255 220 0
0.138110 0.194009 0.062238 255 220 0
0.106811 0.121457 0.062872 255 220 0
0.191184 0.070134 0.048790 255 220 0
0.139219 0.106103 0.026565 255 220 0
0.192688 0.124438 0.065214 255 220 0
0.186518 0.070224 0.072760 255 220 0
0.194954 0.110651 0.054885 255 220 0
0.171458 0.151265 0.038401 255 220 0
0.141081 0.089455 0.023444 255 220 0
0.133051 0.151568 0.105979 255 220 0
0.183308 0.099291 0.088360 255 220 0
0.144483 0.128833 0.105711 255 220 0
0.154483 0.039654 0.043813 255 220 0
0.116563 0.077012 0.051160 255 220 0
0.104022 0.123376 0.079848 255 220 0
0.167229 0.091526 0.097760 255 220 0
0.147348 0.073059 0.093858 255 220 0
0.179638 0.150544 0.082036 255 220 0
0.176632 0.078599 0.023433 255 220 0
0.168753 0.106611 0.099637 255 220 0
0.165525 0.111023 0.101370 255 220 0
0.180578 0.083746 0.026356 255 220 0
0.145099 0.158344 0.104974 255 220 0
0.187068 0.093219 0.033218 255 220 0
0.153195 0.194355 0.071911 255 220 0
0.128922 0.056418 0.046605 255 220 0
0.186437 0.145285 0.066443 255 220 0
0.193269 0.118714 0.068086 255 220 0
0.159234 0.048957 0.075080 255 220 0
0.104524 0.199689 0.071812 255 220 0
0.124752 0.149849 0.104682 255 220 0
0.149794 0.090447 0.100798 255 220 0
0.132968 0.050166 0.066273 255 220 0
0.193644 0.092767 0.068220 255 220 0
0.176832 0.157455 0.081898 255 220 0
0.158711 0.038057 0.049265 255 220 0
0.102356 0.148306 0.076634 255 220 0
0.163881 0.122523 0.025791 255 220 0
0.118564 0.067522 0.070752 255 220 0
0.151921 0.041856 0.064623 255 220 0
0.105175 0.195636 0.069445 255 220 0
0.179899 0.159934 0.053390 255 220 0
0.145644 0.057186 0.082490 255 220 0
0.127116 0.076924 0.035074 255 220 0
0.144929 0.068495 0.023505 255 220 0
0.120438 0.159057 0.052036 255 220 0
0.163228 0.168352 0.046205 255 220 0
0.142707 0.146603 0.035777 255 220 0
0.153399 0.126996 0.027426 255 220 0
0.102340 0.197942 0.072136 255 220 0
0.134631 0.150578 0.040737 255 220 0
0.102100 0.189727 0.070053 255 220 0
0.158715 0.168108 0.044902 255 220 0
0.160999 0.116857 0.024109 255 220 0
0.130405 0.188685 0.058391 255 220 0
0.145065 0.150407 0.036528 255 220 0
0.097021 0.186034 0.075504 255 220 0
