ply
format ascii 1.0
element vertex 1024
property float x
property float y
property float z
property uchar red
property uchar green
property uchar blue
end_header
0.613185 0.053707 0.090576 255 220 0
0.560654 0.045492 0.047787 255 220 0
0.648080 0.026076 0.040711 255 220 0
0.608881 -0.005252 0.060427 255 220 0
0.634372 0.050910 0.019111 255 220 0
0.579217 0.045283 0.008485 255 220 0
0.618946 0.042940 0.087370 255 220 0
0.619856 0.125874 0.088904 255 220 0
0.654495 0.061439 0.068963 255 220 0
0.612453 0.034900 0.002974 255 220 0
0.607394 -0.004093 0.062092 255 220 0
0.615367 -0.009784 0.008556 255 220 0
0.600530 0.050203 0.006729 255 220 0
0.622107 0.035906 0.084269 255 220 0
0.643261 0.021167 0.057660 255 220 0
0.567040 0.070657 0.054238 255 220 0
0.572155 -0.004606 0.014133 255 220 0
0.624930 0.085354 0.093704 255 220 0
0.572025 0.073729 0.063605 255 220 0
0.614825 0.019331 0.078407 255 220 0
0.618412 0.011239 0.072043 255 220 0
0.624731 0.038511 0.084329 255 220 0
0.558421 0.032295 0.037324 255 220 0
0.587958 -0.014209 0.007480 255 220 0
0.581658 0.048867 0.009029 255 220 0
0.583253 0.042868 0.005996 255 220 0
0.620052 0.124973 0.046699 255 220 0
0.642274 0.027046 0.024555 255 220 0
0.599557 -0.003122 0.000454 255 220 0
0.601372 0.140831 0.051792 255 220 0
0.650459 0.034816 0.041534 255 220 0
0.634610 0.134808 0.077327 255 220 0
0.651846 0.076606 0.048439 255 220 0
0.603444 0.144519 0.053275 255 220 0
0.600486 0.069697 0.089866 255 220 0
0.620464 -0.015430 0.032143 255 220 0
0.615060 0.087898 0.027173 255 220 0
0.596052 0.022683 0.079260 255 220 0
0.634801 0.133315 0.079356 255 220 0
0.652818 0.079241 0.051788 255 220 0
0.586619 0.091958 0.032441 255 220 0
0.643119 0.120697 0.074178 255 220 0
0.643678 0.028467 0.026513 255 220 0
0.637951 0.024487 0.018637 255 220 0
0.598462 0.129697 0.080570 255 220 0
0.616243 0.077739 0.022192 255 220 0
0.612453 0.016723 0.077257 255 220 0
0.646580 0.025757 0.034101 255 220 0
0.596818 0.046323 0.086292 255 220 0
0.584366 -0.016651 0.012152 255 220 0
0.645952 0.055615 0.032484 255 220 0
0.633840 0.114281 0.088633 255 220 0
0.607529 0.033093 0.085208 255 220 0
0.595303 0.064762 0.087364 255 220 0
0.606848 0.023438 0.081160 255 220 0
0.566435 0.063622 0.057360 255 220 0
0.638859 0.008020 0.035515 255 220 0
0.586036 -0.013268 0.047246 255 220 0
0.583435 0.063638 0.015802 255 220 0
0.571352 0.031020 0.008492 255 220 0
0.647866 0.075206 0.041412 255 220 0
0.580059 -0.006470 0.050251 255 220 0
0.612477 0.128517 0.087761 255 220 0
0.628289 0.010511 0.065629 255 220 0
0.627503 -0.006261 0.020188 255 220 0
0.632262 0.138780 0.072948 255 220 0
0.581598 0.018871 0.070487 255 220 0
0.621146 0.093669 0.032061 255 220 0
0.643358 0.029063 0.065757 255 220 0
0.648946 0.073268 0.042182 255 220 0
0.643373 0.015517 0.045052 255 220 0
0.613795 0.108283 0.037358 255 220 0
0.647235 0.086771 0.046095 255 220 0
0.642875 0.114962 0.061092 255 220 0
0.619104 0.026936 0.081403 255 220 0
0.629651 0.124703 0.051708 255 220 0
0.587330 -0.000564 0.060896 255 220 0
0.627597 0.030307 0.079819 255 220 0
0.649460 0.056243 0.037585 255 220 0
0.585569 0.085131 0.078599 255 220 0
0.595691 0.118270 0.081858 255 220 0
0.570155 0.054454 0.065362 255 220 0
0.628193 0.025802 0.008601 255 220 0
0.636289 0.052419 0.083603 255 220 0
0.577349 0.092039 0.042567 255 220 0
0.628993 0.061578 0.019201 255 220 0
0.572999 -0.006882 0.015304 255 220 0
0.646308 0.111215 0.077286 255 220 0
0.621350 0.062647 0.091853 255 220 0
0.615575 0.090271 0.093879 255 220 0
0.652205 0.039564 0.048031 255 220 0
0.584255 0.098469 0.039559 255 220 0
0.600633 -0.009553 0.056807 255 220 0
0.622776 0.088303 0.029854 255 220 0
0.587023 -0.008012 0.053861 255 220 0
0.579669 0.027977 0.003070 255 220 0
0.630913 0.024099 0.010820 255 220 0
0.622332 -0.009294 0.045154 255 220 0
0.615359 0.095717 0.031374 255 220 0
0.636715 0.014350 0.060601 255 220 0
0.620400 0.016444 0.075014 255 220 0
0.576380 -0.014906 0.030529 255 220 0
0.625216 0.012485 0.006245 255 220 0
0.608617 -0.010186 0.054524 255 220 0
0.631716 0.013919 0.012184 255 220 0
0.601720 0.088033 0.026314 255 220 0
0.620411 -0.004496 0.008491 255 220 0
0.646552 0.030625 0.061336 255 220 0
0.618539 0.034893 0.004792 255 220 0
0.638601 0.026383 0.069634 255 220 0
0.558427 0.028017 0.030924 255 220 0
0.636344 0.011249 0.020587 255 220 0
0.597004 0.046711 0.086427 255 220 0
0.579493 0.025909 0.071818 255 220 0
0.614751 0.039739 0.005282 255 220 0
0.597561 0.041583 0.085627 255 220 0
0.613879 -0.001524 0.002962 255 220 0
0.575413 0.075291 0.068331 255 220 0
0.630257 0.048292 0.015147 255 220 0
0.565017 0.060139 0.055598 255 220 0
0.568138 0.074508 0.038012 255 220 0
0.584886 -0.009013 0.051421 255 220 0
0.622824 0.100012 0.035940 255 220 0
0.637701 0.057092 0.084164 255 220 0
0.605860 0.070549 0.016815 255 220 0
0.608636 0.032717 0.001362 255 220 0
0.652900 0.042427 0.047403 255 220 0
0.615024 0.105301 0.036123 255 220 0
0.628318 0.139715 0.079507 255 220 0
0.612357 0.045517 0.088846 255 220 0
0.610057 -0.001076 0.064424 255 220 0
0.593936 0.053293 0.085985 255 220 0
0.619735 0.117587 0.091156 255 220 0
0.578571 -0.017364 0.028015 255 220 0
0.654380 0.046804 0.052326 255 220 0
0.566826 0.004919 0.042482 255 220 0
0.595632 0.142739 0.068169 255 220 0
0.602644 0.069092 0.090619 255 220 0
0.615057 0.060038 0.091742 255 220 0
0.564256 0.007701 0.018207 255 220 0
0.636765 0.009057 0.052908 255 220 0
0.581151 0.028726 0.002602 255 220 0
0.603194 0.087530 0.090844 255 220 0
0.653158 0.053499 0.043803 255 220 0
0.581046 0.073924 0.022863 255 220 0
0.567653 0.018344 0.055773 255 220 0
0.569679 -0.006868 0.024327 255 220 0
0.613862 -0.017773 0.017139 255 220 0
0.629264 -0.000583 0.016170 255 220 0
0.598835 0.107606 0.037503 255 220 0
0.655270 0.078365 0.058430 255 220 0
0.595890 0.134114 0.075979 255 220 0
0.563587 0.011945 0.017555 255 220 0
0.589537 0.004551 0.066215 255 220 0
0.633755 0.071289 0.026235 255 220 0
0.586005 -0.016295 0.043090 255 220 0
0.618596 0.013639 0.073749 255 220 0
0.582109 0.060222 0.077969 255 220 0
0.561555 0.011303 0.032188 255 220 0
0.584822 0.114415 0.063805 255 220 0
0.616637 0.124711 0.045390 255 220 0
0.590738 0.115883 0.046224 255 220 0
0.638636 0.031264 0.072829 255 220 0
0.635938 0.005419 0.047182 255 220 0
0.595336 0.000484 0.065597 255 220 0
0.612988 0.122379 0.043537 255 220 0
0.587084 -0.013309 0.007169 255 220 0
0.648158 0.097869 0.079447 255 220 0
0.634700 0.099380 0.090192 255 220 0
0.612360 0.038583 0.004226 255 220 0
0.625640 0.111827 0.091683 255 220 0
0.620054 0.043191 0.087209 255 220 0
0.644198 0.035488 0.026506 255 220 0
0.602574 0.056376 0.009590 255 220 0
0.614125 0.150913 0.062511 255 220 0
0.609989 0.050463 0.008112 255 220 0
0.629406 0.082501 0.029513 255 220 0
0.612335 -0.020676 0.030959 255 220 0
0.608692 0.091476 0.028172 255 220 0
0.590010 0.097602 0.034716 255 220 0
0.607728 0.147933 0.074273 255 220 0
0.633253 0.001733 0.045956 255 220 0
0.591038 0.103488 0.038199 255 220 0
0.610947 0.034836 0.085820 255 220 0
0.594386 0.029049 -0.000397 255 220 0
0.616124 0.028297 0.002116 255 220 0
0.629165 0.003651 0.056742 255 220 0
0.570370 0.037742 0.065539 255 220 0
0.605034 0.090718 0.027686 255 220 0
0.611178 -0.020413 0.034723 255 220 0
0.639596 0.014086 0.025862 255 220 0
0.595152 -0.019031 0.043311 255 220 0
0.599780 0.030129 -0.000363 255 220 0
0.615671 -0.004509 0.058162 255 220 0
0.635693 0.056282 0.085148 255 220 0
0.600452 0.104474 0.087996 255 220 0
0.628901 -0.000152 0.015092 255 220 0
0.575033 0.080807 0.032633 255 220 0
0.621136 0.109489 0.039891 255 220 0
0.652270 0.047485 0.065138 255 220 0
0.617599 0.048434 0.089108 255 220 0
0.633017 0.014172 0.064870 255 220 0
0.560748 0.053366 0.042188 255 220 0
0.624419 0.038017 0.084263 255 220 0
0.583455 0.045634 0.078806 255 220 0
0.624260 0.060440 0.016588 255 220 0
0.625066 0.079372 0.026014 255 220 0
0.632470 -0.001318 0.028107 255 220 0
0.625414 -0.010824 0.026961 255 220 0
0.567068 0.000852 0.038115 255 220 0
0.582242 0.107899 0.059513 255 220 0
0.648817 0.055454 0.036412 255 220 0
0.621914 -0.014105 0.024568 255 220 0
0.591909 0.018056 0.075918 255 220 0
0.601166 -0.019083 0.010672 255 220 0
0.641779 0.029320 0.023409 255 220 0
0.558792 0.030344 0.027154 255 220 0
0.588525 -0.003829 0.058711 255 220 0
0.625655 0.000535 0.056502 255 220 0
0.577444 0.061509 0.073286 255 220 0
0.580479 0.099321 0.046500 255 220 0
0.608191 0.128262 0.086770 255 220 0
0.602404 0.077470 0.090720 255 220 0
0.594702 0.078950 0.021853 255 220 0
0.651015 0.066725 0.075794 255 220 0
0.597147 0.004266 -0.001582 255 220 0
0.639787 0.022979 0.021574 255 220 0
0.606315 0.150626 0.061188 255 220 0
0.623926 0.118427 0.090583 255 220 0
0.607677 0.080875 0.092471 255 220 0
0.609128 0.094739 0.092491 255 220 0
0.585851 0.117329 0.057740 255 220 0
0.560374 0.049823 0.044277 255 220 0
0.618409 0.149773 0.064678 255 220 0
0.591034 0.057259 0.010599 255 220 0
0.602722 -0.023735 0.020909 255 220 0
0.580917 0.058565 0.076974 255 220 0
0.632408 0.099188 0.039981 255 220 0
0.566159 0.032983 0.013653 255 220 0
0.610417 0.083585 0.093131 255 220 0
0.646239 0.039385 0.029603 255 220 0
0.609243 0.106947 0.036267 255 220 0
0.639167 0.099781 0.044739 255 220 0
0.571385 0.075075 0.031839 255 220 0
0.580213 0.064396 0.017523 255 220 0
0.600353 0.044465 0.004382 255 220 0
0.638430 0.102645 0.087845 255 220 0
0.627091 -0.008663 0.034475 255 220 0
0.587446 0.033370 0.001786 255 220 0
0.649037 0.028456 0.045950 255 220 0
0.629318 0.097986 0.037793 255 220 0
0.634554 0.022651 0.070819 255 220 0
0.612482 -0.020620 0.024311 255 220 0
0.652625 0.074809 0.075095 255 220 0
0.630677 0.140568 0.069140 255 220 0
0.579630 0.039125 0.075011 255 220 0
0.586990 0.121146 0.064089 255 220 0
0.640034 0.076088 0.033057 255 220 0
0.645106 0.024788 0.058009 255 220 0
0.599197 0.131008 0.080679 255 220 0
0.595997 0.006229 0.070278 255 220 0
0.651556 0.072828 0.046193 255 220 0
0.650043 0.052232 0.071699 255 220 0
0.639550 0.046041 0.022560 255 220 0
0.612319 0.123566 0.043896 255 220 0
0.591841 0.055746 0.085088 255 220 0
0.611539 0.046018 0.088985 255 220 0
0.612698 0.149720 0.057944 255 220 0
0.604748 0.024203 -0.001427 255 220 0
0.636424 0.019403 0.017336 255 220 0
0.645142 0.044817 0.028787 255 220 0
0.576934 0.061857 0.017741 255 220 0
0.588044 0.053254 0.082641 255 220 0
0.641521 0.039978 0.023483 255 220 0
0.596418 0.088619 0.087251 255 220 0
0.572986 0.045877 0.069096 255 220 0
0.651888 0.073407 0.075949 255 220 0
0.565519 0.032443 0.057797 255 220 0
0.587415 0.119059 0.068875 255 220 0
0.614891 0.063394 0.014989 255 220 0
0.566787 0.006915 0.044571 255 220 0
0.654246 0.068116 0.049617 255 220 0
0.603927 0.059598 0.011208 255 220 0
0.589949 -0.006598 0.056880 255 220 0
0.590847 -0.020424 0.039565 255 220 0
0.629335 0.086028 0.092640 255 220 0
0.561717 0.016511 0.020612 255 220 0
0.627009 0.077910 0.092889 255 220 0
0.559521 0.046747 0.039731 255 220 0
0.642141 0.013650 0.036466 255 220 0
0.638012 0.007630 0.030848 255 220 0
0.591545 0.022781 -0.001141 255 220 0
0.568232 0.008183 0.048784 255 220 0
0.643441 0.023252 0.059856 255 220 0
0.585496 0.019159 0.073236 255 220 0
0.624092 0.020890 0.005243 255 220 0
0.562279 0.029148 0.018158 255 220 0
0.570462 -0.004264 0.038848 255 220 0
0.632143 -0.001994 0.028930 255 220 0
0.643775 0.089753 0.084474 255 220 0
0.558261 0.034646 0.032047 255 220 0
0.571834 0.072338 0.028833 255 220 0
0.627126 0.124397 0.049945 255 220 0
0.565925 0.052532 0.022002 255 220 0
0.563438 0.060615 0.033762 255 220 0
0.637860 0.006262 0.037938 255 220 0
0.593694 -0.024556 0.023192 255 220 0
0.615927 0.131229 0.087119 255 220 0
0.631311 0.068354 0.090185 255 220 0
0.641244 0.072947 0.032856 255 220 0
0.594730 0.098721 0.084876 255 220 0
0.630934 0.062033 0.089047 255 220 0
0.607906 0.078742 0.021239 255 220 0
0.575561 0.090005 0.059091 255 220 0
0.594812 -0.003185 0.000603 255 220 0
0.639341 0.008602 0.040558 255 220 0
0.622706 0.037281 0.007293 255 220 0
0.562288 0.044011 0.052715 255 220 0
0.645301 0.051750 0.030599 255 220 0
0.592716 0.091782 0.029922 255 220 0
0.597087 0.008660 -0.002196 255 220 0
0.571327 0.023372 0.063405 255 220 0
0.626344 0.040083 0.084293 255 220 0
0.580827 0.047933 0.008932 255 220 0
0.580885 0.057460 0.076985 255 220 0
0.630824 0.054328 0.087040 255 220 0
0.650582 0.056353 0.072856 255 220 0
0.633600 0.002462 0.023202 255 220 0
0.636671 0.009866 0.022472 255 220 0
0.644743 0.027281 0.061666 255 220 0
0.594802 -0.024031 0.033018 255 220 0
0.564830 0.027393 0.055077 255 220 0
0.589678 -0.022966 0.033225 255 220 0
0.612214 0.073671 0.019241 255 220 0
0.589110 0.109839 0.043906 255 220 0
0.617885 0.140599 0.082375 255 220 0
0.584610 0.054384 0.080214 255 220 0
0.611280 0.080752 0.022695 255 220 0
0.572683 0.057924 0.018342 255 220 0
0.568417 0.055015 0.062932 255 220 0
0.590354 0.131989 0.063903 255 220 0
0.595612 0.114483 0.041954 255 220 0
0.652876 0.041874 0.048852 255 220 0
0.629190 -0.001383 0.016895 255 220 0
0.646133 0.025369 0.033108 255 220 0
0.638682 0.104229 0.046991 255 220 0
0.621598 0.106242 0.092960 255 220 0
0.568603 -0.001187 0.039067 255 220 0
0.572650 0.026800 0.066043 255 220 0
0.652220 0.079619 0.050730 255 220 0
0.620595 0.124096 0.089406 255 220 0
0.587162 0.036653 0.079803 255 220 0
0.629033 0.069881 0.022921 255 220 0
0.617756 0.119281 0.090786 255 220 0
0.645380 0.041182 0.028508 255 220 0
0.610000 0.082674 0.023526 255 220 0
0.585953 0.082150 0.026017 255 220 0
0.571423 0.069817 0.027265 255 220 0
0.641540 0.096918 0.086008 255 220 0
0.629515 0.106921 0.091549 255 220 0
0.566518 0.070051 0.053035 255 220 0
0.611219 0.150211 0.058578 255 220 0
0.580677 0.031052 0.074245 255 220 0
0.615770 0.072946 0.019705 255 220 0
0.590437 0.060598 0.012414 255 220 0
0.598430 0.125358 0.082137 255 220 0
0.578834 -0.012541 0.041211 255 220 0
0.590513 -0.009198 0.054539 255 220 0
0.576322 -0.001459 0.007384 255 220 0
0.592293 0.091664 0.029969 255 220 0
0.580696 0.093226 0.038420 255 220 0
0.616680 -0.017291 0.020606 255 220 0
0.646443 0.022445 0.049062 255 220 0
0.595730 0.138299 0.073225 255 220 0
0.563373 0.012755 0.041873 255 220 0
0.597675 -0.020744 0.040701 255 220 0
0.594065 0.048172 0.085446 255 220 0
0.568736 0.052794 0.063575 255 220 0
0.625687 0.108551 0.092216 255 220 0
0.611151 0.142186 0.081123 255 220 0
0.582582 -0.020585 0.025129 255 220 0
0.639123 0.117083 0.056220 255 220 0
0.560949 0.013200 0.030871 255 220 0
0.613571 0.010984 0.073376 255 220 0
0.589520 0.129298 0.061239 255 220 0
0.580589 0.064630 0.017489 255 220 0
0.626699 0.102846 0.039057 255 220 0
0.636928 0.106602 0.088375 255 220 0
0.621126 0.028115 0.081347 255 220 0
0.593933 -0.017725 0.008954 255 220 0
0.581785 0.044886 0.077441 255 220 0
0.626896 0.133506 0.053891 255 220 0
0.638984 0.009721 0.048239 255 220 0
0.573465 0.026568 0.066814 255 220 0
0.593802 0.077655 0.086272 255 220 0
0.620079 0.121156 0.045031 255 220 0
0.589225 0.076648 0.021571 255 220 0
0.609110 0.048576 0.089457 255 220 0
0.607534 0.130894 0.085612 255 220 0
0.575460 0.083724 0.035054 255 220 0
0.589405 0.126567 0.056851 255 220 0
0.578625 0.089471 0.068017 255 220 0
0.577315 0.083833 0.068229 255 220 0
0.576627 0.089292 0.040001 255 220 0
0.619181 -0.000310 0.060893 255 220 0
0.609850 0.044305 0.005671 255 220 0
0.651137 0.042236 0.039479 255 220 0
0.588483 0.091692 0.080445 255 220 0
0.633535 0.059997 0.021483 255 220 0
0.560974 0.022111 0.042736 255 220 0
0.617629 -0.002435 0.005344 255 220 0
0.607842 0.063026 0.013299 255 220 0
0.648665 0.032380 0.057491 255 220 0
0.654175 0.062410 0.047602 255 220 0
0.562504 0.035165 0.018804 255 220 0
0.649983 0.035358 0.038655 255 220 0
0.640344 0.126267 0.072356 255 220 0
0.588460 0.125121 0.065922 255 220 0
0.635267 0.014087 0.017093 255 220 0
0.621153 0.036659 0.084820 255 220 0
0.608688 0.036009 0.086231 255 220 0
0.579779 -0.003274 0.053246 255 220 0
0.649861 0.052170 0.037300 255 220 0
0.577118 0.084629 0.033917 255 220 0
0.574185 0.051463 0.070382 255 220 0
0.619130 0.144047 0.054581 255 220 0
0.639871 0.111205 0.052782 255 220 0
0.615910 -0.018826 0.030085 255 220 0
0.598141 0.058422 0.010495 255 220 0
0.578005 -0.011209 0.042052 255 220 0
0.601605 0.113845 0.039844 255 220 0
0.605676 0.090433 0.027516 255 220 0
0.626589 0.126949 0.087274 255 220 0
0.648688 0.037600 0.063790 255 220 0
0.603082 0.018121 -0.002342 255 220 0
0.585869 0.101067 0.040260 255 220 0
0.612342 0.115327 0.090989 255 220 0
0.634470 0.018398 0.067433 255 220 0
0.621665 -0.014090 0.034011 255 220 0
0.602548 0.020390 0.079387 255 220 0
0.636659 0.006169 0.027924 255 220 0
0.610307 0.076572 0.092966 255 220 0
0.590908 -0.024131 0.029515 255 220 0
0.584743 0.112654 0.066245 255 220 0
0.647329 0.062704 0.036355 255 220 0
0.607107 0.040238 0.087390 255 220 0
0.589553 0.056280 0.010382 255 220 0
0.561705 0.053573 0.031865 255 220 0
0.656552 0.065189 0.056234 255 220 0
0.593887 -0.003601 0.000832 255 220 0
0.643400 0.057975 0.030032 255 220 0
0.564104 0.043674 0.019714 255 220 0
0.574652 -0.008677 0.014787 255 220 0
0.620068 0.068663 0.092984 255 220 0
0.646041 0.057406 0.033101 255 220 0
0.599311 0.048664 0.006046 255 220 0
0.590336 -0.015630 0.046644 255 220 0
0.651999 0.071900 0.075613 255 220 0
0.653952 0.046397 0.058166 255 220 0
0.610494 0.131906 0.046721 255 220 0
0.591341 0.134302 0.065966 255 220 0
0.614534 0.005611 0.069015 255 220 0
0.613091 0.080650 0.022954 255 220 0
0.627978 0.077892 0.026439 255 220 0
0.646738 0.029553 0.059676 255 220 0
0.571828 0.058360 0.067112 255 220 0
0.638180 0.006959 0.035042 255 220 0
0.627693 0.017009 0.007937 255 220 0
0.571974 0.023912 0.006858 255 220 0
0.646685 0.046052 0.072613 255 220 0
0.623594 0.134130 0.084856 255 220 0
0.587400 0.117229 0.052256 255 220 0
0.574530 0.021799 0.066130 255 220 0
0.625275 0.052381 0.088523 255 220 0
0.571790 -0.009484 0.023386 255 220 0
0.630422 0.017759 0.070422 255 220 0
0.562690 0.060594 0.046642 255 220 0
0.582393 0.010495 0.066144 255 220 0
0.604437 0.073569 0.018307 255 220 0
0.585768 0.117482 0.063398 255 220 0
0.635931 0.120984 0.085740 255 220 0
0.584426 0.013933 0.000075 255 220 0
0.635456 0.011377 0.018685 255 220 0
0.581294 0.034292 0.003842 255 220 0
0.565136 0.068916 0.047566 255 220 0
0.561316 0.034453 0.049542 255 220 0
0.559312 0.039757 0.043203 255 220 0
0.634497 0.051638 0.019437 255 220 0
0.655508 0.078512 0.059731 255 220 0
0.640549 0.122551 0.080938 255 220 0
0.639183 0.103825 0.047190 255 220 0
0.625085 -0.010219 0.022251 255 220 0
0.624483 0.141116 0.080330 255 220 0
0.638842 0.015303 0.058498 255 220 0
0.630878 0.035932 0.080636 255 220 0
0.608289 0.004296 0.069584 255 220 0
0.584370 0.024946 0.074941 255 220 0
0.608226 0.055098 0.009701 255 220 0
0.609350 0.070553 0.092458 255 220 0
0.621789 -0.009563 0.014310 255 220 0
0.609029 0.051131 0.008173 255 220 0
0.625286 0.019524 0.074910 255 220 0
0.607814 0.119946 0.088878 255 220 0
0.598954 -0.024668 0.030025 255 220 0
0.589654 0.110637 0.077265 255 220 0
0.639700 0.053294 0.081631 255 220 0
0.594346 0.050818 0.007147 255 220 0
0.628278 -0.003817 0.045557 255 220 0
0.645578 0.023836 0.055374 255 220 0
0.630411 0.098490 0.038595 255 220 0
0.564071 0.051050 0.055980 255 220 0
0.596629 0.106938 0.037773 255 220 0
0.609290 0.148184 0.074302 255 220 0
0.620112 0.134191 0.050265 255 220 0
0.581997 -0.005833 0.005420 255 220 0
0.598012 0.003842 0.069061 255 220 0
0.637513 0.005767 0.036226 255 220 0
0.612051 -0.005724 0.058639 255 220 0
0.598132 0.112164 0.085267 255 220 0
0.579536 0.068464 0.074706 255 220 0
0.582579 -0.020288 0.030393 255 220 0
0.632309 0.018555 0.012286 255 220 0
0.612425 0.140746 0.082285 255 220 0
0.617592 0.142767 0.052749 255 220 0
0.625746 0.095030 0.034621 255 220 0
0.603548 0.033270 0.084868 255 220 0
0.640565 0.110690 0.053294 255 220 0
0.618104 -0.017463 0.027273 255 220 0
0.575961 0.019926 0.066579 255 220 0
0.604201 0.008509 -0.002143 255 220 0
0.604369 0.016959 -0.002336 255 220 0
0.623650 0.034573 0.083241 255 220 0
0.562482 0.009830 0.035120 255 220 0
0.571281 0.005556 0.051643 255 220 0
0.634151 0.055028 0.085633 255 220 0
0.576965 0.029191 0.070770 255 220 0
0.592020 0.012030 0.072704 255 220 0
0.650112 0.082880 0.048567 255 220 0
0.624719 0.027448 0.079713 255 220 0
0.584536 -0.005928 0.004086 255 220 0
0.602050 0.063043 0.090024 255 220 0
0.639771 0.127193 0.075978 255 220 0
0.598331 0.034351 0.000804 255 220 0
0.570762 0.071917 0.029792 255 220 0
0.623046 0.092632 0.032250 255 220 0
0.639251 0.126877 0.067577 255 220 0
0.570188 0.021606 0.008077 255 220 0
0.639775 0.018774 0.023053 255 220 0
0.645295 0.019439 0.046905 255 220 0
0.647982 0.089076 0.048660 255 220 0
0.575476 0.049816 0.012355 255 220 0
0.569168 0.055983 0.063893 255 220 0
0.650741 0.085265 0.077655 255 220 0
0.644611 0.087852 0.083802 255 220 0
0.592380 -0.005308 0.001630 255 220 0
0.607670 -0.017630 0.043848 255 220 0
0.596321 -0.007209 0.058814 255 220 0
0.569541 -0.002711 0.016440 255 220 0
0.581258 0.097011 0.069203 255 220 0
0.566075 0.059192 0.026288 255 220 0
0.608084 0.122138 0.088461 255 220 0
0.635081 0.124643 0.084803 255 220 0
0.618901 0.149574 0.067311 255 220 0
0.559480 0.043710 0.042822 255 220 0
0.593646 0.130944 0.074516 255 220 0
0.636501 0.109151 0.088258 255 220 0
0.631407 0.068399 0.090153 255 220 0
0.641050 0.026072 0.022837 255 220 0
0.566205 0.069757 0.052155 255 220 0
0.635322 0.006943 0.022031 255 220 0
0.584002 0.000366 0.002107 255 220 0
0.599626 -0.022903 0.036297 255 220 0
0.644847 0.116568 0.074857 255 220 0
0.588192 0.046915 0.082163 255 220 0
0.601967 0.132898 0.047766 255 220 0
0.558188 0.032129 0.033656 255 220 0
0.614609 0.147256 0.075823 255 220 0
0.595072 0.096202 0.032023 255 220 0
0.583990 0.035261 0.077543 255 220 0
0.567391 0.021592 0.057117 255 220 0
0.628548 0.113813 0.045557 255 220 0
0.650256 0.032668 0.047576 255 220 0
0.583742 -0.017932 0.038380 255 220 0
0.576856 0.030009 0.004770 255 220 0
0.643523 0.045839 0.026958 255 220 0
0.607151 0.004334 -0.001006 255 220 0
0.576379 0.008209 0.004262 255 220 0
0.639513 0.093867 0.041632 255 220 0
0.561795 0.015932 0.020618 255 220 0
0.576830 0.052377 0.073186 255 220 0
0.649667 0.047106 0.069454 255 220 0
0.585591 -0.017489 0.012199 255 220 0
0.561519 0.042772 0.023668 255 220 0
0.561474 0.011292 0.031305 255 220 0
0.615013 0.108855 0.092384 255 220 0
0.603514 0.039306 0.002721 255 220 0
0.585434 0.062106 0.014357 255 220 0
0.585336 0.046663 0.080269 255 220 0
0.591504 0.009087 0.070534 255 220 0
0.637808 0.067954 0.027823 255 220 0
0.651173 0.050273 0.039335 255 220 0
0.621108 0.132974 0.085947 255 220 0
0.580458 -0.017352 0.034889 255 220 0
0.567584 0.022973 0.058091 255 220 0
0.587525 0.015073 0.072269 255 220 0
0.571963 0.009246 0.007301 255 220 0
0.604739 0.030460 0.084040 255 220 0
0.629977 0.072516 0.024657 255 220 0
0.634967 0.107085 0.045795 255 220 0
0.629903 0.041648 0.012984 255 220 0
0.637612 0.009661 0.025352 255 220 0
0.574907 -0.013657 0.027584 255 220 0
0.637887 0.007172 0.031606 255 220 0
0.645133 0.062716 0.080377 255 220 0
0.591811 0.024698 0.078632 255 220 0
0.582641 0.081220 0.026916 255 220 0
0.588117 0.083259 0.025927 255 220 0
0.604689 0.038593 0.086653 255 220 0
0.651507 0.068545 0.044427 255 220 0
0.564163 0.024941 0.052696 255 220 0
0.595682 0.115814 0.082465 255 220 0
0.598906 -0.005085 0.001194 255 220 0
0.599102 -0.019402 0.010689 255 220 0
0.589594 0.075223 0.083354 255 220 0
0.615052 0.149657 0.059087 255 220 0
0.633305 0.087129 0.091093 255 220 0
0.574549 0.024136 0.067051 255 220 0
0.578420 0.042235 0.007648 255 220 0
0.581427 0.059279 0.014202 255 220 0
0.619375 0.038090 0.006115 255 220 0
0.624989 -0.000199 0.056199 255 220 0
0.640528 0.084554 0.037442 255 220 0
0.617457 -0.016599 0.036310 255 220 0
0.572370 0.053741 0.016331 255 220 0
0.614421 0.130884 0.047085 255 220 0
0.615926 0.147416 0.055893 255 220 0
0.583147 0.080965 0.076675 255 220 0
0.598595 -0.012384 0.053135 255 220 0
0.603245 -0.003953 0.062834 255 220 0
0.619391 -0.010171 0.012251 255 220 0
0.628792 0.037873 0.082460 255 220 0
0.567695 0.005726 0.013018 255 220 0
0.584918 0.042650 0.079489 255 220 0
0.654521 0.084179 0.069794 255 220 0
0.619163 0.033946 0.084349 255 220 0
0.565541 0.023113 0.054564 255 220 0
0.650848 0.099458 0.067685 255 220 0
0.643339 0.055856 0.029340 255 220 0
0.589596 0.121896 0.072207 255 220 0
0.622157 0.112772 0.091978 255 220 0
0.587294 -0.013473 0.047827 255 220 0
0.589952 0.109837 0.043096 255 220 0
0.636639 0.132401 0.075996 255 220 0
0.636268 0.016158 0.063230 255 220 0
0.609515 0.054462 0.090555 255 220 0
0.601534 0.140606 0.051580 255 220 0
0.566182 0.029789 0.012986 255 220 0
0.648693 0.068535 0.078615 255 220 0
0.582214 0.103369 0.067195 255 220 0
0.617255 0.112639 0.040156 255 220 0
0.643058 0.045658 0.026359 255 220 0
0.577607 0.057948 0.073748 255 220 0
0.575866 0.029819 0.005262 255 220 0
0.612656 -0.020656 0.029832 255 220 0
0.613462 0.136987 0.084453 255 220 0
0.561014 0.024994 0.044823 255 220 0
0.618789 0.100122 0.034523 255 220 0
0.609809 0.098924 0.032256 255 220 0
0.603849 0.106205 0.036031 255 220 0
0.653719 0.084733 0.072361 255 220 0
0.621129 0.100837 0.035674 255 220 0
0.582543 0.089278 0.033012 255 220 0
0.635628 0.056035 0.021773 255 220 0
0.620542 0.018093 0.002915 255 220 0
0.566104 0.013871 0.012697 255 220 0
0.642695 0.121227 0.076499 255 220 0
0.594945 0.133411 0.052257 255 220 0
0.624969 0.023831 0.006044 255 220 0
0.615841 0.058098 0.091377 255 220 0
0.596114 0.009673 0.072634 255 220 0
0.581191 0.100248 0.046144 255 220 0
0.573081 0.052442 0.069091 255 220 0
0.623749 -0.012130 0.034506 255 220 0
0.596464 0.077615 0.087910 255 220 0
0.647654 0.026645 0.052257 255 220 0
0.590153 0.129688 0.058200 255 220 0
0.623203 0.000211 0.008116 255 220 0
0.591007 0.092515 0.030912 255 220 0
0.632774 0.023273 0.072723 255 220 0
0.591913 -0.024443 0.024601 255 220 0
0.647602 0.102878 0.059369 255 220 0
0.603593 0.145767 0.054283 255 220 0
0.600880 0.094087 0.029818 255 220 0
0.630929 0.016985 0.069390 255 220 0
0.559245 0.044761 0.039579 255 220 0
0.620406 0.144525 0.055979 255 220 0
0.645099 0.019346 0.037718 255 220 0
0.573749 0.088006 0.052376 255 220 0
0.656554 0.059899 0.060651 255 220 0
0.629360 0.072980 0.024582 255 220 0
0.606770 0.082334 0.023074 255 220 0
0.654337 0.065516 0.070679 255 220 0
0.654920 0.051825 0.049371 255 220 0
0.570986 0.077239 0.059307 255 220 0
0.598421 0.078775 0.021309 255 220 0
0.588914 0.126450 0.058712 255 220 0
0.568924 0.015283 0.055899 255 220 0
0.605780 0.145078 0.052819 255 220 0
0.627788 -0.000039 0.013270 255 220 0
0.601049 -0.016196 0.047836 255 220 0
0.593370 0.038920 0.083416 255 220 0
0.594686 0.040296 0.002923 255 220 0
0.578724 0.095996 0.045791 255 220 0
0.648027 0.096707 0.079831 255 220 0
0.580668 0.077808 0.025651 255 220 0
0.590799 0.008865 0.070045 255 220 0
0.590893 -0.002125 0.061500 255 220 0
0.588950 0.033627 0.080056 255 220 0
0.637422 0.007619 0.048078 255 220 0
0.578907 0.099069 0.052556 255 220 0
0.565383 0.069705 0.047407 255 220 0
0.595722 0.060571 0.011686 255 220 0
0.627214 0.003653 0.010305 255 220 0
0.594718 -0.005733 0.059817 255 220 0
0.652107 0.042915 0.060753 255 220 0
0.581756 -0.008922 0.007342 255 220 0
0.578023 0.003468 0.057741 255 220 0
0.594169 0.140943 0.061167 255 220 0
0.596978 0.141099 0.072843 255 220 0
0.611616 -0.012522 0.049905 255 220 0
0.591221 0.132429 0.057963 255 220 0
0.609214 -0.005369 0.060182 255 220 0
0.575116 0.050196 0.012749 255 220 0
0.625525 0.058139 0.016094 255 220 0
0.589824 0.025021 0.077915 255 220 0
0.570141 0.068334 0.062617 255 220 0
0.617261 -0.010757 0.048472 255 220 0
0.596578 -0.003330 0.062664 255 220 0
0.578591 0.027166 0.071526 255 220 0
0.618945 -0.003017 0.057812 255 220 0
0.649706 0.102520 0.073444 255 220 0
0.624578 0.112049 0.042618 255 220 0
0.649803 0.060993 0.075491 255 220 0
0.597146 0.084507 0.024717 255 220 0
0.594344 0.137802 0.071224 255 220 0
0.584789 0.040258 0.004590 255 220 0
0.570915 0.051832 0.016507 255 220 0
0.613888 0.095725 0.093410 255 220 0
0.637989 0.121912 0.058445 255 220 0
0.646995 0.029546 0.032709 255 220 0
0.627106 0.087957 0.093300 255 220 0
0.588430 0.103376 0.077860 255 220 0
0.563775 0.055248 0.054390 255 220 0
0.578274 0.093438 0.064578 255 220 0
0.567804 0.069987 0.057012 255 220 0
0.644437 0.109422 0.058713 255 220 0
0.617831 0.079460 0.093952 255 220 0
0.578033 0.052226 0.074387 255 220 0
0.633304 0.035078 0.078867 255 220 0
0.579422 0.090488 0.037137 255 220 0
0.628751 0.042701 0.012448 255 220 0
0.581977 -0.001996 0.003815 255 220 0
0.566359 0.015458 0.012140 255 220 0
0.637882 0.019835 0.019412 255 220 0
0.650632 0.100280 0.070791 255 220 0
0.629279 0.024818 0.076029 255 220 0
0.632099 0.088601 0.091652 255 220 0
0.640582 0.085797 0.086802 255 220 0
0.575749 0.009923 0.060611 255 220 0
0.644481 0.063505 0.033010 255 220 0
0.570693 -0.008498 0.028546 255 220 0
0.576804 -0.009329 0.043030 255 220 0
0.645110 0.114087 0.066444 255 220 0
0.591104 0.121355 0.049288 255 220 0
0.568086 0.075210 0.039551 255 220 0
0.654286 0.087166 0.066112 255 220 0
0.655447 0.063605 0.067614 255 220 0
0.570819 0.036098 0.010221 255 220 0
0.603513 0.046684 0.005491 255 220 0
0.591482 0.053098 0.084699 255 220 0
0.608671 0.084616 0.024431 255 220 0
0.583053 -0.020873 0.024793 255 220 0
0.651307 0.068370 0.075831 255 220 0
0.594654 0.096453 0.085128 255 220 0
0.653171 0.060520 0.044994 255 220 0
0.583140 0.018034 0.071156 255 220 0
0.584452 0.112371 0.065378 255 220 0
0.643324 0.092583 0.084758 255 220 0
0.632134 0.063335 0.021796 255 220 0
0.570850 0.013228 0.007654 255 220 0
0.584377 0.015813 0.000092 255 220 0
0.579519 0.098483 0.063424 255 220 0
0.653120 0.046037 0.044799 255 220 0
0.577292 -0.015313 0.021507 255 220 0
0.641542 0.046804 0.077868 255 220 0
0.599110 0.075601 0.089321 255 220 0
0.646293 0.099606 0.053532 255 220 0
0.614674 0.120855 0.090221 255 220 0
0.642399 0.118647 0.080670 255 220 0
0.647125 0.023358 0.046655 255 220 0
0.645659 0.101593 0.081957 255 220 0
0.653224 0.075441 0.050618 255 220 0
0.586155 0.117237 0.066244 255 220 0
0.593135 0.105473 0.038338 255 220 0
0.577159 0.091286 0.041829 255 220 0
0.638202 0.124113 0.082808 255 220 0
0.574305 0.088442 0.045272 255 220 0
0.621971 0.006131 0.004993 255 220 0
0.591803 0.134538 0.058789 255 220 0
0.641213 0.040359 0.023187 255 220 0
0.634253 0.136172 0.073816 255 220 0
0.569188 0.014059 0.055465 255 220 0
0.654116 0.086487 0.062218 255 220 0
0.587168 -0.011328 0.005786 255 220 0
0.638489 0.071465 0.086952 255 220 0
0.644110 0.035329 0.026382 255 220 0
0.589946 0.011489 0.071388 255 220 0
0.624858 0.017826 0.073977 255 220 0
0.561382 0.045702 0.025848 255 220 0
0.634240 0.112198 0.088877 255 220 0
0.594223 -0.019180 0.010514 255 220 0
0.606316 0.113530 0.089587 255 220 0
0.591689 0.110780 0.042297 255 220 0
0.631030 0.021723 0.072939 255 220 0
0.590930 0.053704 0.008890 255 220 0
0.566360 0.035045 0.059659 255 220 0
0.571276 0.047305 0.067103 255 220 0
0.565465 -0.000010 0.029400 255 220 0
0.650189 0.088101 0.052060 255 220 0
0.569456 0.006950 0.010332 255 220 0
0.606936 0.148882 0.072440 255 220 0
0.627778 -0.007948 0.026653 255 220 0
0.584058 0.026722 0.075343 255 220 0
0.595227 0.015400 0.075670 255 220 0
0.581307 -0.002711 0.055023 255 220 0
0.559946 0.046275 0.031540 255 220 0
0.580155 -0.014261 0.013792 255 220 0
0.613511 0.085673 0.093672 255 220 0
0.608331 0.140738 0.081313 255 220 0
0.646614 0.032905 0.030728 255 220 0
0.639947 0.011321 0.030954 255 220 0
0.599056 0.078272 0.089263 255 220 0
0.592328 0.004542 -0.001088 255 220 0
0.588391 -0.003915 0.001936 255 220 0
0.608140 0.133900 0.084641 255 220 0
0.656160 0.076277 0.061912 255 220 0
0.588956 0.024180 -0.000463 255 220 0
0.609370 0.122091 0.042951 255 220 0
0.560435 0.051748 0.041867 255 220 0
0.586246 0.066565 0.081186 255 220 0
0.598330 0.015206 0.076220 255 220 0
0.586676 0.015835 0.072212 255 220 0
0.646620 0.059023 0.077984 255 220 0
0.649197 0.104893 0.071420 255 220 0
0.649328 0.031346 0.039309 255 220 0
0.638295 0.020696 0.019822 255 220 0
0.584922 0.026827 0.000967 255 220 0
0.578625 -0.010176 0.044275 255 220 0
0.648297 0.066447 0.038825 255 220 0
0.585321 0.012642 -0.000195 255 220 0
0.637911 0.124784 0.060971 255 220 0
0.617301 -0.005259 0.056183 255 220 0
0.644639 0.085761 0.042176 255 220 0
0.620372 0.137053 0.051453 255 220 0
0.629290 0.137229 0.058398 255 220 0
0.565959 0.063502 0.030047 255 220 0
0.637892 0.028948 0.072089 255 220 0
0.624426 -0.010874 0.036909 255 220 0
0.594885 0.035866 0.083274 255 220 0
0.611827 0.138324 0.083558 255 220 0
0.598481 -0.010297 0.055777 255 220 0
0.562231 0.035911 0.052074 255 220 0
0.641131 0.052930 0.026049 255 220 0
0.610621 0.135695 0.084578 255 220 0
0.626128 0.027422 0.079093 255 220 0
0.575543 -0.014061 0.030261 255 220 0
0.621856 -0.013035 0.037348 255 220 0
0.634221 0.051490 0.019163 255 220 0
0.653286 0.087641 0.072396 255 220 0
0.591564 -0.022154 0.016418 255 220 0
0.589746 0.032723 0.001157 255 220 0
0.595056 0.142880 0.063843 255 220 0
0.588534 -0.018734 0.041115 255 220 0
0.646203 0.040897 0.029657 255 220 0
0.635289 0.133824 0.067491 255 220 0
0.643467 0.119782 0.071868 255 220 0
0.585304 -0.007557 0.053225 255 220 0
0.638044 0.113363 0.052183 255 220 0
0.610676 -0.015366 0.010711 255 220 0
0.625517 0.022252 0.076517 255 220 0
0.613651 0.101858 0.092938 255 220 0
0.647994 0.052493 0.034474 255 220 0
0.628944 0.026665 0.009302 255 220 0
0.620324 0.052011 0.089569 255 220 0
0.576058 0.060069 0.071913 255 220 0
0.648010 0.092349 0.080394 255 220 0
0.624492 0.002655 0.060325 255 220 0
0.628656 0.140564 0.061292 255 220 0
0.570734 0.051658 0.066316 255 220 0
0.558694 0.026522 0.029184 255 220 0
0.597833 0.070701 0.088729 255 220 0
0.620617 0.110826 0.092393 255 220 0
0.615866 0.014001 0.074859 255 220 0
0.622090 0.019071 0.003865 255 220 0
0.615266 0.073905 0.020038 255 220 0
0.628241 0.136517 0.056675 255 220 0
0.615720 0.110176 0.092292 255 220 0
0.629960 -0.003335 0.021779 255 220 0
0.648293 0.090427 0.050097 255 220 0
0.625966 0.069058 0.092090 255 220 0
0.587653 0.122497 0.065862 255 220 0
0.585828 0.113603 0.052140 255 220 0
0.569876 0.065745 0.025956 255 220 0
0.654905 0.083914 0.063343 255 220 0
0.561240 0.037309 0.049854 255 220 0
0.578187 0.092091 0.040884 255 220 0
0.635894 0.122936 0.085048 255 220 0
0.631141 0.136022 0.059915 255 220 0
0.605754 -0.017907 0.044205 255 220 0
0.630444 0.128265 0.054083 255 220 0
0.584714 0.024693 0.075063 255 220 0
0.577264 -0.015995 0.024861 255 220 0
0.561342 0.051968 0.047981 255 220 0
0.587786 0.115003 0.049490 255 220 0
0.590099 0.128410 0.068706 255 220 0
0.600995 0.143756 0.054028 255 220 0
0.597975 -0.022388 0.037604 255 220 0
0.642980 0.071361 0.083923 255 220 0
0.638119 0.039625 0.019710 255 220 0
0.601540 -0.024183 0.021969 255 220 0
0.622121 0.065009 0.017929 255 220 0
0.621317 -0.003202 0.055681 255 220 0
0.617418 0.082560 0.094043 255 220 0
0.616124 0.068929 0.093082 255 220 0
0.638015 0.122913 0.059351 255 220 0
0.651807 0.039427 0.055516 255 220 0
0.603376 -0.008437 0.003134 255 220 0
0.620161 0.105155 0.093121 255 220 0
0.571596 0.073835 0.062776 255 220 0
0.580854 0.035980 0.075464 255 220 0
0.610770 0.061747 0.013210 255 220 0
0.566588 0.052820 0.060368 255 220 0
0.558627 0.027774 0.036116 255 220 0
0.582798 0.089945 0.033361 255 220 0
0.580228 0.037001 0.075161 255 220 0
0.567476 0.014844 0.053039 255 220 0
0.636773 0.034173 0.017468 255 220 0
0.588059 0.086362 0.027952 255 220 0
0.569220 0.009319 0.051645 255 220 0
0.601578 -0.008124 0.058472 255 220 0
0.613561 0.071179 0.093123 255 220 0
0.590305 0.005518 0.067353 255 220 0
0.571307 0.020559 0.062215 255 220 0
0.633874 0.009948 0.016560 255 220 0
0.593984 0.029478 -0.000257 255 220 0
0.615861 0.006285 0.001450 255 220 0
0.610764 0.044519 0.088635 255 220 0
0.619227 0.143833 0.054477 255 220 0
0.591632 0.005414 -0.001113 255 220 0
0.643300 0.109519 0.083115 255 220 0
0.583262 0.110570 0.058149 255 220 0
0.645057 0.039983 0.027930 255 220 0
0.637929 0.031614 0.073682 255 220 0
0.612935 0.011727 0.074016 255 220 0
0.602968 0.005370 0.070752 255 220 0
0.639858 0.010394 0.046602 255 220 0
0.587596 0.059888 0.012624 255 220 0
0.641795 0.119862 0.064328 255 220 0
0.586468 0.079986 0.024419 255 220 0
0.619708 -0.012122 0.043461 255 220 0
0.620880 0.045479 0.009273 255 220 0
0.637464 0.032062 0.074340 255 220 0
0.601887 -0.007261 0.059434 255 220 0
0.638406 0.018762 0.063200 255 220 0
0.655187 0.063840 0.050563 255 220 0
0.615610 0.030730 0.002559 255 220 0
0.589980 0.092437 0.081742 255 220 0
0.604719 0.019331 0.079015 255 220 0
0.585546 0.067407 0.080541 255 220 0
0.585787 -0.015465 0.009713 255 220 0
0.577367 0.037510 0.006513 255 220 0
0.575082 0.084616 0.036608 255 220 0
0.585365 0.023347 0.074958 255 220 0
0.566768 0.019860 0.055120 255 220 0
0.632201 0.062167 0.088513 255 220 0
0.631281 0.001086 0.018601 255 220 0
0.592644 0.034741 0.082070 255 220 0
0.591848 0.040336 0.083047 255 220 0
0.634361 0.003152 0.024671 255 220 0
0.601160 0.090712 0.089751 255 220 0
0.638637 0.007537 0.036564 255 220 0
0.644829 0.112090 0.080191 255 220 0
0.577255 0.013290 0.003195 255 220 0
0.643422 0.052608 0.078526 255 220 0
0.633132 0.027362 0.075046 255 220 0
0.573576 -0.008115 0.039439 255 220 0
0.618674 0.145003 0.055093 255 220 0
0.585010 0.095826 0.075635 255 220 0
0.572561 0.032995 0.067384 255 220 0
0.564137 0.007560 0.018601 255 220 0
0.620270 0.006288 0.067054 255 220 0
0.634084 0.069363 0.089077 255 220 0
0.584063 -0.018773 0.015734 255 220 0
0.588608 0.105371 0.041187 255 220 0
0.644232 0.044110 0.027471 255 220 0
0.561461 0.030371 0.019702 255 220 0
0.572264 -0.010413 0.025077 255 220 0
0.618520 0.141159 0.052326 255 220 0
0.655101 0.067123 0.069544 255 220 0
0.564965 0.007129 0.040329 255 220 0
0.593718 0.029861 -0.000139 255 220 0
0.607355 0.011617 -0.001986 255 220 0
0.620219 0.101282 0.035564 255 220 0
0.653948 0.083086 0.057535 255 220 0
0.637438 0.076781 0.031257 255 220 0
0.639222 0.054012 0.024408 255 220 0
0.616298 0.144911 0.053585 255 220 0
0.631511 0.085151 0.031923 255 220 0
0.613352 0.138269 0.049217 255 220 0
0.651967 0.085435 0.053972 255 220 0
0.640742 0.041106 0.022777 255 220 0
0.636976 0.119785 0.055423 255 220 0
0.640271 0.078517 0.034348 255 220 0
0.605053 0.138751 0.049454 255 220 0
