ply
format ascii 1.0
element vertex 1024
property float x
property float y
property float z
property uchar red
property uchar green
property uchar blue
end_header
0.400508 0.112678 0.282735 255 220 0
0.357717 0.099870 0.231133 255 220 0
0.447381 0.101646 0.236379 255 220 0
0.414694 0.059720 0.245347 255 220 0
0.431054 0.125909 0.215983 255 220 0
0.380835 0.109956 0.195733 255 220 0
0.409083 0.104094 0.279246 255 220 0
0.389625 0.183875 0.290982 255 220 0
0.441203 0.132661 0.269391 255 220 0
0.416025 0.108185 0.194602 255 220 0
0.412762 0.060244 0.246870 255 220 0
0.428928 0.064946 0.195115 255 220 0
0.400354 0.119684 0.198155 255 220 0
0.414241 0.098511 0.275882 255 220 0
0.441687 0.093190 0.251566 255 220 0
0.356887 0.124490 0.241567 255 220 0
0.385406 0.059489 0.194021 255 220 0
0.403697 0.145244 0.291596 255 220 0
0.359685 0.127077 0.251935 255 220 0
0.412047 0.081869 0.266919 255 220 0
0.418305 0.075875 0.260304 255 220 0
0.416123 0.101590 0.276693 255 220 0
0.360166 0.088319 0.218919 255 220 0
0.403807 0.054790 0.188969 255 220 0
0.382237 0.113860 0.197108 255 220 0
0.385630 0.108915 0.193675 255 220 0
0.395648 0.189685 0.249605 255 220 0
0.443716 0.103834 0.219722 255 220 0
0.413197 0.069132 0.185369 255 220 0
0.373171 0.200012 0.253413 255 220 0
0.447436 0.110455 0.238642 255 220 0
0.403175 0.197559 0.283192 255 220 0
0.437707 0.149897 0.250711 255 220 0
0.374069 0.203786 0.255656 255 220 0
0.384519 0.125368 0.281874 255 220 0
0.432058 0.056933 0.218357 255 220 0
0.402447 0.155966 0.225159 255 220 0
0.393081 0.080806 0.265041 255 220 0
0.403451 0.195845 0.285028 255 220 0
0.437556 0.152123 0.254471 255 220 0
0.373431 0.152750 0.226081 255 220 0
0.415195 0.186355 0.279809 255 220 0
0.444459 0.105205 0.222044 255 220 0
0.440971 0.101345 0.212901 255 220 0
0.369248 0.184128 0.279736 255 220 0
0.406712 0.147234 0.219247 255 220 0
0.410554 0.079014 0.265083 255 220 0
0.446897 0.102046 0.229622 255 220 0
0.387143 0.102622 0.274925 255 220 0
0.400327 0.050910 0.192647 255 220 0
0.439261 0.130898 0.231566 255 220 0
0.405912 0.175854 0.291631 255 220 0
0.400791 0.092430 0.274035 255 220 0
0.381069 0.119865 0.277964 255 220 0
0.403018 0.083623 0.268786 255 220 0
0.357598 0.117094 0.243666 255 220 0
0.443594 0.083044 0.227566 255 220 0
0.396441 0.049020 0.227678 255 220 0
0.379459 0.127405 0.205827 255 220 0
0.376737 0.094487 0.192699 255 220 0
0.435157 0.148774 0.243003 255 220 0
0.388647 0.053767 0.230451 255 220 0
0.382045 0.184964 0.288959 255 220 0
0.428825 0.078369 0.255581 255 220 0
0.438187 0.069195 0.208943 255 220 0
0.400537 0.201550 0.279000 255 220 0
0.381284 0.075316 0.253591 255 220 0
0.406244 0.162099 0.231656 255 220 0
0.438786 0.099539 0.260466 255 220 0
0.436563 0.147026 0.243701 255 220 0
0.444843 0.089759 0.238560 255 220 0
0.394928 0.173704 0.237395 255 220 0
0.431121 0.159028 0.248887 255 220 0
0.418093 0.182838 0.266266 255 220 0
0.413914 0.089664 0.271487 255 220 0
0.404270 0.190762 0.256070 255 220 0
0.392784 0.059388 0.242795 255 220 0
0.421468 0.095038 0.271758 255 220 0
0.441801 0.131477 0.237217 255 220 0
0.367938 0.138692 0.270246 255 220 0
0.369188 0.172314 0.279146 255 220 0
0.362333 0.107836 0.251001 255 220 0
0.432609 0.102028 0.201618 255 220 0
0.423949 0.117648 0.279595 255 220 0
0.363157 0.149185 0.234460 255 220 0
0.423285 0.134971 0.216474 255 220 0
0.386613 0.057302 0.195030 255 220 0
0.420148 0.177447 0.282227 255 220 0
0.406015 0.122889 0.286429 255 220 0
0.393490 0.147879 0.290810 255 220 0
0.447097 0.114390 0.245867 255 220 0
0.368632 0.157375 0.233445 255 220 0
0.408294 0.054323 0.239912 255 220 0
0.409407 0.157642 0.229115 255 220 0
0.395233 0.053258 0.234954 255 220 0
0.386190 0.094250 0.188405 255 220 0
0.435342 0.100642 0.204034 255 220 0
0.430632 0.061207 0.232146 255 220 0
0.400278 0.162897 0.230271 255 220 0
0.436660 0.084719 0.252528 255 220 0
0.418557 0.080858 0.264175 255 220 0
0.389784 0.047933 0.209515 255 220 0
0.433295 0.088922 0.197199 255 220 0
0.416424 0.055840 0.238928 255 220 0
0.438402 0.090807 0.204265 255 220 0
0.389710 0.153278 0.222118 255 220 0
0.432500 0.071162 0.196533 255 220 0
0.442065 0.102444 0.256861 255 220 0
0.421633 0.109239 0.197392 255 220 0
0.434349 0.095297 0.263144 255 220 0
0.362062 0.085209 0.212137 255 220 0
0.442379 0.087942 0.212933 255 220 0
0.387209 0.103016 0.275134 255 220 0
0.377375 0.081415 0.255399 255 220 0
0.416752 0.112988 0.197831 255 220 0
0.389096 0.098329 0.273821 255 220 0
0.426237 0.073447 0.190398 255 220 0
0.361933 0.128588 0.257313 255 220 0
0.428264 0.123101 0.211102 255 220 0
0.357315 0.113706 0.241283 255 220 0
0.359166 0.130989 0.226340 255 220 0
0.393748 0.052204 0.232090 255 220 0
0.405801 0.167966 0.236502 255 220 0
0.424098 0.122370 0.280947 255 220 0
0.399196 0.138860 0.211385 255 220 0
0.413101 0.105493 0.192124 255 220 0
0.447154 0.117398 0.245717 255 220 0
0.396998 0.171301 0.236028 255 220 0
0.395648 0.200545 0.284876 255 220 0
0.401931 0.104885 0.279908 255 220 0
0.414279 0.063371 0.249962 255 220 0
0.382723 0.108741 0.274992 255 220 0
0.391220 0.175517 0.292159 255 220 0
0.392820 0.046449 0.207120 255 220 0
0.446859 0.121164 0.251312 255 220 0
0.374201 0.063021 0.222034 255 220 0
0.365013 0.198004 0.268716 255 220 0
0.386639 0.125145 0.282895 255 220 0
0.400616 0.119003 0.284957 255 220 0
0.374286 0.068945 0.198190 255 220 0
0.439016 0.080845 0.244364 255 220 0
0.387494 0.095373 0.188285 255 220 0
0.382662 0.142978 0.285449 255 220 0
0.445193 0.128677 0.243583 255 220 0
0.373727 0.135665 0.213590 255 220 0
0.369969 0.074035 0.236810 255 220 0
0.382219 0.055162 0.203310 255 220 0
0.428279 0.055575 0.202293 255 220 0
0.439036 0.075681 0.205995 255 220 0
0.380698 0.169719 0.234968 255 220 0
0.439241 0.150778 0.261271 255 220 0
0.366315 0.188532 0.275353 255 220 0
0.372700 0.072984 0.197957 255 220 0
0.392956 0.063963 0.248988 255 220 0
0.424568 0.144266 0.225330 255 220 0
0.397699 0.046753 0.223238 255 220 0
0.417671 0.077957 0.262296 255 220 0
0.370743 0.114051 0.266026 255 220 0
0.368956 0.069617 0.211861 255 220 0
0.362080 0.169036 0.259205 255 220 0
0.392604 0.188882 0.247725 255 220 0
0.369749 0.174522 0.243163 255 220 0
0.432773 0.099501 0.266869 255 220 0
0.439866 0.078060 0.238181 255 220 0
0.399598 0.061430 0.248853 255 220 0
0.389910 0.186121 0.245022 255 220 0
0.402790 0.055512 0.188629 255 220 0
0.424877 0.164671 0.283027 255 220 0
0.410149 0.161458 0.291489 255 220 0
0.414875 0.111512 0.196259 255 220 0
0.398222 0.171198 0.292956 255 220 0
0.410110 0.104607 0.279303 255 220 0
0.443256 0.112078 0.222977 255 220 0
0.400439 0.125628 0.202045 255 220 0
0.381552 0.210853 0.267248 255 220 0
0.409196 0.121811 0.201112 255 220 0
0.417231 0.153579 0.229177 255 220 0
0.425678 0.050271 0.215210 255 220 0
0.395327 0.157843 0.225514 255 220 0
0.375017 0.158576 0.229558 255 220 0
0.374564 0.204720 0.277332 255 220 0
0.438344 0.074111 0.236087 255 220 0
0.374113 0.163920 0.233853 255 220 0
0.403570 0.094768 0.275414 255 220 0
0.400532 0.099085 0.187589 255 220 0
0.421270 0.102777 0.193570 255 220 0
0.432515 0.073357 0.246196 255 220 0
0.366572 0.091772 0.249177 255 220 0
0.392061 0.156380 0.224339 255 220 0
0.424001 0.049677 0.218733 255 220 0
0.444115 0.090562 0.218980 255 220 0
0.407123 0.046109 0.224641 255 220 0
0.405449 0.101313 0.188650 255 220 0
0.421340 0.062294 0.244350 255 220 0
0.422234 0.120991 0.281477 255 220 0
0.376294 0.159126 0.284267 255 220 0
0.438726 0.076185 0.204932 255 220 0
0.364978 0.139424 0.222988 255 220 0
0.401354 0.176092 0.241241 255 220 0
0.442961 0.119339 0.263582 255 220 0
0.406225 0.108811 0.281391 255 220 0
0.432581 0.083058 0.256069 255 220 0
0.356641 0.108349 0.226627 255 220 0
0.415952 0.101056 0.276516 255 220 0
0.375465 0.100178 0.265294 255 220 0
0.419360 0.133239 0.212992 255 220 0
0.414286 0.150157 0.224652 255 220 0
0.440707 0.073807 0.218119 255 220 0
0.436386 0.063276 0.214669 255 220 0
0.376002 0.059847 0.217307 255 220 0
0.361754 0.162869 0.253784 255 220 0
0.441530 0.130760 0.235867 255 220 0
0.434138 0.059720 0.211347 255 220 0
0.390667 0.075961 0.260520 255 220 0
0.417257 0.052521 0.193695 255 220 0
0.442841 0.106094 0.218795 255 220 0
0.362349 0.088122 0.208791 255 220 0
0.395016 0.056853 0.240458 255 220 0
0.429931 0.069618 0.244999 255 220 0
0.366570 0.114994 0.260824 255 220 0
0.363873 0.156268 0.239714 255 220 0
0.378121 0.183926 0.287246 255 220 0
0.384362 0.133140 0.283974 255 220 0
0.385764 0.143684 0.215482 255 220 0
0.435667 0.135903 0.276140 255 220 0
0.409359 0.076030 0.183874 255 220 0
0.442710 0.099838 0.215896 255 220 0
0.374293 0.209056 0.264620 255 220 0
0.395121 0.177343 0.292397 255 220 0
0.388369 0.137308 0.286977 255 220 0
0.386396 0.150970 0.288923 255 220 0
0.363169 0.173022 0.253796 255 220 0
0.356864 0.104528 0.228178 255 220 0
0.385657 0.210364 0.269941 255 220 0
0.389002 0.123765 0.201223 255 220 0
0.418520 0.046779 0.203406 255 220 0
0.370132 0.112349 0.264652 255 220 0
0.414673 0.168658 0.241949 255 220 0
0.370585 0.094415 0.197125 255 220 0
0.390257 0.140420 0.288408 255 220 0
0.443859 0.115794 0.226821 255 220 0
0.391024 0.171583 0.235408 255 220 0
0.420391 0.169977 0.247801 255 220 0
0.362970 0.133225 0.220908 255 220 0
0.375950 0.127150 0.207067 255 220 0
0.401889 0.114492 0.195132 255 220 0
0.413253 0.165795 0.290208 255 220 0
0.436473 0.064546 0.222564 255 220 0
0.392525 0.101365 0.189097 255 220 0
0.447026 0.103325 0.241954 255 220 0
0.412287 0.167162 0.239148 255 220 0
0.431208 0.090624 0.263177 255 220 0
0.426690 0.051403 0.208736 255 220 0
0.435345 0.144151 0.276707 255 220 0
0.399087 0.203518 0.275228 255 220 0
0.373874 0.093663 0.260153 255 220 0
0.362493 0.175950 0.260662 255 220 0
0.428529 0.149202 0.233633 255 220 0
0.442534 0.097030 0.252655 255 220 0
0.369622 0.185535 0.280124 255 220 0
0.398216 0.066369 0.254242 255 220 0
0.438644 0.146550 0.248006 255 220 0
0.438796 0.122384 0.270209 255 220 0
0.436754 0.121827 0.219627 255 220 0
0.388931 0.187059 0.245406 255 220 0
0.380233 0.110779 0.274065 255 220 0
0.401005 0.105163 0.279969 255 220 0
0.381078 0.210107 0.262396 255 220 0
0.411803 0.096876 0.187714 255 220 0
0.440911 0.096318 0.210756 255 220 0
0.441595 0.120908 0.226500 255 220 0
0.373386 0.123946 0.206427 255 220 0
0.377515 0.107924 0.270737 255 220 0
0.439996 0.116282 0.220120 255 220 0
0.376365 0.143090 0.280939 255 220 0
0.366638 0.099621 0.254082 255 220 0
0.434864 0.142504 0.277250 255 220 0
0.364227 0.086815 0.240150 255 220 0
0.362771 0.173283 0.265162 255 220 0
0.409853 0.134260 0.210229 255 220 0
0.373401 0.064605 0.224314 255 220 0
0.441918 0.142072 0.251230 255 220 0
0.400742 0.128774 0.204245 255 220 0
0.397300 0.054791 0.238566 255 220 0
0.403823 0.044405 0.220090 255 220 0
0.407908 0.147035 0.291369 255 220 0
0.369387 0.076485 0.201193 255 220 0
0.407610 0.138668 0.290239 255 220 0
0.357395 0.102093 0.223214 255 220 0
0.445255 0.089039 0.229727 255 220 0
0.443495 0.083214 0.222810 255 220 0
0.399423 0.092540 0.185627 255 220 0
0.373922 0.065483 0.228832 255 220 0
0.441062 0.094892 0.253998 255 220 0
0.384594 0.076024 0.256964 255 220 0
0.430308 0.096920 0.197054 255 220 0
0.367187 0.089157 0.200422 255 220 0
0.380407 0.055559 0.217966 255 220 0
0.440447 0.072954 0.218788 255 220 0
0.421966 0.155100 0.286231 255 220 0
0.360144 0.091376 0.214014 255 220 0
0.364466 0.131162 0.217708 255 220 0
0.402153 0.190186 0.253887 255 220 0
0.364504 0.111866 0.207632 255 220 0
0.358587 0.117246 0.219710 255 220 0
0.442739 0.080750 0.229557 255 220 0
0.409740 0.043631 0.204039 255 220 0
0.384788 0.188439 0.289234 255 220 0
0.414423 0.130848 0.287145 255 220 0
0.430481 0.146478 0.233255 255 220 0
0.372608 0.152812 0.279563 255 220 0
0.415746 0.124860 0.285201 255 220 0
0.398585 0.146503 0.217051 255 220 0
0.359733 0.144234 0.250085 255 220 0
0.408633 0.067999 0.184719 255 220 0
0.443245 0.082918 0.232651 255 220 0
0.424725 0.112067 0.200823 255 220 0
0.358990 0.098032 0.236046 255 220 0
0.439824 0.127331 0.229143 255 220 0
0.379667 0.154327 0.224609 255 220 0
0.408316 0.080342 0.183798 255 220 0
0.371263 0.078489 0.245501 255 220 0
0.417296 0.103466 0.277117 255 220 0
0.381679 0.112792 0.196761 255 220 0
0.370367 0.111277 0.264523 255 220 0
0.417778 0.117736 0.282282 255 220 0
0.438160 0.126287 0.271932 255 220 0
0.441527 0.078466 0.213967 255 220 0
0.442779 0.086387 0.214663 255 220 0
0.441094 0.098774 0.256476 255 220 0
0.409370 0.042837 0.213903 255 220 0
0.365153 0.082229 0.236760 255 220 0
0.404160 0.042696 0.213383 255 220 0
0.404221 0.142890 0.215195 255 220 0
0.369959 0.168709 0.239889 255 220 0
0.385026 0.198637 0.286056 255 220 0
0.374264 0.108633 0.267928 255 220 0
0.401145 0.148956 0.219280 255 220 0
0.370176 0.119126 0.205830 255 220 0
0.360850 0.108373 0.248402 255 220 0
0.363118 0.187159 0.262357 255 220 0
0.375340 0.174925 0.239625 255 220 0
0.447072 0.116633 0.247063 255 220 0
0.439062 0.074781 0.206595 255 220 0
0.446693 0.101730 0.228529 255 220 0
0.418545 0.173797 0.250465 255 220 0
0.395525 0.164727 0.292854 255 220 0
0.377845 0.058074 0.218245 255 220 0
0.371352 0.081665 0.248718 255 220 0
0.437031 0.152520 0.253381 255 220 0
0.390700 0.182248 0.291381 255 220 0
0.381074 0.092198 0.265794 255 220 0
0.420813 0.142387 0.221131 255 220 0
0.388957 0.176768 0.291674 255 220 0
0.442744 0.117505 0.225825 255 220 0
0.399338 0.150392 0.220115 255 220 0
0.376026 0.144173 0.218492 255 220 0
0.364891 0.128891 0.215799 255 220 0
0.417875 0.161260 0.288232 255 220 0
0.403155 0.167356 0.292872 255 220 0
0.356692 0.123980 0.240229 255 220 0
0.379454 0.210152 0.262830 255 220 0
0.376942 0.086246 0.258596 255 220 0
0.407753 0.142907 0.216151 255 220 0
0.387376 0.126561 0.203306 255 220 0
0.370062 0.179698 0.280737 255 220 0
0.390147 0.049075 0.220663 255 220 0
0.398785 0.052782 0.236054 255 220 0
0.389544 0.064501 0.188491 255 220 0
0.379283 0.154112 0.224570 255 220 0
0.366636 0.151720 0.231103 255 220 0
0.430409 0.056118 0.206212 255 220 0
0.445578 0.096477 0.243837 255 220 0
0.365512 0.192957 0.273140 255 220 0
0.369063 0.069894 0.221817 255 220 0
0.410310 0.045430 0.222298 255 220 0
0.384162 0.103926 0.273864 255 220 0
0.361610 0.106205 0.248814 255 220 0
0.398993 0.167972 0.293086 255 220 0
0.378336 0.198870 0.283905 255 220 0
0.397840 0.044690 0.204571 255 220 0
0.414621 0.184816 0.261132 255 220 0
0.368089 0.071515 0.210702 255 220 0
0.413537 0.074348 0.260772 255 220 0
0.363324 0.184803 0.259285 255 220 0
0.376259 0.127465 0.207125 255 220 0
0.408422 0.171061 0.240541 255 220 0
0.410778 0.169188 0.290959 255 220 0
0.415579 0.091255 0.271912 255 220 0
0.410206 0.052497 0.190977 255 220 0
0.374224 0.099303 0.263590 255 220 0
0.399196 0.198281 0.258818 255 220 0
0.441608 0.082709 0.240245 255 220 0
0.372089 0.081502 0.249581 255 220 0
0.376643 0.132113 0.278213 255 220 0
0.396822 0.186279 0.247513 255 220 0
0.381098 0.140301 0.214017 255 220 0
0.397987 0.107014 0.280339 255 220 0
0.377004 0.186496 0.286323 255 220 0
0.364359 0.141945 0.225782 255 220 0
0.364460 0.182839 0.254639 255 220 0
0.361619 0.142996 0.259264 255 220 0
0.361701 0.137246 0.258568 255 220 0
0.363471 0.146785 0.231494 255 220 0
0.423330 0.066683 0.248116 255 220 0
0.410882 0.116237 0.197952 255 220 0
0.446560 0.118070 0.237646 255 220 0
0.368900 0.145362 0.273335 255 220 0
0.427730 0.134096 0.219270 255 220 0
0.364371 0.078233 0.223401 255 220 0
0.429746 0.073025 0.193241 255 220 0
0.403394 0.132612 0.207359 255 220 0
0.444181 0.105205 0.253663 255 220 0
0.443502 0.136881 0.248553 255 220 0
0.365857 0.094896 0.201823 255 220 0
0.447230 0.111324 0.235811 255 220 0
0.411419 0.191388 0.278242 255 220 0
0.362696 0.179813 0.263184 255 220 0
0.441121 0.090984 0.209680 255 220 0
0.413069 0.098939 0.276353 255 220 0
0.401061 0.095332 0.275583 255 220 0
0.387204 0.056311 0.233725 255 220 0
0.443213 0.127691 0.236510 255 220 0
0.365884 0.143362 0.225056 255 220 0
0.366264 0.105061 0.256219 255 220 0
0.389083 0.206599 0.259484 255 220 0
0.417224 0.179864 0.257178 255 220 0
0.428780 0.052981 0.215173 255 220 0
0.395562 0.126474 0.202443 255 220 0
0.388915 0.050041 0.221511 255 220 0
0.381534 0.175969 0.238478 255 220 0
0.392769 0.156274 0.224244 255 220 0
0.396051 0.186655 0.290638 255 220 0
0.442098 0.109244 0.260465 255 220 0
0.411800 0.090797 0.185802 255 220 0
0.369460 0.160123 0.234716 255 220 0
0.384688 0.171732 0.290492 255 220 0
0.432611 0.087044 0.259332 255 220 0
0.432638 0.058195 0.220548 255 220 0
0.399862 0.080016 0.265967 255 220 0
0.442939 0.081969 0.219547 255 220 0
0.391875 0.133672 0.287376 255 220 0
0.406118 0.042430 0.209815 255 220 0
0.362108 0.166940 0.261365 255 220 0
0.438349 0.137418 0.236445 255 220 0
0.398361 0.098871 0.276969 255 220 0
0.387845 0.122529 0.200645 255 220 0
0.358883 0.110383 0.216710 255 220 0
0.443963 0.138726 0.257732 255 220 0
0.407815 0.067357 0.184739 255 220 0
0.436563 0.132990 0.229030 255 220 0
0.365209 0.103297 0.204014 255 220 0
0.388706 0.056021 0.194581 255 220 0
0.403172 0.128217 0.288054 255 220 0
0.438830 0.132545 0.232402 255 220 0
0.399647 0.118041 0.197097 255 220 0
0.401226 0.047793 0.227516 255 220 0
0.435381 0.141131 0.276756 255 220 0
0.445769 0.119760 0.256906 255 220 0
0.384777 0.194238 0.248881 255 220 0
0.363231 0.189280 0.264822 255 220 0
0.416347 0.070076 0.256012 255 220 0
0.402875 0.149217 0.219823 255 220 0
0.417387 0.149311 0.225372 255 220 0
0.442724 0.101715 0.255136 255 220 0
0.362760 0.111691 0.253466 255 220 0
0.443262 0.081947 0.226861 255 220 0
0.434352 0.093559 0.199816 255 220 0
0.379278 0.088039 0.190339 255 220 0
0.436947 0.115549 0.269794 255 220 0
0.391752 0.193284 0.288646 255 220 0
0.365412 0.174131 0.248675 255 220 0
0.374361 0.077255 0.248509 255 220 0
0.412721 0.114400 0.282574 255 220 0
0.385008 0.053259 0.202421 255 220 0
0.428479 0.085063 0.261506 255 220 0
0.356160 0.115036 0.232187 255 220 0
0.384658 0.068113 0.248454 255 220 0
0.396897 0.141217 0.212975 255 220 0
0.362299 0.172261 0.259337 255 220 0
0.406680 0.183223 0.289964 255 220 0
0.394568 0.082258 0.184557 255 220 0
0.441749 0.088167 0.210940 255 220 0
0.386116 0.100566 0.190199 255 220 0
0.356368 0.123442 0.234510 255 220 0
0.360798 0.089117 0.231618 255 220 0
0.358429 0.094774 0.225727 255 220 0
0.430955 0.126585 0.216411 255 220 0
0.439261 0.150768 0.262601 255 220 0
0.411376 0.186508 0.286223 255 220 0
0.419099 0.173488 0.250694 255 220 0
0.436550 0.064527 0.210079 255 220 0
0.391512 0.200916 0.285215 255 220 0
0.438752 0.086438 0.250939 255 220 0
0.423147 0.101049 0.273788 255 220 0
0.410590 0.067338 0.255371 255 220 0
0.381880 0.081077 0.259149 255 220 0
0.406166 0.125632 0.202938 255 220 0
0.392484 0.127747 0.285987 255 220 0
0.434280 0.065676 0.201840 255 220 0
0.408103 0.122232 0.201095 255 220 0
0.422518 0.084920 0.265260 255 220 0
0.379496 0.175508 0.288234 255 220 0
0.413912 0.043614 0.211586 255 220 0
0.365850 0.164354 0.272720 255 220 0
0.427278 0.119555 0.278339 255 220 0
0.394207 0.118841 0.197612 255 220 0
0.434963 0.067731 0.234195 255 220 0
0.443570 0.096632 0.250039 255 220 0
0.413108 0.167763 0.240176 255 220 0
0.358561 0.104688 0.240394 255 220 0
0.378705 0.168546 0.234785 255 220 0
0.376000 0.205303 0.277650 255 220 0
0.392994 0.198009 0.254226 255 220 0
0.396320 0.061857 0.186981 255 220 0
0.400893 0.064709 0.253096 255 220 0
0.442753 0.080466 0.227764 255 220 0
0.418092 0.060248 0.244067 255 220 0
0.372562 0.166442 0.282146 255 220 0
0.366704 0.121928 0.263406 255 220 0
0.397065 0.044148 0.209757 255 220 0
0.437834 0.095385 0.205027 255 220 0
0.379755 0.197583 0.285079 255 220 0
0.388159 0.205315 0.257280 255 220 0
0.409994 0.164025 0.235091 255 220 0
0.396968 0.091773 0.273063 255 220 0
0.417949 0.179441 0.257731 255 220 0
0.430931 0.055219 0.212952 255 220 0
0.376130 0.075698 0.248958 255 220 0
0.415181 0.081763 0.185015 255 220 0
0.413318 0.089963 0.185881 255 220 0
0.416184 0.097731 0.274970 255 220 0
0.369814 0.067944 0.214705 255 220 0
0.377108 0.063180 0.231816 255 220 0
0.420992 0.119367 0.281543 255 220 0
0.374289 0.084179 0.254353 255 220 0
0.392664 0.070691 0.256661 255 220 0
0.434501 0.155532 0.251311 255 220 0
0.419411 0.091666 0.270829 255 220 0
0.398961 0.062537 0.186086 255 220 0
0.387615 0.119285 0.281479 255 220 0
0.410162 0.191583 0.281804 255 220 0
0.402877 0.104872 0.190065 255 220 0
0.363410 0.130369 0.218417 255 220 0
0.408297 0.161492 0.232031 255 220 0
0.410856 0.192485 0.273458 255 220 0
0.377959 0.085234 0.190954 255 220 0
0.443522 0.095556 0.216831 255 220 0
0.445491 0.093668 0.241169 255 220 0
0.430938 0.161009 0.251801 255 220 0
0.375625 0.112882 0.199450 255 220 0
0.361209 0.109320 0.249585 255 220 0
0.430656 0.153395 0.280170 255 220 0
0.423320 0.153561 0.285481 255 220 0
0.406674 0.065255 0.185062 255 220 0
0.418741 0.050144 0.227418 255 220 0
0.403314 0.055310 0.241444 255 220 0
0.382126 0.060372 0.196074 255 220 0
0.362162 0.150649 0.261779 255 220 0
0.362461 0.117635 0.212662 255 220 0
0.379279 0.177743 0.288138 255 220 0
0.405100 0.186704 0.289350 255 220 0
0.385828 0.209867 0.272575 255 220 0
0.357682 0.098676 0.225863 255 220 0
0.365123 0.185215 0.273163 255 220 0
0.409765 0.171564 0.291083 255 220 0
0.414509 0.130918 0.287136 255 220 0
0.443005 0.102896 0.217719 255 220 0
0.356580 0.123766 0.239280 255 220 0
0.442251 0.083344 0.213652 255 220 0
0.397183 0.068787 0.184826 255 220 0
0.413295 0.044476 0.218051 255 220 0
0.417768 0.182657 0.280259 255 220 0
0.379260 0.101931 0.269522 255 220 0
0.376204 0.193141 0.248607 255 220 0
0.360470 0.088684 0.215271 255 220 0
0.381134 0.205348 0.279909 255 220 0
0.380579 0.158771 0.227594 255 220 0
0.378665 0.090511 0.262886 255 220 0
0.368750 0.076892 0.238477 255 220 0
0.406672 0.181004 0.248542 255 220 0
0.446958 0.107393 0.244260 255 220 0
0.396548 0.045416 0.218053 255 220 0
0.382767 0.095316 0.189848 255 220 0
0.440035 0.121820 0.224566 255 220 0
0.418878 0.078219 0.186110 255 220 0
0.387667 0.074309 0.186621 255 220 0
0.422572 0.164851 0.244099 255 220 0
0.369602 0.075943 0.201142 255 220 0
0.368210 0.106085 0.259514 255 220 0
0.439977 0.117720 0.267326 255 220 0
0.401701 0.050367 0.192795 255 220 0
0.362417 0.101235 0.207344 255 220 0
0.368998 0.069727 0.210982 255 220 0
0.388639 0.165876 0.291513 255 220 0
0.406400 0.110486 0.193404 255 220 0
0.381944 0.126600 0.204558 255 220 0
0.376829 0.101355 0.267164 255 220 0
0.393171 0.068085 0.254093 255 220 0
0.429060 0.141704 0.227152 255 220 0
0.444663 0.125836 0.238489 255 220 0
0.389499 0.191450 0.289160 255 220 0
0.393716 0.045797 0.214161 255 220 0
0.368471 0.078111 0.239630 255 220 0
0.387664 0.072693 0.255858 255 220 0
0.382768 0.073852 0.188988 255 220 0
0.398905 0.089462 0.272109 255 220 0
0.420850 0.144859 0.223306 255 220 0
0.414442 0.175912 0.249025 255 220 0
0.429823 0.116968 0.208118 255 220 0
0.443350 0.085945 0.217613 255 220 0
0.388457 0.049273 0.206540 255 220 0
0.443386 0.082627 0.223476 255 220 0
0.430379 0.130023 0.279160 255 220 0
0.388599 0.081905 0.263967 255 220 0
0.372950 0.142404 0.218708 255 220 0
0.377848 0.145733 0.218898 255 220 0
0.396534 0.096867 0.275646 255 220 0
0.439872 0.142695 0.245749 255 220 0
0.365423 0.080096 0.234022 255 220 0
0.369694 0.169854 0.279440 255 220 0
0.412949 0.066983 0.185747 255 220 0
0.415350 0.051754 0.193330 255 220 0
0.373578 0.129300 0.274363 255 220 0
0.383203 0.210388 0.263898 255 220 0
0.411661 0.149216 0.290649 255 220 0
0.373689 0.079364 0.249697 255 220 0
0.380920 0.106977 0.194411 255 220 0
0.378801 0.123016 0.203397 255 220 0
0.421485 0.112294 0.199214 255 220 0
0.429509 0.068812 0.244502 255 220 0
0.426365 0.156770 0.239035 255 220 0
0.428898 0.054488 0.221793 255 220 0
0.371158 0.115348 0.203301 255 220 0
0.388750 0.194067 0.249765 255 220 0
0.385013 0.208926 0.260645 255 220 0
0.366877 0.134449 0.267454 255 220 0
0.407511 0.051725 0.235635 255 220 0
0.408643 0.059343 0.246925 255 220 0
0.432397 0.064884 0.199353 255 220 0
0.420429 0.102169 0.275462 255 220 0
0.378760 0.068621 0.193444 255 220 0
0.377504 0.097522 0.265843 255 220 0
0.435598 0.154421 0.272974 255 220 0
0.411878 0.095961 0.275232 255 220 0
0.366943 0.078348 0.235856 255 220 0
0.428641 0.168645 0.272157 255 220 0
0.437110 0.131046 0.228085 255 220 0
0.363734 0.175973 0.269130 255 220 0
0.394607 0.171290 0.292780 255 220 0
0.397622 0.049010 0.228430 255 220 0
0.370876 0.169020 0.239236 255 220 0
0.405885 0.195900 0.281934 255 220 0
0.435441 0.085947 0.255246 255 220 0
0.396801 0.112596 0.282196 255 220 0
0.373409 0.199864 0.253205 255 220 0
0.371470 0.091451 0.196088 255 220 0
0.432621 0.136688 0.278734 255 220 0
0.361805 0.157295 0.260746 255 220 0
0.396824 0.178223 0.241238 255 220 0
0.439712 0.121638 0.223880 255 220 0
0.367530 0.111530 0.260869 255 220 0
0.381797 0.094837 0.190142 255 220 0
0.426131 0.050538 0.214163 255 220 0
0.381376 0.193854 0.286916 255 220 0
0.363432 0.080687 0.225800 255 220 0
0.402086 0.167401 0.234459 255 220 0
0.394049 0.164617 0.230602 255 220 0
0.386053 0.169712 0.234190 255 220 0
0.434351 0.154374 0.275420 255 220 0
0.404007 0.168426 0.236061 255 220 0
0.370089 0.149179 0.225637 255 220 0
0.430663 0.130701 0.219420 255 220 0
0.427885 0.093809 0.193845 255 220 0
0.375297 0.076159 0.193857 255 220 0
0.414350 0.186407 0.282075 255 220 0
0.368734 0.191375 0.251897 255 220 0
0.430330 0.099820 0.198340 255 220 0
0.401888 0.117366 0.284494 255 220 0
0.397180 0.069339 0.256985 255 220 0
0.364380 0.157374 0.239596 255 220 0
0.365137 0.105961 0.254891 255 220 0
0.434099 0.060465 0.221617 255 220 0
0.378993 0.132406 0.280254 255 220 0
0.445297 0.100285 0.247676 255 220 0
0.364242 0.185797 0.256464 255 220 0
0.434090 0.076370 0.197202 255 220 0
0.377716 0.154498 0.225382 255 220 0
0.429094 0.090529 0.264820 255 220 0
0.407814 0.043124 0.205136 255 220 0
0.425798 0.172526 0.263896 255 220 0
0.373776 0.204863 0.256819 255 220 0
0.386968 0.158368 0.226144 255 220 0
0.429291 0.084593 0.260486 255 220 0
0.357632 0.100145 0.222778 255 220 0
0.390008 0.207122 0.261122 255 220 0
0.446548 0.094980 0.232136 255 220 0
0.359371 0.142964 0.242970 255 220 0
0.444661 0.132940 0.261413 255 220 0
0.420154 0.145181 0.223187 255 220 0
0.396377 0.149420 0.219095 255 220 0
0.439834 0.136279 0.271540 255 220 0
0.446552 0.126581 0.249121 255 220 0
0.358407 0.130901 0.247983 255 220 0
0.389453 0.144424 0.215547 255 220 0
0.363769 0.182325 0.256365 255 220 0
0.371917 0.071351 0.236772 255 220 0
0.376239 0.204914 0.255666 255 220 0
0.437871 0.076333 0.202978 255 220 0
0.411500 0.049432 0.230394 255 220 0
0.386009 0.095186 0.270637 255 220 0
0.397650 0.109453 0.192255 255 220 0
0.363088 0.152791 0.238324 255 220 0
0.424982 0.163464 0.283240 255 220 0
0.372050 0.138882 0.216727 255 220 0
0.392612 0.067792 0.253471 255 220 0
0.396507 0.058579 0.243788 255 220 0
0.383494 0.089642 0.265970 255 220 0
0.440639 0.080365 0.239572 255 220 0
0.361618 0.154725 0.245349 255 220 0
0.356435 0.124280 0.234491 255 220 0
0.392558 0.127819 0.203468 255 220 0
0.436818 0.080226 0.200430 255 220 0
0.401282 0.056218 0.242338 255 220 0
0.444497 0.115594 0.258707 255 220 0
0.396582 0.058528 0.188446 255 220 0
0.383283 0.061705 0.238650 255 220 0
0.364974 0.197052 0.261403 255 220 0
0.366082 0.195988 0.273315 255 220 0
0.420486 0.054982 0.234622 255 220 0
0.364635 0.188709 0.256743 255 220 0
0.415075 0.059719 0.245149 255 220 0
0.375134 0.113106 0.199822 255 220 0
0.421201 0.131382 0.212439 255 220 0
0.386707 0.081889 0.262974 255 220 0
0.359316 0.121623 0.249999 255 220 0
0.425674 0.058155 0.234373 255 220 0
0.402108 0.058495 0.245726 255 220 0
0.376243 0.082472 0.255117 255 220 0
0.424170 0.064509 0.244733 255 220 0
0.426034 0.170434 0.277975 255 220 0
0.403676 0.178889 0.244792 255 220 0
0.435934 0.130166 0.274945 255 220 0
0.386383 0.149123 0.219367 255 220 0
0.364567 0.192487 0.270891 255 220 0
0.387927 0.106964 0.192237 255 220 0
0.370200 0.113160 0.203000 255 220 0
0.390609 0.152828 0.290734 255 220 0
0.412064 0.188862 0.263709 255 220 0
0.446560 0.106004 0.228790 255 220 0
0.405210 0.148295 0.291879 255 220 0
0.366357 0.157002 0.272216 255 220 0
0.357469 0.108912 0.239300 255 220 0
0.360777 0.147277 0.256323 255 220 0
0.357415 0.123578 0.244327 255 220 0
0.421255 0.178226 0.263524 255 220 0
0.398273 0.137962 0.289942 255 220 0
0.369243 0.106016 0.260871 255 220 0
0.425921 0.101042 0.272355 255 220 0
0.366247 0.149005 0.229302 255 220 0
0.428533 0.117811 0.207530 255 220 0
0.395583 0.065797 0.185873 255 220 0
0.375231 0.077830 0.193547 255 220 0
0.441930 0.096730 0.213082 255 220 0
0.427821 0.168900 0.275261 255 220 0
0.424921 0.090722 0.267662 255 220 0
0.410071 0.150279 0.291175 255 220 0
0.419548 0.150220 0.287497 255 220 0
0.379148 0.066962 0.241867 255 220 0
0.435862 0.138084 0.232796 255 220 0
0.383028 0.053154 0.207408 255 220 0
0.387175 0.051431 0.222496 255 220 0
0.419742 0.181650 0.271768 255 220 0
0.368364 0.179388 0.246888 255 220 0
0.358741 0.131412 0.227923 255 220 0
0.435137 0.157823 0.269695 255 220 0
0.441772 0.135168 0.268493 255 220 0
0.374763 0.098984 0.194919 255 220 0
0.404239 0.117152 0.197012 255 220 0
0.380583 0.108212 0.273302 255 220 0
0.397469 0.151824 0.221016 255 220 0
0.398408 0.044570 0.204285 255 220 0
0.435544 0.137546 0.276425 255 220 0
0.373051 0.150573 0.279521 255 220 0
0.443344 0.135250 0.245604 255 220 0
0.382879 0.074747 0.254400 255 220 0
0.362012 0.166740 0.260435 255 220 0
0.420808 0.157679 0.286778 255 220 0
0.425531 0.136949 0.219749 255 220 0
0.380685 0.077383 0.189632 255 220 0
0.394062 0.084054 0.184795 255 220 0
0.360903 0.152589 0.256013 255 220 0
0.446835 0.121331 0.243644 255 220 0
0.391960 0.049162 0.200788 255 220 0
0.431124 0.114308 0.274172 255 220 0
0.381836 0.130832 0.281830 255 220 0
0.426111 0.170004 0.257568 255 220 0
0.385688 0.177690 0.290800 255 220 0
0.414137 0.183202 0.285793 255 220 0
0.446332 0.097884 0.241706 255 220 0
0.421237 0.167308 0.285521 255 220 0
0.439024 0.148739 0.252930 255 220 0
0.362352 0.171664 0.262156 255 220 0
0.375628 0.166274 0.234578 255 220 0
0.363254 0.148534 0.233615 255 220 0
0.408492 0.187198 0.287852 255 220 0
0.360745 0.144624 0.236164 255 220 0
0.431885 0.082286 0.194662 255 220 0
0.364572 0.190737 0.257904 255 220 0
0.439647 0.116627 0.219826 255 220 0
0.402968 0.199344 0.279863 255 220 0
0.372525 0.070300 0.236243 255 220 0
0.435657 0.157744 0.265773 255 220 0
0.402574 0.057655 0.187530 255 220 0
0.420996 0.135939 0.285554 255 220 0
0.443226 0.111925 0.222822 255 220 0
0.390977 0.069918 0.254962 255 220 0
0.422642 0.083338 0.264069 255 220 0
0.361284 0.103682 0.209810 255 220 0
0.406770 0.173900 0.291684 255 220 0
0.410630 0.050916 0.192374 255 220 0
0.379519 0.168890 0.287900 255 220 0
0.372423 0.170439 0.238857 255 220 0
0.427766 0.088617 0.264553 255 220 0
0.389991 0.120589 0.199100 255 220 0
0.364155 0.089213 0.242429 255 220 0
0.364914 0.100930 0.252021 255 220 0
0.375830 0.060032 0.208407 255 220 0
0.432843 0.160025 0.255377 255 220 0
0.380513 0.070611 0.191257 255 220 0
0.373816 0.205746 0.275522 255 220 0
0.438001 0.066616 0.215110 255 220 0
0.381095 0.082654 0.259706 255 220 0
0.394533 0.074178 0.260505 255 220 0
0.388300 0.056911 0.235786 255 220 0
0.359008 0.103021 0.215212 255 220 0
0.395482 0.052021 0.193842 255 220 0
0.392651 0.143029 0.289706 255 220 0
0.375952 0.196823 0.283446 255 220 0
0.445643 0.109463 0.227196 255 220 0
0.444445 0.087179 0.223685 255 220 0
0.381144 0.133400 0.282088 255 220 0
0.404595 0.075151 0.183591 255 220 0
0.402462 0.065665 0.184867 255 220 0
0.376986 0.189676 0.285839 255 220 0
0.440139 0.148418 0.264572 255 220 0
0.396505 0.093207 0.186030 255 220 0
0.386580 0.185136 0.243812 255 220 0
0.356775 0.106773 0.226064 255 220 0
0.372751 0.120566 0.270632 255 220 0
0.397488 0.074591 0.261536 255 220 0
0.386670 0.073247 0.255753 255 220 0
0.433022 0.127174 0.276616 255 220 0
0.425239 0.172924 0.276199 255 220 0
0.447487 0.107215 0.235855 255 220 0
0.442063 0.097586 0.213657 255 220 0
0.391796 0.094638 0.187080 255 220 0
0.388964 0.050823 0.223915 255 220 0
0.438042 0.140845 0.239478 255 220 0
0.395777 0.081255 0.184285 255 220 0
0.410956 0.191212 0.266517 255 220 0
0.423351 0.062243 0.242593 255 220 0
0.429393 0.158098 0.244498 255 220 0
0.392390 0.200635 0.255780 255 220 0
0.399993 0.201686 0.264079 255 220 0
0.360803 0.121167 0.216845 255 220 0
0.432718 0.097223 0.265740 255 220 0
0.434125 0.061446 0.224234 255 220 0
0.388225 0.092604 0.270378 255 220 0
0.379599 0.194920 0.285930 255 220 0
0.406544 0.053293 0.238455 255 220 0
0.360987 0.090324 0.234425 255 220 0
0.436136 0.128258 0.224141 255 220 0
0.378943 0.191963 0.286408 255 220 0
0.420853 0.092049 0.270453 255 220 0
0.388810 0.048604 0.209216 255 220 0
0.432122 0.058728 0.223974 255 220 0
0.430762 0.126426 0.216079 255 220 0
0.433225 0.157071 0.275736 255 220 0
0.408011 0.046537 0.197349 255 220 0
0.394976 0.101349 0.188785 255 220 0
0.365001 0.198692 0.264405 255 220 0
0.400983 0.045276 0.221428 255 220 0
0.443451 0.117232 0.227052 255 220 0
0.405375 0.198308 0.273560 255 220 0
0.416058 0.185915 0.277496 255 220 0
0.393556 0.053414 0.234101 255 220 0
0.415025 0.181631 0.256550 255 220 0
0.425488 0.058197 0.195766 255 220 0
0.421863 0.087343 0.267202 255 220 0
0.388955 0.158752 0.290978 255 220 0
0.441716 0.128033 0.233473 255 220 0
0.433028 0.102915 0.202534 255 220 0
0.407914 0.112784 0.282730 255 220 0
0.365771 0.113517 0.259075 255 220 0
0.425948 0.159177 0.283258 255 220 0
0.427789 0.070801 0.248804 255 220 0
0.398190 0.204300 0.267211 255 220 0
0.363441 0.105123 0.251690 255 220 0
0.362913 0.084103 0.210297 255 220 0
0.381877 0.125927 0.280442 255 220 0
0.393545 0.169011 0.292694 255 220 0
0.414813 0.077527 0.262973 255 220 0
0.429009 0.094943 0.195150 255 220 0
0.406991 0.143666 0.216511 255 220 0
0.399387 0.201040 0.262132 255 220 0
0.389010 0.167318 0.291702 255 220 0
0.439626 0.072304 0.211264 255 220 0
0.430718 0.162153 0.253423 255 220 0
0.408863 0.130043 0.288207 255 220 0
0.362565 0.177119 0.262671 255 220 0
0.364797 0.170312 0.247859 255 220 0
0.364568 0.124836 0.213765 255 220 0
0.436890 0.155265 0.266693 255 220 0
0.359991 0.091800 0.232258 255 220 0
0.364173 0.149685 0.232958 255 220 0
0.406263 0.185202 0.289517 255 220 0
0.401863 0.200696 0.265724 255 220 0
0.416919 0.049397 0.227415 255 220 0
0.403852 0.193992 0.258958 255 220 0
0.382256 0.080891 0.259294 255 220 0
0.391652 0.047972 0.203982 255 220 0
0.356780 0.106225 0.232225 255 220 0
0.366690 0.172509 0.245761 255 220 0
0.363103 0.182904 0.266580 255 220 0
0.371801 0.202392 0.255894 255 220 0
0.411410 0.044400 0.219118 255 220 0
0.425739 0.137310 0.283323 255 220 0
0.437314 0.115783 0.215820 255 220 0
0.417351 0.045919 0.204192 255 220 0
0.416018 0.136953 0.214504 255 220 0
0.426778 0.065191 0.243020 255 220 0
0.397112 0.140840 0.290340 255 220 0
0.399305 0.127585 0.287527 255 220 0
0.411726 0.189689 0.264721 255 220 0
0.445752 0.112994 0.253109 255 220 0
0.417800 0.064441 0.187981 255 220 0
0.394386 0.163338 0.292640 255 220 0
0.359357 0.127215 0.251066 255 220 0
0.375753 0.090836 0.260418 255 220 0
0.406530 0.132042 0.207603 255 220 0
0.359967 0.106259 0.245322 255 220 0
0.361622 0.084203 0.217221 255 220 0
0.370125 0.149823 0.226102 255 220 0
0.374945 0.091728 0.260142 255 220 0
0.371012 0.071058 0.233680 255 220 0
0.437643 0.110589 0.212739 255 220 0
0.376770 0.148389 0.221247 255 220 0
0.374214 0.066346 0.231934 255 220 0
0.408633 0.055646 0.241872 255 220 0
0.396290 0.129176 0.287415 255 220 0
0.393309 0.064885 0.250347 255 220 0
0.372085 0.075964 0.243991 255 220 0
0.440858 0.086776 0.208423 255 220 0
0.400023 0.099387 0.187712 255 220 0
0.426448 0.081639 0.190198 255 220 0
0.400670 0.103604 0.279316 255 220 0
0.389242 0.206431 0.259373 255 220 0
0.403718 0.075840 0.183557 255 220 0
0.416893 0.174233 0.287225 255 220 0
0.362267 0.165880 0.252944 255 220 0
0.442801 0.116371 0.225060 255 220 0
0.431895 0.099547 0.267629 255 220 0
0.412661 0.074822 0.261384 255 220 0
0.405060 0.067010 0.255760 255 220 0
0.442502 0.083807 0.238870 255 220 0
0.384790 0.125216 0.202952 255 220 0
0.415436 0.186807 0.269848 255 220 0
0.377259 0.142455 0.216751 255 220 0
0.429023 0.058171 0.229710 255 220 0
0.420717 0.119242 0.203453 255 220 0
0.431252 0.099772 0.268251 255 220 0
0.408593 0.056394 0.242969 255 220 0
0.436868 0.088931 0.255888 255 220 0
0.443734 0.138016 0.251792 255 220 0
0.420126 0.104936 0.194214 255 220 0
0.369985 0.146206 0.274943 255 220 0
0.402255 0.079536 0.265834 255 220 0
0.371959 0.121323 0.269987 255 220 0
0.401729 0.052750 0.190640 255 220 0
0.381205 0.102375 0.192551 255 220 0
0.363573 0.142476 0.227349 255 220 0
0.383222 0.079755 0.259136 255 220 0
0.368838 0.075402 0.236209 255 220 0
0.417002 0.125353 0.284906 255 220 0
0.440245 0.077352 0.208912 255 220 0
0.386504 0.091215 0.268691 255 220 0
0.384252 0.096270 0.270195 255 220 0
0.441896 0.079068 0.215615 255 220 0
0.380081 0.145762 0.284429 255 220 0
0.443359 0.082365 0.228496 255 220 0
0.418128 0.177505 0.284931 255 220 0
0.387417 0.079562 0.186341 255 220 0
0.431434 0.120207 0.275835 255 220 0
0.428136 0.094178 0.267649 255 220 0
0.384255 0.052449 0.218593 255 220 0
0.388345 0.207338 0.260025 255 220 0
0.365199 0.149328 0.268552 255 220 0
0.369584 0.087397 0.250770 255 220 0
0.374154 0.068721 0.198540 255 220 0
0.421956 0.072305 0.255128 255 220 0
0.416990 0.132607 0.286645 255 220 0
0.400074 0.048239 0.195844 255 220 0
0.370923 0.164725 0.236602 255 220 0
0.441068 0.120232 0.224976 255 220 0
0.365899 0.089911 0.201946 255 220 0
0.385463 0.052204 0.204042 255 220 0
0.389498 0.204039 0.256825 255 220 0
0.440329 0.138173 0.270752 255 220 0
0.372163 0.065075 0.219887 255 220 0
0.399660 0.099677 0.187829 255 220 0
0.417437 0.085428 0.186070 255 220 0
0.403040 0.168671 0.235856 255 220 0
0.436944 0.155170 0.260750 255 220 0
0.426106 0.149577 0.231524 255 220 0
0.434258 0.129135 0.222350 255 220 0
0.386285 0.206961 0.258144 255 220 0
0.418290 0.156217 0.232208 255 220 0
0.385647 0.200602 0.252572 255 220 0
0.434945 0.157552 0.257219 255 220 0
0.439068 0.117306 0.219437 255 220 0
0.412008 0.187066 0.260324 255 220 0
0.427995 0.151389 0.235230 255 220 0
0.377524 0.199193 0.251484 255 220 0
