ply
format ascii 1.0
element vertex 1024
property float x
property float y
property float z
property uchar red
property uchar green
property uchar blue
end_header
0.454671 0.069676 0.093876 255 220 0
0.394314 0.083463 0.065156 255 220 0
0.465672 0.036919 0.036660 255 220 0
0.423608 0.018637 0.064999 255 220 0
0.456868 0.066832 0.019371 255 220 0
0.402278 0.080854 0.022506 255 220 0
0.455482 0.057965 0.089230 255 220 0
0.485258 0.135357 0.091479 255 220 0
0.490093 0.065291 0.062900 255 220 0
0.427732 0.060611 0.008902 255 220 0
0.423028 0.020060 0.066991 255 220 0
0.416238 0.017174 0.013070 255 220 0
0.422995 0.078571 0.015643 255 220 0
0.455236 0.050609 0.085365 255 220 0
0.463416 0.032295 0.054213 255 220 0
0.410267 0.104350 0.070146 255 220 0
0.379914 0.035833 0.029118 255 220 0
0.476991 0.095185 0.094409 255 220 0
0.417984 0.104688 0.078043 255 220 0
0.441562 0.038026 0.081268 255 220 0
0.440602 0.029848 0.074124 255 220 0
0.458539 0.052178 0.084812 255 220 0
0.385365 0.072814 0.055402 255 220 0
0.389498 0.022213 0.018684 255 220 0
0.405860 0.083357 0.022478 255 220 0
0.404559 0.077486 0.019076 255 220 0
0.475593 0.138467 0.050503 255 220 0
0.457067 0.041294 0.022430 255 220 0
0.402302 0.029441 0.009165 255 220 0
0.465194 0.159061 0.060203 255 220 0
0.471039 0.044254 0.036979 255 220 0
0.499166 0.139952 0.076749 255 220 0
0.488273 0.082360 0.043831 255 220 0
0.468688 0.161693 0.061177 255 220 0
0.448454 0.088962 0.096487 255 220 0
0.424262 0.007938 0.034621 255 220 0
0.453849 0.107184 0.032354 255 220 0
0.425807 0.047317 0.086731 255 220 0
0.499284 0.138294 0.078652 255 220 0
0.490825 0.084192 0.046871 255 220 0
0.430528 0.119925 0.044473 255 220 0
0.501341 0.124185 0.071445 255 220 0
0.459278 0.041975 0.024002 255 220 0
0.450910 0.040890 0.017720 255 220 0
0.465202 0.146834 0.088683 255 220 0
0.450299 0.097732 0.027115 255 220 0
0.438241 0.036474 0.080703 255 220 0
0.462702 0.037746 0.030615 255 220 0
0.436245 0.068581 0.093642 255 220 0
0.386439 0.020667 0.024064 255 220 0
0.472061 0.066133 0.029557 255 220 0
0.493939 0.119864 0.087654 255 220 0
0.441196 0.052715 0.089811 255 220 0
0.441466 0.086288 0.095271 255 220 0
0.436331 0.044264 0.085939 255 220 0
0.407995 0.097651 0.073237 255 220 0
0.449870 0.023524 0.033666 255 220 0
0.397053 0.019946 0.057719 255 220 0
0.414102 0.095987 0.028785 255 220 0
0.390195 0.070076 0.024269 255 220 0
0.482578 0.083036 0.037976 255 220 0
0.394630 0.028022 0.062177 255 220 0
0.479188 0.140393 0.092209 255 220 0
0.447901 0.026500 0.065479 255 220 0
0.431137 0.015347 0.021417 255 220 0
0.497408 0.144876 0.073126 255 220 0
0.409342 0.049368 0.081719 255 220 0
0.462489 0.110117 0.035671 255 220 0
0.468057 0.038903 0.062134 255 220 0
0.483067 0.080785 0.038435 255 220 0
0.458722 0.028156 0.041896 255 220 0
0.462027 0.125767 0.042781 255 220 0
0.487049 0.093653 0.042809 255 220 0
0.496185 0.120130 0.058751 255 220 0
0.448759 0.043460 0.083215 255 220 0
0.485377 0.134553 0.053006 255 220 0
0.405696 0.030140 0.070787 255 220 0
0.457302 0.043958 0.079640 255 220 0
0.476626 0.065073 0.033650 255 220 0
0.437642 0.109469 0.089399 255 220 0
0.459028 0.136905 0.090474 255 220 0
0.410029 0.087049 0.079976 255 220 0
0.440206 0.046317 0.010396 255 220 0
0.473701 0.061469 0.081444 255 220 0
0.424397 0.122111 0.056561 255 220 0
0.455667 0.078619 0.020901 255 220 0
0.380163 0.033306 0.030019 255 220 0
0.501679 0.113932 0.073565 255 220 0
0.465481 0.075237 0.093221 255 220 0
0.470203 0.102887 0.096927 255 220 0
0.475734 0.047513 0.042907 255 220 0
0.432227 0.126143 0.052030 255 220 0
0.413792 0.017680 0.063459 255 220 0
0.461625 0.104750 0.033069 255 220 0
0.401258 0.023922 0.063953 255 220 0
0.395498 0.064977 0.016940 255 220 0
0.442599 0.043604 0.011860 255 220 0
0.431019 0.011837 0.046852 255 220 0
0.457768 0.114024 0.036447 255 220 0
0.455766 0.027788 0.058587 255 220 0
0.444879 0.033791 0.076579 255 220 0
0.383914 0.023203 0.043857 255 220 0
0.432370 0.035028 0.008683 255 220 0
0.420333 0.014656 0.059283 255 220 0
0.440127 0.033653 0.012866 255 220 0
0.441548 0.111817 0.034789 255 220 0
0.422643 0.020470 0.011834 255 220 0
0.470507 0.039730 0.057084 255 220 0
0.433686 0.058413 0.009175 255 220 0
0.463674 0.037596 0.067026 255 220 0
0.382450 0.069407 0.049145 255 220 0
0.445321 0.028812 0.019848 255 220 0
0.436578 0.068871 0.093732 255 220 0
0.410151 0.056545 0.083609 255 220 0
0.432016 0.064171 0.010634 255 220 0
0.435137 0.063949 0.092759 255 220 0
0.416468 0.025953 0.008108 255 220 0
0.422676 0.104580 0.081814 255 220 0
0.451321 0.066117 0.016504 255 220 0
0.405104 0.095020 0.071834 255 220 0
0.408930 0.109146 0.054192 255 220 0
0.398415 0.023923 0.062099 255 220 0
0.467081 0.115145 0.039097 255 220 0
0.476726 0.065333 0.081698 255 220 0
0.437145 0.094939 0.024359 255 220 0
0.423138 0.059982 0.008248 255 220 0
0.477214 0.050030 0.042163 255 220 0
0.461840 0.122678 0.041247 255 220 0
0.495618 0.146436 0.080461 255 220 0
0.450701 0.062428 0.092304 255 220 0
0.427022 0.021786 0.068637 255 220 0
0.435954 0.076108 0.094132 255 220 0
0.482798 0.127404 0.093594 255 220 0
0.384495 0.020410 0.040853 255 220 0
0.481183 0.053177 0.046625 255 220 0
0.384746 0.043841 0.058019 255 220 0
0.464321 0.161195 0.077508 255 220 0
0.450382 0.087607 0.096681 255 220 0
0.458823 0.074886 0.094623 255 220 0
0.377882 0.049616 0.035147 255 220 0
0.452249 0.023536 0.051053 255 220 0
0.397001 0.065233 0.016132 255 220 0
0.457292 0.104710 0.096984 255 220 0
0.480453 0.060679 0.038741 255 220 0
0.417068 0.105760 0.036338 255 220 0
0.393131 0.054901 0.070862 255 220 0
0.379181 0.033561 0.039580 255 220 0
0.414051 0.009357 0.021664 255 220 0
0.433793 0.020475 0.017158 255 220 0
0.448197 0.130079 0.046576 255 220 0
0.494257 0.081924 0.052700 255 220 0
0.463345 0.152271 0.084914 255 220 0
0.378588 0.053884 0.034729 255 220 0
0.410672 0.033702 0.075463 255 220 0
0.464943 0.085484 0.026671 255 220 0
0.395042 0.017511 0.053661 255 220 0
0.441982 0.031877 0.075762 255 220 0
0.425757 0.087297 0.089340 255 220 0
0.379821 0.052561 0.049406 255 220 0
0.443718 0.138611 0.075587 255 220 0
0.472096 0.139478 0.050067 255 220 0
0.445644 0.139702 0.057111 255 220 0
0.466111 0.041861 0.070172 255 220 0
0.448947 0.020941 0.045662 255 220 0
0.414413 0.028021 0.073396 255 220 0
0.467549 0.138676 0.049137 255 220 0
0.388942 0.023378 0.018607 255 220 0
0.499250 0.100586 0.075049 255 220 0
0.489936 0.105444 0.088779 255 220 0
0.429200 0.063980 0.010182 255 220 0
0.486311 0.119990 0.092591 255 220 0
0.456542 0.057848 0.088804 255 220 0
0.462172 0.048393 0.023951 255 220 0
0.427632 0.083415 0.017990 255 220 0
0.482710 0.163273 0.067592 255 220 0
0.432015 0.075547 0.014671 255 220 0
0.465587 0.097138 0.031046 255 220 0
0.414780 0.005822 0.035402 255 220 0
0.449508 0.112559 0.034924 255 220 0
0.436078 0.123882 0.045916 255 220 0
0.478511 0.161476 0.080526 255 220 0
0.444953 0.018489 0.045086 255 220 0
0.439830 0.128733 0.049111 255 220 0
0.445049 0.053159 0.089589 255 220 0
0.408493 0.061433 0.009988 255 220 0
0.428606 0.053278 0.007093 255 220 0
0.444326 0.020618 0.056567 255 220 0
0.404502 0.071276 0.079895 255 220 0
0.445804 0.113107 0.035340 255 220 0
0.414667 0.006094 0.039337 255 220 0
0.450453 0.029893 0.024199 255 220 0
0.402482 0.011888 0.051603 255 220 0
0.413787 0.060654 0.008713 255 220 0
0.429539 0.017299 0.061151 255 220 0
0.474839 0.065145 0.083133 255 220 0
0.459995 0.121793 0.095095 255 220 0
0.433367 0.021102 0.016207 255 220 0
0.416170 0.113284 0.047364 255 220 0
0.469704 0.124223 0.043453 255 220 0
0.482389 0.053297 0.059571 255 220 0
0.456542 0.063402 0.091309 255 220 0
0.453299 0.028440 0.063629 255 220 0
0.395850 0.091355 0.059798 255 220 0
0.458069 0.051825 0.084818 255 220 0
0.422142 0.073080 0.089647 255 220 0
0.450372 0.079370 0.019513 255 220 0
0.459764 0.095973 0.028680 255 220 0
0.439156 0.017585 0.027937 255 220 0
0.429190 0.011112 0.028441 255 220 0
0.382579 0.040359 0.053678 255 220 0
0.438151 0.133760 0.071980 255 220 0
0.475503 0.064658 0.032661 255 220 0
0.424330 0.009422 0.026938 255 220 0
0.419682 0.044667 0.084451 255 220 0
0.400572 0.012954 0.018488 255 220 0
0.457142 0.043702 0.021467 255 220 0
0.382733 0.071829 0.045429 255 220 0
0.405165 0.026888 0.068337 255 220 0
0.440000 0.018879 0.057157 255 220 0
0.420893 0.090499 0.085957 255 220 0
0.430648 0.127533 0.059694 255 220 0
0.474972 0.141670 0.092294 255 220 0
0.453076 0.095541 0.096938 255 220 0
0.431015 0.106045 0.032075 255 220 0
0.490287 0.070755 0.070438 255 220 0
0.402195 0.037369 0.007868 255 220 0
0.452725 0.038585 0.020100 255 220 0
0.475197 0.165720 0.068218 255 220 0
0.486777 0.126857 0.092022 255 220 0
0.459449 0.096821 0.097384 255 220 0
0.465557 0.109351 0.097213 255 220 0
0.444291 0.141583 0.069490 255 220 0
0.394759 0.087955 0.061873 255 220 0
0.486710 0.160576 0.068630 255 220 0
0.417651 0.087974 0.021804 255 220 0
0.402697 0.007097 0.027976 255 220 0
0.423876 0.086232 0.088647 255 220 0
0.476441 0.110807 0.040658 255 220 0
0.387306 0.073148 0.030567 255 220 0
0.463029 0.098393 0.097385 255 220 0
0.466075 0.051080 0.026500 255 220 0
0.457173 0.126127 0.042821 255 220 0
0.483878 0.108669 0.043624 255 220 0
0.410690 0.109190 0.047419 255 220 0
0.411817 0.097602 0.031251 255 220 0
0.420325 0.073468 0.013343 255 220 0
0.493931 0.107495 0.085628 255 220 0
0.433160 0.011868 0.035341 255 220 0
0.404154 0.067582 0.013855 255 220 0
0.468548 0.038336 0.041533 255 220 0
0.472717 0.110912 0.039279 255 220 0
0.458967 0.035322 0.069121 255 220 0
0.413432 0.006460 0.028921 255 220 0
0.494384 0.077876 0.069462 255 220 0
0.495721 0.147442 0.069843 255 220 0
0.415555 0.068600 0.086828 255 220 0
0.448079 0.144183 0.075412 255 220 0
0.473859 0.087257 0.031804 255 220 0
0.466424 0.035049 0.054143 255 220 0
0.466348 0.147810 0.088624 255 220 0
0.418053 0.032747 0.077841 255 220 0
0.486199 0.079124 0.041680 255 220 0
0.483479 0.057866 0.066533 255 220 0
0.460686 0.060216 0.021389 255 220 0
0.467429 0.139977 0.049662 255 220 0
0.434688 0.079191 0.093805 255 220 0
0.450160 0.063156 0.092645 255 220 0
0.479967 0.163062 0.063500 255 220 0
0.416029 0.053546 0.006395 255 220 0
0.447472 0.036747 0.016773 255 220 0
0.466764 0.056619 0.026042 255 220 0
0.408003 0.096286 0.032236 255 220 0
0.429817 0.078344 0.092333 255 220 0
0.460599 0.053783 0.021729 255 220 0
0.450683 0.108321 0.095172 255 220 0
0.410494 0.077705 0.082801 255 220 0
0.493422 0.076723 0.070454 255 220 0
0.396507 0.068649 0.073514 255 220 0
0.448828 0.141627 0.079923 255 220 0
0.442494 0.085403 0.020292 255 220 0
0.385871 0.045528 0.060078 255 220 0
0.487798 0.073483 0.044284 255 220 0
0.430341 0.085836 0.019266 255 220 0
0.405093 0.023991 0.066180 255 220 0
0.397233 0.012365 0.049009 255 220 0
0.480996 0.094458 0.092307 255 220 0
0.379150 0.058499 0.038206 255 220 0
0.476134 0.087586 0.093021 255 220 0
0.391894 0.085784 0.057638 255 220 0
0.455017 0.027630 0.033851 255 220 0
0.447909 0.023884 0.029344 255 220 0
0.403575 0.056563 0.009888 255 220 0
0.388577 0.045838 0.063824 255 220 0
0.464795 0.033983 0.056323 255 220 0
0.413614 0.048084 0.083434 255 220 0
0.434017 0.043385 0.008086 255 220 0
0.383466 0.070407 0.035839 255 220 0
0.384072 0.034362 0.053497 255 220 0
0.438811 0.016980 0.028808 255 220 0
0.493593 0.093944 0.080899 255 220 0
0.384838 0.075576 0.050354 255 220 0
0.409477 0.106758 0.044362 255 220 0
0.482573 0.135271 0.051911 255 220 0
0.395720 0.090779 0.038950 255 220 0
0.398897 0.098070 0.051057 255 220 0
0.448901 0.021975 0.036238 255 220 0
0.394704 0.009102 0.032390 255 220 0
0.483122 0.141856 0.090774 255 220 0
0.476148 0.077448 0.089232 255 220 0
0.473833 0.083926 0.031275 255 220 0
0.452093 0.118588 0.093403 255 220 0
0.473367 0.071749 0.088147 255 220 0
0.442834 0.101529 0.028244 255 220 0
0.425798 0.119222 0.072994 255 220 0
0.397991 0.030942 0.010470 255 220 0
0.451649 0.023431 0.038444 255 220 0
0.438871 0.059034 0.010608 255 220 0
0.396404 0.081062 0.069516 255 220 0
0.469710 0.062901 0.027842 255 220 0
0.435453 0.117979 0.040537 255 220 0
0.403516 0.041572 0.007340 255 220 0
0.399937 0.057675 0.077422 255 220 0
0.460542 0.053122 0.084401 255 220 0
0.404759 0.082765 0.022577 255 220 0
0.423467 0.085205 0.088653 255 220 0
0.470157 0.064745 0.086136 255 220 0
0.485652 0.061444 0.067572 255 220 0
0.440381 0.021226 0.022950 255 220 0
0.445568 0.027226 0.021578 255 220 0
0.467780 0.037161 0.057807 255 220 0
0.398114 0.008292 0.041651 255 220 0
0.393523 0.064396 0.070986 255 220 0
0.393860 0.010971 0.043119 255 220 0
0.444559 0.095531 0.025192 255 220 0
0.441553 0.134790 0.055191 255 220 0
0.487065 0.150453 0.085807 255 220 0
0.426529 0.080775 0.090834 255 220 0
0.446930 0.102158 0.028853 255 220 0
0.402910 0.093947 0.033812 255 220 0
0.408091 0.088384 0.078052 255 220 0
0.454841 0.153262 0.074536 255 220 0
0.448638 0.137178 0.051762 255 220 0
0.477328 0.049381 0.043566 255 220 0
0.433613 0.019680 0.017870 255 220 0
0.461937 0.037625 0.029757 255 220 0
0.485479 0.112790 0.045979 255 220 0
0.480991 0.115966 0.094752 255 220 0
0.383489 0.037846 0.054201 255 220 0
0.402919 0.060201 0.079696 255 220 0
0.490171 0.084845 0.045996 255 220 0
0.485432 0.133395 0.091764 255 220 0
0.422647 0.063326 0.089600 255 220 0
0.459407 0.086045 0.024597 255 220 0
0.481496 0.129686 0.093740 255 220 0
0.465665 0.053155 0.025670 255 220 0
0.446615 0.104307 0.029996 255 220 0
0.425088 0.111553 0.038292 255 220 0
0.407879 0.104678 0.042913 255 220 0
0.494374 0.101263 0.083018 255 220 0
0.488120 0.114113 0.091453 255 220 0
0.409310 0.104069 0.069100 255 220 0
0.478932 0.163952 0.064482 255 220 0
0.413552 0.060749 0.085732 255 220 0
0.447654 0.093626 0.024762 255 220 0
0.418669 0.091133 0.023750 255 220 0
0.464031 0.142623 0.090159 255 220 0
0.389379 0.023592 0.053640 255 220 0
0.404183 0.021587 0.063742 255 220 0
0.383272 0.038049 0.021592 255 220 0
0.435037 0.118003 0.040684 255 220 0
0.426919 0.122510 0.051735 255 220 0
0.417567 0.008544 0.024341 255 220 0
0.464814 0.033258 0.045114 255 220 0
0.464021 0.156514 0.082333 255 220 0
0.384166 0.052398 0.058367 255 220 0
0.403600 0.009693 0.048435 255 220 0
0.434184 0.071311 0.093518 255 220 0
0.407761 0.086132 0.078570 255 220 0
0.485345 0.116848 0.093056 255 220 0
0.481195 0.154295 0.086261 255 220 0
0.386387 0.016331 0.037036 255 220 0
0.492398 0.123830 0.054971 255 220 0
0.379626 0.054668 0.048300 255 220 0
0.436404 0.031087 0.076598 255 220 0
0.452552 0.151266 0.072127 255 220 0
0.412233 0.097701 0.031129 255 220 0
0.472293 0.116222 0.041204 255 220 0
0.494046 0.111657 0.086558 255 220 0
0.450996 0.043900 0.082680 255 220 0
0.394062 0.016791 0.018609 255 220 0
0.420054 0.073061 0.088725 255 220 0
0.486396 0.143521 0.055901 255 220 0
0.453444 0.023868 0.045992 255 220 0
0.403757 0.059640 0.080241 255 220 0
0.444298 0.098990 0.094733 255 220 0
0.473925 0.135034 0.048834 255 220 0
0.425168 0.105727 0.033115 255 220 0
0.448936 0.066318 0.093728 255 220 0
0.475019 0.144469 0.091364 255 220 0
0.418111 0.115649 0.049641 255 220 0
0.450514 0.149160 0.067867 255 220 0
0.430422 0.116854 0.080892 255 220 0
0.427332 0.111976 0.081350 255 220 0
0.422213 0.120017 0.054217 255 220 0
0.434801 0.019815 0.062988 255 220 0
0.429214 0.070045 0.012266 255 220 0
0.473752 0.051190 0.034909 255 220 0
0.442977 0.114485 0.090554 255 220 0
0.459775 0.075412 0.021983 255 220 0
0.385402 0.061893 0.059903 255 220 0
0.420108 0.023627 0.009488 255 220 0
0.435563 0.087556 0.020375 255 220 0
0.472169 0.041043 0.052860 255 220 0
0.485311 0.068343 0.042281 255 220 0
0.385891 0.075918 0.036482 255 220 0
0.470142 0.045195 0.034311 255 220 0
0.500322 0.130507 0.070424 255 220 0
0.451203 0.147252 0.076876 255 220 0
0.444530 0.032166 0.016757 255 220 0
0.454751 0.051580 0.086142 255 220 0
0.443489 0.054970 0.090554 255 220 0
0.396154 0.030830 0.065187 255 220 0
0.475523 0.061145 0.033228 255 220 0
0.419678 0.116058 0.048143 255 220 0
0.413804 0.082428 0.083820 255 220 0
0.483111 0.155924 0.058597 255 220 0
0.490276 0.118392 0.051385 255 220 0
0.418477 0.006457 0.033701 255 220 0
0.424503 0.086719 0.019977 255 220 0
0.389273 0.025037 0.054674 255 220 0
0.453401 0.134793 0.048242 255 220 0
0.446251 0.112643 0.035014 255 220 0
0.491395 0.134288 0.088264 255 220 0
0.475412 0.045334 0.059023 255 220 0
0.412207 0.048477 0.005843 255 220 0
0.434752 0.127979 0.052345 255 220 0
0.475246 0.127751 0.095215 255 220 0
0.456659 0.031681 0.065808 255 220 0
0.426241 0.008618 0.036155 255 220 0
0.430963 0.042998 0.085237 255 220 0
0.445513 0.023241 0.026823 255 220 0
0.460473 0.091863 0.097169 255 220 0
0.393740 0.009823 0.039207 255 220 0
0.443591 0.136752 0.077951 255 220 0
0.476635 0.071961 0.033056 255 220 0
0.443769 0.059353 0.092115 255 220 0
0.415915 0.087568 0.021945 255 220 0
0.394461 0.092216 0.049559 255 220 0
0.490384 0.069342 0.050100 255 220 0
0.397057 0.030836 0.010913 255 220 0
0.469997 0.069428 0.027832 255 220 0
0.390490 0.083287 0.037073 255 220 0
0.380934 0.031122 0.029092 255 220 0
0.466643 0.081200 0.094703 255 220 0
0.472900 0.067726 0.030154 255 220 0
0.421200 0.077596 0.015261 255 220 0
0.400020 0.016360 0.056054 255 220 0
0.492928 0.075304 0.070082 255 220 0
0.481972 0.052381 0.052386 255 220 0
0.469281 0.148142 0.052947 255 220 0
0.457005 0.154909 0.076323 255 220 0
0.434444 0.026141 0.072071 255 220 0
0.448603 0.101437 0.028660 255 220 0
0.462003 0.093579 0.028361 255 220 0
0.469931 0.038821 0.055416 255 220 0
0.413296 0.089994 0.081309 255 220 0
0.448779 0.022799 0.033361 255 220 0
0.436568 0.038292 0.009770 255 220 0
0.387941 0.063353 0.022448 255 220 0
0.478495 0.053092 0.068168 255 220 0
0.490596 0.142252 0.086737 255 220 0
0.444430 0.141498 0.063793 255 220 0
0.402928 0.054876 0.079261 255 220 0
0.464765 0.064616 0.088910 255 220 0
0.379989 0.030495 0.038120 255 220 0
0.453426 0.032139 0.069689 255 220 0
0.401118 0.097071 0.063727 255 220 0
0.406196 0.041657 0.077214 255 220 0
0.437227 0.098103 0.026189 255 220 0
0.445546 0.141215 0.074997 255 220 0
0.497503 0.125737 0.084418 255 220 0
0.394313 0.050503 0.012704 255 220 0
0.444127 0.029407 0.018223 255 220 0
0.399331 0.070291 0.017365 255 220 0
0.406425 0.103983 0.064123 255 220 0
0.391506 0.072716 0.066564 255 220 0
0.390078 0.078962 0.060973 255 220 0
0.457306 0.067442 0.019665 255 220 0
0.494818 0.081859 0.053904 255 220 0
0.501166 0.126134 0.078650 255 220 0
0.485842 0.112226 0.046044 255 220 0
0.428036 0.012238 0.023962 255 220 0
0.492793 0.148945 0.082215 255 220 0
0.457557 0.028177 0.056038 255 220 0
0.462416 0.048071 0.079696 255 220 0
0.428429 0.026922 0.074136 255 220 0
0.414968 0.053727 0.085431 255 220 0
0.432366 0.080330 0.016699 255 220 0
0.457411 0.086580 0.096839 255 220 0
0.423465 0.014703 0.017078 255 220 0
0.431385 0.076486 0.014974 255 220 0
0.450369 0.035071 0.075319 255 220 0
0.472236 0.133789 0.094331 255 220 0
0.401001 0.006602 0.037725 255 220 0
0.449858 0.132181 0.087408 255 220 0
0.476666 0.061346 0.078707 255 220 0
0.417668 0.081159 0.017570 255 220 0
0.438416 0.014968 0.045852 255 220 0
0.465932 0.034250 0.051461 255 220 0
0.474068 0.110947 0.039795 255 220 0
0.401194 0.086767 0.072328 255 220 0
0.446018 0.130158 0.047370 255 220 0
0.480027 0.161192 0.080174 255 220 0
0.479633 0.146759 0.054055 255 220 0
0.386490 0.032249 0.018246 255 220 0
0.418791 0.029955 0.076140 255 220 0
0.448027 0.021789 0.034658 255 220 0
0.425929 0.017314 0.062485 255 220 0
0.459916 0.130040 0.093109 255 220 0
0.425518 0.096198 0.086903 255 220 0
0.387676 0.016109 0.042143 255 220 0
0.442290 0.037798 0.012874 255 220 0
0.482121 0.152410 0.087059 255 220 0
0.480854 0.155407 0.057182 255 220 0
0.467727 0.109625 0.037043 255 220 0
0.437554 0.054233 0.090459 255 220 0
0.490846 0.117629 0.051705 255 220 0
0.420311 0.007276 0.030454 255 220 0
0.403687 0.052601 0.079324 255 220 0
0.409957 0.039066 0.005648 255 220 0
0.412981 0.046960 0.005520 255 220 0
0.455950 0.048944 0.083976 255 220 0
0.380820 0.050592 0.052004 255 220 0
0.391094 0.042088 0.065818 255 220 0
0.473112 0.064433 0.083966 255 220 0
0.408743 0.060564 0.083251 255 220 0
0.416979 0.039281 0.081236 255 220 0
0.488887 0.088811 0.044454 255 220 0
0.453670 0.042239 0.080208 255 220 0
0.388470 0.031444 0.016330 255 220 0
0.447620 0.082184 0.096178 255 220 0
0.500938 0.131221 0.074087 255 220 0
0.414187 0.064986 0.010249 255 220 0
0.408572 0.106627 0.045549 255 220 0
0.463905 0.108495 0.035377 255 220 0
0.498457 0.131897 0.066066 255 220 0
0.385794 0.061665 0.024039 255 220 0
0.451598 0.034502 0.021488 255 220 0
0.462244 0.031023 0.043268 255 220 0
0.489103 0.095325 0.045139 255 220 0
0.401306 0.085981 0.027228 255 220 0
0.409326 0.088952 0.078811 255 220 0
0.496851 0.088071 0.072529 255 220 0
0.493547 0.091946 0.080020 255 220 0
0.395274 0.029658 0.012036 255 220 0
0.414492 0.009000 0.049076 255 220 0
0.411125 0.021120 0.066488 255 220 0
0.378707 0.038260 0.032017 255 220 0
0.435689 0.122944 0.081486 255 220 0
0.399122 0.096572 0.043148 255 220 0
0.473145 0.135797 0.093887 255 220 0
0.497778 0.129542 0.083761 255 220 0
0.487684 0.159975 0.071060 255 220 0
0.391508 0.082653 0.060609 255 220 0
0.459877 0.150179 0.084008 255 220 0
0.494510 0.114202 0.086579 255 220 0
0.476243 0.077461 0.089178 255 220 0
0.455228 0.040949 0.021052 255 220 0
0.408725 0.103981 0.068320 255 220 0
0.443231 0.024972 0.021446 255 220 0
0.389706 0.037717 0.014617 255 220 0
0.403639 0.007439 0.043663 255 220 0
0.501645 0.119672 0.071631 255 220 0
0.427657 0.072391 0.091758 255 220 0
0.462090 0.151801 0.056059 255 220 0
0.384267 0.073085 0.051901 255 220 0
0.484897 0.158412 0.080335 255 220 0
0.439598 0.121145 0.042049 255 220 0
0.418766 0.063286 0.088169 255 220 0
0.394317 0.057908 0.072268 255 220 0
0.479227 0.125283 0.047183 255 220 0
0.471478 0.041730 0.042862 255 220 0
0.391351 0.017173 0.049630 255 220 0
0.394019 0.067656 0.019301 255 220 0
0.465229 0.058289 0.024678 255 220 0
0.411462 0.034061 0.005979 255 220 0
0.385952 0.047401 0.018666 255 220 0
0.481453 0.103300 0.040457 255 220 0
0.379023 0.057928 0.038186 255 220 0
0.417162 0.082141 0.085902 255 220 0
0.480862 0.053393 0.064388 255 220 0
0.387276 0.019470 0.023800 255 220 0
0.388716 0.082921 0.041529 255 220 0
0.379544 0.052662 0.048569 255 220 0
0.475763 0.120658 0.095836 255 220 0
0.421051 0.067735 0.010897 255 220 0
0.415069 0.094023 0.026876 255 220 0
0.424541 0.073282 0.090618 255 220 0
0.415003 0.036896 0.079223 255 220 0
0.467844 0.080859 0.027178 255 220 0
0.476523 0.058735 0.034857 255 220 0
0.488180 0.141887 0.088390 255 220 0
0.387771 0.019140 0.047056 255 220 0
0.395189 0.059047 0.073181 255 220 0
0.413835 0.043668 0.081951 255 220 0
0.382974 0.049549 0.022706 255 220 0
0.437483 0.051280 0.089331 255 220 0
0.461568 0.088040 0.026080 255 220 0
0.482809 0.116817 0.045762 255 220 0
0.448218 0.060204 0.014414 255 220 0
0.447005 0.026446 0.024138 255 220 0
0.382338 0.025144 0.041376 255 220 0
0.447809 0.023424 0.030104 255 220 0
0.484581 0.068507 0.076273 255 220 0
0.422495 0.050675 0.087185 255 220 0
0.421953 0.111693 0.039963 255 220 0
0.427421 0.111885 0.037688 255 220 0
0.440831 0.058681 0.091973 255 220 0
0.484279 0.075289 0.039929 255 220 0
0.391532 0.062543 0.068812 255 220 0
0.458310 0.134546 0.091036 255 220 0
0.401199 0.027745 0.010018 255 220 0
0.398585 0.013337 0.019005 255 220 0
0.438966 0.098382 0.092905 255 220 0
0.482348 0.162113 0.064031 255 220 0
0.484644 0.094322 0.089849 255 220 0
0.403960 0.056975 0.080177 255 220 0
0.400311 0.078337 0.021853 255 220 0
0.410409 0.092713 0.027673 255 220 0
0.435848 0.061011 0.010290 255 220 0
0.439071 0.018440 0.057017 255 220 0
0.478219 0.094621 0.036035 255 220 0
0.422061 0.007441 0.039384 255 220 0
0.400728 0.090317 0.031889 255 220 0
0.472588 0.145846 0.052326 255 220 0
0.481650 0.160023 0.060693 255 220 0
0.433564 0.106546 0.088077 255 220 0
0.410129 0.016049 0.060364 255 220 0
0.419464 0.021496 0.068729 255 220 0
0.420606 0.015124 0.015662 255 220 0
0.461597 0.050411 0.081998 255 220 0
0.379162 0.047117 0.029251 255 220 0
0.422600 0.069728 0.089917 255 220 0
0.498145 0.086546 0.063970 255 220 0
0.451896 0.049739 0.086140 255 220 0
0.392579 0.060192 0.070264 255 220 0
0.499592 0.102306 0.063005 255 220 0
0.469054 0.067525 0.027151 255 220 0
0.452545 0.143250 0.082653 255 220 0
0.483530 0.122003 0.093741 255 220 0
0.398259 0.019281 0.057971 255 220 0
0.442136 0.134586 0.054200 255 220 0
0.499884 0.137147 0.074933 255 220 0
0.456576 0.029383 0.061267 255 220 0
0.451582 0.071603 0.094763 255 220 0
0.465216 0.158816 0.059955 255 220 0
0.386075 0.070206 0.029877 255 220 0
0.489433 0.072956 0.073762 255 220 0
0.438299 0.128786 0.079381 255 220 0
0.467314 0.128441 0.044698 255 220 0
0.464608 0.058331 0.024208 255 220 0
0.419918 0.087058 0.086322 255 220 0
0.393164 0.067758 0.020018 255 220 0
0.414825 0.005842 0.034231 255 220 0
0.482259 0.148331 0.088862 255 220 0
0.386903 0.064387 0.061951 255 220 0
0.463123 0.116721 0.038712 255 220 0
0.454016 0.118790 0.038699 255 220 0
0.451950 0.127241 0.043904 255 220 0
0.498185 0.087088 0.066661 255 220 0
0.465761 0.116506 0.039264 255 220 0
0.426019 0.118707 0.045993 255 220 0
0.460381 0.070972 0.021705 255 220 0
0.429293 0.042160 0.006665 255 220 0
0.380449 0.055320 0.029427 255 220 0
0.501662 0.124602 0.073806 255 220 0
0.456884 0.154184 0.062139 255 220 0
0.436012 0.045779 0.008682 255 220 0
0.458786 0.072840 0.094055 255 220 0
0.419880 0.035717 0.080137 255 220 0
0.431536 0.128201 0.059185 255 220 0
0.412844 0.083835 0.082850 255 220 0
0.428927 0.009720 0.036147 255 220 0
0.447079 0.097914 0.095669 255 220 0
0.468087 0.036494 0.047966 255 220 0
0.452576 0.151712 0.069030 255 220 0
0.426725 0.023998 0.010843 255 220 0
0.434373 0.119139 0.041923 255 220 0
0.457990 0.036315 0.071410 255 220 0
0.393439 0.009665 0.034193 255 220 0
0.495936 0.107385 0.055779 255 220 0
0.469482 0.162720 0.062132 255 220 0
0.443662 0.117444 0.038463 255 220 0
0.453388 0.031342 0.068555 255 220 0
0.390924 0.084026 0.057535 255 220 0
0.484755 0.155816 0.059645 255 220 0
0.459959 0.031876 0.034409 255 220 0
0.421942 0.118585 0.066904 255 220 0
0.489559 0.063954 0.054320 255 220 0
0.461149 0.088687 0.026164 255 220 0
0.443452 0.105102 0.030344 255 220 0
0.491742 0.069007 0.064651 255 220 0
0.482739 0.057993 0.043687 255 220 0
0.417277 0.108736 0.074172 255 220 0
0.434220 0.104699 0.030635 255 220 0
0.450447 0.149035 0.069791 255 220 0
0.393263 0.051594 0.070636 255 220 0
0.470906 0.161488 0.060169 255 220 0
0.431980 0.021751 0.014715 255 220 0
0.409855 0.012162 0.054580 255 220 0
0.429901 0.063050 0.091610 255 220 0
0.413395 0.071573 0.013267 255 220 0
0.427742 0.125062 0.059397 255 220 0
0.498817 0.099502 0.075439 255 220 0
0.418693 0.109266 0.039179 255 220 0
0.414174 0.036968 0.078919 255 220 0
0.408540 0.027436 0.070481 255 220 0
0.423290 0.059868 0.089371 255 220 0
0.451260 0.022428 0.046192 255 220 0
0.430497 0.127241 0.065948 255 220 0
0.406886 0.104657 0.063918 255 220 0
0.423310 0.089425 0.021750 255 220 0
0.432061 0.025690 0.012025 255 220 0
0.410400 0.022941 0.067870 255 220 0
0.479674 0.049479 0.055305 255 220 0
0.385639 0.029246 0.020132 255 220 0
0.397895 0.037312 0.070054 255 220 0
0.460787 0.160662 0.071056 255 220 0
0.466037 0.158764 0.081691 255 220 0
0.421216 0.011909 0.054043 255 220 0
0.454442 0.153954 0.068571 255 220 0
0.423815 0.018440 0.064679 255 220 0
0.401198 0.086420 0.027702 255 220 0
0.450619 0.076837 0.018697 255 220 0
0.420635 0.051705 0.086980 255 220 0
0.414183 0.100343 0.077482 255 220 0
0.426645 0.011830 0.051293 255 220 0
0.413567 0.024308 0.070204 255 220 0
0.409698 0.058053 0.083562 255 220 0
0.432957 0.017646 0.060027 255 220 0
0.500908 0.105010 0.068905 255 220 0
0.474338 0.125224 0.045285 255 220 0
0.487138 0.065807 0.070372 255 220 0
0.435804 0.110176 0.034319 255 220 0
0.462135 0.156698 0.080726 255 220 0
0.404741 0.074661 0.017305 255 220 0
0.398784 0.088990 0.032394 255 220 0
0.470441 0.108609 0.096950 255 220 0
0.493533 0.128526 0.057463 255 220 0
0.464073 0.041298 0.029210 255 220 0
0.479780 0.096945 0.093515 255 220 0
0.446373 0.125716 0.088199 255 220 0
0.402013 0.090955 0.070910 255 220 0
0.430694 0.121021 0.077691 255 220 0
0.411358 0.103204 0.072640 255 220 0
0.495160 0.114639 0.055996 255 220 0
0.468547 0.091984 0.096317 255 220 0
0.418477 0.081485 0.086770 255 220 0
0.463932 0.046633 0.077377 255 220 0
0.424524 0.120485 0.050770 255 220 0
0.447411 0.061626 0.014189 255 220 0
0.387433 0.036009 0.016741 255 220 0
0.381103 0.056778 0.028843 255 220 0
0.449417 0.036472 0.018434 255 220 0
0.500380 0.102853 0.066080 255 220 0
0.456085 0.038609 0.075489 255 220 0
0.484179 0.096051 0.090703 255 220 0
0.489845 0.091068 0.083891 255 220 0
0.398696 0.043851 0.073471 255 220 0
0.473561 0.073976 0.030520 255 220 0
0.380496 0.031292 0.043402 255 220 0
0.389048 0.027106 0.055938 255 220 0
0.499129 0.118058 0.063381 255 220 0
0.448557 0.144425 0.060058 255 220 0
0.409473 0.109676 0.055705 255 220 0
0.498130 0.089778 0.060493 255 220 0
0.491402 0.067136 0.061385 255 220 0
0.391851 0.074853 0.026135 255 220 0
0.424220 0.074397 0.013671 255 220 0
0.433360 0.076861 0.093484 255 220 0
0.446278 0.106484 0.031222 255 220 0
0.386642 0.015936 0.036591 255 220 0
0.491129 0.072199 0.070422 255 220 0
0.451298 0.116460 0.093639 255 220 0
0.483156 0.067151 0.039975 255 220 0
0.410609 0.048008 0.081981 255 220 0
0.443032 0.136666 0.077179 255 220 0
0.494222 0.096722 0.081318 255 220 0
0.459720 0.078980 0.022670 255 220 0
0.383412 0.053623 0.023367 255 220 0
0.394920 0.052283 0.012756 255 220 0
0.433307 0.125453 0.076326 255 220 0
0.478071 0.053593 0.039627 255 220 0
0.382568 0.023378 0.034881 255 220 0
0.475255 0.055002 0.074530 255 220 0
0.449114 0.095012 0.096366 255 220 0
0.492296 0.105304 0.050402 255 220 0
0.479103 0.132239 0.093965 255 220 0
0.501444 0.121881 0.077891 255 220 0
0.465207 0.034118 0.042625 255 220 0
0.498824 0.104672 0.078138 255 220 0
0.489619 0.080603 0.045592 255 220 0
0.446457 0.140586 0.077659 255 220 0
0.442457 0.129888 0.048755 255 220 0
0.423797 0.121538 0.055883 255 220 0
0.499988 0.128200 0.081056 255 220 0
0.420994 0.119487 0.059886 255 220 0
0.426939 0.030261 0.008188 255 220 0
0.455886 0.155661 0.069254 255 220 0
0.460383 0.054271 0.021522 255 220 0
0.498518 0.141685 0.073449 255 220 0
0.392983 0.050399 0.070137 255 220 0
0.496861 0.089569 0.056751 255 220 0
0.389389 0.025341 0.017269 255 220 0
0.483030 0.078296 0.084378 255 220 0
0.462009 0.048285 0.023851 255 220 0
0.414605 0.039585 0.080461 255 220 0
0.449183 0.033709 0.074499 255 220 0
0.390094 0.085509 0.043710 255 220 0
0.493640 0.117753 0.087769 255 220 0
0.394177 0.015181 0.020033 255 220 0
0.468820 0.128197 0.095310 255 220 0
0.443864 0.134971 0.053010 255 220 0
0.455916 0.035418 0.072028 255 220 0
0.415944 0.084835 0.020130 255 220 0
0.398591 0.070635 0.075145 255 220 0
0.408979 0.079802 0.081304 255 220 0
0.378852 0.040912 0.045611 255 220 0
0.491546 0.093354 0.047884 255 220 0
0.380582 0.047937 0.026231 255 220 0
0.477702 0.162805 0.078954 255 220 0
0.432267 0.013057 0.027597 255 220 0
0.415387 0.055459 0.085918 255 220 0
0.421732 0.041097 0.083366 255 220 0
0.398142 0.030682 0.066542 255 220 0
0.390269 0.085981 0.049587 255 220 0
0.383797 0.024151 0.026713 255 220 0
0.466690 0.099275 0.097178 255 220 0
0.478169 0.153854 0.087118 255 220 0
0.464436 0.044766 0.027422 255 220 0
0.450970 0.026697 0.029017 255 220 0
0.449973 0.097543 0.096354 255 220 0
0.398010 0.039180 0.009531 255 220 0
0.392190 0.032260 0.013325 255 220 0
0.476389 0.147182 0.090310 255 220 0
0.495133 0.079337 0.055833 255 220 0
0.401852 0.058670 0.011196 255 220 0
0.464021 0.139662 0.049451 255 220 0
0.394934 0.089971 0.059545 255 220 0
0.432441 0.091572 0.091520 255 220 0
0.424617 0.039834 0.083137 255 220 0
0.413311 0.044671 0.082112 255 220 0
0.484121 0.064776 0.073545 255 220 0
0.500806 0.107599 0.067095 255 220 0
0.468309 0.041585 0.035058 255 220 0
0.450183 0.037104 0.018741 255 220 0
0.399412 0.062357 0.013601 255 220 0
0.390696 0.025589 0.056690 255 220 0
0.479365 0.074918 0.035258 255 220 0
0.394622 0.049020 0.012208 255 220 0
0.495023 0.131007 0.059965 255 220 0
0.430318 0.016242 0.058823 255 220 0
0.483450 0.093940 0.039632 255 220 0
0.481125 0.149246 0.055178 255 220 0
0.490879 0.145791 0.059729 255 220 0
0.401351 0.100298 0.046872 255 220 0
0.464467 0.040005 0.069610 255 220 0
0.430520 0.010445 0.038327 255 220 0
0.430196 0.059695 0.091065 255 220 0
0.481029 0.150214 0.088410 255 220 0
0.411343 0.017794 0.062978 255 220 0
0.393414 0.073539 0.068812 255 220 0
0.465290 0.065824 0.024466 255 220 0
0.479254 0.148050 0.089663 255 220 0
0.454804 0.041806 0.079262 255 220 0
0.383383 0.024300 0.043811 255 220 0
0.427533 0.009227 0.039356 255 220 0
0.456942 0.067421 0.019465 255 220 0
0.498802 0.089957 0.066836 255 220 0
0.392062 0.012709 0.026373 255 220 0
0.405883 0.066272 0.012674 255 220 0
0.462868 0.161930 0.073457 255 220 0
0.396058 0.014571 0.051098 255 220 0
0.466576 0.052505 0.026579 255 220 0
0.497224 0.139740 0.067035 255 220 0
0.500820 0.123431 0.069110 255 220 0
0.399705 0.024979 0.063762 255 220 0
0.489220 0.121081 0.051277 255 220 0
0.410526 0.013285 0.016241 255 220 0
0.451883 0.037402 0.076852 255 220 0
0.472233 0.114489 0.096624 255 220 0
0.473294 0.062336 0.030948 255 220 0
0.441346 0.046810 0.010902 255 220 0
0.460363 0.065812 0.091132 255 220 0
0.418824 0.089737 0.084948 255 220 0
0.497425 0.095364 0.075937 255 220 0
0.440534 0.020891 0.061172 255 220 0
0.492105 0.148856 0.062730 255 220 0
0.409808 0.084142 0.080725 255 220 0
0.381785 0.068080 0.047375 255 220 0
0.446127 0.090893 0.096045 255 220 0
0.481550 0.120648 0.094497 255 220 0
0.439871 0.033016 0.077510 255 220 0
0.431255 0.042474 0.007218 255 220 0
0.447600 0.094663 0.025220 255 220 0
0.489288 0.145636 0.058307 255 220 0
0.476841 0.121672 0.095590 255 220 0
0.434744 0.017127 0.022393 255 220 0
0.490178 0.096353 0.046472 255 220 0
0.471951 0.079700 0.092396 255 220 0
0.449549 0.145063 0.076984 255 220 0
0.441721 0.138627 0.064022 255 220 0
0.404770 0.101494 0.041974 255 220 0
0.496947 0.086785 0.057618 255 220 0
0.392492 0.075392 0.066919 255 220 0
0.424798 0.122043 0.054724 255 220 0
0.497985 0.127647 0.083779 255 220 0
0.492491 0.143900 0.060732 255 220 0
0.412731 0.009342 0.049888 255 220 0
0.487864 0.137406 0.055156 255 220 0
0.415222 0.053364 0.085462 255 220 0
0.383064 0.022428 0.038132 255 220 0
0.397217 0.089295 0.065253 255 220 0
0.443389 0.139544 0.060991 255 220 0
0.454460 0.149530 0.079213 255 220 0
0.466363 0.161718 0.062498 255 220 0
0.402608 0.008344 0.045340 255 220 0
0.486401 0.076998 0.080341 255 220 0
0.456526 0.054940 0.018900 255 220 0
0.401705 0.006967 0.029287 255 220 0
0.450302 0.084241 0.021391 255 220 0
0.434572 0.016889 0.057378 255 220 0
0.469261 0.095022 0.096544 255 220 0
0.463164 0.082749 0.095767 255 220 0
0.494106 0.129370 0.058346 255 220 0
0.477016 0.046803 0.050259 255 220 0
0.404553 0.022931 0.010765 255 220 0
0.479343 0.115408 0.095246 255 220 0
0.417442 0.105009 0.077346 255 220 0
0.415688 0.065200 0.086930 255 220 0
0.437769 0.085392 0.019556 255 220 0
0.405089 0.087175 0.075987 255 220 0
0.383721 0.068617 0.054127 255 220 0
0.426560 0.119216 0.046277 255 220 0
0.415401 0.066394 0.086802 255 220 0
0.391147 0.051935 0.068213 255 220 0
0.452912 0.050482 0.016991 255 220 0
0.428896 0.114623 0.039702 255 220 0
0.390515 0.046304 0.066369 255 220 0
0.415522 0.018550 0.064858 255 220 0
0.461614 0.085707 0.096461 255 220 0
0.411962 0.034246 0.076390 255 220 0
0.398680 0.055155 0.076240 255 220 0
0.441713 0.028793 0.016533 255 220 0
0.408306 0.061956 0.010227 255 220 0
0.420625 0.032769 0.006250 255 220 0
0.448858 0.062039 0.092478 255 220 0
0.483102 0.155701 0.058470 255 220 0
0.397672 0.040231 0.009687 255 220 0
0.499670 0.112783 0.079932 255 220 0
0.439694 0.136059 0.070440 255 220 0
0.464827 0.052192 0.025174 255 220 0
0.465780 0.042343 0.071177 255 220 0
0.436226 0.031934 0.077384 255 220 0
0.424215 0.029584 0.076584 255 220 0
0.454103 0.024366 0.044198 255 220 0
0.415882 0.091389 0.024641 255 220 0
0.497622 0.124779 0.062210 255 220 0
0.424450 0.109503 0.036591 255 220 0
0.427271 0.010215 0.045819 255 220 0
0.440481 0.067146 0.013071 255 220 0
0.465659 0.042855 0.071934 255 220 0
0.416319 0.019166 0.065726 255 220 0
0.459415 0.031120 0.060744 255 220 0
0.487395 0.069067 0.044920 255 220 0
0.429077 0.055690 0.007677 255 220 0
0.444890 0.114564 0.091453 255 220 0
0.432491 0.041320 0.084331 255 220 0
0.431947 0.092656 0.091077 255 220 0
0.387591 0.021542 0.021366 255 220 0
0.397466 0.074361 0.020955 255 220 0
0.418426 0.116464 0.051250 255 220 0
0.415327 0.051895 0.085185 255 220 0
0.392701 0.056679 0.070464 255 220 0
0.474447 0.071505 0.087321 255 220 0
0.436755 0.021141 0.019041 255 220 0
0.427494 0.059498 0.090433 255 220 0
0.428919 0.064919 0.091642 255 220 0
0.441644 0.021481 0.024196 255 220 0
0.456290 0.108475 0.096460 255 220 0
0.449739 0.023045 0.034731 255 220 0
0.501289 0.114967 0.076754 255 220 0
0.388262 0.051982 0.017478 255 220 0
0.479118 0.059764 0.074778 255 220 0
0.460251 0.039813 0.073623 255 220 0
0.385714 0.029659 0.053262 255 220 0
0.483141 0.156924 0.059216 255 220 0
0.440151 0.119975 0.086789 255 220 0
0.405278 0.065918 0.081092 255 220 0
0.377814 0.049486 0.035557 255 220 0
0.439461 0.025060 0.068773 255 220 0
0.478772 0.077581 0.087492 255 220 0
0.386240 0.018436 0.027586 255 220 0
0.438940 0.131022 0.052625 255 220 0
0.465394 0.056382 0.024981 255 220 0
0.383492 0.071679 0.037550 255 220 0
0.380483 0.029304 0.039632 255 220 0
0.481051 0.153631 0.056526 255 220 0
0.492736 0.070369 0.063382 255 220 0
0.383327 0.046737 0.056414 255 220 0
0.408223 0.062391 0.010411 255 220 0
0.413939 0.040922 0.005065 255 220 0
0.465061 0.117236 0.039386 255 220 0
0.494478 0.086879 0.052212 255 220 0
0.471326 0.088939 0.030703 255 220 0
0.463553 0.067630 0.023356 255 220 0
0.480604 0.157769 0.058335 255 220 0
0.468964 0.098698 0.032899 255 220 0
0.474643 0.152928 0.054742 255 220 0
0.492678 0.090079 0.049270 255 220 0
0.460119 0.055167 0.021249 255 220 0
0.491194 0.127154 0.054755 255 220 0
0.475204 0.089335 0.033027 255 220 0
0.467302 0.156111 0.057010 255 220 0
