ply
format ascii 1.0
element vertex 1024
property float x
property float y
property float z
property uchar red
property uchar green
property uchar blue
end_header
0.166396 0.123670 0.101254 255 220 0
0.122877 0.080473 0.071287 255 220 0
0.198452 0.119758 0.042733 255 220 0
0.193535 0.072693 0.068566 255 220 0
0.167736 0.128397 0.026825 255 220 0
0.127911 0.088442 0.028855 255 220 0
0.176735 0.118680 0.096001 255 220 0
0.125496 0.183481 0.103524 255 220 0
0.187322 0.153657 0.071314 255 220 0
0.157895 0.100803 0.015038 255 220 0
0.192077 0.072804 0.070613 255 220 0
0.189480 0.068603 0.016413 255 220 0
0.140244 0.105476 0.022591 255 220 0
0.182815 0.114951 0.091732 255 220 0
0.201799 0.114460 0.059917 255 220 0
0.113221 0.104512 0.077962 255 220 0
0.155380 0.045958 0.032211 255 220 0
0.155885 0.155786 0.103954 255 220 0
0.117107 0.110859 0.086125 255 220 0
0.186526 0.097041 0.086482 255 220 0
0.192850 0.092469 0.078870 255 220 0
0.183136 0.118618 0.091379 255 220 0
0.127169 0.067931 0.060661 255 220 0
0.171666 0.047868 0.021377 255 220 0
0.127588 0.092794 0.029089 255 220 0
0.131867 0.088887 0.025326 255 220 0
0.116666 0.179115 0.062474 255 220 0
0.189876 0.115408 0.028479 255 220 0
0.171706 0.063091 0.012714 255 220 0
0.093949 0.180092 0.072931 255 220 0
0.194898 0.128081 0.043638 255 220 0
0.128208 0.198615 0.089553 255 220 0
0.171155 0.161868 0.053162 255 220 0
0.093500 0.184377 0.074167 255 220 0
0.146726 0.127984 0.104708 255 220 0
0.202157 0.069562 0.037686 255 220 0
0.131906 0.145572 0.041898 255 220 0
0.170661 0.087913 0.091906 255 220 0
0.129750 0.197763 0.091365 255 220 0
0.170974 0.164817 0.056385 255 220 0
0.109413 0.131315 0.053894 255 220 0
0.142709 0.192772 0.083468 255 220 0
0.190465 0.117564 0.030160 255 220 0
0.186939 0.110184 0.023546 255 220 0
0.105311 0.172245 0.100679 255 220 0
0.138060 0.138017 0.036028 255 220 0
0.186147 0.093431 0.085720 255 220 0
0.196045 0.117975 0.036644 255 220 0
0.157924 0.107295 0.100330 255 220 0
0.171593 0.044144 0.026556 255 220 0
0.176397 0.140510 0.037470 255 220 0
0.143128 0.183283 0.099152 255 220 0
0.173971 0.103703 0.095803 255 220 0
0.145421 0.120690 0.103109 255 220 0
0.178634 0.095450 0.091307 255 220 0
0.117911 0.098975 0.080600 255 220 0
0.201807 0.099544 0.038466 255 220 0
0.178637 0.050961 0.060464 255 220 0
0.121131 0.105934 0.036359 255 220 0
0.131058 0.072479 0.029608 255 220 0
0.167492 0.157655 0.047162 255 220 0
0.170593 0.052729 0.065274 255 220 0
0.118091 0.180785 0.104322 255 220 0
0.199194 0.097535 0.070309 255 220 0
0.198905 0.079996 0.025152 255 220 0
0.122970 0.199815 0.086149 255 220 0
0.160343 0.075098 0.086454 255 220 0
0.133895 0.154295 0.045665 255 220 0
0.198726 0.121351 0.068343 255 220 0
0.169690 0.156905 0.047514 255 220 0
0.202592 0.109031 0.047237 255 220 0
0.120423 0.161446 0.053605 255 220 0
0.160795 0.166616 0.052722 255 220 0
0.143182 0.187010 0.070400 255 220 0
0.185588 0.105875 0.088971 255 220 0
0.125099 0.185387 0.065092 255 220 0
0.174679 0.062818 0.074362 255 220 0
0.189415 0.113674 0.085723 255 220 0
0.179760 0.143658 0.041653 255 220 0
0.123373 0.129528 0.098394 255 220 0
0.110745 0.161789 0.101708 255 220 0
0.128261 0.094946 0.086811 255 220 0
0.176592 0.104167 0.016169 255 220 0
0.182792 0.136562 0.089048 255 220 0
0.104766 0.126464 0.065867 255 220 0
0.157039 0.133270 0.028959 255 220 0
0.157706 0.044835 0.032980 255 220 0
0.151755 0.187728 0.085030 255 220 0
0.167116 0.135823 0.101277 255 220 0
0.145876 0.153724 0.106658 255 220 0
0.194672 0.133431 0.049894 255 220 0
0.105164 0.135501 0.061835 255 220 0
0.189301 0.063861 0.066640 255 220 0
0.137989 0.150975 0.042744 255 220 0
0.177553 0.056237 0.067048 255 220 0
0.137927 0.074865 0.022195 255 220 0
0.180188 0.104759 0.017563 255 220 0
0.202621 0.076647 0.050336 255 220 0
0.128151 0.152181 0.046492 255 220 0
0.201898 0.105344 0.063771 255 220 0
0.191718 0.098007 0.081684 255 220 0
0.168717 0.042126 0.046360 255 220 0
0.182241 0.091793 0.013570 255 220 0
0.195114 0.068184 0.062531 255 220 0
0.187508 0.097519 0.017934 255 220 0
0.121718 0.137218 0.044162 255 220 0
0.189880 0.075853 0.015581 255 220 0
0.199115 0.124167 0.063434 255 220 0
0.162832 0.104785 0.015393 255 220 0
0.197758 0.116639 0.073003 255 220 0
0.128422 0.064054 0.054130 255 220 0
0.194528 0.099118 0.024813 255 220 0
0.157847 0.107724 0.100447 255 220 0
0.154645 0.079334 0.088762 255 220 0
0.157075 0.106194 0.017109 255 220 0
0.161312 0.104039 0.099155 255 220 0
0.181904 0.073550 0.011953 255 220 0
0.119708 0.114620 0.090043 255 220 0
0.165434 0.123432 0.023734 255 220 0
0.118654 0.095235 0.078957 255 220 0
0.107941 0.106719 0.062260 255 220 0
0.176046 0.053902 0.065100 255 220 0
0.132021 0.160600 0.049518 255 220 0
0.181024 0.141112 0.089617 255 220 0
0.133663 0.125454 0.032673 255 220 0
0.156070 0.096573 0.014193 255 220 0
0.193242 0.136024 0.049340 255 220 0
0.122936 0.159804 0.051898 255 220 0
0.120935 0.198649 0.093493 255 220 0
0.170551 0.116665 0.099151 255 220 0
0.192681 0.077018 0.072486 255 220 0
0.151321 0.110844 0.101223 255 220 0
0.131138 0.177203 0.105112 255 220 0
0.171324 0.041377 0.043230 255 220 0
0.192697 0.140779 0.054102 255 220 0
0.151830 0.052518 0.061657 255 220 0
0.092186 0.179432 0.090287 255 220 0
0.148881 0.128940 0.104893 255 220 0
0.164061 0.129843 0.102428 255 220 0
0.142679 0.050872 0.038916 255 220 0
0.203531 0.100593 0.055899 255 220 0
0.138450 0.076333 0.021455 255 220 0
0.137721 0.143555 0.106373 255 220 0
0.185642 0.144419 0.046622 255 220 0
0.114472 0.113016 0.044535 255 220 0
0.146989 0.064607 0.075369 255 220 0
0.157271 0.043570 0.042501 255 220 0
0.195337 0.062256 0.024484 255 220 0
0.195727 0.085130 0.021275 255 220 0
0.109770 0.151538 0.057156 255 220 0
0.174850 0.166277 0.062194 255 220 0
0.099579 0.173630 0.097153 255 220 0
0.139360 0.053673 0.038758 255 220 0
0.174298 0.068635 0.079394 255 220 0
0.156047 0.144398 0.035412 255 220 0
0.179582 0.048229 0.056212 255 220 0
0.191860 0.094592 0.080663 255 220 0
0.136357 0.108047 0.096707 255 220 0
0.141564 0.053216 0.053374 255 220 0
0.101019 0.150359 0.086423 255 220 0
0.113999 0.176650 0.061975 255 220 0
0.100513 0.153631 0.068111 255 220 0
0.195431 0.120721 0.076461 255 220 0
0.203914 0.096747 0.050263 255 220 0
0.181028 0.069080 0.077147 255 220 0
0.112339 0.172388 0.060847 255 220 0
0.170379 0.047986 0.021346 255 220 0
0.162029 0.178770 0.085694 255 220 0
0.153510 0.172448 0.099344 255 220 0
0.155788 0.103704 0.016551 255 220 0
0.139272 0.176509 0.103824 255 220 0
0.177364 0.119556 0.095606 255 220 0
0.186426 0.123316 0.030562 255 220 0
0.138519 0.111788 0.025358 255 220 0
0.099493 0.196859 0.081136 255 220 0
0.147419 0.111744 0.021764 255 220 0
0.146492 0.150625 0.040441 255 220 0
0.199158 0.060295 0.038023 255 220 0
0.125148 0.144427 0.044609 255 220 0
0.108889 0.138012 0.055741 255 220 0
0.099279 0.191594 0.093800 255 220 0
0.203965 0.092102 0.049418 255 220 0
0.106732 0.143519 0.059325 255 220 0
0.175550 0.107252 0.095738 255 220 0
0.147399 0.084628 0.015508 255 220 0
0.164589 0.097930 0.012859 255 220 0
0.202159 0.091986 0.060970 255 220 0
0.138992 0.082183 0.085674 255 220 0
0.122798 0.141499 0.044928 255 220 0
0.198983 0.060110 0.041962 255 220 0
0.196349 0.103828 0.029390 255 220 0
0.188151 0.051881 0.054103 255 220 0
0.150733 0.088855 0.014374 255 220 0
0.197599 0.077330 0.064855 255 220 0
0.180265 0.139312 0.090975 255 220 0
0.124363 0.154671 0.105521 255 220 0
0.194942 0.085138 0.020346 255 220 0
0.107877 0.115436 0.055921 255 220 0
0.125690 0.167219 0.054454 255 220 0
0.193597 0.141131 0.067069 255 220 0
0.172666 0.122235 0.098412 255 220 0
0.200228 0.103267 0.068755 255 220 0
0.116719 0.086113 0.066428 255 220 0
0.183200 0.118035 0.091349 255 220 0
0.146738 0.097695 0.096108 255 220 0
0.153649 0.129181 0.027434 255 220 0
0.144450 0.145166 0.037817 255 220 0
0.201271 0.087648 0.032056 255 220 0
0.201760 0.075766 0.031861 255 220 0
0.153585 0.049136 0.057060 255 220 0
0.102237 0.143317 0.082365 255 220 0
0.179515 0.142539 0.040605 255 220 0
0.200687 0.070817 0.030103 255 220 0
0.169744 0.081435 0.089275 255 220 0
0.185270 0.052686 0.021051 255 220 0
0.187816 0.116752 0.027653 255 220 0
0.126374 0.065742 0.050565 255 220 0
0.177130 0.060849 0.071719 255 220 0
0.201462 0.087351 0.061314 255 220 0
0.131021 0.105690 0.093342 255 220 0
0.103392 0.134411 0.069506 255 220 0
0.114845 0.177806 0.104333 255 220 0
0.143446 0.135273 0.105678 255 220 0
0.121220 0.125389 0.040774 255 220 0
0.182950 0.156168 0.079144 255 220 0
0.164800 0.067104 0.011853 255 220 0
0.189917 0.110435 0.025856 255 220 0
0.093573 0.191611 0.081638 255 220 0
0.133593 0.180434 0.103650 255 220 0
0.145613 0.141374 0.106412 255 220 0
0.137959 0.153002 0.107140 255 220 0
0.098575 0.152713 0.080521 255 220 0
0.119147 0.083328 0.068273 255 220 0
0.103883 0.198864 0.082161 255 220 0
0.129619 0.105311 0.029074 255 220 0
0.191672 0.050988 0.030270 255 220 0
0.136291 0.105929 0.095893 255 220 0
0.140574 0.166347 0.051157 255 220 0
0.127131 0.071197 0.035963 255 220 0
0.146090 0.145250 0.106623 255 220 0
0.186186 0.127889 0.033387 255 220 0
0.117637 0.157456 0.053499 255 220 0
0.146297 0.171480 0.054253 255 220 0
0.108600 0.108643 0.055564 255 220 0
0.118650 0.104650 0.038831 255 220 0
0.143198 0.100720 0.019924 255 220 0
0.153692 0.177104 0.096449 255 220 0
0.203343 0.079165 0.038924 255 220 0
0.140015 0.083804 0.019557 255 220 0
0.198849 0.122670 0.047772 255 220 0
0.138541 0.163281 0.049659 255 220 0
0.197372 0.111319 0.074808 255 220 0
0.197728 0.059833 0.031546 255 220 0
0.178894 0.163364 0.078702 255 220 0
0.119806 0.199859 0.082957 255 220 0
0.147141 0.089920 0.092822 255 220 0
0.098452 0.156949 0.086703 255 220 0
0.159230 0.152665 0.040937 255 220 0
0.200966 0.118449 0.060102 255 220 0
0.105056 0.173730 0.100713 255 220 0
0.178958 0.074356 0.081967 255 220 0
0.172812 0.158565 0.050767 255 220 0
0.190435 0.143990 0.074305 255 220 0
0.175431 0.128198 0.028605 255 220 0
0.111175 0.172917 0.061439 255 220 0
0.148016 0.111342 0.101023 255 220 0
0.169659 0.116550 0.099512 255 220 0
0.098151 0.194630 0.076947 255 220 0
0.157917 0.087300 0.011746 255 220 0
0.188715 0.105178 0.022255 255 220 0
0.181764 0.131324 0.033258 255 220 0
0.117863 0.100647 0.039610 255 220 0
0.146213 0.106811 0.099341 255 220 0
0.180924 0.124833 0.028587 255 220 0
0.131189 0.139816 0.104538 255 220 0
0.136613 0.090432 0.089132 255 220 0
0.179423 0.161895 0.079596 255 220 0
0.136977 0.074345 0.078888 255 220 0
0.101165 0.156033 0.091090 255 220 0
0.144467 0.125435 0.028274 255 220 0
0.151015 0.054224 0.063843 255 220 0
0.178555 0.156921 0.053110 255 220 0
0.137860 0.115273 0.026857 255 220 0
0.179518 0.059439 0.069405 255 220 0
0.184983 0.047763 0.051361 255 220 0
0.158492 0.158978 0.101954 255 220 0
0.135784 0.056302 0.042500 255 220 0
0.161936 0.151266 0.102122 255 220 0
0.119423 0.080006 0.063830 255 220 0
0.200912 0.106043 0.039054 255 220 0
0.200368 0.098291 0.034106 255 220 0
0.149071 0.077932 0.014972 255 220 0
0.152242 0.056491 0.067691 255 220 0
0.201115 0.116382 0.062163 255 220 0
0.163679 0.078017 0.088240 255 220 0
0.175882 0.097492 0.013491 255 220 0
0.127683 0.066200 0.040942 255 220 0
0.159496 0.047380 0.056600 255 220 0
0.201639 0.086994 0.032880 255 220 0
0.165024 0.170196 0.090972 255 220 0
0.124375 0.069173 0.055757 255 220 0
0.109979 0.106540 0.052338 255 220 0
0.123018 0.183406 0.063942 255 220 0
0.116525 0.086907 0.045587 255 220 0
0.112243 0.092648 0.058178 255 220 0
0.202720 0.097776 0.040915 255 220 0
0.186000 0.044886 0.034511 255 220 0
0.118800 0.184991 0.103105 255 220 0
0.170542 0.146341 0.097783 255 220 0
0.162062 0.150979 0.040225 255 220 0
0.123033 0.146349 0.103385 255 220 0
0.173987 0.141117 0.096291 255 220 0
0.131020 0.133469 0.037108 255 220 0
0.108455 0.125253 0.082154 255 220 0
0.168255 0.060076 0.013951 255 220 0
0.202938 0.100750 0.043290 255 220 0
0.164988 0.109473 0.017034 255 220 0
0.126138 0.080797 0.075577 255 220 0
0.177923 0.136945 0.035501 255 220 0
0.113483 0.134783 0.050027 255 220 0
0.161847 0.070407 0.011603 255 220 0
0.148275 0.071487 0.082300 255 220 0
0.183336 0.120844 0.091089 255 220 0
0.127537 0.091541 0.029116 255 220 0
0.136965 0.105056 0.095828 255 220 0
0.178307 0.134914 0.093790 255 220 0
0.188500 0.147617 0.075613 255 220 0
0.198618 0.090839 0.027322 255 220 0
0.196069 0.098425 0.026461 255 220 0
0.199953 0.120477 0.063921 255 220 0
0.188714 0.046871 0.043825 255 220 0
0.139033 0.069764 0.076028 255 220 0
0.184283 0.044494 0.045291 255 220 0
0.136964 0.132077 0.033791 255 220 0
0.102588 0.147729 0.065785 255 220 0
0.113276 0.193035 0.098756 255 220 0
0.142401 0.105308 0.097866 255 220 0
0.132588 0.137273 0.037891 255 220 0
0.117320 0.094991 0.040880 255 220 0
0.126067 0.094070 0.084898 255 220 0
0.094076 0.167425 0.086561 255 220 0
0.104050 0.155228 0.062737 255 220 0
0.193900 0.135712 0.050709 255 220 0
0.196340 0.084530 0.021935 255 220 0
0.195733 0.117305 0.035755 255 220 0
0.143643 0.174815 0.056885 255 220 0
0.140079 0.169768 0.105576 255 220 0
0.156225 0.048609 0.057474 255 220 0
0.147695 0.075204 0.084811 255 220 0
0.170053 0.164638 0.055525 255 220 0
0.127279 0.182617 0.103706 255 220 0
0.155377 0.093172 0.095541 255 220 0
0.152677 0.140046 0.033184 255 220 0
0.128517 0.177236 0.105339 255 220 0
0.184168 0.128639 0.032659 255 220 0
0.130615 0.138029 0.039138 255 220 0
0.113646 0.122740 0.047079 255 220 0
0.110907 0.104193 0.050722 255 220 0
0.159196 0.174467 0.093517 255 220 0
0.145213 0.175141 0.102427 255 220 0
0.112943 0.103607 0.076870 255 220 0
0.096888 0.194137 0.077940 255 220 0
0.152833 0.084271 0.091229 255 220 0
0.140167 0.133793 0.033363 255 220 0
0.127483 0.107679 0.031224 255 220 0
0.108376 0.169013 0.101879 255 220 0
0.171464 0.046456 0.056331 255 220 0
0.181047 0.057575 0.066809 255 220 0
0.154966 0.050402 0.024937 255 220 0
0.113254 0.134430 0.050161 255 220 0
0.105567 0.129111 0.061160 255 220 0
0.197911 0.064710 0.027231 255 220 0
0.201413 0.116674 0.050938 255 220 0
0.096200 0.176517 0.094834 255 220 0
0.144190 0.056350 0.062456 255 220 0
0.190513 0.051907 0.050859 255 220 0
0.154522 0.106919 0.100285 255 220 0
0.127849 0.092612 0.085281 255 220 0
0.141493 0.174055 0.104082 255 220 0
0.106992 0.189918 0.099219 255 220 0
0.175681 0.041149 0.039260 255 220 0
0.137957 0.185855 0.066702 255 220 0
0.139621 0.054182 0.052379 255 220 0
0.189716 0.089350 0.081264 255 220 0
0.094550 0.164582 0.083968 255 220 0
0.118774 0.105064 0.038729 255 220 0
0.133819 0.165505 0.051858 255 220 0
0.150202 0.179266 0.097609 255 220 0
0.186336 0.108051 0.088538 255 220 0
0.178653 0.049037 0.021160 255 220 0
0.145661 0.095945 0.095115 255 220 0
0.117999 0.190656 0.068509 255 220 0
0.203704 0.102081 0.050908 255 220 0
0.148621 0.075607 0.085353 255 220 0
0.135935 0.129612 0.103368 255 220 0
0.118714 0.176033 0.060562 255 220 0
0.118539 0.120145 0.041595 255 220 0
0.166350 0.117044 0.100725 255 220 0
0.112435 0.179323 0.103560 255 220 0
0.106903 0.118176 0.058390 255 220 0
0.095193 0.162005 0.079532 255 220 0
0.113086 0.127568 0.090063 255 220 0
0.115714 0.122407 0.090147 255 220 0
0.105380 0.123657 0.063338 255 220 0
0.198177 0.083025 0.067007 255 220 0
0.150645 0.106679 0.018964 255 220 0
0.190262 0.134057 0.042047 255 220 0
0.121820 0.136595 0.100004 255 220 0
0.161925 0.135107 0.030003 255 220 0
0.136707 0.062151 0.064553 255 220 0
0.185803 0.075416 0.013327 255 220 0
0.139081 0.120571 0.028238 255 220 0
0.198709 0.126505 0.059348 255 220 0
0.181642 0.152286 0.050743 255 220 0
0.124205 0.071050 0.041970 255 220 0
0.193552 0.127942 0.040997 255 220 0
0.136726 0.195169 0.082762 255 220 0
0.097453 0.161109 0.088441 255 220 0
0.191149 0.100321 0.021886 255 220 0
0.181756 0.114983 0.092543 255 220 0
0.173226 0.106776 0.096747 255 220 0
0.169048 0.055292 0.068484 255 220 0
0.182561 0.140736 0.040978 255 220 0
0.107308 0.119815 0.056972 255 220 0
0.134275 0.095619 0.090522 255 220 0
0.105744 0.193984 0.071769 255 220 0
0.141439 0.181473 0.062752 255 220 0
0.200449 0.063892 0.036488 255 220 0
0.134142 0.110665 0.027416 255 220 0
0.170199 0.047040 0.057439 255 220 0
0.108426 0.158310 0.059256 255 220 0
0.123416 0.141666 0.044592 255 220 0
0.129452 0.188395 0.100467 255 220 0
0.196861 0.131120 0.065845 255 220 0
0.160306 0.081471 0.010786 255 220 0
0.104884 0.138587 0.062337 255 220 0
0.127033 0.170797 0.106490 255 220 0
0.199224 0.107675 0.071223 255 220 0
0.202628 0.071520 0.039321 255 220 0
0.176960 0.090233 0.090353 255 220 0
0.199622 0.096050 0.031473 255 220 0
0.150390 0.139746 0.105960 255 220 0
0.185092 0.044033 0.041320 255 220 0
0.102622 0.149168 0.088674 255 220 0
0.173828 0.147202 0.041440 255 220 0
0.169649 0.109156 0.098555 255 220 0
0.129087 0.103604 0.029132 255 220 0
0.114965 0.085947 0.056209 255 220 0
0.183607 0.156703 0.058774 255 220 0
0.167882 0.059193 0.014356 255 220 0
0.172460 0.140510 0.035860 255 220 0
0.120238 0.078713 0.043122 255 220 0
0.159948 0.044440 0.031961 255 220 0
0.162629 0.139768 0.103123 255 220 0
0.175474 0.142006 0.038182 255 220 0
0.140154 0.103460 0.022095 255 220 0
0.183183 0.051783 0.058707 255 220 0
0.180379 0.160770 0.079130 255 220 0
0.193956 0.140720 0.059835 255 220 0
0.105202 0.178470 0.065229 255 220 0
0.093818 0.170018 0.088508 255 220 0
0.192831 0.085411 0.076407 255 220 0
0.134057 0.138355 0.037716 255 220 0
0.147641 0.145890 0.037444 255 220 0
0.199553 0.123306 0.061700 255 220 0
0.127438 0.099174 0.088415 255 220 0
0.201864 0.098256 0.038085 255 220 0
0.181612 0.096998 0.014978 255 220 0
0.135630 0.067229 0.027344 255 220 0
0.192042 0.137186 0.075503 255 220 0
0.122155 0.191846 0.099354 255 220 0
0.098549 0.153116 0.074836 255 220 0
0.152263 0.072529 0.084084 255 220 0
0.175748 0.130056 0.096366 255 220 0
0.160276 0.042790 0.040902 255 220 0
0.197296 0.104907 0.075010 255 220 0
0.114614 0.093319 0.070842 255 220 0
0.165230 0.068734 0.081426 255 220 0
0.131040 0.127028 0.034677 255 220 0
0.099697 0.153287 0.086040 255 220 0
0.139803 0.189517 0.096368 255 220 0
0.149634 0.066731 0.017131 255 220 0
0.193358 0.098488 0.023183 255 220 0
0.135330 0.080835 0.023044 255 220 0
0.111395 0.101371 0.071800 255 220 0
0.130722 0.072515 0.072004 255 220 0
0.124458 0.074786 0.066720 255 220 0
0.167444 0.129067 0.027166 255 220 0
0.175228 0.166657 0.063411 255 220 0
0.141160 0.193198 0.090759 255 220 0
0.144314 0.174836 0.056932 255 220 0
0.200069 0.075604 0.027415 255 220 0
0.117389 0.197397 0.095285 255 220 0
0.202401 0.107228 0.061311 255 220 0
0.188493 0.120156 0.086181 255 220 0
0.189150 0.080522 0.078304 255 220 0
0.159581 0.081934 0.090591 255 220 0
0.143549 0.114362 0.024062 255 220 0
0.153357 0.134448 0.105235 255 220 0
0.195412 0.073326 0.020524 255 220 0
0.146299 0.111663 0.022096 255 220 0
0.193383 0.103448 0.080685 255 220 0
0.120281 0.171332 0.105838 255 220 0
0.191522 0.048719 0.039913 255 220 0
0.110033 0.151685 0.098075 255 220 0
0.184330 0.139205 0.086412 255 220 0
0.135358 0.102104 0.024474 255 220 0
0.203677 0.084652 0.049764 255 220 0
0.201321 0.117773 0.057365 255 220 0
0.139217 0.164429 0.050222 255 220 0
0.123765 0.087651 0.078862 255 220 0
0.108614 0.149660 0.057878 255 220 0
0.100287 0.192772 0.093485 255 220 0
0.111708 0.186597 0.066614 255 220 0
0.161493 0.050411 0.021390 255 220 0
0.181683 0.073668 0.080141 255 220 0
0.202387 0.097022 0.039298 255 220 0
0.195783 0.074159 0.066063 255 220 0
0.117177 0.158910 0.103990 255 220 0
0.128513 0.112507 0.094758 255 220 0
0.176682 0.041849 0.044388 255 220 0
0.185050 0.101484 0.018244 255 220 0
0.109108 0.189710 0.099944 255 220 0
0.104993 0.191864 0.070252 255 220 0
0.137033 0.158467 0.047186 255 220 0
0.170826 0.101308 0.096408 255 220 0
0.142396 0.181557 0.063049 255 220 0
0.200584 0.066070 0.033355 255 220 0
0.154607 0.072020 0.084047 255 220 0
0.167239 0.074764 0.009997 255 220 0
0.161995 0.081383 0.010407 255 220 0
0.184569 0.114798 0.090278 255 220 0
0.143844 0.052924 0.055892 255 220 0
0.156809 0.056633 0.069560 255 220 0
0.180020 0.137418 0.091708 255 220 0
0.150463 0.080188 0.088578 255 220 0
0.172897 0.076558 0.085678 255 220 0
0.165943 0.165639 0.054161 255 220 0
0.189055 0.109647 0.086071 255 220 0
0.163138 0.051813 0.019501 255 220 0
0.152117 0.123839 0.103998 255 220 0
0.136536 0.195850 0.086478 255 220 0
0.147261 0.091312 0.016159 255 220 0
0.109664 0.105628 0.053484 255 220 0
0.136003 0.154704 0.045331 255 220 0
0.134448 0.194524 0.078426 255 220 0
0.136032 0.064435 0.028765 255 220 0
0.192892 0.107311 0.026977 255 220 0
0.201967 0.113436 0.048885 255 220 0
0.160477 0.169097 0.055210 255 220 0
0.123151 0.089942 0.033816 255 220 0
0.126232 0.095376 0.085730 255 220 0
0.171484 0.170491 0.082408 255 220 0
0.166691 0.169192 0.089984 255 220 0
0.168018 0.056998 0.015351 255 220 0
0.196688 0.060876 0.051834 255 220 0
0.185074 0.063145 0.069761 255 220 0
0.152765 0.045988 0.035195 255 220 0
0.110560 0.135156 0.091172 255 220 0
0.113409 0.092534 0.050212 255 220 0
0.119006 0.173158 0.105537 255 220 0
0.136654 0.191726 0.095931 255 220 0
0.104970 0.199256 0.084586 255 220 0
0.122006 0.077912 0.066608 255 220 0
0.099579 0.169639 0.096015 255 220 0
0.148253 0.180956 0.097786 255 220 0
0.170578 0.146433 0.097734 255 220 0
0.189192 0.113732 0.027022 255 220 0
0.112697 0.103104 0.076067 255 220 0
0.196809 0.095279 0.026125 255 220 0
0.158328 0.056163 0.018179 255 220 0
0.192327 0.051069 0.045974 255 220 0
0.146748 0.190728 0.083416 255 220 0
0.150209 0.101962 0.098365 255 220 0
0.098480 0.173973 0.068290 255 220 0
0.126271 0.067326 0.057145 255 220 0
0.105167 0.195533 0.093660 255 220 0
0.112923 0.139868 0.051853 255 220 0
0.153387 0.089900 0.093978 255 220 0
0.145053 0.067074 0.076978 255 220 0
0.129751 0.175726 0.058560 255 220 0
0.197467 0.126836 0.049385 255 220 0
0.177867 0.045118 0.052044 255 220 0
0.134942 0.074821 0.024648 255 220 0
0.179504 0.130932 0.031936 255 220 0
0.172318 0.073493 0.010103 255 220 0
0.148210 0.057628 0.022624 255 220 0
0.149578 0.166848 0.050714 255 220 0
0.136209 0.055904 0.042445 255 220 0
0.136297 0.098239 0.092699 255 220 0
0.192879 0.139590 0.071828 255 220 0
0.173042 0.044270 0.026256 255 220 0
0.119780 0.076747 0.047488 255 220 0
0.141310 0.053077 0.052534 255 220 0
0.133411 0.167599 0.106738 255 220 0
0.148422 0.098569 0.017192 255 220 0
0.123255 0.105876 0.034379 255 220 0
0.147818 0.099803 0.097170 255 220 0
0.173877 0.073764 0.083470 255 220 0
0.161518 0.144510 0.035763 255 220 0
0.185191 0.140278 0.042505 255 220 0
0.121284 0.189489 0.100901 255 220 0
0.174273 0.043190 0.049461 255 220 0
0.144546 0.068349 0.077981 255 220 0
0.167543 0.076047 0.086525 255 220 0
0.144964 0.055929 0.026672 255 220 0
0.173294 0.099811 0.095118 255 220 0
0.152111 0.142831 0.034847 255 220 0
0.138813 0.174581 0.056799 255 220 0
0.168868 0.117880 0.021217 255 220 0
0.197549 0.099116 0.029021 255 220 0
0.166170 0.041901 0.043938 255 220 0
0.200735 0.097927 0.034836 255 220 0
0.182144 0.149787 0.084648 255 220 0
0.166099 0.086749 0.092430 255 220 0
0.111975 0.120021 0.048646 255 220 0
0.114534 0.124948 0.046574 255 220 0
0.168722 0.106299 0.098276 255 220 0
0.175076 0.155066 0.048743 255 220 0
0.139544 0.067236 0.073689 255 220 0
0.112423 0.159940 0.102114 255 220 0
0.172627 0.061232 0.013435 255 220 0
0.183942 0.051144 0.021520 255 220 0
0.133681 0.124827 0.101328 255 220 0
0.100198 0.196163 0.077506 255 220 0
0.160397 0.162184 0.099618 255 220 0
0.151013 0.074430 0.085149 255 220 0
0.129050 0.085510 0.027999 255 220 0
0.122025 0.101160 0.034943 255 220 0
0.161737 0.107900 0.016723 255 220 0
0.201360 0.086337 0.061119 255 220 0
0.155253 0.159911 0.045714 255 220 0
0.201602 0.067145 0.042335 255 220 0
0.119269 0.091382 0.038686 255 220 0
0.108845 0.180180 0.064596 255 220 0
0.101538 0.194693 0.074037 255 220 0
0.123763 0.124614 0.096774 255 220 0
0.188740 0.060063 0.063336 255 220 0
0.189075 0.070371 0.072304 255 220 0
0.193548 0.071165 0.019037 255 220 0
0.186132 0.120509 0.088578 255 220 0
0.145304 0.051040 0.032939 255 220 0
0.149860 0.096369 0.096208 255 220 0
0.173199 0.171320 0.073827 255 220 0
0.181881 0.111595 0.092343 255 220 0
0.142142 0.066857 0.075044 255 220 0
0.160366 0.180631 0.073782 255 220 0
0.173594 0.138772 0.035044 255 220 0
0.101750 0.159895 0.094031 255 220 0
0.136157 0.175077 0.104987 255 220 0
0.179832 0.051644 0.060721 255 220 0
0.103031 0.148183 0.064804 255 220 0
0.130931 0.197909 0.087612 255 220 0
0.201020 0.106696 0.066561 255 220 0
0.163189 0.121945 0.102139 255 220 0
0.094163 0.180001 0.072671 255 220 0
0.129009 0.068683 0.035070 255 220 0
0.180723 0.156362 0.082553 255 220 0
0.106809 0.140489 0.089482 255 220 0
0.120882 0.167239 0.055846 255 220 0
0.179137 0.130447 0.031448 255 220 0
0.133491 0.103082 0.093483 255 220 0
0.134438 0.074096 0.025340 255 220 0
0.199128 0.060411 0.036858 255 220 0
0.112738 0.187652 0.101523 255 220 0
0.135392 0.064591 0.066785 255 220 0
0.128635 0.158023 0.049085 255 220 0
0.122207 0.151251 0.048874 255 220 0
0.114046 0.153473 0.054462 255 220 0
0.172834 0.171475 0.076544 255 220 0
0.130183 0.160148 0.049714 255 220 0
0.108204 0.126735 0.055189 255 220 0
0.166042 0.133386 0.029502 255 220 0
0.174481 0.092892 0.011844 255 220 0
0.138917 0.056307 0.033609 255 220 0
0.142584 0.193124 0.085858 255 220 0
0.093956 0.170362 0.074310 255 220 0
0.174861 0.100389 0.014286 255 220 0
0.165783 0.128803 0.101748 255 220 0
0.177408 0.077302 0.084484 255 220 0
0.103256 0.135543 0.069065 255 220 0
0.132546 0.095565 0.089599 255 220 0
0.203052 0.074389 0.039466 255 220 0
0.138307 0.131401 0.104337 255 220 0
0.200388 0.120968 0.054074 255 220 0
0.094086 0.165008 0.080903 255 220 0
0.188902 0.081212 0.014925 255 220 0
0.111976 0.134365 0.051437 255 220 0
0.196088 0.110853 0.077113 255 220 0
0.184924 0.043982 0.036298 255 220 0
0.153919 0.180487 0.066725 255 220 0
0.093052 0.185526 0.075204 255 220 0
0.118072 0.141684 0.048210 255 220 0
0.197927 0.104535 0.073833 255 220 0
0.120435 0.078285 0.063597 255 220 0
0.106707 0.195282 0.072866 255 220 0
0.199802 0.112416 0.040013 255 220 0
0.106852 0.121967 0.075910 255 220 0
0.187942 0.153012 0.062661 255 220 0
0.151343 0.142796 0.034953 255 220 0
0.128328 0.135696 0.039422 255 220 0
0.185023 0.156862 0.073323 255 220 0
0.189266 0.144733 0.051489 255 220 0
0.113151 0.112533 0.082461 255 220 0
0.123970 0.127542 0.039373 255 220 0
0.095323 0.161773 0.081442 255 220 0
0.149892 0.063052 0.074966 255 220 0
0.094779 0.186236 0.073226 255 220 0
0.193631 0.084362 0.018845 255 220 0
0.191767 0.058184 0.057342 255 220 0
0.159377 0.099149 0.097780 255 220 0
0.141286 0.093806 0.019506 255 220 0
0.104022 0.130675 0.068974 255 220 0
0.162751 0.177824 0.086009 255 220 0
0.112374 0.116031 0.047619 255 220 0
0.173383 0.073106 0.083143 255 220 0
0.178446 0.063904 0.074005 255 220 0
0.158669 0.091980 0.095145 255 220 0
0.203833 0.099460 0.050954 255 220 0
0.103752 0.133773 0.075725 255 220 0
0.111046 0.102121 0.071648 255 220 0
0.131260 0.110913 0.029293 255 220 0
0.190208 0.086588 0.016380 255 220 0
0.183181 0.063368 0.071215 255 220 0
0.195364 0.137103 0.062508 255 220 0
0.163695 0.048045 0.023077 255 220 0
0.164512 0.059804 0.073757 255 220 0
0.090648 0.176496 0.083699 255 220 0
0.095276 0.179430 0.094386 255 220 0
0.197769 0.067847 0.057180 255 220 0
0.093099 0.167776 0.080632 255 220 0
0.193801 0.072789 0.068243 255 220 0
0.122732 0.090045 0.034310 255 220 0
0.155928 0.128154 0.026489 255 220 0
0.164258 0.085686 0.092218 255 220 0
0.118883 0.105418 0.085196 255 220 0
0.200526 0.072629 0.054618 255 220 0
0.183692 0.066650 0.073728 255 220 0
0.153117 0.079713 0.088782 255 220 0
0.199011 0.080507 0.063870 255 220 0
0.158890 0.182797 0.079863 255 220 0
0.127249 0.171604 0.056495 255 220 0
0.185594 0.150950 0.078699 255 220 0
0.120181 0.131476 0.043405 255 220 0
0.095031 0.175082 0.093177 255 220 0
0.134335 0.087709 0.023409 255 220 0
0.119431 0.089007 0.039051 255 220 0
0.141081 0.156837 0.107004 255 220 0
0.134575 0.189074 0.069487 255 220 0
0.193650 0.121040 0.035484 255 220 0
0.155770 0.159129 0.103255 255 220 0
0.113833 0.145359 0.098389 255 220 0
0.120541 0.090566 0.077704 255 220 0
0.109548 0.130104 0.087108 255 220 0
0.114838 0.104723 0.080425 255 220 0
0.147296 0.183497 0.067314 255 220 0
0.154382 0.146794 0.105393 255 220 0
0.137558 0.098985 0.093574 255 220 0
0.190432 0.120861 0.083838 255 220 0
0.106055 0.126080 0.060003 255 220 0
0.167228 0.117923 0.021043 255 220 0
0.158698 0.053219 0.020126 255 220 0
0.137981 0.057643 0.033130 255 220 0
0.189994 0.106614 0.023963 255 220 0
0.160390 0.181409 0.076907 255 220 0
0.193266 0.110148 0.081245 255 220 0
0.158700 0.162615 0.100550 255 220 0
0.165671 0.165342 0.093672 255 220 0
0.159404 0.063621 0.077554 255 220 0
0.170451 0.145731 0.038915 255 220 0
0.160006 0.043327 0.046235 255 220 0
0.168344 0.047826 0.058807 255 220 0
0.146604 0.188220 0.075008 255 220 0
0.098029 0.158365 0.071411 255 220 0
0.107808 0.107368 0.063817 255 220 0
0.170310 0.173150 0.070536 255 220 0
0.186359 0.155807 0.069949 255 220 0
0.127853 0.076223 0.031790 255 220 0
0.144397 0.104520 0.020435 255 220 0
0.149330 0.109035 0.100529 255 220 0
0.128608 0.138776 0.040470 255 220 0
0.176137 0.041192 0.038803 255 220 0
0.182139 0.157627 0.079236 255 220 0
0.124463 0.144571 0.103477 255 220 0
0.181498 0.149960 0.048303 255 220 0
0.162167 0.075480 0.086683 255 220 0
0.102388 0.148689 0.087880 255 220 0
0.162970 0.172125 0.091565 255 220 0
0.158852 0.136834 0.030882 255 220 0
0.141707 0.058338 0.027571 255 220 0
0.148416 0.068155 0.017302 255 220 0
0.107033 0.134681 0.086080 255 220 0
0.190542 0.138718 0.047035 255 220 0
0.167611 0.041574 0.037367 255 220 0
0.188936 0.135008 0.081846 255 220 0
0.141861 0.131634 0.104943 255 220 0
0.153688 0.176611 0.061120 255 220 0
0.125107 0.176465 0.105623 255 220 0
0.144934 0.191319 0.089777 255 220 0
0.200800 0.117592 0.048514 255 220 0
0.158393 0.180303 0.088987 255 220 0
0.173405 0.162030 0.054869 255 220 0
0.100782 0.153596 0.088692 255 220 0
0.107070 0.146384 0.059124 255 220 0
0.104932 0.125696 0.065139 255 220 0
0.138855 0.193098 0.093234 255 220 0
0.105383 0.122015 0.068924 255 220 0
0.183551 0.084732 0.012628 255 220 0
0.092389 0.169846 0.081457 255 220 0
0.180389 0.124907 0.028400 255 220 0
0.126289 0.199129 0.086334 255 220 0
0.150760 0.062232 0.074392 255 220 0
0.169730 0.172169 0.066747 255 220 0
0.168880 0.049445 0.020134 255 220 0
0.173182 0.152965 0.093222 255 220 0
0.186433 0.123127 0.030450 255 220 0
0.171400 0.074719 0.084840 255 220 0
0.193924 0.101783 0.079751 255 220 0
0.118324 0.079121 0.049854 255 220 0
0.144793 0.181946 0.099140 255 220 0
0.180138 0.048235 0.022496 255 220 0
0.123372 0.165497 0.106390 255 220 0
0.103547 0.149932 0.063698 255 220 0
0.195819 0.108579 0.077609 255 220 0
0.131395 0.102344 0.027172 255 220 0
0.136383 0.077051 0.080695 255 220 0
0.133993 0.090283 0.087701 255 220 0
0.150967 0.046679 0.048912 255 220 0
0.163500 0.170036 0.057924 255 220 0
0.145234 0.052851 0.030018 255 220 0
0.097677 0.191665 0.092277 255 220 0
0.201634 0.079446 0.031232 255 220 0
0.158321 0.083147 0.091186 255 220 0
0.173826 0.081444 0.088066 255 220 0
0.170230 0.056847 0.069897 255 220 0
0.118184 0.079173 0.055751 255 220 0
0.167330 0.043493 0.029301 255 220 0
0.147194 0.148856 0.106589 255 220 0
0.105852 0.187045 0.099948 255 220 0
0.190803 0.123218 0.033903 255 220 0
0.199503 0.102370 0.034040 255 220 0
0.140124 0.133658 0.105100 255 220 0
0.161158 0.064334 0.013469 255 220 0
0.164246 0.055597 0.016675 255 220 0
0.110772 0.181940 0.102704 255 220 0
0.177613 0.165535 0.065208 255 220 0
0.146420 0.077448 0.016334 255 220 0
0.109700 0.169840 0.061094 255 220 0
0.117434 0.084637 0.066067 255 220 0
0.136160 0.115837 0.099347 255 220 0
0.176377 0.083293 0.087867 255 220 0
0.166418 0.076097 0.086723 255 220 0
0.185034 0.147651 0.081705 255 220 0
0.156559 0.184130 0.078196 255 220 0
0.195741 0.124489 0.041481 255 220 0
0.189851 0.107576 0.024331 255 220 0
0.142078 0.077088 0.018853 255 220 0
0.170512 0.048427 0.059530 255 220 0
0.172747 0.150924 0.043893 255 220 0
0.151051 0.066271 0.016566 255 220 0
0.133278 0.191472 0.072171 255 220 0
0.198835 0.077595 0.062501 255 220 0
0.158617 0.163853 0.049445 255 220 0
0.110366 0.189079 0.067922 255 220 0
0.118450 0.195442 0.072607 255 220 0
0.111457 0.096129 0.054209 255 220 0
0.196170 0.118397 0.075742 255 220 0
0.203307 0.076001 0.041736 255 220 0
0.162395 0.097728 0.097062 255 220 0
0.110478 0.187578 0.101134 255 220 0
0.187938 0.061842 0.066082 255 220 0
0.131055 0.074444 0.074359 255 220 0
0.173053 0.134827 0.032142 255 220 0
0.111469 0.184880 0.102204 255 220 0
0.189977 0.110455 0.085142 255 220 0
0.167502 0.042229 0.046357 255 220 0
0.202860 0.072756 0.042593 255 220 0
0.167270 0.128755 0.026953 255 220 0
0.170689 0.173453 0.076898 255 220 0
0.181372 0.044797 0.028615 255 220 0
0.141989 0.084692 0.018365 255 220 0
0.090692 0.178790 0.086235 255 220 0
0.182550 0.047755 0.053527 255 220 0
0.185220 0.129039 0.033562 255 220 0
0.127108 0.197397 0.079782 255 220 0
0.143021 0.192076 0.081079 255 220 0
0.175846 0.055451 0.066862 255 220 0
0.138587 0.181940 0.062756 255 220 0
0.190000 0.061537 0.019168 255 220 0
0.192199 0.105845 0.082395 255 220 0
0.136933 0.161385 0.107063 255 220 0
0.180331 0.139559 0.038692 255 220 0
0.176765 0.105369 0.016740 255 220 0
0.172540 0.126753 0.098498 255 220 0
0.130590 0.103583 0.092222 255 220 0
0.165611 0.174496 0.086231 255 220 0
0.200125 0.088602 0.065451 255 220 0
0.116533 0.197881 0.075812 255 220 0
0.130669 0.093235 0.087391 255 220 0
0.129170 0.062910 0.052268 255 220 0
0.143866 0.126992 0.104294 255 220 0
0.136333 0.172643 0.105599 255 220 0
0.189855 0.093257 0.082399 255 220 0
0.175230 0.094705 0.012480 255 220 0
0.139263 0.134247 0.033876 255 220 0
0.117730 0.194078 0.071125 255 220 0
0.133082 0.169056 0.106585 255 220 0
0.199246 0.083944 0.026347 255 220 0
0.160182 0.170466 0.056633 255 220 0
0.166559 0.143698 0.100921 255 220 0
0.098493 0.158569 0.088371 255 220 0
0.099640 0.149316 0.074814 255 220 0
0.112028 0.099957 0.049503 255 220 0
0.172193 0.170777 0.067461 255 220 0
0.128936 0.074703 0.072540 255 220 0
0.104975 0.126879 0.064044 255 220 0
0.138389 0.190940 0.095852 255 220 0
0.120929 0.195808 0.073559 255 220 0
0.195519 0.059490 0.052602 255 220 0
0.123981 0.188852 0.067480 255 220 0
0.160023 0.081966 0.090609 255 220 0
0.168778 0.041330 0.040576 255 220 0
0.119351 0.085927 0.071804 255 220 0
0.099612 0.151390 0.071896 255 220 0
0.097227 0.164931 0.091009 255 220 0
0.092331 0.182316 0.075407 255 220 0
0.191073 0.050547 0.047662 255 220 0
0.175898 0.155433 0.089236 255 220 0
0.177766 0.122084 0.025689 255 220 0
0.191316 0.049994 0.031537 255 220 0
0.149484 0.131490 0.029574 255 220 0
0.200408 0.081663 0.061240 255 220 0
0.152142 0.148938 0.105810 255 220 0
0.159554 0.137504 0.104151 255 220 0
0.134168 0.189945 0.070434 255 220 0
0.196156 0.133748 0.057235 255 220 0
0.178498 0.061624 0.014030 255 220 0
0.139733 0.168040 0.105983 255 220 0
0.116533 0.110597 0.085428 255 220 0
0.150134 0.088300 0.092742 255 220 0
0.142042 0.121413 0.027377 255 220 0
0.125512 0.090995 0.082668 255 220 0
0.129898 0.064458 0.059102 255 220 0
0.108051 0.127442 0.055519 255 220 0
0.148958 0.088668 0.092670 255 220 0
0.148446 0.061546 0.072494 255 220 0
0.179695 0.116823 0.023414 255 220 0
0.112994 0.127492 0.048785 255 220 0
0.152907 0.058247 0.070323 255 220 0
0.189479 0.065709 0.068144 255 220 0
0.156242 0.137637 0.104954 255 220 0
0.174517 0.069967 0.080393 255 220 0
0.149764 0.069194 0.080939 255 220 0
0.192603 0.096199 0.021380 255 220 0
0.146862 0.084720 0.015769 255 220 0
0.178114 0.080694 0.010616 255 220 0
0.169949 0.114873 0.099240 255 220 0
0.105927 0.193871 0.071630 255 220 0
0.160086 0.064569 0.013671 255 220 0
0.151908 0.185051 0.091253 255 220 0
0.101004 0.145900 0.081008 255 220 0
0.184554 0.127458 0.032082 255 220 0
0.194878 0.120623 0.077479 255 220 0
0.188920 0.089582 0.082088 255 220 0
0.184785 0.078114 0.080749 255 220 0
0.203560 0.103003 0.049168 255 220 0
0.125867 0.105364 0.032031 255 220 0
0.140024 0.190409 0.074157 255 220 0
0.115031 0.121247 0.045247 255 220 0
0.202071 0.072662 0.049088 255 220 0
0.158912 0.114839 0.019994 255 220 0
0.194399 0.120737 0.078259 255 220 0
0.189382 0.066657 0.069070 255 220 0
0.200961 0.110049 0.066233 255 220 0
0.182162 0.154293 0.053488 255 220 0
0.162774 0.099528 0.013591 255 220 0
0.122756 0.138227 0.100972 255 220 0
0.179156 0.090746 0.089410 255 220 0
0.134964 0.115990 0.098948 255 220 0
0.171349 0.045733 0.023951 255 220 0
0.130988 0.081095 0.026786 255 220 0
0.106412 0.118768 0.060052 255 220 0
0.161331 0.081325 0.090256 255 220 0
0.145229 0.065165 0.075054 255 220 0
0.174724 0.141968 0.095491 255 220 0
0.196722 0.087905 0.023292 255 220 0
0.161166 0.095343 0.096328 255 220 0
0.157270 0.099254 0.097881 255 220 0
0.199081 0.091982 0.028623 255 220 0
0.133958 0.144638 0.106023 255 220 0
0.202184 0.099126 0.039499 255 220 0
0.150762 0.187736 0.088256 255 220 0
0.145417 0.062010 0.021769 255 220 0
0.186824 0.140734 0.082488 255 220 0
0.194302 0.114446 0.079591 255 220 0
0.164369 0.046413 0.056163 255 220 0
0.104918 0.194483 0.072443 255 220 0
0.115547 0.137175 0.096453 255 220 0
0.144029 0.080056 0.086599 255 220 0
0.142768 0.050724 0.039316 255 220 0
0.196222 0.089362 0.073228 255 220 0
0.171716 0.148763 0.096144 255 220 0
0.173515 0.042636 0.029941 255 220 0
0.104416 0.143716 0.062927 255 220 0
0.181236 0.130088 0.032139 255 220 0
0.126655 0.066771 0.042720 255 220 0
0.161595 0.042522 0.042363 255 220 0
0.106601 0.191167 0.069506 255 220 0
0.184322 0.158481 0.072166 255 220 0
0.148568 0.052864 0.060166 255 220 0
0.146450 0.084859 0.015973 255 220 0
0.167659 0.079162 0.009653 255 220 0
0.129201 0.159911 0.049851 255 220 0
0.170690 0.169014 0.061987 255 220 0
0.156458 0.151407 0.039844 255 220 0
0.170582 0.134318 0.031074 255 220 0
0.102870 0.192784 0.071523 255 220 0
0.146931 0.154212 0.042492 255 220 0
0.103880 0.185407 0.067468 255 220 0
0.166933 0.169265 0.059166 255 220 0
0.179476 0.125152 0.028168 255 220 0
0.134479 0.186522 0.066629 255 220 0
0.158167 0.154806 0.042317 255 220 0
0.097465 0.180588 0.069655 255 220 0
