ply
format ascii 1.0
element vertex 1024
property float x
property float y
property float z
property uchar red
property uchar green
property uchar blue
end_header
0.276876 0.113394 0.098299 255 220 0
0.223926 0.092732 0.060521 255 220 0
0.311596 0.100698 0.042613 255 220 0
0.285910 0.057916 0.063026 255 220 0
0.288690 0.121682 0.025117 255 220 0
0.236601 0.100612 0.019698 255 220 0
0.285033 0.105060 0.093463 255 220 0
0.262237 0.184229 0.103153 255 220 0
0.311112 0.134451 0.073441 255 220 0
0.270434 0.100964 0.009799 255 220 0
0.284377 0.058469 0.064942 255 220 0
0.286764 0.058904 0.010571 255 220 0
0.255192 0.111751 0.016264 255 220 0
0.289663 0.099501 0.089368 255 220 0
0.310593 0.093485 0.059393 255 220 0
0.223570 0.118182 0.068759 255 220 0
0.244967 0.050623 0.021041 255 220 0
0.279320 0.146828 0.103345 255 220 0
0.228612 0.121981 0.077824 255 220 0
0.286772 0.081929 0.082661 255 220 0
0.291693 0.075702 0.075188 255 220 0
0.291412 0.102759 0.089418 255 220 0
0.224270 0.080179 0.049080 255 220 0
0.261883 0.046608 0.011877 255 220 0
0.237956 0.104717 0.020344 255 220 0
0.240809 0.099674 0.016580 255 220 0
0.257307 0.186176 0.061271 255 220 0
0.303749 0.100946 0.027316 255 220 0
0.268808 0.061076 0.004839 255 220 0
0.235663 0.195395 0.069810 255 220 0
0.311446 0.109676 0.044055 255 220 0
0.272198 0.197880 0.091071 255 220 0
0.301621 0.149446 0.054911 255 220 0
0.236758 0.199427 0.071432 255 220 0
0.260132 0.124894 0.100493 255 220 0
0.296230 0.053507 0.032830 255 220 0
0.260746 0.150647 0.038763 255 220 0
0.268096 0.079484 0.085765 255 220 0
0.273067 0.196383 0.092911 255 220 0
0.302213 0.152028 0.058389 255 220 0
0.233252 0.145713 0.047300 255 220 0
0.283933 0.187174 0.085675 255 220 0
0.304922 0.102590 0.029251 255 220 0
0.299628 0.097609 0.021647 255 220 0
0.239768 0.182050 0.097480 255 220 0
0.264156 0.141646 0.032700 255 220 0
0.285123 0.078815 0.081507 255 220 0
0.309423 0.100378 0.036193 255 220 0
0.262919 0.101772 0.095003 255 220 0
0.259771 0.042910 0.016627 255 220 0
0.300032 0.128737 0.037634 255 220 0
0.278811 0.177362 0.100294 255 220 0
0.276753 0.092426 0.091512 255 220 0
0.256313 0.118816 0.098057 255 220 0
0.278368 0.083290 0.086613 255 220 0
0.225417 0.111098 0.071209 255 220 0
0.307376 0.081094 0.036617 255 220 0
0.264852 0.044345 0.051526 255 220 0
0.236256 0.118874 0.028337 255 220 0
0.233238 0.084687 0.019091 255 220 0
0.297351 0.147387 0.048225 255 220 0
0.257606 0.048847 0.055791 255 220 0
0.254327 0.184626 0.103042 255 220 0
0.300461 0.078364 0.067755 255 220 0
0.298752 0.065112 0.021190 255 220 0
0.268269 0.201250 0.087374 255 220 0
0.254355 0.072125 0.078186 255 220 0
0.265486 0.157636 0.043552 255 220 0
0.309445 0.100509 0.068184 255 220 0
0.299032 0.145811 0.048684 255 220 0
0.310719 0.088957 0.046340 255 220 0
0.254979 0.169025 0.051006 255 220 0
0.294022 0.157910 0.054078 255 220 0
0.283684 0.182490 0.072178 255 220 0
0.289027 0.090251 0.085945 255 220 0
0.267134 0.188447 0.065218 255 220 0
0.264164 0.055942 0.066169 255 220 0
0.295917 0.096091 0.083842 255 220 0
0.303831 0.130047 0.042385 255 220 0
0.240098 0.135894 0.092411 255 220 0
0.240589 0.170257 0.097900 255 220 0
0.232605 0.102950 0.077834 255 220 0
0.288708 0.096613 0.012847 255 220 0
0.298289 0.119492 0.088900 255 220 0
0.225720 0.142375 0.058281 255 220 0
0.280528 0.130239 0.026821 255 220 0
0.246572 0.048630 0.021886 255 220 0
0.290083 0.178888 0.087479 255 220 0
0.282218 0.124255 0.099617 255 220 0
0.269048 0.148719 0.104967 255 220 0
0.312564 0.114295 0.050779 255 220 0
0.230042 0.150749 0.055236 255 220 0
0.278857 0.051602 0.059861 255 220 0
0.268296 0.153153 0.040666 255 220 0
0.265119 0.049214 0.058495 255 220 0
0.241318 0.084614 0.012567 255 220 0
0.292063 0.095655 0.014594 255 220 0
0.297896 0.059060 0.046127 255 220 0
0.259316 0.157910 0.043670 255 220 0
0.306715 0.084854 0.062296 255 220 0
0.292462 0.081059 0.078443 255 220 0
0.254028 0.041001 0.035808 255 220 0
0.289413 0.083195 0.009493 255 220 0
0.286327 0.053522 0.056719 255 220 0
0.295927 0.086108 0.014847 255 220 0
0.247935 0.146864 0.039296 255 220 0
0.290022 0.065445 0.010517 255 220 0
0.311465 0.103233 0.063637 255 220 0
0.276445 0.102649 0.010973 255 220 0
0.306194 0.096288 0.072242 255 220 0
0.224690 0.076522 0.042319 255 220 0
0.302158 0.084394 0.022423 255 220 0
0.263000 0.102188 0.095156 255 220 0
0.250502 0.078117 0.080421 255 220 0
0.271517 0.106107 0.012330 255 220 0
0.264903 0.097521 0.093796 255 220 0
0.282263 0.066694 0.006010 255 220 0
0.231980 0.124169 0.082310 255 220 0
0.285033 0.118223 0.021355 255 220 0
0.224849 0.107474 0.069264 255 220 0
0.221438 0.123233 0.052971 255 220 0
0.263068 0.047784 0.056200 255 220 0
0.265747 0.163924 0.047851 255 220 0
0.298357 0.124327 0.089776 255 220 0
0.255684 0.132060 0.027727 255 220 0
0.267233 0.097855 0.008377 255 220 0
0.312321 0.117271 0.050372 255 220 0
0.256846 0.166631 0.049359 255 220 0
0.265092 0.200541 0.094363 255 220 0
0.278226 0.105459 0.095856 255 220 0
0.286335 0.061983 0.067278 255 220 0
0.258139 0.107575 0.095689 255 220 0
0.264793 0.176152 0.104568 255 220 0
0.256494 0.039475 0.032850 255 220 0
0.313094 0.121559 0.055528 255 220 0
0.240779 0.056266 0.050593 255 220 0
0.231751 0.194439 0.086797 255 220 0
0.262451 0.124911 0.100957 255 220 0
0.276981 0.119906 0.099892 255 220 0
0.234448 0.059731 0.027109 255 220 0
0.307305 0.080328 0.054149 255 220 0
0.242450 0.085799 0.012027 255 220 0
0.257697 0.142623 0.102961 255 220 0
0.308922 0.128128 0.047886 255 220 0
0.231930 0.127501 0.036595 255 220 0
0.239395 0.068434 0.065001 255 220 0
0.244565 0.047068 0.031158 255 220 0
0.288726 0.050288 0.018424 255 220 0
0.298279 0.071306 0.017598 255 220 0
0.240991 0.163922 0.052616 255 220 0
0.305638 0.151490 0.064624 255 220 0
0.235471 0.185792 0.093640 255 220 0
0.232508 0.063617 0.026955 255 220 0
0.265466 0.061124 0.071716 255 220 0
0.283150 0.140447 0.034262 255 220 0
0.265164 0.041723 0.047114 255 220 0
0.291394 0.077932 0.077097 255 220 0
0.243899 0.111179 0.089660 255 220 0
0.232629 0.061450 0.041583 255 220 0
0.229081 0.164528 0.080764 255 220 0
0.253975 0.184996 0.060300 255 220 0
0.232036 0.168831 0.062903 255 220 0
0.305230 0.100740 0.075887 255 220 0
0.306837 0.076988 0.048205 255 220 0
0.272061 0.059015 0.070104 255 220 0
0.250945 0.181810 0.058609 255 220 0
0.260754 0.047226 0.011749 255 220 0
0.295954 0.166584 0.088098 255 220 0
0.284113 0.163322 0.100264 255 220 0
0.269446 0.104363 0.011414 255 220 0
0.272122 0.172388 0.103910 255 220 0
0.285993 0.105639 0.093214 255 220 0
0.303395 0.109433 0.029891 255 220 0
0.255722 0.118053 0.019500 255 220 0
0.246234 0.208093 0.080115 255 220 0
0.264272 0.114722 0.016688 255 220 0
0.276214 0.149620 0.039069 255 220 0
0.289872 0.046169 0.031969 255 220 0
0.253800 0.152096 0.040762 255 220 0
0.235137 0.151950 0.049766 255 220 0
0.242517 0.202586 0.092115 255 220 0
0.305192 0.072759 0.046900 255 220 0
0.234863 0.157635 0.053695 255 220 0
0.279574 0.095063 0.091942 255 220 0
0.254538 0.090238 0.007733 255 220 0
0.275709 0.095822 0.007915 255 220 0
0.302134 0.072669 0.058185 255 220 0
0.237638 0.087084 0.076321 255 220 0
0.250484 0.150318 0.040581 255 220 0
0.289178 0.045831 0.035840 255 220 0
0.305101 0.087720 0.027592 255 220 0
0.274662 0.041822 0.046121 255 220 0
0.259352 0.092868 0.007321 255 220 0
0.291853 0.060791 0.060162 255 220 0
0.296809 0.122894 0.090875 255 220 0
0.249859 0.158133 0.102112 255 220 0
0.297673 0.071678 0.016612 255 220 0
0.225486 0.131634 0.047567 255 220 0
0.261923 0.172192 0.052879 255 220 0
0.312527 0.120747 0.068493 255 220 0
0.282396 0.109779 0.095868 255 220 0
0.303799 0.083307 0.066883 255 220 0
0.221037 0.100625 0.055755 255 220 0
0.291249 0.102201 0.089335 255 220 0
0.249479 0.097629 0.088896 255 220 0
0.276029 0.127917 0.024607 255 220 0
0.272549 0.145576 0.035741 255 220 0
0.303054 0.070782 0.029010 255 220 0
0.298944 0.059703 0.027652 255 220 0
0.241623 0.052749 0.045842 255 220 0
0.227960 0.157834 0.076131 255 220 0
0.303298 0.129181 0.041211 255 220 0
0.296261 0.055693 0.025316 255 220 0
0.265069 0.074062 0.082422 255 220 0
0.276228 0.045686 0.013196 255 220 0
0.302479 0.103040 0.026459 255 220 0
0.223887 0.079093 0.038782 255 220 0
0.265960 0.053330 0.063558 255 220 0
0.299669 0.068672 0.057997 255 220 0
0.238503 0.111322 0.085632 255 220 0
0.227097 0.149986 0.062578 255 220 0
0.250206 0.183173 0.102475 255 220 0
0.259826 0.132814 0.101917 255 220 0
0.243318 0.136416 0.034695 255 220 0
0.307158 0.138006 0.081086 255 220 0
0.264137 0.067529 0.003807 255 220 0
0.302178 0.096527 0.024215 255 220 0
0.238734 0.205583 0.079578 255 220 0
0.268457 0.178236 0.103655 255 220 0
0.264074 0.137511 0.103448 255 220 0
0.261466 0.151148 0.104700 255 220 0
0.228447 0.168005 0.074947 255 220 0
0.221967 0.097003 0.057507 255 220 0
0.250904 0.208140 0.081706 255 220 0
0.244642 0.115396 0.021772 255 220 0
0.280347 0.041051 0.022704 255 220 0
0.243117 0.109311 0.088633 255 220 0
0.275597 0.165726 0.050785 255 220 0
0.228402 0.084676 0.024927 255 220 0
0.265980 0.140865 0.104090 255 220 0
0.304606 0.113551 0.033135 255 220 0
0.250903 0.166470 0.050259 255 220 0
0.282448 0.167992 0.054860 255 220 0
0.223571 0.125141 0.046585 255 220 0
0.233200 0.118526 0.030446 255 220 0
0.256376 0.106386 0.013387 255 220 0
0.286416 0.167694 0.097884 255 220 0
0.300871 0.061771 0.035133 255 220 0
0.246986 0.092148 0.011036 255 220 0
0.312488 0.102908 0.047937 255 220 0
0.272731 0.163805 0.048817 255 220 0
0.303577 0.091453 0.073459 255 220 0
0.289149 0.046700 0.025380 255 220 0
0.306272 0.146231 0.081035 255 220 0
0.265766 0.202730 0.083946 255 220 0
0.247237 0.090538 0.084884 255 220 0
0.229239 0.171567 0.081493 255 220 0
0.288599 0.146441 0.040848 255 220 0
0.311347 0.097461 0.059910 255 220 0
0.240103 0.183510 0.097643 255 220 0
0.271632 0.064379 0.075242 255 220 0
0.302146 0.145907 0.052342 255 220 0
0.309883 0.124179 0.075689 255 220 0
0.295446 0.118360 0.027514 255 220 0
0.250014 0.182718 0.059151 255 220 0
0.255330 0.109346 0.095261 255 220 0
0.277323 0.105684 0.096127 255 220 0
0.244640 0.206829 0.075622 255 220 0
0.265636 0.088770 0.005168 255 220 0
0.299475 0.092396 0.020010 255 220 0
0.301898 0.118452 0.032981 255 220 0
0.230845 0.115118 0.030745 255 220 0
0.252131 0.106002 0.092981 255 220 0
0.299177 0.113110 0.027621 255 220 0
0.250495 0.141879 0.100208 255 220 0
0.238234 0.095379 0.080385 255 220 0
0.306085 0.144621 0.081816 255 220 0
0.233572 0.081098 0.068629 255 220 0
0.230853 0.169393 0.085979 255 220 0
0.266082 0.128049 0.024280 255 220 0
0.240434 0.058019 0.052864 255 220 0
0.306492 0.141996 0.054985 255 220 0
0.256285 0.121419 0.021284 255 220 0
0.267874 0.051235 0.061323 255 220 0
0.270499 0.039459 0.042716 255 220 0
0.283172 0.148849 0.101907 255 220 0
0.229809 0.067212 0.030628 255 220 0
0.283332 0.140408 0.101583 255 220 0
0.221463 0.094115 0.052790 255 220 0
0.308993 0.087371 0.037783 255 220 0
0.306089 0.080775 0.032046 255 220 0
0.253549 0.083471 0.006664 255 220 0
0.241978 0.059383 0.057013 255 220 0
0.310444 0.095382 0.061756 255 220 0
0.258323 0.073380 0.080536 255 220 0
0.285801 0.090932 0.009455 255 220 0
0.226395 0.079576 0.029401 255 220 0
0.246409 0.048837 0.045709 255 220 0
0.303042 0.069987 0.029791 255 220 0
0.294767 0.157224 0.092715 255 220 0
0.222769 0.082714 0.044108 255 220 0
0.224402 0.122863 0.043291 255 220 0
0.264601 0.187520 0.063701 255 220 0
0.223620 0.102684 0.035162 255 220 0
0.220432 0.108879 0.047862 255 220 0
0.307242 0.078965 0.038942 255 220 0
0.272304 0.037435 0.025808 255 220 0
0.256740 0.188277 0.102323 255 220 0
0.289819 0.132762 0.097512 255 220 0
0.290625 0.143822 0.040212 255 220 0
0.245685 0.151154 0.099038 255 220 0
0.291134 0.126702 0.095795 255 220 0
0.255833 0.140185 0.032712 255 220 0
0.226711 0.138830 0.074616 255 220 0
0.264342 0.059596 0.005466 255 220 0
0.308308 0.081464 0.041617 255 220 0
0.280032 0.106000 0.013259 255 220 0
0.226530 0.091486 0.065083 255 220 0
0.300286 0.124985 0.035449 255 220 0
0.238769 0.147523 0.044164 255 220 0
0.262737 0.071737 0.003644 255 220 0
0.242408 0.073820 0.072679 255 220 0
0.292486 0.104739 0.089373 255 220 0
0.237423 0.103586 0.020239 255 220 0
0.243405 0.108248 0.088537 255 220 0
0.292991 0.119462 0.093052 255 220 0
0.309357 0.128189 0.077188 255 220 0
0.302414 0.075038 0.024417 255 220 0
0.303107 0.083052 0.024117 255 220 0
0.310751 0.099489 0.063815 255 220 0
0.274457 0.037625 0.035472 255 220 0
0.234024 0.076260 0.065504 255 220 0
0.269313 0.037103 0.036308 255 220 0
0.261127 0.136765 0.029787 255 220 0
0.231934 0.162740 0.060174 255 220 0
0.255299 0.198094 0.098361 255 220 0
0.248237 0.106215 0.091043 255 220 0
0.258643 0.143008 0.034007 255 220 0
0.228018 0.110068 0.031384 255 220 0
0.230484 0.103126 0.075664 255 220 0
0.229290 0.182907 0.082045 255 220 0
0.236522 0.169225 0.058038 255 220 0
0.312642 0.116643 0.051753 255 220 0
0.298531 0.070475 0.018244 255 220 0
0.308984 0.099940 0.035218 255 220 0
0.280995 0.171937 0.057582 255 220 0
0.270055 0.165782 0.105032 255 220 0
0.243787 0.051200 0.046423 255 220 0
0.243014 0.077306 0.075495 255 220 0
0.301401 0.152278 0.057441 255 220 0
0.263514 0.182722 0.103397 255 220 0
0.255708 0.090112 0.088607 255 220 0
0.278651 0.137917 0.031327 255 220 0
0.262380 0.177202 0.104574 255 220 0
0.303134 0.115078 0.032318 255 220 0
0.256981 0.144404 0.035153 255 220 0
0.234623 0.136591 0.040033 255 220 0
0.224537 0.120442 0.041530 255 220 0
0.290781 0.163284 0.095176 255 220 0
0.277195 0.168876 0.102890 255 220 0
0.223096 0.117528 0.067561 255 220 0
0.243177 0.206816 0.076450 255 220 0
0.250455 0.083210 0.083213 255 220 0
0.264770 0.137102 0.029809 255 220 0
0.243347 0.118281 0.023962 255 220 0
0.241186 0.177805 0.098602 255 220 0
0.257038 0.043289 0.046364 255 220 0
0.268860 0.049079 0.058690 255 220 0
0.247157 0.055300 0.014247 255 220 0
0.238407 0.147281 0.044242 255 220 0
0.228027 0.144771 0.053952 255 220 0
0.291704 0.051359 0.021614 255 220 0
0.312151 0.096209 0.050685 255 220 0
0.233765 0.189910 0.091348 255 220 0
0.235170 0.062743 0.051126 255 220 0
0.277217 0.041111 0.043108 255 220 0
0.259666 0.102770 0.094632 255 220 0
0.231508 0.101064 0.076046 255 220 0
0.273177 0.169246 0.104106 255 220 0
0.248291 0.197684 0.097971 255 220 0
0.260861 0.037788 0.029261 255 220 0
0.278892 0.183712 0.067952 255 220 0
0.231340 0.063162 0.040530 255 220 0
0.287341 0.073933 0.076978 255 220 0
0.228933 0.180269 0.079226 255 220 0
0.233485 0.118863 0.030397 255 220 0
0.269008 0.167573 0.050821 255 220 0
0.283918 0.170983 0.098957 255 220 0
0.290601 0.091979 0.085800 255 220 0
0.268753 0.044941 0.012373 255 220 0
0.247935 0.096509 0.087642 255 220 0
0.262265 0.195871 0.068538 255 220 0
0.308625 0.081924 0.049367 255 220 0
0.243953 0.077278 0.076152 255 220 0
0.251041 0.130721 0.098415 255 220 0
0.258218 0.182657 0.059237 255 220 0
0.238746 0.132613 0.034749 255 220 0
0.274342 0.107368 0.097099 255 220 0
0.248677 0.185560 0.101659 255 220 0
0.225361 0.134382 0.050210 255 220 0
0.229050 0.177919 0.074622 255 220 0
0.230910 0.138652 0.083083 255 220 0
0.231316 0.132878 0.082864 255 220 0
0.225497 0.139711 0.055541 255 220 0
0.294325 0.065656 0.062923 255 220 0
0.265601 0.108974 0.013673 255 220 0
0.309693 0.117080 0.042691 255 220 0
0.241212 0.142890 0.094593 255 220 0
0.285584 0.129935 0.028456 255 220 0
0.230312 0.070886 0.053159 255 220 0
0.286388 0.066786 0.007892 255 220 0
0.259282 0.125713 0.023294 255 220 0
0.312476 0.105784 0.059789 255 220 0
0.307808 0.136671 0.052430 255 220 0
0.224960 0.085332 0.030617 255 220 0
0.310471 0.110239 0.041308 255 220 0
0.279465 0.191773 0.084712 255 220 0
0.229725 0.175671 0.083553 255 220 0
0.299875 0.087005 0.019358 255 220 0
0.288610 0.099899 0.090086 255 220 0
0.277145 0.095481 0.092696 255 220 0
0.256802 0.051613 0.059102 255 220 0
0.305347 0.126305 0.041656 255 220 0
0.226530 0.135811 0.049005 255 220 0
0.237930 0.100974 0.082091 255 220 0
0.251949 0.203557 0.071068 255 220 0
0.280855 0.178559 0.063887 255 220 0
0.292622 0.049052 0.030922 255 220 0
0.251040 0.118624 0.021055 255 220 0
0.255975 0.044256 0.047414 255 220 0
0.242125 0.170536 0.055271 255 220 0
0.251153 0.150248 0.040318 255 220 0
0.268111 0.187361 0.100956 255 220 0
0.311799 0.110353 0.066541 255 220 0
0.265688 0.082541 0.003827 255 220 0
0.230916 0.153659 0.056023 255 220 0
0.258405 0.171812 0.104936 255 220 0
0.304289 0.087597 0.069692 255 220 0
0.297223 0.055018 0.034689 255 220 0
0.274938 0.079223 0.084997 255 220 0
0.304853 0.079172 0.029146 255 220 0
0.267872 0.134163 0.103239 255 220 0
0.270343 0.036600 0.032394 255 220 0
0.229824 0.162669 0.083011 255 220 0
0.299793 0.135648 0.042030 255 220 0
0.274575 0.098964 0.094427 255 220 0
0.243490 0.114037 0.021611 255 220 0
0.220571 0.101779 0.045461 255 220 0
0.310364 0.139464 0.061005 255 220 0
0.263613 0.058909 0.005747 255 220 0
0.296619 0.130386 0.035704 255 220 0
0.224148 0.093854 0.032201 255 220 0
0.248592 0.047446 0.021026 255 220 0
0.279415 0.129530 0.101467 255 220 0
0.299680 0.130430 0.038413 255 220 0
0.254392 0.109967 0.015559 255 220 0
0.269536 0.043413 0.050253 255 220 0
0.306581 0.143241 0.081321 255 220 0
0.313549 0.120664 0.061311 255 220 0
0.246243 0.189936 0.062965 255 220 0
0.229824 0.185270 0.084217 255 220 0
0.289245 0.069386 0.072028 255 220 0
0.260424 0.143432 0.034068 255 220 0
0.275793 0.145006 0.035715 255 220 0
0.311738 0.102376 0.061867 255 220 0
0.233292 0.107055 0.079784 255 220 0
0.306976 0.079913 0.036113 255 220 0
0.290679 0.088131 0.011364 255 220 0
0.235666 0.078207 0.016701 255 220 0
0.308589 0.117234 0.076321 255 220 0
0.262895 0.193468 0.099585 255 220 0
0.229248 0.168728 0.069350 255 220 0
0.246249 0.073097 0.074891 255 220 0
0.288473 0.115860 0.094896 255 220 0
0.247202 0.045265 0.029750 255 220 0
0.301012 0.085590 0.073001 255 220 0
0.221369 0.107797 0.060684 255 220 0
0.256965 0.064666 0.072971 255 220 0
0.253655 0.134416 0.029650 255 220 0
0.229045 0.167758 0.080570 255 220 0
0.278500 0.184557 0.097885 255 220 0
0.249492 0.072846 0.007715 255 220 0
0.301037 0.084376 0.020644 255 220 0
0.241143 0.091062 0.013794 255 220 0
0.221414 0.116392 0.062177 255 220 0
0.227952 0.082300 0.061090 255 220 0
0.223718 0.087169 0.055551 255 220 0
0.288641 0.122391 0.025499 255 220 0
0.305987 0.151616 0.065902 255 220 0
0.281821 0.187736 0.092815 255 220 0
0.281613 0.171689 0.057688 255 220 0
0.297858 0.060489 0.023085 255 220 0
0.261153 0.200682 0.095712 255 220 0
0.308191 0.086531 0.060091 255 220 0
0.297518 0.102371 0.084875 255 220 0
0.283768 0.066239 0.073101 255 220 0
0.255806 0.078447 0.082916 255 220 0
0.261469 0.118509 0.018904 255 220 0
0.268630 0.128178 0.102234 255 220 0
0.293529 0.060650 0.015629 255 220 0
0.263177 0.115069 0.016914 255 220 0
0.296200 0.085452 0.078147 255 220 0
0.252508 0.175002 0.103771 255 220 0
0.278200 0.038448 0.032020 255 220 0
0.236469 0.161491 0.093213 255 220 0
0.301025 0.121468 0.086685 255 220 0
0.249199 0.110471 0.017373 255 220 0
0.302016 0.066019 0.046462 255 220 0
0.311734 0.096866 0.057159 255 220 0
0.273726 0.164558 0.049548 255 220 0
0.226613 0.098510 0.068833 255 220 0
0.239125 0.162613 0.053043 255 220 0
0.243931 0.203288 0.092008 255 220 0
0.255167 0.194742 0.065714 255 220 0
0.253552 0.052949 0.011285 255 220 0
0.274076 0.062784 0.073593 255 220 0
0.306837 0.078502 0.037234 255 220 0
0.288827 0.058526 0.060884 255 220 0
0.245097 0.164945 0.100416 255 220 0
0.238669 0.118477 0.087515 255 220 0
0.261443 0.037727 0.034500 255 220 0
0.295169 0.090694 0.015349 255 220 0
0.250063 0.196615 0.098847 255 220 0
0.250624 0.202000 0.069285 255 220 0
0.269787 0.160134 0.045749 255 220 0
0.272881 0.091433 0.091602 255 220 0
0.281728 0.178241 0.064271 255 220 0
0.293954 0.051185 0.028049 255 220 0
0.248202 0.071708 0.075002 255 220 0
0.269540 0.073705 0.002951 255 220 0
0.267245 0.081817 0.003585 255 220 0
0.291380 0.098757 0.088060 255 220 0
0.234305 0.060132 0.044243 255 220 0
0.245991 0.057601 0.059267 255 220 0
0.295769 0.121209 0.091388 255 220 0
0.247025 0.080559 0.079970 255 220 0
0.266498 0.068565 0.078629 255 220 0
0.298187 0.154898 0.055842 255 220 0
0.293995 0.092519 0.083748 255 220 0
0.255820 0.053700 0.009695 255 220 0
0.263550 0.119011 0.099826 255 220 0
0.279116 0.192248 0.088448 255 220 0
0.256911 0.096383 0.009045 255 220 0
0.223628 0.122081 0.044308 255 220 0
0.267612 0.157201 0.043441 255 220 0
0.277643 0.192340 0.080155 255 220 0
0.234789 0.075401 0.017860 255 220 0
0.303564 0.092422 0.025261 255 220 0
0.311651 0.093144 0.048368 255 220 0
0.294394 0.160161 0.056769 255 220 0
0.232239 0.103565 0.024364 255 220 0
0.231041 0.104209 0.076634 255 220 0
0.301802 0.155464 0.084803 255 220 0
0.296022 0.155705 0.091774 255 220 0
0.262774 0.056782 0.006521 255 220 0
0.286210 0.046844 0.045508 255 220 0
0.274345 0.052422 0.062523 255 220 0
0.242234 0.051501 0.023780 255 220 0
0.231392 0.146540 0.084738 255 220 0
0.222393 0.108794 0.040053 255 220 0
0.252081 0.177198 0.103550 255 220 0
0.276521 0.187850 0.097409 255 220 0
0.251764 0.207925 0.084242 255 220 0
0.222692 0.091009 0.055550 255 220 0
0.234067 0.182200 0.092107 255 220 0
0.282765 0.173291 0.099139 255 220 0
0.289894 0.132835 0.097475 255 220 0
0.302648 0.099766 0.025644 255 220 0
0.222771 0.117212 0.066693 255 220 0
0.302611 0.079895 0.023527 255 220 0
0.253251 0.059665 0.008418 255 220 0
0.279129 0.039921 0.038335 255 220 0
0.286848 0.183711 0.085759 255 220 0
0.254035 0.100039 0.091860 255 220 0
0.237997 0.188277 0.064973 255 220 0
0.223629 0.080190 0.045457 255 220 0
0.249441 0.203887 0.092875 255 220 0
0.240002 0.152297 0.046442 255 220 0
0.252809 0.087989 0.086557 255 220 0
0.238384 0.071363 0.066682 255 220 0
0.268436 0.178147 0.058157 255 220 0
0.312640 0.107177 0.049842 255 220 0
0.262886 0.039797 0.042521 255 220 0
0.238280 0.085603 0.014741 255 220 0
0.299835 0.119062 0.031439 255 220 0
0.273686 0.070532 0.003358 255 220 0
0.244033 0.064728 0.012114 255 220 0
0.284082 0.162664 0.051161 255 220 0
0.230051 0.066683 0.030569 255 220 0
0.240535 0.102448 0.084686 255 220 0
0.310715 0.119330 0.072994 255 220 0
0.261180 0.042473 0.016464 255 220 0
0.222457 0.091969 0.036291 255 220 0
0.232442 0.061473 0.040716 255 220 0
0.262979 0.166351 0.105397 255 220 0
0.260649 0.102519 0.010904 255 220 0
0.238410 0.118104 0.026548 255 220 0
0.251155 0.099073 0.090254 255 220 0
0.266578 0.065748 0.076241 255 220 0
0.288159 0.138372 0.035086 255 220 0
0.307397 0.124756 0.043346 255 220 0
0.261007 0.191557 0.100805 255 220 0
0.259158 0.039600 0.039460 255 220 0
0.238293 0.072672 0.067764 255 220 0
0.261301 0.070154 0.078963 255 220 0
0.239930 0.064205 0.015679 255 220 0
0.274714 0.089164 0.090380 255 220 0
0.279010 0.140595 0.033210 255 220 0
0.276495 0.173632 0.057064 255 220 0
0.286332 0.111929 0.018588 255 220 0
0.304426 0.082948 0.026850 255 220 0
0.251896 0.041944 0.033168 255 220 0
0.306199 0.080252 0.032763 255 220 0
0.303312 0.132140 0.085826 255 220 0
0.263410 0.080183 0.085780 255 220 0
0.231861 0.134662 0.041170 255 220 0
0.236346 0.138297 0.039832 255 220 0
0.272659 0.096726 0.093782 255 220 0
0.303107 0.141928 0.050173 255 220 0
0.233793 0.073881 0.062972 255 220 0
0.241364 0.167876 0.098258 255 220 0
0.268849 0.058964 0.005442 255 220 0
0.274363 0.044767 0.013392 255 220 0
0.247374 0.127344 0.095716 255 220 0
0.247038 0.207395 0.076505 255 220 0
0.286427 0.151179 0.100078 255 220 0
0.245712 0.075268 0.076034 255 220 0
0.236614 0.097526 0.018648 255 220 0
0.235401 0.114229 0.026524 255 220 0
0.276487 0.105857 0.012515 255 220 0
0.299208 0.067794 0.057692 255 220 0
0.287191 0.154367 0.045981 255 220 0
0.294243 0.051228 0.037146 255 220 0
0.228668 0.106122 0.029008 255 220 0
0.250311 0.190107 0.062820 255 220 0
0.248106 0.205728 0.073031 255 220 0
0.238752 0.131331 0.090340 255 220 0
0.277269 0.048538 0.056153 255 220 0
0.280493 0.057320 0.066116 255 220 0
0.291165 0.059492 0.013777 255 220 0
0.295212 0.103481 0.087088 255 220 0
0.237619 0.059211 0.021424 255 220 0
0.251813 0.095177 0.089125 255 220 0
0.304702 0.156065 0.076527 255 220 0
0.287442 0.096754 0.089554 255 220 0
0.235865 0.072428 0.064497 255 220 0
0.296552 0.169664 0.076339 255 220 0
0.297082 0.128395 0.034814 255 220 0
0.232531 0.172527 0.089336 255 220 0
0.268582 0.172232 0.104654 255 220 0
0.266179 0.044485 0.051951 255 220 0
0.232630 0.163041 0.059286 255 220 0
0.274646 0.196277 0.089306 255 220 0
0.306105 0.086272 0.065125 255 220 0
0.273173 0.113023 0.098730 255 220 0
0.235854 0.195242 0.069561 255 220 0
0.229257 0.081684 0.023946 255 220 0
0.304793 0.138856 0.084296 255 220 0
0.230215 0.153011 0.083286 255 220 0
0.257367 0.174022 0.053854 255 220 0
0.299369 0.118791 0.030875 255 220 0
0.239742 0.107948 0.085717 255 220 0
0.237458 0.085095 0.015311 255 220 0
0.290028 0.046357 0.030823 255 220 0
0.252405 0.193202 0.100511 255 220 0
0.229786 0.073507 0.055508 255 220 0
0.261706 0.162921 0.046874 255 220 0
0.253238 0.159257 0.045432 255 220 0
0.245967 0.164174 0.050505 255 220 0
0.304108 0.156187 0.079205 255 220 0
0.263868 0.164223 0.047844 255 220 0
0.230227 0.141911 0.048017 255 220 0
0.288747 0.126765 0.028134 255 220 0
0.282939 0.087365 0.007236 255 220 0
0.233725 0.066517 0.022082 255 220 0
0.283673 0.187402 0.088069 255 220 0
0.231756 0.186385 0.070189 255 220 0
0.285889 0.093943 0.010450 255 220 0
0.278236 0.118314 0.099258 255 220 0
0.271053 0.067541 0.077904 255 220 0
0.227461 0.151104 0.062245 255 220 0
0.236436 0.101661 0.081024 255 220 0
0.298700 0.057474 0.035160 255 220 0
0.253788 0.131368 0.099759 255 220 0
0.312499 0.100361 0.054142 255 220 0
0.229034 0.181027 0.076192 255 220 0
0.291271 0.070784 0.010328 255 220 0
0.237063 0.147649 0.045392 255 220 0
0.301951 0.091392 0.075587 255 220 0
0.270761 0.036922 0.027397 255 220 0
0.291428 0.172498 0.068783 255 220 0
0.236669 0.200595 0.072538 255 220 0
0.245843 0.152153 0.043453 255 220 0
0.301584 0.085071 0.071851 255 220 0
0.221753 0.092151 0.052470 255 220 0
0.253201 0.204301 0.072368 255 220 0
0.310321 0.093596 0.039287 255 220 0
0.224712 0.136824 0.067957 255 220 0
0.312451 0.134137 0.064850 255 220 0
0.278281 0.140859 0.033246 255 220 0
0.253956 0.143148 0.035003 255 220 0
0.310008 0.138176 0.075562 255 220 0
0.311786 0.126695 0.053049 255 220 0
0.226069 0.125295 0.074026 255 220 0
0.246829 0.137390 0.033758 255 220 0
0.228855 0.177541 0.076503 255 220 0
0.241499 0.065888 0.064690 255 220 0
0.238756 0.200684 0.070796 255 220 0
0.296351 0.071573 0.014934 255 220 0
0.280020 0.045982 0.050277 255 220 0
0.261409 0.093882 0.091772 255 220 0
0.252011 0.100824 0.012109 255 220 0
0.226297 0.146343 0.061725 255 220 0
0.296213 0.165414 0.088376 255 220 0
0.230809 0.130908 0.039780 255 220 0
0.265910 0.065360 0.075807 255 220 0
0.268073 0.055475 0.066245 255 220 0
0.258308 0.087745 0.088372 255 220 0
0.307727 0.079467 0.049158 255 220 0
0.226448 0.148884 0.068709 255 220 0
0.221401 0.117227 0.062073 255 220 0
0.248278 0.119874 0.022696 255 220 0
0.294367 0.075112 0.012426 255 220 0
0.272527 0.053286 0.063827 255 220 0
0.313128 0.116631 0.063714 255 220 0
0.254456 0.049809 0.012904 255 220 0
0.253769 0.057221 0.064402 255 220 0
0.229987 0.192749 0.079838 255 220 0
0.234096 0.192972 0.091122 255 220 0
0.289257 0.052489 0.051607 255 220 0
0.229230 0.183971 0.076121 255 220 0
0.286228 0.057919 0.062737 255 220 0
0.231838 0.103795 0.024829 255 220 0
0.277829 0.126133 0.023759 255 220 0
0.261340 0.079946 0.085306 255 220 0
0.228249 0.116346 0.076502 255 220 0
0.293926 0.055943 0.049786 255 220 0
0.273964 0.055943 0.066694 255 220 0
0.249247 0.079066 0.080350 255 220 0
0.294487 0.063208 0.059628 255 220 0
0.295320 0.171866 0.082461 255 220 0
0.264801 0.175477 0.055480 255 220 0
0.307618 0.132206 0.080339 255 220 0
0.244404 0.142249 0.037833 255 220 0
0.232337 0.189155 0.089461 255 220 0
0.242839 0.097736 0.014770 255 220 0
0.227858 0.103859 0.029142 255 220 0
0.265819 0.153442 0.105220 255 220 0
0.276710 0.187829 0.070752 255 220 0
0.308549 0.104202 0.035151 255 220 0
0.280586 0.149981 0.102981 255 220 0
0.237471 0.154172 0.093204 255 220 0
0.224923 0.102523 0.067709 255 220 0
0.228998 0.142550 0.080110 255 220 0
0.224842 0.117591 0.071359 255 220 0
0.286457 0.177832 0.069111 255 220 0
0.274309 0.139087 0.103731 255 220 0
0.241873 0.102583 0.085736 255 220 0
0.299841 0.102394 0.082790 255 220 0
0.227442 0.141867 0.052539 255 220 0
0.284867 0.112625 0.018280 255 220 0
0.252225 0.056702 0.010081 255 220 0
0.233440 0.068141 0.021662 255 220 0
0.300999 0.093106 0.021958 255 220 0
0.296506 0.170180 0.079518 255 220 0
0.298610 0.091609 0.079372 255 220 0
0.284930 0.152187 0.100902 255 220 0
0.293171 0.152354 0.094952 255 220 0
0.250118 0.062506 0.068120 255 220 0
0.296433 0.135781 0.039091 255 220 0
0.246535 0.045543 0.035067 255 220 0
0.254419 0.045626 0.048692 255 220 0
0.286739 0.181973 0.077158 255 220 0
0.231199 0.173953 0.066444 255 220 0
0.221383 0.123786 0.054570 255 220 0
0.303151 0.159080 0.073205 255 220 0
0.311221 0.136885 0.072224 255 220 0
0.231492 0.089253 0.021362 255 220 0
0.258879 0.109367 0.014382 255 220 0
0.255702 0.106742 0.094648 255 220 0
0.255276 0.145799 0.036379 255 220 0
0.261349 0.037675 0.028851 255 220 0
0.306967 0.139658 0.081257 255 220 0
0.246297 0.148955 0.099069 255 220 0
0.307067 0.134742 0.049763 255 220 0
0.256145 0.071743 0.078607 255 220 0
0.229519 0.162369 0.082155 255 220 0
0.293562 0.159766 0.093324 255 220 0
0.283334 0.132677 0.029242 255 220 0
0.237773 0.067644 0.016539 255 220 0
0.248906 0.074622 0.007925 255 220 0
0.228582 0.147801 0.079343 255 220 0
0.311160 0.120944 0.048132 255 220 0
0.253862 0.041472 0.026744 255 220 0
0.304161 0.116079 0.082124 255 220 0
0.257059 0.130145 0.100684 255 220 0
0.290382 0.169371 0.062814 255 220 0
0.258930 0.177821 0.104488 255 220 0
0.284666 0.184584 0.091970 255 220 0
0.312229 0.097437 0.048323 255 220 0
0.292829 0.169226 0.091210 255 220 0
0.303541 0.148605 0.056810 255 220 0
0.229845 0.167454 0.083322 255 220 0
0.236301 0.160141 0.053815 255 220 0
0.225661 0.141649 0.057496 255 220 0
0.279382 0.188403 0.095062 255 220 0
0.224209 0.137867 0.060912 255 220 0
0.288001 0.076260 0.007954 255 220 0
0.229281 0.186099 0.077089 255 220 0
0.298738 0.113401 0.027398 255 220 0
0.271020 0.199302 0.087769 255 220 0
0.242045 0.064829 0.064112 255 220 0
0.302688 0.158637 0.069301 255 220 0
0.260088 0.049228 0.010569 255 220 0
0.295326 0.138070 0.093887 255 220 0
0.303341 0.109263 0.029761 255 220 0
0.264517 0.067518 0.077485 255 220 0
0.296163 0.083768 0.077098 255 220 0
0.221762 0.094577 0.038754 255 220 0
0.279821 0.175481 0.100287 255 220 0
0.269646 0.043539 0.013742 255 220 0
0.253023 0.168400 0.103988 255 220 0
0.233906 0.164508 0.058410 255 220 0
0.300769 0.089383 0.075825 255 220 0
0.245348 0.112090 0.019736 255 220 0
0.233859 0.083705 0.070645 255 220 0
0.235947 0.096361 0.078730 255 220 0
0.239239 0.052018 0.037294 255 220 0
0.297203 0.159667 0.059811 255 220 0
0.238597 0.061075 0.018707 255 220 0
0.241258 0.203374 0.090477 255 220 0
0.300322 0.063166 0.027392 255 220 0
0.255050 0.080020 0.083522 255 220 0
0.268950 0.072535 0.081571 255 220 0
0.258317 0.052488 0.060760 255 220 0
0.220959 0.094325 0.044592 255 220 0
0.255295 0.043828 0.018919 255 220 0
0.268385 0.143738 0.104516 255 220 0
0.246055 0.195454 0.098304 255 220 0
0.306969 0.107416 0.033564 255 220 0
0.306878 0.084860 0.032321 255 220 0
0.256231 0.132677 0.100898 255 220 0
0.259545 0.066327 0.004818 255 220 0
0.258626 0.056904 0.007371 255 220 0
0.248264 0.188667 0.100935 255 220 0
0.307526 0.149539 0.067771 255 220 0
0.250776 0.083990 0.007740 255 220 0
0.247519 0.180498 0.058371 255 220 0
0.221164 0.099011 0.055308 255 220 0
0.246411 0.118242 0.093051 255 220 0
0.272022 0.073237 0.081778 255 220 0
0.260268 0.070631 0.079069 255 220 0
0.305481 0.129220 0.082936 255 220 0
0.293897 0.174107 0.080747 255 220 0
0.311086 0.106180 0.041623 255 220 0
0.301195 0.094023 0.022407 255 220 0
0.246367 0.085218 0.009832 255 220 0
0.256549 0.045280 0.049654 255 220 0
0.299950 0.139340 0.044748 255 220 0
0.250678 0.071900 0.007228 255 220 0
0.276131 0.190378 0.073546 255 220 0
0.293364 0.060689 0.057961 255 220 0
0.291349 0.156431 0.050365 255 220 0
0.254742 0.197468 0.067148 255 220 0
0.264041 0.199836 0.073124 255 220 0
0.221521 0.112620 0.044214 255 220 0
0.305096 0.098361 0.075001 255 220 0
0.299288 0.058714 0.037595 255 220 0
0.263707 0.091433 0.091172 255 220 0
0.250354 0.194048 0.099926 255 220 0
0.276897 0.050320 0.058988 255 220 0
0.228724 0.083796 0.063648 255 220 0
0.295409 0.125165 0.031492 255 220 0
0.250095 0.191119 0.100797 255 220 0
0.295260 0.092953 0.082987 255 220 0
0.252956 0.041575 0.035712 255 220 0
0.297526 0.055863 0.038078 255 220 0
0.288386 0.122187 0.025242 255 220 0
0.302865 0.158826 0.079574 255 220 0
0.268729 0.039531 0.019562 255 220 0
0.249275 0.092256 0.010113 255 220 0
0.230613 0.194684 0.082589 255 220 0
0.268014 0.040280 0.044656 255 220 0
0.304144 0.114976 0.033343 255 220 0
0.271873 0.197785 0.081169 255 220 0
0.284232 0.186556 0.083263 255 220 0
0.263276 0.049177 0.058087 255 220 0
0.278423 0.180111 0.063697 255 220 0
0.284191 0.052052 0.012629 255 220 0
0.295839 0.088014 0.079985 255 220 0
0.263769 0.159244 0.105388 255 220 0
0.303122 0.126241 0.039082 255 220 0
0.289262 0.097613 0.013550 255 220 0
0.284013 0.113967 0.096402 255 220 0
0.237428 0.109628 0.084272 255 220 0
0.297521 0.161221 0.088501 255 220 0
0.298441 0.070097 0.062111 255 220 0
0.262849 0.202635 0.076386 255 220 0
0.234080 0.100397 0.078440 255 220 0
0.225153 0.075291 0.040420 255 220 0
0.257180 0.125137 0.099740 255 220 0
0.267733 0.169894 0.105028 255 220 0
0.288841 0.077393 0.078512 255 220 0
0.284248 0.088694 0.008114 255 220 0
0.264058 0.137844 0.030286 255 220 0
0.263030 0.198958 0.071455 255 220 0
0.263258 0.167825 0.105366 255 220 0
0.300445 0.068526 0.022804 255 220 0
0.294484 0.161447 0.058294 255 220 0
0.284786 0.131718 0.100016 255 220 0
0.229705 0.172935 0.083315 255 220 0
0.228785 0.164814 0.069035 255 220 0
0.224074 0.116188 0.039987 255 220 0
0.304321 0.156347 0.070077 255 220 0
0.227099 0.084978 0.061691 255 220 0
0.226285 0.142783 0.056534 255 220 0
0.277815 0.186450 0.097398 255 220 0
0.266338 0.199138 0.074315 255 220 0
0.284516 0.045988 0.046030 255 220 0
0.267165 0.191921 0.067842 255 220 0
0.256221 0.078301 0.082975 255 220 0
0.254458 0.040595 0.029998 255 220 0
0.222740 0.099093 0.061288 255 220 0
0.229902 0.166902 0.066351 255 220 0
0.230689 0.179110 0.086468 255 220 0
0.234748 0.197923 0.072353 255 220 0
0.277581 0.039835 0.039849 255 220 0
0.299233 0.139504 0.090417 255 220 0
0.295569 0.112009 0.024201 255 220 0
0.279489 0.040203 0.023830 255 220 0
0.272855 0.131546 0.026609 255 220 0
0.296520 0.063876 0.057257 255 220 0
0.273037 0.141911 0.104172 255 220 0
0.275607 0.128604 0.101996 255 220 0
0.276562 0.188732 0.071745 255 220 0
0.313180 0.113560 0.058214 255 220 0
0.274304 0.056974 0.006570 255 220 0
0.269024 0.164309 0.105230 255 220 0
0.228068 0.122009 0.077058 255 220 0
0.249361 0.087878 0.084893 255 220 0
0.262418 0.125370 0.022778 255 220 0
0.229053 0.100659 0.073094 255 220 0
0.225612 0.076012 0.047413 255 220 0
0.230321 0.142600 0.048402 255 220 0
0.248435 0.088683 0.084760 255 220 0
0.239886 0.065226 0.061965 255 220 0
0.295574 0.106560 0.021576 255 220 0
0.235657 0.141103 0.042151 255 220 0
0.242953 0.060573 0.059856 255 220 0
0.279555 0.053135 0.061554 255 220 0
0.272532 0.129983 0.102524 255 220 0
0.266062 0.062200 0.072860 255 220 0
0.243047 0.071212 0.071223 255 220 0
0.299675 0.082683 0.018561 255 220 0
0.254051 0.090518 0.007956 255 220 0
0.281706 0.074820 0.005089 255 220 0
0.276974 0.104048 0.095711 255 220 0
0.252089 0.203389 0.070935 255 220 0
0.258631 0.066952 0.004951 255 220 0
0.288458 0.175999 0.093388 255 220 0
0.227986 0.160770 0.074943 255 220 0
0.303099 0.113878 0.031660 255 220 0
0.304567 0.100808 0.076839 255 220 0
0.286605 0.074410 0.077752 255 220 0
0.278557 0.065603 0.074910 255 220 0
0.309053 0.082931 0.047724 255 220 0
0.240880 0.116746 0.024390 255 220 0
0.281661 0.186626 0.075979 255 220 0
0.235531 0.134787 0.038183 255 220 0
0.296003 0.055697 0.044439 255 220 0
0.276192 0.113138 0.016223 255 220 0
0.304080 0.101053 0.077583 255 220 0
0.279723 0.053987 0.062561 255 220 0
0.307382 0.089390 0.065134 255 220 0
0.308735 0.138141 0.055398 255 220 0
0.274577 0.097959 0.008649 255 220 0
0.242584 0.143960 0.095797 255 220 0
0.277256 0.078884 0.084300 255 220 0
0.245422 0.118877 0.092569 255 220 0
0.260467 0.044621 0.014185 255 220 0
0.236829 0.092786 0.017162 255 220 0
0.224944 0.135018 0.051876 255 220 0
0.257212 0.077218 0.082671 255 220 0
0.238036 0.069658 0.064597 255 220 0
0.292231 0.127241 0.095150 255 220 0
0.300023 0.073337 0.019963 255 220 0
0.261750 0.089774 0.090098 255 220 0
0.259509 0.094802 0.091704 255 220 0
0.303125 0.075826 0.025861 255 220 0
0.254712 0.145121 0.102405 255 220 0
0.307438 0.080500 0.037630 255 220 0
0.288798 0.179093 0.090593 255 220 0
0.243267 0.069899 0.011475 255 220 0
0.304360 0.122124 0.083162 255 220 0
0.301410 0.095242 0.078257 255 220 0
0.250548 0.046056 0.045591 255 220 0
0.251306 0.204299 0.071717 255 220 0
0.236113 0.146108 0.090600 255 220 0
0.241319 0.083093 0.077450 255 220 0
0.234426 0.059536 0.027498 255 220 0
0.294246 0.071864 0.069566 255 220 0
0.292020 0.134619 0.096232 255 220 0
0.260549 0.040566 0.019991 255 220 0
0.232396 0.158512 0.057089 255 220 0
0.301071 0.117593 0.031701 255 220 0
0.225464 0.080398 0.031135 255 220 0
0.248134 0.044411 0.031282 255 220 0
0.251914 0.200772 0.068611 255 220 0
0.310127 0.140007 0.074520 255 220 0
0.238102 0.057958 0.048874 255 220 0
0.253703 0.090795 0.008137 255 220 0
0.271660 0.077593 0.003093 255 220 0
0.262862 0.164384 0.047873 255 220 0
0.302911 0.155652 0.064344 255 220 0
0.285706 0.146446 0.039402 255 220 0
0.293076 0.125735 0.030171 255 220 0
0.248885 0.203603 0.070459 255 220 0
0.277757 0.152613 0.041503 255 220 0
0.247443 0.196684 0.065776 255 220 0
0.299901 0.157532 0.061255 255 220 0
0.298024 0.113999 0.027115 255 220 0
0.275975 0.185699 0.067652 255 220 0
0.288289 0.148741 0.042343 255 220 0
0.239458 0.194661 0.066911 255 220 0
