ply
format ascii 1.0
element vertex 1024
property float x
property float y
property float z
property uchar red
property uchar green
property uchar blue
end_header
0.625997 0.073608 0.332379 255 220 0
0.566948 0.098434 0.308826 255 220 0
0.632527 0.051028 0.269808 255 220 0
0.589259 0.032144 0.295846 255 220 0
0.626626 0.084344 0.258567 255 220 0
0.573873 0.102948 0.266153 255 220 0
0.625495 0.062933 0.325657 255 220 0
0.663274 0.135203 0.340857 255 220 0
0.660235 0.071482 0.299871 255 220 0
0.596826 0.083113 0.248195 255 220 0
0.588866 0.033226 0.298083 255 220 0
0.580901 0.041027 0.244812 255 220 0
0.594117 0.099905 0.258252 255 220 0
0.624412 0.056479 0.320533 255 220 0
0.630095 0.043496 0.286299 255 220 0
0.585090 0.116336 0.316951 255 220 0
0.547016 0.059953 0.265276 255 220 0
0.650882 0.096214 0.336736 255 220 0
0.592932 0.114437 0.324496 255 220 0
0.609424 0.046302 0.314711 255 220 0
0.607489 0.039719 0.306239 255 220 0
0.627851 0.057784 0.320156 255 220 0
0.556766 0.090717 0.297627 255 220 0
0.554937 0.047599 0.252205 255 220 0
0.577698 0.105042 0.266453 255 220 0
0.575729 0.100059 0.262090 255 220 0
0.653300 0.146767 0.301500 255 220 0
0.624191 0.058791 0.256927 255 220 0
0.568268 0.055138 0.243703 255 220 0
0.645288 0.166157 0.315147 255 220 0
0.638640 0.057603 0.271262 255 220 0
0.677338 0.141017 0.326717 255 220 0
0.659898 0.091869 0.284298 255 220 0
0.649055 0.168201 0.316457 255 220 0
0.621888 0.092607 0.338671 255 220 0
0.588273 0.027218 0.264026 255 220 0
0.628085 0.121707 0.278764 255 220 0
0.594827 0.055958 0.322332 255 220 0
0.677313 0.139034 0.328282 255 220 0
0.662679 0.092844 0.287527 255 220 0
0.606440 0.134267 0.293824 255 220 0
0.677754 0.126362 0.318563 255 220 0
0.626488 0.058946 0.258516 255 220 0
0.617948 0.059882 0.252447 255 220 0
0.644492 0.148950 0.340913 255 220 0
0.623473 0.113787 0.272026 255 220 0
0.605949 0.045222 0.313993 255 220 0
0.629560 0.053249 0.264124 255 220 0
0.607558 0.074427 0.332612 255 220 0
0.551824 0.045402 0.257321 255 220 0
0.641832 0.080260 0.267905 255 220 0
0.670213 0.119890 0.333973 255 220 0
0.610748 0.059125 0.325788 255 220 0
0.614638 0.090917 0.337242 255 220 0
0.604957 0.052064 0.320621 255 220 0
0.582179 0.109444 0.318853 255 220 0
0.615357 0.040067 0.265000 255 220 0
0.562870 0.037427 0.289882 255 220 0
0.587327 0.115401 0.274649 255 220 0
0.560755 0.093296 0.266362 255 220 0
0.654207 0.094180 0.278871 255 220 0
0.561385 0.044745 0.295816 255 220 0
0.657781 0.140601 0.342707 255 220 0
0.614249 0.037309 0.296874 255 220 0
0.595664 0.036208 0.252149 255 220 0
0.676046 0.146676 0.324114 255 220 0
0.578586 0.060538 0.318371 255 220 0
0.637040 0.123097 0.282247 255 220 0
0.635537 0.048031 0.295116 255 220 0
0.654465 0.091846 0.278897 255 220 0
0.624785 0.042191 0.273611 255 220 0
0.638346 0.137133 0.292092 255 220 0
0.659850 0.103222 0.285389 255 220 0
0.671987 0.125254 0.305536 255 220 0
0.617184 0.050534 0.317353 255 220 0
0.662659 0.141498 0.302899 255 220 0
0.572755 0.044119 0.304266 255 220 0
0.625670 0.050824 0.313624 255 220 0
0.646328 0.078012 0.271571 255 220 0
0.613173 0.115047 0.335819 255 220 0
0.637339 0.139531 0.341092 255 220 0
0.583202 0.097632 0.323477 255 220 0
0.607751 0.067611 0.246618 255 220 0
0.643847 0.065968 0.317989 255 220 0
0.600778 0.134790 0.306320 255 220 0
0.626697 0.095708 0.262255 255 220 0
0.547013 0.057291 0.265694 255 220 0
0.677048 0.115912 0.318772 255 220 0
0.637320 0.078083 0.332358 255 220 0
0.644984 0.103960 0.340853 255 220 0
0.643751 0.059225 0.277511 255 220 0
0.608911 0.138783 0.302319 255 220 0
0.579373 0.032476 0.294510 255 220 0
0.635573 0.118416 0.278746 255 220 0
0.567574 0.039744 0.296580 255 220 0
0.565369 0.089131 0.258043 255 220 0
0.609870 0.064449 0.247479 255 220 0
0.595607 0.028099 0.276511 255 220 0
0.632769 0.127247 0.283888 255 220 0
0.622088 0.039050 0.290052 255 220 0
0.612198 0.042693 0.309215 255 220 0
0.549914 0.044485 0.277322 255 220 0
0.598744 0.057675 0.243166 255 220 0
0.585488 0.029634 0.289623 255 220 0
0.606383 0.054782 0.246749 255 220 0
0.616382 0.127020 0.282440 255 220 0
0.587595 0.043835 0.243968 255 220 0
0.637975 0.049525 0.290216 255 220 0
0.602519 0.080317 0.247850 255 220 0
0.631124 0.046291 0.299843 255 220 0
0.553404 0.088831 0.290964 255 220 0
0.611156 0.048241 0.252544 255 220 0
0.607921 0.074662 0.332741 255 220 0
0.580178 0.067126 0.321502 255 220 0
0.601489 0.085845 0.250390 255 220 0
0.605954 0.070173 0.330942 255 220 0
0.581969 0.050503 0.241523 255 220 0
0.597650 0.113166 0.328014 255 220 0
0.620987 0.084730 0.255818 255 220 0
0.579005 0.107420 0.317101 255 220 0
0.583996 0.124101 0.302192 255 220 0
0.564716 0.040372 0.294860 255 220 0
0.642192 0.126921 0.286362 255 220 0
0.647265 0.069397 0.318832 255 220 0
0.610054 0.112883 0.269282 255 220 0
0.592180 0.083080 0.247602 255 220 0
0.645475 0.061675 0.277183 255 220 0
0.637809 0.134415 0.290030 255 220 0
0.674555 0.147028 0.331670 255 220 0
0.621262 0.067210 0.329660 255 220 0
0.593046 0.034210 0.299870 255 220 0
0.608068 0.081726 0.334471 255 220 0
0.660028 0.127283 0.341579 255 220 0
0.550148 0.042249 0.273843 255 220 0
0.649828 0.063532 0.281997 255 220 0
0.553150 0.061968 0.294959 255 220 0
0.644936 0.165140 0.332572 255 220 0
0.623666 0.091053 0.338547 255 220 0
0.630686 0.078148 0.333911 255 220 0
0.546545 0.072520 0.273777 255 220 0
0.618017 0.036634 0.282003 255 220 0
0.566876 0.089379 0.257242 255 220 0
0.632339 0.107026 0.341703 255 220 0
0.649758 0.072393 0.275638 255 220 0
0.591430 0.123266 0.283740 255 220 0
0.562866 0.069573 0.309287 255 220 0
0.546224 0.055875 0.275171 255 220 0
0.578050 0.032018 0.251917 255 220 0
0.598772 0.041741 0.248800 255 220 0
0.625111 0.142037 0.297101 255 220 0
0.665951 0.089208 0.292720 255 220 0
0.643153 0.155147 0.338264 255 220 0
0.547689 0.076699 0.274117 255 220 0
0.578156 0.046241 0.309330 255 220 0
0.636739 0.100426 0.268839 255 220 0
0.560546 0.035996 0.285524 255 220 0
0.609102 0.041263 0.308168 255 220 0
0.599024 0.094571 0.332160 255 220 0
0.549024 0.072576 0.288255 255 220 0
0.622045 0.145478 0.327322 255 220 0
0.649922 0.148187 0.301381 255 220 0
0.623762 0.149758 0.309294 255 220 0
0.634049 0.049636 0.303623 255 220 0
0.614370 0.035422 0.276352 255 220 0
0.581244 0.040692 0.306132 255 220 0
0.645300 0.148030 0.300485 255 220 0
0.554505 0.048807 0.252361 255 220 0
0.673254 0.102833 0.317893 255 220 0
0.664736 0.105985 0.332602 255 220 0
0.598661 0.086023 0.250012 255 220 0
0.662725 0.119867 0.339121 255 220 0
0.626529 0.062791 0.325180 255 220 0
0.630039 0.064940 0.259529 255 220 0
0.599276 0.103743 0.261271 255 220 0
0.663273 0.167157 0.322545 255 220 0
0.602751 0.096223 0.256424 255 220 0
0.638678 0.110949 0.275232 255 220 0
0.578635 0.025956 0.264749 255 220 0
0.624377 0.126923 0.282421 255 220 0
0.612398 0.137314 0.295762 255 220 0
0.659127 0.163436 0.335080 255 220 0
0.610131 0.033531 0.275484 255 220 0
0.616694 0.141092 0.299648 255 220 0
0.614622 0.059214 0.325512 255 220 0
0.577800 0.085645 0.250101 255 220 0
0.596893 0.076189 0.245054 255 220 0
0.609926 0.033558 0.287176 255 220 0
0.576046 0.082779 0.320731 255 220 0
0.620759 0.127754 0.283063 255 220 0
0.578617 0.025508 0.268670 255 220 0
0.616447 0.047981 0.256832 255 220 0
0.567318 0.030132 0.282213 255 220 0
0.582961 0.084588 0.248517 255 220 0
0.594951 0.030950 0.291608 255 220 0
0.645393 0.069137 0.320276 255 220 0
0.636790 0.123806 0.342853 255 220 0
0.598399 0.042573 0.247995 255 220 0
0.591514 0.128680 0.295974 255 220 0
0.645828 0.134730 0.292197 255 220 0
0.651258 0.061141 0.294698 255 220 0
0.627155 0.067760 0.328650 255 220 0
0.619789 0.039005 0.295215 255 220 0
0.569215 0.106984 0.304939 255 220 0
0.627348 0.057484 0.320114 255 220 0
0.593940 0.080976 0.330009 255 220 0
0.621487 0.097228 0.261218 255 220 0
0.632726 0.110830 0.272904 255 220 0
0.603983 0.036390 0.258675 255 220 0
0.593402 0.030968 0.258352 255 220 0
0.550556 0.059582 0.290138 255 220 0
0.615938 0.141959 0.323095 255 220 0
0.645151 0.077901 0.270564 255 220 0
0.588366 0.030079 0.256743 255 220 0
0.588420 0.054401 0.319830 255 220 0
0.564972 0.037472 0.249932 255 220 0
0.624503 0.061315 0.256416 255 220 0
0.553877 0.091857 0.287742 255 220 0
0.571845 0.041444 0.301286 255 220 0
0.605451 0.032183 0.287595 255 220 0
0.594467 0.098813 0.329592 255 220 0
0.607616 0.138887 0.310160 255 220 0
0.653724 0.142256 0.343174 255 220 0
0.627182 0.098492 0.340144 255 220 0
0.605256 0.122933 0.279102 255 220 0
0.661129 0.075415 0.308265 255 220 0
0.568972 0.063139 0.243873 255 220 0
0.619550 0.057008 0.254302 255 220 0
0.656070 0.170186 0.323874 255 220 0
0.663901 0.126639 0.339792 255 220 0
0.633661 0.099023 0.340586 255 220 0
0.641048 0.110693 0.342475 255 220 0
0.622824 0.149451 0.321849 255 220 0
0.567808 0.103386 0.306399 255 220 0
0.666983 0.163927 0.322932 255 220 0
0.589896 0.108498 0.266206 255 220 0
0.566629 0.029783 0.258116 255 220 0
0.597029 0.093847 0.331353 255 220 0
0.651070 0.121454 0.286772 255 220 0
0.558313 0.095428 0.273213 255 220 0
0.637386 0.100201 0.340745 255 220 0
0.634245 0.066706 0.262381 255 220 0
0.633557 0.137964 0.292372 255 220 0
0.658290 0.118071 0.289031 255 220 0
0.585637 0.125216 0.295481 255 220 0
0.585266 0.116754 0.277447 255 220 0
0.590887 0.095607 0.255160 255 220 0
0.668870 0.108171 0.329735 255 220 0
0.597545 0.030037 0.265128 255 220 0
0.574197 0.091379 0.255174 255 220 0
0.635618 0.051226 0.274751 255 220 0
0.647355 0.122184 0.285569 255 220 0
0.626241 0.044153 0.301659 255 220 0
0.577252 0.027910 0.258545 255 220 0
0.665935 0.082147 0.308452 255 220 0
0.674583 0.149959 0.321415 255 220 0
0.586872 0.077777 0.326661 255 220 0
0.626964 0.150521 0.328004 255 220 0
0.645878 0.100319 0.273886 255 220 0
0.633374 0.045900 0.286622 255 220 0
0.645733 0.149800 0.340992 255 220 0
0.585436 0.044129 0.311228 255 220 0
0.657459 0.089310 0.281671 255 220 0
0.652940 0.064215 0.302331 255 220 0
0.629761 0.077121 0.259211 255 220 0
0.645327 0.149217 0.301242 255 220 0
0.607127 0.084927 0.334755 255 220 0
0.620806 0.067913 0.330147 255 220 0
0.660454 0.167979 0.318584 255 220 0
0.584404 0.077841 0.244867 255 220 0
0.614077 0.056351 0.250887 255 220 0
0.635506 0.072138 0.262913 255 220 0
0.581352 0.115668 0.278313 255 220 0
0.602170 0.084859 0.333330 255 220 0
0.629004 0.070778 0.258380 255 220 0
0.626116 0.111553 0.340816 255 220 0
0.582729 0.087928 0.324539 255 220 0
0.664874 0.080933 0.309252 255 220 0
0.567713 0.082188 0.314270 255 220 0
0.627515 0.147116 0.331946 255 220 0
0.614301 0.103773 0.263361 255 220 0
0.554480 0.063125 0.297248 255 220 0
0.658500 0.083154 0.283148 255 220 0
0.602246 0.105604 0.262867 255 220 0
0.571433 0.039017 0.298643 255 220 0
0.562105 0.031604 0.279939 255 220 0
0.654752 0.095489 0.334395 255 220 0
0.548792 0.080514 0.278351 255 220 0
0.649207 0.089126 0.334023 255 220 0
0.564660 0.102331 0.301946 255 220 0
0.620910 0.043531 0.265743 255 220 0
0.613372 0.041412 0.260888 255 220 0
0.572397 0.081394 0.249295 255 220 0
0.557267 0.062467 0.300889 255 220 0
0.631679 0.044620 0.288629 255 220 0
0.582728 0.058538 0.319669 255 220 0
0.601250 0.065791 0.244039 255 220 0
0.554295 0.092161 0.278033 255 220 0
0.551407 0.053602 0.288817 255 220 0
0.603591 0.035673 0.259433 255 220 0
0.667030 0.095827 0.322639 255 220 0
0.556447 0.094401 0.293187 255 220 0
0.584123 0.123524 0.292079 255 220 0
0.659928 0.142683 0.302054 255 220 0
0.568673 0.110277 0.284352 255 220 0
0.572803 0.114856 0.297459 255 220 0
0.614274 0.038176 0.267281 255 220 0
0.558967 0.031731 0.263105 255 220 0
0.661822 0.141901 0.341422 255 220 0
0.648091 0.079911 0.328458 255 220 0
0.645492 0.097163 0.272762 255 220 0
0.628567 0.121777 0.340891 255 220 0
0.644709 0.074818 0.326455 255 220 0
0.616469 0.118039 0.274093 255 220 0
0.602145 0.128795 0.321894 255 220 0
0.564161 0.056797 0.245413 255 220 0
0.617196 0.038917 0.269614 255 220 0
0.607764 0.080140 0.249185 255 220 0
0.568847 0.095072 0.312599 255 220 0
0.639125 0.077653 0.265717 255 220 0
0.611066 0.132596 0.289426 255 220 0
0.570720 0.067213 0.244070 255 220 0
0.570035 0.070394 0.315994 255 220 0
0.629936 0.058582 0.319851 255 220 0
0.576542 0.104555 0.266481 255 220 0
0.596516 0.092883 0.331187 255 220 0
0.640747 0.068662 0.323322 255 220 0
0.655494 0.067304 0.303923 255 220 0
0.605500 0.040747 0.254392 255 220 0
0.611265 0.046346 0.253948 255 220 0
0.635006 0.047154 0.290558 255 220 0
0.562428 0.028889 0.271937 255 220 0
0.564256 0.078796 0.311120 255 220 0
0.558505 0.031665 0.274018 255 220 0
0.617502 0.112565 0.269942 255 220 0
0.619146 0.145720 0.306661 255 220 0
0.666562 0.150828 0.337960 255 220 0
0.599131 0.087841 0.332416 255 220 0
0.620618 0.118132 0.274659 255 220 0
0.576068 0.113601 0.279620 255 220 0
0.581381 0.099486 0.321898 255 220 0
0.634627 0.158882 0.328551 255 220 0
0.626384 0.147977 0.303471 255 220 0
0.645544 0.060770 0.278440 255 220 0
0.598522 0.040850 0.249361 255 220 0
0.628771 0.053365 0.263287 255 220 0
0.660354 0.121506 0.292036 255 220 0
0.657049 0.116068 0.340704 255 220 0
0.551205 0.056937 0.290163 255 220 0
0.573305 0.072146 0.318580 255 220 0
0.662083 0.093710 0.286809 255 220 0
0.663246 0.133215 0.340774 255 220 0
0.593416 0.071398 0.328173 255 220 0
0.631258 0.101912 0.267102 255 220 0
0.658976 0.129618 0.342184 255 220 0
0.634041 0.068929 0.261957 255 220 0
0.620550 0.120054 0.276183 255 220 0
0.600047 0.127767 0.286424 255 220 0
0.582291 0.121917 0.290334 255 220 0
0.668612 0.102515 0.326023 255 220 0
0.663887 0.114150 0.336870 255 220 0
0.584092 0.116350 0.315906 255 220 0
0.659535 0.168772 0.319747 255 220 0
0.584037 0.070503 0.324231 255 220 0
0.620372 0.110472 0.269063 255 220 0
0.591272 0.111126 0.268655 255 220 0
0.642909 0.144678 0.341641 255 220 0
0.555554 0.042514 0.286811 255 220 0
0.570233 0.037207 0.295843 255 220 0
0.550460 0.063170 0.258162 255 220 0
0.610658 0.132635 0.289590 255 220 0
0.603246 0.135817 0.301560 255 220 0
0.581506 0.030378 0.254274 255 220 0
0.631432 0.045976 0.277482 255 220 0
0.644227 0.159703 0.336474 255 220 0
0.553478 0.070329 0.296876 255 220 0
0.568145 0.028458 0.278661 255 220 0
0.605793 0.077326 0.333059 255 220 0
0.580826 0.097222 0.322011 255 220 0
0.661442 0.116806 0.339042 255 220 0
0.661137 0.155088 0.339314 255 220 0
0.551535 0.038776 0.269282 255 220 0
0.668546 0.129948 0.302630 255 220 0
0.549032 0.074860 0.287558 255 220 0
0.603487 0.040895 0.309046 255 220 0
0.632100 0.157604 0.325902 255 220 0
0.585688 0.116832 0.277331 255 220 0
0.647523 0.127063 0.288441 255 220 0
0.669438 0.112057 0.331401 255 220 0
0.619445 0.050839 0.316827 255 220 0
0.558905 0.041854 0.250982 255 220 0
0.591847 0.081338 0.329174 255 220 0
0.664664 0.149630 0.307337 255 220 0
0.619155 0.037773 0.277046 255 220 0
0.574088 0.071413 0.318984 255 220 0
0.618779 0.103152 0.338919 255 220 0
0.651253 0.143886 0.299297 255 220 0
0.599426 0.123017 0.280276 255 220 0
0.619940 0.070927 0.331830 255 220 0
0.654049 0.145159 0.342766 255 220 0
0.593732 0.130378 0.298571 255 220 0
0.629780 0.156534 0.321407 255 220 0
0.606627 0.124560 0.329059 255 220 0
0.603049 0.120016 0.328735 255 220 0
0.598346 0.133394 0.303715 255 220 0
0.600479 0.032545 0.293682 255 220 0
0.599347 0.091568 0.253161 255 220 0
0.642032 0.064493 0.270390 255 220 0
0.619024 0.119204 0.337673 255 220 0
0.630463 0.091960 0.262588 255 220 0
0.555731 0.079206 0.300065 255 220 0
0.585367 0.047608 0.242327 255 220 0
0.607638 0.106557 0.264083 255 220 0
0.639694 0.051421 0.286244 255 220 0
0.655453 0.078747 0.280335 255 220 0
0.557297 0.097188 0.279579 255 220 0
0.637802 0.059105 0.268843 255 220 0
0.677388 0.132833 0.318745 255 220 0
0.630417 0.152938 0.329889 255 220 0
0.610670 0.052169 0.250145 255 220 0
0.624045 0.057334 0.321489 255 220 0
0.613277 0.060963 0.326845 255 220 0
0.563246 0.046782 0.299230 255 220 0
0.644811 0.074359 0.270482 255 220 0
0.595307 0.130897 0.297118 255 220 0
0.586534 0.092026 0.326279 255 220 0
0.662747 0.161590 0.312356 255 220 0
0.665804 0.125505 0.298194 255 220 0
0.582349 0.026520 0.263060 255 220 0
0.596546 0.106921 0.263936 255 220 0
0.555618 0.043746 0.288094 255 220 0
0.630810 0.145816 0.299408 255 220 0
0.621149 0.127315 0.282642 255 220 0
0.669209 0.134135 0.337283 255 220 0
0.643474 0.054156 0.292964 255 220 0
0.580062 0.073369 0.243542 255 220 0
0.611620 0.140267 0.302872 255 220 0
0.652583 0.128080 0.343506 255 220 0
0.623507 0.041435 0.297824 255 220 0
0.590337 0.027403 0.265586 255 220 0
0.599474 0.051494 0.319894 255 220 0
0.610880 0.041488 0.258380 255 220 0
0.634155 0.094113 0.339438 255 220 0
0.558200 0.031275 0.269970 255 220 0
0.621762 0.143238 0.329311 255 220 0
0.647051 0.084855 0.272239 255 220 0
0.614043 0.064933 0.329165 255 220 0
0.588129 0.108249 0.266332 255 220 0
0.567752 0.109852 0.295083 255 220 0
0.660734 0.077773 0.288018 255 220 0
0.563228 0.056705 0.245863 255 220 0
0.640096 0.084007 0.266883 255 220 0
0.562653 0.103823 0.281333 255 220 0
0.547534 0.055249 0.264358 255 220 0
0.639127 0.083523 0.334856 255 220 0
0.642843 0.081624 0.268751 255 220 0
0.592223 0.099202 0.257763 255 220 0
0.565415 0.033931 0.287488 255 220 0
0.664227 0.079663 0.308647 255 220 0
0.650625 0.061612 0.287486 255 220 0
0.648082 0.156409 0.305887 255 220 0
0.636981 0.159946 0.330528 255 220 0
0.600942 0.037090 0.303769 255 220 0
0.622202 0.117294 0.274278 255 220 0
0.634695 0.108324 0.272076 255 220 0
0.637279 0.049002 0.288433 255 220 0
0.586782 0.099938 0.325204 255 220 0
0.614191 0.039524 0.264607 255 220 0
0.603280 0.060245 0.244676 255 220 0
0.557777 0.087285 0.263432 255 220 0
0.647509 0.059746 0.303249 255 220 0
0.669227 0.142283 0.337258 255 220 0
0.622856 0.150404 0.316230 255 220 0
0.572747 0.067019 0.317185 255 220 0
0.635418 0.068565 0.326218 255 220 0
0.546681 0.053065 0.273150 255 220 0
0.620406 0.041491 0.301837 255 220 0
0.575120 0.111320 0.309649 255 220 0
0.574572 0.054144 0.312656 255 220 0
0.610499 0.115631 0.271652 255 220 0
0.624126 0.147950 0.327149 255 220 0
0.674319 0.125871 0.331731 255 220 0
0.562597 0.075879 0.251294 255 220 0
0.610004 0.049242 0.251098 255 220 0
0.569746 0.093864 0.259289 255 220 0
0.581130 0.117473 0.311103 255 220 0
0.563050 0.087947 0.308358 255 220 0
0.562193 0.095229 0.304049 255 220 0
0.627131 0.084843 0.258951 255 220 0
0.666522 0.088866 0.293872 255 220 0
0.677906 0.126956 0.326004 255 220 0
0.660657 0.120906 0.291985 255 220 0
0.592297 0.033010 0.254197 255 220 0
0.672039 0.149441 0.333951 255 220 0
0.623867 0.039721 0.287554 255 220 0
0.631189 0.054323 0.314243 255 220 0
0.595078 0.038077 0.306156 255 220 0
0.584701 0.063551 0.322608 255 220 0
0.603638 0.100491 0.259272 255 220 0
0.630549 0.089314 0.338264 255 220 0
0.587895 0.037148 0.248044 255 220 0
0.602228 0.097149 0.256914 255 220 0
0.617770 0.043627 0.308012 255 220 0
0.650210 0.134449 0.343843 255 220 0
0.565055 0.027672 0.267668 255 220 0
0.627673 0.136396 0.337550 255 220 0
0.646736 0.066056 0.315171 255 220 0
0.589124 0.102614 0.260806 255 220 0
0.603275 0.030602 0.275831 255 220 0
0.632755 0.045663 0.283859 255 220 0
0.648710 0.121987 0.286034 255 220 0
0.574257 0.099651 0.316227 255 220 0
0.622967 0.142185 0.297974 255 220 0
0.660598 0.163071 0.334628 255 220 0
0.658248 0.153815 0.306353 255 220 0
0.552994 0.057793 0.253705 255 220 0
0.585847 0.041639 0.309022 255 220 0
0.613359 0.038372 0.265725 255 220 0
0.591385 0.031081 0.293051 255 220 0
0.637545 0.132243 0.342402 255 220 0
0.599681 0.103747 0.331391 255 220 0
0.552880 0.037488 0.274214 255 220 0
0.608969 0.058617 0.247432 255 220 0
0.661873 0.153005 0.339723 255 220 0
0.660425 0.161572 0.310953 255 220 0
0.642220 0.121838 0.283317 255 220 0
0.607297 0.060855 0.326831 255 220 0
0.666297 0.124643 0.298350 255 220 0
0.584204 0.027735 0.259952 255 220 0
0.573263 0.064707 0.316806 255 220 0
0.576832 0.064429 0.241722 255 220 0
0.580666 0.071867 0.242921 255 220 0
0.624923 0.055036 0.318839 255 220 0
0.549854 0.070072 0.290415 255 220 0
0.559409 0.058181 0.302076 255 220 0
0.643615 0.068460 0.321027 255 220 0
0.579194 0.071262 0.321931 255 220 0
0.585111 0.049998 0.315789 255 220 0
0.661196 0.098000 0.286060 255 220 0
0.621888 0.049403 0.314000 255 220 0
0.554846 0.057161 0.251605 255 220 0
0.620340 0.086120 0.337166 255 220 0
0.678137 0.132794 0.322452 255 220 0
0.583840 0.088500 0.250799 255 220 0
0.583229 0.123268 0.293254 255 220 0
0.638272 0.121423 0.281612 255 220 0
0.675606 0.135183 0.314781 255 220 0
0.555492 0.085556 0.264766 255 220 0
0.618024 0.052873 0.254964 255 220 0
0.628611 0.044388 0.275354 255 220 0
0.662108 0.104221 0.287909 255 220 0
0.573525 0.107187 0.271760 255 220 0
0.582682 0.099778 0.322703 255 220 0
0.669512 0.091302 0.313230 255 220 0
0.666760 0.094041 0.321414 255 220 0
0.561351 0.055525 0.246817 255 220 0
0.578913 0.026571 0.278774 255 220 0
0.577134 0.035548 0.298207 255 220 0
0.546120 0.061912 0.268609 255 220 0
0.612514 0.129877 0.330561 255 220 0
0.572735 0.114826 0.289407 255 220 0
0.651317 0.136403 0.343738 255 220 0
0.674982 0.129686 0.331767 255 220 0
0.667930 0.162794 0.325176 255 220 0
0.563996 0.098761 0.304310 255 220 0
0.639470 0.153616 0.337118 255 220 0
0.670167 0.114495 0.331867 255 220 0
0.648187 0.079924 0.328403 255 220 0
0.622304 0.058892 0.255577 255 220 0
0.583488 0.116466 0.315145 255 220 0
0.608702 0.044401 0.253492 255 220 0
0.556706 0.063486 0.251017 255 220 0
0.567867 0.027130 0.273560 255 220 0
0.677585 0.121884 0.317915 255 220 0
0.599387 0.079361 0.331760 255 220 0
0.641369 0.160133 0.309868 255 220 0
0.555644 0.091737 0.294276 255 220 0
0.665151 0.159835 0.334107 255 220 0
0.615546 0.134998 0.291339 255 220 0
0.589529 0.072012 0.326899 255 220 0
0.564385 0.072135 0.311173 255 220 0
0.655472 0.134125 0.295713 255 220 0
0.638911 0.054006 0.276568 255 220 0
0.556773 0.036780 0.281633 255 220 0
0.564220 0.091462 0.260902 255 220 0
0.634131 0.074175 0.261931 255 220 0
0.577808 0.059324 0.241083 255 220 0
0.554059 0.072585 0.256889 255 220 0
0.655260 0.113648 0.285030 255 220 0
0.548605 0.079973 0.278232 255 220 0
0.589878 0.091026 0.328153 255 220 0
0.649830 0.060500 0.299504 255 220 0
0.552526 0.044196 0.256814 255 220 0
0.560927 0.102821 0.285710 255 220 0
0.548745 0.072857 0.287461 255 220 0
0.652362 0.120979 0.342809 255 220 0
0.590964 0.090380 0.251689 255 220 0
0.588050 0.113736 0.272381 255 220 0
0.596363 0.080755 0.330914 255 220 0
0.582862 0.048236 0.313449 255 220 0
0.639146 0.095520 0.268394 255 220 0
0.645580 0.071603 0.271609 255 220 0
0.666814 0.141864 0.338903 255 220 0
0.553376 0.039536 0.279589 255 220 0
0.565387 0.072994 0.312246 255 220 0
0.582459 0.054471 0.317402 255 220 0
0.551391 0.074239 0.261356 255 220 0
0.606897 0.058183 0.325188 255 220 0
0.633642 0.103372 0.268843 255 220 0
0.658120 0.125750 0.292651 255 220 0
0.617245 0.079645 0.252803 255 220 0
0.612655 0.044968 0.256270 255 220 0
0.548509 0.046998 0.275294 255 220 0
0.613237 0.040832 0.261555 255 220 0
0.655318 0.072713 0.313796 255 220 0
0.591895 0.059489 0.323507 255 220 0
0.596972 0.127909 0.288204 255 220 0
0.602391 0.127968 0.285807 255 220 0
0.611049 0.064596 0.329009 255 220 0
0.655118 0.086075 0.279322 255 220 0
0.562045 0.077584 0.308719 255 220 0
0.636386 0.137192 0.341241 255 220 0
0.567007 0.053432 0.244274 255 220 0
0.563045 0.037951 0.250582 255 220 0
0.613383 0.103428 0.337203 255 220 0
0.662730 0.166715 0.318847 255 220 0
0.658323 0.095444 0.331823 255 220 0
0.574008 0.068799 0.318430 255 220 0
0.571642 0.100805 0.265126 255 220 0
0.583291 0.112775 0.273094 255 220 0
0.604961 0.082434 0.249340 255 220 0
0.604479 0.031873 0.287411 255 220 0
0.651058 0.106302 0.279225 255 220 0
0.586112 0.026075 0.268695 255 220 0
0.573485 0.110625 0.277148 255 220 0
0.651119 0.153947 0.304740 255 220 0
0.661761 0.165358 0.315213 255 220 0
0.608788 0.112842 0.334135 255 220 0
0.575507 0.031819 0.291304 255 220 0
0.585502 0.034667 0.300179 255 220 0
0.585072 0.038107 0.246831 255 220 0
0.630659 0.056268 0.316959 255 220 0
0.547456 0.071035 0.267483 255 220 0
0.594047 0.077604 0.329649 255 220 0
0.670494 0.091259 0.304495 255 220 0
0.621013 0.055820 0.321256 255 220 0
0.562863 0.074913 0.309680 255 220 0
0.673572 0.106701 0.306358 255 220 0
0.638947 0.082367 0.265902 255 220 0
0.631428 0.147826 0.334791 255 220 0
0.660191 0.121902 0.340716 255 220 0
0.564003 0.036610 0.289966 255 220 0
0.619687 0.145644 0.305629 255 220 0
0.677726 0.138537 0.324397 255 220 0
0.623106 0.040034 0.292947 255 220 0
0.623144 0.075639 0.333712 255 220 0
0.645280 0.165960 0.314858 255 220 0
0.556767 0.092803 0.272044 255 220 0
0.660567 0.077039 0.311962 255 220 0
0.615688 0.135715 0.329459 255 220 0
0.643916 0.138865 0.294272 255 220 0
0.633510 0.074366 0.261499 255 220 0
0.593142 0.095480 0.329360 255 220 0
0.563392 0.091516 0.261657 255 220 0
0.578662 0.026187 0.263601 255 220 0
0.661613 0.148671 0.340749 255 220 0
0.557520 0.081116 0.302477 255 220 0
0.638416 0.128929 0.286412 255 220 0
0.629578 0.131868 0.287101 255 220 0
0.628500 0.139378 0.293825 255 220 0
0.670636 0.091289 0.307237 255 220 0
0.641026 0.128353 0.286820 255 220 0
0.601855 0.133248 0.295259 255 220 0
0.630594 0.087610 0.261487 255 220 0
0.596400 0.065329 0.242589 255 220 0
0.549601 0.078894 0.269100 255 220 0
0.678156 0.126302 0.320947 255 220 0
0.636546 0.161864 0.316462 255 220 0
0.603495 0.067822 0.244988 255 220 0
0.630424 0.076256 0.332982 255 220 0
0.587603 0.046425 0.313958 255 220 0
0.608561 0.139545 0.309749 255 220 0
0.585711 0.093677 0.325617 255 220 0
0.593124 0.028212 0.265682 255 220 0
0.621448 0.101648 0.339543 255 220 0
0.635075 0.048286 0.280754 255 220 0
0.632119 0.158609 0.322939 255 220 0
0.592008 0.047058 0.243488 255 220 0
0.610137 0.133583 0.291037 255 220 0
0.625412 0.044800 0.304123 255 220 0
0.557799 0.032075 0.265025 255 220 0
0.670349 0.113366 0.300310 255 220 0
0.649969 0.168948 0.317554 255 220 0
0.619138 0.131633 0.286997 255 220 0
0.620265 0.040926 0.300579 255 220 0
0.563508 0.100729 0.301561 255 220 0
0.664388 0.161126 0.313308 255 220 0
0.626279 0.047085 0.266885 255 220 0
0.598140 0.129682 0.315932 255 220 0
0.659419 0.071811 0.291216 255 220 0
0.633294 0.104032 0.269059 255 220 0
0.617495 0.121084 0.276784 255 220 0
0.662295 0.074627 0.302208 255 220 0
0.651832 0.068626 0.279929 255 220 0
0.592590 0.119180 0.321452 255 220 0
0.608277 0.121561 0.277327 255 220 0
0.629733 0.156064 0.323277 255 220 0
0.562646 0.066369 0.308460 255 220 0
0.651222 0.167963 0.315350 255 220 0
0.597062 0.043621 0.246696 255 220 0
0.574728 0.029113 0.284924 255 220 0
0.600633 0.070031 0.329838 255 220 0
0.583795 0.094463 0.254989 255 220 0
0.604462 0.136817 0.309523 255 220 0
0.672716 0.101745 0.318096 255 220 0
0.593462 0.126007 0.287110 255 220 0
0.582040 0.048446 0.313193 255 220 0
0.575294 0.041246 0.303372 255 220 0
0.593688 0.067995 0.327297 255 220 0
0.616835 0.036546 0.277060 255 220 0
0.607540 0.137464 0.316258 255 220 0
0.581656 0.118123 0.311007 255 220 0
0.595674 0.109359 0.266213 255 220 0
0.597511 0.047960 0.244765 255 220 0
0.576628 0.037146 0.299922 255 220 0
0.648085 0.058467 0.289909 255 220 0
0.551864 0.054595 0.255044 255 220 0
0.565740 0.052048 0.305128 255 220 0
0.641258 0.166163 0.326262 255 220 0
0.646458 0.161820 0.336179 255 220 0
0.585988 0.027826 0.283943 255 220 0
0.634202 0.160698 0.322828 255 220 0
0.589439 0.031990 0.295488 255 220 0
0.573472 0.107540 0.272310 255 220 0
0.621453 0.094878 0.259947 255 220 0
0.590150 0.060720 0.323559 255 220 0
0.588687 0.110674 0.323292 255 220 0
0.591332 0.027711 0.281031 255 220 0
0.579959 0.037736 0.302350 255 220 0
0.579884 0.068653 0.321746 255 220 0
0.598367 0.031155 0.290444 255 220 0
0.675264 0.108125 0.312599 255 220 0
0.650572 0.134907 0.294013 255 220 0
0.657477 0.070905 0.307415 255 220 0
0.610491 0.126079 0.281885 255 220 0
0.642344 0.160369 0.334996 255 220 0
0.575583 0.097605 0.259829 255 220 0
0.571421 0.109430 0.277473 255 220 0
0.645823 0.109527 0.341907 255 220 0
0.670210 0.133966 0.305891 255 220 0
0.631272 0.056843 0.263339 255 220 0
0.653825 0.097820 0.336078 255 220 0
0.623542 0.130278 0.337277 255 220 0
0.575488 0.103926 0.315565 255 220 0
0.607281 0.129198 0.326661 255 220 0
0.586097 0.114646 0.319155 255 220 0
0.670344 0.120496 0.301869 255 220 0
0.642181 0.093579 0.338333 255 220 0
0.591131 0.090093 0.328840 255 220 0
0.632505 0.053193 0.311648 255 220 0
0.600636 0.134256 0.300330 255 220 0
0.616589 0.081157 0.252868 255 220 0
0.554301 0.061653 0.252875 255 220 0
0.550395 0.080362 0.268767 255 220 0
0.616011 0.055581 0.252399 255 220 0
0.674465 0.106590 0.309450 255 220 0
0.623828 0.046481 0.308617 255 220 0
0.658057 0.097023 0.332994 255 220 0
0.663052 0.092840 0.325191 255 220 0
0.567282 0.057731 0.309644 255 220 0
0.644163 0.087601 0.270223 255 220 0
0.547358 0.052821 0.278467 255 220 0
0.555633 0.045559 0.289720 255 220 0
0.674774 0.122079 0.309605 255 220 0
0.627205 0.153541 0.312943 255 220 0
0.584617 0.124285 0.303756 255 220 0
0.670759 0.095062 0.301666 255 220 0
0.661705 0.073434 0.298671 255 220 0
0.562936 0.097457 0.269004 255 220 0
0.594862 0.096065 0.255511 255 220 0
0.605556 0.082842 0.334064 255 220 0
0.620464 0.121990 0.277795 255 220 0
0.551740 0.038446 0.268764 255 220 0
0.662119 0.076746 0.308481 255 220 0
0.627557 0.119733 0.340766 255 220 0
0.653146 0.078222 0.277930 255 220 0
0.579708 0.059032 0.318335 255 220 0
0.621185 0.143352 0.328556 255 220 0
0.667955 0.098403 0.323532 255 220 0
0.630795 0.095328 0.263913 255 220 0
0.552267 0.078055 0.262731 255 220 0
0.563389 0.077549 0.251646 255 220 0
0.610322 0.133521 0.326031 255 220 0
0.646659 0.065541 0.275307 255 220 0
0.548443 0.046446 0.268582 255 220 0
0.644596 0.060765 0.309965 255 220 0
0.623178 0.098478 0.339628 255 220 0
0.666420 0.112687 0.294778 255 220 0
0.656869 0.132313 0.342955 255 220 0
0.677723 0.122910 0.324475 255 220 0
0.631871 0.047236 0.275177 255 220 0
0.673313 0.106301 0.321686 255 220 0
0.661081 0.089691 0.285661 255 220 0
0.625010 0.146752 0.329618 255 220 0
0.619421 0.142023 0.299414 255 220 0
0.600110 0.134415 0.305572 255 220 0
0.676992 0.128650 0.328786 255 220 0
0.597175 0.131953 0.309233 255 220 0
0.592834 0.053650 0.242008 255 220 0
0.635828 0.162096 0.323758 255 220 0
0.628837 0.071314 0.258273 255 220 0
0.676820 0.143385 0.323812 255 220 0
0.562233 0.065321 0.307762 255 220 0
0.669413 0.095674 0.297996 255 220 0
0.555134 0.050929 0.251386 255 220 0
0.654941 0.080945 0.323594 255 220 0
0.629864 0.064869 0.259416 255 220 0
0.582770 0.050677 0.315168 255 220 0
0.616434 0.042565 0.307002 255 220 0
0.562606 0.104811 0.288274 255 220 0
0.669696 0.117834 0.333713 255 220 0
0.558873 0.040005 0.252084 255 220 0
0.646241 0.129143 0.343911 255 220 0
0.621426 0.146067 0.304468 255 220 0
0.623266 0.044016 0.304642 255 220 0
0.587840 0.105909 0.264052 255 220 0
0.570021 0.083620 0.316158 255 220 0
0.581418 0.090407 0.323503 255 220 0
0.546772 0.061984 0.282444 255 220 0
0.664376 0.101543 0.290161 255 220 0
0.548903 0.072252 0.264613 255 220 0
0.658436 0.165106 0.333805 255 220 0
0.596651 0.032716 0.257766 255 220 0
0.585308 0.065113 0.323387 255 220 0
0.590065 0.050906 0.318042 255 220 0
0.565230 0.046189 0.300464 255 220 0
0.562928 0.104171 0.294129 255 220 0
0.549608 0.048585 0.260651 255 220 0
0.641116 0.100735 0.340569 255 220 0
0.658096 0.154802 0.340186 255 220 0
0.631968 0.060527 0.262199 255 220 0
0.616706 0.043916 0.260968 255 220 0
0.624297 0.100868 0.340045 255 220 0
0.565030 0.065022 0.245986 255 220 0
0.558580 0.058140 0.248667 255 220 0
0.655679 0.147869 0.342174 255 220 0
0.666604 0.086013 0.295298 255 220 0
0.570927 0.083387 0.251024 255 220 0
0.641901 0.149290 0.301099 255 220 0
0.568154 0.105769 0.304471 255 220 0
0.606156 0.097679 0.334839 255 220 0
0.592796 0.049423 0.317484 255 220 0
0.582045 0.055474 0.317761 255 220 0
0.654423 0.069614 0.310453 255 220 0
0.675405 0.111000 0.311295 255 220 0
0.635613 0.055621 0.268987 255 220 0
0.616844 0.056065 0.252788 255 220 0
0.568929 0.086792 0.254145 255 220 0
0.557125 0.043772 0.290124 255 220 0
0.650114 0.087066 0.274841 255 220 0
0.562740 0.074489 0.250526 255 220 0
0.671995 0.135782 0.308747 255 220 0
0.595575 0.030269 0.289101 255 220 0
0.656249 0.104448 0.282448 255 220 0
0.660012 0.155890 0.307854 255 220 0
0.669424 0.150695 0.311349 255 220 0
0.575406 0.117559 0.293664 255 220 0
0.632209 0.048090 0.302792 255 220 0
0.594821 0.028360 0.267899 255 220 0
0.600565 0.066821 0.328682 255 220 0
0.660579 0.150719 0.340691 255 220 0
0.576941 0.032922 0.294146 255 220 0
0.565072 0.088147 0.310649 255 220 0
0.634980 0.081576 0.263089 255 220 0
0.658608 0.148549 0.341593 255 220 0
0.622954 0.049040 0.312951 255 220 0
0.549501 0.045619 0.277496 255 220 0
0.591740 0.027278 0.268795 255 220 0
0.626764 0.084896 0.258764 255 220 0
0.671553 0.094000 0.307907 255 220 0
0.556618 0.036632 0.257942 255 220 0
0.575759 0.090142 0.253713 255 220 0
0.643501 0.166751 0.328776 255 220 0
0.561204 0.033493 0.282435 255 220 0
0.634895 0.068034 0.262700 255 220 0
0.675221 0.142796 0.317202 255 220 0
0.677118 0.126107 0.316150 255 220 0
0.566138 0.040968 0.296640 255 220 0
0.665035 0.128260 0.298614 255 220 0
0.574867 0.037212 0.247428 255 220 0
0.619546 0.045471 0.309888 255 220 0
0.648217 0.115157 0.342589 255 220 0
0.642682 0.076168 0.268538 255 220 0
0.608945 0.067886 0.247165 255 220 0
0.631205 0.069766 0.328777 255 220 0
0.592313 0.098462 0.328536 255 220 0
0.670906 0.097746 0.317883 255 220 0
0.606262 0.033357 0.291887 255 220 0
0.671016 0.153016 0.314811 255 220 0
0.582689 0.094673 0.323693 255 220 0
0.552573 0.087927 0.289008 255 220 0
0.619769 0.094809 0.338672 255 220 0
0.658092 0.120637 0.341284 255 220 0
0.607152 0.042266 0.310169 255 220 0
0.598393 0.065337 0.243119 255 220 0
0.620435 0.111406 0.269703 255 220 0
0.667802 0.150965 0.309981 255 220 0
0.653536 0.121909 0.342713 255 220 0
0.599454 0.037407 0.253302 255 220 0
0.663307 0.104872 0.289367 255 220 0
0.644208 0.081950 0.332126 255 220 0
0.628544 0.150944 0.329657 255 220 0
0.619865 0.147826 0.316031 255 220 0
0.578849 0.119289 0.288944 255 220 0
0.669220 0.092784 0.298340 255 220 0
0.564318 0.090399 0.309158 255 220 0
0.601138 0.135022 0.304488 255 220 0
0.674989 0.127809 0.331433 255 220 0
0.670846 0.148500 0.311934 255 220 0
0.577212 0.026932 0.279697 255 220 0
0.665469 0.143642 0.305441 255 220 0
0.584917 0.063165 0.322563 255 220 0
0.548891 0.044868 0.271586 255 220 0
0.570450 0.103827 0.309876 255 220 0
0.621569 0.149115 0.313158 255 220 0
0.633934 0.154409 0.332482 255 220 0
0.646769 0.168214 0.317843 255 220 0
0.566964 0.027810 0.275410 255 220 0
0.658089 0.080082 0.319270 255 220 0
0.625028 0.072839 0.255957 255 220 0
0.565651 0.029514 0.259417 255 220 0
0.621961 0.101651 0.263950 255 220 0
0.599849 0.030741 0.287646 255 220 0
0.643214 0.096436 0.339081 255 220 0
0.635848 0.085190 0.336308 255 220 0
0.670884 0.134571 0.306892 255 220 0
0.645075 0.057047 0.284561 255 220 0
0.569849 0.048252 0.244013 255 220 0
0.655360 0.115596 0.341148 255 220 0
0.592415 0.114934 0.323889 255 220 0
0.586649 0.074420 0.326139 255 220 0
0.609590 0.104372 0.262806 255 220 0
0.578235 0.098985 0.319757 255 220 0
0.554669 0.087013 0.295671 255 220 0
0.602451 0.133639 0.295610 255 220 0
0.586487 0.075640 0.326241 255 220 0
0.560536 0.067361 0.306217 255 220 0
0.620934 0.069195 0.253400 255 220 0
0.604179 0.130127 0.288231 255 220 0
0.559286 0.062259 0.303405 255 220 0
0.581207 0.032895 0.295982 255 220 0
0.634630 0.088109 0.337583 255 220 0
0.579512 0.046473 0.310293 255 220 0
0.568501 0.068274 0.314419 255 220 0
0.607511 0.049196 0.249412 255 220 0
0.577673 0.086130 0.250438 255 220 0
0.586788 0.057092 0.240786 255 220 0
0.619392 0.066982 0.329827 255 220 0
0.662713 0.161396 0.312192 255 220 0
0.564807 0.066055 0.246343 255 220 0
0.675037 0.113816 0.324892 255 220 0
0.617688 0.144335 0.321944 255 220 0
0.633099 0.068163 0.261325 255 220 0
0.633787 0.049956 0.304709 255 220 0
0.603412 0.041597 0.309978 255 220 0
0.591209 0.040650 0.309197 255 220 0
0.619832 0.038524 0.275351 255 220 0
0.588543 0.111491 0.269677 255 220 0
0.673962 0.129018 0.309729 255 220 0
0.599168 0.126140 0.284403 255 220 0
0.591693 0.027078 0.275336 255 220 0
0.610259 0.087456 0.253021 255 220 0
0.633734 0.050329 0.305551 255 220 0
0.582079 0.033258 0.296917 255 220 0
0.626103 0.041544 0.292647 255 220 0
0.657646 0.078760 0.282986 255 220 0
0.597625 0.078393 0.246049 255 220 0
0.620950 0.118924 0.338503 255 220 0
0.600803 0.049866 0.318645 255 220 0
0.605771 0.098870 0.334618 255 220 0
0.553016 0.046639 0.254786 255 220 0
0.568379 0.097368 0.263622 255 220 0
0.594158 0.130847 0.300290 255 220 0
0.584862 0.061769 0.322021 255 220 0
0.562619 0.071429 0.309235 255 220 0
0.645743 0.074623 0.325561 255 220 0
0.601819 0.041748 0.250665 255 220 0
0.597848 0.067015 0.328123 255 220 0
0.599854 0.071951 0.330244 255 220 0
0.606803 0.040640 0.255618 255 220 0
0.631729 0.110904 0.341908 255 220 0
0.615194 0.039415 0.265964 255 220 0
0.676823 0.116375 0.322108 255 220 0
0.556817 0.077051 0.256471 255 220 0
0.648942 0.064988 0.310934 255 220 0
0.628065 0.047585 0.306852 255 220 0
0.552541 0.048882 0.287673 255 220 0
0.662892 0.162450 0.313145 255 220 0
0.616728 0.125549 0.335072 255 220 0
0.576275 0.077241 0.320906 255 220 0
0.546471 0.072324 0.274159 255 220 0
0.605761 0.036139 0.300152 255 220 0
0.650685 0.080099 0.326677 255 220 0
0.551451 0.042591 0.260383 255 220 0
0.616109 0.142771 0.303549 255 220 0
0.634101 0.072239 0.261876 255 220 0
0.554483 0.093086 0.279945 255 220 0
0.547072 0.051573 0.274402 255 220 0
0.660422 0.159936 0.309978 255 220 0
0.663405 0.076093 0.301173 255 220 0
0.552016 0.065239 0.293958 255 220 0
0.577639 0.086531 0.250701 255 220 0
0.580976 0.065952 0.241343 255 220 0
0.640408 0.129115 0.287097 255 220 0
0.666684 0.094120 0.293133 255 220 0
0.643517 0.102421 0.273200 255 220 0
0.633425 0.083720 0.262388 255 220 0
0.660443 0.163694 0.312524 255 220 0
0.642231 0.111794 0.277215 255 220 0
0.653946 0.160220 0.308328 255 220 0
0.665181 0.097972 0.290888 255 220 0
0.628664 0.072268 0.258177 255 220 0
0.667694 0.133358 0.303065 255 220 0
0.647454 0.101990 0.275416 255 220 0
0.647021 0.163649 0.311398 255 220 0
