ply
format ascii 1.0
element vertex 1024
property float x
property float y
property float z
property uchar red
property uchar green
property uchar blue
end_header
0.394335 0.110603 0.286926 255 220 0
0.356535 0.107104 0.230209 255 220 0
0.443521 0.091194 0.246041 255 220 0
0.402506 0.056379 0.249554 255 220 0
0.434815 0.118448 0.224768 255 220 0
0.385331 0.112917 0.198172 255 220 0
0.401453 0.100550 0.284160 255 220 0
0.396476 0.182438 0.296439 255 220 0
0.439446 0.122387 0.279210 255 220 0
0.419385 0.104295 0.201130 255 220 0
0.400539 0.057253 0.250857 255 220 0
0.423533 0.059362 0.201574 255 220 0
0.405913 0.118597 0.203232 255 220 0
0.405809 0.094108 0.281224 255 220 0
0.434482 0.083823 0.260132 255 220 0
0.359201 0.131271 0.241368 255 220 0
0.380246 0.062561 0.195161 255 220 0
0.402640 0.141794 0.297290 255 220 0
0.361153 0.133126 0.252081 255 220 0
0.401559 0.078336 0.271462 255 220 0
0.407305 0.071317 0.265414 255 220 0
0.408135 0.096747 0.282364 255 220 0
0.358188 0.095456 0.217953 255 220 0
0.397872 0.054410 0.192143 255 220 0
0.387281 0.116453 0.199844 255 220 0
0.390050 0.110984 0.196657 255 220 0
0.408537 0.187489 0.256300 255 220 0
0.442419 0.094273 0.229160 255 220 0
0.410223 0.066678 0.190203 255 220 0
0.388183 0.201974 0.257810 255 220 0
0.444998 0.099790 0.248616 255 220 0
0.413264 0.193299 0.290806 255 220 0
0.441662 0.140215 0.260893 255 220 0
0.389511 0.205469 0.260280 255 220 0
0.381325 0.126192 0.284653 255 220 0
0.422182 0.050591 0.224713 255 220 0
0.411644 0.153411 0.231606 255 220 0
0.383121 0.081038 0.267325 255 220 0
0.412977 0.191541 0.292598 255 220 0
0.441484 0.142378 0.264688 255 220 0
0.382664 0.155937 0.228985 255 220 0
0.423217 0.180000 0.288454 255 220 0
0.443123 0.095441 0.231602 255 220 0
0.440103 0.092459 0.221976 255 220 0
0.378068 0.186829 0.282888 255 220 0
0.414835 0.144089 0.225921 255 220 0
0.399779 0.075854 0.269359 255 220 0
0.443956 0.091768 0.239294 255 220 0
0.380341 0.103464 0.277233 255 220 0
0.393284 0.051241 0.195241 255 220 0
0.441855 0.121529 0.241381 255 220 0
0.410703 0.171372 0.298708 255 220 0
0.391767 0.090807 0.277584 255 220 0
0.377384 0.121523 0.280166 255 220 0
0.392879 0.081802 0.272315 255 220 0
0.358208 0.123854 0.243263 255 220 0
0.437324 0.073810 0.236168 255 220 0
0.384838 0.049696 0.229477 255 220 0
0.386122 0.130166 0.208666 255 220 0
0.378727 0.098593 0.194112 255 220 0
0.439909 0.139714 0.252902 255 220 0
0.377828 0.055843 0.231486 255 220 0
0.389555 0.185019 0.293578 255 220 0
0.418608 0.071761 0.262057 255 220 0
0.431671 0.061533 0.216543 255 220 0
0.411981 0.197784 0.286481 255 220 0
0.371981 0.078117 0.254371 255 220 0
0.415728 0.158596 0.238725 255 220 0
0.431793 0.090502 0.268855 255 220 0
0.440855 0.137715 0.253696 255 220 0
0.438488 0.080008 0.247471 255 220 0
0.406249 0.172120 0.243513 255 220 0
0.437238 0.150483 0.258642 255 220 0
0.427021 0.176159 0.275227 255 220 0
0.404321 0.085554 0.276499 255 220 0
0.416346 0.186771 0.263770 255 220 0
0.381426 0.060383 0.244429 255 220 0
0.412679 0.089338 0.277856 255 220 0
0.443746 0.121526 0.247309 255 220 0
0.369183 0.142658 0.271650 255 220 0
0.375800 0.175265 0.281862 255 220 0
0.360130 0.113752 0.250760 255 220 0
0.433480 0.094915 0.209820 255 220 0
0.418499 0.110919 0.286754 255 220 0
0.370945 0.154347 0.235959 255 220 0
0.428941 0.128852 0.224672 255 220 0
0.380875 0.060166 0.196225 255 220 0
0.426022 0.170263 0.291111 255 220 0
0.401214 0.119487 0.291615 255 220 0
0.393309 0.146389 0.295403 255 220 0
0.444541 0.103621 0.255891 255 220 0
0.377981 0.161317 0.235897 255 220 0
0.395900 0.052413 0.243208 255 220 0
0.418258 0.153639 0.236413 255 220 0
0.383588 0.053994 0.236711 255 220 0
0.388410 0.096563 0.190955 255 220 0
0.435576 0.092989 0.212489 255 220 0
0.419928 0.054882 0.238386 255 220 0
0.410244 0.160566 0.236678 255 220 0
0.427835 0.076490 0.260183 255 220 0
0.408037 0.076104 0.269467 255 220 0
0.380376 0.050172 0.210629 255 220 0
0.432159 0.081987 0.205035 255 220 0
0.404228 0.052319 0.243245 255 220 0
0.436628 0.082742 0.212718 255 220 0
0.399098 0.153313 0.226989 255 220 0
0.428037 0.064738 0.203630 255 220 0
0.435987 0.092753 0.265770 255 220 0
0.424706 0.104193 0.204598 255 220 0
0.426326 0.087178 0.270834 255 220 0
0.360265 0.092123 0.211332 255 220 0
0.438882 0.079041 0.221683 255 220 0
0.380455 0.103835 0.277463 255 220 0
0.369132 0.084840 0.255929 255 220 0
0.420624 0.108820 0.204596 255 220 0
0.381548 0.098887 0.276210 255 220 0
0.423134 0.068286 0.196887 255 220 0
0.362973 0.134096 0.257738 255 220 0
0.432155 0.116307 0.219492 255 220 0
0.357571 0.120617 0.240741 255 220 0
0.364543 0.137394 0.226764 255 220 0
0.382290 0.053290 0.233655 255 220 0
0.415834 0.164372 0.243697 255 220 0
0.419390 0.115503 0.288286 255 220 0
0.406866 0.137455 0.216927 255 220 0
0.416323 0.102261 0.198228 255 220 0
0.445196 0.106562 0.255859 255 220 0
0.407967 0.169375 0.242312 255 220 0
0.406307 0.197682 0.291700 255 220 0
0.394562 0.102719 0.284003 255 220 0
0.402240 0.059981 0.254219 255 220 0
0.377211 0.110331 0.277004 255 220 0
0.396271 0.173916 0.297488 255 220 0
0.383339 0.048151 0.208555 255 220 0
0.444950 0.110240 0.261514 255 220 0
0.366584 0.067859 0.221770 255 220 0
0.377976 0.201406 0.271962 255 220 0
0.383221 0.125545 0.285909 255 220 0
0.395388 0.116754 0.289376 255 220 0
0.370736 0.073959 0.198336 255 220 0
0.430382 0.072335 0.252217 255 220 0
0.389911 0.097409 0.191031 255 220 0
0.382480 0.143776 0.288629 255 220 0
0.445727 0.118033 0.253923 255 220 0
0.381185 0.139288 0.215998 255 220 0
0.362778 0.079297 0.236338 255 220 0
0.375168 0.058823 0.203845 255 220 0
0.420212 0.050209 0.208277 255 220 0
0.434112 0.067764 0.213955 255 220 0
0.391924 0.171034 0.239282 255 220 0
0.442031 0.140641 0.271586 255 220 0
0.376600 0.191778 0.278354 255 220 0
0.370000 0.078234 0.198065 255 220 0
0.381717 0.064756 0.250762 255 220 0
0.430898 0.137599 0.233952 255 220 0
0.386170 0.047284 0.225136 255 220 0
0.406846 0.073457 0.267393 255 220 0
0.367674 0.118003 0.266889 255 220 0
0.364000 0.075486 0.211299 255 220 0
0.370695 0.173702 0.261116 255 220 0
0.405649 0.187324 0.254046 255 220 0
0.381187 0.177785 0.246301 255 220 0
0.425146 0.091560 0.274500 255 220 0
0.431430 0.069518 0.246080 255 220 0
0.387710 0.060971 0.251317 255 220 0
0.402825 0.185180 0.250945 255 220 0
0.397063 0.055322 0.191712 255 220 0
0.428061 0.156799 0.291993 255 220 0
0.412064 0.156427 0.298537 255 220 0
0.418705 0.107761 0.202761 255 220 0
0.402155 0.168298 0.298945 255 220 0
0.402544 0.100850 0.284355 255 220 0
0.443164 0.102404 0.232639 255 220 0
0.406667 0.124358 0.207320 255 220 0
0.396738 0.210781 0.272924 255 220 0
0.414569 0.118910 0.207286 255 220 0
0.425082 0.148119 0.237247 255 220 0
0.415071 0.045350 0.220594 255 220 0
0.405032 0.156643 0.231188 255 220 0
0.384905 0.161293 0.232836 255 220 0
0.387514 0.206007 0.281883 255 220 0
0.429443 0.065972 0.243678 255 220 0
0.384530 0.166655 0.237187 255 220 0
0.394756 0.092536 0.279366 255 220 0
0.403406 0.098501 0.192012 255 220 0
0.423573 0.097977 0.200525 255 220 0
0.422383 0.066245 0.252995 255 220 0
0.361378 0.097194 0.248861 255 220 0
0.401714 0.155865 0.229583 255 220 0
0.412891 0.045051 0.223871 255 220 0
0.440336 0.081192 0.227984 255 220 0
0.395048 0.044787 0.227615 255 220 0
0.408493 0.099708 0.193726 255 220 0
0.409594 0.057612 0.249442 255 220 0
0.417244 0.114509 0.288542 255 220 0
0.379544 0.160873 0.287297 255 220 0
0.434037 0.068333 0.212882 255 220 0
0.372241 0.144568 0.224431 255 220 0
0.412493 0.173151 0.248173 255 220 0
0.439297 0.109056 0.273164 255 220 0
0.399318 0.105707 0.286124 255 220 0
0.423109 0.075615 0.263156 255 220 0
0.357678 0.115687 0.225922 255 220 0
0.407888 0.096259 0.282148 255 220 0
0.369682 0.103483 0.266211 255 220 0
0.425213 0.127968 0.220690 255 220 0
0.422110 0.145400 0.232284 255 220 0
0.433889 0.065442 0.226114 255 220 0
0.428073 0.056009 0.221796 255 220 0
0.368304 0.064455 0.217175 255 220 0
0.369851 0.167789 0.255471 255 220 0
0.443510 0.120894 0.245911 255 220 0
0.425605 0.053006 0.218103 255 220 0
0.380390 0.076819 0.262376 255 220 0
0.409947 0.049486 0.198335 255 220 0
0.442118 0.096672 0.228220 255 220 0
0.361517 0.094967 0.208153 255 220 0
0.383396 0.057491 0.242279 255 220 0
0.419292 0.063101 0.251366 255 220 0
0.364432 0.119812 0.261270 255 220 0
0.372366 0.161083 0.241517 255 220 0
0.385745 0.184793 0.291378 255 220 0
0.382416 0.133816 0.287004 255 220 0
0.394219 0.144766 0.219587 255 220 0
0.433855 0.126565 0.285375 255 220 0
0.408003 0.074213 0.188520 255 220 0
0.441138 0.090601 0.225099 255 220 0
0.389647 0.210476 0.269395 255 220 0
0.400391 0.174938 0.298250 255 220 0
0.386753 0.137078 0.290609 255 220 0
0.387231 0.150836 0.292809 255 220 0
0.373187 0.177467 0.256022 255 220 0
0.356967 0.111877 0.227347 255 220 0
0.400309 0.209461 0.276062 255 220 0
0.395274 0.124785 0.205088 255 220 0
0.408876 0.043483 0.207909 255 220 0
0.366919 0.116472 0.265392 255 220 0
0.423936 0.163241 0.250173 255 220 0
0.372181 0.099672 0.197776 255 220 0
0.389016 0.139740 0.292365 255 220 0
0.443997 0.105880 0.236660 255 220 0
0.402282 0.170831 0.241003 255 220 0
0.429039 0.163337 0.256702 255 220 0
0.369344 0.138910 0.221903 255 220 0
0.382505 0.130588 0.209475 255 220 0
0.406776 0.113244 0.200222 255 220 0
0.416081 0.160087 0.297791 255 220 0
0.427434 0.057135 0.229687 255 220 0
0.395866 0.102287 0.192649 255 220 0
0.442816 0.092837 0.251593 255 220 0
0.421668 0.162278 0.247058 255 220 0
0.422362 0.083211 0.270326 255 220 0
0.417069 0.046346 0.214330 255 220 0
0.435064 0.134707 0.286202 255 220 0
0.411412 0.200047 0.282639 255 220 0
0.367506 0.097474 0.260683 255 220 0
0.372252 0.180382 0.262864 255 220 0
0.434689 0.141555 0.242839 255 220 0
0.435915 0.087407 0.261452 255 220 0
0.378655 0.188130 0.283368 255 220 0
0.386657 0.066015 0.256684 255 220 0
0.442260 0.136785 0.258196 255 220 0
0.435018 0.112772 0.279362 255 220 0
0.439128 0.113281 0.228905 255 220 0
0.402006 0.186286 0.251246 255 220 0
0.375294 0.112828 0.275865 255 220 0
0.393706 0.103173 0.283965 255 220 0
0.396727 0.210205 0.268026 255 220 0
0.413936 0.094124 0.193382 255 220 0
0.439337 0.087569 0.219657 255 220 0
0.442820 0.111342 0.236263 255 220 0
0.379469 0.127958 0.208420 255 220 0
0.372506 0.110606 0.272137 255 220 0
0.441153 0.107203 0.229573 255 220 0
0.376924 0.145180 0.283415 255 220 0
0.362356 0.104813 0.254024 255 220 0
0.434211 0.133180 0.286623 255 220 0
0.359246 0.092910 0.239446 255 220 0
0.371456 0.177654 0.267265 255 220 0
0.416494 0.130870 0.216867 255 220 0
0.365831 0.069539 0.223997 255 220 0
0.444187 0.131710 0.261618 255 220 0
0.407299 0.127355 0.209654 255 220 0
0.385453 0.055046 0.240595 255 220 0
0.392064 0.043822 0.222648 255 220 0
0.407113 0.142726 0.297626 255 220 0
0.367054 0.082274 0.201015 255 220 0
0.405346 0.134596 0.296162 255 220 0
0.357623 0.109450 0.222394 255 220 0
0.439834 0.079336 0.238727 255 220 0
0.437844 0.074059 0.231443 255 220 0
0.401303 0.092327 0.189694 255 220 0
0.365953 0.070240 0.228574 255 220 0
0.433904 0.085583 0.262534 255 220 0
0.374927 0.078118 0.258134 255 220 0
0.430813 0.090417 0.204832 255 220 0
0.367454 0.095141 0.200455 255 220 0
0.371684 0.059378 0.218191 255 220 0
0.433389 0.064649 0.226717 255 220 0
0.422986 0.147944 0.294478 255 220 0
0.359358 0.098521 0.213195 255 220 0
0.370795 0.136636 0.218829 255 220 0
0.414441 0.186649 0.261334 255 220 0
0.368342 0.117839 0.208127 255 220 0
0.362139 0.124119 0.219613 255 220 0
0.435804 0.071704 0.237959 255 220 0
0.399644 0.042111 0.207388 255 220 0
0.392862 0.187885 0.294302 255 220 0
0.410848 0.125632 0.293609 255 220 0
0.436109 0.138506 0.242594 255 220 0
0.375313 0.155467 0.281964 255 220 0
0.411218 0.119527 0.291615 255 220 0
0.407052 0.144996 0.222757 255 220 0
0.364739 0.149963 0.250880 255 220 0
0.405641 0.066470 0.188978 255 220 0
0.436336 0.073690 0.241168 255 220 0
0.427841 0.106314 0.208470 255 220 0
0.356818 0.104988 0.235167 255 220 0
0.442012 0.117953 0.238912 255 220 0
0.389219 0.156278 0.228316 255 220 0
0.407829 0.078647 0.188480 255 220 0
0.363831 0.083297 0.245279 255 220 0
0.409588 0.098350 0.282991 255 220 0
0.386574 0.115520 0.199395 255 220 0
0.366957 0.115376 0.265252 255 220 0
0.412179 0.112181 0.288696 255 220 0
0.434941 0.116702 0.281140 255 220 0
0.436097 0.069904 0.222262 255 220 0
0.438759 0.077416 0.223390 255 220 0
0.434381 0.089350 0.265139 255 220 0
0.397920 0.041277 0.217103 255 220 0
0.359678 0.088276 0.236022 255 220 0
0.392885 0.042167 0.215969 255 220 0
0.412069 0.140372 0.221447 255 220 0
0.380671 0.172086 0.242864 255 220 0
0.395453 0.197878 0.291550 255 220 0
0.369822 0.111975 0.268993 255 220 0
0.409744 0.146869 0.225361 255 220 0
0.375487 0.123868 0.207273 255 220 0
0.359109 0.114603 0.248027 255 220 0
0.374817 0.191228 0.265031 255 220 0
0.387142 0.177129 0.243463 255 220 0
0.444804 0.105811 0.257157 255 220 0
0.433890 0.066869 0.214520 255 220 0
0.443831 0.091512 0.238173 255 220 0
0.427654 0.167410 0.259268 255 220 0
0.398292 0.162483 0.298289 255 220 0
0.369641 0.062343 0.218258 255 220 0
0.364136 0.086353 0.248598 255 220 0
0.441183 0.142884 0.263560 255 220 0
0.397159 0.180627 0.296901 255 220 0
0.373540 0.094552 0.267075 255 220 0
0.427395 0.136547 0.229274 255 220 0
0.394368 0.175592 0.296786 255 220 0
0.443364 0.107789 0.235603 255 220 0
0.408160 0.148621 0.226030 255 220 0
0.384465 0.147116 0.221445 255 220 0
0.371005 0.134351 0.216901 255 220 0
0.419948 0.154760 0.296208 255 220 0
0.406226 0.163563 0.299302 255 220 0
0.359078 0.130827 0.239998 255 220 0
0.395102 0.210562 0.268267 255 220 0
0.369251 0.089620 0.259227 255 220 0
0.415392 0.139683 0.222813 255 220 0
0.393976 0.127818 0.207066 255 220 0
0.377882 0.182313 0.283814 255 220 0
0.379582 0.051075 0.221777 255 220 0
0.386819 0.052817 0.238203 255 220 0
0.385921 0.066736 0.190345 255 220 0
0.388809 0.156143 0.228224 255 220 0
0.375234 0.156194 0.233130 255 220 0
0.421909 0.050272 0.212437 255 220 0
0.439853 0.086382 0.253041 255 220 0
0.376945 0.196303 0.276226 255 220 0
0.362935 0.075608 0.221201 255 220 0
0.398306 0.043526 0.225640 255 220 0
0.377820 0.105342 0.275877 255 220 0
0.359380 0.112324 0.248446 255 220 0
0.402266 0.164981 0.299047 255 220 0
0.389250 0.199446 0.288636 255 220 0
0.388199 0.045475 0.206553 255 220 0
0.424653 0.178845 0.269796 255 220 0
0.363664 0.077532 0.210116 255 220 0
0.402312 0.070750 0.265261 255 220 0
0.374940 0.188917 0.261920 255 220 0
0.382859 0.130835 0.209580 255 220 0
0.418488 0.166841 0.248128 255 220 0
0.414234 0.163890 0.298369 255 220 0
0.406197 0.086782 0.277176 255 220 0
0.403412 0.050881 0.194806 255 220 0
0.368513 0.102891 0.264342 255 220 0
0.412521 0.195103 0.266176 255 220 0
0.433770 0.073708 0.248503 255 220 0
0.364717 0.086037 0.249535 255 220 0
0.375410 0.134397 0.280341 255 220 0
0.409279 0.183947 0.254238 255 220 0
0.389203 0.142383 0.217459 255 220 0
0.391080 0.105575 0.284044 255 220 0
0.385267 0.187544 0.290425 255 220 0
0.371782 0.147125 0.227224 255 220 0
0.376237 0.186829 0.257371 255 220 0
0.365211 0.148259 0.260166 255 220 0
0.364265 0.142615 0.259273 255 220 0
0.371151 0.151971 0.232965 255 220 0
0.411917 0.061477 0.253574 255 220 0
0.415522 0.113155 0.204144 255 220 0
0.445738 0.107441 0.247804 255 220 0
0.371029 0.148969 0.275073 255 220 0
0.432756 0.127086 0.227938 255 220 0
0.359784 0.084684 0.222526 255 220 0
0.426119 0.067147 0.200107 255 220 0
0.410240 0.130557 0.213197 255 220 0
0.438973 0.095087 0.262947 255 220 0
0.445055 0.126345 0.258957 255 220 0
0.367095 0.101011 0.201899 255 220 0
0.445313 0.100719 0.245815 255 220 0
0.420706 0.185696 0.286639 255 220 0
0.372887 0.184096 0.265532 255 220 0
0.438644 0.082313 0.218418 255 220 0
0.404692 0.094750 0.281569 255 220 0
0.392401 0.093579 0.279259 255 220 0
0.376512 0.058578 0.234657 255 220 0
0.444476 0.117546 0.246635 255 220 0
0.373629 0.148225 0.226734 255 220 0
0.362781 0.110193 0.256300 255 220 0
0.404200 0.205233 0.265950 255 220 0
0.426715 0.173531 0.265996 255 220 0
0.418618 0.047400 0.221023 255 220 0
0.402034 0.126138 0.207171 255 220 0
0.378465 0.052253 0.222508 255 220 0
0.393514 0.176952 0.243093 255 220 0
0.402394 0.155623 0.229569 255 220 0
0.403310 0.183909 0.296956 255 220 0
0.436890 0.099367 0.269600 255 220 0
0.412994 0.088188 0.191262 255 220 0
0.379161 0.163833 0.237356 255 220 0
0.389385 0.171507 0.294925 255 220 0
0.423507 0.079475 0.266544 255 220 0
0.422722 0.051686 0.227002 255 220 0
0.389456 0.078921 0.269013 255 220 0
0.437463 0.072989 0.228093 255 220 0
0.389415 0.132820 0.291284 255 220 0
0.395178 0.041568 0.212649 255 220 0
0.370052 0.171614 0.263186 255 220 0
0.441628 0.128038 0.246355 255 220 0
0.390286 0.097560 0.280446 255 220 0
0.393980 0.123807 0.204333 255 220 0
0.361470 0.117370 0.216419 255 220 0
0.444734 0.127944 0.268188 255 220 0
0.404719 0.066001 0.188878 255 220 0
0.439944 0.124143 0.238623 255 220 0
0.367817 0.109346 0.204305 255 220 0
0.382721 0.058506 0.195979 255 220 0
0.399276 0.125247 0.293088 255 220 0
0.441651 0.123218 0.242220 255 220 0
0.405038 0.117138 0.202038 255 220 0
0.389280 0.047557 0.229835 255 220 0
0.434510 0.131739 0.286144 255 220 0
0.442932 0.109005 0.266886 255 220 0
0.398922 0.194095 0.254468 255 220 0
0.375034 0.193253 0.267568 255 220 0
0.404806 0.066071 0.260712 255 220 0
0.411412 0.146779 0.226113 255 220 0
0.424876 0.143953 0.233333 255 220 0
0.436700 0.091931 0.264109 255 220 0
0.360987 0.117416 0.253399 255 220 0
0.436876 0.072809 0.235389 255 220 0
0.433762 0.086292 0.207927 255 220 0
0.380245 0.091804 0.191832 255 220 0
0.431950 0.106439 0.278481 255 220 0
0.400649 0.191277 0.294716 255 220 0
0.376213 0.178180 0.251245 255 220 0
0.366240 0.081442 0.248583 255 220 0
0.406576 0.109898 0.288269 255 220 0
0.377625 0.056421 0.203222 255 220 0
0.418836 0.078316 0.268142 255 220 0
0.357819 0.122266 0.231628 255 220 0
0.374506 0.070459 0.249407 255 220 0
0.404888 0.140196 0.218321 255 220 0
0.371514 0.176820 0.261391 255 220 0
0.413078 0.178467 0.297413 255 220 0
0.394723 0.083211 0.187684 255 220 0
0.438557 0.079411 0.219639 255 220 0
0.389338 0.102747 0.192958 255 220 0
0.359359 0.130437 0.234265 255 220 0
0.357400 0.095950 0.230659 255 220 0
0.356908 0.102038 0.224742 255 220 0
0.434796 0.119126 0.225205 255 220 0
0.441885 0.140610 0.272908 255 220 0
0.418742 0.180816 0.294374 255 220 0
0.428105 0.166995 0.259550 255 220 0
0.429037 0.057262 0.217306 255 220 0
0.402311 0.198852 0.291563 255 220 0
0.430398 0.077785 0.258916 255 220 0
0.415226 0.094876 0.280288 255 220 0
0.398751 0.064524 0.259297 255 220 0
0.372992 0.083576 0.260168 255 220 0
0.412133 0.123227 0.208881 255 220 0
0.389034 0.126909 0.289761 255 220 0
0.428059 0.058941 0.208904 255 220 0
0.413589 0.119537 0.207155 255 220 0
0.412544 0.079296 0.271160 255 220 0
0.385336 0.176256 0.292212 255 220 0
0.402776 0.041178 0.215369 255 220 0
0.371803 0.168197 0.274800 255 220 0
0.422262 0.112152 0.285969 255 220 0
0.399834 0.118983 0.201937 255 220 0
0.425152 0.060404 0.241168 255 220 0
0.437167 0.086848 0.258964 255 220 0
0.422458 0.162693 0.248196 255 220 0
0.357151 0.111543 0.239675 255 220 0
0.389780 0.170277 0.238822 255 220 0
0.388985 0.206293 0.282389 255 220 0
0.406993 0.196112 0.260878 255 220 0
0.392191 0.062833 0.189547 255 220 0
0.389083 0.063878 0.255801 255 220 0
0.435983 0.071445 0.236170 255 220 0
0.406072 0.056247 0.248703 255 220 0
0.377583 0.168806 0.285021 255 220 0
0.365584 0.126552 0.264103 255 220 0
0.386703 0.045029 0.211588 255 220 0
0.436865 0.087333 0.213575 255 220 0
0.390239 0.197891 0.289921 255 220 0
0.403323 0.204184 0.263607 255 220 0
0.419328 0.159704 0.242646 255 220 0
0.388038 0.090924 0.276145 255 220 0
0.427271 0.172967 0.266616 255 220 0
0.421417 0.049201 0.219154 255 220 0
0.367607 0.079562 0.249180 255 220 0
0.414638 0.078678 0.190548 255 220 0
0.414301 0.087072 0.191489 255 220 0
0.407662 0.092974 0.280520 255 220 0
0.364163 0.073641 0.214161 255 220 0
0.368245 0.067318 0.231826 255 220 0
0.415713 0.113159 0.288402 255 220 0
0.366790 0.088168 0.254628 255 220 0
0.381790 0.071310 0.258588 255 220 0
0.439556 0.146361 0.261318 255 220 0
0.410140 0.086447 0.276567 255 220 0
0.395003 0.062994 0.188996 255 220 0
0.383214 0.119626 0.284403 255 220 0
0.419083 0.186087 0.290032 255 220 0
0.406502 0.103684 0.194957 255 220 0
0.369527 0.136057 0.219379 255 220 0
0.417562 0.157593 0.239317 255 220 0
0.420956 0.186943 0.281865 255 220 0
0.378344 0.089304 0.192185 255 220 0
0.440987 0.086232 0.225965 255 220 0
0.439554 0.083680 0.250280 255 220 0
0.437084 0.152424 0.261585 255 220 0
0.380368 0.116760 0.201354 255 220 0
0.359496 0.115446 0.249278 255 220 0
0.431860 0.144646 0.289425 255 220 0
0.424099 0.146179 0.293837 255 220 0
0.403163 0.064159 0.188987 255 220 0
0.406796 0.046429 0.231887 255 220 0
0.391055 0.054338 0.244178 255 220 0
0.376972 0.064043 0.196844 255 220 0
0.366908 0.155624 0.263006 255 220 0
0.366851 0.123832 0.213089 255 220 0
0.385569 0.178492 0.292173 255 220 0
0.412286 0.182198 0.296746 255 220 0
0.400057 0.208906 0.278678 255 220 0
0.356918 0.106008 0.224931 255 220 0
0.375068 0.188788 0.275919 255 220 0
0.413692 0.166417 0.298460 255 220 0
0.410946 0.125684 0.293611 255 220 0
0.441792 0.093518 0.227054 255 220 0
0.359044 0.130652 0.239036 255 220 0
0.437782 0.074549 0.222212 255 220 0
0.394634 0.069486 0.187765 255 220 0
0.401549 0.042060 0.221742 255 220 0
0.424953 0.175864 0.289067 255 220 0
0.373196 0.104403 0.270918 255 220 0
0.390398 0.194704 0.253146 255 220 0
0.359002 0.095802 0.214382 255 220 0
0.393715 0.205301 0.285238 255 220 0
0.390599 0.160419 0.231549 255 220 0
0.371225 0.093409 0.263843 255 220 0
0.361939 0.082316 0.237954 255 220 0
0.417723 0.176829 0.256226 255 220 0
0.443253 0.096809 0.254023 255 220 0
0.385427 0.046267 0.219806 255 220 0
0.385107 0.098261 0.192023 255 220 0
0.441714 0.112567 0.234193 255 220 0
0.417418 0.074464 0.191940 255 220 0
0.386217 0.076744 0.188628 255 220 0
0.430627 0.157931 0.253098 255 220 0
0.367165 0.081701 0.200970 255 220 0
0.364469 0.110773 0.259837 255 220 0
0.435621 0.108005 0.276469 255 220 0
0.394498 0.050437 0.195530 255 220 0
0.364293 0.107829 0.207206 255 220 0
0.364170 0.075598 0.210435 255 220 0
0.391976 0.164977 0.296190 255 220 0
0.410606 0.108454 0.198892 255 220 0
0.388541 0.128906 0.207671 255 220 0
0.371007 0.104345 0.268270 255 220 0
0.382095 0.068689 0.256004 255 220 0
0.434553 0.134182 0.236195 255 220 0
0.445287 0.115417 0.248701 255 220 0
0.398039 0.189914 0.294894 255 220 0
0.383222 0.047246 0.215625 255 220 0
0.361761 0.083551 0.239109 255 220 0
0.377408 0.074264 0.257276 255 220 0
0.381069 0.077227 0.190382 255 220 0
0.389595 0.088291 0.275341 255 220 0
0.427642 0.138936 0.231528 255 220 0
0.424244 0.170307 0.257433 255 220 0
0.432855 0.110025 0.216490 255 220 0
0.438868 0.076832 0.226368 255 220 0
0.379708 0.051783 0.207569 255 220 0
0.437543 0.073496 0.232069 255 220 0
0.427201 0.121798 0.287533 255 220 0
0.379102 0.083008 0.265771 255 220 0
0.381102 0.145982 0.221232 255 220 0
0.386490 0.148283 0.222120 255 220 0
0.388283 0.095971 0.278844 255 220 0
0.442988 0.132793 0.255960 255 220 0
0.359865 0.086167 0.233258 255 220 0
0.375781 0.172749 0.282124 255 220 0
0.409521 0.064614 0.190469 255 220 0
0.407987 0.049114 0.197719 255 220 0
0.372355 0.132290 0.276055 255 220 0
0.398666 0.210044 0.269777 255 220 0
0.411276 0.144139 0.297433 255 220 0
0.365848 0.083625 0.249761 255 220 0
0.385000 0.109997 0.196761 255 220 0
0.384932 0.126023 0.206017 255 220 0
0.424927 0.107193 0.206500 255 220 0
0.418787 0.062400 0.250793 255 220 0
0.433381 0.149329 0.248223 255 220 0
0.418212 0.048769 0.227661 255 220 0
0.376023 0.120004 0.204740 255 220 0
0.402648 0.193136 0.255807 255 220 0
0.400544 0.208298 0.266708 255 220 0
0.367674 0.138742 0.268599 255 220 0
0.395161 0.050074 0.238777 255 220 0
0.396348 0.057176 0.250393 255 220 0
0.426379 0.058566 0.206186 255 220 0
0.412590 0.096486 0.281670 255 220 0
0.375611 0.072826 0.194141 255 220 0
0.371087 0.100472 0.266899 255 220 0
0.437752 0.144776 0.282903 255 220 0
0.403095 0.092079 0.280208 255 220 0
0.360782 0.084132 0.235193 255 220 0
0.433826 0.160097 0.281795 255 220 0
0.440217 0.122141 0.237678 255 220 0
0.372426 0.180051 0.271415 255 220 0
0.398675 0.169098 0.298349 255 220 0
0.385893 0.049445 0.230362 255 220 0
0.381704 0.172220 0.242335 255 220 0
0.415737 0.191157 0.289816 255 220 0
0.426552 0.077898 0.262782 255 220 0
0.390776 0.111256 0.285952 255 220 0
0.388412 0.201785 0.257626 255 220 0
0.372598 0.096605 0.196743 255 220 0
0.430723 0.127898 0.287619 255 220 0
0.367970 0.162224 0.262182 255 220 0
0.408495 0.176129 0.247715 255 220 0
0.441449 0.112461 0.233468 255 220 0
0.364692 0.116227 0.261301 255 220 0
0.384034 0.097977 0.192183 255 220 0
0.415692 0.045537 0.219619 255 220 0
0.390871 0.193893 0.291798 255 220 0
0.359049 0.087244 0.224887 255 220 0
0.412360 0.164574 0.241211 255 220 0
0.404471 0.163470 0.236335 255 220 0
0.397231 0.169987 0.239141 255 220 0
0.436229 0.144943 0.285182 255 220 0
0.414231 0.165181 0.243065 255 220 0
0.378775 0.153096 0.228020 255 220 0
0.434938 0.123180 0.228308 255 220 0
0.428247 0.087883 0.201249 255 220 0
0.373644 0.080890 0.194419 255 220 0
0.422127 0.180187 0.290604 255 220 0
0.382382 0.194395 0.255466 255 220 0
0.431237 0.093239 0.206218 255 220 0
0.396367 0.114906 0.289007 255 220 0
0.385885 0.069095 0.259393 255 220 0
0.373087 0.162070 0.241500 255 220 0
0.362021 0.111314 0.254883 255 220 0
0.424452 0.053612 0.228318 255 220 0
0.377504 0.134198 0.282653 255 220 0
0.439844 0.090121 0.256956 255 220 0
0.376371 0.189747 0.259265 255 220 0
0.430509 0.069524 0.204672 255 220 0
0.387258 0.156819 0.228860 255 220 0
0.420084 0.083511 0.271703 255 220 0
0.397536 0.041977 0.208231 255 220 0
0.432821 0.164567 0.273405 255 220 0
0.389290 0.206567 0.261439 255 220 0
0.396918 0.158789 0.230847 255 220 0
0.419661 0.077708 0.267209 255 220 0
0.357531 0.107499 0.221918 255 220 0
0.405000 0.205544 0.267704 255 220 0
0.441943 0.084876 0.241489 255 220 0
0.365015 0.148880 0.243730 255 220 0
0.443845 0.122086 0.271711 255 220 0
0.427041 0.139389 0.231339 255 220 0
0.405215 0.148262 0.224633 255 220 0
0.438548 0.126176 0.281314 255 220 0
0.445966 0.115640 0.259502 255 220 0
0.361132 0.137177 0.248149 255 220 0
0.397945 0.144767 0.220113 255 220 0
0.375253 0.186438 0.258984 255 220 0
0.364161 0.076284 0.236432 255 220 0
0.391839 0.206149 0.260587 255 220 0
0.433474 0.068672 0.210847 255 220 0
0.399244 0.047112 0.233962 255 220 0
0.378327 0.096451 0.272572 255 220 0
0.402029 0.109173 0.196683 255 220 0
0.371100 0.157846 0.239918 255 220 0
0.427904 0.155591 0.292172 255 220 0
0.379789 0.142731 0.219032 255 220 0
0.381571 0.068520 0.255310 255 220 0
0.384772 0.058847 0.245823 255 220 0
0.375380 0.091569 0.267441 255 220 0
0.432457 0.071608 0.247635 255 220 0
0.369181 0.159940 0.246786 255 220 0
0.359589 0.131246 0.234285 255 220 0
0.399243 0.128034 0.207884 255 220 0
0.433513 0.072728 0.208337 255 220 0
0.389143 0.055614 0.244859 255 220 0
0.440668 0.105146 0.268371 255 220 0
0.391624 0.059499 0.190910 255 220 0
0.373132 0.064572 0.239281 255 220 0
0.378652 0.200576 0.264665 255 220 0
0.378064 0.199161 0.276577 255 220 0
0.408545 0.050737 0.239419 255 220 0
0.377282 0.192522 0.259695 255 220 0
0.402900 0.056306 0.249402 255 220 0
0.379888 0.117072 0.201674 255 220 0
0.426714 0.125793 0.220290 255 220 0
0.377379 0.083376 0.264562 255 220 0
0.359978 0.127876 0.249917 255 220 0
0.414238 0.052834 0.239899 255 220 0
0.389970 0.057641 0.248402 255 220 0
0.368268 0.086102 0.255554 255 220 0
0.412730 0.059224 0.250236 255 220 0
0.430919 0.162288 0.287327 255 220 0
0.414858 0.175392 0.252074 255 220 0
0.433154 0.120903 0.284010 255 220 0
0.395395 0.149927 0.223714 255 220 0
0.376210 0.196057 0.273866 255 220 0
0.392086 0.108639 0.195428 255 220 0
0.374705 0.118051 0.204248 255 220 0
0.391469 0.151807 0.295170 255 220 0
0.422628 0.183281 0.272199 255 220 0
0.444495 0.095725 0.238574 255 220 0
0.404667 0.144484 0.297860 255 220 0
0.370938 0.160895 0.274090 255 220 0
0.357039 0.115913 0.238616 255 220 0
0.365578 0.152660 0.257305 255 220 0
0.359200 0.130238 0.244136 255 220 0
0.429545 0.171052 0.272709 255 220 0
0.396157 0.135738 0.294742 255 220 0
0.365295 0.110485 0.261302 255 220 0
0.418100 0.094344 0.279193 255 220 0
0.374552 0.153631 0.231198 255 220 0
0.431833 0.111113 0.215785 255 220 0
0.392371 0.066855 0.188506 255 220 0
0.373941 0.082546 0.194165 255 220 0
0.440123 0.087744 0.222100 255 220 0
0.432696 0.160468 0.284788 255 220 0
0.415710 0.084483 0.274040 255 220 0
0.409869 0.145485 0.297806 255 220 0
0.419534 0.143617 0.295272 255 220 0
0.369728 0.070496 0.242178 255 220 0
0.439784 0.129226 0.242465 255 220 0
0.375066 0.056643 0.207934 255 220 0
0.376919 0.053944 0.223332 255 220 0
0.427721 0.174599 0.280837 255 220 0
0.380322 0.182779 0.250012 255 220 0
0.364017 0.137871 0.228300 255 220 0
0.438362 0.148244 0.279720 255 220 0
0.440594 0.124745 0.278478 255 220 0
0.377401 0.103361 0.196247 255 220 0
0.409347 0.115367 0.202462 255 220 0
0.375233 0.110253 0.275055 255 220 0
0.406507 0.150380 0.226756 255 220 0
0.388764 0.045250 0.206332 255 220 0
0.434017 0.128196 0.285704 255 220 0
0.375317 0.153185 0.281892 255 220 0
0.444948 0.124815 0.255952 255 220 0
0.373325 0.077235 0.255341 255 220 0
0.370034 0.171448 0.262244 255 220 0
0.422290 0.150692 0.294979 255 220 0
0.431108 0.130308 0.228259 255 220 0
0.379644 0.081089 0.190905 255 220 0
0.394548 0.085068 0.187926 255 220 0
0.366764 0.157848 0.257207 255 220 0
0.445900 0.110507 0.253908 255 220 0
0.383802 0.051063 0.202270 255 220 0
0.425503 0.106308 0.282095 255 220 0
0.379774 0.132076 0.284495 255 220 0
0.433415 0.162115 0.267069 255 220 0
0.391471 0.177148 0.295567 255 220 0
0.420845 0.177039 0.294152 255 220 0
0.441120 0.087642 0.251066 255 220 0
0.424721 0.160066 0.294135 255 220 0
0.442449 0.138793 0.263208 255 220 0
0.371104 0.176187 0.264173 255 220 0
0.386371 0.168656 0.238172 255 220 0
0.371018 0.153701 0.235108 255 220 0
0.415868 0.182037 0.295677 255 220 0
0.367507 0.150326 0.237198 255 220 0
0.429816 0.075790 0.202108 255 220 0
0.377470 0.194508 0.260914 255 220 0
0.440916 0.107613 0.229253 255 220 0
0.413816 0.195133 0.287543 255 220 0
0.364614 0.075140 0.235940 255 220 0
0.439334 0.148116 0.275887 255 220 0
0.397401 0.057479 0.190675 255 220 0
0.418425 0.129356 0.292990 255 220 0
0.443125 0.102262 0.232475 255 220 0
0.380207 0.070905 0.256675 255 220 0
0.412507 0.077735 0.269935 255 220 0
0.363360 0.110419 0.209609 255 220 0
0.411154 0.169286 0.298789 255 220 0
0.403348 0.049229 0.196184 255 220 0
0.384123 0.169767 0.291640 255 220 0
0.383531 0.173312 0.242193 255 220 0
0.418454 0.081901 0.271212 255 220 0
0.395885 0.121504 0.202982 255 220 0
0.359360 0.095246 0.241786 255 220 0
0.361184 0.106462 0.251824 255 220 0
0.369264 0.064785 0.208329 255 220 0
0.438311 0.151039 0.265322 255 220 0
0.377970 0.074461 0.192250 255 220 0
0.387205 0.207184 0.280036 255 220 0
0.430235 0.058962 0.222546 255 220 0
0.372465 0.085269 0.260686 255 220 0
0.383811 0.074313 0.262752 255 220 0
0.377442 0.058926 0.236854 255 220 0
0.360354 0.110147 0.214677 255 220 0
0.388635 0.053265 0.195897 255 220 0
0.391691 0.141813 0.294031 255 220 0
0.386590 0.197912 0.287825 255 220 0
0.444465 0.099318 0.237010 255 220 0
0.439427 0.077748 0.232568 255 220 0
0.379564 0.134726 0.284764 255 220 0
0.403230 0.074290 0.187646 255 220 0
0.399165 0.065390 0.188313 255 220 0
0.385923 0.190672 0.290059 255 220 0
0.442044 0.138108 0.274881 255 220 0
0.398542 0.093548 0.189775 255 220 0
0.399542 0.184882 0.249316 255 220 0
0.357574 0.114123 0.225321 255 220 0
0.370321 0.123937 0.271936 255 220 0
0.386642 0.074125 0.264138 255 220 0
0.376560 0.075004 0.257075 255 220 0
0.429536 0.118518 0.285215 255 220 0
0.430844 0.164908 0.285562 255 220 0
0.444764 0.096640 0.245738 255 220 0
0.440348 0.088549 0.222718 255 220 0
0.394105 0.095860 0.190315 255 220 0
0.378369 0.052979 0.224928 255 220 0
0.441619 0.131419 0.249453 255 220 0
0.395740 0.081995 0.187520 255 220 0
0.421659 0.185766 0.274942 255 220 0
0.411758 0.057191 0.247933 255 220 0
0.435915 0.149967 0.254049 255 220 0
0.406722 0.198784 0.262445 255 220 0
0.413309 0.198217 0.271615 255 220 0
0.365405 0.127565 0.217174 255 220 0
0.424792 0.089352 0.273289 255 220 0
0.424345 0.054534 0.230954 255 220 0
0.380017 0.093489 0.272481 255 220 0
0.389468 0.195300 0.290649 255 220 0
0.394176 0.051765 0.241519 255 220 0
0.357472 0.097061 0.233511 255 220 0
0.439215 0.119650 0.233548 255 220 0
0.388200 0.192522 0.290938 255 220 0
0.411663 0.086545 0.276378 255 220 0
0.379594 0.051024 0.210242 255 220 0
0.421902 0.052265 0.230360 255 220 0
0.434618 0.119012 0.224848 255 220 0
0.435614 0.147804 0.285462 255 220 0
0.399343 0.045385 0.200652 255 220 0
0.398287 0.101796 0.192627 255 220 0
0.378626 0.202139 0.267707 255 220 0
0.389304 0.045215 0.223673 255 220 0
0.443849 0.107367 0.236894 255 220 0
0.416732 0.193726 0.281534 255 220 0
0.424256 0.179429 0.286244 255 220 0
0.382090 0.054488 0.235672 255 220 0
0.424993 0.175703 0.265180 255 220 0
0.418802 0.053411 0.201567 255 220 0
0.412137 0.081775 0.273098 255 220 0
0.390973 0.157937 0.295435 255 220 0
0.443458 0.118214 0.243457 255 220 0
0.433946 0.095690 0.210811 255 220 0
0.401565 0.109254 0.287798 255 220 0
0.363583 0.118543 0.259387 255 220 0
0.428014 0.151199 0.292146 255 220 0
0.416969 0.064631 0.254933 255 220 0
0.411673 0.201093 0.274607 255 220 0
0.360600 0.110866 0.251475 255 220 0
0.361106 0.090895 0.209566 255 220 0
0.379037 0.127276 0.282942 255 220 0
0.397211 0.167074 0.298054 255 220 0
0.403898 0.073587 0.267711 255 220 0
0.429400 0.088758 0.202718 255 220 0
0.414753 0.140572 0.223108 255 220 0
0.412832 0.197727 0.269588 255 220 0
0.392591 0.166316 0.296473 255 220 0
0.433388 0.064270 0.219129 255 220 0
0.436893 0.153567 0.263211 255 220 0
0.405150 0.125920 0.293977 255 220 0
0.372302 0.181487 0.264909 255 220 0
0.374977 0.174567 0.250223 255 220 0
0.370156 0.130464 0.214696 255 220 0
0.439943 0.145432 0.276853 255 220 0
0.357053 0.098731 0.231297 255 220 0
0.372215 0.154658 0.234607 255 220 0
0.413108 0.180496 0.296994 255 220 0
0.414735 0.196858 0.273432 255 220 0
0.404878 0.046054 0.231642 255 220 0
0.416208 0.189983 0.266706 255 220 0
0.373305 0.083318 0.260350 255 220 0
0.382880 0.049915 0.205360 255 220 0
0.356716 0.113505 0.231415 255 220 0
0.377502 0.176377 0.248445 255 220 0
0.373463 0.187003 0.269063 255 220 0
0.387004 0.204544 0.260198 255 220 0
0.399569 0.042342 0.222576 255 220 0
0.423580 0.129798 0.291385 255 220 0
0.438973 0.107295 0.224972 255 220 0
0.407477 0.042859 0.208520 255 220 0
0.422491 0.132245 0.221934 255 220 0
0.415611 0.059404 0.248868 255 220 0
0.395533 0.138783 0.295105 255 220 0
0.395454 0.125392 0.292086 255 220 0
0.422334 0.184144 0.273194 255 220 0
0.442075 0.102423 0.262868 255 220 0
0.413478 0.061141 0.193164 255 220 0
0.396941 0.161347 0.297892 255 220 0
0.360967 0.133336 0.251185 255 220 0
0.368757 0.094330 0.261063 255 220 0
0.413153 0.129380 0.213788 255 220 0
0.358219 0.112744 0.244788 255 220 0
0.359019 0.091157 0.216289 255 220 0
0.378877 0.153714 0.228509 255 220 0
0.368176 0.095366 0.260727 255 220 0
0.363603 0.076214 0.233246 255 220 0
0.438668 0.102178 0.221762 255 220 0
0.385665 0.151068 0.224422 255 220 0
0.366024 0.070988 0.231718 255 220 0
0.396245 0.053618 0.245242 255 220 0
0.392840 0.127546 0.291678 255 220 0
0.382071 0.065572 0.252186 255 220 0
0.364329 0.080680 0.243785 255 220 0
0.437730 0.078254 0.216986 255 220 0
0.402954 0.098895 0.192085 255 220 0
0.424946 0.076279 0.197014 255 220 0
0.393160 0.101718 0.283220 255 220 0
0.404336 0.205039 0.265853 255 220 0
0.402514 0.075137 0.187534 255 220 0
0.421620 0.167685 0.295569 255 220 0
0.371035 0.170652 0.254809 255 220 0
0.443295 0.106676 0.234809 255 220 0
0.424207 0.091768 0.275152 255 220 0
0.401475 0.071378 0.265782 255 220 0
0.393257 0.065282 0.259020 255 220 0
0.435022 0.074627 0.247285 255 220 0
0.391242 0.127011 0.206361 255 220 0
0.424761 0.180525 0.278614 255 220 0
0.385547 0.145212 0.219800 255 220 0
0.418074 0.052253 0.235667 255 220 0
0.425001 0.114102 0.210871 255 220 0
0.423548 0.092106 0.275701 255 220 0
0.396216 0.054346 0.246354 255 220 0
0.428439 0.080535 0.263697 255 220 0
0.445103 0.127370 0.262241 255 220 0
0.422797 0.100310 0.201109 255 220 0
0.372051 0.149563 0.276828 255 220 0
0.391709 0.077983 0.269146 255 220 0
0.369776 0.124843 0.271230 255 220 0
0.395249 0.052796 0.193482 255 220 0
0.384618 0.105454 0.194780 255 220 0
0.370927 0.147780 0.228705 255 220 0
0.374045 0.082018 0.260265 255 220 0
0.362014 0.080867 0.235659 255 220 0
0.412572 0.119768 0.291488 255 220 0
0.435254 0.069128 0.217053 255 220 0
0.378281 0.092486 0.270554 255 220 0
0.376879 0.097865 0.271966 255 220 0
0.436369 0.070400 0.223962 255 220 0
0.380629 0.147025 0.287414 255 220 0
0.436850 0.073179 0.237038 255 220 0
0.423735 0.170682 0.293558 255 220 0
0.387022 0.081947 0.188513 255 220 0
0.426740 0.112009 0.283998 255 220 0
0.419509 0.087241 0.274532 255 220 0
0.374752 0.055566 0.219153 255 220 0
0.403557 0.206096 0.266428 255 220 0
0.368778 0.153646 0.270037 255 220 0
0.363271 0.092293 0.250636 255 220 0
0.370520 0.073761 0.198659 255 220 0
0.410805 0.067169 0.260577 255 220 0
0.413748 0.126860 0.293479 255 220 0
0.392129 0.048630 0.198285 255 220 0
0.381243 0.168033 0.239569 255 220 0
0.442363 0.110802 0.234663 255 220 0
0.366159 0.096112 0.201843 255 220 0
0.377666 0.055277 0.204846 255 220 0
0.404436 0.202676 0.263267 255 220 0
0.439493 0.127946 0.280660 255 220 0
0.365259 0.070300 0.219474 255 220 0
0.402642 0.099250 0.192169 255 220 0
0.417412 0.081815 0.191995 255 220 0
0.413362 0.165613 0.242757 255 220 0
0.440706 0.145405 0.270958 255 220 0
0.432661 0.142425 0.240474 255 220 0
0.437775 0.120902 0.231581 255 220 0
0.401710 0.206154 0.264304 255 220 0
0.426251 0.150459 0.240476 255 220 0
0.400545 0.200117 0.258467 255 220 0
0.439653 0.148178 0.267307 255 220 0
0.440531 0.108398 0.228824 255 220 0
0.422643 0.181574 0.268768 255 220 0
0.434395 0.143783 0.244442 255 220 0
0.392499 0.200342 0.256378 255 220 0
