ply
format ascii 1.0
element vertex 1024
property float x
property float y
property float z
property uchar red
property uchar green
property uchar blue
end_header
0.614543 0.057334 0.109202 255 220 0
0.561816 0.053561 0.066034 255 220 0
0.648375 0.030919 0.057965 255 220 0
0.607863 0.000262 0.076008 255 220 0
0.635761 0.057397 0.037692 255 220 0
0.580446 0.054634 0.026778 255 220 0
0.619858 0.046519 0.105438 255 220 0
0.624211 0.129150 0.111310 255 220 0
0.656189 0.064459 0.088030 255 220 0
0.613234 0.043179 0.020736 255 220 0
0.606421 0.001393 0.077731 255 220 0
0.614275 -0.001819 0.023973 255 220 0
0.601948 0.058748 0.025285 255 220 0
0.622732 0.039531 0.101974 255 220 0
0.643317 0.025335 0.074633 255 220 0
0.569227 0.078066 0.073794 255 220 0
0.571303 0.004855 0.029807 255 220 0
0.627586 0.088258 0.113984 255 220 0
0.574313 0.080434 0.083309 255 220 0
0.614781 0.023602 0.095251 255 220 0
0.618044 0.015712 0.088473 255 220 0
0.625462 0.042018 0.102171 255 220 0
0.559061 0.041033 0.054894 255 220 0
0.586709 -0.005037 0.022662 255 220 0
0.583032 0.058080 0.027509 255 220 0
0.584383 0.052186 0.024167 255 220 0
0.624468 0.130448 0.069115 255 220 0
0.642652 0.032973 0.041881 255 220 0
0.598775 0.005910 0.016228 255 220 0
0.606451 0.146783 0.075029 255 220 0
0.651114 0.039497 0.059244 255 220 0
0.639351 0.138055 0.100218 255 220 0
0.654220 0.080775 0.068327 255 220 0
0.608671 0.150298 0.076702 255 220 0
0.602520 0.073854 0.109328 255 220 0
0.619078 -0.008897 0.047232 255 220 0
0.617985 0.094684 0.047675 255 220 0
0.596162 0.027684 0.096276 255 220 0
0.639475 0.136451 0.102167 255 220 0
0.655293 0.083189 0.071810 255 220 0
0.589725 0.099644 0.053144 255 220 0
0.647273 0.123785 0.096337 255 220 0
0.644109 0.034230 0.043911 255 220 0
0.638241 0.030909 0.035836 255 220 0
0.603014 0.134290 0.103184 255 220 0
0.618756 0.084760 0.042170 255 220 0
0.612305 0.021159 0.093967 255 220 0
0.646879 0.031008 0.051347 255 220 0
0.597893 0.050871 0.104536 255 220 0
0.583008 -0.007568 0.027200 255 220 0
0.647496 0.060910 0.051295 255 220 0
0.637702 0.117014 0.110434 255 220 0
0.608047 0.037282 0.102762 255 220 0
0.597144 0.069277 0.106570 255 220 0
0.606975 0.027888 0.098214 255 220 0
0.568322 0.070909 0.076543 255 220 0
0.638424 0.013558 0.051830 255 220 0
0.584735 -0.006096 0.062423 255 220 0
0.585405 0.072390 0.035046 255 220 0
0.571994 0.040730 0.026037 255 220 0
0.650202 0.079912 0.061236 255 220 0
0.579038 0.000778 0.065779 255 220 0
0.616951 0.132153 0.110306 255 220 0
0.627896 0.014910 0.082032 255 220 0
0.626520 0.000583 0.035775 255 220 0
0.637180 0.142344 0.096053 255 220 0
0.581582 0.024940 0.087313 255 220 0
0.624294 0.099934 0.052859 255 220 0
0.643723 0.032787 0.083132 255 220 0
0.651199 0.077892 0.061904 255 220 0
0.643224 0.020352 0.061747 255 220 0
0.617544 0.114544 0.058913 255 220 0
0.650041 0.091232 0.066518 255 220 0
0.646821 0.118757 0.082969 255 220 0
0.619365 0.030856 0.098641 255 220 0
0.634036 0.129518 0.074105 255 220 0
0.586524 0.005812 0.076720 255 220 0
0.627995 0.033949 0.097238 255 220 0
0.651015 0.061125 0.056422 255 220 0
0.588285 0.090463 0.098882 255 220 0
0.599767 0.122936 0.103872 255 220 0
0.571639 0.061188 0.084056 255 220 0
0.628569 0.033152 0.025882 255 220 0
0.637589 0.055452 0.102175 255 220 0
0.580443 0.099581 0.063260 255 220 0
0.630831 0.068260 0.038339 255 220 0
0.572049 0.002488 0.030857 255 220 0
0.650058 0.114030 0.098945 255 220 0
0.623070 0.065848 0.110946 255 220 0
0.618442 0.093545 0.114414 255 220 0
0.653040 0.043822 0.065981 255 220 0
0.587617 0.105867 0.060593 255 220 0
0.599451 -0.003497 0.072168 255 220 0
0.625705 0.094628 0.050375 255 220 0
0.585924 -0.001238 0.069304 255 220 0
0.580190 0.037631 0.020464 255 220 0
0.631211 0.031223 0.028009 255 220 0
0.621169 -0.003533 0.060547 255 220 0
0.618599 0.102254 0.052280 255 220 0
0.636487 0.018653 0.077212 255 220 0
0.620240 0.020668 0.091713 255 220 0
0.575058 -0.006455 0.045642 255 220 0
0.625047 0.020111 0.022832 255 220 0
0.607408 -0.004341 0.069856 255 220 0
0.631587 0.020961 0.028839 255 220 0
0.604664 0.095419 0.046823 255 220 0
0.619535 0.003251 0.024185 255 220 0
0.646990 0.034443 0.078800 255 220 0
0.619311 0.042823 0.022552 255 220 0
0.638850 0.030108 0.086863 255 220 0
0.558904 0.037099 0.048279 255 220 0
0.636080 0.017666 0.037091 255 220 0
0.598094 0.051244 0.104690 255 220 0
0.579768 0.031981 0.089010 255 220 0
0.615726 0.047791 0.023294 255 220 0
0.598440 0.046146 0.103623 255 220 0
0.613145 0.006778 0.018818 255 220 0
0.577752 0.081605 0.088111 255 220 0
0.631551 0.055164 0.033596 255 220 0
0.566766 0.067585 0.074601 255 220 0
0.570521 0.082711 0.057792 255 220 0
0.583753 -0.002021 0.066815 255 220 0
0.626225 0.105991 0.057066 255 220 0
0.639193 0.060026 0.102980 255 220 0
0.608096 0.078299 0.036422 255 220 0
0.609333 0.041244 0.019011 255 220 0
0.653855 0.046683 0.065505 255 220 0
0.618651 0.111583 0.057523 255 220 0
0.633263 0.143098 0.102651 255 220 0
0.613379 0.049287 0.107046 255 220 0
0.609202 0.004171 0.080219 255 220 0
0.595304 0.057962 0.104593 255 220 0
0.623740 0.120768 0.113125 255 220 0
0.577151 -0.008867 0.043002 255 220 0
0.655505 0.050731 0.070650 255 220 0
0.566308 0.013099 0.058614 255 220 0
0.600757 0.148069 0.091482 255 220 0
0.604650 0.073121 0.110048 255 220 0
0.616674 0.063512 0.110698 255 220 0
0.563913 0.017250 0.034517 255 220 0
0.636335 0.013771 0.069253 255 220 0
0.581703 0.038341 0.020037 255 220 0
0.605965 0.091484 0.111238 255 220 0
0.654581 0.057908 0.062489 255 220 0
0.583429 0.082383 0.042635 255 220 0
0.567661 0.025764 0.072589 255 220 0
0.568711 0.002169 0.039868 255 220 0
0.612420 -0.010176 0.032126 255 220 0
0.628525 0.006385 0.032060 255 220 0
0.602569 0.114484 0.059020 255 220 0
0.657691 0.081866 0.078397 255 220 0
0.600638 0.139044 0.098830 255 220 0
0.563422 0.021547 0.034088 255 220 0
0.588929 0.010546 0.082298 255 220 0
0.635975 0.077383 0.045873 255 220 0
0.584588 -0.008898 0.058114 255 220 0
0.618323 0.018010 0.090303 255 220 0
0.583794 0.065786 0.096949 255 220 0
0.561332 0.020226 0.048667 255 220 0
0.588789 0.120486 0.085640 255 220 0
0.621048 0.130398 0.067794 255 220 0
0.594803 0.122623 0.068161 255 220 0
0.639080 0.034810 0.090309 255 220 0
0.635370 0.010475 0.063345 255 220 0
0.594555 0.006279 0.081469 255 220 0
0.617310 0.128319 0.065821 255 220 0
0.585874 -0.004085 0.022399 255 220 0
0.651347 0.100523 0.100405 255 220 0
0.637938 0.102029 0.111212 255 220 0
0.613291 0.046792 0.022179 255 220 0
0.629399 0.114748 0.113351 255 220 0
0.620977 0.046731 0.105290 255 220 0
0.644921 0.041214 0.044272 255 220 0
0.604241 0.064672 0.028465 255 220 0
0.619587 0.155751 0.086263 255 220 0
0.611407 0.058541 0.026681 255 220 0
0.632088 0.088580 0.049732 255 220 0
0.610741 -0.013731 0.045774 255 220 0
0.611769 0.098467 0.048859 255 220 0
0.593342 0.105016 0.055712 255 220 0
0.613045 0.152428 0.097852 255 220 0
0.632537 0.006974 0.061927 255 220 0
0.594606 0.110663 0.059499 255 220 0
0.611533 0.038847 0.103465 255 220 0
0.594947 0.038270 0.017061 255 220 0
0.616630 0.036482 0.019534 255 220 0
0.628508 0.008494 0.072798 255 220 0
0.571159 0.044496 0.083357 255 220 0
0.608084 0.097889 0.048334 255 220 0
0.609587 -0.013617 0.049547 255 220 0
0.639435 0.020085 0.042508 255 220 0
0.593613 -0.012020 0.058193 255 220 0
0.600382 0.039121 0.017152 255 220 0
0.614683 0.000839 0.073787 255 220 0
0.637151 0.059250 0.103920 255 220 0
0.603937 0.108652 0.109280 255 220 0
0.628183 0.006887 0.031006 255 220 0
0.577685 0.088991 0.052751 255 220 0
0.624924 0.115310 0.061507 255 220 0
0.653395 0.050829 0.083480 255 220 0
0.618737 0.051966 0.107461 255 220 0
0.632774 0.018406 0.081466 255 220 0
0.562250 0.061705 0.060855 255 220 0
0.625130 0.041542 0.102078 255 220 0
0.584531 0.051132 0.097021 255 220 0
0.626060 0.067458 0.035669 255 220 0
0.627631 0.085822 0.046074 255 220 0
0.631670 0.004894 0.043942 255 220 0
0.624227 -0.004237 0.042299 255 220 0
0.566392 0.009259 0.054040 255 220 0
0.585951 0.114317 0.081012 255 220 0
0.650343 0.060426 0.055210 255 220 0
0.620600 -0.007239 0.039737 255 220 0
0.591838 0.023415 0.092696 255 220 0
0.599695 -0.010616 0.025597 255 220 0
0.642255 0.035323 0.040856 255 220 0
0.559373 0.039603 0.044637 255 220 0
0.587587 0.002619 0.074367 255 220 0
0.624872 0.005543 0.072395 255 220 0
0.579197 0.067510 0.092339 255 220 0
0.583864 0.106511 0.067568 255 220 0
0.612661 0.132129 0.109302 255 220 0
0.604759 0.081485 0.110588 255 220 0
0.597285 0.086882 0.041891 255 220 0
0.652915 0.069521 0.095128 255 220 0
0.596679 0.013489 0.014580 255 220 0
0.640006 0.029174 0.038690 255 220 0
0.611775 0.155858 0.084925 255 220 0
0.627964 0.121461 0.112598 255 220 0
0.610164 0.084571 0.112515 255 220 0
0.612190 0.098343 0.113261 255 220 0
0.589953 0.123668 0.079736 255 220 0
0.561724 0.058077 0.062755 255 220 0
0.623815 0.154322 0.088367 255 220 0
0.592745 0.065981 0.029517 255 220 0
0.601033 -0.015858 0.035577 255 220 0
0.582537 0.064235 0.095869 255 220 0
0.635757 0.104558 0.061059 255 220 0
0.566876 0.042635 0.031293 255 220 0
0.613013 0.087127 0.113316 255 220 0
0.647115 0.044856 0.047568 255 220 0
0.612943 0.113458 0.057753 255 220 0
0.642524 0.104620 0.065843 255 220 0
0.573804 0.083465 0.051658 255 220 0
0.582214 0.073190 0.036803 255 220 0
0.601539 0.053153 0.022641 255 220 0
0.641807 0.105254 0.109039 255 220 0
0.625975 -0.002543 0.049917 255 220 0
0.588188 0.042756 0.019466 255 220 0
0.649419 0.032980 0.063321 255 220 0
0.632625 0.103602 0.058811 255 220 0
0.634648 0.026491 0.087851 255 220 0
0.610906 -0.013333 0.039139 255 220 0
0.654861 0.077557 0.094853 255 220 0
0.635680 0.144393 0.092344 255 220 0
0.580447 0.044995 0.092890 255 220 0
0.591235 0.127097 0.086276 255 220 0
0.642433 0.081554 0.052937 255 220 0
0.645310 0.028854 0.075171 255 220 0
0.603802 0.135561 0.103361 255 220 0
0.595444 0.011738 0.086445 255 220 0
0.653778 0.077135 0.065887 255 220 0
0.651352 0.055315 0.090280 255 220 0
0.640725 0.052143 0.040882 255 220 0
0.616689 0.129513 0.066242 255 220 0
0.593315 0.060543 0.103825 255 220 0
0.612582 0.049813 0.107211 255 220 0
0.618122 0.154859 0.081639 255 220 0
0.605101 0.033057 0.015780 255 220 0
0.636507 0.025967 0.034271 255 220 0
0.646246 0.050364 0.047037 255 220 0
0.578831 0.070782 0.036888 255 220 0
0.589423 0.058343 0.101251 255 220 0
0.642440 0.045963 0.041487 255 220 0
0.599249 0.093040 0.107706 255 220 0
0.574103 0.052318 0.087336 255 220 0
0.654065 0.076143 0.095632 255 220 0
0.566111 0.039815 0.075348 255 220 0
0.591562 0.124747 0.090947 255 220 0
0.616826 0.070880 0.034226 255 220 0
0.566347 0.014982 0.060804 255 220 0
0.656263 0.072142 0.069060 255 220 0
0.605722 0.067746 0.030250 255 220 0
0.588899 -0.000107 0.072393 255 220 0
0.589262 -0.013035 0.054378 255 220 0
0.632017 0.088802 0.112958 255 220 0
0.561736 0.026021 0.037380 255 220 0
0.629356 0.080786 0.112781 255 220 0
0.560754 0.055281 0.058055 255 220 0
0.641936 0.018989 0.053075 255 220 0
0.637572 0.013448 0.047148 255 220 0
0.591850 0.032172 0.015990 255 220 0
0.567834 0.015968 0.065079 255 220 0
0.643579 0.027294 0.076935 255 220 0
0.585483 0.024922 0.090074 255 220 0
0.624275 0.028597 0.022271 255 220 0
0.562829 0.038735 0.035590 255 220 0
0.569568 0.003975 0.054505 255 220 0
0.631313 0.004191 0.044729 255 220 0
0.646618 0.092345 0.105000 255 220 0
0.559011 0.043661 0.049748 255 220 0
0.574146 0.080872 0.048512 255 220 0
0.631504 0.129410 0.072328 255 220 0
0.567434 0.061714 0.040653 255 220 0
0.565258 0.069267 0.052819 255 220 0
0.637348 0.011720 0.054157 255 220 0
0.591973 -0.016421 0.037812 255 220 0
0.620512 0.134749 0.109807 255 220 0
0.633263 0.071214 0.109581 255 220 0
0.643512 0.078380 0.052572 255 220 0
0.597988 0.103313 0.105862 255 220 0
0.632626 0.064982 0.108114 255 220 0
0.610471 0.086157 0.041269 255 220 0
0.578533 0.096763 0.079654 255 220 0
0.594031 0.006038 0.016372 255 220 0
0.638918 0.013856 0.056896 255 220 0
0.623567 0.044902 0.025176 255 220 0
0.563375 0.051757 0.070877 255 220 0
0.646689 0.057180 0.049210 255 220 0
0.595815 0.099347 0.050621 255 220 0
0.596803 0.017908 0.014198 255 220 0
0.571523 0.030230 0.080475 255 220 0
0.627139 0.043521 0.102217 255 220 0
0.582163 0.057188 0.027363 255 220 0
0.582458 0.063134 0.095822 255 220 0
0.632201 0.057404 0.105706 255 220 0
0.652059 0.059344 0.091650 255 220 0
0.632967 0.008876 0.039243 255 220 0
0.636345 0.016174 0.038901 255 220 0
0.645043 0.031165 0.078954 255 220 0
0.593079 -0.016457 0.047652 255 220 0
0.565219 0.034947 0.072367 255 220 0
0.588004 -0.015191 0.047914 255 220 0
0.614569 0.081023 0.039009 255 220 0
0.592930 0.116782 0.065530 255 220 0
0.622869 0.144265 0.105560 255 220 0
0.586044 0.059740 0.098885 255 220 0
0.613921 0.087947 0.042829 255 220 0
0.574419 0.067003 0.037282 255 220 0
0.569932 0.061947 0.081658 255 220 0
0.595047 0.137785 0.086658 255 220 0
0.599625 0.121247 0.063825 255 220 0
0.653805 0.046057 0.066922 255 220 0
0.628416 0.005553 0.032742 255 220 0
0.646419 0.030692 0.050335 255 220 0
0.642219 0.108960 0.068325 255 220 0
0.625126 0.109277 0.114333 255 220 0
0.567838 0.007111 0.054885 255 220 0
0.572981 0.033456 0.083288 255 220 0
0.654714 0.083646 0.070773 255 220 0
0.624874 0.127319 0.111718 255 220 0
0.587858 0.041964 0.097547 255 220 0
0.631207 0.076349 0.042489 255 220 0
0.621835 0.122560 0.112844 255 220 0
0.646334 0.046741 0.046568 255 220 0
0.612721 0.089874 0.043760 255 220 0
0.588667 0.090222 0.046216 255 220 0
0.573634 0.078456 0.046815 255 220 0
0.644680 0.099507 0.106906 255 220 0
0.633068 0.109699 0.112961 255 220 0
0.568683 0.077546 0.072560 255 220 0
0.616664 0.155376 0.082297 255 220 0
0.581160 0.036937 0.091703 255 220 0
0.618091 0.080127 0.039435 255 220 0
0.592283 0.069242 0.031505 255 220 0
0.602798 0.129880 0.104522 255 220 0
0.577583 -0.004755 0.056433 255 220 0
0.589360 -0.002602 0.069920 255 220 0
0.575613 0.008175 0.023232 255 220 0
0.595387 0.099244 0.050661 255 220 0
0.583846 0.100843 0.059181 255 220 0
0.615247 -0.009994 0.035613 255 220 0
0.646569 0.026928 0.066115 255 220 0
0.600659 0.143371 0.096298 255 220 0
0.563186 0.021093 0.058415 255 220 0
0.596068 -0.013698 0.055497 255 220 0
0.595222 0.052876 0.103787 255 220 0
0.570157 0.059685 0.082184 255 220 0
0.629310 0.111449 0.113712 255 220 0
0.616210 0.146194 0.104392 255 220 0
0.581031 -0.012096 0.039953 255 220 0
0.643172 0.121285 0.078214 255 220 0
0.560808 0.022212 0.047451 255 220 0
0.613193 0.015589 0.089790 255 220 0
0.594108 0.135274 0.083858 255 220 0
0.582599 0.073410 0.036782 255 220 0
0.630207 0.108494 0.060327 255 220 0
0.640468 0.109238 0.109776 255 220 0
0.621435 0.031951 0.098648 255 220 0
0.592529 -0.008870 0.023951 255 220 0
0.582834 0.050526 0.095619 255 220 0
0.631644 0.138302 0.076745 255 220 0
0.638590 0.014586 0.064626 255 220 0
0.573785 0.033151 0.084047 255 220 0
0.596182 0.082260 0.106154 255 220 0
0.624340 0.126726 0.067250 255 220 0
0.591718 0.084829 0.041489 255 220 0
0.610261 0.052443 0.107816 255 220 0
0.612116 0.134843 0.108283 255 220 0
0.578227 0.091756 0.055321 255 220 0
0.593890 0.132784 0.079332 255 220 0
0.581552 0.095636 0.088540 255 220 0
0.580008 0.090054 0.088456 255 220 0
0.579614 0.097005 0.060553 255 220 0
0.618358 0.004740 0.076734 255 220 0
0.611018 0.052531 0.023921 255 220 0
0.652105 0.046980 0.057581 255 220 0
0.591465 0.096792 0.101069 255 220 0
0.635298 0.066374 0.040536 255 220 0
0.561176 0.030483 0.059766 255 220 0
0.616849 0.005588 0.021149 255 220 0
0.609772 0.070895 0.032518 255 220 0
0.649183 0.036307 0.075052 255 220 0
0.655959 0.066558 0.066749 255 220 0
0.563302 0.044695 0.036551 255 220 0
0.650667 0.040208 0.056398 255 220 0
0.644736 0.129553 0.094808 255 220 0
0.592865 0.130906 0.088315 255 220 0
0.635131 0.020725 0.033750 255 220 0
0.621809 0.040293 0.102563 255 220 0
0.609324 0.040090 0.103936 255 220 0
0.578885 0.003822 0.068937 255 220 0
0.651247 0.057059 0.055925 255 220 0
0.579925 0.092650 0.054233 255 220 0
0.575531 0.057774 0.088912 255 220 0
0.624321 0.149106 0.077984 255 220 0
0.643683 0.115568 0.074473 255 220 0
0.614392 -0.011988 0.044999 255 220 0
0.599894 0.066851 0.029475 255 220 0
0.576808 -0.003436 0.057343 255 220 0
0.605591 0.120471 0.061685 255 220 0
0.608713 0.097586 0.048149 255 220 0
0.630986 0.130027 0.109740 255 220 0
0.649408 0.041185 0.081616 255 220 0
0.603186 0.027105 0.014548 255 220 0
0.589336 0.108356 0.061429 255 220 0
0.616261 0.118829 0.112839 255 220 0
0.634396 0.022428 0.084247 255 220 0
0.620330 -0.007708 0.049169 255 220 0
0.602557 0.025119 0.096284 255 220 0
0.636167 0.012200 0.044152 255 220 0
0.612612 0.080143 0.112785 255 220 0
0.589192 -0.016211 0.044148 255 220 0
0.588632 0.118605 0.087984 255 220 0
0.649158 0.067724 0.055532 255 220 0
0.607918 0.044315 0.105315 255 220 0
0.591225 0.065077 0.029249 255 220 0
0.563238 0.062412 0.050557 255 220 0
0.658429 0.068781 0.075514 255 220 0
0.593089 0.005649 0.016579 255 220 0
0.645051 0.063500 0.048970 255 220 0
0.565253 0.053071 0.037904 255 220 0
0.573628 0.000655 0.030247 255 220 0
0.622036 0.071844 0.112391 255 220 0
0.647658 0.062662 0.052004 255 220 0
0.600669 0.057299 0.024522 255 220 0
0.588935 -0.008600 0.061699 255 220 0
0.654114 0.074653 0.095218 255 220 0
0.655046 0.050038 0.076460 255 220 0
0.615206 0.137763 0.069499 255 220 0
0.596125 0.139945 0.088840 255 220 0
0.613942 0.010417 0.085154 255 220 0
0.615726 0.087756 0.043083 255 220 0
0.630478 0.084202 0.046421 255 220 0
0.647135 0.033453 0.077085 255 220 0
0.573470 0.064925 0.086008 255 220 0
0.637703 0.012553 0.051302 255 220 0
0.627706 0.024434 0.024758 255 220 0
0.572325 0.033697 0.024033 255 220 0
0.647738 0.049241 0.090868 255 220 0
0.628298 0.137443 0.107699 255 220 0
0.591510 0.123790 0.074255 255 220 0
0.574653 0.028384 0.083114 255 220 0
0.626572 0.055615 0.107085 255 220 0
0.570714 -0.000481 0.038791 255 220 0
0.630318 0.021802 0.087197 255 220 0
0.564480 0.068604 0.065681 255 220 0
0.582038 0.016777 0.082537 255 220 0
0.606796 0.081293 0.038070 255 220 0
0.589863 0.123528 0.085394 255 220 0
0.640077 0.123766 0.107897 255 220 0
0.584367 0.023577 0.016739 255 220 0
0.635203 0.017929 0.035198 255 220 0
0.582075 0.043823 0.021566 255 220 0
0.567268 0.076757 0.067039 255 220 0
0.562014 0.042427 0.067209 255 220 0
0.560247 0.048134 0.061156 255 220 0
0.635916 0.058101 0.038056 255 220 0
0.657932 0.081934 0.079704 255 220 0
0.644767 0.125389 0.103184 255 220 0
0.642703 0.108526 0.068503 255 220 0
0.623935 -0.003372 0.037628 255 220 0
0.629487 0.144613 0.103546 255 220 0
0.638656 0.019625 0.075162 255 220 0
0.631505 0.039382 0.098349 255 220 0
0.607647 0.009334 0.085652 255 220 0
0.584594 0.030654 0.092080 255 220 0
0.609835 0.063156 0.028510 255 220 0
0.611407 0.074204 0.111962 255 220 0
0.620687 -0.002166 0.029731 255 220 0
0.610475 0.059245 0.026777 255 220 0
0.625249 0.023543 0.091771 255 220 0
0.611933 0.123737 0.110971 255 220 0
0.597208 -0.017108 0.044631 255 220 0
0.593429 0.115812 0.098885 255 220 0
0.641039 0.056286 0.100252 255 220 0
0.595795 0.059597 0.025734 255 220 0
0.627337 0.001664 0.061237 255 220 0
0.645749 0.028022 0.072490 255 220 0
0.633736 0.104017 0.059638 255 220 0
0.565441 0.058536 0.074507 255 220 0
0.600337 0.113896 0.059255 255 220 0
0.614615 0.152613 0.097893 255 220 0
0.624903 0.139457 0.073159 255 220 0
0.581106 0.003677 0.021043 255 220 0
0.597360 0.009337 0.085105 255 220 0
0.636984 0.011329 0.052422 255 220 0
0.611014 -0.000247 0.074199 255 220 0
0.601945 0.116564 0.106957 255 220 0
0.581573 0.074288 0.094121 255 220 0
0.581028 -0.012075 0.045225 255 220 0
0.632372 0.025557 0.029183 255 220 0
0.617420 0.144643 0.105477 255 220 0
0.622735 0.147989 0.076088 255 220 0
0.628941 0.100967 0.055488 255 220 0
0.604078 0.037642 0.102432 255 220 0
0.644354 0.114998 0.074957 255 220 0
0.616647 -0.010573 0.042262 255 220 0
0.576003 0.026432 0.083465 255 220 0
0.603904 0.017458 0.014244 255 220 0
0.604424 0.025892 0.014494 255 220 0
0.624220 0.038190 0.100878 255 220 0
0.562190 0.018565 0.051518 255 220 0
0.570764 0.013070 0.067796 255 220 0
0.635557 0.058037 0.104339 255 220 0
0.577381 0.035415 0.088135 255 220 0
0.591706 0.017566 0.089171 255 220 0
0.652748 0.087100 0.068783 255 220 0
0.625001 0.031222 0.096982 255 220 0
0.583642 0.003546 0.019706 255 220 0
0.603806 0.067141 0.109137 255 220 0
0.644194 0.130312 0.098474 255 220 0
0.599107 0.043332 0.018538 255 220 0
0.573055 0.080447 0.049448 255 220 0
0.626149 0.098810 0.052994 255 220 0
0.643680 0.130457 0.090067 255 220 0
0.570442 0.031407 0.025129 255 220 0
0.639815 0.024902 0.039948 255 220 0
0.645302 0.024089 0.063802 255 220 0
0.650877 0.093366 0.069199 255 220 0
0.576887 0.059110 0.030879 255 220 0
0.570721 0.062832 0.082669 255 220 0
0.653407 0.087934 0.097956 255 220 0
0.647376 0.090449 0.104229 255 220 0
0.591510 0.003966 0.017287 255 220 0
0.606177 -0.011172 0.058804 255 220 0
0.595236 -0.001083 0.074293 255 220 0
0.568764 0.006735 0.032209 255 220 0
0.584493 0.102987 0.090120 255 220 0
0.567852 0.068129 0.045282 255 220 0
0.612295 0.125935 0.110670 255 220 0
0.639381 0.127501 0.107152 255 220 0
0.624293 0.153965 0.090986 255 220 0
0.560580 0.052091 0.060982 255 220 0
0.598268 0.136051 0.097203 255 220 0
0.640148 0.111804 0.109792 255 220 0
0.633361 0.071256 0.109551 255 220 0
0.641393 0.032142 0.040114 255 220 0
0.568360 0.077312 0.071666 255 220 0
0.634877 0.013336 0.038307 255 220 0
0.583375 0.009951 0.018059 255 220 0
0.597938 -0.015703 0.050987 255 220 0
0.648827 0.119558 0.096799 255 220 0
0.589309 0.052037 0.100441 255 220 0
0.606725 0.139052 0.070593 255 220 0
0.558829 0.041069 0.051223 255 220 0
0.619888 0.151386 0.099364 255 220 0
0.598348 0.103548 0.052951 255 220 0
0.584636 0.040825 0.095217 255 220 0
0.567532 0.028946 0.074102 255 220 0
0.632495 0.119020 0.067392 255 220 0
0.650807 0.037047 0.065166 255 220 0
0.582269 -0.010191 0.053324 255 220 0
0.577460 0.039687 0.022268 255 220 0
0.644676 0.051546 0.045265 255 220 0
0.606675 0.013110 0.015161 255 220 0
0.576079 0.017982 0.020620 255 220 0
0.642631 0.098867 0.062431 255 220 0
0.561790 0.025439 0.037356 255 220 0
0.578204 0.058429 0.091761 255 220 0
0.650768 0.050333 0.087769 255 220 0
0.584197 -0.008458 0.027203 255 220 0
0.562623 0.052072 0.041806 255 220 0
0.561252 0.020265 0.047785 255 220 0
0.618657 0.112188 0.113894 255 220 0
0.604487 0.047960 0.020712 255 220 0
0.587342 0.070854 0.033523 255 220 0
0.586449 0.052004 0.098536 255 220 0
0.591072 0.014764 0.086849 255 220 0
0.639883 0.073805 0.047285 255 220 0
0.652475 0.055005 0.057858 255 220 0
0.625764 0.136336 0.108729 255 220 0
0.579021 -0.009293 0.049868 255 220 0
0.567780 0.030265 0.075146 255 220 0
0.587343 0.020811 0.088895 255 220 0
0.571703 0.019041 0.023709 255 220 0
0.605154 0.034832 0.101457 255 220 0
0.632256 0.078848 0.044360 255 220 0
0.638629 0.112027 0.067279 255 220 0
0.630926 0.048662 0.031088 255 220 0
0.637271 0.015779 0.041766 255 220 0
0.573645 -0.004994 0.042765 255 220 0
0.637427 0.012957 0.047882 255 220 0
0.646861 0.065526 0.099494 255 220 0
0.592009 0.029904 0.095754 255 220 0
0.585317 0.089385 0.047064 255 220 0
0.590875 0.091243 0.046184 255 220 0
0.605435 0.042812 0.104492 255 220 0
0.653556 0.072956 0.063899 255 220 0
0.564456 0.032653 0.069862 255 220 0
0.599654 0.120455 0.104350 255 220 0
0.598041 0.003940 0.016864 255 220 0
0.597620 -0.010849 0.025597 255 220 0
0.591883 0.080162 0.103112 255 220 0
0.620469 0.154638 0.082777 255 220 0
0.636033 0.089816 0.111471 255 220 0
0.574766 0.030667 0.084157 255 220 0
0.579524 0.051669 0.025782 255 220 0
0.583222 0.068208 0.033220 255 220 0
0.620275 0.045909 0.024040 255 220 0
0.624176 0.004854 0.072053 255 220 0
0.643268 0.089751 0.057760 255 220 0
0.616016 -0.010156 0.051332 255 220 0
0.573938 0.062948 0.035054 255 220 0
0.619086 0.136561 0.069809 255 220 0
0.621257 0.152532 0.079470 255 220 0
0.585696 0.086508 0.096742 255 220 0
0.597306 -0.006045 0.068352 255 220 0
0.602280 0.001666 0.078480 255 220 0
0.618271 -0.002565 0.027643 255 220 0
0.629497 0.041310 0.100271 255 220 0
0.567279 0.015408 0.029233 255 220 0
0.585866 0.048057 0.097548 255 220 0
0.657158 0.087103 0.090050 255 220 0
0.619709 0.037694 0.101951 255 220 0
0.565753 0.030674 0.071631 255 220 0
0.654128 0.102611 0.088742 255 220 0
0.644903 0.061424 0.048168 255 220 0
0.593850 0.127313 0.094423 255 220 0
0.625958 0.115820 0.113695 255 220 0
0.585981 -0.006384 0.062992 255 220 0
0.593773 0.116787 0.064721 255 220 0
0.641281 0.135638 0.098763 255 220 0
0.636109 0.020338 0.079933 255 220 0
0.610907 0.058241 0.109220 255 220 0
0.606604 0.146562 0.074805 255 220 0
0.566767 0.039482 0.030460 255 220 0
0.650664 0.071276 0.098039 255 220 0
0.585717 0.109396 0.088447 255 220 0
0.621176 0.118601 0.061936 255 220 0
0.644205 0.051417 0.044656 255 220 0
0.579211 0.063926 0.092613 255 220 0
0.576463 0.039512 0.022749 255 220 0
0.611065 -0.013666 0.044651 255 220 0
0.618295 0.140736 0.107446 255 220 0
0.561330 0.033248 0.062002 255 220 0
0.622202 0.106342 0.055656 255 220 0
0.613185 0.105639 0.053328 255 220 0
0.607524 0.112954 0.057477 255 220 0
0.656373 0.087556 0.092642 255 220 0
0.624566 0.106898 0.056843 255 220 0
0.585540 0.097110 0.053574 255 220 0
0.637223 0.062320 0.040619 255 220 0
0.620618 0.026076 0.019799 255 220 0
0.566029 0.023618 0.029338 255 220 0
0.646866 0.124211 0.098682 255 220 0
0.599721 0.139622 0.075104 255 220 0
0.625272 0.031453 0.023224 255 220 0
0.617377 0.061563 0.110233 255 220 0
0.595699 0.015047 0.088978 255 220 0
0.584614 0.107425 0.067261 255 220 0
0.574471 0.058864 0.087674 255 220 0
0.622492 -0.005864 0.049765 255 220 0
0.598836 0.082024 0.107788 255 220 0
0.647946 0.030901 0.069525 255 220 0
0.594763 0.135796 0.080843 255 220 0
0.622521 0.007851 0.024057 255 220 0
0.594136 0.100097 0.051647 255 220 0
0.632892 0.027086 0.089784 255 220 0
0.590195 -0.016307 0.039225 255 220 0
0.651046 0.106594 0.080617 255 220 0
0.608870 0.151485 0.077774 255 220 0
0.604068 0.101312 0.050638 255 220 0
0.630795 0.021063 0.086126 255 220 0
0.560396 0.053319 0.057799 255 220 0
0.625613 0.149457 0.079406 255 220 0
0.645124 0.024485 0.054624 255 220 0
0.576656 0.095194 0.072843 255 220 0
0.658201 0.063271 0.079649 255 220 0
0.631659 0.079341 0.044310 255 220 0
0.609481 0.089692 0.043290 255 220 0
0.656196 0.068444 0.089957 255 220 0
0.656260 0.055873 0.067962 255 220 0
0.573432 0.084204 0.079201 255 220 0
0.600995 0.086581 0.041340 255 220 0
0.593390 0.132590 0.081185 255 220 0
0.568805 0.022651 0.072555 255 220 0
0.611029 0.150783 0.076277 255 220 0
0.627079 0.007141 0.029192 255 220 0
0.599612 -0.009673 0.062861 255 220 0
0.594147 0.043779 0.101275 255 220 0
0.595707 0.049305 0.020965 255 220 0
0.581973 0.103304 0.066686 255 220 0
0.651167 0.099349 0.100728 255 220 0
0.583207 0.086129 0.045622 255 220 0
0.590360 0.014597 0.086350 255 220 0
0.590018 0.004075 0.077241 255 220 0
0.589519 0.038857 0.097642 255 220 0
0.636942 0.012561 0.064354 255 220 0
0.582268 0.106008 0.073603 255 220 0
0.567548 0.077543 0.066922 255 220 0
0.597564 0.069033 0.030777 255 220 0
0.626666 0.011004 0.026424 255 220 0
0.593693 0.000403 0.075372 255 220 0
0.653052 0.046505 0.078861 255 220 0
0.580732 0.000505 0.022800 255 220 0
0.577400 0.010388 0.073777 255 220 0
0.599237 0.146704 0.084395 255 220 0
0.602023 0.146132 0.096064 255 220 0
0.610317 -0.006555 0.065121 255 220 0
0.595946 0.138499 0.080750 255 220 0
0.608190 0.000144 0.075758 255 220 0
0.576542 0.059484 0.031292 255 220 0
0.627230 0.065136 0.035056 255 220 0
0.590039 0.030346 0.095054 255 220 0
0.572209 0.075182 0.082040 255 220 0
0.616035 -0.004954 0.063784 255 220 0
0.595645 0.002575 0.078341 255 220 0
0.578920 0.033288 0.088784 255 220 0
0.618016 0.002209 0.073516 255 220 0
0.653100 0.105413 0.094653 255 220 0
0.628462 0.117578 0.064364 255 220 0
0.651467 0.063868 0.094525 255 220 0
0.599951 0.092175 0.045042 255 220 0
0.599258 0.143037 0.094274 255 220 0
0.585813 0.049591 0.022625 255 220 0
0.572404 0.061094 0.035130 255 220 0
0.616985 0.099080 0.114231 255 220 0
0.642235 0.126033 0.080688 255 220 0
0.647454 0.034845 0.050156 255 220 0
0.629869 0.090785 0.113717 255 220 0
0.591903 0.108587 0.099099 255 220 0
0.565324 0.062819 0.073139 255 220 0
0.581374 0.099789 0.085314 255 220 0
0.569956 0.077221 0.076529 255 220 0
0.648157 0.113289 0.080304 255 220 0
0.620247 0.082660 0.113922 255 220 0
0.579397 0.058165 0.092953 255 220 0
0.633898 0.038521 0.096537 255 220 0
0.582462 0.098232 0.057755 255 220 0
0.629820 0.049789 0.030607 255 220 0
0.581249 0.007590 0.019640 255 220 0
0.566351 0.025220 0.028865 255 220 0
0.637976 0.026229 0.036367 255 220 0
0.653939 0.103278 0.091887 255 220 0
0.629456 0.028600 0.093166 255 220 0
0.634888 0.091306 0.112106 255 220 0
0.643258 0.088410 0.107117 255 220 0
0.575389 0.016773 0.076982 255 220 0
0.646353 0.068817 0.052233 255 220 0
0.569647 0.000279 0.043995 255 220 0
0.575685 -0.001561 0.058417 255 220 0
0.649006 0.117512 0.088268 255 220 0
0.595389 0.127908 0.071508 255 220 0
0.570495 0.083333 0.059366 255 220 0
0.657056 0.090286 0.086529 255 220 0
0.657233 0.066651 0.086796 255 220 0
0.571669 0.045728 0.028029 255 220 0
0.604786 0.055177 0.023865 255 220 0
0.592847 0.057937 0.103298 255 220 0
0.611471 0.091820 0.044765 255 220 0
0.581491 -0.012386 0.039602 255 220 0
0.653276 0.071148 0.095251 255 220 0
0.597817 0.101040 0.105995 255 220 0
0.654884 0.064850 0.064045 255 220 0
0.583087 0.024006 0.087938 255 220 0
0.588332 0.118380 0.087104 255 220 0
0.646285 0.095172 0.105431 255 220 0
0.634036 0.069747 0.041023 255 220 0
0.570755 0.023043 0.024269 255 220 0
0.584396 0.025454 0.016855 255 220 0
0.582830 0.104831 0.084425 255 220 0
0.654231 0.050412 0.063093 255 220 0
0.575974 -0.006427 0.036611 255 220 0
0.642618 0.049930 0.096154 255 220 0
0.601393 0.079830 0.109093 255 220 0
0.649615 0.103689 0.074616 255 220 0
0.618822 0.124289 0.112362 255 220 0
0.646454 0.121430 0.102712 255 220 0
0.647294 0.027936 0.063759 255 220 0
0.648998 0.104212 0.103106 255 220 0
0.655543 0.079442 0.070442 255 220 0
0.590233 0.123119 0.088223 255 220 0
0.596784 0.112550 0.059741 255 220 0
0.580223 0.098877 0.062483 255 220 0
0.642482 0.126947 0.105133 255 220 0
0.577246 0.095978 0.065772 255 220 0
0.621543 0.013973 0.021249 255 220 0
0.596613 0.140536 0.081685 255 220 0
0.642149 0.046371 0.041212 255 220 0
0.639059 0.139614 0.096783 255 220 0
0.569018 0.021441 0.072058 255 220 0
0.656867 0.089820 0.082605 255 220 0
0.586043 -0.002040 0.021121 255 220 0
0.640571 0.074188 0.106517 255 220 0
0.644827 0.041065 0.044139 255 220 0
0.589614 0.017180 0.087827 255 220 0
0.624753 0.021915 0.090751 255 220 0
0.562603 0.054887 0.044136 255 220 0
0.638014 0.114906 0.110570 255 220 0
0.592755 -0.010416 0.025433 255 220 0
0.610168 0.117361 0.111344 255 220 0
0.595550 0.117698 0.063972 255 220 0
0.631084 0.025600 0.089919 255 220 0
0.592497 0.062528 0.027624 255 220 0
0.567055 0.042279 0.077344 255 220 0
0.572459 0.053918 0.085420 255 220 0
0.564774 0.008922 0.045291 255 220 0
0.653034 0.092124 0.072545 255 220 0
0.569095 0.016696 0.026615 255 220 0
0.612297 0.153504 0.096070 255 220 0
0.626710 -0.001449 0.042143 255 220 0
0.584355 0.032418 0.092574 255 220 0
0.595043 0.020640 0.092309 255 220 0
0.580431 0.004228 0.070741 255 220 0
0.561178 0.055221 0.049850 255 220 0
0.578896 -0.005093 0.028961 255 220 0
0.616190 0.089053 0.113967 255 220 0
0.613331 0.144857 0.104506 255 220 0
0.647218 0.038316 0.048353 255 220 0
0.639659 0.017046 0.047448 255 220 0
0.601450 0.082501 0.109174 255 220 0
0.591874 0.013939 0.015088 255 220 0
0.587582 0.005507 0.017664 255 220 0
0.612849 0.137868 0.107470 255 220 0
0.658485 0.079563 0.081765 255 220 0
0.589320 0.033641 0.016739 255 220 0
0.613684 0.128214 0.065220 255 220 0
0.561870 0.060121 0.060449 255 220 0
0.588184 0.071775 0.100493 255 220 0
0.598134 0.020288 0.092849 255 220 0
0.586525 0.021610 0.088877 255 220 0
0.648199 0.061904 0.096911 255 220 0
0.652696 0.107908 0.092756 255 220 0
0.649844 0.036199 0.056841 255 220 0
0.638424 0.027050 0.036822 255 220 0
0.585396 0.036375 0.018305 255 220 0
0.577466 -0.002547 0.059617 255 220 0
0.650275 0.071289 0.058194 255 220 0
0.585208 0.022265 0.016403 255 220 0
0.642270 0.128771 0.083361 255 220 0
0.616285 0.000126 0.071771 255 220 0
0.647415 0.090537 0.062551 255 220 0
0.625279 0.142240 0.074496 255 220 0
0.634180 0.141681 0.081441 255 220 0
0.567906 0.072237 0.049261 255 220 0
0.638242 0.032568 0.089449 255 220 0
0.623215 -0.004765 0.052231 255 220 0
0.595534 0.040676 0.100973 255 220 0
0.616719 0.142185 0.106621 255 220 0
0.597273 -0.004096 0.071099 255 220 0
0.562983 0.043711 0.069814 255 220 0
0.642583 0.058768 0.044728 255 220 0
0.615402 0.139559 0.107502 255 220 0
0.626408 0.031169 0.096361 255 220 0
0.574258 -0.005562 0.045417 255 220 0
0.620557 -0.006838 0.052556 255 220 0
0.635635 0.057980 0.037775 255 220 0
0.656062 0.090473 0.092829 255 220 0
0.589960 -0.013581 0.031173 255 220 0
0.590461 0.042047 0.018804 255 220 0
0.600198 0.148460 0.087169 255 220 0
0.587017 -0.011333 0.056014 255 220 0
0.647142 0.046362 0.047702 255 220 0
0.640011 0.137559 0.090344 255 220 0
0.647588 0.122979 0.093982 255 220 0
0.584226 -0.000680 0.068692 255 220 0
0.641949 0.117829 0.073987 255 220 0
0.609351 -0.007305 0.025832 255 220 0
0.625589 0.026171 0.093518 255 220 0
0.617004 0.105234 0.114080 255 220 0
0.649402 0.057607 0.053119 255 220 0
0.629354 0.033945 0.026627 255 220 0
0.621608 0.055397 0.108109 255 220 0
0.577756 0.066202 0.090892 255 220 0
0.650967 0.094972 0.101062 255 220 0
0.623789 0.007507 0.076323 255 220 0
0.633678 0.144883 0.084506 255 220 0
0.572100 0.058324 0.084861 255 220 0
0.559113 0.035687 0.046464 255 220 0
0.599915 0.075026 0.108244 255 220 0
0.624338 0.113921 0.114007 255 220 0
0.615608 0.018427 0.091430 255 220 0
0.622203 0.026937 0.020799 255 220 0
0.617626 0.081088 0.039818 255 220 0
0.633106 0.141105 0.079683 255 220 0
0.619418 0.113482 0.113871 255 220 0
0.629093 0.003317 0.037517 255 220 0
0.651241 0.094627 0.070705 255 220 0
0.627947 0.072039 0.111519 255 220 0
0.591949 0.128325 0.088117 255 220 0
0.589789 0.120244 0.073949 255 220 0
0.571923 0.074526 0.045294 255 220 0
0.657545 0.087160 0.083594 255 220 0
0.562056 0.045264 0.067670 255 220 0
0.581286 0.099686 0.061581 255 220 0
0.640122 0.125751 0.107308 255 220 0
0.635975 0.140320 0.082893 255 220 0
0.604250 -0.011387 0.059146 255 220 0
0.634971 0.132914 0.076663 255 220 0
0.584927 0.030381 0.092188 255 220 0
0.575909 -0.007282 0.039924 255 220 0
0.562771 0.059984 0.066567 255 220 0
0.591809 0.121698 0.071376 255 220 0
0.594632 0.133974 0.091267 255 220 0
0.606191 0.149600 0.077415 255 220 0
0.596307 -0.015189 0.052319 255 220 0
0.645061 0.074056 0.103486 255 220 0
0.639035 0.045950 0.037701 255 220 0
0.599831 -0.016311 0.036611 255 220 0
0.624110 0.072037 0.037247 255 220 0
0.620384 0.002038 0.071378 255 220 0
0.619963 0.085765 0.114175 255 220 0
0.618106 0.072268 0.112502 255 220 0
0.642300 0.126984 0.081645 255 220 0
0.652620 0.043311 0.073449 255 220 0
0.602363 0.000308 0.018627 255 220 0
0.623645 0.108244 0.114437 255 220 0
0.573891 0.080602 0.082487 255 220 0
0.581538 0.041783 0.093178 255 220 0
0.612645 0.069501 0.032362 255 220 0
0.568020 0.059968 0.078982 255 220 0
0.559081 0.036577 0.053452 255 220 0
0.585821 0.097747 0.053957 255 220 0
0.580956 0.042843 0.092929 255 220 0
0.567346 0.022423 0.069676 255 220 0
0.637469 0.040683 0.035175 255 220 0
0.590941 0.094235 0.048369 255 220 0
0.568862 0.016911 0.067995 255 220 0
0.600451 -0.002198 0.073905 255 220 0
0.615639 0.074618 0.112661 255 220 0
0.589734 0.011419 0.083486 255 220 0
0.571389 0.027486 0.079140 255 220 0
0.633568 0.016681 0.033001 255 220 0
0.594563 0.038707 0.017223 255 220 0
0.615454 0.014566 0.017717 255 220 0
0.611747 0.048369 0.106783 255 220 0
0.624409 0.148894 0.077870 255 220 0
0.591216 0.014839 0.015109 255 220 0
0.646969 0.112158 0.104677 255 220 0
0.587085 0.117010 0.079790 255 220 0
0.645963 0.045589 0.045929 255 220 0
0.638386 0.035144 0.091179 255 220 0
0.612587 0.016324 0.090468 255 220 0
0.602372 0.010566 0.086874 255 220 0
0.639495 0.015306 0.063026 255 220 0
0.589414 0.068641 0.031676 255 220 0
0.645938 0.123522 0.086456 255 220 0
0.589095 0.088124 0.044507 255 220 0
0.618434 -0.006156 0.058709 255 220 0
0.622079 0.053055 0.027581 255 220 0
0.637939 0.035576 0.091860 255 220 0
0.600794 -0.001399 0.074911 255 220 0
0.638354 0.022848 0.080039 255 220 0
0.657023 0.067787 0.069781 255 220 0
0.616216 0.038909 0.020104 255 220 0
0.592988 0.097405 0.102404 255 220 0
0.604682 0.023991 0.095857 255 220 0
0.587520 0.072678 0.099894 255 220 0
0.584482 -0.006316 0.024826 255 220 0
0.578278 0.047059 0.024401 255 220 0
0.577884 0.092581 0.056920 255 220 0
0.585521 0.029016 0.092013 255 220 0
0.566842 0.027349 0.072017 255 220 0
0.633898 0.065091 0.107588 255 220 0
0.630604 0.007840 0.034575 255 220 0
0.593251 0.039710 0.099712 255 220 0
0.592686 0.045274 0.100980 255 220 0
0.633753 0.009456 0.040746 255 220 0
0.604068 0.094800 0.110313 255 220 0
0.638180 0.013031 0.052852 255 220 0
0.648610 0.114812 0.101891 255 220 0
0.577168 0.023071 0.019821 255 220 0
0.644736 0.055609 0.097116 255 220 0
0.633413 0.031030 0.092318 255 220 0
0.572518 -0.000028 0.054894 255 220 0
0.623903 0.150052 0.078546 255 220 0
0.588177 0.101313 0.096481 255 220 0
0.573147 0.039571 0.084952 255 220 0
0.563787 0.017094 0.034904 255 220 0
0.619706 0.010956 0.083232 255 220 0
0.636078 0.072163 0.108528 255 220 0
0.582608 -0.009859 0.030665 255 220 0
0.592249 0.112487 0.062581 255 220 0
0.645311 0.049765 0.045686 255 220 0
0.562059 0.039908 0.037196 255 220 0
0.571145 -0.001516 0.040432 255 220 0
0.623597 0.146368 0.075582 255 220 0
0.657029 0.070074 0.088908 255 220 0
0.564546 0.015494 0.056579 255 220 0
0.594313 0.039093 0.017360 255 220 0
0.607185 0.020420 0.014564 255 220 0
0.623676 0.107386 0.056756 255 220 0
0.656568 0.086678 0.077750 255 220 0
0.639872 0.082448 0.051176 255 220 0
0.640724 0.060014 0.043145 255 220 0
0.621529 0.150138 0.077035 255 220 0
0.634297 0.091011 0.052278 255 220 0
0.618320 0.143862 0.072325 255 220 0
0.654695 0.089290 0.074315 255 220 0
0.641710 0.047158 0.040841 255 220 0
0.641141 0.124112 0.077558 255 220 0
0.642767 0.083900 0.054354 255 220 0
0.610048 0.144676 0.072586 255 220 0
