ply
format ascii 1.0
element vertex 1024
property float x
property float y
property float z
property uchar red
property uchar green
property uchar blue
end_header
0.507381 0.095324 0.300377 255 220 0
0.439746 0.092041 0.308899 255 220 0
0.491634 0.090813 0.235575 255 220 0
0.475644 0.048778 0.265308 255 220 0
0.469601 0.118433 0.240356 255 220 0
0.423814 0.107159 0.271390 255 220 0
0.507694 0.087215 0.290706 255 220 0
0.519206 0.164491 0.318581 255 220 0
0.520645 0.116226 0.260120 255 220 0
0.441141 0.104758 0.240782 255 220 0
0.475979 0.049095 0.267780 255 220 0
0.441894 0.061710 0.227269 255 220 0
0.437580 0.115902 0.256707 255 220 0
0.506760 0.082127 0.284199 255 220 0
0.500077 0.080153 0.247809 255 220 0
0.451724 0.114664 0.316669 255 220 0
0.417235 0.057537 0.263320 255 220 0
0.521350 0.125946 0.304428 255 220 0
0.462261 0.115475 0.319885 255 220 0
0.495614 0.067208 0.280289 255 220 0
0.492478 0.062214 0.271119 255 220 0
0.508891 0.084989 0.283226 255 220 0
0.429087 0.082559 0.299673 255 220 0
0.421998 0.053280 0.244735 255 220 0
0.426288 0.110756 0.271171 255 220 0
0.424462 0.106351 0.266171 255 220 0
0.488627 0.176764 0.292191 255 220 0
0.476094 0.095749 0.230115 255 220 0
0.426079 0.067788 0.235808 255 220 0
0.481519 0.186872 0.313955 255 220 0
0.494876 0.099137 0.237286 255 220 0
0.521874 0.178928 0.303884 255 220 0
0.505753 0.136332 0.254439 255 220 0
0.484435 0.190212 0.314611 255 220 0
0.500137 0.108362 0.314340 255 220 0
0.461790 0.049976 0.236249 255 220 0
0.466708 0.147284 0.271424 255 220 0
0.483893 0.066914 0.295352 255 220 0
0.523299 0.176934 0.304499 255 220 0
0.509153 0.137923 0.256680 255 220 0
0.451713 0.144653 0.296350 255 220 0
0.523699 0.168135 0.291170 255 220 0
0.478634 0.096709 0.230788 255 220 0
0.468568 0.094461 0.228716 255 220 0
0.499100 0.167043 0.330027 255 220 0
0.462700 0.139523 0.264137 255 220 0
0.492864 0.064724 0.280411 255 220 0
0.485786 0.092310 0.232476 255 220 0
0.492300 0.086981 0.306991 255 220 0
0.422662 0.048941 0.249364 255 220 0
0.487709 0.120643 0.241863 255 220 0
0.527129 0.156086 0.304559 255 220 0
0.497219 0.076746 0.294265 255 220 0
0.494225 0.103647 0.314866 255 220 0
0.492683 0.068852 0.289052 255 220 0
0.452748 0.107012 0.316681 255 220 0
0.479481 0.073974 0.232968 255 220 0
0.449642 0.041510 0.270873 255 220 0
0.434147 0.122776 0.278978 255 220 0
0.416802 0.092485 0.272275 255 220 0
0.497792 0.136529 0.252499 255 220 0
0.448568 0.045931 0.279256 255 220 0
0.513683 0.166073 0.324034 255 220 0
0.494442 0.065188 0.259871 255 220 0
0.458978 0.063447 0.226915 255 220 0
0.517574 0.183605 0.304192 255 220 0
0.467275 0.063628 0.299026 255 220 0
0.475062 0.152196 0.271997 255 220 0
0.506946 0.085048 0.255345 255 220 0
0.498855 0.134659 0.251556 255 220 0
0.490344 0.078794 0.238098 255 220 0
0.475640 0.162987 0.285371 255 220 0
0.502125 0.145791 0.259677 255 220 0
0.513367 0.166784 0.281392 255 220 0
0.501586 0.074117 0.281601 255 220 0
0.498740 0.176577 0.288318 255 220 0
0.461917 0.049384 0.282566 255 220 0
0.506597 0.079195 0.275675 255 220 0
0.493862 0.120241 0.242700 255 220 0
0.483668 0.123780 0.323212 255 220 0
0.496806 0.155484 0.328999 255 220 0
0.459993 0.096580 0.315892 255 220 0
0.454826 0.097156 0.229961 255 220 0
0.517846 0.100177 0.279141 255 220 0
0.452777 0.140026 0.309232 255 220 0
0.467275 0.127479 0.247805 255 220 0
0.418388 0.055188 0.262679 255 220 0
0.526998 0.158838 0.287647 255 220 0
0.514901 0.104670 0.298297 255 220 0
0.515710 0.128915 0.312860 255 220 0
0.501332 0.101859 0.241612 255 220 0
0.456039 0.148140 0.304583 255 220 0
0.466916 0.044484 0.267549 255 220 0
0.473935 0.148134 0.267690 255 220 0
0.455728 0.044544 0.275983 255 220 0
0.418153 0.092721 0.261981 255 220 0
0.458079 0.095333 0.228813 255 220 0
0.473217 0.051998 0.244954 255 220 0
0.470880 0.153349 0.276394 255 220 0
0.496965 0.071760 0.252031 255 220 0
0.496595 0.066499 0.273256 255 220 0
0.430775 0.043530 0.266954 255 220 0
0.449527 0.084923 0.226212 255 220 0
0.470603 0.045946 0.260226 255 220 0
0.458413 0.085520 0.225693 255 220 0
0.457051 0.145427 0.280480 255 220 0
0.445893 0.067529 0.225381 255 220 0
0.506091 0.088418 0.250862 255 220 0
0.446587 0.105214 0.237546 255 220 0
0.506214 0.080536 0.260239 255 220 0
0.423946 0.080542 0.294311 255 220 0
0.467331 0.081199 0.226662 255 220 0
0.492569 0.087335 0.307070 255 220 0
0.467643 0.069445 0.303690 255 220 0
0.444944 0.108958 0.242167 255 220 0
0.491763 0.082878 0.304474 255 220 0
0.437802 0.070922 0.227641 255 220 0
0.468171 0.116043 0.320888 255 220 0
0.463626 0.116518 0.239990 255 220 0
0.450098 0.104060 0.315453 255 220 0
0.441157 0.123481 0.307188 255 220 0
0.452391 0.044003 0.275678 255 220 0
0.479762 0.157211 0.275292 255 220 0
0.519762 0.104614 0.280030 255 220 0
0.450909 0.132711 0.265864 255 220 0
0.437124 0.102572 0.241794 255 220 0
0.501686 0.104851 0.241681 255 220 0
0.475227 0.160788 0.282741 255 220 0
0.519765 0.181781 0.311356 255 220 0
0.504599 0.088057 0.297181 255 220 0
0.479833 0.051644 0.268313 255 220 0
0.490944 0.093113 0.311181 255 220 0
0.519780 0.156018 0.317297 255 220 0
0.430149 0.042380 0.263024 255 220 0
0.506776 0.107669 0.245105 255 220 0
0.435300 0.056763 0.287729 255 220 0
0.489726 0.182613 0.328763 255 220 0
0.502076 0.107927 0.313058 255 220 0
0.510243 0.101202 0.301861 255 220 0
0.416281 0.066457 0.275566 255 220 0
0.490796 0.069200 0.245505 255 220 0
0.418907 0.093817 0.260883 255 220 0
0.504787 0.125202 0.318936 255 220 0
0.500556 0.116370 0.242966 255 220 0
0.438860 0.129808 0.288449 255 220 0
0.447082 0.065344 0.299775 255 220 0
0.422680 0.051844 0.270606 255 220 0
0.446155 0.051321 0.230966 255 220 0
0.457929 0.070303 0.225073 255 220 0
0.465517 0.159786 0.295933 255 220 0
0.515529 0.135458 0.258719 255 220 0
0.494546 0.172165 0.330512 255 220 0
0.415855 0.070518 0.277055 255 220 0
0.467874 0.052893 0.285959 255 220 0
0.476752 0.135188 0.251955 255 220 0
0.446250 0.039961 0.267333 255 220 0
0.494123 0.063962 0.272836 255 220 0
0.477926 0.100085 0.317014 255 220 0
0.425013 0.065039 0.287292 255 220 0
0.475887 0.155640 0.324390 255 220 0
0.485331 0.176348 0.293741 255 220 0
0.467324 0.163461 0.309837 255 220 0
0.509130 0.084119 0.263802 255 220 0
0.485653 0.067431 0.241366 255 220 0
0.470880 0.050258 0.280080 255 220 0
0.481237 0.174125 0.294436 255 220 0
0.421286 0.054072 0.245468 255 220 0
0.528245 0.145992 0.283214 255 220 0
0.527086 0.141805 0.299947 255 220 0
0.442419 0.107800 0.242843 255 220 0
0.523489 0.151462 0.311483 255 220 0
0.508359 0.087686 0.289897 255 220 0
0.479810 0.103368 0.232747 255 220 0
0.441769 0.121135 0.259057 255 220 0
0.499133 0.195134 0.314779 255 220 0
0.445030 0.117312 0.250880 255 220 0
0.477500 0.143929 0.260809 255 220 0
0.454799 0.044063 0.239589 255 220 0
0.463535 0.149249 0.277781 255 220 0
0.456329 0.149801 0.297202 255 220 0
0.502971 0.187620 0.325594 255 220 0
0.482508 0.063910 0.241306 255 220 0
0.460246 0.154402 0.300566 255 220 0
0.500188 0.078763 0.292777 255 220 0
0.425749 0.097281 0.249683 255 220 0
0.442230 0.099465 0.235433 255 220 0
0.487782 0.061672 0.251499 255 220 0
0.458296 0.080925 0.310289 255 220 0
0.460612 0.148073 0.279846 255 220 0
0.456774 0.042947 0.242818 255 220 0
0.473697 0.082766 0.228523 255 220 0
0.452293 0.038875 0.260018 255 220 0
0.429560 0.099191 0.246206 255 220 0
0.478696 0.051320 0.259307 255 220 0
0.519017 0.103212 0.281802 255 220 0
0.502860 0.141476 0.324780 255 220 0
0.456952 0.070979 0.224813 255 220 0
0.442677 0.132206 0.301045 255 220 0
0.482600 0.164569 0.282080 255 220 0
0.514716 0.103980 0.254719 255 220 0
0.508689 0.091589 0.294565 255 220 0
0.497531 0.069646 0.257241 255 220 0
0.436678 0.101159 0.308008 255 220 0
0.508573 0.084495 0.283244 255 220 0
0.477724 0.086404 0.311714 255 220 0
0.462035 0.126426 0.249205 255 220 0
0.471651 0.141354 0.260720 255 220 0
0.468674 0.066455 0.229875 255 220 0
0.461934 0.056726 0.231055 255 220 0
0.431818 0.054353 0.283518 255 220 0
0.470255 0.150439 0.321428 255 220 0
0.492482 0.119758 0.242176 255 220 0
0.457437 0.053808 0.230995 255 220 0
0.478113 0.062921 0.294721 255 220 0
0.432698 0.049958 0.235632 255 220 0
0.475196 0.098149 0.230521 255 220 0
0.421734 0.083949 0.292506 255 220 0
0.460758 0.047208 0.279282 255 220 0
0.484860 0.058238 0.252824 255 220 0
0.471516 0.101954 0.317899 255 220 0
0.458611 0.146149 0.311834 255 220 0
0.510027 0.165419 0.326404 255 220 0
0.502975 0.115694 0.316078 255 220 0
0.447984 0.137128 0.279734 255 220 0
0.523861 0.118466 0.268567 255 220 0
0.423840 0.074926 0.238736 255 220 0
0.471765 0.092448 0.228708 255 220 0
0.492841 0.193958 0.319455 255 220 0
0.522307 0.157688 0.314226 255 220 0
0.508222 0.119227 0.314517 255 220 0
0.510857 0.132438 0.318103 255 220 0
0.472530 0.160420 0.320894 255 220 0
0.437521 0.097133 0.308381 255 220 0
0.503476 0.194118 0.312669 255 220 0
0.434777 0.119702 0.268223 255 220 0
0.440629 0.042695 0.239266 255 220 0
0.476200 0.098642 0.316703 255 220 0
0.489097 0.156804 0.270649 255 220 0
0.417253 0.091846 0.279814 255 220 0
0.510880 0.122021 0.313865 255 220 0
0.483900 0.106399 0.234488 255 220 0
0.471603 0.161308 0.287511 255 220 0
0.497203 0.157024 0.268939 255 220 0
0.438951 0.126474 0.301259 255 220 0
0.433298 0.122408 0.282592 255 220 0
0.435081 0.111230 0.253481 255 220 0
0.528299 0.146217 0.296922 255 220 0
0.468776 0.056702 0.235195 255 220 0
0.423134 0.099477 0.257425 255 220 0
0.496364 0.091577 0.238903 255 220 0
0.485272 0.155836 0.271113 255 220 0
0.503888 0.075994 0.262621 255 220 0
0.450084 0.046201 0.235415 255 220 0
0.525400 0.126519 0.269675 255 220 0
0.513949 0.186191 0.303578 255 220 0
0.471609 0.080845 0.309951 255 220 0
0.478357 0.162216 0.325252 255 220 0
0.486525 0.138623 0.253256 255 220 0
0.502008 0.083745 0.247909 255 220 0
0.499832 0.168359 0.330004 255 220 0
0.475401 0.054293 0.284396 255 220 0
0.503482 0.133444 0.252010 255 220 0
0.518523 0.106012 0.261924 255 220 0
0.475041 0.113682 0.237154 255 220 0
0.481183 0.175011 0.295530 255 220 0
0.489162 0.095332 0.312944 255 220 0
0.504203 0.088344 0.298018 255 220 0
0.494712 0.195192 0.312595 255 220 0
0.431460 0.094814 0.240028 255 220 0
0.465990 0.089849 0.227317 255 220 0
0.483205 0.111549 0.236577 255 220 0
0.430932 0.119412 0.284227 255 220 0
0.484518 0.093118 0.313325 255 220 0
0.476331 0.108055 0.234296 255 220 0
0.497712 0.126192 0.321934 255 220 0
0.463610 0.087875 0.313311 255 220 0
0.525354 0.124818 0.270261 255 220 0
0.448766 0.077549 0.307235 255 220 0
0.481870 0.158851 0.327197 255 220 0
0.454868 0.128106 0.255903 255 220 0
0.437024 0.057977 0.289705 255 220 0
0.507234 0.128427 0.250624 255 220 0
0.444240 0.123876 0.260156 255 220 0
0.460069 0.045425 0.276217 255 220 0
0.446491 0.038007 0.260330 255 220 0
0.523646 0.127649 0.300848 255 220 0
0.417342 0.073527 0.281791 255 220 0
0.521291 0.119584 0.299964 255 220 0
0.433283 0.095521 0.305173 255 220 0
0.483062 0.079500 0.233078 255 220 0
0.475476 0.074913 0.230575 255 220 0
0.422543 0.091168 0.249172 255 220 0
0.441210 0.058101 0.291684 255 220 0
0.502037 0.081454 0.249724 255 220 0
0.471948 0.063703 0.298024 255 220 0
0.449029 0.092909 0.229195 255 220 0
0.417435 0.086207 0.284083 255 220 0
0.434049 0.049911 0.279840 255 220 0
0.468969 0.065512 0.230391 255 220 0
0.527960 0.136101 0.286740 255 220 0
0.425429 0.086368 0.297325 255 220 0
0.436753 0.124920 0.298179 255 220 0
0.495713 0.176412 0.288937 255 220 0
0.425453 0.107510 0.291617 255 220 0
0.433248 0.111008 0.303314 255 220 0
0.480353 0.071410 0.234587 255 220 0
0.436062 0.039696 0.246853 255 220 0
0.515878 0.169392 0.322074 255 220 0
0.521122 0.112207 0.292047 255 220 0
0.486829 0.135950 0.251222 255 220 0
0.496037 0.136095 0.325040 255 220 0
0.519295 0.106581 0.289515 255 220 0
0.456472 0.139351 0.269846 255 220 0
0.463306 0.132700 0.319995 255 220 0
0.422961 0.066883 0.239272 255 220 0
0.483533 0.073037 0.235918 255 220 0
0.451510 0.107376 0.236898 255 220 0
0.444253 0.089403 0.310268 255 220 0
0.485444 0.117502 0.239884 255 220 0
0.454002 0.146298 0.290384 255 220 0
0.423872 0.079217 0.239864 255 220 0
0.455703 0.068303 0.303513 255 220 0
0.510145 0.086743 0.282573 255 220 0
0.425543 0.109771 0.271395 255 220 0
0.476056 0.097600 0.316366 255 220 0
0.516856 0.099976 0.285796 255 220 0
0.520213 0.109600 0.263620 255 220 0
0.466329 0.071703 0.227310 255 220 0
0.468756 0.079376 0.227127 255 220 0
0.504709 0.084882 0.251246 255 220 0
0.444001 0.037328 0.252277 255 220 0
0.445730 0.073551 0.304375 255 220 0
0.440801 0.037396 0.256422 255 220 0
0.457348 0.135952 0.263850 255 220 0
0.463826 0.158250 0.307566 255 220 0
0.514871 0.179960 0.320874 255 220 0
0.480561 0.094349 0.314664 255 220 0
0.460054 0.141349 0.268997 255 220 0
0.428020 0.114829 0.286327 255 220 0
0.457118 0.097565 0.315828 255 220 0
0.481783 0.172986 0.326339 255 220 0
0.467370 0.164297 0.303261 255 220 0
0.502655 0.103880 0.242405 255 220 0
0.458310 0.069317 0.225306 255 220 0
0.484717 0.092180 0.232057 255 220 0
0.499031 0.160406 0.272150 255 220 0
0.521014 0.145158 0.313300 255 220 0
0.433309 0.052409 0.282328 255 220 0
0.458917 0.070915 0.305329 255 220 0
0.508024 0.138503 0.256583 255 220 0
0.519862 0.162797 0.317770 255 220 0
0.479903 0.078317 0.306689 255 220 0
0.470979 0.134102 0.252826 255 220 0
0.518369 0.157384 0.319048 255 220 0
0.482735 0.108274 0.235026 255 220 0
0.460015 0.142674 0.271063 255 220 0
0.445446 0.137356 0.289615 255 220 0
0.435039 0.122978 0.296671 255 220 0
0.528401 0.141953 0.291664 255 220 0
0.525442 0.147567 0.306997 255 220 0
0.450426 0.114381 0.316100 255 220 0
0.494227 0.195205 0.314205 255 220 0
0.470812 0.073706 0.306046 255 220 0
0.460011 0.135729 0.261351 255 220 0
0.436082 0.122163 0.270876 255 220 0
0.499703 0.162491 0.329570 255 220 0
0.440465 0.042847 0.272554 255 220 0
0.458448 0.043813 0.273510 255 220 0
0.415538 0.063277 0.257237 255 220 0
0.453735 0.146101 0.290676 255 220 0
0.452181 0.142987 0.304684 255 220 0
0.450638 0.051172 0.231242 255 220 0
0.496151 0.084551 0.240673 255 220 0
0.492935 0.176908 0.330325 255 220 0
0.433440 0.063701 0.292429 255 220 0
0.451909 0.038507 0.256039 255 220 0
0.490037 0.088510 0.309054 255 220 0
0.457539 0.095342 0.315256 255 220 0
0.523521 0.148239 0.310686 255 220 0
0.509582 0.180697 0.325447 255 220 0
0.430397 0.040937 0.257311 255 220 0
0.507539 0.169647 0.281784 255 220 0
0.423870 0.067119 0.287546 255 220 0
0.490130 0.060746 0.275316 255 220 0
0.478969 0.171153 0.324402 255 220 0
0.433557 0.122702 0.282380 255 220 0
0.484985 0.159550 0.275380 255 220 0
0.528131 0.149502 0.299639 255 220 0
0.503057 0.075578 0.280512 255 220 0
0.426706 0.050542 0.240199 255 220 0
0.475514 0.085845 0.311820 255 220 0
0.499493 0.183673 0.294557 255 220 0
0.488993 0.071643 0.241269 255 220 0
0.460003 0.070597 0.305143 255 220 0
0.493935 0.115795 0.319556 255 220 0
0.486986 0.173714 0.289877 255 220 0
0.443793 0.134138 0.282712 255 220 0
0.503200 0.090182 0.300897 255 220 0
0.509052 0.168130 0.327038 255 220 0
0.445066 0.134257 0.303198 255 220 0
0.475386 0.169939 0.320878 255 220 0
0.471795 0.129950 0.323115 255 220 0
0.470395 0.124388 0.322306 255 220 0
0.450102 0.138130 0.307257 255 220 0
0.483552 0.054995 0.259873 255 220 0
0.442440 0.112283 0.247430 255 220 0
0.494721 0.106831 0.238006 255 220 0
0.487757 0.129839 0.324446 255 220 0
0.471825 0.126058 0.245434 255 220 0
0.433543 0.071784 0.297788 255 220 0
0.441967 0.069963 0.226120 255 220 0
0.448817 0.127097 0.259782 255 220 0
0.504943 0.091608 0.247570 255 220 0
0.505052 0.123701 0.247538 255 220 0
0.418765 0.091674 0.286321 255 220 0
0.492529 0.100456 0.236037 255 220 0
0.521152 0.173444 0.293887 255 220 0
0.481153 0.165615 0.326651 255 220 0
0.464401 0.084756 0.226228 255 220 0
0.506601 0.082501 0.285470 255 220 0
0.499091 0.079353 0.295035 255 220 0
0.450927 0.047946 0.282361 255 220 0
0.493447 0.116586 0.240883 255 220 0
0.445474 0.135736 0.301614 255 220 0
0.466015 0.092906 0.315102 255 220 0
0.495967 0.192012 0.304041 255 220 0
0.504860 0.165339 0.277181 255 220 0
0.456808 0.046668 0.237111 255 220 0
0.439659 0.122021 0.263464 255 220 0
0.440670 0.043692 0.274107 255 220 0
0.469830 0.165365 0.297466 255 220 0
0.460890 0.147967 0.279188 255 220 0
0.522719 0.167137 0.313123 255 220 0
0.510142 0.094544 0.253163 255 220 0
0.428949 0.089125 0.238634 255 220 0
0.457949 0.150627 0.304724 255 220 0
0.514377 0.152708 0.321728 255 220 0
0.500873 0.073050 0.259184 255 220 0
0.464118 0.050852 0.236985 255 220 0
0.488121 0.065824 0.290023 255 220 0
0.472266 0.074224 0.229259 255 220 0
0.509858 0.115491 0.311510 255 220 0
0.438808 0.037663 0.252874 255 220 0
0.477395 0.153223 0.325360 255 220 0
0.492287 0.126308 0.245616 255 220 0
0.499358 0.082684 0.298285 255 220 0
0.433499 0.118604 0.268823 255 220 0
0.429866 0.104714 0.301046 255 220 0
0.513251 0.124027 0.252070 255 220 0
0.422451 0.066267 0.239935 255 220 0
0.484479 0.123181 0.242965 255 220 0
0.421515 0.099624 0.288566 255 220 0
0.418923 0.053947 0.260582 255 220 0
0.515561 0.109731 0.301910 255 220 0
0.488428 0.122143 0.242774 255 220 0
0.436076 0.114468 0.256646 255 220 0
0.451844 0.040212 0.266642 255 220 0
0.525008 0.123531 0.269473 255 220 0
0.510673 0.105406 0.248867 255 220 0
0.482977 0.181632 0.301345 255 220 0
0.484223 0.174677 0.327671 255 220 0
0.486988 0.057233 0.270159 255 220 0
0.461458 0.141479 0.267828 255 220 0
0.473760 0.140329 0.258408 255 220 0
0.504886 0.087961 0.249352 255 220 0
0.462858 0.099975 0.317071 255 220 0
0.478553 0.073014 0.232810 255 220 0
0.452968 0.089050 0.226986 255 220 0
0.415200 0.086445 0.268461 255 220 0
0.516178 0.099380 0.262832 255 220 0
0.519780 0.174101 0.316165 255 220 0
0.469593 0.162288 0.316381 255 220 0
0.459667 0.066527 0.302375 255 220 0
0.513938 0.096758 0.290029 255 220 0
0.423121 0.050043 0.267648 255 220 0
0.500219 0.070843 0.263703 255 220 0
0.442078 0.106869 0.311761 255 220 0
0.463677 0.057271 0.293001 255 220 0
0.451382 0.134834 0.268803 255 220 0
0.476595 0.158795 0.324483 255 220 0
0.527241 0.163607 0.303515 255 220 0
0.417552 0.081311 0.252067 255 220 0
0.465365 0.081758 0.226170 255 220 0
0.420560 0.098664 0.263394 255 220 0
0.445389 0.114782 0.313349 255 220 0
0.440165 0.081280 0.305833 255 220 0
0.434835 0.087869 0.305133 255 220 0
0.470008 0.119033 0.240709 255 220 0
0.516651 0.135233 0.259398 255 220 0
0.527076 0.167341 0.297781 255 220 0
0.499468 0.160051 0.271780 255 220 0
0.458367 0.058697 0.228596 255 220 0
0.517926 0.182191 0.315071 255 220 0
0.496995 0.073662 0.249534 255 220 0
0.510080 0.084757 0.275702 255 220 0
0.483009 0.054773 0.274537 255 220 0
0.473102 0.068399 0.301803 255 220 0
0.445534 0.120858 0.254659 255 220 0
0.508131 0.109856 0.309879 255 220 0
0.450449 0.061216 0.226288 255 220 0
0.444503 0.117756 0.251826 255 220 0
0.500198 0.070237 0.270723 255 220 0
0.510319 0.156921 0.325205 255 220 0
0.444573 0.038360 0.247256 255 220 0
0.488480 0.148748 0.327953 255 220 0
0.518834 0.102182 0.275780 255 220 0
0.433761 0.115304 0.261590 255 220 0
0.478189 0.058001 0.242772 255 220 0
0.500306 0.083750 0.245634 255 220 0
0.486654 0.156244 0.270993 255 220 0
0.448660 0.095278 0.313342 255 220 0
0.464138 0.158705 0.297454 255 220 0
0.504081 0.188110 0.324578 255 220 0
0.492342 0.184293 0.297407 255 220 0
0.417448 0.060751 0.250517 255 220 0
0.475604 0.052777 0.281414 255 220 0
0.478818 0.071419 0.233618 255 220 0
0.476442 0.049425 0.261785 255 220 0
0.500214 0.149126 0.327319 255 220 0
0.474785 0.108375 0.319589 255 220 0
0.434247 0.039583 0.260648 255 220 0
0.459435 0.089927 0.226873 255 220 0
0.511120 0.179204 0.324772 255 220 0
0.493444 0.191122 0.303589 255 220 0
0.480200 0.153452 0.270734 255 220 0
0.494294 0.076345 0.296961 255 220 0
0.505641 0.164815 0.276827 255 220 0
0.456418 0.049185 0.234266 255 220 0
0.460742 0.064876 0.301005 255 220 0
0.428719 0.080260 0.234760 255 220 0
0.429690 0.088254 0.237331 255 220 0
0.506905 0.081459 0.282021 255 220 0
0.427594 0.062908 0.287942 255 220 0
0.445040 0.055271 0.290388 255 220 0
0.518176 0.101628 0.282785 255 220 0
0.465555 0.072415 0.305945 255 220 0
0.475146 0.058298 0.290661 255 220 0
0.505410 0.141870 0.257845 255 220 0
0.504231 0.076067 0.276716 255 220 0
0.418193 0.061504 0.247849 255 220 0
0.500527 0.102352 0.311105 255 220 0
0.523499 0.173090 0.296831 255 220 0
0.429922 0.102535 0.249363 255 220 0
0.436671 0.124049 0.299395 255 220 0
0.476366 0.151487 0.270409 255 220 0
0.517016 0.175311 0.291933 255 220 0
0.414600 0.083609 0.269720 255 220 0
0.472334 0.088054 0.228228 255 220 0
0.493453 0.082213 0.239167 255 220 0
0.504763 0.147279 0.261486 255 220 0
0.424617 0.109569 0.277952 255 220 0
0.458439 0.098300 0.316203 255 220 0
0.527211 0.135191 0.276074 255 220 0
0.527816 0.134672 0.285097 255 220 0
0.421805 0.064167 0.240937 255 220 0
0.461340 0.042131 0.251863 255 220 0
0.465722 0.045328 0.272646 255 220 0
0.417357 0.058155 0.267238 255 220 0
0.475331 0.137082 0.324468 255 220 0
0.429449 0.112438 0.296360 255 220 0
0.510458 0.159147 0.325484 255 220 0
0.526416 0.167178 0.304763 255 220 0
0.505696 0.193198 0.313870 255 220 0
0.435139 0.091714 0.306093 255 220 0
0.491590 0.169274 0.330163 255 220 0
0.528057 0.151851 0.300720 255 220 0
0.521169 0.112274 0.291973 255 220 0
0.473903 0.095164 0.229610 255 220 0
0.449541 0.114327 0.315685 255 220 0
0.467177 0.076550 0.226848 255 220 0
0.417137 0.067915 0.249108 255 220 0
0.449785 0.038181 0.251219 255 220 0
0.524876 0.164353 0.288979 255 220 0
0.483523 0.087360 0.310817 255 220 0
0.478067 0.180797 0.308415 255 220 0
0.426250 0.083502 0.297529 255 220 0
0.508683 0.187667 0.321401 255 220 0
0.457645 0.150179 0.291461 255 220 0
0.475948 0.077180 0.307105 255 220 0
0.448263 0.067922 0.301869 255 220 0
0.492247 0.168109 0.281702 255 220 0
0.498866 0.095220 0.240433 255 220 0
0.441106 0.039507 0.265511 255 220 0
0.417717 0.093621 0.265714 255 220 0
0.480901 0.112798 0.236950 255 220 0
0.431052 0.076498 0.231961 255 220 0
0.414453 0.073300 0.258492 255 220 0
0.494487 0.152512 0.264814 255 220 0
0.417331 0.072996 0.281547 255 220 0
0.469950 0.093338 0.315239 255 220 0
0.516035 0.101848 0.259107 255 220 0
0.423428 0.048349 0.248238 255 220 0
0.422522 0.097118 0.292546 255 220 0
0.424316 0.065289 0.286803 255 220 0
0.516437 0.146672 0.318523 255 220 0
0.435412 0.107451 0.248484 255 220 0
0.434274 0.122128 0.276150 255 220 0
0.480183 0.087230 0.311611 255 220 0
0.472875 0.056130 0.288717 255 220 0
0.480260 0.132259 0.248924 255 220 0
0.495589 0.114402 0.240565 255 220 0
0.518749 0.172262 0.318229 255 220 0
0.436415 0.040578 0.265905 255 220 0
0.449263 0.068945 0.302789 255 220 0
0.472141 0.060522 0.294620 255 220 0
0.413784 0.072584 0.263863 255 220 0
0.494170 0.074174 0.294666 255 220 0
0.473189 0.136188 0.254094 255 220 0
0.495981 0.162823 0.275021 255 220 0
0.461033 0.110912 0.236703 255 220 0
0.471459 0.078449 0.228156 255 220 0
0.427788 0.045363 0.266612 255 220 0
0.475887 0.074229 0.230978 255 220 0
0.522722 0.112303 0.274258 255 220 0
0.480798 0.068278 0.298669 255 220 0
0.443741 0.135648 0.292226 255 220 0
0.446979 0.138786 0.288381 255 220 0
0.496989 0.080965 0.299014 255 220 0
0.501664 0.129976 0.249534 255 220 0
0.443262 0.071882 0.302573 255 220 0
0.496951 0.152997 0.328563 255 220 0
0.425943 0.065612 0.236076 255 220 0
0.431273 0.049306 0.237012 255 220 0
0.488677 0.113715 0.319962 255 220 0
0.497130 0.195176 0.311593 255 220 0
0.525347 0.129828 0.297424 255 220 0
0.460623 0.068431 0.303705 255 220 0
0.422307 0.104432 0.270432 255 220 0
0.431110 0.118855 0.277980 255 220 0
0.448490 0.107937 0.238825 255 220 0
0.484101 0.057533 0.252870 255 220 0
0.491038 0.145268 0.258415 255 220 0
0.462634 0.047083 0.240573 255 220 0
0.425856 0.111486 0.283923 255 220 0
0.485784 0.181225 0.298421 255 220 0
0.495143 0.194217 0.308259 255 220 0
0.480138 0.120071 0.322375 255 220 0
0.462536 0.042630 0.265808 255 220 0
0.473719 0.048296 0.271250 255 220 0
0.447258 0.060882 0.226535 255 220 0
0.510216 0.085657 0.278961 255 220 0
0.414619 0.066798 0.269260 255 220 0
0.478860 0.083646 0.310096 255 220 0
0.523947 0.137248 0.268176 255 220 0
0.504590 0.079773 0.285701 255 220 0
0.445336 0.069825 0.302128 255 220 0
0.521728 0.151579 0.274587 255 220 0
0.483685 0.121402 0.241878 255 220 0
0.486101 0.160841 0.328630 255 220 0
0.521451 0.151666 0.314469 255 220 0
0.450892 0.041350 0.270262 255 220 0
0.463809 0.158641 0.306465 255 220 0
0.522001 0.177430 0.300814 255 220 0
0.498781 0.072561 0.254569 255 220 0
0.504965 0.095418 0.303240 255 220 0
0.481449 0.186754 0.313634 255 220 0
0.416408 0.089068 0.278325 255 220 0
0.524544 0.118894 0.272564 255 220 0
0.475273 0.143814 0.324665 255 220 0
0.480531 0.166780 0.286066 255 220 0
0.480129 0.112738 0.236854 255 220 0
0.471542 0.098507 0.316881 255 220 0
0.417380 0.093123 0.266661 255 220 0
0.454202 0.044485 0.238674 255 220 0
0.512952 0.175190 0.324113 255 220 0
0.435423 0.073840 0.300002 255 220 0
0.476010 0.157073 0.277342 255 220 0
0.468133 0.155140 0.281971 255 220 0
0.467686 0.159777 0.290975 255 220 0
0.525330 0.136836 0.270512 255 220 0
0.478516 0.157779 0.276615 255 220 0
0.449046 0.141281 0.298725 255 220 0
0.472988 0.122615 0.242799 255 220 0
0.444603 0.090415 0.229372 255 220 0
0.414268 0.074251 0.272909 255 220 0
0.525157 0.167840 0.293077 255 220 0
0.476621 0.178701 0.316368 255 220 0
0.450552 0.095561 0.230038 255 220 0
0.510282 0.099631 0.300431 255 220 0
0.477595 0.056805 0.286906 255 220 0
0.458945 0.147247 0.311414 255 220 0
0.464445 0.094035 0.315423 255 220 0
0.466122 0.052885 0.236450 255 220 0
0.496924 0.115700 0.318646 255 220 0
0.499785 0.087694 0.243168 255 220 0
0.477240 0.172567 0.322211 255 220 0
0.448070 0.072520 0.224719 255 220 0
0.453647 0.146389 0.292458 255 220 0
0.504134 0.075686 0.265270 255 220 0
0.435890 0.039064 0.249030 255 220 0
0.513900 0.156809 0.272933 255 220 0
0.485414 0.191093 0.315539 255 220 0
0.459737 0.149864 0.285248 255 220 0
0.499723 0.070524 0.262449 255 220 0
0.432752 0.093663 0.304617 255 220 0
0.497904 0.192241 0.304147 255 220 0
0.486648 0.084941 0.233628 255 220 0
0.456972 0.132605 0.316496 255 220 0
0.515832 0.117708 0.253026 255 220 0
0.472771 0.136542 0.254644 255 220 0
0.457456 0.141951 0.272981 255 220 0
0.522263 0.119481 0.262644 255 220 0
0.505592 0.113375 0.244572 255 220 0
0.458854 0.119917 0.319152 255 220 0
0.450092 0.137760 0.276682 255 220 0
0.476389 0.169169 0.322335 255 220 0
0.447676 0.062655 0.297925 255 220 0
0.485754 0.191271 0.312846 255 220 0
0.454889 0.071461 0.224527 255 220 0
0.459910 0.041120 0.259526 255 220 0
0.487002 0.080365 0.305226 255 220 0
0.429687 0.106826 0.255250 255 220 0
0.456514 0.142961 0.311548 255 220 0
0.528298 0.144764 0.283158 255 220 0
0.441083 0.132515 0.291725 255 220 0
0.472017 0.055955 0.288847 255 220 0
0.464588 0.048337 0.279870 255 220 0
0.480942 0.075709 0.304560 255 220 0
0.487569 0.069462 0.241587 255 220 0
0.461907 0.143770 0.316599 255 220 0
0.445534 0.115611 0.313337 255 220 0
0.439136 0.123255 0.266641 255 220 0
0.452785 0.075738 0.224342 255 220 0
0.465536 0.046128 0.274900 255 220 0
0.510886 0.101036 0.250619 255 220 0
0.418314 0.057224 0.250844 255 220 0
0.453790 0.052565 0.288622 255 220 0
0.483444 0.182856 0.324907 255 220 0
0.493835 0.179856 0.330129 255 220 0
0.469011 0.045698 0.254465 255 220 0
0.478117 0.175386 0.322213 255 220 0
0.475678 0.048800 0.264880 255 220 0
0.424704 0.109742 0.278578 255 220 0
0.462264 0.124639 0.247231 255 220 0
0.478968 0.068467 0.299756 255 220 0
0.459630 0.110416 0.318831 255 220 0
0.472011 0.048746 0.250134 255 220 0
0.469147 0.047807 0.276120 255 220 0
0.466968 0.070561 0.304574 255 220 0
0.480838 0.053376 0.257247 255 220 0
0.525491 0.152466 0.279963 255 220 0
0.487214 0.166699 0.282147 255 220 0
0.522143 0.112993 0.267341 255 220 0
0.452374 0.141851 0.281595 255 220 0
0.490485 0.176829 0.329921 255 220 0
0.424177 0.104604 0.263339 255 220 0
0.424772 0.109399 0.284437 255 220 0
0.514869 0.133878 0.315591 255 220 0
0.508953 0.173283 0.285569 255 220 0
0.485505 0.096358 0.232585 255 220 0
0.522840 0.128873 0.303489 255 220 0
0.487224 0.141564 0.326780 255 220 0
0.447802 0.099648 0.313972 255 220 0
0.469531 0.134669 0.322570 255 220 0
0.454175 0.113306 0.317605 255 220 0
0.512048 0.162602 0.276970 255 220 0
0.516019 0.119157 0.307696 255 220 0
0.471619 0.093026 0.315067 255 220 0
0.510341 0.084916 0.272595 255 220 0
0.450062 0.140608 0.303895 255 220 0
0.459987 0.111869 0.237547 255 220 0
0.416723 0.064835 0.250820 255 220 0
0.414224 0.075951 0.272912 255 220 0
0.468534 0.089855 0.227695 255 220 0
0.523931 0.151349 0.276925 255 220 0
0.504343 0.075517 0.270316 255 220 0
0.525108 0.130829 0.299120 255 220 0
0.527015 0.131140 0.289140 255 220 0
0.455090 0.057331 0.294160 255 220 0
0.488024 0.127614 0.245862 255 220 0
0.426235 0.049182 0.271932 255 220 0
0.440786 0.044946 0.276192 255 220 0
0.518661 0.164684 0.282793 255 220 0
0.470440 0.167693 0.313280 255 220 0
0.442321 0.123653 0.308405 255 220 0
0.521470 0.141145 0.267074 255 220 0
0.520568 0.118831 0.259330 255 220 0
0.418292 0.096610 0.275407 255 220 0
0.438291 0.113496 0.252642 255 220 0
0.488324 0.092915 0.312080 255 220 0
0.459999 0.143986 0.273215 255 220 0
0.430439 0.040851 0.256671 255 220 0
0.524280 0.120044 0.268928 255 220 0
0.495901 0.133882 0.324495 255 220 0
0.502257 0.122572 0.246023 255 220 0
0.468708 0.062898 0.298056 255 220 0
0.476536 0.153178 0.324941 255 220 0
0.528194 0.138585 0.288178 255 220 0
0.471495 0.128848 0.247739 255 220 0
0.413754 0.076013 0.266201 255 220 0
0.417752 0.083057 0.252739 255 220 0
0.470133 0.139957 0.322648 255 220 0
0.500373 0.109073 0.241123 255 220 0
0.424804 0.046101 0.260619 255 220 0
0.516588 0.097587 0.269990 255 220 0
0.499505 0.113824 0.316952 255 220 0
0.508392 0.155336 0.269192 255 220 0
0.516054 0.158512 0.321428 255 220 0
0.527676 0.164083 0.294995 255 220 0
0.494976 0.086266 0.239008 255 220 0
0.528809 0.148278 0.287784 255 220 0
0.508131 0.134799 0.254407 255 220 0
0.478892 0.157749 0.325874 255 220 0
0.462004 0.156570 0.299812 255 220 0
0.452024 0.139519 0.308665 255 220 0
0.527024 0.167827 0.301129 255 220 0
0.452249 0.135309 0.311876 255 220 0
0.445668 0.078819 0.225650 255 220 0
0.479359 0.177201 0.323006 255 220 0
0.475953 0.108451 0.234461 255 220 0
0.519247 0.181232 0.302434 255 220 0
0.447395 0.061689 0.297063 255 220 0
0.518451 0.141689 0.264575 255 220 0
0.420573 0.056368 0.245216 255 220 0
0.524014 0.117330 0.285961 255 220 0
0.479642 0.103242 0.232681 255 220 0
0.472721 0.057850 0.291155 255 220 0
0.499031 0.068866 0.269891 255 220 0
0.424355 0.099161 0.294959 255 220 0
0.527332 0.154129 0.303731 255 220 0
0.427862 0.048745 0.240467 255 220 0
0.509060 0.150446 0.324578 255 220 0
0.464520 0.160065 0.305045 255 220 0
0.502925 0.073874 0.266135 255 220 0
0.433047 0.116888 0.266064 255 220 0
0.450994 0.079548 0.308644 255 220 0
0.461173 0.089541 0.313783 255 220 0
0.424309 0.055978 0.279019 255 220 0
0.508612 0.145685 0.261674 255 220 0
0.414010 0.069073 0.266756 255 220 0
0.501216 0.188943 0.325349 255 220 0
0.463654 0.059912 0.230132 255 220 0
0.473392 0.069884 0.302864 255 220 0
0.479870 0.061073 0.291313 255 220 0
0.453319 0.048179 0.282548 255 220 0
0.427576 0.097690 0.299676 255 220 0
0.421275 0.049959 0.254178 255 220 0
0.513618 0.124328 0.312680 255 220 0
0.507636 0.178808 0.327099 255 220 0
0.484206 0.100050 0.232756 255 220 0
0.477302 0.078660 0.230484 255 220 0
0.499741 0.116332 0.317843 255 220 0
0.420961 0.074218 0.242579 255 220 0
0.419485 0.064704 0.244440 255 220 0
0.509113 0.171346 0.327007 255 220 0
0.518411 0.132575 0.259530 255 220 0
0.421443 0.091830 0.251905 255 220 0
0.478323 0.173427 0.296567 255 220 0
0.436042 0.099692 0.307496 255 220 0
0.483813 0.105721 0.318143 255 220 0
0.482352 0.061244 0.289368 255 220 0
0.471613 0.061109 0.295446 255 220 0
0.521559 0.109840 0.270495 255 220 0
0.523958 0.155229 0.279872 255 220 0
0.492086 0.096389 0.235573 255 220 0
0.469214 0.090604 0.227939 255 220 0
0.420056 0.093184 0.256550 255 220 0
0.442825 0.044074 0.275374 255 220 0
0.495176 0.129208 0.247687 255 220 0
0.417811 0.080338 0.250832 255 220 0
0.511070 0.175175 0.288134 255 220 0
0.478277 0.051506 0.256675 255 220 0
0.497403 0.145624 0.258787 255 220 0
0.493717 0.186647 0.298904 255 220 0
0.504824 0.186163 0.296855 255 220 0
0.432605 0.115286 0.300188 255 220 0
0.507816 0.082055 0.263109 255 220 0
0.468472 0.053429 0.237862 255 220 0
0.487566 0.077807 0.303039 255 220 0
0.511351 0.176443 0.325176 255 220 0
0.464621 0.043744 0.268207 255 220 0
0.442794 0.082013 0.307221 255 220 0
0.479456 0.119312 0.240460 255 220 0
0.510963 0.173464 0.325791 255 220 0
0.504733 0.076472 0.275319 255 220 0
0.430113 0.044264 0.267669 255 220 0
0.466792 0.050837 0.239250 255 220 0
0.469604 0.118934 0.240689 255 220 0
0.525405 0.139473 0.271810 255 220 0
0.429989 0.043684 0.245010 255 220 0
0.424161 0.099454 0.255178 255 220 0
0.486215 0.183988 0.326562 255 220 0
0.446245 0.038718 0.263499 255 220 0
0.484093 0.107790 0.235049 255 220 0
0.515086 0.181170 0.297023 255 220 0
0.522152 0.168054 0.289198 255 220 0
0.454154 0.044876 0.276972 255 220 0
0.503441 0.167236 0.278836 255 220 0
0.439617 0.055028 0.230092 255 220 0
0.501841 0.072330 0.272453 255 220 0
0.515089 0.139723 0.317511 255 220 0
0.490169 0.117449 0.240588 255 220 0
0.455946 0.097873 0.230142 255 220 0
0.511294 0.095253 0.294089 255 220 0
0.469411 0.100799 0.317566 255 220 0
0.528180 0.140509 0.282067 255 220 0
0.487093 0.058841 0.256712 255 220 0
0.506886 0.188279 0.300197 255 220 0
0.460748 0.093766 0.315134 255 220 0
0.422689 0.079727 0.292552 255 220 0
0.497631 0.109208 0.315871 255 220 0
0.520478 0.149458 0.315178 255 220 0
0.493119 0.063496 0.275590 255 220 0
0.446457 0.091297 0.229174 255 220 0
0.460024 0.136439 0.262236 255 220 0
0.502778 0.185854 0.296309 255 220 0
0.517006 0.148055 0.318401 255 220 0
0.462143 0.066106 0.227109 255 220 0
0.506176 0.148151 0.262596 255 220 0
0.518960 0.111373 0.297274 255 220 0
0.480252 0.163042 0.326318 255 220 0
0.468015 0.158666 0.316228 255 220 0
0.432560 0.119314 0.295617 255 220 0
0.519498 0.139065 0.263847 255 220 0
0.440677 0.083842 0.307029 255 220 0
0.452131 0.140738 0.307615 255 220 0
0.526944 0.165642 0.303765 255 220 0
0.507037 0.184875 0.296063 255 220 0
0.460266 0.041438 0.253360 255 220 0
0.501421 0.179307 0.290395 255 220 0
0.473394 0.068183 0.301547 255 220 0
0.427136 0.044418 0.262475 255 220 0
0.441117 0.098156 0.310680 255 220 0
0.467586 0.161128 0.313664 255 220 0
0.484671 0.168106 0.328284 255 220 0
0.483230 0.188852 0.316572 255 220 0
0.449674 0.037979 0.253374 255 220 0
0.524851 0.118929 0.280853 255 220 0
0.471246 0.108320 0.234292 255 220 0
0.440542 0.041747 0.240614 255 220 0
0.462095 0.129925 0.253078 255 220 0
0.480880 0.054264 0.254179 255 220 0
0.516170 0.121960 0.309078 255 220 0
0.512988 0.109285 0.304879 255 220 0
0.509745 0.173944 0.286440 255 220 0
0.506474 0.099345 0.246453 255 220 0
0.429987 0.062628 0.232958 255 220 0
0.520027 0.143849 0.314065 255 220 0
0.461381 0.115760 0.319718 255 220 0
0.472398 0.077969 0.308309 255 220 0
0.450588 0.126421 0.257208 255 220 0
0.453759 0.095999 0.314828 255 220 0
0.427818 0.078738 0.297279 255 220 0
0.449551 0.141840 0.298979 255 220 0
0.471874 0.078912 0.308909 255 220 0
0.444568 0.062887 0.297056 255 220 0
0.468063 0.103687 0.232062 255 220 0
0.448774 0.141052 0.290700 255 220 0
0.444088 0.058444 0.293115 255 220 0
0.468933 0.045464 0.268373 255 220 0
0.511544 0.110945 0.307486 255 220 0
0.469335 0.053574 0.286431 255 220 0
0.454495 0.066036 0.301860 255 220 0
0.462582 0.080813 0.225519 255 220 0
0.425629 0.097571 0.250199 255 220 0
0.438972 0.079031 0.227891 255 220 0
0.503247 0.086920 0.297859 255 220 0
0.495933 0.191860 0.303837 255 220 0
0.420574 0.074924 0.243350 255 220 0
0.528984 0.154937 0.292818 255 220 0
0.470273 0.153533 0.320748 255 220 0
0.481956 0.107278 0.234503 255 220 0
0.509310 0.084062 0.264948 255 220 0
0.490251 0.061135 0.276411 255 220 0
0.480372 0.054518 0.279417 255 220 0
0.488479 0.072927 0.239860 255 220 0
0.434222 0.120954 0.272801 255 220 0
0.515558 0.170184 0.285783 255 220 0
0.444381 0.135912 0.287544 255 220 0
0.469876 0.049435 0.244849 255 220 0
0.452673 0.114126 0.242148 255 220 0
0.509525 0.084199 0.265835 255 220 0
0.469942 0.046026 0.269030 255 220 0
0.500517 0.075367 0.253887 255 220 0
0.508055 0.124292 0.249110 255 220 0
0.442490 0.101518 0.236883 255 220 0
0.489801 0.130386 0.324420 255 220 0
0.489199 0.065315 0.287889 255 220 0
0.482969 0.106590 0.318528 255 220 0
0.421996 0.051047 0.247243 255 220 0
0.420212 0.100186 0.268916 255 220 0
0.446042 0.134547 0.304720 255 220 0
0.473601 0.067066 0.300570 255 220 0
0.446188 0.066816 0.300510 255 220 0
0.519783 0.107086 0.288325 255 220 0
0.461257 0.071451 0.225681 255 220 0
0.485040 0.076750 0.303528 255 220 0
0.485868 0.081547 0.306558 255 220 0
0.467992 0.072022 0.227898 255 220 0
0.502989 0.128175 0.320777 255 220 0
0.480034 0.073159 0.233611 255 220 0
0.528204 0.158507 0.290782 255 220 0
0.414873 0.078533 0.258900 255 220 0
0.519026 0.103130 0.270981 255 220 0
0.506543 0.078852 0.267803 255 220 0
0.436135 0.046650 0.276697 255 220 0
0.496142 0.192671 0.305000 255 220 0
0.482400 0.134612 0.325346 255 220 0
0.460561 0.076281 0.308278 255 220 0
0.416470 0.066183 0.275847 255 220 0
0.489537 0.059442 0.265076 255 220 0
0.522318 0.113961 0.289718 255 220 0
0.424803 0.045795 0.251077 255 220 0
0.460987 0.154827 0.304767 255 220 0
0.481550 0.111142 0.236183 255 220 0
0.418144 0.086735 0.286024 255 220 0
0.424560 0.048730 0.268040 255 220 0
0.493578 0.189906 0.302130 255 220 0
0.522148 0.121465 0.261934 255 220 0
0.432737 0.059185 0.288471 255 220 0
0.425579 0.097848 0.250588 255 220 0
0.431339 0.083651 0.233634 255 220 0
0.477872 0.158077 0.277346 255 220 0
0.514540 0.139930 0.260685 255 220 0
0.483540 0.139391 0.254236 255 220 0
0.477098 0.120512 0.241176 255 220 0
0.493426 0.192651 0.305741 255 220 0
0.480989 0.146017 0.261667 255 220 0
0.487476 0.187293 0.302953 255 220 0
0.510890 0.142897 0.260691 255 220 0
0.475424 0.109197 0.234794 255 220 0
0.505823 0.172060 0.283728 255 220 0
0.487908 0.140535 0.254688 255 220 0
0.482076 0.186272 0.309193 255 220 0
