ply
format ascii 1.0
element vertex 1024
property float x
property float y
property float z
property uchar red
property uchar green
property uchar blue
end_header
0.594148 0.053654 0.085764 255 220 0
0.554779 0.051919 0.030042 255 220 0
0.640210 0.028223 0.044544 255 220 0
0.596150 -0.002330 0.050192 255 220 0
0.633624 0.055461 0.022501 255 220 0
0.583187 0.053844 -0.002799 255 220 0
0.600200 0.042873 0.083206 255 220 0
0.603396 0.125225 0.092647 255 220 0
0.639973 0.060761 0.076654 255 220 0
0.616322 0.042077 -0.000274 255 220 0
0.594309 -0.001228 0.051505 255 220 0
0.616158 -0.003005 0.001690 255 220 0
0.604339 0.057676 0.001605 255 220 0
0.603844 0.035945 0.080409 255 220 0
0.630863 0.022237 0.059083 255 220 0
0.560026 0.076077 0.040267 255 220 0
0.573229 0.004142 -0.003892 255 220 0
0.605659 0.084227 0.094820 255 220 0
0.562414 0.078093 0.050863 255 220 0
0.597860 0.020339 0.071313 255 220 0
0.602753 0.012599 0.065398 255 220 0
0.606440 0.038384 0.081403 255 220 0
0.555001 0.039761 0.018179 255 220 0
0.589913 -0.005770 -0.006998 255 220 0
0.585509 0.057229 -0.001298 255 220 0
0.587660 0.051414 -0.004347 255 220 0
0.614876 0.127737 0.052100 255 220 0
0.638986 0.030825 0.027591 255 220 0
0.603330 0.005175 -0.009644 255 220 0
0.596047 0.144162 0.053532 255 220 0
0.642568 0.036718 0.046776 255 220 0
0.621001 0.134218 0.086265 255 220 0
0.643427 0.077666 0.057665 255 220 0
0.597766 0.147594 0.055846 255 220 0
0.582638 0.070342 0.083217 255 220 0
0.614553 -0.010823 0.025153 255 220 0
0.614086 0.092707 0.028583 255 220 0
0.579667 0.024668 0.067483 255 220 0
0.620592 0.132558 0.088125 255 220 0
0.643552 0.079962 0.061384 255 220 0
0.585425 0.097931 0.026502 255 220 0
0.629573 0.119949 0.084176 255 220 0
0.639859 0.032001 0.029974 255 220 0
0.636328 0.029003 0.020529 255 220 0
0.585160 0.130916 0.079350 255 220 0
0.616227 0.082935 0.023167 255 220 0
0.595798 0.017971 0.069340 255 220 0
0.640529 0.028525 0.037772 255 220 0
0.579296 0.047579 0.076639 255 220 0
0.585121 -0.008375 -0.003690 255 220 0
0.641341 0.058404 0.038837 255 220 0
0.616551 0.112919 0.095002 255 220 0
0.589464 0.033896 0.077196 255 220 0
0.578157 0.065927 0.078986 255 220 0
0.589576 0.024654 0.072230 255 220 0
0.558374 0.068858 0.042449 255 220 0
0.632132 0.011197 0.035436 255 220 0
0.577427 -0.007946 0.030755 255 220 0
0.585889 0.071278 0.007050 255 220 0
0.575143 0.040096 -0.006200 255 220 0
0.641434 0.077067 0.049738 255 220 0
0.571089 -0.001086 0.032694 255 220 0
0.596685 0.128365 0.089846 255 220 0
0.613959 0.011836 0.061783 255 220 0
0.624839 -0.001129 0.016392 255 220 0
0.620045 0.138659 0.081811 255 220 0
0.567978 0.022404 0.054887 255 220 0
0.618825 0.097710 0.035421 255 220 0
0.629044 0.029433 0.067617 255 220 0
0.642204 0.075015 0.050582 255 220 0
0.634166 0.017630 0.046483 255 220 0
0.610807 0.112239 0.039925 255 220 0
0.639951 0.088232 0.055145 255 220 0
0.632659 0.115316 0.071016 255 220 0
0.601426 0.027422 0.076028 255 220 0
0.622765 0.126519 0.059421 255 220 0
0.575429 0.003517 0.045384 255 220 0
0.610139 0.030424 0.077066 255 220 0
0.643371 0.058417 0.044719 255 220 0
0.571808 0.087458 0.069898 255 220 0
0.581770 0.119597 0.078789 255 220 0
0.559507 0.058876 0.050260 255 220 0
0.629667 0.031677 0.008439 255 220 0
0.618220 0.051629 0.085056 255 220 0
0.573786 0.097716 0.033781 255 220 0
0.628773 0.066373 0.022160 255 220 0
0.573653 0.001735 -0.002757 255 220 0
0.631498 0.110082 0.087119 255 220 0
0.601962 0.061984 0.089981 255 220 0
0.596767 0.089636 0.092974 255 220 0
0.642662 0.040817 0.053917 255 220 0
0.581454 0.103967 0.033317 255 220 0
0.589038 -0.005851 0.044137 255 220 0
0.620810 0.092457 0.033234 255 220 0
0.576775 -0.003307 0.037856 255 220 0
0.584504 0.037036 -0.009491 255 220 0
0.631635 0.029648 0.011129 255 220 0
0.613064 -0.005877 0.038709 255 220 0
0.613505 0.100131 0.033423 255 220 0
0.623547 0.015586 0.059541 255 220 0
0.604042 0.017426 0.069260 255 220 0
0.572559 -0.007675 0.012003 255 220 0
0.626995 0.018784 0.004150 255 220 0
0.597317 -0.006747 0.043996 255 220 0
0.631707 0.019362 0.011702 255 220 0
0.601478 0.093666 0.024246 255 220 0
0.621207 0.001977 0.003454 255 220 0
0.633357 0.031164 0.064363 255 220 0
0.621694 0.041578 0.003079 255 220 0
0.623336 0.026722 0.069832 255 220 0
0.556582 0.036022 0.011638 255 220 0
0.633820 0.015763 0.020743 255 220 0
0.579451 0.047944 0.076853 255 220 0
0.565826 0.029419 0.056264 255 220 0
0.618075 0.046576 0.003000 255 220 0
0.580034 0.042874 0.075755 255 220 0
0.616499 0.005752 -0.003304 255 220 0
0.564459 0.079072 0.056440 255 220 0
0.630640 0.053410 0.017364 255 220 0
0.557367 0.065615 0.040058 255 220 0
0.565562 0.081161 0.025341 255 220 0
0.575339 -0.003985 0.034856 255 220 0
0.619608 0.103613 0.040179 255 220 0
0.619583 0.056154 0.086404 255 220 0
0.607436 0.076804 0.014592 255 220 0
0.613008 0.040252 -0.003034 255 220 0
0.643595 0.043679 0.053765 255 220 0
0.612224 0.109303 0.038786 255 220 0
0.614520 0.139280 0.087152 255 220 0
0.593546 0.045691 0.083122 255 220 0
0.596348 0.001435 0.054729 255 220 0
0.576834 0.054704 0.076232 255 220 0
0.602402 0.116803 0.094005 255 220 0
0.575263 -0.010041 0.009940 255 220 0
0.643843 0.047551 0.059289 255 220 0
0.560808 0.011625 0.022800 255 220 0
0.586191 0.145059 0.067913 255 220 0
0.584495 0.069557 0.084454 255 220 0
0.595847 0.059754 0.087968 255 220 0
0.564937 0.016505 -0.000923 255 220 0
0.625484 0.010939 0.051676 255 220 0
0.586081 0.037735 -0.009478 255 220 0
0.585571 0.087855 0.086533 255 220 0
0.645173 0.054973 0.051409 255 220 0
0.582034 0.081077 0.014155 255 220 0
0.558481 0.023861 0.037028 255 220 0
0.568036 0.001205 0.005028 255 220 0
0.612144 -0.011565 0.008788 255 220 0
0.627800 0.004747 0.013529 255 220 0
0.596343 0.112401 0.036048 255 220 0
0.644102 0.078413 0.068326 255 220 0
0.584060 0.135829 0.074674 255 220 0
0.564607 0.020820 -0.001330 255 220 0
0.576296 0.008051 0.051549 255 220 0
0.631790 0.075197 0.031075 255 220 0
0.578412 -0.010620 0.026475 255 220 0
0.602551 0.014839 0.067308 255 220 0
0.567825 0.062917 0.066058 255 220 0
0.558705 0.019111 0.012121 255 220 0
0.576020 0.117839 0.058228 255 220 0
0.611931 0.127775 0.049917 255 220 0
0.586481 0.120389 0.043051 255 220 0
0.622673 0.031318 0.073363 255 220 0
0.626104 0.007829 0.045622 255 220 0
0.581911 0.003726 0.052109 255 220 0
0.608838 0.125811 0.046958 255 220 0
0.589184 -0.004799 -0.007444 255 220 0
0.632259 0.096521 0.088439 255 220 0
0.616470 0.097916 0.095338 255 220 0
0.616018 0.045646 0.001246 255 220 0
0.607756 0.110695 0.095535 255 220 0
0.601319 0.043073 0.083367 255 220 0
0.640593 0.038959 0.030759 255 220 0
0.605744 0.063472 0.005467 255 220 0
0.605783 0.152604 0.068131 255 220 0
0.613084 0.057287 0.005457 255 220 0
0.627093 0.086335 0.034117 255 220 0
0.606872 -0.015487 0.021380 255 220 0
0.607806 0.096547 0.028192 255 220 0
0.588265 0.103172 0.030109 255 220 0
0.596371 0.149048 0.077454 255 220 0
0.623726 0.004413 0.043392 255 220 0
0.588514 0.108688 0.034272 255 220 0
0.592647 0.035387 0.078849 255 220 0
0.599639 0.037551 -0.008830 255 220 0
0.619869 0.035368 -0.000743 255 220 0
0.616961 0.005680 0.052844 255 220 0
0.559116 0.042219 0.048928 255 220 0
0.604389 0.096040 0.026689 255 220 0
0.604757 -0.015465 0.024712 255 220 0
0.635631 0.017974 0.026930 255 220 0
0.587069 -0.013878 0.028849 255 220 0
0.604859 0.038318 -0.007271 255 220 0
0.603319 -0.001792 0.049881 255 220 0
0.617359 0.055382 0.086742 255 220 0
0.584253 0.105102 0.084654 255 220 0
0.627753 0.005284 0.012439 255 220 0
0.573851 0.087475 0.022586 255 220 0
0.617236 0.112819 0.044409 255 220 0
0.638397 0.047311 0.071095 255 220 0
0.598618 0.048275 0.085030 255 220 0
0.618835 0.015272 0.062645 255 220 0
0.556631 0.060203 0.025426 255 220 0
0.606141 0.037916 0.081211 255 220 0
0.568416 0.048257 0.065857 255 220 0
0.624879 0.065721 0.018294 255 220 0
0.623751 0.083750 0.029321 255 220 0
0.627661 0.002867 0.025767 255 220 0
0.620861 -0.006100 0.021916 255 220 0
0.562079 0.007919 0.018293 255 220 0
0.574473 0.111849 0.052818 255 220 0
0.643041 0.057763 0.043349 255 220 0
0.618025 -0.008973 0.018388 255 220 0
0.576422 0.020569 0.062750 255 220 0
0.601612 -0.011626 -0.000897 255 220 0
0.638892 0.033209 0.026572 255 220 0
0.558021 0.038623 0.008333 255 220 0
0.577058 0.000377 0.043298 255 220 0
0.613543 0.002796 0.051396 255 220 0
0.564631 0.064841 0.060450 255 220 0
0.575984 0.104466 0.039062 255 220 0
0.592817 0.128434 0.087739 255 220 0
0.584512 0.077899 0.085269 255 220 0
0.595618 0.085387 0.017263 255 220 0
0.634964 0.065664 0.082785 255 220 0
0.601799 0.012829 -0.011547 255 220 0
0.637257 0.027160 0.023693 255 220 0
0.598609 0.152868 0.064770 255 220 0
0.606619 0.117448 0.094641 255 220 0
0.589231 0.080847 0.088659 255 220 0
0.591080 0.094560 0.090354 255 220 0
0.578734 0.121172 0.052949 255 220 0
0.555594 0.056529 0.027002 255 220 0
0.609288 0.151052 0.071237 255 220 0
0.594391 0.064922 0.003469 255 220 0
0.600211 -0.017173 0.008907 255 220 0
0.566890 0.061416 0.064634 255 220 0
0.627725 0.101923 0.046514 255 220 0
0.568823 0.041925 -0.002435 255 220 0
0.591782 0.083335 0.090270 255 220 0
0.641856 0.042471 0.034634 255 220 0
0.606674 0.111256 0.037550 255 220 0
0.632976 0.101745 0.052923 255 220 0
0.570363 0.082042 0.020326 255 220 0
0.582351 0.072075 0.007921 255 220 0
0.604610 0.052167 -0.001229 255 220 0
0.620799 0.101144 0.094374 255 220 0
0.620531 -0.004653 0.029774 255 220 0
0.592514 0.042067 -0.008165 255 220 0
0.639805 0.030112 0.050047 255 220 0
0.625298 0.101079 0.043485 255 220 0
0.618998 0.023141 0.069552 255 220 0
0.608798 -0.014901 0.015042 255 220 0
0.636968 0.073674 0.083293 255 220 0
0.619600 0.140836 0.077904 255 220 0
0.565536 0.042303 0.060597 255 220 0
0.578254 0.124391 0.059701 255 220 0
0.636164 0.079065 0.039731 255 220 0
0.632664 0.025708 0.060242 255 220 0
0.585881 0.132170 0.079770 255 220 0
0.581481 0.009025 0.057313 255 220 0
0.643626 0.074105 0.055081 255 220 0
0.634650 0.051629 0.077247 255 220 0
0.637524 0.050043 0.026726 255 220 0
0.608136 0.127001 0.047235 255 220 0
0.575137 0.057335 0.075046 255 220 0
0.592737 0.046224 0.083086 255 220 0
0.605594 0.151868 0.063258 255 220 0
0.609732 0.032226 -0.007532 255 220 0
0.635039 0.024135 0.018403 255 220 0
0.641197 0.048004 0.034067 255 220 0
0.579051 0.069717 0.007027 255 220 0
0.572056 0.055269 0.071462 255 220 0
0.638974 0.043823 0.027568 255 220 0
0.580046 0.089613 0.081395 255 220 0
0.560948 0.049878 0.053793 255 220 0
0.635983 0.072251 0.083787 255 220 0
0.556348 0.037848 0.039721 255 220 0
0.577311 0.121903 0.064213 255 220 0
0.616385 0.069321 0.014559 255 220 0
0.560276 0.013444 0.024981 255 220 0
0.645143 0.068986 0.058640 255 220 0
0.606718 0.066470 0.007678 255 220 0
0.578829 -0.002310 0.041658 255 220 0
0.583883 -0.014717 0.023986 255 220 0
0.610208 0.084734 0.095026 255 220 0
0.562137 0.025222 0.001536 255 220 0
0.607635 0.076768 0.093893 255 220 0
0.555890 0.053885 0.022127 255 220 0
0.635222 0.016537 0.037741 255 220 0
0.632555 0.011235 0.030696 255 220 0
0.596897 0.031535 -0.010878 255 220 0
0.560579 0.014284 0.029526 255 220 0
0.630516 0.024124 0.061432 255 220 0
0.571003 0.022247 0.058583 255 220 0
0.626458 0.027293 0.003674 255 220 0
0.563753 0.037964 0.000507 255 220 0
0.564981 0.002576 0.019417 255 220 0
0.627102 0.002146 0.026408 255 220 0
0.626424 0.088286 0.091350 255 220 0
0.556340 0.042537 0.013290 255 220 0
0.571511 0.079536 0.017304 255 220 0
0.620798 0.126500 0.057032 255 220 0
0.567002 0.060716 0.007339 255 220 0
0.561719 0.067947 0.018724 255 220 0
0.630462 0.009309 0.037334 255 220 0
0.590879 -0.017664 0.008636 255 220 0
0.600269 0.130921 0.090395 255 220 0
0.612187 0.067234 0.091544 255 220 0
0.637279 0.075887 0.039564 255 220 0
0.579392 0.099953 0.079610 255 220 0
0.611921 0.061058 0.089763 255 220 0
0.608489 0.084482 0.020143 255 220 0
0.567565 0.094455 0.048980 255 220 0
0.598720 0.005370 -0.010761 255 220 0
0.631262 0.011341 0.040459 255 220 0
0.625114 0.043516 0.006804 255 220 0
0.554981 0.049953 0.035066 255 220 0
0.641093 0.054748 0.036494 255 220 0
0.591964 0.097615 0.025680 255 220 0
0.602051 0.017255 -0.011743 255 220 0
0.560137 0.028039 0.045794 255 220 0
0.608054 0.039860 0.081941 255 220 0
0.584704 0.056354 -0.001698 255 220 0
0.566819 0.060318 0.064532 255 220 0
0.612100 0.053560 0.087089 255 220 0
0.634994 0.055605 0.078883 255 220 0
0.630188 0.006962 0.021709 255 220 0
0.633585 0.014216 0.022510 255 220 0
0.631416 0.027913 0.063890 255 220 0
0.589328 -0.018000 0.018410 255 220 0
0.556248 0.033082 0.036457 255 220 0
0.584375 -0.016667 0.017354 255 220 0
0.613006 0.079354 0.018891 255 220 0
0.585336 0.114655 0.039833 255 220 0
0.603734 0.140519 0.087231 255 220 0
0.569438 0.056784 0.068329 255 220 0
0.611413 0.086174 0.022619 255 220 0
0.574668 0.065995 0.006114 255 220 0
0.558504 0.059729 0.047520 255 220 0
0.581899 0.135006 0.061421 255 220 0
0.592273 0.119066 0.040110 255 220 0
0.643165 0.043012 0.055098 255 220 0
0.627507 0.003897 0.014131 255 220 0
0.640352 0.028245 0.036665 255 220 0
0.632051 0.106016 0.055372 255 220 0
0.603339 0.105262 0.095172 255 220 0
0.563234 0.005725 0.019423 255 220 0
0.560816 0.031160 0.048995 255 220 0
0.643272 0.080457 0.060245 255 220 0
0.603914 0.123374 0.093159 255 220 0
0.571421 0.039029 0.066957 255 220 0
0.628087 0.074332 0.026515 255 220 0
0.600652 0.118631 0.093285 255 220 0
0.641382 0.044395 0.033523 255 220 0
0.610021 0.088092 0.023259 255 220 0
0.586183 0.088730 0.019246 255 220 0
0.571453 0.077178 0.015455 255 220 0
0.624097 0.095418 0.092899 255 220 0
0.611363 0.105604 0.095973 255 220 0
0.559826 0.075601 0.038918 255 220 0
0.604017 0.152388 0.063521 255 220 0
0.566485 0.034273 0.059386 255 220 0
0.616281 0.078394 0.020208 255 220 0
0.593440 0.068131 0.005365 255 220 0
0.584565 0.126472 0.080442 255 220 0
0.572135 -0.006325 0.023126 255 220 0
0.579915 -0.004740 0.039318 255 220 0
0.579155 0.007585 -0.008977 255 220 0
0.591540 0.097518 0.025601 255 220 0
0.578160 0.099044 0.030795 255 220 0
0.613944 -0.011526 0.012905 255 220 0
0.636274 0.024025 0.051789 255 220 0
0.584783 0.140226 0.072378 255 220 0
0.557905 0.019668 0.022033 255 220 0
0.590142 -0.015514 0.026851 255 220 0
0.576934 0.049644 0.075272 255 220 0
0.558566 0.057449 0.048014 255 220 0
0.607552 0.107388 0.095753 255 220 0
0.597639 0.142580 0.084398 255 220 0
0.579792 -0.013239 0.007929 255 220 0
0.630423 0.118035 0.065545 255 220 0
0.558537 0.021139 0.010873 255 220 0
0.597727 0.012512 0.065374 255 220 0
0.581722 0.132590 0.058394 255 220 0
0.582729 0.072290 0.008010 255 220 0
0.622597 0.105961 0.044460 255 220 0
0.619340 0.105124 0.094855 255 220 0
0.603427 0.028485 0.076619 255 220 0
0.595154 -0.009726 -0.004331 255 220 0
0.567149 0.047718 0.064036 255 220 0
0.619817 0.135258 0.061609 255 220 0
0.628894 0.011853 0.047842 255 220 0
0.561386 0.030821 0.049929 255 220 0
0.577430 0.078930 0.078742 255 220 0
0.615224 0.124072 0.050151 255 220 0
0.590345 0.083430 0.015331 255 220 0
0.590356 0.048870 0.083136 255 220 0
0.592581 0.131185 0.086699 255 220 0
0.573708 0.090157 0.025294 255 220 0
0.582699 0.130235 0.053896 255 220 0
0.568103 0.093027 0.058309 255 220 0
0.566599 0.087473 0.057641 255 220 0
0.573689 0.095232 0.030871 255 220 0
0.606104 0.001967 0.053821 255 220 0
0.613403 0.051365 0.002503 255 220 0
0.644017 0.044230 0.045675 255 220 0
0.574334 0.093672 0.073052 255 220 0
0.632482 0.064358 0.025403 255 220 0
0.555672 0.029044 0.023100 255 220 0
0.619441 0.004440 -0.000111 255 220 0
0.610040 0.069491 0.011040 255 220 0
0.636480 0.033102 0.061394 255 220 0
0.645426 0.063475 0.056155 255 220 0
0.563994 0.043887 0.001747 255 220 0
0.642900 0.037518 0.043938 255 220 0
0.627574 0.125797 0.082213 255 220 0
0.579308 0.128115 0.062219 255 220 0
0.633815 0.018931 0.017369 255 220 0
0.602802 0.036704 0.080756 255 220 0
0.590401 0.036649 0.078756 255 220 0
0.570122 0.001867 0.035793 255 220 0
0.643699 0.054364 0.044172 255 220 0
0.575640 0.091057 0.024726 255 220 0
0.561943 0.055265 0.055864 255 220 0
0.612502 0.146131 0.061201 255 220 0
0.631872 0.112421 0.061895 255 220 0
0.610609 -0.013777 0.021657 255 220 0
0.601300 0.065685 0.005355 255 220 0
0.571155 -0.005021 0.023839 255 220 0
0.598588 0.118263 0.039609 255 220 0
0.605043 0.095733 0.026668 255 220 0
0.610351 0.126046 0.092962 255 220 0
0.634985 0.037785 0.067933 255 220 0
0.608173 0.026341 -0.009417 255 220 0
0.582905 0.106405 0.034659 255 220 0
0.595255 0.114986 0.091680 255 220 0
0.619686 0.019187 0.065883 255 220 0
0.615253 -0.009709 0.027389 255 220 0
0.585811 0.022008 0.069108 255 220 0
0.631989 0.010096 0.027396 255 220 0
0.591489 0.076376 0.089429 255 220 0
0.586515 -0.017596 0.014009 255 220 0
0.575233 0.115893 0.060385 255 220 0
0.641862 0.065067 0.043577 255 220 0
0.588708 0.040853 0.079845 255 220 0
0.592991 0.064049 0.002778 255 220 0
0.560327 0.061191 0.015789 255 220 0
0.645491 0.065407 0.065328 255 220 0
0.597754 0.004989 -0.010824 255 220 0
0.639620 0.061095 0.036029 255 220 0
0.565571 0.052190 0.003836 255 220 0
0.575324 -0.000103 -0.002984 255 220 0
0.600622 0.067951 0.091289 255 220 0
0.641321 0.060131 0.039619 255 220 0
0.603299 0.056269 0.000485 255 220 0
0.581650 -0.010491 0.031093 255 220 0
0.636131 0.070773 0.083353 255 220 0
0.641851 0.046697 0.064744 255 220 0
0.605896 0.135175 0.050242 255 220 0
0.582373 0.137085 0.063879 255 220 0
0.599646 0.007464 0.060942 255 220 0
0.613083 0.085948 0.023337 255 220 0
0.626391 0.082079 0.030360 255 220 0
0.633945 0.030222 0.062718 255 220 0
0.560777 0.062526 0.052745 255 220 0
0.631570 0.010219 0.034704 255 220 0
0.629075 0.023009 0.006850 255 220 0
0.575946 0.033120 -0.008267 255 220 0
0.630968 0.045595 0.076660 255 220 0
0.608353 0.133557 0.090518 255 220 0
0.581694 0.121429 0.048085 255 220 0
0.562438 0.026071 0.049110 255 220 0
0.606295 0.051816 0.086866 255 220 0
0.570235 -0.001441 0.004439 255 220 0
0.614966 0.018539 0.067623 255 220 0
0.557544 0.066925 0.030888 255 220 0
0.569632 0.014375 0.050147 255 220 0
0.605765 0.079768 0.015929 255 220 0
0.577142 0.120870 0.058373 255 220 0
0.619561 0.119705 0.093403 255 220 0
0.589426 0.023034 -0.012417 255 220 0
0.633481 0.016094 0.018695 255 220 0
0.586070 0.043165 -0.007731 255 220 0
0.559925 0.074993 0.033197 255 220 0
0.554582 0.040755 0.030873 255 220 0
0.554528 0.046660 0.024753 255 220 0
0.633681 0.056151 0.022914 255 220 0
0.643987 0.078440 0.069651 255 220 0
0.625346 0.121392 0.090159 255 220 0
0.632467 0.105570 0.055657 255 220 0
0.621828 -0.005097 0.017364 255 220 0
0.610652 0.140826 0.087060 255 220 0
0.626190 0.016585 0.058173 255 220 0
0.613264 0.035769 0.079242 255 220 0
0.593438 0.006462 0.059715 255 220 0
0.569652 0.027932 0.060461 255 220 0
0.611113 0.061871 0.006949 255 220 0
0.590506 0.070482 0.088127 255 220 0
0.620805 -0.003615 0.008931 255 220 0
0.612165 0.058002 0.005325 255 220 0
0.608875 0.020222 0.070739 255 220 0
0.591614 0.120010 0.088887 255 220 0
0.594107 -0.018626 0.016575 255 220 0
0.576938 0.112715 0.072073 255 220 0
0.622063 0.052466 0.084147 255 220 0
0.598294 0.058604 0.000430 255 220 0
0.618861 -0.000796 0.041177 255 220 0
0.633795 0.024947 0.057749 255 220 0
0.626151 0.101454 0.044591 255 220 0
0.556054 0.056593 0.039328 255 220 0
0.594125 0.111839 0.035662 255 220 0
0.597875 0.149207 0.077917 255 220 0
0.614281 0.136617 0.056399 255 220 0
0.585002 0.003070 -0.009770 255 220 0
0.583668 0.006635 0.056455 255 220 0
0.630571 0.008974 0.035553 255 220 0
0.599665 -0.002834 0.049269 255 220 0
0.583004 0.113106 0.082138 255 220 0
0.566494 0.071529 0.063013 255 220 0
0.578387 -0.013370 0.013009 255 220 0
0.632403 0.023934 0.012389 255 220 0
0.598506 0.140981 0.085716 255 220 0
0.611470 0.145093 0.058916 255 220 0
0.622612 0.098597 0.039221 255 220 0
0.585728 0.034325 0.075835 255 220 0
0.632387 0.111828 0.062521 255 220 0
0.613520 -0.012318 0.019665 255 220 0
0.563633 0.024090 0.049744 255 220 0
0.608880 0.016698 -0.009826 255 220 0
0.609373 0.025112 -0.009179 255 220 0
0.605561 0.034615 0.079706 255 220 0
0.558762 0.017355 0.015043 255 220 0
0.562661 0.011265 0.032830 255 220 0
0.615704 0.054182 0.086683 255 220 0
0.563781 0.032912 0.054896 255 220 0
0.577192 0.014827 0.059132 255 220 0
0.641930 0.083996 0.057915 255 220 0
0.607303 0.027751 0.075938 255 220 0
0.587801 0.002940 -0.010388 255 220 0
0.583883 0.063619 0.083162 255 220 0
0.626081 0.126457 0.085625 255 220 0
0.603290 0.042506 -0.006140 255 220 0
0.570208 0.079101 0.017902 255 220 0
0.620569 0.096555 0.036008 255 220 0
0.627823 0.126853 0.077393 255 220 0
0.573824 0.030828 -0.007783 255 220 0
0.636710 0.022857 0.024718 255 220 0
0.635649 0.021274 0.049134 255 220 0
0.640058 0.090275 0.058018 255 220 0
0.578696 0.058253 0.000350 255 220 0
0.559001 0.060572 0.048731 255 220 0
0.634812 0.083978 0.086226 255 220 0
0.627346 0.086401 0.090748 255 220 0
0.596032 0.003311 -0.010616 255 220 0
0.599024 -0.013236 0.032803 255 220 0
0.584425 -0.003436 0.045142 255 220 0
0.570156 0.005989 -0.002193 255 220 0
0.570569 0.100285 0.060846 255 220 0
0.566216 0.066987 0.012114 255 220 0
0.592058 0.122210 0.088763 255 220 0
0.619114 0.123470 0.092619 255 220 0
0.609050 0.150612 0.073876 255 220 0
0.554922 0.050615 0.024800 255 220 0
0.582187 0.132920 0.072382 255 220 0
0.619044 0.107694 0.094867 255 220 0
0.612290 0.067276 0.091543 255 220 0
0.638237 0.030064 0.025527 255 220 0
0.559751 0.075397 0.037963 255 220 0
0.632308 0.011419 0.021457 255 220 0
0.588025 0.009393 -0.011843 255 220 0
0.593130 -0.017416 0.022938 255 220 0
0.630919 0.115688 0.084900 255 220 0
0.572118 0.048991 0.070451 255 220 0
0.597439 0.136560 0.049084 255 220 0
0.555755 0.039906 0.014581 255 220 0
0.602558 0.147859 0.080696 255 220 0
0.593814 0.101709 0.028731 255 220 0
0.568928 0.038006 0.063819 255 220 0
0.557976 0.026999 0.038552 255 220 0
0.622995 0.116243 0.052209 255 220 0
0.640681 0.034103 0.052323 255 220 0
0.577442 -0.011739 0.021203 255 220 0
0.581407 0.039080 -0.008413 255 220 0
0.640163 0.049260 0.031979 255 220 0
0.611278 0.012284 -0.008344 255 220 0
0.580366 0.017455 -0.011058 255 220 0
0.633948 0.096092 0.049481 255 220 0
0.562191 0.024640 0.001509 255 220 0
0.563767 0.055797 0.059341 255 220 0
0.634721 0.046731 0.074514 255 220 0
0.586260 -0.009282 -0.003399 255 220 0
0.561992 0.051118 0.006865 255 220 0
0.558863 0.019176 0.011250 255 220 0
0.597240 0.108282 0.093122 255 220 0
0.607929 0.046988 -0.002469 255 220 0
0.588151 0.069758 0.006048 255 220 0
0.569868 0.049056 0.067855 255 220 0
0.577180 0.012103 0.056638 255 220 0
0.635157 0.071521 0.033360 255 220 0
0.644354 0.052237 0.046295 255 220 0
0.605629 0.132459 0.090801 255 220 0
0.575236 -0.010693 0.017038 255 220 0
0.557946 0.028283 0.039666 255 220 0
0.573082 0.018144 0.057810 255 220 0
0.575333 0.018491 -0.009210 255 220 0
0.587004 0.031528 0.075092 255 220 0
0.628617 0.076760 0.028676 255 220 0
0.628890 0.109166 0.053508 255 220 0
0.630660 0.046993 0.014575 255 220 0
0.633712 0.013724 0.025504 255 220 0
0.571973 -0.006111 0.008903 255 220 0
0.632216 0.010726 0.031348 255 220 0
0.627940 0.061636 0.085256 255 220 0
0.575817 0.026965 0.065948 255 220 0
0.582723 0.087919 0.019147 255 220 0
0.588327 0.089717 0.019834 255 220 0
0.586523 0.039412 0.078345 255 220 0
0.643912 0.069988 0.052974 255 220 0
0.556163 0.030873 0.033767 255 220 0
0.581517 0.117105 0.079141 255 220 0
0.602439 0.003199 -0.009289 255 220 0
0.599611 -0.011828 -0.001457 255 220 0
0.574081 0.076985 0.074602 255 220 0
0.607552 0.151579 0.064971 255 220 0
0.614481 0.085731 0.094692 255 220 0
0.562286 0.028321 0.050217 255 220 0
0.582543 0.050924 -0.004097 255 220 0
0.584242 0.067183 0.004577 255 220 0
0.622249 0.044605 0.004867 255 220 0
0.612959 0.002128 0.050860 255 220 0
0.635742 0.087106 0.044859 255 220 0
0.610502 -0.012153 0.028249 255 220 0
0.574769 0.062013 0.003711 255 220 0
0.609546 0.133906 0.051534 255 220 0
0.609177 0.149558 0.061927 255 220 0
0.569854 0.083605 0.067023 255 220 0
0.587967 -0.008254 0.039809 255 220 0
0.590120 -0.000914 0.051134 255 220 0
0.619029 -0.003917 0.006265 255 220 0
0.610830 0.037672 0.080623 255 220 0
0.569575 0.014766 -0.005179 255 220 0
0.569542 0.045149 0.066622 255 220 0
0.640524 0.083320 0.079578 255 220 0
0.600923 0.034156 0.079525 255 220 0
0.556929 0.028824 0.035754 255 220 0
0.638057 0.098903 0.078006 255 220 0
0.639677 0.059046 0.035151 255 220 0
0.578609 0.124333 0.068252 255 220 0
0.604355 0.111808 0.094986 255 220 0
0.578475 -0.008268 0.031625 255 220 0
0.586364 0.114670 0.039278 255 220 0
0.623232 0.131816 0.085299 255 220 0
0.622471 0.017198 0.062115 255 220 0
0.590645 0.054615 0.084845 255 220 0
0.596253 0.143946 0.053350 255 220 0
0.568919 0.038800 -0.003367 255 220 0
0.632032 0.067368 0.085047 255 220 0
0.572237 0.106720 0.059764 255 220 0
0.613532 0.116152 0.043932 255 220 0
0.639870 0.049156 0.031264 255 220 0
0.564548 0.061251 0.060604 255 220 0
0.580316 0.038907 -0.008219 255 220 0
0.607483 -0.015394 0.020385 255 220 0
0.598800 0.137006 0.087721 255 220 0
0.555245 0.031741 0.025382 255 220 0
0.616108 0.104065 0.037763 255 220 0
0.608031 0.103565 0.033103 255 220 0
0.601520 0.110842 0.035829 255 220 0
0.639081 0.083709 0.081882 255 220 0
0.618075 0.104551 0.039553 255 220 0
0.581259 0.095448 0.025724 255 220 0
0.634288 0.060274 0.025866 255 220 0
0.623573 0.024900 0.000241 255 220 0
0.568397 0.022988 -0.005148 255 220 0
0.628560 0.120313 0.086342 255 220 0
0.589491 0.137104 0.051588 255 220 0
0.627185 0.030105 0.004949 255 220 0
0.596635 0.057808 0.087645 255 220 0
0.581075 0.012255 0.059926 255 220 0
0.576796 0.105377 0.038994 255 220 0
0.561258 0.056406 0.054425 255 220 0
0.617191 -0.007916 0.028597 255 220 0
0.579552 0.078607 0.081014 255 220 0
0.636721 0.027877 0.055568 255 220 0
0.583159 0.133189 0.055680 255 220 0
0.624150 0.006533 0.004270 255 220 0
0.590078 0.098361 0.026246 255 220 0
0.616795 0.023706 0.070967 255 220 0
0.588791 -0.017565 0.009529 255 220 0
0.637275 0.103164 0.069485 255 220 0
0.597680 0.148746 0.056969 255 220 0
0.599929 0.099455 0.027951 255 220 0
0.615706 0.017823 0.066694 255 220 0
0.555600 0.051937 0.021723 255 220 0
0.613372 0.146421 0.062924 255 220 0
0.637921 0.021937 0.040256 255 220 0
0.567556 0.093112 0.041870 255 220 0
0.644134 0.059784 0.069076 255 220 0
0.628058 0.077263 0.028485 255 220 0
0.607021 0.087972 0.021939 255 220 0
0.639495 0.064687 0.078640 255 220 0
0.645321 0.052756 0.057064 255 220 0
0.562682 0.081993 0.046789 255 220 0
0.599339 0.085046 0.017707 255 220 0
0.581723 0.129996 0.055542 255 220 0
0.559571 0.020733 0.037200 255 220 0
0.600156 0.148056 0.056077 255 220 0
0.627174 0.005607 0.010406 255 220 0
0.591626 -0.011757 0.035016 255 220 0
0.576504 0.040641 0.072277 255 220 0
0.599408 0.048456 -0.004515 255 220 0
0.574375 0.101315 0.037608 255 220 0
0.631992 0.095341 0.088665 255 220 0
0.581050 0.084738 0.017093 255 220 0
0.576625 0.011962 0.055962 255 220 0
0.578646 0.001713 0.046760 255 220 0
0.572976 0.035896 0.067390 255 220 0
0.627365 0.009862 0.047079 255 220 0
0.572838 0.103814 0.044437 255 220 0
0.560231 0.075777 0.033184 255 220 0
0.598722 0.067864 0.006060 255 220 0
0.627538 0.009553 0.007752 255 220 0
0.582662 -0.001958 0.045818 255 220 0
0.639266 0.043128 0.066416 255 220 0
0.584152 -0.000146 -0.008276 255 220 0
0.567448 0.008312 0.040271 255 220 0
0.586601 0.143922 0.060637 255 220 0
0.586179 0.142972 0.072603 255 220 0
0.601366 -0.008867 0.040136 255 220 0
0.584342 0.135876 0.055990 255 220 0
0.596532 -0.002446 0.050033 255 220 0
0.578256 0.058620 0.000668 255 220 0
0.626154 0.063399 0.017940 255 220 0
0.574108 0.027456 0.064764 255 220 0
0.560687 0.072911 0.048914 255 220 0
0.607244 -0.007314 0.040418 255 220 0
0.583768 0.000097 0.049267 255 220 0
0.565077 0.030745 0.055863 255 220 0
0.606614 -0.000465 0.050549 255 220 0
0.635513 0.101548 0.083518 255 220 0
0.619903 0.114950 0.048175 255 220 0
0.633690 0.060053 0.081639 255 220 0
0.597386 0.090546 0.021175 255 220 0
0.583969 0.139972 0.070045 255 220 0
0.589431 0.048844 -0.005534 255 220 0
0.573257 0.060181 0.003318 255 220 0
0.595449 0.095196 0.092586 255 220 0
0.628894 0.122723 0.067831 255 220 0
0.641426 0.032386 0.036899 255 220 0
0.607949 0.086727 0.095250 255 220 0
0.575361 0.105512 0.071644 255 220 0
0.556334 0.060916 0.038115 255 220 0
0.568818 0.097273 0.055285 255 220 0
0.559995 0.075142 0.043070 255 220 0
0.634618 0.109908 0.068629 255 220 0
0.598564 0.078744 0.092633 255 220 0
0.564597 0.055481 0.060797 255 220 0
0.616046 0.034925 0.078105 255 220 0
0.577187 0.096495 0.028971 255 220 0
0.629730 0.048150 0.013854 255 220 0
0.585539 0.007019 -0.010959 255 220 0
0.568844 0.024597 -0.005468 255 220 0
0.635899 0.024314 0.020821 255 220 0
0.637043 0.099481 0.081008 255 220 0
0.612594 0.025173 0.073362 255 220 0
0.613219 0.087219 0.095047 255 220 0
0.622594 0.084342 0.092372 255 220 0
0.564700 0.014631 0.043027 255 220 0
0.640044 0.066296 0.039688 255 220 0
0.567828 -0.000816 0.009194 255 220 0
0.569799 -0.003162 0.024635 255 220 0
0.633347 0.113886 0.076662 255 220 0
0.586192 0.125566 0.046600 255 220 0
0.565122 0.081738 0.026870 255 220 0
0.641384 0.086604 0.076260 255 220 0
0.641323 0.062971 0.075813 255 220 0
0.574333 0.045039 -0.004208 255 220 0
0.607428 0.054106 0.000877 255 220 0
0.574809 0.054752 0.074331 255 220 0
0.608563 0.090026 0.023957 255 220 0
0.580327 -0.013526 0.007705 255 220 0
0.635290 0.067281 0.083051 255 220 0
0.579176 0.097680 0.079621 255 220 0
0.645098 0.061862 0.053210 255 220 0
0.569255 0.021429 0.055859 255 220 0
0.575176 0.115699 0.059450 255 220 0
0.626007 0.091104 0.091767 255 220 0
0.631158 0.067734 0.025645 255 220 0
0.574298 0.022488 -0.008795 255 220 0
0.589435 0.024907 -0.012238 255 220 0
0.570493 0.102316 0.054976 255 220 0
0.644624 0.047469 0.051660 255 220 0
0.575845 -0.007401 0.003546 255 220 0
0.624631 0.046209 0.080415 255 220 0
0.581655 0.076339 0.082881 255 220 0
0.637472 0.100455 0.063231 255 220 0
0.597888 0.120418 0.092075 255 220 0
0.627071 0.117424 0.090027 255 220 0
0.637607 0.025090 0.049744 255 220 0
0.629302 0.100165 0.090535 255 220 0
0.644131 0.076252 0.060013 255 220 0
0.576743 0.120374 0.061184 255 220 0
0.590562 0.110534 0.035145 255 220 0
0.573776 0.097037 0.032952 255 220 0
0.622636 0.122928 0.091479 255 220 0
0.570011 0.094090 0.035238 255 220 0
0.623997 0.012747 0.001499 255 220 0
0.584750 0.137874 0.057133 255 220 0
0.638770 0.044243 0.027238 255 220 0
0.621644 0.135880 0.082928 255 220 0
0.559901 0.019535 0.036739 255 220 0
0.642242 0.086254 0.072414 255 220 0
0.589701 -0.002721 -0.008565 255 220 0
0.620067 0.070186 0.090627 255 220 0
0.640536 0.038815 0.030602 255 220 0
0.575531 0.014512 0.057270 255 220 0
0.608657 0.018633 0.069572 255 220 0
0.561372 0.053865 0.009194 255 220 0
0.616802 0.110804 0.095148 255 220 0
0.594967 -0.011317 -0.002893 255 220 0
0.589770 0.113653 0.088575 255 220 0
0.588282 0.115575 0.039057 255 220 0
0.615007 0.022245 0.070569 255 220 0
0.594632 0.061529 0.001469 255 220 0
0.556744 0.040239 0.041973 255 220 0
0.559884 0.051557 0.051561 255 220 0
0.562845 0.007858 0.009423 255 220 0
0.641239 0.088905 0.061776 255 220 0
0.572031 0.016102 -0.007178 255 220 0
0.596131 0.150186 0.075573 255 220 0
0.623314 -0.003347 0.022513 255 220 0
0.569302 0.029684 0.060930 255 220 0
0.579595 0.017759 0.063140 255 220 0
0.571135 0.002197 0.037955 255 220 0
0.558481 0.054055 0.014332 255 220 0
0.580706 -0.005891 -0.003006 255 220 0
0.594684 0.085194 0.091802 255 220 0
0.594825 0.141284 0.083700 255 220 0
0.641702 0.035910 0.035209 255 220 0
0.634512 0.014791 0.031654 255 220 0
0.581706 0.079005 0.083059 255 220 0
0.597035 0.013337 -0.012320 255 220 0
0.592155 0.004899 -0.011247 255 220 0
0.593524 0.134221 0.086207 255 220 0
0.643956 0.076003 0.071709 255 220 0
0.594269 0.033019 -0.010782 255 220 0
0.605502 0.125778 0.045412 255 220 0
0.556362 0.058637 0.024885 255 220 0
0.571154 0.068734 0.070830 255 220 0
0.582429 0.017345 0.064470 255 220 0
0.572304 0.018955 0.057602 255 220 0
0.629891 0.058071 0.083008 255 220 0
0.635645 0.104102 0.081662 255 220 0
0.641961 0.033510 0.044019 255 220 0
0.636215 0.025115 0.021404 255 220 0
0.590088 0.035765 -0.010229 255 220 0
0.571190 -0.004209 0.026233 255 220 0
0.642255 0.068536 0.046552 255 220 0
0.590317 0.021721 -0.012560 255 220 0
0.628236 0.125382 0.070503 255 220 0
0.605394 -0.002471 0.048342 255 220 0
0.638470 0.087691 0.050602 255 220 0
0.614307 0.139354 0.057875 255 220 0
0.621036 0.138462 0.066914 255 220 0
0.565238 0.070978 0.016093 255 220 0
0.622079 0.029115 0.072240 255 220 0
0.617239 -0.006900 0.031200 255 220 0
0.577900 0.037527 0.072256 255 220 0
0.597510 0.138502 0.086554 255 220 0
0.587218 -0.006385 0.042510 255 220 0
0.554831 0.041949 0.033682 255 220 0
0.638337 0.056526 0.031135 255 220 0
0.595989 0.135872 0.086969 255 220 0
0.608824 0.027695 0.075712 255 220 0
0.571854 -0.006765 0.011603 255 220 0
0.614577 -0.008941 0.030741 255 220 0
0.633484 0.056043 0.022565 255 220 0
0.638751 0.086624 0.082072 255 220 0
0.590725 -0.014604 0.001795 255 220 0
0.594876 0.041343 -0.008222 255 220 0
0.586801 0.145582 0.063622 255 220 0
0.581296 -0.013030 0.025020 255 220 0
0.641857 0.043972 0.034818 255 220 0
0.624261 0.133998 0.076911 255 220 0
0.630497 0.119206 0.081966 255 220 0
0.575306 -0.002706 0.036832 255 220 0
0.630345 0.114721 0.061038 255 220 0
0.610880 -0.008469 0.001999 255 220 0
0.608756 0.022793 0.072596 255 220 0
0.595549 0.101351 0.092642 255 220 0
0.642670 0.055020 0.040995 255 220 0
0.630231 0.032436 0.009391 255 220 0
0.601236 0.051643 0.086527 255 220 0
0.563619 0.063598 0.058631 255 220 0
0.631681 0.090960 0.088794 255 220 0
0.611468 0.004663 0.054956 255 220 0
0.619759 0.141582 0.069836 255 220 0
0.559717 0.055983 0.051067 255 220 0
0.557258 0.034660 0.009899 255 220 0
0.580423 0.071583 0.081518 255 220 0
0.602697 0.109925 0.094795 255 220 0
0.599638 0.015263 0.067686 255 220 0
0.624840 0.025708 0.001652 255 220 0
0.615738 0.079350 0.020484 255 220 0
0.620464 0.137953 0.064917 255 220 0
0.597988 0.109564 0.093344 255 220 0
0.626874 0.001515 0.018840 255 220 0
0.640018 0.091486 0.059606 255 220 0
0.606553 0.068083 0.092026 255 220 0
0.578461 0.125555 0.061703 255 220 0
0.580092 0.117919 0.047221 255 220 0
0.570181 0.073320 0.013410 255 220 0
0.642615 0.083557 0.073462 255 220 0
0.554519 0.043576 0.031419 255 220 0
0.575046 0.097857 0.032391 255 220 0
0.619775 0.121706 0.092910 255 220 0
0.622371 0.137033 0.068747 255 220 0
0.597074 -0.013432 0.032614 255 220 0
0.623009 0.129826 0.062242 255 220 0
0.569943 0.027651 0.060645 255 220 0
0.574895 -0.008350 0.006694 255 220 0
0.555602 0.058309 0.031014 255 220 0
0.582733 0.119416 0.045325 255 220 0
0.580248 0.131070 0.065631 255 220 0
0.595180 0.146913 0.055851 255 220 0
0.591208 -0.016917 0.023805 255 220 0
0.625200 0.070074 0.088896 255 220 0
0.636699 0.043971 0.023015 255 220 0
0.598774 -0.017638 0.009570 255 220 0
0.622611 0.070280 0.019442 255 220 0
0.609463 -0.000610 0.049113 255 220 0
0.598244 0.081845 0.092900 255 220 0
0.596807 0.068431 0.090366 255 220 0
0.628709 0.123645 0.068801 255 220 0
0.640268 0.040098 0.060984 255 220 0
0.606112 -0.000547 -0.006557 255 220 0
0.601876 0.104249 0.094845 255 220 0
0.562226 0.078290 0.049964 255 220 0
0.566490 0.039069 0.061062 255 220 0
0.612841 0.068059 0.011609 255 220 0
0.557359 0.057857 0.044370 255 220 0
0.555375 0.035348 0.016653 255 220 0
0.581432 0.096070 0.026189 255 220 0
0.566002 0.040144 0.060701 255 220 0
0.558929 0.020610 0.034031 255 220 0
0.635825 0.038802 0.019998 255 220 0
0.587830 0.092645 0.022052 255 220 0
0.560800 0.015126 0.032639 255 220 0
0.589548 -0.004617 0.046118 255 220 0
0.594402 0.070812 0.089937 255 220 0
0.576762 0.008877 0.052935 255 220 0
0.560344 0.025337 0.044385 255 220 0
0.632480 0.014934 0.016103 255 220 0
0.599228 0.037989 -0.008761 255 220 0
0.619070 0.013533 -0.003503 255 220 0
0.592035 0.044805 0.082405 255 220 0
0.612616 0.145921 0.061107 255 220 0
0.596402 0.014245 -0.012447 255 220 0
0.626982 0.108092 0.091762 255 220 0
0.575909 0.114559 0.052028 255 220 0
0.641187 0.043268 0.032772 255 220 0
0.621775 0.031637 0.074027 255 220 0
0.596967 0.013235 0.065890 255 220 0
0.588037 0.007737 0.059530 255 220 0
0.630198 0.012605 0.046564 255 220 0
0.590624 0.067568 0.004749 255 220 0
0.630913 0.119991 0.074293 255 220 0
0.587036 0.086676 0.017647 255 220 0
0.610899 -0.008405 0.036127 255 220 0
0.623094 0.051618 0.008985 255 220 0
0.621165 0.032056 0.074578 255 220 0
0.589616 -0.003853 0.047203 255 220 0
0.624624 0.019670 0.062893 255 220 0
0.645654 0.064601 0.059398 255 220 0
0.619336 0.037783 -0.000226 255 220 0
0.575452 0.094223 0.074762 255 220 0
0.587966 0.020862 0.069226 255 220 0
0.570680 0.069664 0.070104 255 220 0
0.587182 -0.007078 -0.005545 255 220 0
0.581678 0.046375 -0.005905 255 220 0
0.572958 0.090941 0.026770 255 220 0
0.570552 0.026283 0.060592 255 220 0
0.557855 0.025473 0.036309 255 220 0
0.613288 0.061163 0.089598 255 220 0
0.629144 0.006097 0.016551 255 220 0
0.576028 0.036633 0.070404 255 220 0
0.575184 0.042166 0.071652 255 220 0
0.630549 0.007487 0.023385 255 220 0
0.584010 0.091226 0.085243 255 220 0
0.631621 0.010644 0.036339 255 220 0
0.629323 0.110801 0.089598 255 220 0
0.581663 0.022548 -0.011377 255 220 0
0.626456 0.051825 0.082086 255 220 0
0.616651 0.027567 0.073672 255 220 0
0.567694 -0.001480 0.020448 255 220 0
0.611957 0.147067 0.061660 255 220 0
0.572416 0.098372 0.067901 255 220 0
0.560575 0.037221 0.050837 255 220 0
0.564712 0.016340 -0.000588 255 220 0
0.605718 0.007972 0.060638 255 220 0
0.615187 0.068171 0.091307 255 220 0
0.583798 -0.010759 -0.000529 255 220 0
0.585435 0.110457 0.036674 255 220 0
0.640651 0.047458 0.032498 255 220 0
0.562592 0.039102 0.001887 255 220 0
0.570207 -0.002530 0.006101 255 220 0
0.612425 0.143474 0.058606 255 220 0
0.640588 0.066334 0.077902 255 220 0
0.559667 0.014105 0.020447 255 220 0
0.598954 0.038375 -0.008683 255 220 0
0.611978 0.019599 -0.008552 255 220 0
0.617243 0.105055 0.039249 255 220 0
0.643224 0.083258 0.067557 255 220 0
0.634170 0.080047 0.037381 255 220 0
0.636975 0.057844 0.029156 255 220 0
0.610071 0.147232 0.059577 255 220 0
0.628561 0.088658 0.037234 255 220 0
0.608188 0.141143 0.053986 255 220 0
0.642351 0.085996 0.063832 255 220 0
0.638451 0.045047 0.026790 255 220 0
0.628659 0.120909 0.064464 255 220 0
0.636125 0.081364 0.041258 255 220 0
0.600150 0.142074 0.052066 255 220 0
