ply
format ascii 1.0
element vertex 1024
property float x
property float y
property float z
property uchar red
property uchar green
property uchar blue
end_header
0.622498 0.074979 0.312588 255 220 0
0.567477 0.093741 0.276831 255 220 0
0.640329 0.045870 0.255122 255 220 0
0.593951 0.027721 0.275772 255 220 0
0.635269 0.077334 0.239136 255 220 0
0.581381 0.093780 0.235649 255 220 0
0.623514 0.063602 0.307209 255 220 0
0.655638 0.139072 0.319603 255 220 0
0.661808 0.071062 0.286648 255 220 0
0.607722 0.073322 0.224229 255 220 0
0.593147 0.029025 0.277767 255 220 0
0.594071 0.030320 0.223366 255 220 0
0.602765 0.090970 0.231608 255 220 0
0.623541 0.056561 0.302791 255 220 0
0.635396 0.040126 0.271773 255 220 0
0.583346 0.113406 0.285613 255 220 0
0.556570 0.049564 0.235550 255 220 0
0.645484 0.099251 0.318224 255 220 0
0.589855 0.112799 0.294518 255 220 0
0.610119 0.044993 0.295852 255 220 0
0.609879 0.037400 0.288032 255 220 0
0.626947 0.058001 0.302830 255 220 0
0.559617 0.084267 0.265122 255 220 0
0.567017 0.036263 0.225543 255 220 0
0.585025 0.096099 0.236319 255 220 0
0.583999 0.090556 0.232324 255 220 0
0.652092 0.145561 0.278040 255 220 0
0.634036 0.051665 0.240206 255 220 0
0.581327 0.043508 0.218504 255 220 0
0.641213 0.165902 0.287749 255 220 0
0.645875 0.052889 0.256758 255 220 0
0.671687 0.144009 0.307372 255 220 0
0.663412 0.089513 0.268891 255 220 0
0.644630 0.168283 0.289404 255 220 0
0.616724 0.094315 0.315785 255 220 0
0.598550 0.019189 0.245050 255 220 0
0.631984 0.116761 0.254651 255 220 0
0.594115 0.054639 0.299751 255 220 0
0.671466 0.142216 0.309139 255 220 0
0.665569 0.090995 0.272393 255 220 0
0.607675 0.129746 0.264324 255 220 0
0.673988 0.128571 0.301222 255 220 0
0.636023 0.052123 0.242121 255 220 0
0.628609 0.051902 0.234661 255 220 0
0.636654 0.151696 0.314915 255 220 0
0.628860 0.107893 0.248249 255 220 0
0.606857 0.043651 0.294708 255 220 0
0.638294 0.047270 0.248802 255 220 0
0.604269 0.074815 0.309685 255 220 0
0.563159 0.034492 0.230304 255 220 0
0.648803 0.075163 0.251269 255 220 0
0.664171 0.123480 0.315847 255 220 0
0.609100 0.059037 0.305371 255 220 0
0.609885 0.092082 0.313397 255 220 0
0.604518 0.051134 0.300211 255 220 0
0.580395 0.106624 0.287827 255 220 0
0.624615 0.033520 0.248910 255 220 0
0.568790 0.030855 0.264958 255 220 0
0.592759 0.107825 0.244680 255 220 0
0.568761 0.083514 0.234858 255 220 0
0.658647 0.090884 0.262365 255 220 0
0.566066 0.038704 0.269643 255 220 0
0.649727 0.144337 0.319861 255 220 0
0.618210 0.034319 0.280265 255 220 0
0.607533 0.027170 0.233556 255 220 0
0.670660 0.149259 0.303930 255 220 0
0.578634 0.057853 0.292651 255 220 0
0.640164 0.119020 0.259366 255 220 0
0.639103 0.045917 0.280754 255 220 0
0.658978 0.088584 0.262713 255 220 0
0.632365 0.037111 0.258635 255 220 0
0.639294 0.134128 0.267530 255 220 0
0.662786 0.100897 0.268585 255 220 0
0.670557 0.125689 0.287654 255 220 0
0.617167 0.049912 0.299205 255 220 0
0.661255 0.141000 0.281582 255 220 0
0.575853 0.039655 0.279860 255 220 0
0.626148 0.050240 0.296915 255 220 0
0.652687 0.073591 0.255869 255 220 0
0.607847 0.115783 0.308859 255 220 0
0.629905 0.141982 0.315047 255 220 0
0.581027 0.095483 0.293944 255 220 0
0.619287 0.058358 0.226348 255 220 0
0.642785 0.066746 0.302354 255 220 0
0.599961 0.131367 0.275564 255 220 0
0.634320 0.089028 0.241390 255 220 0
0.556588 0.046970 0.236279 255 220 0
0.673620 0.118189 0.302568 255 220 0
0.633499 0.080031 0.313890 255 220 0
0.638708 0.107081 0.320352 255 220 0
0.649793 0.055482 0.263521 255 220 0
0.608511 0.135319 0.272503 255 220 0
0.584430 0.027362 0.272799 255 220 0
0.639476 0.113901 0.256260 255 220 0
0.572206 0.034165 0.272010 255 220 0
0.574861 0.078694 0.227974 255 220 0
0.621337 0.055433 0.227920 255 220 0
0.603624 0.021871 0.258373 255 220 0
0.635536 0.123091 0.259771 255 220 0
0.627028 0.035703 0.274666 255 220 0
0.613909 0.040943 0.291362 255 220 0
0.557916 0.035735 0.249682 255 220 0
0.611346 0.047622 0.222683 255 220 0
0.591380 0.024323 0.269361 255 220 0
0.618363 0.045570 0.227795 255 220 0
0.619650 0.121812 0.255686 255 220 0
0.600710 0.033375 0.223301 255 220 0
0.642284 0.046979 0.276178 255 220 0
0.613485 0.070818 0.225164 255 220 0
0.634015 0.044484 0.284866 255 220 0
0.557501 0.081462 0.258273 255 220 0
0.622307 0.039995 0.235041 255 220 0
0.604597 0.075082 0.309843 255 220 0
0.579441 0.064829 0.295186 255 220 0
0.611847 0.076534 0.226816 255 220 0
0.603121 0.070319 0.308299 255 220 0
0.595352 0.039408 0.219180 255 220 0
0.593949 0.112191 0.298891 255 220 0
0.630169 0.077100 0.235471 255 220 0
0.577636 0.104245 0.285833 255 220 0
0.584503 0.119383 0.270050 255 220 0
0.569662 0.034439 0.269780 255 220 0
0.644408 0.123559 0.263781 255 220 0
0.645890 0.070428 0.303329 255 220 0
0.616141 0.105957 0.243465 255 220 0
0.603248 0.072970 0.222889 255 220 0
0.651460 0.057969 0.263189 255 220 0
0.639209 0.131170 0.265750 255 220 0
0.667897 0.150380 0.311040 255 220 0
0.618518 0.068067 0.309918 255 220 0
0.596927 0.030431 0.280085 255 220 0
0.604203 0.082294 0.310711 255 220 0
0.652593 0.131120 0.320729 255 220 0
0.558814 0.033137 0.246583 255 220 0
0.654866 0.060592 0.268394 255 220 0
0.557504 0.055247 0.265376 255 220 0
0.637945 0.166841 0.304872 255 220 0
0.618550 0.092856 0.316143 255 220 0
0.626699 0.079911 0.314312 255 220 0
0.554228 0.062967 0.242283 255 220 0
0.624468 0.032177 0.266407 255 220 0
0.576473 0.078932 0.227408 255 220 0
0.626004 0.109530 0.318736 255 220 0
0.655569 0.068662 0.261091 255 220 0
0.594985 0.116878 0.253308 255 220 0
0.564379 0.064938 0.280086 255 220 0
0.554252 0.046592 0.245598 255 220 0
0.590369 0.022029 0.230937 255 220 0
0.610970 0.032450 0.230122 255 220 0
0.625239 0.138839 0.269667 255 220 0
0.668037 0.088152 0.278452 255 220 0
0.635569 0.157472 0.311354 255 220 0
0.555152 0.067213 0.242300 255 220 0
0.580240 0.042625 0.285450 255 220 0
0.642929 0.094999 0.248919 255 220 0
0.567290 0.028817 0.260482 255 220 0
0.611088 0.039237 0.290000 255 220 0
0.595243 0.094286 0.305414 255 220 0
0.554211 0.064791 0.256857 255 220 0
0.616972 0.145497 0.298335 255 220 0
0.648736 0.146772 0.277197 255 220 0
0.621574 0.147802 0.280453 255 220 0
0.636138 0.048388 0.288645 255 220 0
0.621877 0.030138 0.260421 255 220 0
0.584016 0.036927 0.283495 255 220 0
0.644341 0.146264 0.275578 255 220 0
0.566524 0.037456 0.225479 255 220 0
0.670486 0.104908 0.302658 255 220 0
0.659492 0.109232 0.315279 255 220 0
0.609120 0.076514 0.225960 255 220 0
0.655923 0.123631 0.319658 255 220 0
0.624619 0.063464 0.306929 255 220 0
0.639141 0.058377 0.242974 255 220 0
0.607202 0.095399 0.234951 255 220 0
0.657636 0.168707 0.297828 255 220 0
0.611707 0.087579 0.231682 255 220 0
0.643389 0.106266 0.254231 255 220 0
0.588979 0.017495 0.244325 255 220 0
0.627530 0.122148 0.256994 255 220 0
0.613109 0.133311 0.266834 255 220 0
0.651555 0.166205 0.309866 255 220 0
0.617915 0.027934 0.259102 255 220 0
0.616549 0.137731 0.270891 255 220 0
0.612959 0.059305 0.305727 255 220 0
0.588573 0.075015 0.222663 255 220 0
0.608562 0.066102 0.221999 255 220 0
0.615728 0.029269 0.270511 255 220 0
0.574960 0.080047 0.291867 255 220 0
0.623830 0.122848 0.256927 255 220 0
0.588312 0.017492 0.248215 255 220 0
0.626799 0.040509 0.240141 255 220 0
0.574724 0.022994 0.259059 255 220 0
0.593961 0.074068 0.222087 255 220 0
0.600318 0.026368 0.272702 255 220 0
0.643810 0.070232 0.304466 255 220 0
0.629610 0.126550 0.318574 255 220 0
0.610711 0.033164 0.229172 255 220 0
0.592804 0.123634 0.264647 255 220 0
0.646729 0.132163 0.269152 255 220 0
0.654203 0.059730 0.281352 255 220 0
0.624474 0.068819 0.309832 255 220 0
0.623890 0.036117 0.279348 255 220 0
0.570073 0.101908 0.272370 255 220 0
0.626468 0.057671 0.302743 255 220 0
0.591072 0.080279 0.304110 255 220 0
0.629312 0.090137 0.239335 255 220 0
0.637927 0.105562 0.250987 255 220 0
0.614613 0.028539 0.241291 255 220 0
0.604434 0.022548 0.239887 255 220 0
0.555850 0.052195 0.260517 255 220 0
0.611797 0.141196 0.293617 255 220 0
0.651703 0.073303 0.254703 255 220 0
0.599778 0.021211 0.237591 255 220 0
0.588284 0.052464 0.296435 255 220 0
0.577637 0.026505 0.226187 255 220 0
0.634342 0.054129 0.239453 255 220 0
0.558409 0.084125 0.254832 255 220 0
0.575554 0.036615 0.277115 255 220 0
0.611297 0.027709 0.270351 255 220 0
0.591043 0.097957 0.301640 255 220 0
0.605902 0.136237 0.279954 255 220 0
0.645595 0.145811 0.319452 255 220 0
0.621485 0.100608 0.317389 255 220 0
0.609400 0.116775 0.251080 255 220 0
0.661128 0.075960 0.294539 255 220 0
0.581715 0.051504 0.217823 255 220 0
0.629972 0.049347 0.237087 255 220 0
0.650211 0.171471 0.297581 255 220 0
0.656733 0.130490 0.319694 255 220 0
0.627772 0.101536 0.318824 255 220 0
0.634323 0.113729 0.320482 255 220 0
0.618530 0.148863 0.292627 255 220 0
0.568564 0.098427 0.274001 255 220 0
0.661337 0.165749 0.299206 255 220 0
0.596961 0.100164 0.237667 255 220 0
0.578147 0.019890 0.235397 255 220 0
0.593440 0.093367 0.304384 255 220 0
0.653271 0.118664 0.266301 255 220 0
0.565119 0.086270 0.240907 255 220 0
0.631374 0.102926 0.319449 255 220 0
0.642738 0.060680 0.246246 255 220 0
0.634502 0.134724 0.266916 255 220 0
0.660117 0.115955 0.270107 255 220 0
0.587219 0.119822 0.263615 255 220 0
0.590207 0.109372 0.246918 255 220 0
0.600258 0.086181 0.228568 255 220 0
0.663974 0.111302 0.312889 255 220 0
0.607398 0.022614 0.247314 255 220 0
0.583965 0.081081 0.226346 255 220 0
0.642528 0.046793 0.260445 255 220 0
0.649792 0.119051 0.264425 255 220 0
0.628972 0.042302 0.286098 255 220 0
0.588602 0.018657 0.237789 255 220 0
0.665596 0.082921 0.294702 255 220 0
0.669563 0.152133 0.300652 255 220 0
0.584789 0.076342 0.300055 255 220 0
0.621526 0.150845 0.299205 255 220 0
0.651077 0.095959 0.255376 255 220 0
0.638488 0.042726 0.272340 255 220 0
0.637833 0.152616 0.315093 255 220 0
0.587161 0.041140 0.288760 255 220 0
0.661544 0.086545 0.266227 255 220 0
0.654458 0.063733 0.288731 255 220 0
0.638498 0.070411 0.241151 255 220 0
0.644198 0.147530 0.276181 255 220 0
0.603118 0.085451 0.310449 255 220 0
0.617962 0.068794 0.310235 255 220 0
0.655503 0.168923 0.293388 255 220 0
0.596236 0.067041 0.219564 255 220 0
0.625184 0.048013 0.232923 255 220 0
0.643701 0.066197 0.246320 255 220 0
0.586243 0.108179 0.247252 255 220 0
0.598479 0.084953 0.308246 255 220 0
0.638113 0.063983 0.240977 255 220 0
0.619868 0.113584 0.316299 255 220 0
0.580718 0.085949 0.296074 255 220 0
0.664458 0.081749 0.295457 255 220 0
0.567869 0.078279 0.284242 255 220 0
0.621519 0.147941 0.303565 255 220 0
0.621644 0.096481 0.239464 255 220 0
0.558386 0.056726 0.267696 255 220 0
0.662533 0.080660 0.268585 255 220 0
0.609791 0.097586 0.236778 255 220 0
0.575681 0.033886 0.274751 255 220 0
0.569926 0.023914 0.255799 255 220 0
0.649718 0.098478 0.316656 255 220 0
0.555387 0.071536 0.246167 255 220 0
0.644541 0.091822 0.316145 255 220 0
0.566255 0.096707 0.269251 255 220 0
0.629837 0.037342 0.250134 255 220 0
0.623311 0.034282 0.244396 255 220 0
0.583535 0.070413 0.221496 255 220 0
0.560536 0.056635 0.271798 255 220 0
0.636523 0.041590 0.274180 255 220 0
0.582562 0.056241 0.294844 255 220 0
0.613386 0.055908 0.222973 255 220 0
0.560457 0.083354 0.245359 255 220 0
0.557120 0.046159 0.260083 255 220 0
0.614122 0.027892 0.242055 255 220 0
0.663794 0.098154 0.307124 255 220 0
0.559928 0.087404 0.260279 255 220 0
0.586364 0.117677 0.260239 255 220 0
0.658667 0.141932 0.280163 255 220 0
0.572918 0.102823 0.251728 255 220 0
0.574603 0.109069 0.264689 255 220 0
0.623226 0.031841 0.251193 255 220 0
0.569686 0.021970 0.238787 255 220 0
0.653880 0.145702 0.319110 255 220 0
0.644705 0.081991 0.311623 255 220 0
0.650998 0.092680 0.254592 255 220 0
0.621915 0.123868 0.315546 255 220 0
0.641890 0.076528 0.309719 255 220 0
0.621464 0.111964 0.248609 255 220 0
0.598872 0.127251 0.291758 255 220 0
0.576935 0.045124 0.219303 255 220 0
0.625683 0.032999 0.253869 255 220 0
0.618430 0.071079 0.227355 255 220 0
0.568824 0.090935 0.281242 255 220 0
0.646598 0.072182 0.248996 255 220 0
0.613036 0.127843 0.260980 255 220 0
0.583261 0.055663 0.217813 255 220 0
0.570273 0.066899 0.287731 255 220 0
0.629024 0.058871 0.302779 255 220 0
0.583898 0.095556 0.236215 255 220 0
0.592996 0.092364 0.304253 255 220 0
0.638733 0.069852 0.306742 255 220 0
0.656596 0.067117 0.290338 255 220 0
0.616682 0.032460 0.236823 255 220 0
0.622241 0.038279 0.236662 255 220 0
0.639384 0.044503 0.276310 255 220 0
0.571696 0.020335 0.248344 255 220 0
0.565117 0.074370 0.280998 255 220 0
0.567382 0.023110 0.249403 255 220 0
0.623375 0.106120 0.245374 255 220 0
0.617614 0.143248 0.277603 255 220 0
0.658827 0.154425 0.315426 255 220 0
0.595538 0.087644 0.306493 255 220 0
0.625450 0.112345 0.249835 255 220 0
0.580889 0.105988 0.247912 255 220 0
0.579438 0.097045 0.291876 255 220 0
0.628691 0.159618 0.299994 255 220 0
0.625206 0.145521 0.275398 255 220 0
0.651347 0.057217 0.264540 255 220 0
0.610660 0.031616 0.230738 255 220 0
0.637655 0.047249 0.247838 255 220 0
0.661521 0.119814 0.272975 255 220 0
0.650196 0.119732 0.320733 255 220 0
0.556577 0.049609 0.260966 255 220 0
0.572994 0.069107 0.290590 255 220 0
0.665074 0.091741 0.271488 255 220 0
0.655693 0.137089 0.319756 255 220 0
0.591200 0.070540 0.303379 255 220 0
0.637774 0.095979 0.246138 255 220 0
0.651373 0.133447 0.320867 255 220 0
0.642532 0.062826 0.245530 255 220 0
0.625058 0.114421 0.251084 255 220 0
0.602860 0.122114 0.256811 255 220 0
0.584911 0.115786 0.258423 255 220 0
0.664546 0.105257 0.309892 255 220 0
0.657647 0.117768 0.318334 255 220 0
0.582539 0.113247 0.284425 255 220 0
0.654373 0.169791 0.294280 255 220 0
0.582662 0.068698 0.298085 255 220 0
0.626423 0.104101 0.245238 255 220 0
0.597810 0.103121 0.239975 255 220 0
0.635119 0.147453 0.315881 255 220 0
0.561929 0.035157 0.260136 255 220 0
0.575038 0.031709 0.272031 255 220 0
0.561057 0.052140 0.228764 255 220 0
0.612604 0.127878 0.261069 255 220 0
0.603164 0.131983 0.271186 255 220 0
0.593430 0.020856 0.234009 255 220 0
0.638124 0.041664 0.263063 255 220 0
0.636773 0.161849 0.309230 255 220 0
0.557212 0.063777 0.266300 255 220 0
0.576200 0.020977 0.255919 255 220 0
0.602355 0.077646 0.309484 255 220 0
0.578950 0.094781 0.292167 255 220 0
0.654779 0.120516 0.319739 255 220 0
0.653105 0.158510 0.315347 255 220 0
0.561075 0.029252 0.242764 255 220 0
0.667499 0.129831 0.283677 255 220 0
0.554258 0.066978 0.255901 255 220 0
0.605421 0.038667 0.289981 255 220 0
0.626696 0.157914 0.297139 255 220 0
0.590640 0.109458 0.246864 255 220 0
0.649301 0.124224 0.266676 255 220 0
0.664116 0.115377 0.314144 255 220 0
0.619473 0.050278 0.299026 255 220 0
0.571331 0.030641 0.225689 255 220 0
0.589140 0.080429 0.302904 255 220 0
0.662194 0.149678 0.285277 255 220 0
0.626390 0.032809 0.261605 255 220 0
0.573722 0.068468 0.291203 255 220 0
0.613256 0.104635 0.314247 255 220 0
0.650549 0.142343 0.275893 255 220 0
0.603457 0.116674 0.251262 255 220 0
0.616719 0.071928 0.311377 255 220 0
0.645884 0.148664 0.318757 255 220 0
0.594489 0.125733 0.267350 255 220 0
0.625211 0.156219 0.292486 255 220 0
0.602217 0.124102 0.300019 255 220 0
0.598906 0.119363 0.299660 255 220 0
0.598056 0.129556 0.272782 255 220 0
0.605355 0.028485 0.275450 255 220 0
0.609069 0.082409 0.228488 255 220 0
0.649125 0.059812 0.255633 255 220 0
0.613151 0.120434 0.311136 255 220 0
0.638102 0.085553 0.242786 255 220 0
0.558582 0.073066 0.268724 255 220 0
0.598663 0.036812 0.220874 255 220 0
0.614862 0.098963 0.238740 255 220 0
0.644585 0.048505 0.272344 255 220 0
0.660161 0.075805 0.265861 255 220 0
0.562977 0.088679 0.246761 255 220 0
0.645408 0.054061 0.254072 255 220 0
0.673373 0.134992 0.300561 255 220 0
0.624524 0.153644 0.301328 255 220 0
0.622099 0.043595 0.232140 255 220 0
0.622987 0.057497 0.303564 255 220 0
0.611348 0.061117 0.306600 255 220 0
0.567250 0.041212 0.273045 255 220 0
0.651504 0.069761 0.254993 255 220 0
0.596269 0.126168 0.266124 255 220 0
0.584028 0.090418 0.297910 255 220 0
0.659040 0.162006 0.288437 255 220 0
0.665705 0.124773 0.279419 255 220 0
0.592904 0.018065 0.243215 255 220 0
0.603950 0.098704 0.236729 255 220 0
0.561731 0.036528 0.261254 255 220 0
0.630329 0.143159 0.272407 255 220 0
0.624301 0.122386 0.256632 255 220 0
0.662127 0.137932 0.317208 255 220 0
0.647073 0.052182 0.279215 255 220 0
0.592339 0.062219 0.218090 255 220 0
0.611034 0.137001 0.273312 255 220 0
0.644906 0.131723 0.321295 255 220 0
0.627024 0.039024 0.282221 255 220 0
0.600312 0.019661 0.246895 255 220 0
0.599261 0.050188 0.298666 255 220 0
0.621278 0.033939 0.241522 255 220 0
0.628624 0.096562 0.318372 255 220 0
0.567782 0.022250 0.245436 255 220 0
0.616434 0.143483 0.300506 255 220 0
0.653049 0.080495 0.255817 255 220 0
0.611570 0.065359 0.308520 255 220 0
0.595207 0.099834 0.237531 255 220 0
0.570205 0.103562 0.262134 255 220 0
0.664093 0.075993 0.274368 255 220 0
0.575943 0.045033 0.219601 255 220 0
0.647137 0.078670 0.249532 255 220 0
0.567725 0.095751 0.248561 255 220 0
0.557398 0.044822 0.235303 255 220 0
0.634666 0.085809 0.315978 255 220 0
0.649607 0.076666 0.252099 255 220 0
0.601007 0.090114 0.230904 255 220 0
0.571824 0.027255 0.263454 255 220 0
0.663968 0.080386 0.294911 255 220 0
0.654787 0.059350 0.274131 255 220 0
0.645874 0.155338 0.280315 255 220 0
0.630637 0.161025 0.302189 255 220 0
0.603941 0.034158 0.284854 255 220 0
0.627105 0.111558 0.249823 255 220 0
0.640093 0.103088 0.250802 255 220 0
0.641919 0.046220 0.274381 255 220 0
0.584180 0.098160 0.295946 255 220 0
0.623551 0.032873 0.248400 255 220 0
0.615469 0.050588 0.224599 255 220 0
0.566533 0.077058 0.232224 255 220 0
0.649108 0.059108 0.289274 255 220 0
0.661866 0.146014 0.316206 255 220 0
0.619483 0.149177 0.287017 255 220 0
0.572859 0.063832 0.289750 255 220 0
0.632997 0.069793 0.308712 255 220 0
0.555143 0.043602 0.244032 255 220 0
0.623287 0.039364 0.285634 255 220 0
0.574939 0.107062 0.277429 255 220 0
0.575872 0.050646 0.287166 255 220 0
0.616081 0.108974 0.245528 255 220 0
0.618965 0.148043 0.298211 255 220 0
0.668388 0.129384 0.313608 255 220 0
0.573736 0.064634 0.222506 255 220 0
0.621383 0.040762 0.233316 255 220 0
0.578796 0.083768 0.229344 255 220 0
0.580398 0.113658 0.279100 255 220 0
0.564081 0.083072 0.276994 255 220 0
0.563715 0.089763 0.271758 255 220 0
0.635684 0.077900 0.239535 255 220 0
0.668416 0.087974 0.279715 255 220 0
0.672855 0.130009 0.308460 255 220 0
0.661848 0.119229 0.273047 255 220 0
0.603980 0.024045 0.235392 255 220 0
0.664948 0.152895 0.312569 255 220 0
0.629181 0.036184 0.272433 255 220 0
0.631357 0.054081 0.298007 255 220 0
0.597728 0.035087 0.286108 255 220 0
0.583833 0.061653 0.297443 255 220 0
0.611949 0.092183 0.234102 255 220 0
0.625438 0.091473 0.317207 255 220 0
0.600545 0.027216 0.228146 255 220 0
0.611077 0.088525 0.231965 255 220 0
0.619569 0.042037 0.290988 255 220 0
0.642291 0.137951 0.320468 255 220 0
0.575050 0.018788 0.244744 255 220 0
0.621095 0.137947 0.310368 255 220 0
0.646105 0.066672 0.300060 255 220 0
0.597321 0.093674 0.232962 255 220 0
0.611205 0.024695 0.258667 255 220 0
0.638355 0.042145 0.269561 255 220 0
0.651054 0.118981 0.265126 255 220 0
0.573377 0.096181 0.285133 255 220 0
0.622974 0.138968 0.270151 255 220 0
0.653093 0.165872 0.309710 255 220 0
0.655897 0.153370 0.282756 255 220 0
0.564495 0.046441 0.225465 255 220 0
0.588026 0.038443 0.286968 255 220 0
0.622582 0.031811 0.249496 255 220 0
0.596557 0.026467 0.273513 255 220 0
0.630138 0.134911 0.317241 255 220 0
0.595702 0.103338 0.303665 255 220 0
0.561607 0.028604 0.247969 255 220 0
0.620661 0.049593 0.228428 255 220 0
0.653833 0.156530 0.316119 255 220 0
0.656992 0.161703 0.286683 255 220 0
0.645129 0.118174 0.261417 255 220 0
0.605464 0.060684 0.305616 255 220 0
0.666193 0.123962 0.279755 255 220 0
0.595215 0.019021 0.240331 255 220 0
0.573511 0.061523 0.289742 255 220 0
0.589777 0.052968 0.216853 255 220 0
0.593092 0.060692 0.217763 255 220 0
0.624381 0.054966 0.301391 255 220 0
0.554749 0.062595 0.259409 255 220 0
0.562592 0.052633 0.273829 255 220 0
0.641954 0.069548 0.304991 255 220 0
0.578256 0.068927 0.294945 255 220 0
0.585863 0.047460 0.292465 255 220 0
0.664179 0.095865 0.270093 255 220 0
0.622409 0.048667 0.296833 255 220 0
0.566697 0.045678 0.223789 255 220 0
0.615681 0.087625 0.314838 255 220 0
0.673483 0.135412 0.304318 255 220 0
0.594304 0.078255 0.223995 255 220 0
0.585293 0.117507 0.261274 255 220 0
0.641544 0.117356 0.259149 255 220 0
0.672209 0.136779 0.296104 255 220 0
0.564116 0.075369 0.233362 255 220 0
0.628500 0.045236 0.237982 255 220 0
0.635761 0.039695 0.260706 255 220 0
0.664547 0.102295 0.271303 255 220 0
0.579941 0.098600 0.240570 255 220 0
0.580572 0.097496 0.292843 255 220 0
0.667991 0.092738 0.298865 255 220 0
0.663798 0.096229 0.306095 255 220 0
0.573974 0.043867 0.220368 255 220 0
0.586851 0.019703 0.258028 255 220 0
0.581491 0.030706 0.275680 255 220 0
0.555053 0.051835 0.238429 255 220 0
0.607577 0.129867 0.301817 255 220 0
0.575903 0.108127 0.256798 255 220 0
0.643331 0.139938 0.320313 255 220 0
0.668902 0.133209 0.313293 255 220 0
0.661928 0.164929 0.301695 255 220 0
0.565325 0.093395 0.271886 255 220 0
0.632189 0.155624 0.309811 255 220 0
0.664670 0.117887 0.314427 255 220 0
0.644808 0.082003 0.311584 255 220 0
0.632402 0.051511 0.238561 255 220 0
0.582070 0.113244 0.283566 255 220 0
0.619862 0.036158 0.236028 255 220 0
0.568410 0.051987 0.222758 255 220 0
0.576837 0.019069 0.251040 255 220 0
0.674087 0.124047 0.301099 255 220 0
0.596196 0.079170 0.306914 255 220 0
0.638458 0.159118 0.282661 255 220 0
0.559045 0.084840 0.261534 255 220 0
0.657778 0.162850 0.310338 255 220 0
0.617040 0.130685 0.263300 255 220 0
0.587566 0.070794 0.301418 255 220 0
0.565466 0.067775 0.281873 255 220 0
0.655651 0.132484 0.274253 255 220 0
0.645366 0.049935 0.262431 255 220 0
0.564207 0.028950 0.255958 255 220 0
0.573164 0.081267 0.230304 255 220 0
0.642443 0.068033 0.244887 255 220 0
0.591023 0.047884 0.217003 255 220 0
0.564491 0.061533 0.226976 255 220 0
0.657965 0.110951 0.266225 255 220 0
0.555242 0.070975 0.246086 255 220 0
0.587038 0.089819 0.300415 255 220 0
0.652004 0.059559 0.285899 255 220 0
0.563979 0.033276 0.230068 255 220 0
0.565317 0.095157 0.252682 255 220 0
0.554061 0.064965 0.256000 255 220 0
0.645052 0.124587 0.321432 255 220 0
0.601104 0.080608 0.225812 255 220 0
0.593913 0.105957 0.242779 255 220 0
0.593313 0.080293 0.305420 255 220 0
0.584107 0.045325 0.290016 255 220 0
0.645545 0.090212 0.249470 255 220 0
0.652166 0.067196 0.256555 255 220 0
0.659225 0.145653 0.317470 255 220 0
0.561113 0.031269 0.253066 255 220 0
0.566241 0.068802 0.282985 255 220 0
0.582822 0.051936 0.293069 255 220 0
0.561049 0.063533 0.230712 255 220 0
0.605441 0.057825 0.304264 255 220 0
0.639776 0.097753 0.248059 255 220 0
0.659069 0.123973 0.272699 255 220 0
0.627171 0.071512 0.232515 255 220 0
0.623264 0.037250 0.239329 255 220 0
0.556790 0.037924 0.247163 255 220 0
0.623084 0.033775 0.245097 255 220 0
0.654560 0.073587 0.299323 255 220 0
0.590906 0.058116 0.299994 255 220 0
0.599525 0.122289 0.258031 255 220 0
0.605266 0.122372 0.256568 255 220 0
0.608660 0.064845 0.307915 255 220 0
0.659749 0.082943 0.263932 255 220 0
0.563389 0.072777 0.278430 255 220 0
0.629022 0.139627 0.315318 255 220 0
0.580048 0.041812 0.219060 255 220 0
0.575613 0.026949 0.226448 255 220 0
0.608222 0.104423 0.311647 255 220 0
0.657744 0.167822 0.294172 255 220 0
0.653673 0.098337 0.314730 255 220 0
0.573828 0.065807 0.290962 255 220 0
0.579432 0.091417 0.234534 255 220 0
0.589139 0.104825 0.242810 255 220 0
0.615564 0.073220 0.226770 255 220 0
0.610382 0.027328 0.270049 255 220 0
0.655066 0.102779 0.260734 255 220 0
0.595669 0.018465 0.249403 255 220 0
0.578867 0.102617 0.245426 255 220 0
0.649145 0.152931 0.279989 255 220 0
0.657453 0.166013 0.290618 255 220 0
0.603891 0.113166 0.306755 255 220 0
0.581189 0.026139 0.269103 255 220 0
0.589429 0.030509 0.279093 255 220 0
0.597938 0.027878 0.226379 255 220 0
0.630307 0.056289 0.300345 255 220 0
0.556244 0.060833 0.236449 255 220 0
0.591356 0.076898 0.304181 255 220 0
0.670442 0.091763 0.290480 255 220 0
0.620093 0.055804 0.303020 255 220 0
0.564125 0.070280 0.279827 255 220 0
0.672622 0.107460 0.290952 255 220 0
0.646228 0.076870 0.248580 255 220 0
0.624865 0.149179 0.306908 255 220 0
0.653086 0.125693 0.320559 255 220 0
0.569920 0.030115 0.265325 255 220 0
0.618325 0.143086 0.276690 255 220 0
0.672549 0.141308 0.305463 255 220 0
0.627505 0.037062 0.277549 255 220 0
0.619392 0.076989 0.313179 255 220 0
0.641261 0.165675 0.287488 255 220 0
0.563886 0.083449 0.239825 255 220 0
0.659891 0.077958 0.297870 255 220 0
0.610687 0.135707 0.300558 255 220 0
0.644350 0.136395 0.270372 255 220 0
0.641898 0.068140 0.244339 255 220 0
0.589893 0.094551 0.301597 255 220 0
0.572218 0.081361 0.230900 255 220 0
0.589192 0.017596 0.243178 255 220 0
0.653553 0.152332 0.317603 255 220 0
0.559869 0.075330 0.271150 255 220 0
0.640611 0.125351 0.262968 255 220 0
0.631688 0.127865 0.261836 255 220 0
0.629224 0.136016 0.267337 255 220 0
0.670115 0.092110 0.293184 255 220 0
0.643132 0.124968 0.263866 255 220 0
0.602951 0.128647 0.265097 255 220 0
0.638569 0.081120 0.242254 255 220 0
0.608871 0.055022 0.220812 255 220 0
0.557810 0.068929 0.237438 255 220 0
0.673982 0.128803 0.303629 255 220 0
0.632529 0.161316 0.288115 255 220 0
0.615365 0.058152 0.224027 255 220 0
0.626664 0.077915 0.313587 255 220 0
0.588752 0.043844 0.291512 255 220 0
0.606879 0.136895 0.279628 255 220 0
0.583272 0.091937 0.296927 255 220 0
0.603013 0.020626 0.247350 255 220 0
0.615830 0.103359 0.315478 255 220 0
0.641076 0.044523 0.266587 255 220 0
0.627182 0.158578 0.294121 255 220 0
0.605026 0.036758 0.223169 255 220 0
0.611813 0.128954 0.262286 255 220 0
0.627715 0.043177 0.288296 255 220 0
0.568198 0.022464 0.240433 255 220 0
0.670243 0.113215 0.283699 255 220 0
0.645318 0.169198 0.290538 255 220 0
0.621431 0.127052 0.260045 255 220 0
0.623382 0.038653 0.284447 255 220 0
0.565242 0.095011 0.268876 255 220 0
0.660510 0.161743 0.289694 255 220 0
0.634808 0.041289 0.251707 255 220 0
0.595909 0.127240 0.285156 255 220 0
0.662462 0.070367 0.278001 255 220 0
0.639374 0.098413 0.248134 255 220 0
0.621912 0.115344 0.251046 255 220 0
0.663331 0.074557 0.288896 255 220 0
0.657014 0.065521 0.266086 255 220 0
0.589869 0.117142 0.290912 255 220 0
0.612724 0.115378 0.250005 255 220 0
0.624863 0.155962 0.294366 255 220 0
0.564413 0.061653 0.279626 255 220 0
0.646961 0.168040 0.288705 255 220 0
0.609579 0.033985 0.227555 255 220 0
0.581598 0.022691 0.263055 255 220 0
0.598073 0.069764 0.306360 255 220 0
0.593342 0.084641 0.227372 255 220 0
0.602975 0.133940 0.279062 255 220 0
0.669960 0.103822 0.302899 255 220 0
0.596319 0.120088 0.256612 255 220 0
0.583333 0.045460 0.289606 255 220 0
0.578605 0.036841 0.279748 255 220 0
0.591734 0.067080 0.302976 255 220 0
0.624146 0.031468 0.261385 255 220 0
0.604842 0.135509 0.286083 255 220 0
0.580910 0.114321 0.279015 255 220 0
0.602620 0.101332 0.238520 255 220 0
0.610198 0.038096 0.225215 255 220 0
0.580646 0.032457 0.277083 255 220 0
0.651983 0.056365 0.276464 255 220 0
0.563266 0.043357 0.226974 255 220 0
0.568523 0.047237 0.278596 255 220 0
0.635357 0.166944 0.297967 255 220 0
0.638947 0.164037 0.309054 255 220 0
0.592900 0.021916 0.264100 255 220 0
0.629180 0.160751 0.294103 255 220 0
0.594194 0.027537 0.275469 255 220 0
0.579783 0.099009 0.241058 255 220 0
0.629576 0.087660 0.238368 255 220 0
0.589136 0.059249 0.299610 255 220 0
0.586009 0.108699 0.293095 255 220 0
0.598660 0.021764 0.262142 255 220 0
0.583494 0.033497 0.279938 255 220 0
0.579058 0.066356 0.295192 255 220 0
0.603872 0.026625 0.272100 255 220 0
0.673180 0.109670 0.297169 255 220 0
0.651086 0.132801 0.271688 255 220 0
0.657832 0.071191 0.293649 255 220 0
0.613975 0.120495 0.254288 255 220 0
0.635146 0.162240 0.307394 255 220 0
0.584324 0.087858 0.230382 255 220 0
0.576821 0.101355 0.245548 255 220 0
0.639162 0.112768 0.320852 255 220 0
0.668445 0.134276 0.286660 255 220 0
0.639989 0.050841 0.247882 255 220 0
0.648438 0.100930 0.317870 255 220 0
0.617284 0.131622 0.310158 255 220 0
0.574554 0.100415 0.284172 255 220 0
0.603108 0.128468 0.297220 255 220 0
0.584022 0.112032 0.288140 255 220 0
0.669726 0.120465 0.284366 255 220 0
0.636735 0.096344 0.318674 255 220 0
0.588188 0.089039 0.301406 255 220 0
0.633133 0.052738 0.295819 255 220 0
0.600855 0.130153 0.269740 255 220 0
0.626461 0.072984 0.232290 255 220 0
0.565790 0.050247 0.224402 255 220 0
0.558597 0.070390 0.237067 255 220 0
0.626858 0.047524 0.234814 255 220 0
0.672981 0.107748 0.294140 255 220 0
0.625334 0.045266 0.292233 255 220 0
0.653158 0.100022 0.315642 255 220 0
0.659546 0.095262 0.309328 255 220 0
0.569078 0.053469 0.282587 255 220 0
0.650451 0.082834 0.253038 255 220 0
0.554915 0.043996 0.249379 255 220 0
0.561408 0.038511 0.262630 255 220 0
0.672722 0.123150 0.292477 255 220 0
0.624214 0.152154 0.284136 255 220 0
0.584843 0.119777 0.271661 255 220 0
0.671052 0.095231 0.287297 255 220 0
0.663392 0.072944 0.285479 255 220 0
0.570316 0.088059 0.237303 255 220 0
0.604098 0.086891 0.229510 255 220 0
0.601760 0.083219 0.309765 255 220 0
0.624633 0.116519 0.252416 255 220 0
0.561375 0.028877 0.242330 255 220 0
0.662020 0.077358 0.294753 255 220 0
0.621013 0.121771 0.315503 255 220 0
0.658315 0.074888 0.263190 255 220 0
0.579797 0.056416 0.292982 255 220 0
0.615989 0.143480 0.299659 255 220 0
0.664463 0.100861 0.307841 255 220 0
0.638087 0.089061 0.243733 255 220 0
0.561545 0.067522 0.231742 255 220 0
0.574398 0.066374 0.222780 255 220 0
0.606060 0.132851 0.296584 255 220 0
0.652811 0.061657 0.261082 255 220 0
0.557882 0.036615 0.240647 255 220 0
0.645064 0.060719 0.295248 255 220 0
0.617629 0.100318 0.316227 255 220 0
0.667336 0.111704 0.277719 255 220 0
0.649074 0.136093 0.320951 255 220 0
0.673074 0.125812 0.307421 255 220 0
0.638903 0.042678 0.260727 255 220 0
0.669779 0.108779 0.305964 255 220 0
0.664422 0.087570 0.270683 255 220 0
0.619459 0.147182 0.300917 255 220 0
0.619243 0.138777 0.270998 255 220 0
0.599442 0.130874 0.274767 255 220 0
0.671424 0.131954 0.310830 255 220 0
0.596016 0.128685 0.278165 255 220 0
0.605862 0.043176 0.221063 255 220 0
0.630576 0.162332 0.295113 255 220 0
0.637949 0.064494 0.240780 255 220 0
0.671588 0.146002 0.304158 255 220 0
0.564162 0.060512 0.279001 255 220 0
0.670327 0.095351 0.283409 255 220 0
0.567234 0.039485 0.224373 255 220 0
0.652241 0.082840 0.307863 255 220 0
0.638989 0.058285 0.242843 255 220 0
0.583640 0.047936 0.291390 255 220 0
0.618461 0.040796 0.289907 255 220 0
0.566466 0.097512 0.255229 255 220 0
0.663777 0.121383 0.315755 255 220 0
0.571177 0.028930 0.226986 255 220 0
0.638555 0.132479 0.320521 255 220 0
0.620220 0.143469 0.275789 255 220 0
0.625540 0.042341 0.288545 255 220 0
0.595391 0.097240 0.235532 255 220 0
0.569773 0.080039 0.286298 255 220 0
0.579516 0.088220 0.294546 255 220 0
0.553346 0.053504 0.252073 255 220 0
0.666492 0.100015 0.274203 255 220 0
0.558114 0.061795 0.233731 255 220 0
0.651032 0.167681 0.308304 255 220 0
0.607673 0.024393 0.239638 255 220 0
0.584245 0.063324 0.298116 255 220 0
0.590329 0.048884 0.295376 255 220 0
0.569014 0.040870 0.274651 255 220 0
0.565813 0.097556 0.261091 255 220 0
0.560301 0.037905 0.232817 255 220 0
0.635058 0.103638 0.319827 255 220 0
0.649973 0.158159 0.315735 255 220 0
0.640740 0.054405 0.246437 255 220 0
0.626494 0.036956 0.244722 255 220 0
0.618578 0.102797 0.316532 255 220 0
0.577409 0.053396 0.219017 255 220 0
0.570839 0.046520 0.221409 255 220 0
0.647495 0.151374 0.318118 255 220 0
0.668353 0.085309 0.281468 255 220 0
0.581725 0.072505 0.222708 255 220 0
0.640846 0.147399 0.275469 255 220 0
0.569150 0.100593 0.271883 255 220 0
0.601704 0.098059 0.308836 255 220 0
0.593165 0.047498 0.295458 255 220 0
0.582319 0.052949 0.293233 255 220 0
0.654353 0.070087 0.296277 255 220 0
0.673440 0.112383 0.295569 255 220 0
0.643349 0.050502 0.254272 255 220 0
0.627596 0.048094 0.235273 255 220 0
0.579110 0.076127 0.225025 255 220 0
0.562871 0.036864 0.263486 255 220 0
0.655547 0.083148 0.258603 255 220 0
0.574055 0.063177 0.221945 255 220 0
0.669655 0.136496 0.289531 255 220 0
0.601381 0.025443 0.270432 255 220 0
0.659696 0.101586 0.264967 255 220 0
0.657308 0.155694 0.284266 255 220 0
0.666165 0.151447 0.289861 255 220 0
0.577717 0.111464 0.261076 255 220 0
0.634521 0.046660 0.287715 255 220 0
0.604302 0.021115 0.249781 255 220 0
0.598313 0.066445 0.305603 255 220 0
0.652474 0.154301 0.317129 255 220 0
0.582081 0.027631 0.271989 255 220 0
0.565677 0.083638 0.279546 255 220 0
0.642826 0.075552 0.245270 255 220 0
0.650455 0.152143 0.317949 255 220 0
0.623649 0.048247 0.296024 255 220 0
0.557440 0.036858 0.249647 255 220 0
0.601153 0.019976 0.250283 255 220 0
0.635352 0.077912 0.239285 255 220 0
0.670811 0.094925 0.293665 255 220 0
0.568079 0.026121 0.232756 255 220 0
0.585794 0.079773 0.225322 255 220 0
0.637119 0.167934 0.300727 255 220 0
0.568549 0.026021 0.257867 255 220 0
0.643277 0.062069 0.246505 255 220 0
0.671155 0.144585 0.297495 255 220 0
0.673780 0.128012 0.298786 255 220 0
0.570739 0.035309 0.271685 255 220 0
0.664781 0.127512 0.279372 255 220 0
0.587816 0.026503 0.225393 255 220 0
0.620936 0.044175 0.292895 255 220 0
0.641210 0.118560 0.321236 255 220 0
0.649674 0.071221 0.252522 255 220 0
0.620361 0.058758 0.227047 255 220 0
0.628371 0.071043 0.310380 255 220 0
0.589113 0.097372 0.300295 255 220 0
0.668351 0.099733 0.302875 255 220 0
0.611327 0.029402 0.274546 255 220 0
0.667065 0.154226 0.293232 255 220 0
0.580588 0.092544 0.294427 255 220 0
0.557046 0.080299 0.256330 255 220 0
0.614562 0.096385 0.315172 255 220 0
0.650967 0.124387 0.320922 255 220 0
0.608793 0.040352 0.291518 255 220 0
0.610743 0.055198 0.221657 255 220 0
0.626345 0.105103 0.245763 255 220 0
0.664790 0.151471 0.288221 255 220 0
0.646193 0.125562 0.321419 255 220 0
0.611029 0.028695 0.235163 255 220 0
0.665458 0.103171 0.272849 255 220 0
0.640188 0.084216 0.314331 255 220 0
0.622788 0.151537 0.301032 255 220 0
0.616660 0.146434 0.286640 255 220 0
0.581848 0.112835 0.256813 255 220 0
0.670179 0.092512 0.284061 255 220 0
0.565109 0.085664 0.277691 255 220 0
0.600618 0.131410 0.273802 255 220 0
0.669031 0.131309 0.313193 255 220 0
0.667542 0.149412 0.290931 255 220 0
0.585007 0.020073 0.258608 255 220 0
0.663516 0.143567 0.284275 255 220 0
0.584066 0.061277 0.297480 255 220 0
0.557868 0.035412 0.243851 255 220 0
0.570560 0.099400 0.277786 255 220 0
0.618780 0.147481 0.283953 255 220 0
0.627496 0.155586 0.304267 255 220 0
0.642143 0.168329 0.290384 255 220 0
0.575611 0.019903 0.252620 255 220 0
0.656105 0.081667 0.304251 255 220 0
0.634537 0.065538 0.237702 255 220 0
0.576972 0.019717 0.236542 255 220 0
0.629162 0.094859 0.241556 255 220 0
0.605821 0.025979 0.269654 255 220 0
0.637526 0.099319 0.319233 255 220 0
0.631132 0.087448 0.316659 255 220 0
0.668918 0.135026 0.287678 255 220 0
0.649976 0.054189 0.270903 255 220 0
0.583071 0.036797 0.219896 255 220 0
0.648474 0.119222 0.320946 255 220 0
0.589432 0.113195 0.293779 255 220 0
0.584775 0.072941 0.299911 255 220 0
0.617078 0.096756 0.238074 255 220 0
0.576719 0.096135 0.289323 255 220 0
0.558011 0.080258 0.263308 255 220 0
0.603465 0.129107 0.265493 255 220 0
0.584556 0.074154 0.299837 255 220 0
0.562682 0.062270 0.276963 255 220 0
0.631065 0.061411 0.234965 255 220 0
0.606541 0.124884 0.258975 255 220 0
0.562104 0.056822 0.274618 255 220 0
0.585972 0.028044 0.274490 255 220 0
0.629615 0.090423 0.317356 255 220 0
0.581404 0.043037 0.286588 255 220 0
0.569103 0.064534 0.286193 255 220 0
0.619215 0.040390 0.231261 255 220 0
0.588374 0.075528 0.222913 255 220 0
0.599995 0.046124 0.218458 255 220 0
0.616655 0.067758 0.309801 255 220 0
0.659041 0.161793 0.288293 255 220 0
0.577093 0.054449 0.219205 255 220 0
0.670673 0.116691 0.308482 255 220 0
0.613633 0.143519 0.292491 255 220 0
0.641738 0.061944 0.244848 255 220 0
0.635685 0.048813 0.289627 255 220 0
0.605165 0.039464 0.290797 255 220 0
0.593312 0.037773 0.288139 255 220 0
0.627319 0.033399 0.259966 255 220 0
0.594936 0.103451 0.240483 255 220 0
0.671661 0.130003 0.291630 255 220 0
0.602393 0.120224 0.254884 255 220 0
0.600004 0.020513 0.256702 255 220 0
0.619983 0.078906 0.230641 255 220 0
0.635477 0.049276 0.290397 255 220 0
0.586660 0.028556 0.275506 255 220 0
0.630456 0.038689 0.277567 255 220 0
0.661871 0.076236 0.268815 255 220 0
0.609037 0.068440 0.222828 255 220 0
0.614917 0.120354 0.312298 255 220 0
0.600838 0.048505 0.297857 255 220 0
0.601322 0.099195 0.308413 255 220 0
0.564720 0.035498 0.227870 255 220 0
0.576594 0.087660 0.232940 255 220 0
0.594600 0.126414 0.269047 255 220 0
0.584152 0.059828 0.297108 255 220 0
0.564080 0.066760 0.279770 255 220 0
0.643067 0.076290 0.309037 255 220 0
0.613655 0.032834 0.232448 255 220 0
0.595725 0.066427 0.304586 255 220 0
0.597170 0.071672 0.306398 255 220 0
0.617762 0.032564 0.238250 255 220 0
0.625234 0.113368 0.318370 255 220 0
0.624313 0.032973 0.249906 255 220 0
0.672816 0.119013 0.305741 255 220 0
0.567124 0.066067 0.226483 255 220 0
0.649034 0.065253 0.296403 255 220 0
0.629768 0.046393 0.291069 255 220 0
0.558595 0.041409 0.259718 255 220 0
0.659019 0.162956 0.289130 255 220 0
0.611111 0.126311 0.307448 255 220 0
0.575348 0.074586 0.292742 255 220 0
0.554097 0.062811 0.242668 255 220 0
0.609334 0.033068 0.282220 255 220 0
0.647555 0.082117 0.310283 255 220 0
0.562369 0.032028 0.233579 255 220 0
0.615253 0.139805 0.274411 255 220 0
0.642489 0.066104 0.245061 255 220 0
0.560286 0.084498 0.247151 255 220 0
0.555367 0.042284 0.245503 255 220 0
0.657211 0.159970 0.285926 255 220 0
0.664549 0.075956 0.287889 255 220 0
0.556444 0.058318 0.263816 255 220 0
0.588282 0.075953 0.223116 255 220 0
0.593869 0.054661 0.216981 255 220 0
0.642451 0.125722 0.263944 255 220 0
0.668518 0.093112 0.278386 255 220 0
0.648796 0.097839 0.254063 255 220 0
0.641339 0.077516 0.244069 255 220 0
0.656670 0.163987 0.287969 255 220 0
0.646523 0.107521 0.256654 255 220 0
0.651103 0.159713 0.283211 255 220 0
0.667286 0.096598 0.275477 255 220 0
0.637762 0.065420 0.240543 255 220 0
0.666468 0.133217 0.283553 255 220 0
0.652312 0.097875 0.256932 255 220 0
0.643642 0.163086 0.284665 255 220 0
