ply
format ascii 1.0
element vertex 1024
property float x
property float y
property float z
property uchar red
property uchar green
property uchar blue
end_header
0.174532 0.122423 0.100883 255 220 0
0.129052 0.080820 0.071580 255 220 0
0.205387 0.117638 0.041783 255 220 0
0.199348 0.070675 0.067566 255 220 0
0.174700 0.127360 0.026455 255 220 0
0.133592 0.088763 0.029087 255 220 0
0.184602 0.117106 0.095430 255 220 0
0.135720 0.183569 0.104060 255 220 0
0.195919 0.151792 0.070658 255 220 0
0.163725 0.100155 0.014769 255 220 0
0.197931 0.070828 0.069639 255 220 0
0.194225 0.066906 0.015482 255 220 0
0.146379 0.105394 0.022651 255 220 0
0.190475 0.113189 0.091042 255 220 0
0.208860 0.112170 0.058890 255 220 0
0.120334 0.105147 0.078496 255 220 0
0.159669 0.045366 0.031826 255 220 0
0.165161 0.154865 0.103864 255 220 0
0.124576 0.111332 0.086606 255 220 0
0.193485 0.095182 0.085675 255 220 0
0.199514 0.090426 0.077937 255 220 0
0.190913 0.116845 0.090694 255 220 0
0.132728 0.068178 0.060843 255 220 0
0.175813 0.046764 0.020707 255 220 0
0.133421 0.093122 0.029339 255 220 0
0.137498 0.089086 0.025489 255 220 0
0.126015 0.179646 0.063163 255 220 0
0.196415 0.113628 0.027673 255 220 0
0.176212 0.062008 0.012088 255 220 0
0.103535 0.181351 0.074030 255 220 0
0.202132 0.126072 0.042777 255 220 0
0.138691 0.198651 0.090086 255 220 0
0.179716 0.160606 0.052823 255 220 0
0.103252 0.185644 0.075286 255 220 0
0.155084 0.127385 0.104702 255 220 0
0.207306 0.067363 0.036527 255 220 0
0.139745 0.145680 0.042220 255 220 0
0.177421 0.086576 0.091357 255 220 0
0.140235 0.197742 0.091868 255 220 0
0.179693 0.163548 0.056057 255 220 0
0.117002 0.132147 0.054577 255 220 0
0.152875 0.192345 0.083724 255 220 0
0.197107 0.115757 0.029350 255 220 0
0.193216 0.108523 0.022779 255 220 0
0.115120 0.173030 0.101546 255 220 0
0.145534 0.137943 0.036218 255 220 0
0.192971 0.091591 0.084909 255 220 0
0.202813 0.115958 0.035734 255 220 0
0.165498 0.106346 0.100064 255 220 0
0.175708 0.043027 0.025876 255 220 0
0.183954 0.139138 0.036978 255 220 0
0.153254 0.182793 0.099371 255 220 0
0.181331 0.102231 0.095239 255 220 0
0.153505 0.120145 0.103106 255 220 0
0.185632 0.093841 0.090637 255 220 0
0.124880 0.099447 0.081033 255 220 0
0.207981 0.097337 0.037399 255 220 0
0.183583 0.049485 0.059671 255 220 0
0.127542 0.106447 0.036762 255 220 0
0.136212 0.072700 0.029738 255 220 0
0.175806 0.156539 0.046878 255 220 0
0.175690 0.051506 0.064630 255 220 0
0.128244 0.181121 0.104983 255 220 0
0.205872 0.095306 0.069278 255 220 0
0.204183 0.077944 0.024084 255 220 0
0.133437 0.200039 0.086780 255 220 0
0.166581 0.074134 0.086055 255 220 0
0.142094 0.154318 0.045976 255 220 0
0.206172 0.119131 0.067389 255 220 0
0.177984 0.155714 0.047187 255 220 0
0.209242 0.106762 0.046182 255 220 0
0.129015 0.161891 0.054177 255 220 0
0.169516 0.165702 0.052583 255 220 0
0.152920 0.186616 0.070634 255 220 0
0.192891 0.104035 0.088205 255 220 0
0.134700 0.185621 0.065646 255 220 0
0.180276 0.061421 0.073671 255 220 0
0.196919 0.111712 0.084912 255 220 0
0.187495 0.142156 0.041109 255 220 0
0.131687 0.129736 0.098814 255 220 0
0.120216 0.162393 0.102447 255 220 0
0.135198 0.095050 0.087046 255 220 0
0.182541 0.102884 0.015572 255 220 0
0.191133 0.134798 0.088421 255 220 0
0.112409 0.127413 0.066618 255 220 0
0.164213 0.132584 0.028796 255 220 0
0.161969 0.044163 0.032550 255 220 0
0.161773 0.186993 0.085109 255 220 0
0.175663 0.134545 0.100927 255 220 0
0.155138 0.153132 0.106742 255 220 0
0.202199 0.131404 0.049051 255 220 0
0.113039 0.136446 0.062606 255 220 0
0.194785 0.061998 0.065691 255 220 0
0.146020 0.150872 0.042971 255 220 0
0.182795 0.054772 0.066288 255 220 0
0.143025 0.074879 0.022209 255 220 0
0.186180 0.103349 0.016903 255 220 0
0.208234 0.074384 0.049187 255 220 0
0.136298 0.152395 0.046900 255 220 0
0.208720 0.103043 0.062715 255 220 0
0.198621 0.095991 0.080787 255 220 0
0.173119 0.041038 0.045723 255 220 0
0.187722 0.090336 0.012837 255 220 0
0.200666 0.066136 0.061490 255 220 0
0.193257 0.095865 0.017122 255 220 0
0.129323 0.137666 0.044642 255 220 0
0.194854 0.074141 0.014664 255 220 0
0.206568 0.121950 0.062482 255 220 0
0.168798 0.103967 0.015046 255 220 0
0.205129 0.114439 0.072052 255 220 0
0.133732 0.064283 0.054279 255 220 0
0.200448 0.097204 0.023878 255 220 0
0.165437 0.106777 0.100184 255 220 0
0.161072 0.078551 0.088477 255 220 0
0.163124 0.105563 0.016869 255 220 0
0.168753 0.102982 0.098820 255 220 0
0.186742 0.072120 0.011174 255 220 0
0.127372 0.114989 0.090488 255 220 0
0.172176 0.122487 0.023392 255 220 0
0.125468 0.095689 0.079366 255 220 0
0.114851 0.107586 0.062898 255 220 0
0.181175 0.052495 0.064361 255 220 0
0.140503 0.160669 0.049879 255 220 0
0.189529 0.139403 0.089035 255 220 0
0.140657 0.125547 0.032907 255 220 0
0.161743 0.095992 0.013944 255 220 0
0.200848 0.134047 0.048530 255 220 0
0.131440 0.160171 0.052420 255 220 0
0.131495 0.198917 0.094157 255 220 0
0.178410 0.115289 0.098685 255 220 0
0.198711 0.075013 0.071513 255 220 0
0.159035 0.110112 0.101087 255 220 0
0.141175 0.177099 0.105528 255 220 0
0.175644 0.040213 0.042543 255 220 0
0.200548 0.138800 0.053314 255 220 0
0.156869 0.051940 0.061351 255 220 0
0.102061 0.180690 0.091413 255 220 0
0.157273 0.128267 0.104852 255 220 0
0.172428 0.128667 0.102117 255 220 0
0.147262 0.050682 0.038773 255 220 0
0.210050 0.098267 0.054801 255 220 0
0.143584 0.076331 0.021464 255 220 0
0.146641 0.143244 0.106574 255 220 0
0.193488 0.142702 0.045973 255 220 0
0.121272 0.113721 0.045077 255 220 0
0.152685 0.064137 0.075181 255 220 0
0.161662 0.042881 0.042074 255 220 0
0.200008 0.060336 0.023429 255 220 0
0.201112 0.083195 0.020279 255 220 0
0.118099 0.152335 0.057891 255 220 0
0.183718 0.164857 0.061799 255 220 0
0.109376 0.174619 0.098128 255 220 0
0.144037 0.053594 0.038683 255 220 0
0.180181 0.067230 0.078727 255 220 0
0.163713 0.143716 0.035297 255 220 0
0.184359 0.046737 0.055395 255 220 0
0.198629 0.092576 0.079754 255 220 0
0.143907 0.107836 0.096832 255 220 0
0.146486 0.053012 0.053255 255 220 0
0.109838 0.151350 0.087307 255 220 0
0.123258 0.177273 0.062705 255 220 0
0.109115 0.154700 0.069017 255 220 0
0.203003 0.118584 0.075564 255 220 0
0.210203 0.094430 0.049148 255 220 0
0.186882 0.067456 0.076360 255 220 0
0.121435 0.173074 0.061595 255 220 0
0.174530 0.046926 0.020699 255 220 0
0.171748 0.177692 0.085562 255 220 0
0.163267 0.171614 0.099344 255 220 0
0.161744 0.103119 0.016327 255 220 0
0.149257 0.176136 0.104092 255 220 0
0.185253 0.117961 0.095027 255 220 0
0.193272 0.121641 0.029841 255 220 0
0.144918 0.111750 0.025467 255 220 0
0.109787 0.197893 0.082182 255 220 0
0.153745 0.111419 0.021713 255 220 0
0.154465 0.150244 0.040516 255 220 0
0.204002 0.058201 0.036891 255 220 0
0.133001 0.144754 0.045049 255 220 0
0.116737 0.138851 0.056453 255 220 0
0.109622 0.192594 0.094833 255 220 0
0.210082 0.089789 0.048289 255 220 0
0.114831 0.144415 0.060091 255 220 0
0.183027 0.105726 0.095156 255 220 0
0.152699 0.084341 0.015381 255 220 0
0.170278 0.097065 0.012461 255 220 0
0.208480 0.089693 0.059871 255 220 0
0.145470 0.081936 0.085679 255 220 0
0.130560 0.141906 0.045401 255 220 0
0.203892 0.058008 0.040832 255 220 0
0.202509 0.101833 0.028435 255 220 0
0.193007 0.050106 0.053143 255 220 0
0.156153 0.088457 0.014199 255 220 0
0.203499 0.075185 0.063795 255 220 0
0.188735 0.137625 0.090401 255 220 0
0.133652 0.154807 0.105994 255 220 0
0.200311 0.083233 0.019364 255 220 0
0.114967 0.116322 0.056587 255 220 0
0.134488 0.167480 0.054948 255 220 0
0.201691 0.139077 0.066264 255 220 0
0.180698 0.120788 0.097924 255 220 0
0.207070 0.101005 0.067722 255 220 0
0.123003 0.086682 0.066848 255 220 0
0.190957 0.116260 0.090661 255 220 0
0.153921 0.097142 0.096017 255 220 0
0.160661 0.128617 0.027320 255 220 0
0.152193 0.144866 0.037912 255 220 0
0.206929 0.085488 0.030965 255 220 0
0.207014 0.073597 0.030728 255 220 0
0.158427 0.048516 0.056712 255 220 0
0.110746 0.144285 0.083208 255 220 0
0.187193 0.141050 0.040062 255 220 0
0.205743 0.068693 0.028975 255 220 0
0.176239 0.080141 0.088724 255 220 0
0.189564 0.051123 0.020150 255 220 0
0.194387 0.115044 0.026889 255 220 0
0.131679 0.066052 0.050756 255 220 0
0.182612 0.059380 0.070980 255 220 0
0.207633 0.085082 0.060215 255 220 0
0.138436 0.105672 0.093556 255 220 0
0.111368 0.135390 0.070304 255 220 0
0.124900 0.178253 0.105044 255 220 0
0.152070 0.134777 0.105752 255 220 0
0.128365 0.125873 0.041231 255 220 0
0.191775 0.154422 0.078572 255 220 0
0.169431 0.066254 0.011363 255 220 0
0.196242 0.108665 0.025036 255 220 0
0.103703 0.192846 0.082775 255 220 0
0.143710 0.180250 0.104032 255 220 0
0.154454 0.140799 0.106465 255 220 0
0.147210 0.152676 0.107364 255 220 0
0.107370 0.153805 0.081457 255 220 0
0.125367 0.083810 0.068642 255 220 0
0.114260 0.199746 0.083133 255 220 0
0.135873 0.105564 0.029323 255 220 0
0.196069 0.049179 0.029247 255 220 0
0.143755 0.105724 0.096014 255 220 0
0.149272 0.166119 0.051381 255 220 0
0.132359 0.071529 0.036159 255 220 0
0.155065 0.144656 0.106678 255 220 0
0.193237 0.126209 0.032683 255 220 0
0.126095 0.157998 0.054110 255 220 0
0.155220 0.171045 0.054389 255 220 0
0.115454 0.109510 0.056197 255 220 0
0.125063 0.105239 0.039274 255 220 0
0.149123 0.100550 0.019917 255 220 0
0.163554 0.176271 0.096461 255 220 0
0.208837 0.076916 0.037771 255 220 0
0.145365 0.083752 0.019559 255 220 0
0.205971 0.120517 0.046823 255 220 0
0.147111 0.163128 0.049911 255 220 0
0.204596 0.109128 0.073849 255 220 0
0.202442 0.057810 0.030439 255 220 0
0.187956 0.161752 0.078224 255 220 0
0.130219 0.200201 0.083646 255 220 0
0.154002 0.089370 0.092702 255 220 0
0.107500 0.158021 0.087652 255 220 0
0.167270 0.151852 0.040788 255 220 0
0.208165 0.116184 0.059101 255 220 0
0.114916 0.174521 0.101589 255 220 0
0.185077 0.072781 0.081232 255 220 0
0.181218 0.157257 0.050389 255 220 0
0.198758 0.142016 0.073565 255 220 0
0.182414 0.126896 0.028096 255 220 0
0.120300 0.173640 0.062209 255 220 0
0.155746 0.110722 0.100947 255 220 0
0.177522 0.115203 0.099062 255 220 0
0.108296 0.195725 0.078011 255 220 0
0.163232 0.086671 0.011438 255 220 0
0.194798 0.103464 0.021442 255 220 0
0.188931 0.129792 0.032644 255 220 0
0.124156 0.101262 0.040056 255 220 0
0.153761 0.106260 0.099285 255 220 0
0.187790 0.123348 0.027970 255 220 0
0.139955 0.139734 0.104846 255 220 0
0.143433 0.090249 0.089203 255 220 0
0.188452 0.160262 0.079103 255 220 0
0.143071 0.074194 0.078908 255 220 0
0.110259 0.156999 0.091987 255 220 0
0.151374 0.125179 0.028314 255 220 0
0.156152 0.053665 0.063555 255 220 0
0.186943 0.155413 0.052624 255 220 0
0.144403 0.115250 0.026988 255 220 0
0.184909 0.057898 0.068619 255 220 0
0.189654 0.046107 0.050446 255 220 0
0.167838 0.157975 0.101826 255 220 0
0.140620 0.056328 0.042496 255 220 0
0.171022 0.150151 0.101910 255 220 0
0.125452 0.080496 0.064185 255 220 0
0.207317 0.103860 0.038021 255 220 0
0.206422 0.096148 0.033062 255 220 0
0.154134 0.077595 0.014795 255 220 0
0.157523 0.055876 0.067387 255 220 0
0.208282 0.114106 0.061152 255 220 0
0.170045 0.076933 0.087789 255 220 0
0.181559 0.096246 0.012889 255 220 0
0.132831 0.066500 0.041112 255 220 0
0.164265 0.046564 0.056141 255 220 0
0.207290 0.084819 0.031781 255 220 0
0.174546 0.169004 0.090761 255 220 0
0.129891 0.069530 0.055993 255 220 0
0.116704 0.107372 0.052941 255 220 0
0.132533 0.183715 0.064529 255 220 0
0.122463 0.087554 0.046017 255 220 0
0.118603 0.093392 0.058699 255 220 0
0.208878 0.095531 0.039826 255 220 0
0.190271 0.043256 0.033572 255 220 0
0.129072 0.185305 0.103766 255 220 0
0.179378 0.144954 0.097403 255 220 0
0.170032 0.150075 0.040021 255 220 0
0.132004 0.146542 0.103859 255 220 0
0.182618 0.139622 0.095834 255 220 0
0.138366 0.133631 0.037412 255 220 0
0.116346 0.126023 0.082833 255 220 0
0.172684 0.059106 0.013379 255 220 0
0.209238 0.098487 0.042205 255 220 0
0.171140 0.108574 0.016662 255 220 0
0.132399 0.081019 0.075811 255 220 0
0.185322 0.135531 0.034972 255 220 0
0.121116 0.135490 0.050648 255 220 0
0.166587 0.069655 0.011175 255 220 0
0.154326 0.070946 0.082109 255 220 0
0.191183 0.119063 0.090407 255 220 0
0.133328 0.091872 0.029364 255 220 0
0.144398 0.104829 0.095934 255 220 0
0.186681 0.133285 0.093238 255 220 0
0.196970 0.145701 0.074917 255 220 0
0.204302 0.088783 0.026290 255 220 0
0.201994 0.096453 0.025496 255 220 0
0.207289 0.118231 0.062943 255 220 0
0.193217 0.045117 0.042841 255 220 0
0.144920 0.069557 0.075999 255 220 0
0.188735 0.042885 0.044380 255 220 0
0.144199 0.132051 0.033984 255 220 0
0.110948 0.148740 0.066636 255 220 0
0.123746 0.193546 0.099540 255 220 0
0.149875 0.104892 0.097874 255 220 0
0.140075 0.137377 0.038177 255 220 0
0.123445 0.095623 0.041320 255 220 0
0.132942 0.094255 0.085170 255 220 0
0.103478 0.168639 0.087619 255 220 0
0.112607 0.156196 0.063584 255 220 0
0.201519 0.133708 0.049886 255 220 0
0.201715 0.082573 0.020926 255 220 0
0.202462 0.115302 0.034849 255 220 0
0.152727 0.174459 0.057077 255 220 0
0.149867 0.169366 0.105810 255 220 0
0.161054 0.047900 0.057078 255 220 0
0.153916 0.074671 0.084640 255 220 0
0.178751 0.163403 0.055213 255 220 0
0.137476 0.182645 0.104207 255 220 0
0.162390 0.092334 0.095282 255 220 0
0.160159 0.139488 0.033118 255 220 0
0.138561 0.177219 0.105802 255 220 0
0.191233 0.127029 0.031993 255 220 0
0.138151 0.138195 0.039462 255 220 0
0.120821 0.123458 0.047663 255 220 0
0.117523 0.105001 0.051302 255 220 0
0.168912 0.173460 0.093422 255 220 0
0.155122 0.174574 0.102584 255 220 0
0.120006 0.104256 0.077407 255 220 0
0.107035 0.195271 0.079026 255 220 0
0.159471 0.083538 0.090990 255 220 0
0.147450 0.133659 0.033504 255 220 0
0.133856 0.107995 0.031518 255 220 0
0.118096 0.169691 0.102682 255 220 0
0.176189 0.045239 0.055655 255 220 0
0.186327 0.055992 0.065990 255 220 0
0.159275 0.049847 0.024574 255 220 0
0.120878 0.135144 0.050785 255 220 0
0.113214 0.130049 0.061905 255 220 0
0.202712 0.062693 0.026136 255 220 0
0.208388 0.114427 0.049926 255 220 0
0.106055 0.177625 0.095878 255 220 0
0.149378 0.056024 0.062297 255 220 0
0.195310 0.050064 0.049857 255 220 0
0.162084 0.106085 0.100080 255 220 0
0.134681 0.092736 0.085516 255 220 0
0.151398 0.173608 0.104303 255 220 0
0.117370 0.190641 0.100107 255 220 0
0.179918 0.039852 0.038495 255 220 0
0.147593 0.185650 0.067027 255 220 0
0.144559 0.054046 0.052298 255 220 0
0.196320 0.087407 0.080378 255 220 0
0.103809 0.165791 0.085009 255 220 0
0.125199 0.105649 0.039171 255 220 0
0.142507 0.165502 0.052201 255 220 0
0.160160 0.178545 0.097690 255 220 0
0.193703 0.106186 0.087765 255 220 0
0.182831 0.047698 0.020368 255 220 0
0.152768 0.095433 0.095038 255 220 0
0.127845 0.191114 0.069206 255 220 0
0.210185 0.099765 0.049812 255 220 0
0.154865 0.075041 0.085166 255 220 0
0.144331 0.129380 0.103561 255 220 0
0.127924 0.176503 0.061206 255 220 0
0.125524 0.120719 0.042085 255 220 0
0.174253 0.115804 0.100336 255 220 0
0.122529 0.179853 0.104319 255 220 0
0.114131 0.119084 0.059081 255 220 0
0.104285 0.163209 0.080555 255 220 0
0.121193 0.128153 0.090664 255 220 0
0.123646 0.122906 0.090686 255 220 0
0.112883 0.124596 0.064070 255 220 0
0.204307 0.080850 0.065954 255 220 0
0.156748 0.106258 0.018841 255 220 0
0.197672 0.132206 0.041287 255 220 0
0.130402 0.136846 0.100472 255 220 0
0.169177 0.134251 0.029757 255 220 0
0.142133 0.062067 0.064545 255 220 0
0.190725 0.073848 0.012483 255 220 0
0.145827 0.120499 0.028361 255 220 0
0.206169 0.124314 0.058410 255 220 0
0.189829 0.150684 0.050188 255 220 0
0.129537 0.071459 0.042216 255 220 0
0.200735 0.125988 0.040160 255 220 0
0.146965 0.194945 0.083133 255 220 0
0.106673 0.162207 0.089419 255 220 0
0.197061 0.098530 0.021016 255 220 0
0.189433 0.113255 0.091872 255 220 0
0.180707 0.105325 0.096205 255 220 0
0.174290 0.054109 0.067875 255 220 0
0.190183 0.139145 0.040375 255 220 0
0.114565 0.120714 0.057660 255 220 0
0.141296 0.095507 0.090650 255 220 0
0.115769 0.194842 0.072696 255 220 0
0.150855 0.181167 0.063002 255 220 0
0.205386 0.061758 0.035343 255 220 0
0.140543 0.110768 0.027600 255 220 0
0.174965 0.045861 0.056787 255 220 0
0.117022 0.159141 0.060034 255 220 0
0.131177 0.142053 0.045056 255 220 0
0.139784 0.188358 0.100946 255 220 0
0.204594 0.128966 0.064953 255 220 0
0.165405 0.080768 0.010419 255 220 0
0.112872 0.139538 0.063122 255 220 0
0.136882 0.170830 0.106962 255 220 0
0.206260 0.105436 0.070220 255 220 0
0.207871 0.069298 0.038159 255 220 0
0.183766 0.088688 0.089698 255 220 0
0.205555 0.093942 0.030437 255 220 0
0.159164 0.139013 0.105922 255 220 0
0.189457 0.042410 0.040394 255 220 0
0.111440 0.150098 0.089526 255 220 0
0.181683 0.145899 0.041013 255 220 0
0.177245 0.107817 0.098085 255 220 0
0.135284 0.103876 0.029387 255 220 0
0.121061 0.086610 0.056663 255 220 0
0.192086 0.155005 0.058195 255 220 0
0.172289 0.058235 0.013788 255 220 0
0.179991 0.139277 0.035439 255 220 0
0.125852 0.079248 0.043462 255 220 0
0.164178 0.043697 0.031490 255 220 0
0.171345 0.138632 0.102866 255 220 0
0.183094 0.140662 0.037711 255 220 0
0.146213 0.103383 0.022151 255 220 0
0.188122 0.050160 0.057835 255 220 0
0.189361 0.159108 0.078617 255 220 0
0.201907 0.138679 0.059023 255 220 0
0.114587 0.179377 0.066122 255 220 0
0.103342 0.171233 0.089578 255 220 0
0.199213 0.083382 0.075454 255 220 0
0.141576 0.138409 0.037979 255 220 0
0.155399 0.145484 0.037484 255 220 0
0.206945 0.121081 0.060738 255 220 0
0.134547 0.099297 0.088676 255 220 0
0.207988 0.096049 0.037013 255 220 0
0.187295 0.095553 0.014271 255 220 0
0.140563 0.067307 0.027376 255 220 0
0.200155 0.135158 0.074713 255 220 0
0.132589 0.192056 0.099975 255 220 0
0.107256 0.154229 0.075775 255 220 0
0.158377 0.071847 0.083823 255 220 0
0.184006 0.128507 0.095846 255 220 0
0.164609 0.042006 0.040419 255 220 0
0.204307 0.102722 0.074033 255 220 0
0.121221 0.093939 0.071321 255 220 0
0.171160 0.067626 0.080922 255 220 0
0.138125 0.127201 0.034962 255 220 0
0.108608 0.154322 0.086956 255 220 0
0.150093 0.189144 0.096665 255 220 0
0.154358 0.066374 0.016912 255 220 0
0.199229 0.096619 0.022267 255 220 0
0.140646 0.080931 0.023122 255 220 0
0.118293 0.102091 0.072359 255 220 0
0.136636 0.072601 0.072133 255 220 0
0.130358 0.075099 0.066968 255 220 0
0.174437 0.128039 0.026804 255 220 0
0.184131 0.165219 0.063011 255 220 0
0.151472 0.192797 0.091043 255 220 0
0.153400 0.174457 0.057112 255 220 0
0.205239 0.073508 0.026312 255 220 0
0.127941 0.197778 0.096008 255 220 0
0.209242 0.104916 0.060252 255 220 0
0.196225 0.118219 0.085404 255 220 0
0.195404 0.078614 0.077404 255 220 0
0.166124 0.080978 0.090224 255 220 0
0.150007 0.114157 0.024088 255 220 0
0.161938 0.133620 0.105129 255 220 0
0.200385 0.071411 0.019500 255 220 0
0.152629 0.111375 0.022065 255 220 0
0.200450 0.101375 0.079773 255 220 0
0.130141 0.171594 0.106433 255 220 0
0.196015 0.046882 0.038885 255 220 0
0.119098 0.152331 0.098799 255 220 0
0.192712 0.137397 0.085765 255 220 0
0.141417 0.102181 0.024612 255 220 0
0.209549 0.082351 0.048618 255 220 0
0.208448 0.115506 0.056356 255 220 0
0.147835 0.164251 0.050465 255 220 0
0.130317 0.087938 0.079158 255 220 0
0.116894 0.150495 0.058628 255 220 0
0.110663 0.193738 0.094503 255 220 0
0.121388 0.187276 0.067413 255 220 0
0.165734 0.049648 0.020910 255 220 0
0.187744 0.072008 0.079355 255 220 0
0.208491 0.094793 0.038213 255 220 0
0.201598 0.072073 0.065027 255 220 0
0.126587 0.159291 0.104605 255 220 0
0.136185 0.112565 0.095037 255 220 0
0.181034 0.040500 0.043607 255 220 0
0.190940 0.099910 0.017488 255 220 0
0.119490 0.190359 0.100793 255 220 0
0.114920 0.192753 0.071186 255 220 0
0.145398 0.158377 0.047452 255 220 0
0.178118 0.099942 0.095894 255 220 0
0.151819 0.181218 0.063282 255 220 0
0.205539 0.063941 0.032215 255 220 0
0.160702 0.071260 0.083743 255 220 0
0.172093 0.073834 0.009485 255 220 0
0.167084 0.080624 0.010009 255 220 0
0.192196 0.112982 0.089556 255 220 0
0.148799 0.052634 0.055731 255 220 0
0.162124 0.055857 0.069174 255 220 0
0.188439 0.135738 0.091133 255 220 0
0.156917 0.079546 0.088370 255 220 0
0.179161 0.075174 0.085057 255 220 0
0.174653 0.164547 0.053926 255 220 0
0.196430 0.107698 0.085254 255 220 0
0.167391 0.051001 0.018996 255 220 0
0.160318 0.123063 0.103884 255 220 0
0.146864 0.195619 0.086853 255 220 0
0.152798 0.091024 0.016054 255 220 0
0.116379 0.106467 0.054090 255 220 0
0.144208 0.154657 0.045605 255 220 0
0.144590 0.194392 0.078836 255 220 0
0.140896 0.064497 0.028782 255 220 0
0.199129 0.105439 0.026095 255 220 0
0.208795 0.111179 0.047853 255 220 0
0.169326 0.168183 0.055083 255 220 0
0.128975 0.090405 0.034137 255 220 0
0.133166 0.095552 0.086002 255 220 0
0.180859 0.169112 0.082083 255 220 0
0.176161 0.167948 0.089740 255 220 0
0.172369 0.056033 0.014773 255 220 0
0.201800 0.058817 0.050746 255 220 0
0.190592 0.061413 0.068885 255 220 0
0.157110 0.045474 0.034858 255 220 0
0.118944 0.135817 0.091840 255 220 0
0.119621 0.093267 0.050713 255 220 0
0.128923 0.173464 0.106159 255 220 0
0.147012 0.191460 0.096291 255 220 0
0.115402 0.200092 0.085539 255 220 0
0.128011 0.078306 0.066910 255 220 0
0.109221 0.170634 0.096978 255 220 0
0.158272 0.180300 0.097906 255 220 0
0.179416 0.145045 0.097353 255 220 0
0.195649 0.111981 0.026224 255 220 0
0.119729 0.103765 0.076607 255 220 0
0.202622 0.093285 0.025137 255 220 0
0.162708 0.055515 0.017773 255 220 0
0.197008 0.049183 0.044938 255 220 0
0.156841 0.190166 0.083593 255 220 0
0.157574 0.101283 0.098223 255 220 0
0.107773 0.175099 0.069291 255 220 0
0.131747 0.067616 0.057341 255 220 0
0.115636 0.196333 0.094598 255 220 0
0.120761 0.140584 0.052498 255 220 0
0.160264 0.089136 0.093746 255 220 0
0.150862 0.066662 0.076832 255 220 0
0.138906 0.175831 0.059005 255 220 0
0.204760 0.124722 0.048472 255 220 0
0.182466 0.043701 0.051249 255 220 0
0.140083 0.074927 0.024715 255 220 0
0.186636 0.129480 0.031362 255 220 0
0.177128 0.072392 0.009496 255 220 0
0.152726 0.057304 0.022403 255 220 0
0.158279 0.166318 0.050778 255 220 0
0.141030 0.055916 0.042432 255 220 0
0.143445 0.098049 0.092798 255 220 0
0.201006 0.137545 0.071031 255 220 0
0.177154 0.043105 0.025550 255 220 0
0.125406 0.077283 0.047830 255 220 0
0.146213 0.052884 0.052420 255 220 0
0.143151 0.167419 0.107085 255 220 0
0.154221 0.098234 0.017086 255 220 0
0.129626 0.106324 0.034744 255 220 0
0.155090 0.099210 0.097065 255 220 0
0.180007 0.072356 0.082824 255 220 0
0.169190 0.143643 0.035551 255 220 0
0.192823 0.138592 0.041853 255 220 0
0.131667 0.189725 0.101530 255 220 0
0.178763 0.041904 0.048726 255 220 0
0.150416 0.067951 0.077849 255 220 0
0.173808 0.074840 0.085999 255 220 0
0.149497 0.055701 0.026504 255 220 0
0.180511 0.098366 0.094555 255 220 0
0.159716 0.142285 0.034799 255 220 0
0.147891 0.174388 0.057078 255 220 0
0.175376 0.116831 0.020798 255 220 0
0.203542 0.097085 0.028031 255 220 0
0.170523 0.040908 0.043346 255 220 0
0.206790 0.095769 0.033784 255 220 0
0.190853 0.148052 0.084071 255 220 0
0.172832 0.085564 0.091960 255 220 0
0.119088 0.120792 0.049253 255 220 0
0.121774 0.125637 0.047148 255 220 0
0.176218 0.104994 0.097814 255 220 0
0.183326 0.153691 0.048314 255 220 0
0.145304 0.067022 0.073644 255 220 0
0.121837 0.160487 0.102818 255 220 0
0.177082 0.060116 0.012787 255 220 0
0.188193 0.049625 0.020638 255 220 0
0.141882 0.124681 0.101548 255 220 0
0.110403 0.197186 0.078537 255 220 0
0.169808 0.161123 0.099465 255 220 0
0.157211 0.073785 0.084916 255 220 0
0.134617 0.085797 0.028202 255 220 0
0.128249 0.101650 0.035317 255 220 0
0.167833 0.107112 0.016404 255 220 0
0.207494 0.084074 0.060018 255 220 0
0.163627 0.159212 0.045656 255 220 0
0.206753 0.064949 0.041178 255 220 0
0.125231 0.091958 0.039081 255 220 0
0.118274 0.180966 0.065429 255 220 0
0.111630 0.195684 0.075040 255 220 0
0.131883 0.124817 0.097173 255 220 0
0.194037 0.058232 0.062387 255 220 0
0.194880 0.068492 0.071376 255 220 0
0.198423 0.069320 0.018040 255 220 0
0.193921 0.118644 0.087845 255 220 0
0.149785 0.050783 0.032750 255 220 0
0.156998 0.095712 0.096057 255 220 0
0.182447 0.169912 0.073475 255 220 0
0.189440 0.109864 0.091660 255 220 0
0.147911 0.066551 0.074950 255 220 0
0.169937 0.179650 0.073687 255 220 0
0.181050 0.137504 0.034597 255 220 0
0.111026 0.160829 0.094928 255 220 0
0.146116 0.174806 0.105307 255 220 0
0.184804 0.050127 0.059908 255 220 0
0.111389 0.149182 0.065649 255 220 0
0.141353 0.197861 0.088094 255 220 0
0.207939 0.104414 0.065524 255 220 0
0.171286 0.120804 0.101821 255 220 0
0.103741 0.181253 0.073766 255 220 0
0.134135 0.068956 0.035225 255 220 0
0.189617 0.154679 0.082021 255 220 0
0.115345 0.141280 0.090233 255 220 0
0.129709 0.167657 0.056426 255 220 0
0.186244 0.129010 0.030879 255 220 0
0.140818 0.102982 0.093646 255 220 0
0.139568 0.074217 0.025414 255 220 0
0.203956 0.058321 0.035727 255 220 0
0.123076 0.188174 0.102301 255 220 0
0.140941 0.064542 0.066808 255 220 0
0.137025 0.158209 0.049500 255 220 0
0.130369 0.151658 0.049385 255 220 0
0.122389 0.154134 0.055126 255 220 0
0.182136 0.170070 0.076199 255 220 0
0.138654 0.160279 0.050107 255 220 0
0.115662 0.127605 0.055882 255 220 0
0.173223 0.132395 0.029177 255 220 0
0.179975 0.091701 0.011253 255 220 0
0.143592 0.056259 0.033551 255 220 0
0.152805 0.192693 0.086117 255 220 0
0.103238 0.171621 0.075380 255 220 0
0.180651 0.099172 0.013710 255 220 0
0.174102 0.127572 0.101402 255 220 0
0.183672 0.075770 0.083785 255 220 0
0.111263 0.136527 0.069869 255 220 0
0.139551 0.095515 0.089758 255 220 0
0.208395 0.072151 0.038304 255 220 0
0.146780 0.131085 0.104493 255 220 0
0.207565 0.118742 0.053091 255 220 0
0.103306 0.166243 0.081955 255 220 0
0.194046 0.079531 0.014042 255 220 0
0.119622 0.135118 0.052084 255 220 0
0.203339 0.108697 0.076175 255 220 0
0.189198 0.042382 0.035376 255 220 0
0.163363 0.179748 0.066747 255 220 0
0.102862 0.186804 0.076334 255 220 0
0.125902 0.142238 0.048769 255 220 0
0.204904 0.102332 0.072844 255 220 0
0.126401 0.078742 0.063929 255 220 0
0.116794 0.196102 0.073778 255 220 0
0.206439 0.110263 0.039019 255 220 0
0.114521 0.122814 0.076609 255 220 0
0.196362 0.151157 0.061992 255 220 0
0.158950 0.142275 0.034918 255 220 0
0.135792 0.135939 0.039780 255 220 0
0.193766 0.155066 0.072716 255 220 0
0.197206 0.142877 0.050775 255 220 0
0.120615 0.113151 0.083019 255 220 0
0.131161 0.127936 0.039787 255 220 0
0.104442 0.162966 0.082462 255 220 0
0.155525 0.062487 0.074722 255 220 0
0.104576 0.187462 0.074328 255 220 0
0.198948 0.082506 0.017885 255 220 0
0.196891 0.056272 0.056334 255 220 0
0.166629 0.098165 0.097466 255 220 0
0.146972 0.093706 0.019514 255 220 0
0.111863 0.131636 0.069750 255 220 0
0.172444 0.176722 0.085861 255 220 0
0.119333 0.116794 0.048207 255 220 0
0.179485 0.071716 0.082504 255 220 0
0.184071 0.062381 0.073250 255 220 0
0.165633 0.091033 0.094823 255 220 0
0.210226 0.097141 0.049848 255 220 0
0.111818 0.134718 0.076514 255 220 0
0.117966 0.102853 0.072215 255 220 0
0.137705 0.111107 0.029529 255 220 0
0.195558 0.084855 0.015488 255 220 0
0.188734 0.061695 0.070374 255 220 0
0.203240 0.135007 0.061661 255 220 0
0.167885 0.047203 0.022551 255 220 0
0.170004 0.058752 0.073242 255 220 0
0.100307 0.177830 0.084845 255 220 0
0.105223 0.180569 0.095455 255 220 0
0.203211 0.065729 0.056092 255 220 0
0.102408 0.169044 0.081710 255 220 0
0.199611 0.070763 0.067238 255 220 0
0.128569 0.090520 0.034639 255 220 0
0.162886 0.127517 0.026331 255 220 0
0.170953 0.084564 0.091778 255 220 0
0.126151 0.105837 0.085630 255 220 0
0.206082 0.070425 0.053494 255 220 0
0.189400 0.064949 0.072886 255 220 0
0.159558 0.078982 0.088526 255 220 0
0.205000 0.078317 0.062794 255 220 0
0.168643 0.181843 0.079800 255 220 0
0.136231 0.171803 0.056973 255 220 0
0.194233 0.149119 0.078064 255 220 0
0.127580 0.131982 0.043897 255 220 0
0.104809 0.176237 0.094238 255 220 0
0.139890 0.087832 0.023525 255 220 0
0.125320 0.089578 0.039435 255 220 0
0.150458 0.156404 0.107183 255 220 0
0.144372 0.188971 0.069881 255 220 0
0.200502 0.119105 0.034626 255 220 0
0.165146 0.158212 0.103176 255 220 0
0.122688 0.145879 0.099026 255 220 0
0.127173 0.090964 0.078067 255 220 0
0.117690 0.130817 0.087780 255 220 0
0.122001 0.105296 0.080931 255 220 0
0.156857 0.182977 0.067464 255 220 0
0.163381 0.145924 0.105304 255 220 0
0.144745 0.098750 0.093652 255 220 0
0.198145 0.118866 0.083030 255 220 0
0.113579 0.127006 0.060731 255 220 0
0.173735 0.116930 0.020654 255 220 0
0.163013 0.052553 0.019705 255 220 0
0.142692 0.057628 0.033091 255 220 0
0.196156 0.104850 0.023132 255 220 0
0.170043 0.180416 0.076814 255 220 0
0.200569 0.108073 0.080355 255 220 0
0.168143 0.161608 0.100429 255 220 0
0.175078 0.164122 0.093434 255 220 0
0.165096 0.062726 0.077141 255 220 0
0.178214 0.144551 0.038545 255 220 0
0.164454 0.042533 0.045757 255 220 0
0.173162 0.046705 0.058190 255 220 0
0.156463 0.187694 0.075182 255 220 0
0.106852 0.159504 0.072375 255 220 0
0.114768 0.108233 0.064460 255 220 0
0.179563 0.171850 0.070241 255 220 0
0.195005 0.153978 0.069316 255 220 0
0.133175 0.076543 0.031988 255 220 0
0.150459 0.104305 0.020418 255 220 0
0.156972 0.108374 0.100423 255 220 0
0.136195 0.139004 0.040832 255 220 0
0.180368 0.039881 0.038030 255 220 0
0.191016 0.155907 0.078683 255 220 0
0.133374 0.144717 0.103919 255 220 0
0.189563 0.148374 0.047744 255 220 0
0.168421 0.074454 0.086252 255 220 0
0.111176 0.149629 0.088734 255 220 0
0.172570 0.170999 0.091396 255 220 0
0.166179 0.136078 0.030696 255 220 0
0.146340 0.058216 0.027469 255 220 0
0.153192 0.067837 0.017109 255 220 0
0.115313 0.135480 0.086811 255 220 0
0.198199 0.136838 0.046282 255 220 0
0.171835 0.040555 0.036749 255 220 0
0.197092 0.133063 0.081105 255 220 0
0.150350 0.131196 0.105035 255 220 0
0.162902 0.175901 0.061136 255 220 0
0.135133 0.176563 0.106145 255 220 0
0.155163 0.190796 0.089988 255 220 0
0.207763 0.115373 0.047516 255 220 0
0.168226 0.179336 0.088924 255 220 0
0.182001 0.160686 0.054490 255 220 0
0.109751 0.154585 0.089589 255 220 0
0.115262 0.147268 0.059892 255 220 0
0.112536 0.126643 0.065885 255 220 0
0.149210 0.192766 0.093558 255 220 0
0.112930 0.122935 0.069651 255 220 0
0.188776 0.083238 0.011851 255 220 0
0.101783 0.171133 0.082553 255 220 0
0.187254 0.123441 0.027793 255 220 0
0.136733 0.199241 0.086903 255 220 0
0.156355 0.061641 0.074130 255 220 0
0.178883 0.170902 0.066460 255 220 0
0.173061 0.048439 0.019519 255 220 0
0.182158 0.151500 0.092814 255 220 0
0.193270 0.121451 0.029729 255 220 0
0.177588 0.073388 0.084241 255 220 0
0.200918 0.099696 0.078825 255 220 0
0.124074 0.079697 0.050229 255 220 0
0.154873 0.181401 0.099325 255 220 0
0.184312 0.046842 0.021674 255 220 0
0.133042 0.165657 0.106912 255 220 0
0.111943 0.150917 0.064539 255 220 0
0.203002 0.106432 0.076669 255 220 0
0.137513 0.102546 0.027382 255 220 0
0.142601 0.076913 0.080734 255 220 0
0.140784 0.090193 0.087819 255 220 0
0.155581 0.046178 0.048606 255 220 0
0.172427 0.169011 0.057746 255 220 0
0.149723 0.052605 0.029836 255 220 0
0.107997 0.192724 0.093339 255 220 0
0.207001 0.077282 0.030112 255 220 0
0.164916 0.082230 0.090846 255 220 0
0.180297 0.080017 0.087442 255 220 0
0.175549 0.055618 0.069270 255 220 0
0.124041 0.079733 0.056127 255 220 0
0.171474 0.042510 0.028695 255 220 0
0.156290 0.148223 0.106635 255 220 0
0.116147 0.187805 0.100848 255 220 0
0.197702 0.121383 0.033103 255 220 0
0.205695 0.100254 0.033023 255 220 0
0.148686 0.133277 0.105229 255 220 0
0.165727 0.063603 0.013036 255 220 0
0.168575 0.054755 0.016161 255 220 0
0.120940 0.182528 0.103500 255 220 0
0.186509 0.164012 0.064761 255 220 0
0.151493 0.077195 0.016203 255 220 0
0.118716 0.170615 0.061882 255 220 0
0.123660 0.085184 0.066470 255 220 0
0.144021 0.115620 0.099498 255 220 0
0.182905 0.081780 0.087203 255 220 0
0.172690 0.074927 0.086218 255 220 0
0.193617 0.145831 0.081070 255 220 0
0.166329 0.183260 0.078179 255 220 0
0.202815 0.122461 0.040594 255 220 0
0.196052 0.105815 0.023504 255 220 0
0.147187 0.076973 0.018799 255 220 0
0.175361 0.047230 0.058876 255 220 0
0.180773 0.149647 0.043496 255 220 0
0.155748 0.065868 0.016320 255 220 0
0.143205 0.191402 0.072595 255 220 0
0.204700 0.075417 0.061420 255 220 0
0.167188 0.163025 0.049338 255 220 0
0.120154 0.189797 0.068751 255 220 0
0.128530 0.195867 0.073309 255 220 0
0.117863 0.096912 0.054755 255 220 0
0.203651 0.116239 0.074824 255 220 0
0.208744 0.073745 0.040573 255 220 0
0.169584 0.096645 0.096689 255 220 0
0.120808 0.188177 0.101952 255 220 0
0.193345 0.060028 0.065152 255 220 0
0.137076 0.074509 0.074487 255 220 0
0.180325 0.133590 0.031695 255 220 0
0.121727 0.185444 0.102997 255 220 0
0.197363 0.108478 0.084311 255 220 0
0.171909 0.041183 0.045742 255 220 0
0.208203 0.070514 0.041429 255 220 0
0.174249 0.127734 0.026593 255 220 0
0.180065 0.172118 0.076596 255 220 0
0.185538 0.043343 0.027760 255 220 0
0.147347 0.084577 0.018335 255 220 0
0.100474 0.180113 0.087387 255 220 0
0.187261 0.046173 0.052656 255 220 0
0.192313 0.127391 0.032878 255 220 0
0.137376 0.197505 0.080333 255 220 0
0.153121 0.191647 0.081328 255 220 0
0.181060 0.054044 0.066131 255 220 0
0.148020 0.181729 0.063059 255 220 0
0.194556 0.059816 0.018208 255 220 0
0.199378 0.103805 0.081511 255 220 0
0.146467 0.161089 0.107329 255 220 0
0.187874 0.138051 0.038127 255 220 0
0.182765 0.104077 0.016144 255 220 0
0.180727 0.125308 0.098026 255 220 0
0.137913 0.103585 0.092439 255 220 0
0.175194 0.173298 0.086022 255 220 0
0.206414 0.086364 0.064378 255 220 0
0.126753 0.198359 0.076555 255 220 0
0.137557 0.093257 0.087577 255 220 0
0.134408 0.063121 0.052400 255 220 0
0.152185 0.126491 0.104337 255 220 0
0.146221 0.172366 0.105908 255 220 0
0.196612 0.091303 0.081521 255 220 0
0.180795 0.093486 0.011881 255 220 0
0.146571 0.134142 0.034034 255 220 0
0.127737 0.194534 0.071836 255 220 0
0.142869 0.168886 0.106942 255 220 0
0.204679 0.081873 0.025283 255 220 0
0.169103 0.169557 0.056516 255 220 0
0.175365 0.142436 0.100604 255 220 0
0.107626 0.159633 0.089324 255 220 0
0.108217 0.150394 0.075722 255 220 0
0.118479 0.100734 0.050051 255 220 0
0.181309 0.169425 0.067127 255 220 0
0.134935 0.074845 0.072707 255 220 0
0.112599 0.127828 0.064793 255 220 0
0.148718 0.190616 0.096178 255 220 0
0.131036 0.196147 0.074217 255 220 0
0.200600 0.057469 0.051531 255 220 0
0.133743 0.189113 0.068064 255 220 0
0.166568 0.080995 0.090235 255 220 0
0.173050 0.040261 0.039935 255 220 0
0.125722 0.086388 0.072176 255 220 0
0.108208 0.152478 0.072811 255 220 0
0.106623 0.166025 0.092002 255 220 0
0.102037 0.183620 0.076541 255 220 0
0.195766 0.048697 0.046646 255 220 0
0.184884 0.153890 0.088787 255 220 0
0.184490 0.120717 0.025121 255 220 0
0.195702 0.048193 0.030518 255 220 0
0.156615 0.131057 0.029541 255 220 0
0.206387 0.079434 0.060143 255 220 0
0.161223 0.148141 0.105767 255 220 0
0.168214 0.136470 0.103942 255 220 0
0.144012 0.189853 0.070838 255 220 0
0.203823 0.131646 0.056365 255 220 0
0.182973 0.060308 0.013277 255 220 0
0.149470 0.167649 0.106218 255 220 0
0.123982 0.111092 0.085919 255 220 0
0.156937 0.087650 0.092563 255 220 0
0.148799 0.121244 0.027450 255 220 0
0.132244 0.091208 0.082942 255 220 0
0.135310 0.064620 0.059224 255 220 0
0.115539 0.128316 0.056216 255 220 0
0.155773 0.088058 0.092514 255 220 0
0.153985 0.061039 0.072272 255 220 0
0.186199 0.115402 0.022797 255 220 0
0.120359 0.128223 0.049394 255 220 0
0.158294 0.057599 0.070012 255 220 0
0.195051 0.063833 0.067197 255 220 0
0.164923 0.136711 0.104805 255 220 0
0.180463 0.068550 0.079726 255 220 0
0.155712 0.068609 0.080714 255 220 0
0.198365 0.094363 0.020472 255 220 0
0.152170 0.084450 0.015652 255 220 0
0.183172 0.079392 0.009926 255 220 0
0.177750 0.113519 0.098780 255 220 0
0.115945 0.194723 0.072553 255 220 0
0.164668 0.063872 0.013258 255 220 0
0.161946 0.184292 0.091320 255 220 0
0.109576 0.146912 0.081880 255 220 0
0.191567 0.125838 0.031407 255 220 0
0.202465 0.118502 0.076590 255 220 0
0.195548 0.087663 0.081217 255 220 0
0.191004 0.076345 0.079920 255 220 0
0.210040 0.100697 0.048077 255 220 0
0.132177 0.105733 0.032348 255 220 0
0.149946 0.190106 0.074456 255 220 0
0.122122 0.121926 0.045802 255 220 0
0.207528 0.070424 0.047938 255 220 0
0.165303 0.114132 0.019746 255 220 0
0.202005 0.118628 0.077379 255 220 0
0.195003 0.064781 0.068128 255 220 0
0.207987 0.107768 0.065207 255 220 0
0.190466 0.152663 0.052929 255 220 0
0.168531 0.098721 0.013230 255 220 0
0.131410 0.138443 0.101427 255 220 0
0.185961 0.089129 0.088717 255 220 0
0.142823 0.115814 0.099120 255 220 0
0.175471 0.044633 0.023280 255 220 0
0.136382 0.081324 0.026942 255 220 0
0.113690 0.119687 0.060753 255 220 0
0.167847 0.080311 0.089857 255 220 0
0.150939 0.064755 0.074901 255 220 0
0.183368 0.140451 0.095023 255 220 0
0.202236 0.085928 0.022286 255 220 0
0.168263 0.094306 0.095971 255 220 0
0.164530 0.098340 0.097605 255 220 0
0.204826 0.089905 0.027585 255 220 0
0.142910 0.144455 0.106295 255 220 0
0.208362 0.096903 0.038423 255 220 0
0.160839 0.187024 0.088352 255 220 0
0.150068 0.061781 0.021612 255 220 0
0.195186 0.138855 0.081801 255 220 0
0.201720 0.112340 0.078695 255 220 0
0.169094 0.045435 0.055614 255 220 0
0.114972 0.195365 0.073386 255 220 0
0.124090 0.137649 0.097036 255 220 0
0.150448 0.079638 0.086508 255 220 0
0.147354 0.050530 0.039171 255 220 0
0.202678 0.087228 0.072226 255 220 0
0.180603 0.147341 0.095750 255 220 0
0.177637 0.041443 0.029221 255 220 0
0.112588 0.144678 0.063735 255 220 0
0.188342 0.128577 0.031531 255 220 0
0.131854 0.067098 0.042911 255 220 0
0.165945 0.041688 0.041855 255 220 0
0.116490 0.192005 0.070409 255 220 0
0.193099 0.156712 0.071577 255 220 0
0.153594 0.052401 0.059919 255 220 0
0.151767 0.084602 0.015864 255 220 0
0.172655 0.078216 0.009147 255 220 0
0.137668 0.160075 0.050262 255 220 0
0.179650 0.167733 0.061675 255 220 0
0.164439 0.150693 0.039741 255 220 0
0.177819 0.133167 0.030669 255 220 0
0.112852 0.193739 0.072498 255 220 0
0.155061 0.153807 0.042568 255 220 0
0.113540 0.186347 0.068404 255 220 0
0.175854 0.168120 0.058923 255 220 0
0.186346 0.123717 0.027578 255 220 0
0.144139 0.186435 0.067018 255 220 0
0.166305 0.154023 0.042193 255 220 0
0.107007 0.181739 0.070692 255 220 0
