ply
format ascii 1.0
element vertex 1024
property float x
property float y
property float z
property uchar red
property uchar green
property uchar blue
end_header
0.424957 0.100572 0.101165 255 220 0
0.384695 0.084107 0.048575 255 220 0
0.472170 0.070970 0.064255 255 220 0
0.431093 0.038774 0.077775 255 220 0
0.462743 0.092409 0.037372 255 220 0
0.412107 0.081476 0.014945 255 220 0
0.431874 0.090024 0.100635 255 220 0
0.428036 0.172522 0.092858 255 220 0
0.469774 0.109337 0.088996 255 220 0
0.446193 0.073226 0.018524 255 220 0
0.429192 0.039972 0.078906 255 220 0
0.450029 0.029673 0.029694 255 220 0
0.432931 0.087847 0.017635 255 220 0
0.436051 0.082986 0.099177 255 220 0
0.463701 0.067393 0.080068 255 220 0
0.388021 0.110206 0.053415 255 220 0
0.406527 0.031988 0.024458 255 220 0
0.433934 0.133192 0.103300 255 220 0
0.390453 0.114566 0.063269 255 220 0
0.431264 0.065397 0.093716 255 220 0
0.436689 0.057022 0.089326 255 220 0
0.438444 0.085781 0.099547 255 220 0
0.385726 0.069809 0.039456 255 220 0
0.423945 0.023039 0.022796 255 220 0
0.414154 0.085276 0.015628 255 220 0
0.416741 0.079150 0.013754 255 220 0
0.438371 0.167486 0.052239 255 220 0
0.470355 0.069887 0.047190 255 220 0
0.436289 0.034251 0.017437 255 220 0
0.418209 0.182262 0.051011 255 220 0
0.473821 0.079907 0.064604 255 220 0
0.444642 0.181396 0.084081 255 220 0
0.471319 0.122154 0.066824 255 220 0
0.419669 0.186228 0.052503 255 220 0
0.411975 0.115373 0.095705 255 220 0
0.449624 0.026794 0.054306 255 220 0
0.440149 0.128391 0.036452 255 220 0
0.412682 0.067342 0.089799 255 220 0
0.444420 0.180130 0.086256 255 220 0
0.471322 0.125175 0.069985 255 220 0
0.411101 0.130719 0.034474 255 220 0
0.454385 0.167750 0.084626 255 220 0
0.471173 0.071599 0.049245 255 220 0
0.467714 0.066429 0.040762 255 220 0
0.409087 0.173824 0.079404 255 220 0
0.443020 0.117915 0.033075 255 220 0
0.429375 0.062511 0.092353 255 220 0
0.472314 0.069885 0.057558 255 220 0
0.410501 0.091546 0.094070 255 220 0
0.419473 0.020796 0.026754 255 220 0
0.470524 0.099298 0.052441 255 220 0
0.442267 0.162086 0.097167 255 220 0
0.421840 0.079150 0.097020 255 220 0
0.407808 0.109827 0.092648 255 220 0
0.422655 0.069120 0.094054 255 220 0
0.387057 0.103487 0.057093 255 220 0
0.465421 0.051825 0.059157 255 220 0
0.412518 0.027740 0.060655 255 220 0
0.413481 0.100736 0.020896 255 220 0
0.405228 0.066714 0.014754 255 220 0
0.469215 0.119763 0.059272 255 220 0
0.405647 0.034314 0.061393 255 220 0
0.421017 0.174456 0.089739 255 220 0
0.447837 0.056439 0.085507 255 220 0
0.458827 0.035261 0.043345 255 220 0
0.443204 0.184722 0.078852 255 220 0
0.400967 0.061567 0.078404 255 220 0
0.444577 0.135073 0.041928 255 220 0
0.461443 0.076032 0.087010 255 220 0
0.470180 0.118000 0.060489 255 220 0
0.467122 0.060555 0.068561 255 220 0
0.435415 0.149519 0.043669 255 220 0
0.466876 0.131648 0.062329 255 220 0
0.457580 0.160753 0.072584 255 220 0
0.434296 0.073571 0.096735 255 220 0
0.446493 0.168460 0.059337 255 220 0
0.409840 0.041789 0.072690 255 220 0
0.442732 0.077422 0.096792 255 220 0
0.472672 0.100698 0.058111 255 220 0
0.399398 0.128412 0.079596 255 220 0
0.406692 0.162398 0.081310 255 220 0
0.389231 0.095471 0.066734 255 220 0
0.460585 0.065983 0.028652 255 220 0
0.449093 0.100409 0.099941 255 220 0
0.399687 0.131073 0.042094 255 220 0
0.456947 0.102582 0.034992 255 220 0
0.407185 0.029912 0.026044 255 220 0
0.457232 0.158899 0.089451 255 220 0
0.432099 0.110204 0.103273 255 220 0
0.424564 0.137358 0.100735 255 220 0
0.473709 0.085393 0.070743 255 220 0
0.406764 0.137695 0.040057 255 220 0
0.424188 0.033506 0.072855 255 220 0
0.446967 0.129660 0.040787 255 220 0
0.411616 0.033684 0.066673 255 220 0
0.414749 0.063809 0.011795 255 220 0
0.462781 0.064724 0.031622 255 220 0
0.448000 0.034309 0.066607 255 220 0
0.439023 0.136585 0.039687 255 220 0
0.457008 0.060410 0.082168 255 220 0
0.437632 0.062634 0.092063 255 220 0
0.407241 0.023714 0.042452 255 220 0
0.458962 0.052307 0.027206 255 220 0
0.432508 0.033277 0.072576 255 220 0
0.463767 0.054821 0.034288 255 220 0
0.427414 0.127399 0.032510 255 220 0
0.454657 0.035307 0.030199 255 220 0
0.465515 0.077395 0.083304 255 220 0
0.451660 0.073873 0.021694 255 220 0
0.456043 0.073384 0.089957 255 220 0
0.387487 0.064936 0.033764 255 220 0
0.466384 0.053362 0.043784 255 220 0
0.410628 0.091960 0.094199 255 220 0
0.398238 0.068516 0.078397 255 220 0
0.447615 0.078433 0.020734 255 220 0
0.411630 0.086836 0.094141 255 220 0
0.449491 0.037201 0.023001 255 220 0
0.392524 0.116845 0.068443 255 220 0
0.459840 0.089100 0.032887 255 220 0
0.386287 0.099748 0.055460 255 220 0
0.392766 0.112513 0.037557 255 220 0
0.410181 0.032283 0.063935 255 220 0
0.444942 0.141879 0.045340 255 220 0
0.450082 0.105211 0.100277 255 220 0
0.434618 0.109441 0.026292 255 220 0
0.442993 0.070604 0.016329 255 220 0
0.474384 0.088227 0.069972 255 220 0
0.437059 0.146536 0.043101 255 220 0
0.437762 0.185988 0.084165 255 220 0
0.424998 0.092212 0.100237 255 220 0
0.431057 0.043402 0.081433 255 220 0
0.407415 0.098207 0.092308 255 220 0
0.427815 0.164513 0.095952 255 220 0
0.410096 0.021200 0.040813 255 220 0
0.474411 0.093169 0.074570 255 220 0
0.394078 0.043814 0.049515 255 220 0
0.408625 0.185320 0.065279 255 220 0
0.413919 0.115016 0.097002 255 220 0
0.426161 0.107113 0.102003 255 220 0
0.397248 0.043982 0.025153 255 220 0
0.459175 0.054404 0.075352 255 220 0
0.416258 0.064622 0.011602 255 220 0
0.413430 0.133373 0.095242 255 220 0
0.474913 0.098876 0.065289 255 220 0
0.408936 0.111449 0.025988 255 220 0
0.390995 0.058507 0.061013 255 220 0
0.401806 0.030555 0.033988 255 220 0
0.446936 0.022476 0.038548 255 220 0
0.461198 0.040636 0.039225 255 220 0
0.420912 0.147695 0.040413 255 220 0
0.472157 0.125151 0.077069 255 220 0
0.407459 0.177553 0.073868 255 220 0
0.396532 0.048076 0.023883 255 220 0
0.410439 0.047560 0.077755 255 220 0
0.459371 0.113280 0.041784 255 220 0
0.413641 0.024325 0.056979 255 220 0
0.436332 0.059585 0.090743 255 220 0
0.397502 0.103367 0.081029 255 220 0
0.391096 0.048723 0.037620 255 220 0
0.400675 0.155947 0.061788 255 220 0
0.435387 0.166830 0.050212 255 220 0
0.410541 0.156133 0.046012 255 220 0
0.455057 0.078544 0.092494 255 220 0
0.459934 0.050166 0.070045 255 220 0
0.416422 0.043917 0.078969 255 220 0
0.432415 0.164049 0.047841 255 220 0
0.423124 0.023833 0.022190 255 220 0
0.459209 0.146016 0.093492 255 220 0
0.443511 0.147523 0.100575 255 220 0
0.445610 0.076996 0.019290 255 220 0
0.433716 0.159312 0.098490 255 220 0
0.432975 0.090343 0.100708 255 220 0
0.471310 0.078605 0.048558 255 220 0
0.433905 0.094413 0.020168 255 220 0
0.427480 0.194316 0.063175 255 220 0
0.441758 0.088980 0.021137 255 220 0
0.453781 0.124387 0.042659 255 220 0
0.442302 0.020838 0.051874 255 220 0
0.433548 0.131542 0.035530 255 220 0
0.413548 0.136807 0.036814 255 220 0
0.418620 0.192018 0.073391 255 220 0
0.457817 0.046180 0.068658 255 220 0
0.413402 0.143069 0.039745 255 220 0
0.424915 0.081207 0.098206 255 220 0
0.429790 0.065680 0.011741 255 220 0
0.450305 0.066877 0.019301 255 220 0
0.451173 0.048826 0.077909 255 220 0
0.390274 0.078925 0.068862 255 220 0
0.430158 0.130457 0.034298 255 220 0
0.440265 0.021380 0.055211 255 220 0
0.468127 0.056950 0.049311 255 220 0
0.422601 0.022346 0.059628 255 220 0
0.434955 0.067175 0.012902 255 220 0
0.438179 0.039818 0.077080 255 220 0
0.447943 0.104348 0.100853 255 220 0
0.410564 0.149688 0.089920 255 220 0
0.461081 0.040929 0.038050 255 220 0
0.400407 0.118771 0.033242 255 220 0
0.441864 0.151538 0.047683 255 220 0
0.469264 0.094943 0.086378 255 220 0
0.429864 0.095540 0.101374 255 220 0
0.452411 0.060365 0.085453 255 220 0
0.385712 0.091374 0.042289 255 220 0
0.438183 0.085261 0.099466 255 220 0
0.399373 0.089083 0.083814 255 220 0
0.453042 0.100826 0.031499 255 220 0
0.450575 0.120599 0.038630 255 220 0
0.461490 0.041333 0.051584 255 220 0
0.455421 0.031239 0.049924 255 220 0
0.395571 0.039369 0.045818 255 220 0
0.399543 0.148859 0.057787 255 220 0
0.472370 0.099749 0.056919 255 220 0
0.452773 0.027475 0.047174 255 220 0
0.409708 0.062099 0.086137 255 220 0
0.436243 0.019549 0.029503 255 220 0
0.470030 0.071992 0.045709 255 220 0
0.388621 0.066901 0.029942 255 220 0
0.411692 0.038428 0.071229 255 220 0
0.447991 0.045437 0.077218 255 220 0
0.394031 0.103819 0.075275 255 220 0
0.401398 0.138929 0.045788 255 220 0
0.417112 0.173770 0.087816 255 220 0
0.413223 0.123319 0.096088 255 220 0
0.422153 0.117402 0.027608 255 220 0
0.464487 0.114981 0.094183 255 220 0
0.434052 0.041192 0.014066 255 220 0
0.468871 0.065364 0.044197 255 220 0
0.420239 0.193291 0.060116 255 220 0
0.431972 0.165617 0.096276 255 220 0
0.417737 0.127280 0.098614 255 220 0
0.418411 0.141150 0.097387 255 220 0
0.402971 0.158321 0.055836 255 220 0
0.385036 0.088036 0.044624 255 220 0
0.431174 0.193732 0.066392 255 220 0
0.422429 0.094488 0.018363 255 220 0
0.435546 0.016063 0.040284 255 220 0
0.396671 0.101533 0.079980 255 220 0
0.453311 0.142207 0.051563 255 220 0
0.398856 0.068764 0.018310 255 220 0
0.420093 0.130248 0.099578 255 220 0
0.472343 0.082936 0.051578 255 220 0
0.431333 0.147731 0.041711 255 220 0
0.458695 0.143792 0.057661 255 220 0
0.397361 0.112722 0.032283 255 220 0
0.409906 0.101406 0.021724 255 220 0
0.433623 0.081910 0.015982 255 220 0
0.447518 0.150822 0.098800 255 220 0
0.455136 0.034254 0.057325 255 220 0
0.422313 0.069640 0.011745 255 220 0
0.471720 0.073922 0.069266 255 220 0
0.450902 0.140558 0.048869 255 220 0
0.452032 0.069483 0.090589 255 220 0
0.444032 0.020251 0.045480 255 220 0
0.465791 0.123059 0.092959 255 220 0
0.442485 0.185997 0.074602 255 220 0
0.396913 0.081953 0.080004 255 220 0
0.402356 0.162822 0.061797 255 220 0
0.463574 0.119204 0.049283 255 220 0
0.465215 0.071164 0.080420 255 220 0
0.409705 0.175193 0.079530 255 220 0
0.415641 0.050129 0.082989 255 220 0
0.471773 0.118162 0.065019 255 220 0
0.465286 0.100125 0.091657 255 220 0
0.467194 0.088323 0.042462 255 220 0
0.431617 0.165210 0.047897 255 220 0
0.405469 0.100388 0.090675 255 220 0
0.424146 0.092658 0.100124 255 220 0
0.427251 0.192571 0.058568 255 220 0
0.440337 0.061579 0.013705 255 220 0
0.466812 0.061137 0.039732 255 220 0
0.471190 0.088159 0.049915 255 220 0
0.406808 0.098652 0.021463 255 220 0
0.402504 0.097378 0.087715 255 220 0
0.469202 0.082552 0.044503 255 220 0
0.407663 0.133571 0.090073 255 220 0
0.391532 0.087550 0.071977 255 220 0
0.464946 0.121694 0.093773 255 220 0
0.387702 0.072528 0.060863 255 220 0
0.401733 0.161256 0.066757 255 220 0
0.444187 0.102868 0.027442 255 220 0
0.393436 0.045997 0.051296 255 220 0
0.473810 0.114035 0.069489 255 220 0
0.434660 0.097874 0.021677 255 220 0
0.413656 0.035612 0.070107 255 220 0
0.419396 0.020259 0.055169 255 220 0
0.438424 0.134099 0.103218 255 220 0
0.393748 0.052762 0.025881 255 220 0
0.436536 0.125889 0.103845 255 220 0
0.385458 0.084470 0.040387 255 220 0
0.468080 0.057760 0.060195 255 220 0
0.465736 0.050912 0.054496 255 220 0
0.427543 0.059166 0.011078 255 220 0
0.393762 0.047784 0.055557 255 220 0
0.463240 0.069692 0.081993 255 220 0
0.404074 0.062428 0.081932 255 220 0
0.457670 0.060458 0.025018 255 220 0
0.394217 0.065101 0.022198 255 220 0
0.398955 0.034630 0.047898 255 220 0
0.461010 0.040718 0.052380 255 220 0
0.454182 0.138118 0.098257 255 220 0
0.386710 0.071609 0.034054 255 220 0
0.398660 0.109745 0.029796 255 220 0
0.444483 0.167786 0.057082 255 220 0
0.395604 0.088962 0.024087 255 220 0
0.389955 0.097946 0.033946 255 220 0
0.463965 0.050242 0.061466 255 220 0
0.426290 0.014769 0.040487 255 220 0
0.424373 0.177352 0.089611 255 220 0
0.441856 0.116478 0.103323 255 220 0
0.464961 0.116162 0.049728 255 220 0
0.406065 0.143226 0.086234 255 220 0
0.442094 0.110066 0.102858 255 220 0
0.435113 0.118165 0.030105 255 220 0
0.394106 0.130544 0.057872 255 220 0
0.431657 0.033833 0.016486 255 220 0
0.464651 0.052937 0.064073 255 220 0
0.454976 0.076814 0.024805 255 220 0
0.385177 0.083250 0.053883 255 220 0
0.470547 0.095228 0.050910 255 220 0
0.417624 0.130772 0.033477 255 220 0
0.433910 0.045486 0.012958 255 220 0
0.392467 0.064534 0.068664 255 220 0
0.439934 0.087463 0.099707 255 220 0
0.413421 0.084275 0.015448 255 220 0
0.396695 0.100436 0.080109 255 220 0
0.442872 0.102216 0.101774 255 220 0
0.465315 0.104369 0.092429 255 220 0
0.463559 0.044688 0.046677 255 220 0
0.466323 0.052202 0.045839 255 220 0
0.463858 0.073970 0.083584 255 220 0
0.424986 0.016344 0.050175 255 220 0
0.387950 0.067195 0.058652 255 220 0
0.419913 0.017022 0.049064 255 220 0
0.440035 0.113274 0.029754 255 220 0
0.409834 0.149782 0.044085 255 220 0
0.426914 0.186334 0.084412 255 220 0
0.399696 0.097992 0.084444 255 220 0
0.437930 0.120566 0.032065 255 220 0
0.402749 0.094478 0.021506 255 220 0
0.388097 0.095652 0.063919 255 220 0
0.405093 0.173823 0.061161 255 220 0
0.416362 0.154704 0.043179 255 220 0
0.474043 0.087819 0.071428 255 220 0
0.460995 0.039908 0.040000 255 220 0
0.472138 0.069367 0.056539 255 220 0
0.457452 0.148388 0.059215 255 220 0
0.429785 0.153581 0.099423 255 220 0
0.396938 0.037559 0.047327 255 220 0
0.392939 0.068297 0.071128 255 220 0
0.470976 0.125398 0.068780 255 220 0
0.428726 0.170866 0.093718 255 220 0
0.403199 0.080561 0.086664 255 220 0
0.455659 0.111189 0.037647 255 220 0
0.425896 0.166003 0.094942 255 220 0
0.471678 0.084543 0.050115 255 220 0
0.436390 0.122455 0.032351 255 220 0
0.412507 0.120304 0.029234 255 220 0
0.398768 0.107058 0.028474 255 220 0
0.451273 0.145202 0.098402 255 220 0
0.437763 0.154734 0.099820 255 220 0
0.387835 0.109445 0.052200 255 220 0
0.425640 0.193004 0.058781 255 220 0
0.398536 0.073951 0.080429 255 220 0
0.443410 0.112877 0.031110 255 220 0
0.421241 0.097932 0.019597 255 220 0
0.408909 0.169671 0.081406 255 220 0
0.406941 0.027305 0.053070 255 220 0
0.414900 0.032846 0.068274 255 220 0
0.412017 0.034771 0.018546 255 220 0
0.417208 0.130626 0.033437 255 220 0
0.403861 0.132103 0.038730 255 220 0
0.448813 0.023515 0.042496 255 220 0
0.468775 0.068063 0.072356 255 220 0
0.407744 0.181421 0.070693 255 220 0
0.390465 0.051259 0.047231 255 220 0
0.425761 0.020587 0.057888 255 220 0
0.407938 0.093083 0.092402 255 220 0
0.388370 0.093537 0.064868 255 220 0
0.433807 0.156117 0.099389 255 220 0
0.420601 0.187259 0.081459 255 220 0
0.414844 0.018033 0.039324 255 220 0
0.454997 0.162085 0.066764 255 220 0
0.390723 0.050427 0.035990 255 220 0
0.431689 0.056523 0.089518 255 220 0
0.405063 0.170826 0.058702 255 220 0
0.410266 0.101664 0.021752 255 220 0
0.447805 0.145300 0.048927 255 220 0
0.445726 0.154683 0.098512 255 220 0
0.436208 0.074892 0.097016 255 220 0
0.429570 0.020162 0.026009 255 220 0
0.398119 0.088076 0.082194 255 220 0
0.442838 0.177194 0.059801 255 220 0
0.462408 0.054777 0.071282 255 220 0
0.393557 0.068207 0.072089 255 220 0
0.405937 0.122393 0.089773 255 220 0
0.438997 0.163537 0.051070 255 220 0
0.417032 0.114663 0.026328 255 220 0
0.421543 0.095053 0.099724 255 220 0
0.416613 0.176217 0.086244 255 220 0
0.400089 0.121937 0.035347 255 220 0
0.406145 0.167675 0.054747 255 220 0
0.394969 0.131133 0.067266 255 220 0
0.393945 0.125458 0.067810 255 220 0
0.399745 0.128039 0.039761 255 220 0
0.440708 0.044526 0.080052 255 220 0
0.442531 0.082619 0.019450 255 220 0
0.474580 0.087119 0.061929 255 220 0
0.401437 0.135330 0.081307 255 220 0
0.460888 0.101592 0.038431 255 220 0
0.387441 0.060439 0.046439 255 220 0
0.452605 0.036824 0.026277 255 220 0
0.437776 0.101787 0.024215 255 220 0
0.468392 0.078922 0.079880 255 220 0
0.474522 0.108170 0.068178 255 220 0
0.393964 0.071151 0.022187 255 220 0
0.474019 0.080124 0.061651 255 220 0
0.451839 0.172880 0.081586 255 220 0
0.403134 0.167061 0.063456 255 220 0
0.466027 0.055750 0.039835 255 220 0
0.434955 0.083713 0.099401 255 220 0
0.422566 0.082235 0.097944 255 220 0
0.404491 0.037758 0.063857 255 220 0
0.473343 0.096660 0.058394 255 220 0
0.401921 0.122852 0.034531 255 220 0
0.392095 0.093313 0.072860 255 220 0
0.434590 0.187113 0.057460 255 220 0
0.456853 0.155973 0.064288 255 220 0
0.445879 0.022867 0.051648 255 220 0
0.429283 0.096186 0.019779 255 220 0
0.405866 0.028645 0.053538 255 220 0
0.422710 0.154331 0.042605 255 220 0
0.430836 0.130207 0.034315 255 220 0
0.434897 0.173953 0.092725 255 220 0
0.466633 0.084723 0.085373 255 220 0
0.439260 0.055325 0.013129 255 220 0
0.408025 0.140468 0.040812 255 220 0
0.420806 0.161677 0.094332 255 220 0
0.452984 0.064923 0.087784 255 220 0
0.450271 0.028401 0.056236 255 220 0
0.419070 0.065586 0.091692 255 220 0
0.465201 0.049070 0.051525 255 220 0
0.420394 0.123266 0.100194 255 220 0
0.422054 0.015596 0.045899 255 220 0
0.400108 0.154434 0.064328 255 220 0
0.470561 0.106820 0.055691 255 220 0
0.420534 0.086421 0.098214 255 220 0
0.421096 0.093380 0.017921 255 220 0
0.389098 0.090637 0.032516 255 220 0
0.474616 0.111963 0.076750 255 220 0
0.430727 0.033370 0.016540 255 220 0
0.468513 0.101199 0.049211 255 220 0
0.394852 0.079807 0.022466 255 220 0
0.409006 0.028209 0.026134 255 220 0
0.430269 0.116183 0.103381 255 220 0
0.470369 0.101143 0.052853 255 220 0
0.431994 0.086158 0.016868 255 220 0
0.416955 0.025673 0.061341 255 220 0
0.465214 0.120175 0.093646 255 220 0
0.472620 0.093307 0.080158 255 220 0
0.428735 0.173620 0.049249 255 220 0
0.405435 0.176399 0.063119 255 220 0
0.433948 0.050838 0.086143 255 220 0
0.439629 0.120631 0.032747 255 220 0
0.453374 0.119401 0.039885 255 220 0
0.466149 0.076183 0.081865 255 220 0
0.390229 0.099649 0.068366 255 220 0
0.464932 0.050673 0.058663 255 220 0
0.460721 0.057155 0.028899 255 220 0
0.406595 0.059549 0.014132 255 220 0
0.462136 0.093822 0.092465 255 220 0
0.432195 0.180605 0.088873 255 220 0
0.405791 0.157803 0.050910 255 220 0
0.395004 0.063492 0.072220 255 220 0
0.437240 0.099997 0.102141 255 220 0
0.404216 0.028031 0.033868 255 220 0
0.448378 0.064268 0.089804 255 220 0
0.386150 0.099135 0.046217 255 220 0
0.403217 0.052892 0.075349 255 220 0
0.432723 0.112473 0.027057 255 220 0
0.401529 0.159024 0.061264 255 220 0
0.444635 0.168613 0.094093 255 220 0
0.420815 0.049952 0.011610 255 220 0
0.465972 0.053232 0.041727 255 220 0
0.415808 0.070277 0.012197 255 220 0
0.387863 0.107673 0.046727 255 220 0
0.385496 0.073380 0.051683 255 220 0
0.384792 0.077861 0.044490 255 220 0
0.462748 0.093173 0.037633 255 220 0
0.472068 0.125444 0.078364 255 220 0
0.450179 0.170055 0.090348 255 220 0
0.457912 0.148047 0.059570 255 220 0
0.456197 0.031350 0.045229 255 220 0
0.433773 0.187160 0.083910 255 220 0
0.459523 0.061314 0.080521 255 220 0
0.445423 0.083339 0.097701 255 220 0
0.427827 0.049102 0.085393 255 220 0
0.402270 0.068250 0.082656 255 220 0
0.439426 0.093597 0.021734 255 220 0
0.419904 0.117170 0.100169 255 220 0
0.454867 0.030960 0.036718 255 220 0
0.440777 0.089574 0.020898 255 220 0
0.442232 0.066060 0.092745 255 220 0
0.416678 0.165699 0.090714 255 220 0
0.429761 0.015742 0.048321 255 220 0
0.402339 0.153902 0.076343 255 220 0
0.452826 0.101349 0.098728 255 220 0
0.426804 0.088016 0.016533 255 220 0
0.453381 0.040246 0.067752 255 220 0
0.466354 0.069997 0.078093 255 220 0
0.451744 0.141223 0.049840 255 220 0
0.385755 0.090695 0.056647 255 220 0
0.418744 0.146887 0.040238 255 220 0
0.420114 0.192392 0.073753 255 220 0
0.437092 0.176987 0.054645 255 220 0
0.418218 0.030681 0.018466 255 220 0
0.418011 0.047798 0.082553 255 220 0
0.464064 0.049555 0.059788 255 220 0
0.434618 0.038377 0.076838 255 220 0
0.408564 0.156867 0.085867 255 220 0
0.395355 0.111022 0.076337 255 220 0
0.413567 0.018846 0.044374 255 220 0
0.464075 0.059478 0.033995 255 220 0
0.421634 0.186044 0.083042 255 220 0
0.433604 0.185543 0.055480 255 220 0
0.448353 0.137035 0.045313 255 220 0
0.418052 0.078982 0.095748 255 220 0
0.457431 0.155566 0.065003 255 220 0
0.448607 0.024113 0.049286 255 220 0
0.396381 0.061789 0.073200 255 220 0
0.440802 0.045897 0.014679 255 220 0
0.440568 0.054274 0.013566 255 220 0
0.437862 0.081683 0.098695 255 220 0
0.391370 0.047623 0.040835 255 220 0
0.396172 0.045696 0.059326 255 220 0
0.446398 0.103031 0.101107 255 220 0
0.395866 0.071472 0.076423 255 220 0
0.410901 0.055813 0.083746 255 220 0
0.469278 0.128256 0.065829 255 220 0
0.440118 0.074351 0.096348 255 220 0
0.421005 0.030653 0.017778 255 220 0
0.413803 0.108910 0.096980 255 220 0
0.450368 0.174111 0.084846 255 220 0
0.433050 0.071366 0.013211 255 220 0
0.397413 0.109339 0.030522 255 220 0
0.446428 0.134211 0.042670 255 220 0
0.451890 0.172929 0.076646 255 220 0
0.404693 0.057243 0.015157 255 220 0
0.468726 0.061338 0.046104 255 220 0
0.468336 0.064778 0.070349 255 220 0
0.466865 0.134246 0.064716 255 220 0
0.407315 0.086062 0.017297 255 220 0
0.388545 0.096766 0.064911 255 220 0
0.462803 0.133537 0.093800 255 220 0
0.455254 0.136231 0.098019 255 220 0
0.429164 0.031638 0.017156 255 220 0
0.434535 0.024766 0.062893 255 220 0
0.419404 0.035694 0.073524 255 220 0
0.403341 0.033892 0.025862 255 220 0
0.396843 0.138935 0.068162 255 220 0
0.394375 0.096004 0.027502 255 220 0
0.416925 0.167854 0.090124 255 220 0
0.443843 0.172085 0.092572 255 220 0
0.431032 0.193832 0.069073 255 220 0
0.384838 0.081758 0.043709 255 220 0
0.405800 0.174090 0.072296 255 220 0
0.445206 0.157166 0.098008 255 220 0
0.441954 0.116527 0.103309 255 220 0
0.469631 0.068656 0.045358 255 220 0
0.387758 0.109043 0.051311 255 220 0
0.465275 0.049153 0.045433 255 220 0
0.420630 0.036660 0.015024 255 220 0
0.428819 0.018164 0.054334 255 220 0
0.456115 0.163856 0.086155 255 220 0
0.403095 0.091054 0.088011 255 220 0
0.420165 0.174041 0.048166 255 220 0
0.386386 0.069265 0.035878 255 220 0
0.424956 0.192037 0.076563 255 220 0
0.419173 0.135547 0.035548 255 220 0
0.400738 0.078709 0.083903 255 220 0
0.390249 0.061841 0.061880 255 220 0
0.447467 0.156965 0.054382 255 220 0
0.472291 0.078355 0.070639 255 220 0
0.412660 0.022060 0.052090 255 220 0
0.411508 0.065773 0.012552 255 220 0
0.470004 0.088865 0.047656 255 220 0
0.443609 0.042097 0.016938 255 220 0
0.412311 0.044058 0.014439 255 220 0
0.460084 0.137646 0.055415 255 220 0
0.393853 0.052193 0.025971 255 220 0
0.393940 0.094702 0.076078 255 220 0
0.465728 0.094788 0.089986 255 220 0
0.420693 0.020065 0.027180 255 220 0
0.391447 0.079100 0.025788 255 220 0
0.391228 0.048619 0.036749 255 220 0
0.423402 0.155603 0.097039 255 220 0
0.437356 0.076874 0.015700 255 220 0
0.415846 0.099230 0.020139 255 220 0
0.400792 0.090395 0.085547 255 220 0
0.411074 0.052638 0.081866 255 220 0
0.463095 0.110445 0.044639 255 220 0
0.474227 0.095081 0.060881 255 220 0
0.429585 0.179372 0.089482 255 220 0
0.410281 0.022036 0.047889 255 220 0
0.390131 0.063322 0.062707 255 220 0
0.406487 0.058438 0.081935 255 220 0
0.407249 0.045042 0.016232 255 220 0
0.419553 0.076206 0.095545 255 220 0
0.456021 0.114047 0.039241 255 220 0
0.453987 0.150815 0.056871 255 220 0
0.460362 0.082268 0.031473 255 220 0
0.466558 0.052355 0.048863 255 220 0
0.406453 0.024548 0.039122 255 220 0
0.465458 0.050523 0.055252 255 220 0
0.457899 0.110997 0.097702 255 220 0
0.408614 0.068948 0.087977 255 220 0
0.409130 0.119211 0.029439 255 220 0
0.414568 0.121564 0.029523 255 220 0
0.418452 0.084527 0.097129 255 220 0
0.472374 0.113736 0.063791 255 220 0
0.388001 0.064476 0.056478 255 220 0
0.406667 0.160021 0.082175 255 220 0
0.435584 0.032326 0.018225 255 220 0
0.434255 0.019073 0.029076 255 220 0
0.402683 0.119365 0.086254 255 220 0
0.429263 0.192804 0.060226 255 220 0
0.442585 0.135349 0.102520 255 220 0
0.394679 0.065902 0.072848 255 220 0
0.411694 0.078307 0.014299 255 220 0
0.412147 0.096097 0.019382 255 220 0
0.451986 0.077240 0.022800 255 220 0
0.447456 0.044627 0.076854 255 220 0
0.462559 0.128072 0.052667 255 220 0
0.445773 0.025810 0.057766 255 220 0
0.403147 0.090106 0.019967 255 220 0
0.432508 0.172948 0.050629 255 220 0
0.430993 0.190334 0.057599 255 220 0
0.397729 0.123900 0.077651 255 220 0
0.423239 0.030177 0.069158 255 220 0
0.424984 0.039859 0.078644 255 220 0
0.453066 0.029968 0.034242 255 220 0
0.442862 0.085281 0.098757 255 220 0
0.401927 0.041780 0.021165 255 220 0
0.400784 0.086304 0.085155 255 220 0
0.468406 0.131979 0.087209 255 220 0
0.433280 0.080820 0.098794 255 220 0
0.388986 0.062954 0.058810 255 220 0
0.464548 0.146643 0.082574 255 220 0
0.468730 0.099024 0.048770 255 220 0
0.402901 0.164570 0.070158 255 220 0
0.430219 0.160006 0.097858 255 220 0
0.413609 0.027692 0.061531 255 220 0
0.410844 0.149765 0.043498 255 220 0
0.447053 0.179035 0.083541 255 220 0
0.455850 0.062428 0.084397 255 220 0
0.421364 0.101032 0.100206 255 220 0
0.418428 0.182031 0.050870 255 220 0
0.399205 0.065531 0.018035 255 220 0
0.461466 0.116874 0.096162 255 220 0
0.397916 0.145120 0.065719 255 220 0
0.437872 0.154387 0.046678 255 220 0
0.469707 0.088591 0.046989 255 220 0
0.394266 0.100344 0.076165 255 220 0
0.410441 0.065555 0.012819 255 220 0
0.442881 0.020772 0.050858 255 220 0
0.422318 0.182609 0.085806 255 220 0
0.386829 0.063507 0.048136 255 220 0
0.441364 0.141534 0.043022 255 220 0
0.433263 0.139421 0.038884 255 220 0
0.426199 0.146551 0.040315 255 220 0
0.466985 0.132720 0.089438 255 220 0
0.443320 0.142539 0.044595 255 220 0
0.407153 0.127798 0.034386 255 220 0
0.463055 0.097854 0.039650 255 220 0
0.454933 0.057178 0.022264 255 220 0
0.400034 0.049705 0.019556 255 220 0
0.453391 0.168472 0.086709 255 220 0
0.412256 0.174445 0.050815 255 220 0
0.458175 0.063524 0.025659 255 220 0
0.427110 0.105214 0.102054 255 220 0
0.415011 0.053786 0.084898 255 220 0
0.402125 0.139869 0.045503 255 220 0
0.391282 0.094070 0.071245 255 220 0
0.452071 0.030557 0.056974 255 220 0
0.408128 0.122722 0.091977 255 220 0
0.468964 0.072639 0.075244 255 220 0
0.406383 0.170963 0.055868 255 220 0
0.457207 0.040158 0.029947 255 220 0
0.415692 0.131463 0.033952 255 220 0
0.449818 0.070148 0.091943 255 220 0
0.424220 0.014881 0.041421 255 220 0
0.463210 0.148964 0.073397 255 220 0
0.419507 0.187578 0.053368 255 220 0
0.425443 0.133685 0.035008 255 220 0
0.449157 0.063438 0.089013 255 220 0
0.385331 0.082463 0.040403 255 220 0
0.435468 0.187825 0.059052 255 220 0
0.470349 0.063766 0.061440 255 220 0
0.394061 0.127757 0.051193 255 220 0
0.473839 0.107150 0.081622 255 220 0
0.455416 0.114452 0.038973 255 220 0
0.433384 0.121821 0.031204 255 220 0
0.468996 0.113538 0.090152 255 220 0
0.475378 0.097901 0.071268 255 220 0
0.390290 0.117543 0.058476 255 220 0
0.425898 0.117464 0.027967 255 220 0
0.405230 0.167704 0.056445 255 220 0
0.392358 0.055582 0.061780 255 220 0
0.422014 0.186921 0.052541 255 220 0
0.460432 0.040775 0.036019 255 220 0
0.427087 0.026065 0.065045 255 220 0
0.408235 0.083650 0.091336 255 220 0
0.428697 0.077187 0.013733 255 220 0
0.400040 0.135424 0.045075 255 220 0
0.459051 0.144891 0.093966 255 220 0
0.407699 0.115548 0.028149 255 220 0
0.410519 0.052315 0.081256 255 220 0
0.413232 0.040578 0.074279 255 220 0
0.405032 0.077723 0.087669 255 220 0
0.461043 0.052553 0.071004 255 220 0
0.398438 0.139153 0.051302 255 220 0
0.388099 0.108460 0.046541 255 220 0
0.426540 0.098246 0.020123 255 220 0
0.460391 0.044100 0.032600 255 220 0
0.417533 0.037131 0.073952 255 220 0
0.470395 0.089964 0.082626 255 220 0
0.417687 0.027787 0.020619 255 220 0
0.401360 0.044752 0.067020 255 220 0
0.408976 0.182735 0.058381 255 220 0
0.408898 0.184259 0.070294 255 220 0
0.436643 0.030738 0.069077 255 220 0
0.407332 0.173743 0.055574 255 220 0
0.431480 0.038659 0.077629 255 220 0
0.406852 0.086450 0.017550 255 220 0
0.454508 0.098593 0.031578 255 220 0
0.406843 0.069042 0.086787 255 220 0
0.389145 0.108969 0.062494 255 220 0
0.442367 0.032789 0.068802 255 220 0
0.418529 0.039941 0.076860 255 220 0
0.397368 0.069665 0.077762 255 220 0
0.441358 0.041518 0.077331 255 220 0
0.461901 0.150159 0.087522 255 220 0
0.444414 0.154615 0.050823 255 220 0
0.463686 0.109171 0.094264 255 220 0
0.423546 0.123387 0.030308 255 220 0
0.406905 0.180623 0.068495 255 220 0
0.418704 0.076542 0.013049 255 220 0
0.401794 0.088115 0.020018 255 220 0
0.422755 0.142590 0.099268 255 220 0
0.453112 0.167005 0.068099 255 220 0
0.472850 0.073540 0.055878 255 220 0
0.436004 0.135904 0.103118 255 220 0
0.401391 0.146663 0.077463 255 220 0
0.385629 0.094679 0.054564 255 220 0
0.395244 0.134702 0.063410 255 220 0
0.388134 0.109875 0.056348 255 220 0
0.459955 0.155144 0.071282 255 220 0
0.427302 0.126816 0.102564 255 220 0
0.394826 0.094764 0.077535 255 220 0
0.448243 0.082506 0.096653 255 220 0
0.403077 0.129161 0.037506 255 220 0
0.459319 0.083170 0.030568 255 220 0
0.418382 0.034327 0.016473 255 220 0
0.400331 0.051245 0.018895 255 220 0
0.467705 0.061884 0.042026 255 220 0
0.463552 0.147748 0.085430 255 220 0
0.445558 0.071734 0.094149 255 220 0
0.441205 0.136771 0.102612 255 220 0
0.450737 0.134173 0.100216 255 220 0
0.398129 0.051261 0.068528 255 220 0
0.468558 0.107063 0.051707 255 220 0
0.401866 0.029432 0.038484 255 220 0
0.404369 0.030512 0.053989 255 220 0
0.458513 0.160586 0.078372 255 220 0
0.409875 0.161893 0.048432 255 220 0
0.392310 0.113358 0.038951 255 220 0
0.468902 0.134562 0.083257 255 220 0
0.470906 0.111426 0.087667 255 220 0
0.404031 0.071880 0.015720 255 220 0
0.436305 0.084467 0.017533 255 220 0
0.405353 0.097694 0.090518 255 220 0
0.434783 0.124367 0.032695 255 220 0
0.415397 0.017751 0.039142 255 220 0
0.464676 0.116640 0.094099 255 220 0
0.406050 0.140995 0.086719 255 220 0
0.474273 0.105960 0.065641 255 220 0
0.402346 0.060923 0.079504 255 220 0
0.400048 0.154046 0.063455 255 220 0
0.453529 0.140917 0.098104 255 220 0
0.459279 0.104825 0.038027 255 220 0
0.405876 0.048941 0.015859 255 220 0
0.420664 0.051816 0.011401 255 220 0
0.396462 0.139691 0.062008 255 220 0
0.475030 0.091569 0.067095 255 220 0
0.410306 0.022493 0.033995 255 220 0
0.455853 0.094684 0.096261 255 220 0
0.410462 0.121070 0.094185 255 220 0
0.463509 0.145040 0.067828 255 220 0
0.422960 0.167268 0.093500 255 220 0
0.452242 0.166300 0.090964 255 220 0
0.469964 0.068784 0.070085 255 220 0
0.455989 0.149763 0.094911 255 220 0
0.472195 0.121321 0.069382 255 220 0
0.401236 0.159091 0.064131 255 220 0
0.415298 0.145216 0.040140 255 220 0
0.399718 0.130239 0.041423 255 220 0
0.447374 0.171606 0.091430 255 220 0
0.396277 0.127534 0.044411 255 220 0
0.456448 0.045627 0.025969 255 220 0
0.407588 0.175961 0.056266 255 220 0
0.468955 0.082877 0.044103 255 220 0
0.445064 0.182376 0.080451 255 220 0
0.392782 0.054345 0.061561 255 220 0
0.469705 0.133492 0.079533 255 220 0
0.423433 0.025668 0.020647 255 220 0
0.449425 0.119806 0.101512 255 220 0
0.471263 0.078427 0.048436 255 220 0
0.409233 0.054984 0.082055 255 220 0
0.442129 0.064251 0.091939 255 220 0
0.390638 0.082211 0.027527 255 220 0
0.442706 0.160074 0.097734 255 220 0
0.429554 0.018895 0.027749 255 220 0
0.415393 0.159287 0.091784 255 220 0
0.412670 0.150758 0.043022 255 220 0
0.448157 0.068496 0.091924 255 220 0
0.422923 0.090784 0.017093 255 220 0
0.387935 0.075358 0.062560 255 220 0
0.390277 0.088638 0.069492 255 220 0
0.396147 0.037530 0.037126 255 220 0
0.468243 0.133786 0.068625 255 220 0
0.404213 0.042867 0.018839 255 220 0
0.418240 0.192718 0.071328 255 220 0
0.457636 0.034246 0.049847 255 220 0
0.401778 0.070027 0.082769 255 220 0
0.413123 0.059699 0.086971 255 220 0
0.405518 0.038611 0.065864 255 220 0
0.387854 0.083228 0.032627 255 220 0
0.414872 0.023000 0.027087 255 220 0
0.422854 0.132615 0.100581 255 220 0
0.417897 0.185621 0.081153 255 220 0
0.472778 0.076647 0.053491 255 220 0
0.467394 0.054736 0.054627 255 220 0
0.410283 0.123710 0.093811 255 220 0
0.429247 0.041139 0.013394 255 220 0
0.425150 0.032739 0.016366 255 220 0
0.417276 0.179151 0.085103 255 220 0
0.472295 0.123492 0.080878 255 220 0
0.424797 0.060419 0.010972 255 220 0
0.429062 0.163424 0.046468 255 220 0
0.385570 0.089713 0.042091 255 220 0
0.400411 0.110300 0.084372 255 220 0
0.416010 0.059802 0.088245 255 220 0
0.405637 0.059122 0.081596 255 220 0
0.460107 0.107213 0.096157 255 220 0
0.461768 0.152275 0.085178 255 220 0
0.473438 0.076158 0.062589 255 220 0
0.467963 0.062811 0.042420 255 220 0
0.420405 0.062871 0.011114 255 220 0
0.405881 0.029937 0.055711 255 220 0
0.470712 0.110851 0.057874 255 220 0
0.421815 0.048715 0.011705 255 220 0
0.452281 0.170098 0.070193 255 220 0
0.440272 0.039005 0.075631 255 220 0
0.465350 0.130058 0.058056 255 220 0
0.436909 0.179963 0.055526 255 220 0
0.443885 0.181518 0.064285 255 220 0
0.393137 0.100641 0.030614 255 220 0
0.454634 0.076115 0.091871 255 220 0
0.452086 0.032092 0.059310 255 220 0
0.409898 0.080724 0.091899 255 220 0
0.420877 0.183720 0.084408 255 220 0
0.422387 0.032499 0.071445 255 220 0
0.385701 0.075147 0.054176 255 220 0
0.467530 0.095624 0.045413 255 220 0
0.419602 0.181119 0.085414 255 220 0
0.441633 0.074373 0.096079 255 220 0
0.406450 0.024461 0.041902 255 220 0
0.449603 0.029791 0.059384 255 220 0
0.462554 0.092978 0.037321 255 220 0
0.466404 0.135574 0.089040 255 220 0
0.425719 0.016319 0.033175 255 220 0
0.424727 0.069115 0.011745 255 220 0
0.409095 0.184989 0.060951 255 220 0
0.416693 0.021908 0.055936 255 220 0
0.472217 0.084437 0.051449 255 220 0
0.447705 0.179504 0.074850 255 220 0
0.455323 0.166642 0.082580 255 220 0
0.410078 0.033937 0.065607 255 220 0
0.455112 0.157912 0.063039 255 220 0
0.445258 0.023982 0.031324 255 220 0
0.441928 0.068943 0.094039 255 220 0
0.422316 0.148609 0.098056 255 220 0
0.472191 0.096556 0.055194 255 220 0
0.461100 0.066967 0.029405 255 220 0
0.432209 0.099347 0.102044 255 220 0
0.393092 0.102147 0.073791 255 220 0
0.459128 0.140621 0.095003 255 220 0
0.445837 0.047826 0.080398 255 220 0
0.442403 0.185062 0.066553 255 220 0
0.389711 0.092836 0.068109 255 220 0
0.388242 0.063301 0.032316 255 220 0
0.409623 0.116051 0.093876 255 220 0
0.428729 0.157996 0.098124 255 220 0
0.433401 0.059841 0.091140 255 220 0
0.456155 0.058362 0.023429 255 220 0
0.442790 0.113823 0.031206 255 220 0
0.443317 0.180560 0.062458 255 220 0
0.424039 0.156960 0.096963 255 220 0
0.460675 0.038512 0.045118 255 220 0
0.466753 0.135752 0.066023 255 220 0
0.436181 0.116947 0.103842 255 220 0
0.402504 0.164389 0.063509 255 220 0
0.404485 0.154072 0.050847 255 220 0
0.397796 0.102769 0.027315 255 220 0
0.470336 0.131111 0.081097 255 220 0
0.385198 0.076238 0.051641 255 220 0
0.400899 0.131024 0.040656 255 220 0
0.444662 0.170479 0.093193 255 220 0
0.445380 0.180614 0.066317 255 220 0
0.432607 0.024377 0.062825 255 220 0
0.446507 0.172290 0.061408 255 220 0
0.402588 0.068038 0.082882 255 220 0
0.409512 0.022145 0.037306 255 220 0
0.384975 0.090604 0.048182 255 220 0
0.406943 0.155352 0.048582 255 220 0
0.403885 0.170726 0.066149 255 220 0
0.417154 0.185355 0.052749 255 220 0
0.426879 0.018674 0.055154 255 220 0
0.454509 0.119755 0.099640 255 220 0
0.466825 0.081565 0.040110 255 220 0
0.434170 0.015631 0.041084 255 220 0
0.450408 0.105325 0.031776 255 220 0
0.444177 0.041310 0.075844 255 220 0
0.426717 0.129868 0.102202 255 220 0
0.426408 0.116149 0.102530 255 220 0
0.452868 0.168090 0.068866 255 220 0
0.471541 0.085964 0.077896 255 220 0
0.439629 0.029540 0.021519 255 220 0
0.428411 0.152407 0.099368 255 220 0
0.390229 0.114556 0.062357 255 220 0
0.398157 0.078974 0.081085 255 220 0
0.440704 0.100737 0.024954 255 220 0
0.387054 0.093080 0.061268 255 220 0
0.386452 0.065221 0.038854 255 220 0
0.407282 0.128514 0.034705 255 220 0
0.397569 0.079907 0.080531 255 220 0
0.391662 0.054752 0.058731 255 220 0
0.466343 0.075830 0.038253 255 220 0
0.413864 0.124837 0.031111 255 220 0
0.393976 0.049270 0.058420 255 220 0
0.424630 0.035162 0.074519 255 220 0
0.423795 0.118185 0.101718 255 220 0
0.410860 0.048691 0.078923 255 220 0
0.392880 0.061625 0.067832 255 220 0
0.465022 0.051482 0.039470 255 220 0
0.429344 0.066088 0.011734 255 220 0
0.451365 0.044954 0.021110 255 220 0
0.423557 0.091076 0.099777 255 220 0
0.434720 0.186898 0.057407 255 220 0
0.428533 0.041946 0.013109 255 220 0
0.453010 0.157556 0.094577 255 220 0
0.400718 0.151454 0.056402 255 220 0
0.471567 0.083272 0.049619 255 220 0
0.454149 0.078920 0.093114 255 220 0
0.430881 0.057273 0.089904 255 220 0
0.422332 0.049867 0.085163 255 220 0
0.463612 0.055351 0.069827 255 220 0
0.418473 0.097027 0.019220 255 220 0
0.455502 0.165848 0.074899 255 220 0
0.413502 0.118039 0.028057 255 220 0
0.446010 0.031132 0.064686 255 220 0
0.452301 0.085000 0.025356 255 220 0
0.453517 0.079393 0.093591 255 220 0
0.424655 0.036137 0.075422 255 220 0
0.457794 0.065174 0.084567 255 220 0
0.474721 0.109959 0.071109 255 220 0
0.449573 0.069295 0.019332 255 220 0
0.402539 0.136313 0.082822 255 220 0
0.421320 0.064668 0.091957 255 220 0
0.399841 0.111017 0.083490 255 220 0
0.421371 0.021843 0.024593 255 220 0
0.411192 0.073427 0.013498 255 220 0
0.399304 0.122946 0.036659 255 220 0
0.403315 0.066743 0.083086 255 220 0
0.390214 0.059878 0.060004 255 220 0
0.443443 0.110245 0.102622 255 220 0
0.462484 0.042689 0.041851 255 220 0
0.408072 0.079315 0.090345 255 220 0
0.406773 0.084899 0.090465 255 220 0
0.463910 0.045577 0.048193 255 220 0
0.411552 0.136264 0.093351 255 220 0
0.464981 0.051432 0.060173 255 220 0
0.455057 0.159938 0.091814 255 220 0
0.413149 0.049063 0.013032 255 220 0
0.457214 0.100653 0.096671 255 220 0
0.449395 0.074462 0.093803 255 220 0
0.402034 0.031111 0.049632 255 220 0
0.433975 0.188076 0.057740 255 220 0
0.399004 0.138686 0.075381 255 220 0
0.392206 0.074568 0.071696 255 220 0
0.397046 0.043872 0.025523 255 220 0
0.439944 0.051764 0.085503 255 220 0
0.444756 0.117586 0.102782 255 220 0
0.418433 0.019021 0.030386 255 220 0
0.410232 0.145042 0.041852 255 220 0
0.470660 0.087256 0.048513 255 220 0
0.392991 0.066402 0.023360 255 220 0
0.404319 0.027313 0.035717 255 220 0
0.434689 0.183978 0.055471 255 220 0
0.469924 0.115079 0.089049 255 220 0
0.392673 0.045650 0.046751 255 220 0
0.429039 0.066458 0.011742 255 220 0
0.443660 0.049241 0.015208 255 220 0
0.442440 0.142899 0.044227 255 220 0
0.470841 0.129644 0.075359 255 220 0
0.461452 0.119511 0.046862 255 220 0
0.466015 0.096387 0.043261 255 220 0
0.432037 0.187651 0.055742 255 220 0
0.455107 0.127418 0.045174 255 220 0
0.430574 0.180401 0.051597 255 220 0
0.469650 0.131468 0.071189 255 220 0
0.468557 0.083541 0.043512 255 220 0
0.452964 0.164519 0.065187 255 220 0
0.463367 0.121758 0.050307 255 220 0
0.422446 0.180256 0.049845 255 220 0
