ply
format ascii 1.0
element vertex 1024
property float x
property float y
property float z
property uchar red
property uchar green
property uchar blue
end_header
0.554150 0.172809 0.189437 255 220 0
0.560396 0.126423 0.161702 255 220 0
0.564655 0.136462 0.148305 255 220 0
0.547429 0.237158 0.200039 255 220 0
0.546816 0.177411 0.125921 255 220 0
0.517543 0.158320 0.132870 255 220 0
0.555004 0.191652 0.193028 255 220 0
0.536368 0.168420 0.195376 255 220 0
0.517078 0.125880 0.144221 255 220 0
0.511163 0.144639 0.189388 255 220 0
0.541073 0.150729 0.129088 255 220 0
0.525881 0.096546 0.180239 255 220 0
0.569739 0.182658 0.176747 255 220 0
0.484662 0.210170 0.177394 255 220 0
0.563023 0.242262 0.182130 255 220 0
0.534914 0.239537 0.132881 255 220 0
0.506513 0.171084 0.138165 255 220 0
0.522684 0.099949 0.184650 255 220 0
0.506933 0.258574 0.153681 255 220 0
0.545838 0.146405 0.186596 255 220 0
0.552538 0.264401 0.170771 255 220 0
0.489603 0.234646 0.185777 255 220 0
0.535470 0.098399 0.176115 255 220 0
0.537241 0.155989 0.127644 255 220 0
0.505261 0.144935 0.148473 255 220 0
0.491267 0.243141 0.166831 255 220 0
0.520833 0.274179 0.181659 255 220 0
0.576770 0.196826 0.158614 255 220 0
0.532662 0.264634 0.149286 255 220 0
0.519169 0.139459 0.137683 255 220 0
0.495393 0.228865 0.147326 255 220 0
0.576675 0.185892 0.163666 255 220 0
0.498831 0.145364 0.174072 255 220 0
0.562163 0.134226 0.145893 255 220 0
0.498920 0.161145 0.151356 255 220 0
0.540751 0.135372 0.186555 255 220 0
0.567937 0.215543 0.182089 255 220 0
0.497291 0.239347 0.194526 255 220 0
0.537271 0.182243 0.198146 255 220 0
0.535418 0.274719 0.164785 255 220 0
0.568171 0.197004 0.138391 255 220 0
0.523318 0.102052 0.155989 255 220 0
0.547247 0.208122 0.199233 255 220 0
0.538672 0.129224 0.186196 255 220 0
0.572735 0.217488 0.154847 255 220 0
0.530894 0.182891 0.124262 255 220 0
0.509246 0.251973 0.146478 255 220 0
0.565349 0.236853 0.155421 255 220 0
0.550017 0.160214 0.129036 255 220 0
0.533476 0.272620 0.158583 255 220 0
0.511710 0.100188 0.171421 255 220 0
0.561252 0.247635 0.181575 255 220 0
0.559080 0.163445 0.183871 255 220 0
0.535232 0.100537 0.179722 255 220 0
0.534838 0.240414 0.203892 255 220 0
0.501121 0.133637 0.165489 255 220 0
0.548041 0.227048 0.200443 255 220 0
0.488653 0.212230 0.189135 255 220 0
0.485995 0.228921 0.176372 255 220 0
0.576641 0.176265 0.160860 255 220 0
0.528527 0.244134 0.134628 255 220 0
0.530114 0.276619 0.174376 255 220 0
0.527909 0.180956 0.124855 255 220 0
0.494704 0.228304 0.195055 255 220 0
0.531668 0.163588 0.195167 255 220 0
0.511838 0.217877 0.130694 255 220 0
0.530226 0.134233 0.189820 255 220 0
0.517191 0.167775 0.130781 255 220 0
0.490361 0.194819 0.188818 255 220 0
0.544110 0.187294 0.196956 255 220 0
0.525010 0.148205 0.132146 255 220 0
0.518726 0.216328 0.127604 255 220 0
0.551651 0.204309 0.127782 255 220 0
0.538560 0.227328 0.128880 255 220 0
0.526666 0.232090 0.129687 255 220 0
0.543058 0.231769 0.202493 255 220 0
0.539881 0.273502 0.175551 255 220 0
0.569781 0.229494 0.159329 255 220 0
0.496155 0.176183 0.189369 255 220 0
0.489352 0.229817 0.187899 255 220 0
0.493527 0.250267 0.169613 255 220 0
0.506774 0.136386 0.150128 255 220 0
0.503161 0.217240 0.136560 255 220 0
0.555906 0.181235 0.129202 255 220 0
0.524822 0.115456 0.145468 255 220 0
0.572540 0.216837 0.153620 255 220 0
0.501442 0.250888 0.153344 255 220 0
0.506563 0.126657 0.182662 255 220 0
0.574583 0.203776 0.152468 255 220 0
0.553673 0.127324 0.175332 255 220 0
0.532010 0.098532 0.158818 255 220 0
0.538243 0.192599 0.123837 255 220 0
0.541108 0.221116 0.127565 255 220 0
0.536684 0.244778 0.135964 255 220 0
0.547549 0.182345 0.194711 255 220 0
0.521895 0.158999 0.194538 255 220 0
0.561818 0.217306 0.189773 255 220 0
0.561259 0.156246 0.135752 255 220 0
0.542433 0.212568 0.201442 255 220 0
0.518765 0.204117 0.203810 255 220 0
0.523125 0.228822 0.205730 255 220 0
0.491829 0.168298 0.166739 255 220 0
0.492572 0.208921 0.148034 255 220 0
0.518739 0.104453 0.156323 255 220 0
0.488631 0.210464 0.155118 255 220 0
0.495746 0.174986 0.188427 255 220 0
0.552555 0.161235 0.187159 255 220 0
0.527969 0.127286 0.189400 255 220 0
0.544510 0.176189 0.194521 255 220 0
0.573080 0.214281 0.153583 255 220 0
0.497035 0.218798 0.142586 255 220 0
0.553736 0.261195 0.179742 255 220 0
0.508102 0.150275 0.142934 255 220 0
0.503816 0.252712 0.193625 255 220 0
0.514480 0.249457 0.200393 255 220 0
0.522020 0.187728 0.200921 255 220 0
0.517102 0.229736 0.205162 255 220 0
0.548301 0.263012 0.185634 255 220 0
0.538463 0.197354 0.123858 255 220 0
0.536529 0.261549 0.147555 255 220 0
0.543580 0.260008 0.192497 255 220 0
0.534596 0.236603 0.131523 255 220 0
0.498247 0.144901 0.166780 255 220 0
0.514165 0.138054 0.189700 255 220 0
0.498016 0.152536 0.158121 255 220 0
0.565023 0.171091 0.180437 255 220 0
0.563051 0.167816 0.134438 255 220 0
0.515031 0.208919 0.128249 255 220 0
0.508119 0.239633 0.140337 255 220 0
0.537159 0.181258 0.124235 255 220 0
0.536080 0.265277 0.150711 255 220 0
0.558633 0.131822 0.171326 255 220 0
0.538296 0.155683 0.127702 255 220 0
0.487528 0.229660 0.183855 255 220 0
0.552029 0.262872 0.162233 255 220 0
0.493467 0.173296 0.155864 255 220 0
0.564477 0.192954 0.134555 255 220 0
0.545800 0.196091 0.197943 255 220 0
0.506196 0.122038 0.159011 255 220 0
0.504498 0.263767 0.163723 255 220 0
0.533757 0.154190 0.192734 255 220 0
0.523991 0.150570 0.131847 255 220 0
0.537135 0.115121 0.184657 255 220 0
0.561319 0.196498 0.188745 255 220 0
0.558771 0.202995 0.191805 255 220 0
0.570508 0.152276 0.163151 255 220 0
0.577073 0.174277 0.153555 255 220 0
0.491918 0.225219 0.151515 255 220 0
0.546156 0.269951 0.170718 255 220 0
0.526110 0.151786 0.130755 255 220 0
0.542584 0.176253 0.195251 255 220 0
0.529627 0.129429 0.137336 255 220 0
0.548695 0.181767 0.126271 255 220 0
0.545340 0.210824 0.126398 255 220 0
0.532515 0.188338 0.123759 255 220 0
0.494683 0.176709 0.151934 255 220 0
0.561434 0.153208 0.136772 255 220 0
0.572180 0.177695 0.141307 255 220 0
0.510311 0.247783 0.143202 255 220 0
0.489180 0.179178 0.178419 255 220 0
0.535049 0.193068 0.200741 255 220 0
0.515800 0.100816 0.182845 255 220 0
0.534701 0.223080 0.127196 255 220 0
0.540478 0.164524 0.126105 255 220 0
0.541171 0.235754 0.202938 255 220 0
0.512030 0.267485 0.158154 255 220 0
0.577467 0.184847 0.159775 255 220 0
0.551077 0.151901 0.131460 255 220 0
0.570588 0.197006 0.177693 255 220 0
0.542182 0.118680 0.142492 255 220 0
0.486283 0.214398 0.161527 255 220 0
0.499236 0.142136 0.163955 255 220 0
0.522221 0.271295 0.187078 255 220 0
0.574819 0.203578 0.153215 255 220 0
0.530786 0.234307 0.130306 255 220 0
0.545329 0.182500 0.125307 255 220 0
0.504122 0.265079 0.176910 255 220 0
0.546916 0.247925 0.197584 255 220 0
0.552100 0.253537 0.150576 255 220 0
0.548426 0.259192 0.152263 255 220 0
0.518861 0.270561 0.186845 255 220 0
0.563352 0.156387 0.137136 255 220 0
0.550331 0.138082 0.135720 255 220 0
0.538322 0.270496 0.157920 255 220 0
0.549655 0.242614 0.140531 255 220 0
0.538729 0.232127 0.130577 255 220 0
0.522225 0.137922 0.136640 255 220 0
0.531554 0.221667 0.126760 255 220 0
0.574759 0.178563 0.144955 255 220 0
0.511551 0.170619 0.195903 255 220 0
0.501255 0.261033 0.165961 255 220 0
0.527130 0.187800 0.124349 255 220 0
0.562933 0.216145 0.137715 255 220 0
0.572141 0.152171 0.153968 255 220 0
0.533717 0.143715 0.190676 255 220 0
0.548625 0.118214 0.176705 255 220 0
0.484713 0.207164 0.167850 255 220 0
0.504844 0.137564 0.152451 255 220 0
0.551092 0.264258 0.163177 255 220 0
0.533657 0.155418 0.193014 255 220 0
0.549152 0.218027 0.199507 255 220 0
0.527317 0.256800 0.198888 255 220 0
0.553452 0.191937 0.193984 255 220 0
0.527106 0.101723 0.185653 255 220 0
0.533364 0.184560 0.123983 255 220 0
0.515596 0.256790 0.197266 255 220 0
0.535335 0.100101 0.179073 255 220 0
0.528972 0.223741 0.205537 255 220 0
0.522461 0.153357 0.131703 255 220 0
0.493735 0.247741 0.184516 255 220 0
0.527929 0.243435 0.203864 255 220 0
0.501214 0.245059 0.195660 255 220 0
0.491888 0.189723 0.152153 255 220 0
0.534663 0.130162 0.136231 255 220 0
0.535530 0.151214 0.191714 255 220 0
0.552935 0.225024 0.197553 255 220 0
0.506574 0.126726 0.182689 255 220 0
0.555242 0.117694 0.164160 255 220 0
0.490231 0.207656 0.190982 255 220 0
0.512983 0.263720 0.153176 255 220 0
0.556899 0.130026 0.172765 255 220 0
0.504815 0.160649 0.190302 255 220 0
0.487950 0.181256 0.168112 255 220 0
0.513063 0.144808 0.190214 255 220 0
0.485618 0.201166 0.179693 255 220 0
0.545346 0.246501 0.140393 255 220 0
0.502564 0.260917 0.162602 255 220 0
0.499030 0.259037 0.168144 255 220 0
0.551344 0.193829 0.195387 255 220 0
0.496636 0.181815 0.147085 255 220 0
0.574150 0.207142 0.171043 255 220 0
0.488277 0.181786 0.165024 255 220 0
0.508350 0.228688 0.203159 255 220 0
0.522558 0.136524 0.136991 255 220 0
0.543764 0.183182 0.196282 255 220 0
0.538716 0.256682 0.197094 255 220 0
0.573218 0.159732 0.161710 255 220 0
0.513939 0.273162 0.168178 255 220 0
0.501297 0.222808 0.139180 255 220 0
0.512744 0.248911 0.200067 255 220 0
0.542494 0.161030 0.126933 255 220 0
0.535215 0.220124 0.204325 255 220 0
0.505325 0.258352 0.155282 255 220 0
0.533028 0.250603 0.138669 255 220 0
0.568338 0.194994 0.138247 255 220 0
0.560736 0.156825 0.180488 255 220 0
0.568608 0.170057 0.175580 255 220 0
0.511924 0.135593 0.144514 255 220 0
0.547356 0.261644 0.188149 255 220 0
0.495232 0.246663 0.188366 255 220 0
0.494014 0.252359 0.175400 255 220 0
0.527679 0.174428 0.125734 255 220 0
0.526538 0.254987 0.141358 255 220 0
0.549201 0.218412 0.199510 255 220 0
0.520774 0.106119 0.187724 255 220 0
0.564465 0.222563 0.186339 255 220 0
0.487949 0.235827 0.171712 255 220 0
0.534112 0.179589 0.198301 255 220 0
0.556504 0.177201 0.129702 255 220 0
0.549367 0.116627 0.175054 255 220 0
0.542551 0.212987 0.126038 255 220 0
0.547310 0.163774 0.190304 255 220 0
0.569263 0.164852 0.139838 255 220 0
0.499629 0.259188 0.166468 255 220 0
0.489692 0.185899 0.184570 255 220 0
0.552847 0.237879 0.139857 255 220 0
0.557718 0.257237 0.167406 255 220 0
0.493786 0.173796 0.154939 255 220 0
0.528583 0.175605 0.125393 255 220 0
0.564450 0.244090 0.167402 255 220 0
0.577228 0.177254 0.152534 255 220 0
0.506096 0.257047 0.192243 255 220 0
0.560375 0.204238 0.132659 255 220 0
0.534835 0.161101 0.126706 255 220 0
0.499442 0.254057 0.159483 255 220 0
0.550670 0.144894 0.133445 255 220 0
0.501786 0.132934 0.174694 255 220 0
0.566405 0.154275 0.172905 255 220 0
0.526218 0.144417 0.191798 255 220 0
0.509106 0.212823 0.131678 255 220 0
0.522375 0.111986 0.148560 255 220 0
0.537666 0.137546 0.188308 255 220 0
0.504239 0.143144 0.150755 255 220 0
0.570556 0.212990 0.146625 255 220 0
0.568161 0.220897 0.180890 255 220 0
0.532191 0.247594 0.136687 255 220 0
0.525890 0.231466 0.205623 255 220 0
0.530135 0.165706 0.126541 255 220 0
0.555987 0.179406 0.129314 255 220 0
0.521340 0.247550 0.137718 255 220 0
0.531022 0.202069 0.203046 255 220 0
0.566275 0.193566 0.136088 255 220 0
0.525612 0.153523 0.193426 255 220 0
0.497376 0.176116 0.190465 255 220 0
0.530486 0.170222 0.196812 255 220 0
0.575239 0.166962 0.160479 255 220 0
0.497540 0.234244 0.146978 255 220 0
0.577225 0.175151 0.155134 255 220 0
0.538748 0.215635 0.202975 255 220 0
0.531904 0.223393 0.127178 255 220 0
0.494235 0.221095 0.146569 255 220 0
0.516725 0.217809 0.128503 255 220 0
0.493308 0.219041 0.194808 255 220 0
0.532398 0.241869 0.133633 255 220 0
0.575254 0.163300 0.153210 255 220 0
0.502654 0.165124 0.190442 255 220 0
0.570295 0.226652 0.172768 255 220 0
0.566021 0.233176 0.180632 255 220 0
0.501893 0.186458 0.196419 255 220 0
0.507891 0.260165 0.190882 255 220 0
0.486503 0.210872 0.160420 255 220 0
0.517893 0.137884 0.190621 255 220 0
0.552031 0.125980 0.176459 255 220 0
0.516652 0.252515 0.142520 255 220 0
0.515807 0.199456 0.127597 255 220 0
0.559093 0.122366 0.157628 255 220 0
0.559937 0.250251 0.181895 255 220 0
0.510978 0.211522 0.130465 255 220 0
0.490328 0.243717 0.174076 255 220 0
0.509500 0.159799 0.192397 255 220 0
0.516251 0.098871 0.180812 255 220 0
0.491027 0.197705 0.151779 255 220 0
0.522156 0.095135 0.170343 255 220 0
0.532776 0.135495 0.189439 255 220 0
0.560285 0.237179 0.189014 255 220 0
0.494507 0.174214 0.153322 255 220 0
0.572947 0.193267 0.173302 255 220 0
0.577497 0.188856 0.159223 255 220 0
0.553199 0.115008 0.165937 255 220 0
0.532455 0.127709 0.188332 255 220 0
0.577118 0.178210 0.159581 255 220 0
0.568845 0.215647 0.180667 255 220 0
0.530710 0.275563 0.179189 255 220 0
0.521304 0.095180 0.175198 255 220 0
0.526022 0.237214 0.205028 255 220 0
0.506258 0.126374 0.182182 255 220 0
0.503616 0.230994 0.139795 255 220 0
0.484693 0.203446 0.169274 255 220 0
0.532705 0.220313 0.126439 255 220 0
0.502747 0.162375 0.189476 255 220 0
0.514909 0.111997 0.187233 255 220 0
0.491213 0.169680 0.170556 255 220 0
0.502906 0.137876 0.155826 255 220 0
0.565961 0.171401 0.179424 255 220 0
0.541003 0.239091 0.202596 255 220 0
0.546435 0.214727 0.200299 255 220 0
0.490475 0.177382 0.180975 255 220 0
0.573100 0.214165 0.172124 255 220 0
0.534352 0.235609 0.204615 255 220 0
0.499140 0.141760 0.170797 255 220 0
0.553080 0.172110 0.128511 255 220 0
0.550218 0.208895 0.198116 255 220 0
0.577529 0.182727 0.158800 255 220 0
0.500406 0.199885 0.198319 255 220 0
0.567895 0.198033 0.138275 255 220 0
0.485949 0.203363 0.162454 255 220 0
0.548053 0.159013 0.188721 255 220 0
0.561525 0.248498 0.179558 255 220 0
0.544271 0.246255 0.139684 255 220 0
0.501882 0.176908 0.193881 255 220 0
0.543158 0.131711 0.184461 255 220 0
0.549537 0.108459 0.155528 255 220 0
0.566238 0.179649 0.135695 255 220 0
0.519491 0.244393 0.136684 255 220 0
0.500532 0.213079 0.138432 255 220 0
0.486409 0.204087 0.160856 255 220 0
0.576083 0.193901 0.151171 255 220 0
0.486501 0.205386 0.183817 255 220 0
0.512215 0.106899 0.160453 255 220 0
0.551036 0.205573 0.127663 255 220 0
0.486517 0.195837 0.180927 255 220 0
0.557058 0.256926 0.179317 255 220 0
0.551439 0.142500 0.182570 255 220 0
0.529067 0.269788 0.153853 255 220 0
0.575430 0.196125 0.150338 255 220 0
0.504306 0.204530 0.134863 255 220 0
0.518056 0.232581 0.131896 255 220 0
0.517401 0.271228 0.158593 255 220 0
0.496551 0.256627 0.176296 255 220 0
0.545436 0.141301 0.132794 255 220 0
0.536792 0.140306 0.132210 255 220 0
0.487491 0.195790 0.159508 255 220 0
0.507820 0.201580 0.201522 255 220 0
0.534816 0.140297 0.189761 255 220 0
0.543327 0.191067 0.124666 255 220 0
0.565184 0.160510 0.177147 255 220 0
0.502007 0.262478 0.179125 255 220 0
0.521869 0.101874 0.186010 255 220 0
0.486426 0.193330 0.179268 255 220 0
0.529965 0.137277 0.134218 255 220 0
0.559824 0.171129 0.185342 255 220 0
0.513275 0.210827 0.129200 255 220 0
0.523283 0.207694 0.125279 255 220 0
0.533949 0.176010 0.124678 255 220 0
0.544782 0.269894 0.178145 255 220 0
0.498303 0.229561 0.197802 255 220 0
0.520188 0.108987 0.151753 255 220 0
0.571834 0.214638 0.150223 255 220 0
0.543271 0.197580 0.124690 255 220 0
0.526600 0.248682 0.137256 255 220 0
0.513861 0.130431 0.188801 255 220 0
0.508810 0.131947 0.185933 255 220 0
0.493539 0.199639 0.147409 255 220 0
0.552620 0.246013 0.145048 255 220 0
0.485775 0.227737 0.177002 255 220 0
0.570230 0.227315 0.157255 255 220 0
0.562910 0.205056 0.134742 255 220 0
0.534506 0.136541 0.189156 255 220 0
0.555290 0.257328 0.159511 255 220 0
0.543926 0.119100 0.142632 255 220 0
0.547692 0.150739 0.130503 255 220 0
0.524707 0.118668 0.143742 255 220 0
0.563108 0.222404 0.140539 255 220 0
0.503425 0.224766 0.201377 255 220 0
0.563715 0.211304 0.187589 255 220 0
0.544874 0.270748 0.173677 255 220 0
0.491597 0.227637 0.153232 255 220 0
0.553235 0.208108 0.196428 255 220 0
0.489281 0.177038 0.175818 255 220 0
0.507805 0.160771 0.139799 255 220 0
0.517309 0.250384 0.140937 255 220 0
0.529505 0.147497 0.192064 255 220 0
0.486168 0.203294 0.182370 255 220 0
0.541280 0.231333 0.130949 255 220 0
0.576409 0.199261 0.158289 255 220 0
0.555077 0.115463 0.158523 255 220 0
0.485407 0.221219 0.180838 255 220 0
0.507568 0.139761 0.147623 255 220 0
0.550850 0.148969 0.132231 255 220 0
0.553273 0.208334 0.129042 255 220 0
0.544282 0.256292 0.146688 255 220 0
0.556306 0.220694 0.133995 255 220 0
0.497031 0.157512 0.179356 255 220 0
0.541957 0.271465 0.178898 255 220 0
0.527324 0.118138 0.143196 255 220 0
0.560072 0.137146 0.172632 255 220 0
0.505095 0.245662 0.145695 255 220 0
0.525106 0.095469 0.166936 255 220 0
0.557354 0.258278 0.172292 255 220 0
0.555186 0.127236 0.173415 255 220 0
0.558641 0.202520 0.191863 255 220 0
0.516458 0.107403 0.155654 255 220 0
0.498801 0.249250 0.191243 255 220 0
0.525550 0.276747 0.168308 255 220 0
0.521858 0.134701 0.137983 255 220 0
0.552904 0.113245 0.163440 255 220 0
0.543302 0.170753 0.193719 255 220 0
0.573345 0.160925 0.162305 255 220 0
0.562403 0.228432 0.143047 255 220 0
0.496670 0.193243 0.194784 255 220 0
0.508160 0.121730 0.155661 255 220 0
0.498230 0.231238 0.197457 255 220 0
0.498339 0.244347 0.152476 255 220 0
0.534729 0.172252 0.125022 255 220 0
0.504208 0.132096 0.180336 255 220 0
0.524959 0.176303 0.198489 255 220 0
0.562544 0.246462 0.162088 255 220 0
0.536680 0.170660 0.195811 255 220 0
0.542417 0.101310 0.159231 255 220 0
0.551175 0.203474 0.196978 255 220 0
0.569580 0.202270 0.141229 255 220 0
0.547193 0.126507 0.180668 255 220 0
0.534609 0.240737 0.133403 255 220 0
0.561047 0.143387 0.174791 255 220 0
0.486750 0.214019 0.185584 255 220 0
0.487861 0.218229 0.187928 255 220 0
0.551523 0.230093 0.198316 255 220 0
0.563464 0.220561 0.187812 255 220 0
0.575731 0.172651 0.147860 255 220 0
0.501913 0.176440 0.193759 255 220 0
0.556580 0.119864 0.150234 255 220 0
0.513845 0.251628 0.143403 255 220 0
0.509054 0.263800 0.187980 255 220 0
0.506192 0.153594 0.188758 255 220 0
0.564724 0.150879 0.173694 255 220 0
0.557828 0.177650 0.130363 255 220 0
0.524124 0.215525 0.126161 255 220 0
0.538224 0.099242 0.173447 255 220 0
0.532344 0.096315 0.175239 255 220 0
0.522599 0.243382 0.203702 255 220 0
0.504977 0.158008 0.143871 255 220 0
0.563155 0.233705 0.185932 255 220 0
0.508886 0.129833 0.185693 255 220 0
0.552143 0.194510 0.127388 255 220 0
0.527758 0.233265 0.129985 255 220 0
0.562711 0.248127 0.168437 255 220 0
0.522656 0.128146 0.140166 255 220 0
0.514104 0.192382 0.201233 255 220 0
0.511245 0.185938 0.131109 255 220 0
0.523371 0.128182 0.139848 255 220 0
0.569768 0.168608 0.173418 255 220 0
0.546888 0.152624 0.187607 255 220 0
0.559095 0.138831 0.174863 255 220 0
0.572767 0.160669 0.163802 255 220 0
0.575626 0.165221 0.152752 255 220 0
0.534890 0.271110 0.185607 255 220 0
0.573801 0.202017 0.149044 255 220 0
0.538923 0.267014 0.153678 255 220 0
0.525737 0.217541 0.205416 255 220 0
0.546419 0.111134 0.175747 255 220 0
0.535255 0.190378 0.123671 255 220 0
0.577205 0.184778 0.161309 255 220 0
0.530488 0.133355 0.189646 255 220 0
0.497585 0.183112 0.145334 255 220 0
0.522251 0.252442 0.140380 255 220 0
0.535629 0.226016 0.204560 255 220 0
0.532110 0.182841 0.124173 255 220 0
0.496660 0.168896 0.186514 255 220 0
0.575451 0.188753 0.167535 255 220 0
0.490906 0.177091 0.181870 255 220 0
0.522722 0.204427 0.125165 255 220 0
0.571631 0.150998 0.152109 255 220 0
0.555159 0.258508 0.161213 255 220 0
0.550294 0.241876 0.140493 255 220 0
0.506227 0.185872 0.134996 255 220 0
0.514057 0.129127 0.145196 255 220 0
0.508177 0.121577 0.183754 255 220 0
0.506107 0.266483 0.166324 255 220 0
0.565271 0.196496 0.135500 255 220 0
0.535129 0.195945 0.123564 255 220 0
0.525548 0.107280 0.150688 255 220 0
0.569702 0.231087 0.164928 255 220 0
0.509800 0.102505 0.171726 255 220 0
0.522086 0.144920 0.191906 255 220 0
0.484500 0.205719 0.173908 255 220 0
0.571270 0.217796 0.175538 255 220 0
0.553529 0.152892 0.184285 255 220 0
0.504948 0.162930 0.142254 255 220 0
0.510491 0.208436 0.203158 255 220 0
0.514374 0.264964 0.190713 255 220 0
0.552414 0.211314 0.197227 255 220 0
0.502840 0.142527 0.181634 255 220 0
0.508796 0.155707 0.190905 255 220 0
0.503950 0.205928 0.135153 255 220 0
0.533025 0.112943 0.186554 255 220 0
0.541633 0.124856 0.138926 255 220 0
0.555185 0.178943 0.128947 255 220 0
0.516986 0.180768 0.128547 255 220 0
0.557215 0.256162 0.180307 255 220 0
0.557121 0.229784 0.138658 255 220 0
0.494323 0.250618 0.167054 255 220 0
0.501770 0.245424 0.148813 255 220 0
0.565515 0.209883 0.138330 255 220 0
0.552597 0.261481 0.181629 255 220 0
0.532393 0.213355 0.124994 255 220 0
0.485668 0.194737 0.176315 255 220 0
0.510917 0.166034 0.135452 255 220 0
0.572196 0.211123 0.149330 255 220 0
0.503001 0.137397 0.179987 255 220 0
0.524803 0.102000 0.155481 255 220 0
0.527726 0.103657 0.153261 255 220 0
0.538849 0.120292 0.184459 255 220 0
0.537412 0.256339 0.197722 255 220 0
0.536422 0.269065 0.187448 255 220 0
0.498138 0.206663 0.140753 255 220 0
0.527552 0.246693 0.203014 255 220 0
0.555362 0.255904 0.184458 255 220 0
0.512176 0.254530 0.197298 255 220 0
0.552974 0.238232 0.140169 255 220 0
0.517495 0.244154 0.202821 255 220 0
0.495658 0.247270 0.188576 255 220 0
0.561397 0.126898 0.153042 255 220 0
0.499114 0.183668 0.143156 255 220 0
0.548629 0.199188 0.197437 255 220 0
0.490517 0.241838 0.167936 255 220 0
0.508000 0.162448 0.139112 255 220 0
0.508795 0.121513 0.184410 255 220 0
0.492254 0.176247 0.156862 255 220 0
0.563577 0.240557 0.155770 255 220 0
0.485359 0.221875 0.168568 255 220 0
0.503429 0.202971 0.135645 255 220 0
0.536893 0.249098 0.201252 255 220 0
0.511615 0.240646 0.202280 255 220 0
0.556688 0.192379 0.129492 255 220 0
0.550981 0.227617 0.198795 255 220 0
0.555252 0.120186 0.167615 255 220 0
0.507961 0.112372 0.181316 255 220 0
0.561224 0.205347 0.189782 255 220 0
0.511445 0.114723 0.155481 255 220 0
0.523731 0.248543 0.137628 255 220 0
0.492827 0.170325 0.180757 255 220 0
0.498819 0.229065 0.198244 255 220 0
0.488946 0.204714 0.154651 255 220 0
0.542457 0.201492 0.124673 255 220 0
0.544761 0.199026 0.125105 255 220 0
0.552951 0.242543 0.195047 255 220 0
0.502100 0.154484 0.185590 255 220 0
0.514841 0.260585 0.149198 255 220 0
0.552555 0.239915 0.196083 255 220 0
0.535089 0.226545 0.204699 255 220 0
0.504048 0.229686 0.201287 255 220 0
0.538615 0.274379 0.173210 255 220 0
0.533071 0.216577 0.125612 255 220 0
0.543615 0.256895 0.146786 255 220 0
0.529024 0.224328 0.205552 255 220 0
0.547486 0.155208 0.187987 255 220 0
0.551108 0.114032 0.169980 255 220 0
0.492518 0.182992 0.153219 255 220 0
0.492627 0.173521 0.182996 255 220 0
0.561128 0.147825 0.138412 255 220 0
0.485155 0.209907 0.180127 255 220 0
0.574548 0.210314 0.156774 255 220 0
0.559568 0.178010 0.187139 255 220 0
0.499223 0.159638 0.184725 255 220 0
0.571845 0.162998 0.167379 255 220 0
0.551886 0.148507 0.132833 255 220 0
0.544930 0.185369 0.125121 255 220 0
0.575726 0.203915 0.165177 255 220 0
0.532016 0.251279 0.201222 255 220 0
0.548190 0.190256 0.125914 255 220 0
0.560946 0.240161 0.187136 255 220 0
0.534362 0.224746 0.204778 255 220 0
0.552980 0.225051 0.133551 255 220 0
0.534736 0.210935 0.124636 255 220 0
0.554284 0.118897 0.147987 255 220 0
0.521669 0.095274 0.176170 255 220 0
0.489627 0.186519 0.184731 255 220 0
0.560177 0.135241 0.171228 255 220 0
0.532153 0.261896 0.195241 255 220 0
0.519997 0.221384 0.205563 255 220 0
0.564102 0.165116 0.179846 255 220 0
0.546956 0.162036 0.127682 255 220 0
0.545561 0.241691 0.200213 255 220 0
0.559184 0.179462 0.131019 255 220 0
0.493980 0.162116 0.164117 255 220 0
0.519627 0.148409 0.134481 255 220 0
0.537943 0.192531 0.199931 255 220 0
0.544112 0.242685 0.200676 255 220 0
0.533107 0.196811 0.123529 255 220 0
0.546195 0.169886 0.192351 255 220 0
0.491393 0.173021 0.179382 255 220 0
0.486068 0.223118 0.182770 255 220 0
0.553088 0.136187 0.179478 255 220 0
0.511196 0.220761 0.131567 255 220 0
0.524891 0.183604 0.200065 255 220 0
0.487731 0.225011 0.186564 255 220 0
0.530470 0.146024 0.191682 255 220 0
0.566270 0.207239 0.138442 255 220 0
0.517339 0.106953 0.155290 255 220 0
0.523802 0.264533 0.149180 255 220 0
0.522089 0.269170 0.153961 255 220 0
0.558303 0.163497 0.184436 255 220 0
0.497201 0.237514 0.195046 255 220 0
0.527688 0.274891 0.181670 255 220 0
0.550457 0.151499 0.131313 255 220 0
0.504121 0.221469 0.201801 255 220 0
0.498122 0.179386 0.145721 255 220 0
0.518896 0.215840 0.127476 255 220 0
0.551722 0.125485 0.141957 255 220 0
0.517508 0.149329 0.135427 255 220 0
0.527623 0.185996 0.200430 255 220 0
0.551125 0.126849 0.177682 255 220 0
0.539657 0.270605 0.159139 255 220 0
0.499492 0.177226 0.144535 255 220 0
0.565024 0.180842 0.134750 255 220 0
0.514249 0.172131 0.131572 255 220 0
0.511559 0.161283 0.193500 255 220 0
0.514514 0.270820 0.160456 255 220 0
0.539370 0.271277 0.160144 255 220 0
0.545689 0.235839 0.134557 255 220 0
0.507033 0.142629 0.147108 255 220 0
0.499260 0.254316 0.160109 255 220 0
0.497771 0.227516 0.197716 255 220 0
0.560534 0.246694 0.184164 255 220 0
0.498275 0.145907 0.171869 255 220 0
0.562576 0.129345 0.152895 255 220 0
0.490851 0.222366 0.192009 255 220 0
0.537346 0.196490 0.123724 255 220 0
0.576926 0.195423 0.157829 255 220 0
0.506156 0.114780 0.178609 255 220 0
0.500955 0.179612 0.141982 255 220 0
0.511272 0.239628 0.202413 255 220 0
0.572980 0.199779 0.173967 255 220 0
0.484827 0.201349 0.174819 255 220 0
0.523894 0.099787 0.158200 255 220 0
0.491985 0.173822 0.181814 255 220 0
0.542622 0.103151 0.173024 255 220 0
0.507920 0.211473 0.132343 255 220 0
0.539312 0.241605 0.135018 255 220 0
0.508010 0.176655 0.196455 255 220 0
0.559260 0.202338 0.131642 255 220 0
0.519162 0.118620 0.146409 255 220 0
0.528116 0.147214 0.192144 255 220 0
0.554835 0.119600 0.167909 255 220 0
0.536951 0.224994 0.204195 255 220 0
0.531415 0.221164 0.205109 255 220 0
0.554173 0.123688 0.172617 255 220 0
0.505614 0.218267 0.134756 255 220 0
0.516999 0.220160 0.128795 255 220 0
0.490804 0.229171 0.190458 255 220 0
0.504301 0.208344 0.134893 255 220 0
0.499049 0.224488 0.198898 255 220 0
0.497066 0.243542 0.192555 255 220 0
0.561166 0.229410 0.189602 255 220 0
0.511927 0.149843 0.139342 255 220 0
0.531695 0.132827 0.189291 255 220 0
0.534348 0.267483 0.152374 255 220 0
0.554832 0.189587 0.192753 255 220 0
0.566694 0.158279 0.174305 255 220 0
0.557672 0.157761 0.133166 255 220 0
0.524464 0.116752 0.189134 255 220 0
0.509599 0.134720 0.186937 255 220 0
0.530232 0.229646 0.205460 255 220 0
0.570898 0.163029 0.142087 255 220 0
0.527280 0.139727 0.191020 255 220 0
0.553266 0.257918 0.185376 255 220 0
0.484657 0.219125 0.176165 255 220 0
0.552367 0.118776 0.171987 255 220 0
0.562775 0.205370 0.134687 255 220 0
0.572948 0.214464 0.153255 255 220 0
0.512664 0.111691 0.185960 255 220 0
0.532684 0.209052 0.203759 255 220 0
0.526601 0.189809 0.124300 255 220 0
0.497980 0.231572 0.145158 255 220 0
0.546906 0.186562 0.195807 255 220 0
0.561332 0.127976 0.150334 255 220 0
0.530131 0.196509 0.202219 255 220 0
0.555116 0.190546 0.192758 255 220 0
0.534318 0.276001 0.172052 255 220 0
0.488509 0.192525 0.157964 255 220 0
0.502274 0.129434 0.173809 255 220 0
0.506857 0.241021 0.200378 255 220 0
0.506769 0.260344 0.189770 255 220 0
0.559470 0.146184 0.137866 255 220 0
0.533702 0.096963 0.175213 255 220 0
0.540164 0.108111 0.180894 255 220 0
0.531238 0.107822 0.186626 255 220 0
0.545444 0.104755 0.156071 255 220 0
0.545801 0.134838 0.135328 255 220 0
0.563960 0.177826 0.183094 255 220 0
0.506753 0.180064 0.196891 255 220 0
0.535698 0.146421 0.130282 255 220 0
0.570679 0.197907 0.177661 255 220 0
0.538733 0.177761 0.196839 255 220 0
0.504104 0.139150 0.182303 255 220 0
0.489016 0.177565 0.175059 255 220 0
0.539341 0.156069 0.191627 255 220 0
0.568204 0.159054 0.172325 255 220 0
0.495279 0.251685 0.183507 255 220 0
0.498651 0.191514 0.195746 255 220 0
0.570019 0.147268 0.158286 255 220 0
0.548818 0.183612 0.126243 255 220 0
0.537526 0.131478 0.187145 255 220 0
0.533611 0.251550 0.200916 255 220 0
0.544147 0.260908 0.191364 255 220 0
0.575189 0.209584 0.164342 255 220 0
0.502706 0.125325 0.170060 255 220 0
0.517556 0.146249 0.136358 255 220 0
0.548166 0.250204 0.195762 255 220 0
0.529301 0.224504 0.205532 255 220 0
0.525338 0.125506 0.189628 255 220 0
0.488316 0.229506 0.185960 255 220 0
0.499551 0.162356 0.149789 255 220 0
0.510253 0.125644 0.150648 255 220 0
0.526893 0.275340 0.180567 255 220 0
0.546966 0.134960 0.183111 255 220 0
0.505575 0.242984 0.199162 255 220 0
0.558540 0.176012 0.130861 255 220 0
0.539481 0.137532 0.187586 255 220 0
0.571791 0.151160 0.153741 255 220 0
0.529247 0.154723 0.193481 255 220 0
0.520780 0.146796 0.134379 255 220 0
0.489670 0.235000 0.185700 255 220 0
0.575303 0.181127 0.166538 255 220 0
0.498282 0.148597 0.160599 255 220 0
0.550950 0.180963 0.127063 255 220 0
0.536996 0.136839 0.133444 255 220 0
0.502684 0.158187 0.187753 255 220 0
0.536283 0.162762 0.194082 255 220 0
0.575792 0.203549 0.164909 255 220 0
0.545228 0.214868 0.127127 255 220 0
0.561070 0.130478 0.147139 255 220 0
0.490772 0.212805 0.192091 255 220 0
0.527327 0.095121 0.168186 255 220 0
0.514992 0.212129 0.204409 255 220 0
0.502577 0.219828 0.201087 255 220 0
0.510598 0.199915 0.201959 255 220 0
0.539031 0.257495 0.196482 255 220 0
0.567601 0.229391 0.178893 255 220 0
0.559816 0.211497 0.191570 255 220 0
0.536334 0.150611 0.129029 255 220 0
0.500666 0.160620 0.148714 255 220 0
0.504850 0.115633 0.170365 255 220 0
0.492553 0.200775 0.148736 255 220 0
0.549539 0.144074 0.133238 255 220 0
0.548262 0.247592 0.142823 255 220 0
0.505586 0.256069 0.152818 255 220 0
0.539626 0.134023 0.134586 255 220 0
0.567929 0.174948 0.177752 255 220 0
0.523591 0.189633 0.201327 255 220 0
0.555764 0.163419 0.130958 255 220 0
0.529867 0.271158 0.155499 255 220 0
0.498285 0.208118 0.198135 255 220 0
0.490966 0.201870 0.151202 255 220 0
0.489091 0.239981 0.176864 255 220 0
0.494009 0.173663 0.185536 255 220 0
0.536905 0.268454 0.154345 255 220 0
0.494366 0.178437 0.151788 255 220 0
0.520220 0.252865 0.141283 255 220 0
0.505859 0.112746 0.168594 255 220 0
0.497411 0.187749 0.194056 255 220 0
0.566480 0.238800 0.164424 255 220 0
0.556055 0.152956 0.182787 255 220 0
0.507059 0.148600 0.187838 255 220 0
0.496757 0.232437 0.196032 255 220 0
0.534458 0.132929 0.188544 255 220 0
0.512133 0.228288 0.133146 255 220 0
0.494093 0.163786 0.161250 255 220 0
0.491832 0.247179 0.171834 255 220 0
0.564570 0.233200 0.183663 255 220 0
0.537730 0.097690 0.169245 255 220 0
0.525013 0.180023 0.199301 255 220 0
0.515310 0.274133 0.170456 255 220 0
0.530615 0.095879 0.176029 255 220 0
0.538459 0.189639 0.123928 255 220 0
0.509588 0.220219 0.203793 255 220 0
0.567570 0.219158 0.144524 255 220 0
0.548137 0.110563 0.172328 255 220 0
0.486014 0.198110 0.163517 255 220 0
0.512169 0.165338 0.194706 255 220 0
0.515682 0.223058 0.205132 255 220 0
0.560556 0.237305 0.188625 255 220 0
0.497782 0.251055 0.188665 255 220 0
0.569771 0.227705 0.173675 255 220 0
0.567656 0.234913 0.173571 255 220 0
0.551549 0.234320 0.197838 255 220 0
0.562709 0.223013 0.188543 255 220 0
0.558984 0.254674 0.177286 255 220 0
0.548533 0.151072 0.186420 255 220 0
0.544840 0.103868 0.168667 255 220 0
0.544648 0.159003 0.190230 255 220 0
0.499022 0.254998 0.186613 255 220 0
0.528050 0.099824 0.183845 255 220 0
0.563066 0.180782 0.133381 255 220 0
0.519128 0.274061 0.162509 255 220 0
0.484434 0.208757 0.170457 255 220 0
0.490248 0.190306 0.187325 255 220 0
0.509165 0.178919 0.133840 255 220 0
0.502318 0.157229 0.187007 255 220 0
0.502503 0.136361 0.178605 255 220 0
0.534450 0.142596 0.190292 255 220 0
0.526745 0.131988 0.137095 255 220 0
0.545684 0.186197 0.196180 255 220 0
0.555475 0.236967 0.194230 255 220 0
0.540207 0.177641 0.196366 255 220 0
0.576227 0.183064 0.148174 255 220 0
0.524292 0.150487 0.192863 255 220 0
0.540721 0.147683 0.189253 255 220 0
0.569695 0.178185 0.175939 255 220 0
0.514989 0.136765 0.141432 255 220 0
0.508990 0.240902 0.140402 255 220 0
0.490698 0.203739 0.191068 255 220 0
0.545063 0.192438 0.197562 255 220 0
0.554982 0.142774 0.136345 255 220 0
0.564520 0.144622 0.142628 255 220 0
0.556084 0.192605 0.192484 255 220 0
0.487444 0.206222 0.157877 255 220 0
0.567502 0.226038 0.148805 255 220 0
0.568192 0.200325 0.139027 255 220 0
0.554900 0.229225 0.136664 255 220 0
0.557511 0.157731 0.183275 255 220 0
0.502020 0.244393 0.196504 255 220 0
0.554830 0.147512 0.181924 255 220 0
0.508080 0.249767 0.145895 255 220 0
0.502593 0.192232 0.198006 255 220 0
0.551678 0.200908 0.127497 255 220 0
0.563825 0.238265 0.153470 255 220 0
0.569087 0.145199 0.159007 255 220 0
0.549487 0.164265 0.128124 255 220 0
0.536298 0.155694 0.192469 255 220 0
0.488241 0.192075 0.158761 255 220 0
0.507038 0.136409 0.185055 255 220 0
0.548409 0.231854 0.200080 255 220 0
0.524004 0.114111 0.146558 255 220 0
0.486387 0.230581 0.176565 255 220 0
0.517673 0.169786 0.196702 255 220 0
0.567871 0.152235 0.169184 255 220 0
0.534986 0.098436 0.159478 255 220 0
0.525298 0.106007 0.151778 255 220 0
0.527864 0.276558 0.166865 255 220 0
0.495284 0.222333 0.145385 255 220 0
0.572685 0.221414 0.159779 255 220 0
0.518293 0.168877 0.196548 255 220 0
0.545880 0.219463 0.200963 255 220 0
0.544204 0.231116 0.202077 255 220 0
0.506697 0.208663 0.202104 255 220 0
0.527459 0.253410 0.200544 255 220 0
0.499299 0.147680 0.177492 255 220 0
0.491173 0.213394 0.150368 255 220 0
0.546274 0.195930 0.125403 255 220 0
0.521248 0.263890 0.194022 255 220 0
0.521969 0.209268 0.125772 255 220 0
0.498153 0.165968 0.186748 255 220 0
0.486931 0.221975 0.162025 255 220 0
0.527525 0.123808 0.140312 255 220 0
0.539138 0.110802 0.182601 255 220 0
0.519819 0.186666 0.200611 255 220 0
0.543665 0.201568 0.124954 255 220 0
0.522119 0.102535 0.156069 255 220 0
0.550568 0.162808 0.128761 255 220 0
0.488323 0.179234 0.170216 255 220 0
0.576022 0.196023 0.166106 255 220 0
0.563181 0.221602 0.140235 255 220 0
0.502597 0.136940 0.157112 255 220 0
0.506250 0.237060 0.140387 255 220 0
0.533033 0.271406 0.156540 255 220 0
0.562336 0.179067 0.132953 255 220 0
0.507940 0.217892 0.133040 255 220 0
0.548296 0.185610 0.195090 255 220 0
0.486862 0.215923 0.185897 255 220 0
0.488779 0.177569 0.170177 255 220 0
0.564821 0.207244 0.136922 255 220 0
0.562869 0.131803 0.161698 255 220 0
0.574393 0.203086 0.170834 255 220 0
0.501916 0.203061 0.137029 255 220 0
0.551625 0.162144 0.129300 255 220 0
0.567580 0.142594 0.148705 255 220 0
0.546816 0.193109 0.197064 255 220 0
0.547230 0.259520 0.151544 255 220 0
0.501620 0.238965 0.145009 255 220 0
0.560626 0.219395 0.136842 255 220 0
0.548567 0.167268 0.127369 255 220 0
0.545521 0.202928 0.125520 255 220 0
0.546159 0.268252 0.179884 255 220 0
0.530172 0.095034 0.171267 255 220 0
0.550215 0.115021 0.147974 255 220 0
0.527573 0.099827 0.157198 255 220 0
0.544638 0.182330 0.195792 255 220 0
0.505859 0.211132 0.202062 255 220 0
0.504261 0.232203 0.201045 255 220 0
0.517691 0.274167 0.164318 255 220 0
0.541398 0.265044 0.189153 255 220 0
0.524685 0.097638 0.182135 255 220 0
0.500069 0.227669 0.141612 255 220 0
0.575022 0.208267 0.167194 255 220 0
0.536382 0.150559 0.129039 255 220 0
0.485573 0.200507 0.179247 255 220 0
0.541043 0.271265 0.180696 255 220 0
0.504689 0.140344 0.151357 255 220 0
0.564113 0.221174 0.141050 255 220 0
0.502885 0.155800 0.186927 255 220 0
0.541396 0.155887 0.127842 255 220 0
0.485549 0.214173 0.164057 255 220 0
0.522536 0.210687 0.125783 255 220 0
0.501188 0.246449 0.150215 255 220 0
0.573265 0.161549 0.146435 255 220 0
0.493604 0.234507 0.192280 255 220 0
0.489760 0.200816 0.189297 255 220 0
0.514042 0.271130 0.161574 255 220 0
0.517117 0.196163 0.202305 255 220 0
0.540039 0.104092 0.178400 255 220 0
0.540057 0.191913 0.124074 255 220 0
0.522187 0.194849 0.202357 255 220 0
0.515624 0.216981 0.128805 255 220 0
0.503585 0.151309 0.148154 255 220 0
0.507434 0.207570 0.202219 255 220 0
0.561043 0.149377 0.137788 255 220 0
0.533994 0.221938 0.204706 255 220 0
0.521353 0.247881 0.202292 255 220 0
0.544118 0.136767 0.185159 255 220 0
0.572849 0.169331 0.168101 255 220 0
0.560977 0.126030 0.157523 255 220 0
0.519735 0.154818 0.193485 255 220 0
0.525164 0.212718 0.125523 255 220 0
0.536695 0.135005 0.134147 255 220 0
0.544734 0.267600 0.183177 255 220 0
0.524840 0.221473 0.205671 255 220 0
0.565367 0.231334 0.182870 255 220 0
0.493998 0.184460 0.150240 255 220 0
0.561913 0.197635 0.132976 255 220 0
0.511235 0.106487 0.162204 255 220 0
0.518365 0.239309 0.204115 255 220 0
0.496934 0.169423 0.151179 255 220 0
0.510694 0.173546 0.196434 255 220 0
0.566734 0.189995 0.136235 255 220 0
0.501332 0.155971 0.185413 255 220 0
0.492208 0.167416 0.165747 255 220 0
0.494447 0.192478 0.192838 255 220 0
0.554985 0.242044 0.193393 255 220 0
0.552824 0.142558 0.135270 255 220 0
0.538530 0.186492 0.198634 255 220 0
0.574073 0.215300 0.167216 255 220 0
0.537825 0.211454 0.202803 255 220 0
0.541392 0.149383 0.189350 255 220 0
0.521530 0.259633 0.196944 255 220 0
0.511076 0.262502 0.190976 255 220 0
0.531599 0.226773 0.205301 255 220 0
0.491574 0.194422 0.151510 255 220 0
0.515283 0.157535 0.193454 255 220 0
0.490789 0.234633 0.188151 255 220 0
0.509689 0.260773 0.153065 255 220 0
0.520558 0.269891 0.155245 255 220 0
0.496364 0.161829 0.181420 255 220 0
0.485129 0.198915 0.167926 255 220 0
0.564814 0.232827 0.149749 255 220 0
0.498662 0.167320 0.187968 255 220 0
0.574411 0.204341 0.152222 255 220 0
0.537115 0.252902 0.141135 255 220 0
0.556427 0.197742 0.129550 255 220 0
0.552961 0.224723 0.197539 255 220 0
0.514821 0.165859 0.132629 255 220 0
0.562986 0.247614 0.169022 255 220 0
0.526985 0.174310 0.125907 255 220 0
0.498129 0.191284 0.142655 255 220 0
0.554033 0.207393 0.129276 255 220 0
0.501188 0.210986 0.200038 255 220 0
0.570671 0.193018 0.140551 255 220 0
0.525276 0.117489 0.144173 255 220 0
0.529446 0.097149 0.179823 255 220 0
0.540855 0.238978 0.134186 255 220 0
0.486881 0.188822 0.177943 255 220 0
0.516734 0.179116 0.198751 255 220 0
0.539194 0.216911 0.202965 255 220 0
0.525968 0.098290 0.182807 255 220 0
0.531601 0.194092 0.123574 255 220 0
0.523619 0.095601 0.178188 255 220 0
0.577490 0.188571 0.155196 255 220 0
0.527798 0.120533 0.141817 255 220 0
0.570885 0.149951 0.158893 255 220 0
0.499572 0.159629 0.185172 255 220 0
0.528885 0.112824 0.188161 255 220 0
0.526540 0.120706 0.189089 255 220 0
0.507175 0.249470 0.146390 255 220 0
0.490260 0.172681 0.169583 255 220 0
