ply
format ascii 1.0
element vertex 1024
property float x
property float y
property float z
property uchar red
property uchar green
property uchar blue
end_header
0.069066 0.163727 0.072734 255 220 0
0.107467 0.125739 0.079234 255 220 0
0.114547 0.136623 0.090627 255 220 0
0.039847 0.222285 0.076674 255 220 0
0.126028 0.185197 0.092824 255 220 0
0.135666 0.175866 0.059813 255 220 0
0.059185 0.179823 0.076199 255 220 0
0.070939 0.164244 0.053577 255 220 0
0.136841 0.143730 0.047677 255 220 0
0.092338 0.152295 0.028359 255 220 0
0.134151 0.161988 0.080565 255 220 0
0.112191 0.105591 0.034520 255 220 0
0.071997 0.170504 0.093865 255 220 0
0.088978 0.223786 0.024093 255 220 0
0.049014 0.225943 0.098867 255 220 0
0.102431 0.244297 0.093139 255 220 0
0.130116 0.189962 0.050695 255 220 0
0.108138 0.108735 0.030653 255 220 0
0.086387 0.266143 0.064098 255 220 0
0.083225 0.143028 0.060676 255 220 0
0.054831 0.252310 0.099009 255 220 0
0.071639 0.242551 0.030499 255 220 0
0.112171 0.105059 0.045108 255 220 0
0.134848 0.168405 0.078903 255 220 0
0.130316 0.164078 0.039667 255 220 0
0.084979 0.254182 0.041482 255 220 0
0.051898 0.269247 0.068613 255 220 0
0.080982 0.185344 0.110539 255 220 0
0.080059 0.264149 0.090061 255 220 0
0.137330 0.156969 0.055162 255 220 0
0.105807 0.244318 0.049861 255 220 0
0.080273 0.174205 0.106010 255 220 0
0.109551 0.160634 0.023735 255 220 0
0.118234 0.135971 0.088893 255 220 0
0.124239 0.180327 0.036444 255 220 0
0.088639 0.134649 0.053742 255 220 0
0.056615 0.199904 0.097360 255 220 0
0.059856 0.242247 0.034840 255 220 0
0.063484 0.175928 0.056311 255 220 0
0.062028 0.268829 0.088487 255 220 0
0.101541 0.193086 0.111088 255 220 0
0.132584 0.117136 0.043227 255 220 0
0.050528 0.196003 0.070438 255 220 0
0.091713 0.129806 0.050685 255 220 0
0.078540 0.206445 0.113026 255 220 0
0.130668 0.195886 0.080556 255 220 0
0.094282 0.261023 0.067600 255 220 0
0.073762 0.226461 0.110502 255 220 0
0.128128 0.167691 0.090622 255 220 0
0.068848 0.269005 0.088798 255 220 0
0.123240 0.115691 0.026287 255 220 0
0.048232 0.231571 0.098702 255 220 0
0.075626 0.154830 0.077292 255 220 0
0.108325 0.106249 0.043915 255 220 0
0.039312 0.228549 0.064655 255 220 0
0.120425 0.151161 0.026643 255 220 0
0.042746 0.212749 0.074827 255 220 0
0.076620 0.221601 0.023362 255 220 0
0.083059 0.240715 0.029822 255 220 0
0.086054 0.166075 0.104989 255 220 0
0.101339 0.250214 0.087775 255 220 0
0.054571 0.270091 0.080329 255 220 0
0.131749 0.194973 0.077239 255 220 0
0.063978 0.232894 0.029895 255 220 0
0.074262 0.161441 0.048422 255 220 0
0.119068 0.232691 0.068748 255 220 0
0.089471 0.136346 0.042826 255 220 0
0.134398 0.185110 0.062426 255 220 0
0.082302 0.205198 0.021169 255 220 0
0.060647 0.178546 0.063978 255 220 0
0.137395 0.164310 0.064508 255 220 0
0.120150 0.229706 0.075770 255 220 0
0.113669 0.207732 0.102297 255 220 0
0.108985 0.232862 0.095299 255 220 0
0.110412 0.240981 0.085458 255 220 0
0.040898 0.218243 0.070614 255 220 0
0.051502 0.263720 0.087845 255 220 0
0.071411 0.217351 0.111243 255 220 0
0.086341 0.186114 0.021987 255 220 0
0.071488 0.237727 0.028357 255 220 0
0.079368 0.259292 0.043940 255 220 0
0.131290 0.155378 0.038460 255 220 0
0.116842 0.233625 0.058536 255 220 0
0.118940 0.184902 0.100420 255 220 0
0.136843 0.131338 0.051757 255 220 0
0.079910 0.206201 0.113204 255 220 0
0.091048 0.261024 0.057663 255 220 0
0.105886 0.138964 0.023020 255 220 0
0.084741 0.193857 0.112604 255 220 0
0.097226 0.125617 0.067968 255 220 0
0.128529 0.110368 0.049033 255 220 0
0.125403 0.202412 0.089396 255 220 0
0.111462 0.226646 0.096723 255 220 0
0.097353 0.247777 0.094625 255 220 0
0.063234 0.173405 0.066848 255 220 0
0.079481 0.160645 0.038982 255 220 0
0.051152 0.201757 0.089217 255 220 0
0.119978 0.158759 0.097029 255 220 0
0.048581 0.201151 0.066251 255 220 0
0.056865 0.200747 0.042410 255 220 0
0.045353 0.221424 0.050955 255 220 0
0.110430 0.185630 0.025524 255 220 0
0.112882 0.226867 0.042674 255 220 0
0.132919 0.120774 0.039554 255 220 0
0.107334 0.227935 0.036658 255 220 0
0.087713 0.185376 0.021740 255 220 0
0.075538 0.154213 0.069684 255 220 0
0.092929 0.130847 0.039459 255 220 0
0.066466 0.168835 0.062867 255 220 0
0.080644 0.203695 0.113136 255 220 0
0.112918 0.235679 0.051010 255 220 0
0.047606 0.246889 0.095753 255 220 0
0.132495 0.169306 0.045598 255 220 0
0.054025 0.252499 0.043945 255 220 0
0.045769 0.244398 0.049973 255 220 0
0.063985 0.185364 0.042853 255 220 0
0.047450 0.224394 0.046035 255 220 0
0.043493 0.248981 0.088950 255 220 0
0.123691 0.206679 0.090630 255 220 0
0.081420 0.260448 0.093514 255 220 0
0.039940 0.246205 0.081330 255 220 0
0.104735 0.242039 0.092757 255 220 0
0.116347 0.162107 0.026052 255 220 0
0.093360 0.145207 0.029449 255 220 0
0.121478 0.171182 0.031018 255 220 0
0.074174 0.160642 0.085641 255 220 0
0.116624 0.169042 0.101700 255 220 0
0.123279 0.224014 0.070596 255 220 0
0.104286 0.251555 0.066354 255 220 0
0.129265 0.192317 0.085773 255 220 0
0.077496 0.263266 0.092664 255 220 0
0.097665 0.129012 0.074980 255 220 0
0.134567 0.167762 0.079749 255 220 0
0.075698 0.239134 0.028331 255 220 0
0.063070 0.253076 0.101660 255 220 0
0.117829 0.192191 0.032462 255 220 0
0.107488 0.191510 0.108459 255 220 0
0.056235 0.185792 0.067020 255 220 0
0.128510 0.140386 0.031205 255 220 0
0.076498 0.269354 0.059035 255 220 0
0.078962 0.152727 0.049187 255 220 0
0.137174 0.166880 0.064245 255 220 0
0.098376 0.117790 0.046832 255 220 0
0.059322 0.183150 0.084602 255 220 0
0.055203 0.189220 0.082538 255 220 0
0.094156 0.145661 0.093330 255 220 0
0.093060 0.165820 0.107877 255 220 0
0.104445 0.241164 0.044282 255 220 0
0.055004 0.259517 0.094584 255 220 0
0.137055 0.167541 0.066836 255 220 0
0.066408 0.169363 0.060876 255 220 0
0.137748 0.144406 0.062381 255 220 0
0.123636 0.188471 0.095312 255 220 0
0.114668 0.216107 0.098684 255 220 0
0.128740 0.200442 0.083400 255 220 0
0.119757 0.195822 0.035878 255 220 0
0.120057 0.155687 0.096104 255 220 0
0.104282 0.173430 0.109219 255 220 0
0.098274 0.257605 0.068943 255 220 0
0.097218 0.193726 0.020863 255 220 0
0.058196 0.185952 0.055677 255 220 0
0.111619 0.112238 0.025456 255 220 0
0.113148 0.230658 0.091614 255 220 0
0.132271 0.175487 0.084280 255 220 0
0.039742 0.222407 0.069637 255 220 0
0.077773 0.271545 0.068789 255 220 0
0.083822 0.173896 0.108051 255 220 0
0.128484 0.159177 0.088755 255 220 0
0.065993 0.183111 0.097400 255 220 0
0.132879 0.129206 0.069087 255 220 0
0.101063 0.230814 0.032858 255 220 0
0.119478 0.159912 0.027460 255 220 0
0.047647 0.264887 0.067027 255 220 0
0.084072 0.193422 0.112470 255 220 0
0.107802 0.241493 0.089358 255 220 0
0.125305 0.190485 0.092872 255 220 0
0.064499 0.267599 0.053676 255 220 0
0.038506 0.232867 0.079581 255 220 0
0.076550 0.247244 0.104362 255 220 0
0.074290 0.253238 0.101665 255 220 0
0.049168 0.265388 0.063974 255 220 0
0.118042 0.157869 0.098361 255 220 0
0.129667 0.145804 0.083330 255 220 0
0.068625 0.265607 0.092901 255 220 0
0.089942 0.240421 0.103830 255 220 0
0.105791 0.236796 0.095823 255 220 0
0.137809 0.154791 0.057958 255 220 0
0.115012 0.230515 0.088682 255 220 0
0.099940 0.172514 0.110231 255 220 0
0.077582 0.174385 0.031805 255 220 0
0.076478 0.267412 0.054649 255 220 0
0.130107 0.201604 0.078260 255 220 0
0.097264 0.212477 0.110926 255 220 0
0.101803 0.147165 0.098457 255 220 0
0.084372 0.143650 0.047672 255 220 0
0.100719 0.118651 0.060923 255 220 0
0.098433 0.223250 0.027322 255 220 0
0.129443 0.156554 0.036069 255 220 0
0.062057 0.254433 0.100752 255 220 0
0.078327 0.153817 0.049256 255 220 0
0.046302 0.204356 0.074202 255 220 0
0.040529 0.247191 0.063601 255 220 0
0.058734 0.180376 0.074498 255 220 0
0.105245 0.108651 0.034568 255 220 0
0.129563 0.196655 0.083231 255 220 0
0.045680 0.251458 0.053840 255 220 0
0.109015 0.105968 0.044171 255 220 0
0.045405 0.214881 0.055107 255 220 0
0.136835 0.169968 0.063558 255 220 0
0.066976 0.253436 0.037563 255 220 0
0.040494 0.233613 0.059194 255 220 0
0.055661 0.245897 0.039127 255 220 0
0.116006 0.208591 0.036176 255 220 0
0.136881 0.143659 0.067461 255 220 0
0.080319 0.149656 0.050517 255 220 0
0.044445 0.209948 0.079893 255 220 0
0.105835 0.139018 0.023034 255 220 0
0.109903 0.118903 0.071741 255 220 0
0.076046 0.216465 0.023012 255 220 0
0.083161 0.268950 0.070810 255 220 0
0.097553 0.127612 0.072464 255 220 0
0.088076 0.168822 0.025880 255 220 0
0.106020 0.198440 0.024381 255 220 0
0.090948 0.151625 0.029751 255 220 0
0.089713 0.214705 0.022032 255 220 0
0.090102 0.245438 0.100915 255 220 0
0.079075 0.267654 0.057140 255 220 0
0.075932 0.265818 0.051353 255 220 0
0.057514 0.182478 0.072476 255 220 0
0.121686 0.200970 0.040692 255 220 0
0.067291 0.192740 0.105478 255 220 0
0.108468 0.199536 0.026032 255 220 0
0.052353 0.226815 0.038836 255 220 0
0.137871 0.153321 0.057804 255 220 0
0.062757 0.175062 0.063036 255 220 0
0.038548 0.243711 0.074424 255 220 0
0.092028 0.151909 0.097962 255 220 0
0.066359 0.273758 0.067697 255 220 0
0.113214 0.238721 0.057052 255 220 0
0.046794 0.244553 0.048441 255 220 0
0.132092 0.171430 0.084966 255 220 0
0.045736 0.209782 0.060344 255 220 0
0.085555 0.266101 0.061976 255 220 0
0.094129 0.253685 0.091571 255 220 0
0.102301 0.191228 0.110851 255 220 0
0.080356 0.149020 0.078667 255 220 0
0.077690 0.159638 0.090554 255 220 0
0.134898 0.154251 0.045122 255 220 0
0.042034 0.247458 0.086796 255 220 0
0.063463 0.251054 0.037105 255 220 0
0.073378 0.259691 0.042502 255 220 0
0.133272 0.188879 0.075242 255 220 0
0.092308 0.259221 0.085688 255 220 0
0.046153 0.204691 0.074330 255 220 0
0.103916 0.114290 0.029078 255 220 0
0.051557 0.206482 0.094111 255 220 0
0.084207 0.247463 0.034957 255 220 0
0.065253 0.174517 0.052857 255 220 0
0.119685 0.180900 0.099861 255 220 0
0.102486 0.117340 0.061898 255 220 0
0.115131 0.219095 0.096829 255 220 0
0.073549 0.157544 0.064317 255 220 0
0.110890 0.163008 0.104389 255 220 0
0.077174 0.266148 0.052594 255 220 0
0.089318 0.198261 0.020321 255 220 0
0.091144 0.235189 0.105893 255 220 0
0.058613 0.244827 0.103387 255 220 0
0.118376 0.192758 0.033229 255 220 0
0.132886 0.189734 0.076442 255 220 0
0.060973 0.230577 0.106471 255 220 0
0.092899 0.168727 0.109082 255 220 0
0.053047 0.256025 0.047482 255 220 0
0.106614 0.203627 0.108067 255 220 0
0.134695 0.174095 0.078270 255 220 0
0.085166 0.263152 0.054111 255 220 0
0.129248 0.152448 0.086049 255 220 0
0.112307 0.148149 0.023370 255 220 0
0.086142 0.146575 0.086196 255 220 0
0.085514 0.146523 0.040713 255 220 0
0.120788 0.228751 0.064811 255 220 0
0.136066 0.128260 0.047573 255 220 0
0.087322 0.137252 0.050775 255 220 0
0.129231 0.162250 0.037444 255 220 0
0.088042 0.204978 0.113412 255 220 0
0.055778 0.205002 0.099222 255 220 0
0.097175 0.251676 0.090963 255 220 0
0.043669 0.222944 0.054037 255 220 0
0.134758 0.179905 0.075176 255 220 0
0.119439 0.183178 0.100043 255 220 0
0.099714 0.255004 0.080898 255 220 0
0.054358 0.194978 0.053155 255 220 0
0.105353 0.191113 0.109574 255 220 0
0.081157 0.154665 0.041525 255 220 0
0.085007 0.185391 0.022616 255 220 0
0.070917 0.167512 0.048172 255 220 0
0.090010 0.158130 0.101847 255 220 0
0.103599 0.248600 0.053093 255 220 0
0.091316 0.166200 0.107569 255 220 0
0.047344 0.204820 0.063036 255 220 0
0.113942 0.231878 0.089205 255 220 0
0.109495 0.237780 0.047423 255 220 0
0.119482 0.231515 0.073957 255 220 0
0.067800 0.224952 0.026713 255 220 0
0.101767 0.247090 0.091116 255 220 0
0.097688 0.156475 0.103982 255 220 0
0.087108 0.173597 0.024891 255 220 0
0.060325 0.211446 0.105659 255 220 0
0.052492 0.216993 0.100132 255 220 0
0.074778 0.191949 0.026509 255 220 0
0.052619 0.258594 0.050312 255 220 0
0.103176 0.227778 0.032722 255 220 0
0.091422 0.143596 0.032352 255 220 0
0.097207 0.124672 0.065759 255 220 0
0.095255 0.259979 0.075894 255 220 0
0.126840 0.215262 0.069462 255 220 0
0.112869 0.123417 0.078824 255 220 0
0.047473 0.234324 0.097981 255 220 0
0.121713 0.227224 0.066676 255 220 0
0.078668 0.253329 0.037857 255 220 0
0.085028 0.165998 0.029011 255 220 0
0.113940 0.110785 0.026247 255 220 0
0.113885 0.216259 0.037320 255 220 0
0.122610 0.107851 0.034887 255 220 0
0.088570 0.136740 0.045522 255 220 0
0.045525 0.220602 0.092541 255 220 0
0.119437 0.193277 0.034612 255 220 0
0.070409 0.179935 0.100442 255 220 0
0.082933 0.177678 0.109183 255 220 0
0.109894 0.116714 0.068618 255 220 0
0.092309 0.129991 0.043967 255 220 0
0.086370 0.167992 0.106356 255 220 0
0.057551 0.200029 0.098763 255 220 0
0.050483 0.267805 0.078688 255 220 0
0.118568 0.107042 0.032184 255 220 0
0.042192 0.228292 0.055660 255 220 0
0.106504 0.138919 0.022880 255 220 0
0.109140 0.245286 0.060668 255 220 0
0.098449 0.219528 0.025911 255 220 0
0.115394 0.228970 0.089535 255 220 0
0.088872 0.171280 0.024757 255 220 0
0.104202 0.121726 0.025361 255 220 0
0.106776 0.186207 0.023744 255 220 0
0.126964 0.156696 0.033056 255 220 0
0.074667 0.160850 0.086950 255 220 0
0.038959 0.225592 0.070361 255 220 0
0.047588 0.202059 0.070743 255 220 0
0.095159 0.191058 0.020588 255 220 0
0.064269 0.199254 0.105658 255 220 0
0.040467 0.224151 0.062873 255 220 0
0.113582 0.158003 0.024535 255 220 0
0.123562 0.177666 0.096177 255 220 0
0.050313 0.195982 0.073697 255 220 0
0.085389 0.172165 0.108031 255 220 0
0.068983 0.204268 0.027382 255 220 0
0.101380 0.194146 0.111116 255 220 0
0.104115 0.220626 0.029755 255 220 0
0.076340 0.153316 0.064566 255 220 0
0.049636 0.232740 0.099947 255 220 0
0.091154 0.245736 0.100191 255 220 0
0.080286 0.183818 0.025417 255 220 0
0.090979 0.130991 0.055917 255 220 0
0.122501 0.114377 0.068116 255 220 0
0.110463 0.178501 0.106632 255 220 0
0.102292 0.252976 0.078977 255 220 0
0.117438 0.230261 0.054530 255 220 0
0.105136 0.221507 0.030967 255 220 0
0.088785 0.184637 0.112283 255 220 0
0.084343 0.217304 0.022085 255 220 0
0.130495 0.124215 0.032634 255 220 0
0.113536 0.209119 0.102078 255 220 0
0.090156 0.209248 0.021159 255 220 0
0.048388 0.241983 0.097934 255 220 0
0.086347 0.138537 0.066413 255 220 0
0.075397 0.268987 0.086162 255 220 0
0.088969 0.187081 0.112529 255 220 0
0.122320 0.222027 0.057435 255 220 0
0.111016 0.243777 0.077028 255 220 0
0.074405 0.273077 0.074207 255 220 0
0.070326 0.262537 0.045335 255 220 0
0.132708 0.151057 0.080870 255 220 0
0.136303 0.153158 0.073208 255 220 0
0.108819 0.213881 0.030643 255 220 0
0.063222 0.202603 0.033051 255 220 0
0.086000 0.140374 0.048263 255 220 0
0.123581 0.199128 0.093240 255 220 0
0.080646 0.151688 0.084777 255 220 0
0.064097 0.265409 0.050332 255 220 0
0.106536 0.110448 0.029806 255 220 0
0.092508 0.207374 0.021194 255 220 0
0.137722 0.152193 0.065667 255 220 0
0.071466 0.161261 0.079053 255 220 0
0.122342 0.226120 0.069072 255 220 0
0.123711 0.220844 0.078852 255 220 0
0.131681 0.188486 0.081586 255 220 0
0.048886 0.258188 0.090359 255 220 0
0.059977 0.232204 0.032261 255 220 0
0.134956 0.125502 0.043682 255 220 0
0.083891 0.205219 0.113461 255 220 0
0.121356 0.205093 0.094616 255 220 0
0.098071 0.254397 0.086006 255 220 0
0.096854 0.138552 0.027861 255 220 0
0.100474 0.142287 0.024864 255 220 0
0.116296 0.218210 0.041739 255 220 0
0.083845 0.241486 0.105393 255 220 0
0.082976 0.239559 0.029111 255 220 0
0.073848 0.215695 0.111997 255 220 0
0.103688 0.203045 0.109660 255 220 0
0.087916 0.137186 0.047404 255 220 0
0.066338 0.247561 0.104431 255 220 0
0.132058 0.128977 0.070672 255 220 0
0.130800 0.159465 0.085878 255 220 0
0.137310 0.134715 0.053058 255 220 0
0.092573 0.217478 0.111323 255 220 0
0.056828 0.225285 0.034314 255 220 0
0.054532 0.196151 0.090460 255 220 0
0.052519 0.259980 0.092429 255 220 0
0.102201 0.243080 0.043838 255 220 0
0.051119 0.194654 0.076884 255 220 0
0.100218 0.192344 0.021529 255 220 0
0.131781 0.179727 0.048911 255 220 0
0.097174 0.258183 0.076645 255 220 0
0.083186 0.148182 0.044204 255 220 0
0.086444 0.215842 0.021911 255 220 0
0.104925 0.235135 0.097765 255 220 0
0.080552 0.187764 0.110886 255 220 0
0.115706 0.118235 0.073374 255 220 0
0.081922 0.232830 0.025803 255 220 0
0.132103 0.158782 0.040918 255 220 0
0.128875 0.156395 0.087597 255 220 0
0.110665 0.210576 0.104117 255 220 0
0.081526 0.253269 0.099591 255 220 0
0.101102 0.219705 0.107540 255 220 0
0.101299 0.171099 0.022685 255 220 0
0.048578 0.260387 0.087892 255 220 0
0.137146 0.133488 0.055486 255 220 0
0.094236 0.133094 0.076905 255 220 0
0.098443 0.256820 0.062838 255 220 0
0.124577 0.107971 0.038955 255 220 0
0.054049 0.244759 0.101324 255 220 0
0.098473 0.125481 0.070066 255 220 0
0.055355 0.188815 0.082294 255 220 0
0.133226 0.124385 0.038448 255 220 0
0.058903 0.251560 0.039686 255 220 0
0.061343 0.273142 0.078748 255 220 0
0.137837 0.151657 0.056380 255 220 0
0.112800 0.115784 0.068974 255 220 0
0.069414 0.164457 0.060919 255 220 0
0.091054 0.152818 0.098098 255 220 0
0.088520 0.222635 0.111015 255 220 0
0.075563 0.200266 0.024023 255 220 0
0.130958 0.140234 0.034231 255 220 0
0.059734 0.233841 0.032705 255 220 0
0.095031 0.256282 0.053815 255 220 0
0.132412 0.184712 0.081312 255 220 0
0.106834 0.145261 0.023064 255 220 0
0.069107 0.174515 0.043926 255 220 0
0.065469 0.234618 0.107442 255 220 0
0.069691 0.166086 0.054174 255 220 0
0.123919 0.109349 0.058724 255 220 0
0.052867 0.190976 0.073811 255 220 0
0.096785 0.196767 0.112357 255 220 0
0.094835 0.125780 0.059883 255 220 0
0.101656 0.245373 0.092922 255 220 0
0.089886 0.137968 0.078278 255 220 0
0.079754 0.224697 0.023497 255 220 0
0.075891 0.227627 0.024467 255 220 0
0.042487 0.214870 0.079448 255 220 0
0.051254 0.204641 0.092187 255 220 0
0.099080 0.166110 0.108622 255 220 0
0.080545 0.183409 0.025390 255 220 0
0.121062 0.123692 0.079018 255 220 0
0.095665 0.259896 0.072849 255 220 0
0.053577 0.262206 0.053315 255 220 0
0.091414 0.162278 0.026171 255 220 0
0.087135 0.143847 0.083636 255 220 0
0.118527 0.180716 0.100869 255 220 0
0.119991 0.227514 0.080970 255 220 0
0.113373 0.105536 0.048815 255 220 0
0.114648 0.104398 0.042225 255 220 0
0.042343 0.235376 0.054513 255 220 0
0.130016 0.177193 0.044149 255 220 0
0.048529 0.217193 0.095567 255 220 0
0.101384 0.140386 0.024562 255 220 0
0.117206 0.198706 0.100733 255 220 0
0.109401 0.241622 0.086567 255 220 0
0.059229 0.234602 0.105399 255 220 0
0.137889 0.144892 0.054766 255 220 0
0.064628 0.192177 0.036722 255 220 0
0.129791 0.203607 0.061015 255 220 0
0.137932 0.144761 0.055537 255 220 0
0.079730 0.158433 0.092136 255 220 0
0.079875 0.148125 0.062572 255 220 0
0.091996 0.134437 0.075510 255 220 0
0.090000 0.152426 0.096925 255 220 0
0.097320 0.158214 0.104920 255 220 0
0.045000 0.260847 0.078833 255 220 0
0.088619 0.193309 0.112902 255 220 0
0.073377 0.263217 0.094377 255 220 0
0.048654 0.210320 0.050915 255 220 0
0.104682 0.113140 0.057790 255 220 0
0.127254 0.201415 0.086319 255 220 0
0.082571 0.173561 0.107185 255 220 0
0.089842 0.135497 0.042936 255 220 0
0.122493 0.202248 0.042527 255 220 0
0.095400 0.258550 0.081713 255 220 0
0.043385 0.214973 0.061915 255 220 0
0.130379 0.195457 0.081661 255 220 0
0.091195 0.179954 0.021980 255 220 0
0.076260 0.176323 0.103995 255 220 0
0.094330 0.190440 0.020546 255 220 0
0.125105 0.218072 0.077680 255 220 0
0.104010 0.146697 0.098495 255 220 0
0.064470 0.248286 0.103889 255 220 0
0.090026 0.239542 0.104250 255 220 0
0.127963 0.204309 0.054977 255 220 0
0.135826 0.147474 0.045316 255 220 0
0.106142 0.133531 0.022894 255 220 0
0.072760 0.270693 0.060015 255 220 0
0.105191 0.194262 0.109564 255 220 0
0.125488 0.206569 0.087477 255 220 0
0.134784 0.122408 0.048496 255 220 0
0.065937 0.217526 0.109268 255 220 0
0.122783 0.118372 0.024978 255 220 0
0.086555 0.148332 0.037109 255 220 0
0.093633 0.220587 0.024373 255 220 0
0.060588 0.202384 0.103456 255 220 0
0.080620 0.146937 0.069868 255 220 0
0.129777 0.182077 0.045860 255 220 0
0.058589 0.207597 0.036275 255 220 0
0.049077 0.260862 0.057197 255 220 0
0.049578 0.197670 0.076539 255 220 0
0.102557 0.154944 0.023624 255 220 0
0.087968 0.162841 0.028084 255 220 0
0.121699 0.223355 0.057311 255 220 0
0.098742 0.116724 0.041935 255 220 0
0.134100 0.135864 0.071398 255 220 0
0.120176 0.183107 0.099377 255 220 0
0.132006 0.197572 0.066007 255 220 0
0.047722 0.241001 0.097506 255 220 0
0.093615 0.226651 0.108388 255 220 0
0.081261 0.259946 0.045756 255 220 0
0.096819 0.256981 0.058575 255 220 0
0.098040 0.205752 0.111591 255 220 0
0.046199 0.247088 0.094043 255 220 0
0.119146 0.223053 0.088307 255 220 0
0.094881 0.209602 0.022021 255 220 0
0.132845 0.184516 0.054587 255 220 0
0.085766 0.202096 0.113368 255 220 0
0.105715 0.150587 0.023301 255 220 0
0.132581 0.116713 0.044740 255 220 0
0.133054 0.117772 0.048596 255 220 0
0.096243 0.121991 0.049573 255 220 0
0.038522 0.243684 0.072937 255 220 0
0.043583 0.258040 0.079002 255 220 0
0.118333 0.224652 0.050054 255 220 0
0.040254 0.236914 0.059920 255 220 0
0.044724 0.240413 0.094130 255 220 0
0.047507 0.250523 0.050292 255 220 0
0.090708 0.235397 0.105958 255 220 0
0.044476 0.237984 0.050504 255 220 0
0.062935 0.251418 0.037532 255 220 0
0.114651 0.127862 0.083717 255 220 0
0.123747 0.202755 0.044885 255 220 0
0.054730 0.187799 0.070421 255 220 0
0.084683 0.252983 0.040085 255 220 0
0.131754 0.181355 0.049731 255 220 0
0.105388 0.133114 0.023164 255 220 0
0.116323 0.195057 0.031633 255 220 0
0.072749 0.230354 0.109604 255 220 0
0.092571 0.236310 0.030848 255 220 0
0.122438 0.220712 0.055998 255 220 0
0.038034 0.236416 0.069458 255 220 0
0.048015 0.236860 0.044726 255 220 0
0.114632 0.194757 0.103453 255 220 0
0.043079 0.212676 0.078228 255 220 0
0.105991 0.120371 0.070907 255 220 0
0.111510 0.125761 0.021656 255 220 0
0.055413 0.191024 0.086050 255 220 0
0.132468 0.132781 0.035678 255 220 0
0.098697 0.255137 0.083278 255 220 0
0.097016 0.183878 0.021210 255 220 0
0.059592 0.231477 0.032433 255 220 0
0.109609 0.222685 0.035860 255 220 0
0.120293 0.208942 0.094762 255 220 0
0.120022 0.205821 0.096091 255 220 0
0.040677 0.226534 0.084778 255 220 0
0.095209 0.165192 0.024008 255 220 0
0.087163 0.266396 0.073372 255 220 0
0.040783 0.224024 0.083429 255 220 0
0.043253 0.215604 0.061496 255 220 0
0.055031 0.229594 0.035989 255 220 0
0.053676 0.265489 0.087857 255 220 0
0.117285 0.225628 0.089370 255 220 0
0.081445 0.254018 0.099092 255 220 0
0.045176 0.215397 0.055276 255 220 0
0.078468 0.150199 0.063520 255 220 0
0.107311 0.115574 0.064916 255 220 0
0.117161 0.201983 0.034822 255 220 0
0.094007 0.186342 0.020835 255 220 0
0.120540 0.150488 0.093984 255 220 0
0.086492 0.222744 0.023372 255 220 0
0.078709 0.198836 0.112280 255 220 0
0.067608 0.167214 0.079619 255 220 0
0.095127 0.171060 0.022938 255 220 0
0.086332 0.154026 0.095178 255 220 0
0.128171 0.155487 0.088173 255 220 0
0.124617 0.193282 0.093224 255 220 0
0.073084 0.190637 0.108531 255 220 0
0.038861 0.240038 0.065618 255 220 0
0.121214 0.196478 0.096878 255 220 0
0.045960 0.223545 0.094542 255 220 0
0.044027 0.214184 0.060422 255 220 0
0.101062 0.224896 0.105725 255 220 0
0.119547 0.220146 0.090000 255 220 0
0.124108 0.124096 0.077671 255 220 0
0.117560 0.106780 0.032138 255 220 0
0.088985 0.198812 0.020335 255 220 0
0.096095 0.131645 0.077145 255 220 0
0.040486 0.251089 0.070490 255 220 0
0.049029 0.215706 0.046604 255 220 0
0.077027 0.155627 0.083743 255 220 0
0.129673 0.170691 0.088850 255 220 0
0.038737 0.227008 0.075944 255 220 0
0.116899 0.181768 0.102208 255 220 0
0.114179 0.179878 0.027128 255 220 0
0.136963 0.165741 0.058830 255 220 0
0.058180 0.184688 0.058455 255 220 0
0.038446 0.228290 0.074689 255 220 0
0.125864 0.208041 0.085886 255 220 0
0.070004 0.163022 0.063849 255 220 0
0.097767 0.187140 0.021084 255 220 0
0.079354 0.233895 0.026029 255 220 0
0.090716 0.132942 0.067732 255 220 0
0.117514 0.235335 0.068462 255 220 0
0.065242 0.180841 0.044840 255 220 0
0.074824 0.234185 0.026396 255 220 0
0.083721 0.146604 0.044891 255 220 0
0.098604 0.203059 0.111635 255 220 0
0.133423 0.123766 0.039278 255 220 0
0.082993 0.267028 0.082210 255 220 0
0.077722 0.270718 0.079784 255 220 0
0.075355 0.155004 0.076386 255 220 0
0.060050 0.240481 0.034146 255 220 0
0.049474 0.267616 0.074855 255 220 0
0.128948 0.159050 0.088175 255 220 0
0.057358 0.221942 0.034036 255 220 0
0.123253 0.198574 0.042026 255 220 0
0.120376 0.229233 0.075865 255 220 0
0.128007 0.132376 0.079277 255 220 0
0.136483 0.167066 0.056770 255 220 0
0.063237 0.182032 0.047647 255 220 0
0.096115 0.125482 0.064654 255 220 0
0.067086 0.264978 0.093620 255 220 0
0.124605 0.196422 0.043245 255 220 0
0.111276 0.180216 0.106197 255 220 0
0.133143 0.189884 0.060454 255 220 0
0.082893 0.166412 0.030723 255 220 0
0.073810 0.273229 0.070803 255 220 0
0.066058 0.265453 0.093109 255 220 0
0.098798 0.236943 0.101221 255 220 0
0.131750 0.161701 0.041282 255 220 0
0.084582 0.263303 0.053754 255 220 0
0.060920 0.230533 0.031373 255 220 0
0.046490 0.230345 0.096813 255 220 0
0.111492 0.161829 0.024249 255 220 0
0.113573 0.129740 0.085363 255 220 0
0.069920 0.229460 0.026390 255 220 0
0.124459 0.206292 0.089502 255 220 0
0.082106 0.184193 0.110685 255 220 0
0.113655 0.129194 0.021674 255 220 0
0.125587 0.198712 0.046099 255 220 0
0.048353 0.236013 0.044143 255 220 0
0.067587 0.185719 0.101638 255 220 0
0.094215 0.216272 0.023333 255 220 0
0.131218 0.114359 0.042349 255 220 0
0.095154 0.187107 0.020807 255 220 0
0.111020 0.107743 0.053755 255 220 0
0.121036 0.227757 0.063191 255 220 0
0.098441 0.244225 0.096641 255 220 0
0.076155 0.180948 0.029767 255 220 0
0.108515 0.202500 0.107067 255 220 0
0.136722 0.135893 0.047047 255 220 0
0.083651 0.148366 0.042876 255 220 0
0.106064 0.119906 0.070290 255 220 0
0.043639 0.213685 0.063011 255 220 0
0.045890 0.211814 0.056881 255 220 0
0.100712 0.122762 0.068705 255 220 0
0.117311 0.234168 0.061668 255 220 0
0.118335 0.233503 0.074601 255 220 0
0.068984 0.236056 0.028473 255 220 0
0.120993 0.225507 0.058260 255 220 0
0.060502 0.227065 0.031365 255 220 0
0.060240 0.246616 0.036358 255 220 0
0.047377 0.213073 0.091374 255 220 0
0.134610 0.168478 0.050349 255 220 0
0.089954 0.134696 0.044033 255 220 0
0.075820 0.265470 0.090941 255 220 0
0.060188 0.178057 0.075702 255 220 0
0.083445 0.149811 0.086772 255 220 0
0.122886 0.161941 0.095218 255 220 0
0.097870 0.122450 0.034131 255 220 0
0.098388 0.144324 0.025772 255 220 0
0.043059 0.219875 0.057558 255 220 0
0.109003 0.160272 0.104533 255 220 0
0.087467 0.142066 0.040937 255 220 0
0.043888 0.242735 0.092342 255 220 0
0.087010 0.232257 0.026557 255 220 0
0.103518 0.119021 0.066272 255 220 0
0.103672 0.203390 0.109631 255 220 0
0.080914 0.203982 0.113191 255 220 0
0.106144 0.122491 0.023812 255 220 0
0.050818 0.200640 0.055883 255 220 0
0.129632 0.203626 0.078253 255 220 0
0.105982 0.246437 0.053629 255 220 0
0.061028 0.177216 0.066764 255 220 0
0.116701 0.129501 0.084987 255 220 0
0.057271 0.190387 0.051471 255 220 0
0.059766 0.178837 0.076163 255 220 0
0.055507 0.268671 0.084865 255 220 0
0.110977 0.210919 0.031450 255 220 0
0.114131 0.144995 0.023389 255 220 0
0.051076 0.239229 0.041348 255 220 0
0.053896 0.259390 0.049803 255 220 0
0.122109 0.149667 0.092370 255 220 0
0.114019 0.104545 0.043584 255 220 0
0.103140 0.111256 0.049493 255 220 0
0.100993 0.112622 0.039191 255 220 0
0.124581 0.112228 0.063445 255 220 0
0.132556 0.144438 0.078749 255 220 0
0.069860 0.166529 0.085110 255 220 0
0.075003 0.184380 0.029226 255 220 0
0.136268 0.159560 0.074360 255 220 0
0.065686 0.183911 0.097693 255 220 0
0.065707 0.171651 0.057148 255 220 0
0.102718 0.151281 0.023734 255 220 0
0.100794 0.193091 0.021715 255 220 0
0.077532 0.152845 0.055007 255 220 0
0.084454 0.150479 0.089082 255 220 0
0.066034 0.256762 0.040211 255 220 0
0.074673 0.197803 0.025014 255 220 0
0.100327 0.142383 0.093753 255 220 0
0.122992 0.190122 0.095840 255 220 0
0.090467 0.132026 0.049781 255 220 0
0.038534 0.239827 0.067219 255 220 0
0.040456 0.247103 0.082489 255 220 0
0.072058 0.196190 0.109639 255 220 0
0.118715 0.141971 0.024377 255 220 0
0.136695 0.164019 0.055759 255 220 0
0.038945 0.234959 0.081927 255 220 0
0.045046 0.215469 0.055568 255 220 0
0.094168 0.130042 0.036638 255 220 0
0.073638 0.238240 0.028150 255 220 0
0.125013 0.181589 0.037903 255 220 0
0.133395 0.144284 0.038973 255 220 0
0.050549 0.268549 0.074692 255 220 0
0.089859 0.133009 0.060560 255 220 0
0.051889 0.241733 0.041132 255 220 0
0.118421 0.178866 0.100940 255 220 0
0.087392 0.136804 0.052674 255 220 0
0.102458 0.146411 0.098016 255 220 0
0.079548 0.154540 0.044997 255 220 0
0.137239 0.163908 0.059541 255 220 0
0.071565 0.242870 0.030668 255 220 0
0.079793 0.169637 0.102584 255 220 0
0.120544 0.166915 0.029389 255 220 0
0.122496 0.186801 0.096819 255 220 0
0.136330 0.149635 0.072128 255 220 0
0.091847 0.167876 0.024472 255 220 0
0.074043 0.159405 0.052777 255 220 0
0.073426 0.190343 0.108616 255 220 0
0.112677 0.219669 0.099183 255 220 0
0.118756 0.132619 0.086594 255 220 0
0.073137 0.220731 0.024180 255 220 0
0.122886 0.106622 0.040347 255 220 0
0.054795 0.209183 0.040583 255 220 0
0.059039 0.221122 0.032590 255 220 0
0.062524 0.200056 0.034975 255 220 0
0.038712 0.244491 0.075130 255 220 0
0.054823 0.213415 0.101401 255 220 0
0.052178 0.196695 0.085434 255 220 0
0.135746 0.163470 0.076354 255 220 0
0.126204 0.179882 0.038944 255 220 0
0.121074 0.132332 0.024023 255 220 0
0.115047 0.219267 0.040579 255 220 0
0.130070 0.152123 0.084947 255 220 0
0.086656 0.244897 0.102766 255 220 0
0.088433 0.264503 0.062698 255 220 0
0.135447 0.145920 0.073384 255 220 0
0.074313 0.163826 0.090154 255 220 0
0.062479 0.186487 0.044505 255 220 0
0.123513 0.168260 0.095659 255 220 0
0.073219 0.269589 0.086512 255 220 0
0.067008 0.212539 0.027385 255 220 0
0.112993 0.220219 0.038416 255 220 0
0.077867 0.249676 0.034811 255 220 0
0.091273 0.185420 0.021070 255 220 0
0.072935 0.265047 0.092633 255 220 0
0.119397 0.197541 0.036036 255 220 0
0.095100 0.259401 0.079638 255 220 0
0.123307 0.129771 0.024997 255 220 0
0.077847 0.195170 0.023764 255 220 0
0.064770 0.225763 0.108309 255 220 0
0.081124 0.146506 0.072730 255 220 0
0.093658 0.157641 0.026211 255 220 0
0.061052 0.235760 0.032236 255 220 0
0.089705 0.134045 0.046811 255 220 0
0.113251 0.241534 0.070317 255 220 0
0.116111 0.182036 0.028752 255 220 0
0.078994 0.256516 0.040859 255 220 0
0.050262 0.216790 0.097627 255 220 0
0.117777 0.105263 0.049727 255 220 0
0.067101 0.177707 0.044467 255 220 0
0.063577 0.273658 0.068211 255 220 0
0.114645 0.104391 0.040275 255 220 0
0.126265 0.199614 0.088898 255 220 0
0.054291 0.218516 0.037814 255 220 0
0.088742 0.212098 0.112966 255 220 0
0.107359 0.112844 0.060568 255 220 0
0.104947 0.215556 0.028227 255 220 0
0.080249 0.169632 0.031672 255 220 0
0.050207 0.218771 0.043313 255 220 0
0.045740 0.220718 0.092967 255 220 0
0.060891 0.254150 0.040218 255 220 0
0.059329 0.212371 0.105060 255 220 0
0.057630 0.219685 0.104811 255 220 0
0.041458 0.218835 0.080595 255 220 0
0.050010 0.206962 0.091762 255 220 0
0.050344 0.239759 0.099966 255 220 0
0.080935 0.146438 0.064170 255 220 0
0.113927 0.108678 0.057638 255 220 0
0.076087 0.154087 0.060931 255 220 0
0.060969 0.257819 0.043014 255 220 0
0.107193 0.107024 0.035716 255 220 0
0.113129 0.181131 0.104997 255 220 0
0.069426 0.274177 0.074789 255 220 0
0.095671 0.224190 0.026374 255 220 0
0.085200 0.201460 0.020676 255 220 0
0.130429 0.197248 0.056520 255 220 0
0.092949 0.167297 0.024236 255 220 0
0.107450 0.150128 0.023187 255 220 0
0.084861 0.142473 0.048231 255 220 0
0.138000 0.147760 0.060482 255 220 0
0.061210 0.177202 0.065447 255 220 0
0.042504 0.220791 0.086121 255 220 0
0.065700 0.171162 0.058622 255 220 0
0.095091 0.175386 0.111231 255 220 0
0.083110 0.152461 0.039911 255 220 0
0.082058 0.145278 0.055341 255 220 0
0.074253 0.166620 0.093166 255 220 0
0.136255 0.155022 0.049344 255 220 0
0.103519 0.252411 0.067381 255 220 0
0.077159 0.212711 0.022528 255 220 0
0.058052 0.182788 0.065714 255 220 0
0.126040 0.148399 0.088244 255 220 0
0.116828 0.145449 0.094593 255 220 0
0.059000 0.180461 0.077587 255 220 0
0.106716 0.223809 0.033558 255 220 0
0.082626 0.217407 0.112697 255 220 0
0.099838 0.195966 0.111582 255 220 0
0.096273 0.227345 0.107096 255 220 0
0.078601 0.150270 0.074879 255 220 0
0.054886 0.244823 0.039356 255 220 0
0.084135 0.142140 0.070790 255 220 0
0.095920 0.259531 0.066313 255 220 0
0.071180 0.196621 0.027764 255 220 0
0.115072 0.204682 0.101687 255 220 0
0.075489 0.228714 0.110245 255 220 0
0.100690 0.140634 0.092178 255 220 0
0.127720 0.171782 0.091412 255 220 0
0.077878 0.153318 0.051882 255 220 0
0.110510 0.210411 0.030791 255 220 0
0.100289 0.147158 0.024627 255 220 0
0.041310 0.217103 0.076359 255 220 0
0.136597 0.130127 0.050294 255 220 0
0.082198 0.242056 0.030458 255 220 0
0.075221 0.171401 0.036738 255 220 0
0.089667 0.145092 0.088549 255 220 0
0.127035 0.109136 0.051390 255 220 0
0.134334 0.121074 0.047554 255 220 0
0.061952 0.272536 0.081344 255 220 0
0.109789 0.238839 0.049106 255 220 0
0.072851 0.208897 0.111860 255 220 0
0.075471 0.170399 0.037150 255 220 0
0.045559 0.206416 0.071026 255 220 0
0.041126 0.217361 0.071656 255 220 0
0.060645 0.209313 0.033379 255 220 0
0.040177 0.243659 0.062313 255 220 0
0.105586 0.161796 0.023283 255 220 0
0.109732 0.230875 0.041477 255 220 0
0.120336 0.202420 0.096633 255 220 0
0.044338 0.256822 0.061733 255 220 0
0.123154 0.222604 0.077833 255 220 0
0.091515 0.176727 0.022566 255 220 0
0.097830 0.237406 0.034902 255 220 0
0.137699 0.139275 0.058075 255 220 0
0.101035 0.113658 0.048487 255 220 0
0.065320 0.185198 0.040789 255 220 0
0.119635 0.208543 0.095739 255 220 0
0.132728 0.117957 0.042236 255 220 0
0.127311 0.169943 0.091794 255 220 0
0.104730 0.195977 0.023419 255 220 0
0.074862 0.183111 0.106679 255 220 0
0.093093 0.216792 0.111333 255 220 0
0.126244 0.155643 0.032057 255 220 0
0.105712 0.249814 0.064107 255 220 0
0.071211 0.268519 0.088960 255 220 0
0.114324 0.179907 0.104143 255 220 0
0.118222 0.233454 0.064344 255 220 0
0.061547 0.176052 0.068077 255 220 0
0.078792 0.226327 0.023890 255 220 0
0.105189 0.194313 0.023473 255 220 0
0.100406 0.203901 0.110961 255 220 0
0.104850 0.129833 0.082618 255 220 0
0.068783 0.189002 0.104884 255 220 0
0.121662 0.220974 0.054116 255 220 0
0.126726 0.168859 0.092370 255 220 0
0.111173 0.141159 0.094416 255 220 0
0.057710 0.182934 0.067620 255 220 0
0.075193 0.254104 0.100965 255 220 0
0.102438 0.252016 0.058552 255 220 0
0.097658 0.216416 0.109944 255 220 0
0.127654 0.175008 0.091560 255 220 0
0.118083 0.209037 0.097459 255 220 0
0.047471 0.255824 0.090519 255 220 0
0.119288 0.104877 0.041613 255 220 0
0.126732 0.121911 0.073208 255 220 0
0.130926 0.113405 0.046029 255 220 0
0.063205 0.174106 0.063823 255 220 0
0.060105 0.211858 0.033196 255 220 0
0.054319 0.231880 0.036831 255 220 0
0.068244 0.274330 0.072807 255 220 0
0.041872 0.252312 0.081848 255 220 0
0.110519 0.106545 0.032935 255 220 0
0.109790 0.243003 0.056053 255 220 0
0.070037 0.194376 0.108052 255 220 0
0.135739 0.163403 0.076381 255 220 0
0.090348 0.214221 0.022026 255 220 0
0.047344 0.260089 0.086312 255 220 0
0.129512 0.159401 0.036984 255 220 0
0.092223 0.215900 0.111738 255 220 0
0.093329 0.165821 0.024457 255 220 0
0.133392 0.166884 0.082491 255 220 0
0.099133 0.230262 0.031136 255 220 0
0.122481 0.223709 0.078645 255 220 0
0.095412 0.257783 0.057719 255 220 0
0.104911 0.157119 0.104558 255 220 0
0.064664 0.239575 0.031402 255 220 0
0.080021 0.210765 0.021765 255 220 0
0.072864 0.273409 0.070001 255 220 0
0.061435 0.194379 0.039800 255 220 0
0.106759 0.108208 0.049501 255 220 0
0.124853 0.201127 0.090761 255 220 0
0.060231 0.191480 0.043993 255 220 0
0.119847 0.231054 0.072675 255 220 0
0.128953 0.170534 0.039711 255 220 0
0.060683 0.208042 0.033747 255 220 0
0.120590 0.152080 0.094502 255 220 0
0.045166 0.211757 0.059505 255 220 0
0.042451 0.240229 0.054966 255 220 0
0.088332 0.135129 0.057603 255 220 0
0.083213 0.159310 0.097174 255 220 0
0.111115 0.126163 0.081347 255 220 0
0.082523 0.157789 0.036567 255 220 0
0.121186 0.224752 0.081532 255 220 0
0.136428 0.147895 0.071173 255 220 0
0.045231 0.254933 0.087783 255 220 0
0.047370 0.214152 0.050882 255 220 0
0.051347 0.215006 0.098242 255 220 0
0.118828 0.203528 0.037660 255 220 0
0.108100 0.197009 0.107849 255 220 0
0.129396 0.123756 0.030968 255 220 0
0.044709 0.232965 0.049688 255 220 0
0.122199 0.188592 0.036576 255 220 0
0.076385 0.177220 0.031475 255 220 0
0.106297 0.187663 0.109135 255 220 0
0.095102 0.166847 0.023725 255 220 0
0.111489 0.184929 0.026066 255 220 0
0.078250 0.200761 0.022663 255 220 0
0.041667 0.225789 0.087141 255 220 0
0.127748 0.149171 0.086713 255 220 0
0.061203 0.179278 0.058169 255 220 0
0.067917 0.201113 0.108749 255 220 0
0.049216 0.201348 0.061364 255 220 0
0.081180 0.146585 0.056273 255 220 0
0.043115 0.252157 0.059868 255 220 0
0.050728 0.259649 0.053619 255 220 0
0.043748 0.216833 0.058203 255 220 0
0.115070 0.213140 0.037191 255 220 0
0.083034 0.161760 0.033223 255 220 0
0.069167 0.241590 0.030593 255 220 0
0.085308 0.267379 0.067280 255 220 0
0.076825 0.271587 0.078066 255 220 0
0.098210 0.174784 0.022212 255 220 0
0.101050 0.215557 0.025842 255 220 0
0.080325 0.224285 0.111425 255 220 0
0.089812 0.177509 0.022825 255 220 0
0.084820 0.194487 0.112675 255 220 0
0.089868 0.253850 0.094715 255 220 0
0.112833 0.199730 0.104380 255 220 0
0.044552 0.209667 0.079855 255 220 0
0.134167 0.183717 0.059154 255 220 0
0.058800 0.233905 0.105295 255 220 0
0.133379 0.188962 0.074530 255 220 0
0.121902 0.210160 0.045890 255 220 0
0.110538 0.209409 0.104491 255 220 0
0.063426 0.213750 0.029830 255 220 0
0.100198 0.188109 0.111560 255 220 0
0.137151 0.133348 0.053129 255 220 0
0.111224 0.105055 0.037988 255 220 0
0.099586 0.241506 0.097768 255 220 0
0.095076 0.203414 0.021138 255 220 0
0.070520 0.179760 0.037134 255 220 0
0.046776 0.205841 0.063718 255 220 0
0.109296 0.106557 0.033947 255 220 0
0.127229 0.206047 0.083931 255 220 0
0.115045 0.105960 0.033129 255 220 0
0.086597 0.178359 0.110737 255 220 0
0.137398 0.135840 0.056989 255 220 0
0.098599 0.144405 0.094868 255 220 0
0.094624 0.170831 0.023066 255 220 0
0.098672 0.117618 0.037585 255 220 0
0.095903 0.125383 0.036865 255 220 0
0.095870 0.259446 0.065245 255 220 0
0.106914 0.189493 0.023951 255 220 0
