ply
format ascii 1.0
element vertex 1024
property float x
property float y
property float z
property uchar red
property uchar green
property uchar blue
end_header
0.097319 0.226536 0.212507 255 220 0
0.070837 0.188766 0.183661 255 220 0
0.056432 0.195495 0.190416 255 220 0
0.107209 0.273086 0.257603 255 220 0
0.039985 0.209401 0.235496 255 220 0
0.057193 0.178880 0.241981 255 220 0
0.099710 0.242029 0.223595 255 220 0
0.109121 0.213808 0.220840 255 220 0
0.069204 0.157258 0.218114 255 220 0
0.112962 0.179025 0.224317 255 220 0
0.045897 0.186756 0.221102 255 220 0
0.101113 0.149897 0.184012 255 220 0
0.079722 0.240281 0.210925 255 220 0
0.108326 0.208561 0.289481 255 220 0
0.084883 0.281974 0.254072 255 220 0
0.048303 0.250180 0.283637 255 220 0
0.065459 0.182947 0.257072 255 220 0
0.106222 0.151582 0.187523 255 220 0
0.076683 0.252403 0.311343 255 220 0
0.098452 0.200998 0.201514 255 220 0
0.076975 0.289162 0.278869 255 220 0
0.113619 0.231985 0.300303 255 220 0
0.093902 0.156145 0.179391 255 220 0
0.045653 0.187955 0.227654 255 220 0
0.076528 0.165270 0.238187 255 220 0
0.094943 0.234560 0.309159 255 220 0
0.097654 0.279679 0.305361 255 220 0
0.059772 0.250600 0.219554 255 220 0
0.063560 0.271663 0.298119 255 220 0
0.061851 0.167026 0.227172 255 220 0
0.075737 0.221522 0.301259 255 220 0
0.064951 0.243661 0.211181 255 220 0
0.102752 0.168099 0.237106 255 220 0
0.055097 0.191682 0.191258 255 220 0
0.080804 0.174187 0.252799 255 220 0
0.100552 0.189622 0.197802 255 220 0
0.084148 0.265056 0.232829 255 220 0
0.119044 0.242440 0.295940 255 220 0
0.110908 0.225378 0.228746 255 220 0
0.076810 0.284802 0.299274 255 220 0
0.043700 0.240326 0.230466 255 220 0
0.079005 0.146298 0.195114 255 220 0
0.107579 0.251106 0.238615 255 220 0
0.101150 0.183664 0.195273 255 220 0
0.056851 0.262579 0.237029 255 220 0
0.043654 0.203262 0.250830 255 220 0
0.069370 0.247082 0.306981 255 220 0
0.059198 0.272622 0.255015 255 220 0
0.042451 0.199329 0.221067 255 220 0
0.071724 0.280472 0.300695 255 220 0
0.097527 0.141657 0.198541 255 220 0
0.084768 0.284752 0.259030 255 220 0
0.090753 0.221180 0.204070 255 220 0
0.097292 0.158505 0.180145 255 220 0
0.115002 0.268733 0.267815 255 220 0
0.094339 0.158591 0.229673 255 220 0
0.107751 0.266022 0.250352 255 220 0
0.117919 0.215524 0.285296 255 220 0
0.106224 0.223115 0.301238 255 220 0
0.062679 0.235748 0.205455 255 220 0
0.051952 0.250117 0.290823 255 220 0
0.087558 0.285376 0.302081 255 220 0
0.045300 0.200130 0.251526 255 220 0
0.120827 0.232740 0.290313 255 220 0
0.110704 0.207255 0.221013 255 220 0
0.054910 0.219252 0.286131 255 220 0
0.107250 0.183114 0.203761 255 220 0
0.055004 0.185190 0.249000 255 220 0
0.117678 0.203506 0.272582 255 220 0
0.107274 0.233058 0.227524 255 220 0
0.054338 0.175750 0.230121 255 220 0
0.049716 0.221558 0.280926 255 220 0
0.039098 0.232918 0.249513 255 220 0
0.043749 0.242306 0.273858 255 220 0
0.048387 0.238736 0.285283 255 220 0
0.111203 0.266993 0.256555 255 220 0
0.085447 0.289364 0.292800 255 220 0
0.061628 0.270850 0.246069 255 220 0
0.116903 0.193310 0.255950 255 220 0
0.115875 0.228764 0.296779 255 220 0
0.096525 0.241973 0.311647 255 220 0
0.077881 0.160243 0.231046 255 220 0
0.063402 0.214913 0.290509 255 220 0
0.039828 0.218683 0.230822 255 220 0
0.068118 0.154567 0.205394 255 220 0
0.055789 0.261663 0.237019 255 220 0
0.078520 0.243200 0.310209 255 220 0
0.108871 0.161075 0.217187 255 220 0
0.054489 0.252886 0.227153 255 220 0
0.085900 0.188741 0.185876 255 220 0
0.078829 0.149742 0.185945 255 220 0
0.040393 0.214925 0.252163 255 220 0
0.041873 0.238908 0.268224 255 220 0
0.050403 0.255960 0.285149 255 220 0
0.104173 0.230918 0.222311 255 220 0
0.113614 0.197651 0.225049 255 220 0
0.093388 0.264543 0.236566 255 220 0
0.045072 0.204991 0.208889 255 220 0
0.111132 0.252016 0.244477 255 220 0
0.121736 0.231729 0.255117 255 220 0
0.121147 0.253333 0.268001 255 220 0
0.097409 0.179043 0.259025 255 220 0
0.078095 0.205083 0.289839 255 220 0
0.080792 0.145353 0.199884 255 220 0
0.086037 0.205597 0.292022 255 220 0
0.116202 0.191927 0.255663 255 220 0
0.096147 0.216342 0.206473 255 220 0
0.107879 0.176434 0.200842 255 220 0
0.105257 0.224404 0.220421 255 220 0
0.055664 0.260079 0.234945 255 220 0
0.071094 0.213825 0.294498 255 220 0
0.085111 0.289776 0.273808 255 220 0
0.070161 0.169605 0.241004 255 220 0
0.115483 0.256203 0.300401 255 220 0
0.118325 0.262054 0.289095 255 220 0
0.118514 0.220776 0.242580 255 220 0
0.122634 0.250161 0.273016 255 220 0
0.092433 0.289272 0.277510 255 220 0
0.040164 0.218614 0.255164 255 220 0
0.060729 0.271306 0.293722 255 220 0
0.100599 0.285857 0.277275 255 220 0
0.047243 0.247452 0.282226 255 220 0
0.096118 0.165551 0.238903 255 220 0
0.112472 0.176040 0.217735 255 220 0
0.087782 0.168916 0.246150 255 220 0
0.085220 0.229678 0.205729 255 220 0
0.042802 0.214395 0.215613 255 220 0
0.051853 0.213917 0.278474 255 220 0
0.064438 0.235629 0.301000 255 220 0
0.041552 0.205896 0.245301 255 220 0
0.063711 0.274608 0.295788 255 220 0
0.080281 0.194140 0.186272 255 220 0
0.045360 0.188391 0.226688 255 220 0
0.112704 0.226502 0.298907 255 220 0
0.069184 0.285551 0.280193 255 220 0
0.086452 0.181033 0.263705 255 220 0
0.041505 0.234059 0.231286 255 220 0
0.107302 0.240913 0.231943 255 220 0
0.086948 0.151426 0.219859 255 220 0
0.086756 0.257315 0.314196 255 220 0
0.108051 0.200915 0.213846 255 220 0
0.054318 0.176812 0.232487 255 220 0
0.100745 0.171806 0.187346 255 220 0
0.093356 0.248451 0.223325 255 220 0
0.096860 0.252503 0.228745 255 220 0
0.067803 0.214651 0.193332 255 220 0
0.055743 0.232684 0.205520 255 220 0
0.080991 0.217720 0.300332 255 220 0
0.078898 0.289359 0.287104 255 220 0
0.052525 0.178749 0.232044 255 220 0
0.106597 0.223450 0.221662 255 220 0
0.058328 0.165897 0.213157 255 220 0
0.039514 0.213897 0.236976 255 220 0
0.039711 0.233541 0.258647 255 220 0
0.042429 0.208197 0.253416 255 220 0
0.082221 0.183335 0.266021 255 220 0
0.046082 0.203090 0.206509 255 220 0
0.045780 0.229126 0.214106 255 220 0
0.066084 0.243785 0.304198 255 220 0
0.108886 0.188480 0.265432 255 220 0
0.113706 0.232741 0.236919 255 220 0
0.106842 0.147532 0.193406 255 220 0
0.043638 0.236333 0.274165 255 220 0
0.042791 0.195929 0.231386 255 220 0
0.112118 0.268915 0.260441 255 220 0
0.078820 0.263322 0.312610 255 220 0
0.061064 0.242386 0.210826 255 220 0
0.044671 0.194392 0.214226 255 220 0
0.079796 0.251748 0.219642 255 220 0
0.059285 0.166914 0.195901 255 220 0
0.092713 0.208705 0.294819 255 220 0
0.093228 0.163383 0.237017 255 220 0
0.102376 0.279751 0.301202 255 220 0
0.055118 0.253072 0.226680 255 220 0
0.047483 0.243085 0.283688 255 220 0
0.039729 0.212126 0.240077 255 220 0
0.099224 0.261394 0.312279 255 220 0
0.104683 0.280183 0.265693 255 220 0
0.058552 0.275684 0.276639 255 220 0
0.061182 0.278066 0.282616 255 220 0
0.103330 0.277075 0.303154 255 220 0
0.045654 0.206736 0.207176 255 220 0
0.049434 0.184699 0.204582 255 220 0
0.069526 0.281705 0.295995 255 220 0
0.050351 0.263490 0.273441 255 220 0
0.045110 0.246419 0.276536 255 220 0
0.059886 0.167499 0.224221 255 220 0
0.044354 0.233231 0.275562 255 220 0
0.048296 0.232284 0.212007 255 220 0
0.117996 0.200294 0.239804 255 220 0
0.090064 0.253843 0.314163 255 220 0
0.044839 0.204628 0.256746 255 220 0
0.044149 0.251209 0.247068 255 220 0
0.058623 0.213257 0.194231 255 220 0
0.106516 0.192555 0.207388 255 220 0
0.089244 0.179182 0.183086 255 220 0
0.099453 0.203939 0.289659 255 220 0
0.080677 0.160520 0.232661 255 220 0
0.070340 0.286246 0.281561 255 220 0
0.108303 0.201840 0.214668 255 220 0
0.106824 0.259738 0.243784 255 220 0
0.112265 0.275061 0.285210 255 220 0
0.101126 0.241527 0.224665 255 220 0
0.105591 0.155882 0.185329 255 220 0
0.042489 0.205958 0.250250 255 220 0
0.114738 0.267422 0.293903 255 220 0
0.096664 0.158079 0.179933 255 220 0
0.119159 0.253095 0.260515 255 220 0
0.054602 0.177912 0.235459 255 220 0
0.110546 0.243982 0.306366 255 220 0
0.117221 0.266723 0.274737 255 220 0
0.118562 0.249405 0.296689 255 220 0
0.082902 0.191379 0.276607 255 220 0
0.055546 0.169268 0.210324 255 220 0
0.106597 0.199529 0.210844 255 220 0
0.103442 0.266796 0.246202 255 220 0
0.108890 0.161141 0.217219 255 220 0
0.075223 0.179700 0.180948 255 220 0
0.119284 0.213551 0.280706 255 220 0
0.073957 0.259841 0.310584 255 220 0
0.082290 0.192097 0.185976 255 220 0
0.115397 0.187290 0.239257 255 220 0
0.099547 0.186669 0.270076 255 220 0
0.113084 0.180531 0.222888 255 220 0
0.110490 0.203014 0.282284 255 220 0
0.051547 0.263701 0.279117 255 220 0
0.086467 0.253714 0.313934 255 220 0
0.092946 0.251535 0.313910 255 220 0
0.103094 0.241994 0.227095 255 220 0
0.076813 0.187123 0.269152 255 220 0
0.071962 0.259824 0.225393 255 220 0
0.096515 0.186485 0.270912 255 220 0
0.123774 0.243481 0.279000 255 220 0
0.060154 0.166749 0.222974 255 220 0
0.106909 0.229607 0.225192 255 220 0
0.106697 0.281541 0.277453 255 220 0
0.065251 0.221520 0.196698 255 220 0
0.087377 0.271266 0.312705 255 220 0
0.066294 0.218581 0.294928 255 220 0
0.118631 0.260495 0.290040 255 220 0
0.043011 0.194772 0.227440 255 220 0
0.116024 0.253936 0.253958 255 220 0
0.078743 0.251651 0.311965 255 220 0
0.053977 0.258737 0.290991 255 220 0
0.043582 0.238892 0.229044 255 220 0
0.087253 0.216406 0.199277 255 220 0
0.079473 0.229887 0.203622 255 220 0
0.070880 0.161405 0.228163 255 220 0
0.095167 0.288304 0.276689 255 220 0
0.113691 0.245073 0.303694 255 220 0
0.101718 0.245296 0.311351 255 220 0
0.046443 0.195339 0.247146 255 220 0
0.058555 0.258689 0.297891 255 220 0
0.106796 0.260057 0.244004 255 220 0
0.109534 0.155786 0.192268 255 220 0
0.089067 0.269230 0.238977 255 220 0
0.100927 0.228293 0.305522 255 220 0
0.112228 0.221491 0.229189 255 220 0
0.040241 0.216168 0.227599 255 220 0
0.087499 0.178038 0.181886 255 220 0
0.040244 0.233346 0.262149 255 220 0
0.100797 0.215800 0.211156 255 220 0
0.045866 0.217376 0.207980 255 220 0
0.091162 0.251593 0.313974 255 220 0
0.114243 0.195365 0.268110 255 220 0
0.048803 0.261753 0.268183 255 220 0
0.072311 0.286158 0.271208 255 220 0
0.085456 0.181369 0.264026 255 220 0
0.045771 0.196688 0.247365 255 220 0
0.070494 0.280495 0.257688 255 220 0
0.054622 0.234743 0.207627 255 220 0
0.113248 0.260493 0.301984 255 220 0
0.040708 0.239472 0.242140 255 220 0
0.045406 0.190050 0.232979 255 220 0
0.084853 0.245884 0.312314 255 220 0
0.046932 0.189416 0.209398 255 220 0
0.102785 0.160803 0.226600 255 220 0
0.078291 0.216079 0.195314 255 220 0
0.110101 0.188743 0.212920 255 220 0
0.056951 0.214046 0.284483 255 220 0
0.071983 0.151252 0.204109 255 220 0
0.103171 0.189787 0.201030 255 220 0
0.079086 0.163882 0.237194 255 220 0
0.050036 0.255803 0.237491 255 220 0
0.082750 0.268886 0.236507 255 220 0
0.052510 0.255475 0.290045 255 220 0
0.120007 0.256982 0.267819 255 220 0
0.046684 0.190548 0.239416 255 220 0
0.039973 0.217397 0.229523 255 220 0
0.057181 0.249019 0.297483 255 220 0
0.116915 0.237559 0.245229 255 220 0
0.042309 0.236011 0.230060 255 220 0
0.111503 0.195574 0.219026 255 220 0
0.117519 0.194289 0.254784 255 220 0
0.112409 0.211892 0.225882 255 220 0
0.063141 0.227847 0.200355 255 220 0
0.074481 0.226770 0.303391 255 220 0
0.057142 0.233830 0.205628 255 220 0
0.113717 0.252421 0.248777 255 220 0
0.044564 0.234840 0.276363 255 220 0
0.075706 0.214820 0.297091 255 220 0
0.051189 0.221658 0.283123 255 220 0
0.121411 0.224907 0.285203 255 220 0
0.049781 0.250560 0.286800 255 220 0
0.056441 0.223287 0.199594 255 220 0
0.116101 0.189334 0.243734 255 220 0
0.074181 0.272442 0.240700 255 220 0
0.082786 0.276664 0.246250 255 220 0
0.121193 0.206293 0.257072 255 220 0
0.111244 0.263581 0.303098 255 220 0
0.091728 0.205930 0.292576 255 220 0
0.112073 0.178443 0.214760 255 220 0
0.087568 0.187012 0.185887 255 220 0
0.063107 0.251049 0.302999 255 220 0
0.051323 0.207170 0.271783 255 220 0
0.067602 0.183908 0.182834 255 220 0
0.085421 0.285975 0.261629 255 220 0
0.055221 0.213923 0.282570 255 220 0
0.102047 0.236243 0.308530 255 220 0
0.115799 0.190072 0.234879 255 220 0
0.104849 0.145845 0.192264 255 220 0
0.082551 0.196709 0.282612 255 220 0
0.093139 0.144049 0.188013 255 220 0
0.105976 0.185529 0.202878 255 220 0
0.092469 0.278235 0.251042 255 220 0
0.083676 0.181716 0.264166 255 220 0
0.075003 0.249302 0.216498 255 220 0
0.060389 0.245256 0.213598 255 220 0
0.077687 0.176886 0.180202 255 220 0
0.105331 0.179243 0.198186 255 220 0
0.061244 0.237170 0.206707 255 220 0
0.082499 0.265334 0.232583 255 220 0
0.091915 0.286172 0.299840 255 220 0
0.097988 0.144785 0.187523 255 220 0
0.119192 0.261201 0.271685 255 220 0
0.108534 0.160555 0.217327 255 220 0
0.065781 0.226273 0.298580 255 220 0
0.100934 0.201512 0.286872 255 220 0
0.043709 0.232848 0.273919 255 220 0
0.115263 0.187096 0.242064 255 220 0
0.110857 0.156434 0.200454 255 220 0
0.101154 0.180659 0.259496 255 220 0
0.084497 0.160412 0.233463 255 220 0
0.083937 0.230232 0.205504 255 220 0
0.111731 0.271215 0.262859 255 220 0
0.108615 0.255803 0.243335 255 220 0
0.110911 0.188585 0.262726 255 220 0
0.073078 0.264690 0.230556 255 220 0
0.116023 0.265031 0.264798 255 220 0
0.099702 0.164773 0.235250 255 220 0
0.040477 0.209959 0.226923 255 220 0
0.105488 0.253231 0.237278 255 220 0
0.060205 0.240595 0.209599 255 220 0
0.122992 0.215875 0.266614 255 220 0
0.043648 0.240894 0.231373 255 220 0
0.094103 0.200500 0.287506 255 220 0
0.099231 0.212306 0.207831 255 220 0
0.082749 0.285055 0.259878 255 220 0
0.051257 0.262676 0.279882 255 220 0
0.119163 0.198519 0.251319 255 220 0
0.097899 0.187844 0.194143 255 220 0
0.069398 0.167114 0.180861 255 220 0
0.042463 0.225505 0.220926 255 220 0
0.056955 0.245263 0.296936 255 220 0
0.066209 0.210663 0.289176 255 220 0
0.092419 0.200920 0.288030 255 220 0
0.053122 0.246114 0.219823 255 220 0
0.113909 0.207748 0.283507 255 220 0
0.086806 0.144204 0.205186 255 220 0
0.039150 0.233453 0.250817 255 220 0
0.111538 0.199904 0.277817 255 220 0
0.083736 0.288530 0.268709 255 220 0
0.092903 0.200518 0.195874 255 220 0
0.068887 0.274448 0.303039 255 220 0
0.052480 0.247161 0.221958 255 220 0
0.061884 0.205707 0.281640 255 220 0
0.053380 0.234356 0.291212 255 220 0
0.077265 0.269534 0.311183 255 220 0
0.101538 0.250269 0.312179 255 220 0
0.048237 0.183346 0.210876 255 220 0
0.050671 0.177130 0.216488 255 220 0
0.091087 0.195056 0.282059 255 220 0
0.123411 0.222516 0.261733 255 220 0
0.105407 0.190450 0.204547 255 220 0
0.039495 0.217124 0.247343 255 220 0
0.082463 0.221051 0.199343 255 220 0
0.102120 0.258711 0.311538 255 220 0
0.107706 0.152860 0.189066 255 220 0
0.110103 0.197558 0.276599 255 220 0
0.054996 0.171173 0.218858 255 220 0
0.091600 0.227743 0.208310 255 220 0
0.053276 0.214499 0.280770 255 220 0
0.046295 0.217336 0.272489 255 220 0
0.043256 0.200115 0.243989 255 220 0
0.086344 0.290346 0.286320 255 220 0
0.122136 0.236589 0.287956 255 220 0
0.075839 0.148474 0.202928 255 220 0
0.052919 0.258729 0.236846 255 220 0
0.039297 0.221954 0.251708 255 220 0
0.054911 0.252987 0.294607 255 220 0
0.112011 0.169938 0.213091 255 220 0
0.110983 0.167233 0.218351 255 220 0
0.077519 0.198595 0.283126 255 220 0
0.053458 0.268994 0.272549 255 220 0
0.106934 0.222255 0.300461 255 220 0
0.059607 0.268976 0.244783 255 220 0
0.041770 0.242170 0.240400 255 220 0
0.105082 0.187304 0.202410 255 220 0
0.065719 0.282736 0.274823 255 220 0
0.058807 0.168338 0.194909 255 220 0
0.044969 0.191199 0.216080 255 220 0
0.066417 0.156457 0.208012 255 220 0
0.046513 0.256701 0.250450 255 220 0
0.123924 0.237071 0.280303 255 220 0
0.090910 0.260682 0.231734 255 220 0
0.082085 0.289912 0.287857 255 220 0
0.082624 0.219761 0.301769 255 220 0
0.102903 0.254076 0.235004 255 220 0
0.106486 0.186289 0.264540 255 220 0
0.066932 0.176461 0.248920 255 220 0
0.061475 0.249464 0.301483 255 220 0
0.109117 0.193133 0.212572 255 220 0
0.112739 0.205617 0.282688 255 220 0
0.044618 0.247493 0.274109 255 220 0
0.059500 0.252112 0.221504 255 220 0
0.070065 0.176509 0.180888 255 220 0
0.110902 0.218135 0.295500 255 220 0
0.075133 0.162617 0.233306 255 220 0
0.045580 0.192260 0.212260 255 220 0
0.039582 0.237239 0.250745 255 220 0
0.057464 0.271941 0.284923 255 220 0
0.042747 0.249581 0.255660 255 220 0
0.107883 0.177389 0.245236 255 220 0
0.087957 0.289969 0.289196 255 220 0
0.065032 0.157536 0.205928 255 220 0
0.080822 0.199329 0.188487 255 220 0
0.070282 0.239619 0.305914 255 220 0
0.088920 0.145255 0.186930 255 220 0
0.076987 0.287945 0.271026 255 220 0
0.083586 0.189124 0.185187 255 220 0
0.096977 0.252083 0.228508 255 220 0
0.080833 0.145981 0.203620 255 220 0
0.115082 0.249929 0.302212 255 220 0
0.083410 0.281126 0.306813 255 220 0
0.061391 0.165208 0.222030 255 220 0
0.075506 0.174758 0.179817 255 220 0
0.105115 0.219401 0.217851 255 220 0
0.065723 0.222638 0.197263 255 220 0
0.048887 0.261397 0.254377 255 220 0
0.121189 0.207723 0.265671 255 220 0
0.083143 0.151559 0.219036 255 220 0
0.121775 0.237708 0.289203 255 220 0
0.079003 0.236190 0.308266 255 220 0
0.043451 0.197879 0.240857 255 220 0
0.107289 0.163095 0.223015 255 220 0
0.115646 0.213448 0.233461 255 220 0
0.066065 0.279748 0.261850 255 220 0
0.109341 0.215782 0.222006 255 220 0
0.075566 0.158330 0.180306 255 220 0
0.104293 0.249488 0.233258 255 220 0
0.045693 0.245840 0.232309 255 220 0
0.093151 0.185489 0.188697 255 220 0
0.048853 0.251019 0.284530 255 220 0
0.082288 0.205132 0.191443 255 220 0
0.115166 0.214789 0.288660 255 220 0
0.116836 0.219207 0.290126 255 220 0
0.104454 0.269901 0.250397 255 220 0
0.090866 0.267491 0.238015 255 220 0
0.050910 0.229206 0.206712 255 220 0
0.119055 0.198158 0.251014 255 220 0
0.061606 0.178624 0.184668 255 220 0
0.064926 0.248881 0.304198 255 220 0
0.107988 0.266276 0.305361 255 220 0
0.113736 0.182485 0.233946 255 220 0
0.079730 0.212710 0.194067 255 220 0
0.040395 0.217486 0.226805 255 220 0
0.046550 0.223920 0.276893 255 220 0
0.090426 0.157796 0.178614 255 220 0
0.094221 0.152443 0.180428 255 220 0
0.118888 0.263359 0.278524 255 220 0
0.071822 0.173686 0.248147 255 220 0
0.088723 0.276632 0.247409 255 220 0
0.110809 0.165642 0.216947 255 220 0
0.038920 0.225810 0.242740 255 220 0
0.048252 0.240360 0.285220 255 220 0
0.071912 0.282698 0.261367 255 220 0
0.063410 0.161361 0.216599 255 220 0
0.121334 0.219451 0.251223 255 220 0
0.056673 0.195162 0.265222 255 220 0
0.062866 0.161748 0.216188 255 220 0
0.077100 0.228975 0.202336 255 220 0
0.098816 0.206540 0.204668 255 220 0
0.083188 0.200548 0.189784 255 220 0
0.067336 0.222469 0.197157 255 220 0
0.055814 0.224834 0.200714 255 220 0
0.096682 0.287046 0.292424 255 220 0
0.051604 0.250226 0.227332 255 220 0
0.065464 0.278406 0.294237 255 220 0
0.120375 0.246445 0.258719 255 220 0
0.089356 0.172299 0.180168 255 220 0
0.041337 0.211385 0.252847 255 220 0
0.062597 0.242561 0.210611 255 220 0
0.107029 0.182576 0.203031 255 220 0
0.074797 0.188233 0.269747 255 220 0
0.059191 0.253903 0.299471 255 220 0
0.115888 0.258646 0.257526 255 220 0
0.043158 0.203951 0.249954 255 220 0
0.114317 0.187463 0.251408 255 220 0
0.068897 0.246019 0.213056 255 220 0
0.111615 0.188859 0.262019 255 220 0
0.046499 0.214524 0.270741 255 220 0
0.057093 0.211598 0.194244 255 220 0
0.067319 0.283965 0.275306 255 220 0
0.050123 0.263323 0.272505 255 220 0
0.062038 0.193004 0.267841 255 220 0
0.071031 0.158067 0.222191 255 220 0
0.109533 0.158556 0.212411 255 220 0
0.088551 0.260990 0.314256 255 220 0
0.041992 0.237429 0.232858 255 220 0
0.041076 0.215434 0.256663 255 220 0
0.073074 0.150234 0.198234 255 220 0
0.066856 0.273404 0.245887 255 220 0
0.098381 0.142286 0.201367 255 220 0
0.111593 0.186600 0.216163 255 220 0
0.105270 0.204260 0.287446 255 220 0
0.076776 0.267135 0.233479 255 220 0
0.093422 0.209991 0.200901 255 220 0
0.070133 0.176932 0.251815 255 220 0
0.123786 0.229689 0.264015 255 220 0
0.108698 0.271112 0.301723 255 220 0
0.103816 0.256164 0.237533 255 220 0
0.108593 0.170363 0.230620 255 220 0
0.114788 0.186208 0.233004 255 220 0
0.062226 0.206604 0.282755 255 220 0
0.104009 0.168128 0.188377 255 220 0
0.055896 0.170283 0.201223 255 220 0
0.039918 0.216465 0.229869 255 220 0
0.052499 0.194193 0.258302 255 220 0
0.084640 0.288307 0.267861 255 220 0
0.046516 0.258043 0.260044 255 220 0
0.093836 0.242078 0.311908 255 220 0
0.074353 0.238181 0.307395 255 220 0
0.044076 0.248283 0.240929 255 220 0
0.087262 0.289764 0.274369 255 220 0
0.042714 0.227099 0.269849 255 220 0
0.107536 0.197394 0.278757 255 220 0
0.061595 0.181207 0.251216 255 220 0
0.052085 0.256104 0.234459 255 220 0
0.107178 0.166218 0.227477 255 220 0
0.078023 0.147047 0.194142 255 220 0
0.074881 0.149522 0.193682 255 220 0
0.099785 0.176669 0.189612 255 220 0
0.107745 0.280641 0.278005 255 220 0
0.097965 0.286930 0.289549 255 220 0
0.069441 0.204987 0.286073 255 220 0
0.116431 0.268707 0.277367 255 220 0
0.089181 0.288022 0.268043 255 220 0
0.116016 0.263637 0.294821 255 220 0
0.049039 0.262173 0.268255 255 220 0
0.119772 0.260568 0.282866 255 220 0
0.113721 0.245841 0.303746 255 220 0
0.062343 0.187549 0.185274 255 220 0
0.072209 0.189039 0.269535 255 220 0
0.105748 0.244838 0.232110 255 220 0
0.096284 0.233406 0.308570 255 220 0
0.066159 0.177659 0.250055 255 220 0
0.109941 0.159054 0.211778 255 220 0
0.087695 0.182740 0.266297 255 220 0
0.059994 0.274382 0.258655 255 220 0
0.099369 0.215494 0.298814 255 220 0
0.062974 0.204201 0.281045 255 220 0
0.111503 0.275810 0.272741 255 220 0
0.121396 0.254192 0.284835 255 220 0
0.039425 0.227552 0.237609 255 220 0
0.105179 0.267841 0.249025 255 220 0
0.078374 0.182438 0.181797 255 220 0
0.107654 0.150939 0.207010 255 220 0
0.094038 0.255258 0.229034 255 220 0
0.082111 0.148310 0.212087 255 220 0
0.056244 0.251210 0.296465 255 220 0
0.110163 0.184713 0.256414 255 220 0
0.122392 0.236649 0.287158 255 220 0
0.085702 0.201383 0.288083 255 220 0
0.039416 0.224367 0.254890 255 220 0
0.039127 0.224056 0.251514 255 220 0
0.100440 0.279244 0.258417 255 220 0
0.112123 0.179828 0.238178 255 220 0
0.069702 0.257642 0.308102 255 220 0
0.101644 0.277301 0.256713 255 220 0
0.116183 0.258743 0.258230 255 220 0
0.123446 0.241103 0.283152 255 220 0
0.083647 0.288647 0.294825 255 220 0
0.042945 0.230077 0.271367 255 220 0
0.057762 0.272004 0.285775 255 220 0
0.119133 0.253569 0.260865 255 220 0
0.098874 0.208932 0.205874 255 220 0
0.082234 0.175892 0.180101 255 220 0
0.083935 0.187014 0.271438 255 220 0
0.112217 0.187540 0.258162 255 220 0
0.047925 0.199300 0.202768 255 220 0
0.110735 0.209360 0.288323 255 220 0
0.058306 0.258830 0.230525 255 220 0
0.093122 0.233174 0.212649 255 220 0
0.112101 0.181682 0.243848 255 220 0
0.070925 0.224542 0.198530 255 220 0
0.045810 0.192706 0.211077 255 220 0
0.039585 0.213974 0.242311 255 220 0
0.066032 0.256905 0.223487 255 220 0
0.113058 0.274425 0.277661 255 220 0
0.039039 0.219829 0.243061 255 220 0
0.090370 0.280392 0.252990 255 220 0
0.116571 0.256974 0.257531 255 220 0
0.043304 0.250670 0.261022 255 220 0
0.041667 0.226647 0.266659 255 220 0
0.060313 0.175920 0.186177 255 220 0
0.098773 0.145325 0.187100 255 220 0
0.114393 0.195828 0.268533 255 220 0
0.079537 0.197618 0.187470 255 220 0
0.107003 0.280920 0.286009 255 220 0
0.122330 0.245814 0.265316 255 220 0
0.085199 0.224504 0.202548 255 220 0
0.042155 0.198461 0.224767 255 220 0
0.107843 0.275361 0.261902 255 220 0
0.040482 0.219838 0.226895 255 220 0
0.094440 0.175093 0.253995 255 220 0
0.058360 0.173176 0.233539 255 220 0
0.111978 0.233918 0.234695 255 220 0
0.108736 0.275327 0.263484 255 220 0
0.041701 0.214826 0.258682 255 220 0
0.102875 0.220191 0.215537 255 220 0
0.109261 0.185493 0.259545 255 220 0
0.112423 0.220447 0.295846 255 220 0
0.089669 0.196042 0.191222 255 220 0
0.055843 0.221228 0.288301 255 220 0
0.116881 0.219252 0.237998 255 220 0
0.115350 0.223842 0.295043 255 220 0
0.108483 0.192532 0.210995 255 220 0
0.044021 0.246804 0.238609 255 220 0
0.080207 0.146096 0.202780 255 220 0
0.066485 0.266103 0.304368 255 220 0
0.071391 0.269715 0.307559 255 220 0
0.091546 0.220883 0.204525 255 220 0
0.119631 0.241148 0.294665 255 220 0
0.095301 0.284435 0.300964 255 220 0
0.044759 0.193673 0.214433 255 220 0
0.124205 0.235147 0.277518 255 220 0
0.075113 0.185881 0.266799 255 220 0
0.049556 0.221266 0.280510 255 220 0
0.055281 0.177734 0.193774 255 220 0
0.059937 0.172797 0.235436 255 220 0
0.116206 0.222812 0.237563 255 220 0
0.088993 0.187412 0.186824 255 220 0
0.070213 0.282917 0.294837 255 220 0
0.073612 0.184814 0.264665 255 220 0
0.041946 0.225409 0.222800 255 220 0
0.056590 0.186828 0.253802 255 220 0
0.116079 0.192727 0.234147 255 220 0
0.080014 0.267922 0.312529 255 220 0
0.071229 0.283496 0.295254 255 220 0
0.046339 0.254482 0.273138 255 220 0
0.074727 0.164297 0.235712 255 220 0
0.085493 0.246123 0.312471 255 220 0
0.122311 0.234715 0.286995 255 220 0
0.087479 0.284262 0.258314 255 220 0
0.100852 0.167605 0.238372 255 220 0
0.061713 0.190064 0.186097 255 220 0
0.119498 0.225167 0.289807 255 220 0
0.040450 0.217247 0.255414 255 220 0
0.059032 0.249451 0.218692 255 220 0
0.105638 0.150940 0.210520 255 220 0
0.070628 0.186850 0.265804 255 220 0
0.121676 0.253255 0.284370 255 220 0
0.075378 0.254349 0.220651 255 220 0
0.106175 0.201431 0.284097 255 220 0
0.080969 0.145522 0.192687 255 220 0
0.111314 0.187071 0.259093 255 220 0
0.088385 0.163315 0.178187 255 220 0
0.058030 0.212476 0.284273 255 220 0
0.048735 0.254973 0.281393 255 220 0
0.119500 0.202756 0.246202 255 220 0
0.040202 0.237110 0.241905 255 220 0
0.070815 0.153679 0.211300 255 220 0
0.109676 0.192086 0.213350 255 220 0
0.078813 0.181819 0.181636 255 220 0
0.115132 0.258605 0.255993 255 220 0
0.118019 0.252569 0.257167 255 220 0
0.083312 0.185650 0.183733 255 220 0
0.060834 0.216735 0.289868 255 220 0
0.051283 0.223654 0.284424 255 220 0
0.117808 0.229823 0.294724 255 220 0
0.061774 0.208557 0.284172 255 220 0
0.123096 0.233542 0.283800 255 220 0
0.117115 0.244933 0.299346 255 220 0
0.093006 0.273130 0.245115 255 220 0
0.065498 0.170732 0.238833 255 220 0
0.106304 0.182835 0.201906 255 220 0
0.065782 0.275607 0.298100 255 220 0
0.099586 0.240312 0.222408 255 220 0
0.079360 0.219599 0.197446 255 220 0
0.043810 0.203259 0.213044 255 220 0
0.109211 0.166348 0.196391 255 220 0
0.111556 0.170042 0.219401 255 220 0
0.118440 0.258257 0.263564 255 220 0
0.047488 0.217591 0.205085 255 220 0
0.109179 0.185701 0.209228 255 220 0
0.090684 0.288465 0.270657 255 220 0
0.106845 0.214929 0.295724 255 220 0
0.083516 0.180714 0.181895 255 220 0
0.041753 0.242307 0.240718 255 220 0
0.055394 0.260052 0.235236 255 220 0
0.110438 0.154501 0.202141 255 220 0
0.116762 0.243973 0.248526 255 220 0
0.044899 0.205789 0.258469 255 220 0
0.072719 0.224587 0.301724 255 220 0
0.105268 0.233945 0.225318 255 220 0
0.059782 0.187629 0.186664 255 220 0
0.116645 0.232652 0.242357 255 220 0
0.099459 0.241204 0.222843 255 220 0
0.083965 0.286918 0.299223 255 220 0
0.089410 0.192856 0.279523 255 220 0
0.101915 0.158268 0.224132 255 220 0
0.121219 0.251060 0.288903 255 220 0
0.110575 0.262742 0.304271 255 220 0
0.048037 0.196916 0.202981 255 220 0
0.093711 0.153757 0.179901 255 220 0
0.096435 0.167490 0.181406 255 220 0
0.104873 0.163225 0.186224 255 220 0
0.071439 0.161966 0.181179 255 220 0
0.050729 0.179389 0.205733 255 220 0
0.087831 0.234720 0.210345 255 220 0
0.120214 0.204636 0.249261 255 220 0
0.049009 0.180532 0.221777 255 220 0
0.079701 0.252468 0.220183 255 220 0
0.109347 0.222604 0.225031 255 220 0
0.108914 0.168791 0.227322 255 220 0
0.105845 0.186327 0.265255 255 220 0
0.105039 0.205477 0.211386 255 220 0
0.076957 0.220607 0.197348 255 220 0
0.108926 0.247621 0.308125 255 220 0
0.121481 0.207898 0.262891 255 220 0
0.063582 0.209384 0.191477 255 220 0
0.039377 0.215342 0.238122 255 220 0
0.102349 0.184879 0.197366 255 220 0
0.112216 0.275533 0.276780 255 220 0
0.099308 0.286592 0.277733 255 220 0
0.065224 0.260593 0.227831 255 220 0
0.098397 0.154520 0.221962 255 220 0
0.060908 0.170763 0.233139 255 220 0
0.102462 0.282192 0.266744 255 220 0
0.119014 0.253865 0.260790 255 220 0
0.109056 0.173543 0.201474 255 220 0
0.114418 0.227404 0.297756 255 220 0
0.079072 0.175083 0.253520 255 220 0
0.077577 0.154502 0.221314 255 220 0
0.094519 0.284002 0.302083 255 220 0
0.095213 0.192273 0.193912 255 220 0
0.120442 0.251428 0.291401 255 220 0
0.040679 0.216828 0.225095 255 220 0
0.101874 0.190711 0.199900 255 220 0
0.058566 0.212231 0.193860 255 220 0
0.110270 0.198723 0.217230 255 220 0
0.057930 0.172658 0.231671 255 220 0
0.113510 0.232271 0.300508 255 220 0
0.068291 0.239986 0.208322 255 220 0
0.090164 0.166768 0.242767 255 220 0
0.039518 0.214886 0.234657 255 220 0
0.051888 0.174982 0.213753 255 220 0
0.113819 0.183496 0.239724 255 220 0
0.108142 0.209207 0.217439 255 220 0
0.065772 0.256605 0.223260 255 220 0
0.040286 0.236675 0.261246 255 220 0
0.056778 0.188527 0.189253 255 220 0
0.119952 0.218005 0.283488 255 220 0
0.089350 0.146679 0.184831 255 220 0
0.123291 0.235534 0.262984 255 220 0
0.124121 0.232790 0.277689 255 220 0
0.122936 0.223096 0.258553 255 220 0
0.105985 0.282187 0.277910 255 220 0
0.080753 0.274374 0.243015 255 220 0
0.095972 0.259430 0.233709 255 220 0
0.047461 0.183733 0.224402 255 220 0
0.077746 0.174203 0.251822 255 220 0
0.098308 0.148688 0.213926 255 220 0
0.079060 0.199171 0.284275 255 220 0
0.047153 0.188055 0.209704 255 220 0
0.052796 0.266925 0.277208 255 220 0
0.076423 0.249485 0.310834 255 220 0
0.052167 0.174790 0.209748 255 220 0
0.081566 0.233668 0.206852 255 220 0
0.118289 0.223267 0.242637 255 220 0
0.042179 0.205746 0.218672 255 220 0
0.070111 0.276379 0.303001 255 220 0
0.123241 0.220664 0.273637 255 220 0
0.081878 0.199633 0.285558 255 220 0
0.105225 0.233398 0.306278 255 220 0
0.114127 0.189140 0.256687 255 220 0
0.066726 0.278406 0.296472 255 220 0
0.082128 0.184393 0.267429 255 220 0
0.060716 0.253195 0.300985 255 220 0
0.096406 0.146708 0.211700 255 220 0
0.120454 0.203898 0.261661 255 220 0
0.067199 0.277047 0.253419 255 220 0
0.091150 0.211217 0.199497 255 220 0
0.112760 0.179061 0.230224 255 220 0
0.120894 0.237336 0.291377 255 220 0
0.104656 0.184426 0.200185 255 220 0
0.056731 0.227821 0.292275 255 220 0
0.091647 0.175684 0.255690 255 220 0
0.099302 0.239186 0.310283 255 220 0
0.086127 0.276554 0.246594 255 220 0
0.086704 0.155272 0.178907 255 220 0
0.116254 0.216462 0.235708 255 220 0
0.089015 0.273411 0.311849 255 220 0
0.095568 0.151252 0.181183 255 220 0
0.040513 0.212872 0.250021 255 220 0
0.124258 0.238085 0.272343 255 220 0
0.048853 0.258034 0.244199 255 220 0
0.085579 0.172067 0.179359 255 220 0
0.095272 0.196889 0.283720 255 220 0
0.116855 0.196432 0.236131 255 220 0
0.123334 0.244295 0.269593 255 220 0
0.092006 0.278398 0.251023 255 220 0
0.112942 0.249997 0.304733 255 220 0
0.075173 0.273134 0.241562 255 220 0
0.075533 0.277182 0.247881 255 220 0
0.103841 0.272950 0.253300 255 220 0
0.091719 0.269039 0.240012 255 220 0
0.081254 0.287523 0.266316 255 220 0
0.097196 0.206095 0.202744 255 220 0
0.083511 0.164116 0.178099 255 220 0
0.101809 0.210582 0.209892 255 220 0
0.110447 0.253183 0.306950 255 220 0
0.103641 0.154591 0.183816 255 220 0
0.041329 0.223812 0.224468 255 220 0
0.080250 0.273701 0.310932 255 220 0
0.101939 0.205614 0.290313 255 220 0
0.116480 0.199692 0.270008 255 220 0
0.060205 0.189333 0.261400 255 220 0
0.113279 0.182369 0.239520 255 220 0
0.106088 0.164789 0.227462 255 220 0
0.105946 0.192075 0.206212 255 220 0
0.058990 0.165971 0.216961 255 220 0
0.106048 0.233014 0.225857 255 220 0
0.099016 0.276432 0.253108 255 220 0
0.108403 0.223303 0.224014 255 220 0
0.050654 0.237360 0.213210 255 220 0
0.111535 0.192354 0.218076 255 220 0
0.102646 0.199470 0.205382 255 220 0
0.079142 0.236712 0.208170 255 220 0
0.066897 0.163389 0.227480 255 220 0
0.064156 0.237130 0.301211 255 220 0
0.119350 0.210937 0.277751 255 220 0
0.107330 0.237637 0.230126 255 220 0
0.048263 0.191223 0.204253 255 220 0
0.050846 0.200065 0.197253 255 220 0
0.098796 0.243267 0.223588 255 220 0
0.089189 0.202398 0.289405 255 220 0
0.052646 0.264207 0.247830 255 220 0
0.044169 0.242977 0.232512 255 220 0
0.045421 0.255755 0.261712 255 220 0
0.090938 0.215800 0.201524 255 220 0
0.119105 0.249617 0.295478 255 220 0
0.090957 0.206182 0.196948 255 220 0
0.069301 0.244571 0.306477 255 220 0
0.122233 0.211433 0.260045 255 220 0
0.038946 0.230326 0.247298 255 220 0
0.057833 0.272243 0.257489 255 220 0
0.064654 0.207448 0.190597 255 220 0
0.041626 0.201795 0.224348 255 220 0
0.106881 0.203536 0.213103 255 220 0
0.090267 0.192557 0.279229 255 220 0
0.110599 0.169249 0.222779 255 220 0
0.107109 0.269742 0.253370 255 220 0
0.069469 0.153335 0.204829 255 220 0
0.106211 0.224643 0.302018 255 220 0
0.116690 0.203646 0.234717 255 220 0
0.074370 0.214521 0.193779 255 220 0
0.078437 0.151670 0.183615 255 220 0
0.074229 0.149405 0.197313 255 220 0
0.081272 0.282046 0.305378 255 220 0
0.074190 0.216091 0.297444 255 220 0
0.061357 0.266724 0.238531 255 220 0
0.116367 0.203311 0.233707 255 220 0
0.109254 0.259163 0.246724 255 220 0
0.110445 0.267106 0.255403 255 220 0
0.124081 0.227256 0.267105 255 220 0
0.113896 0.273037 0.282472 255 220 0
0.105720 0.170979 0.237521 255 220 0
0.080601 0.208148 0.293265 255 220 0
0.039004 0.222753 0.248313 255 220 0
0.109503 0.275382 0.295360 255 220 0
0.047148 0.217825 0.274353 255 220 0
0.114135 0.186257 0.248348 255 220 0
0.092683 0.214883 0.299281 255 220 0
0.062047 0.161160 0.210223 255 220 0
0.098289 0.169298 0.183529 255 220 0
0.119011 0.218550 0.243509 255 220 0
0.039265 0.225239 0.254017 255 220 0
0.079472 0.145941 0.196268 255 220 0
0.041910 0.201535 0.222465 255 220 0
0.101470 0.185922 0.267979 255 220 0
0.067094 0.251434 0.217816 255 220 0
0.046231 0.256070 0.249935 255 220 0
0.085845 0.159847 0.232762 255 220 0
0.065217 0.232571 0.300605 255 220 0
0.069999 0.278777 0.300675 255 220 0
0.041239 0.221975 0.223945 255 220 0
0.058442 0.217454 0.288366 255 220 0
0.104155 0.233909 0.223864 255 220 0
0.115353 0.216358 0.289774 255 220 0
0.101339 0.184950 0.266557 255 220 0
0.043087 0.245531 0.239993 255 220 0
0.069793 0.194303 0.185482 255 220 0
0.071832 0.256895 0.222572 255 220 0
0.064787 0.203686 0.281859 255 220 0
0.042079 0.201826 0.221148 255 220 0
0.055586 0.201973 0.192322 255 220 0
0.106239 0.239091 0.229442 255 220 0
0.060903 0.277393 0.283850 255 220 0
0.071067 0.232308 0.304089 255 220 0
0.043996 0.251992 0.251068 255 220 0
0.041121 0.203278 0.227173 255 220 0
0.039114 0.227540 0.253472 255 220 0
0.087569 0.290410 0.283847 255 220 0
0.091278 0.149146 0.182040 255 220 0
0.061830 0.170518 0.186493 255 220 0
0.078772 0.147565 0.190332 255 220 0
0.106182 0.229386 0.224118 255 220 0
0.124237 0.228571 0.269351 255 220 0
0.123053 0.243051 0.284730 255 220 0
0.082435 0.273352 0.311604 255 220 0
0.098017 0.287425 0.282948 255 220 0
0.103261 0.150455 0.185148 255 220 0
0.068820 0.222066 0.298467 255 220 0
0.068008 0.260228 0.226413 255 220 0
0.047457 0.183727 0.224331 255 220 0
0.110110 0.202381 0.281981 255 220 0
0.089966 0.289711 0.289295 255 220 0
0.079601 0.162222 0.234874 255 220 0
0.046695 0.256530 0.248800 255 220 0
0.113063 0.181631 0.238186 255 220 0
0.044427 0.190488 0.224590 255 220 0
0.095349 0.208724 0.294605 255 220 0
0.046913 0.219236 0.274892 255 220 0
0.075831 0.238941 0.308164 255 220 0
0.050820 0.219044 0.201413 255 220 0
0.118369 0.235989 0.295861 255 220 0
0.118113 0.207731 0.276884 255 220 0
0.081213 0.268145 0.312812 255 220 0
0.121175 0.224399 0.251349 255 220 0
0.094281 0.163784 0.179402 255 220 0
0.040022 0.215591 0.250365 255 220 0
0.119545 0.226555 0.246863 255 220 0
0.051877 0.220437 0.283284 255 220 0
0.076567 0.168913 0.243689 255 220 0
0.123978 0.226923 0.265828 255 220 0
0.047310 0.200248 0.204005 255 220 0
0.116733 0.254633 0.255943 255 220 0
0.117823 0.265592 0.282726 255 220 0
0.098042 0.192384 0.196661 255 220 0
0.071029 0.230068 0.201860 255 220 0
0.066727 0.187775 0.183956 255 220 0
0.113514 0.192936 0.224047 255 220 0
0.045698 0.222304 0.274436 255 220 0
0.052718 0.173606 0.212584 255 220 0
0.091173 0.289877 0.283663 255 220 0
0.120777 0.248892 0.261911 255 220 0
0.085180 0.275452 0.244972 255 220 0
0.080578 0.188268 0.272054 255 220 0
0.040724 0.235573 0.236585 255 220 0
0.088800 0.143736 0.205202 255 220 0
0.120869 0.257816 0.278727 255 220 0
0.081011 0.179095 0.259753 255 220 0
0.118680 0.202084 0.242235 255 220 0
0.042422 0.233665 0.227327 255 220 0
0.112164 0.180419 0.239753 255 220 0
0.096381 0.178368 0.258399 255 220 0
0.120147 0.205292 0.267192 255 220 0
0.098211 0.279706 0.257026 255 220 0
0.047997 0.189461 0.205892 255 220 0
0.110782 0.229447 0.230564 255 220 0
0.068094 0.264896 0.231758 255 220 0
0.114023 0.248690 0.246693 255 220 0
0.102446 0.201176 0.206012 255 220 0
0.112308 0.273118 0.291653 255 220 0
0.110161 0.267311 0.302367 255 220 0
0.117930 0.256915 0.260720 255 220 0
0.082233 0.194529 0.280103 255 220 0
0.114903 0.192212 0.229023 255 220 0
0.115445 0.233306 0.298901 255 220 0
0.075084 0.255586 0.310989 255 220 0
0.073092 0.269635 0.308828 255 220 0
0.109891 0.180720 0.248101 255 220 0
0.099685 0.198060 0.283863 255 220 0
0.054200 0.267855 0.254033 255 220 0
0.115058 0.187888 0.248602 255 220 0
0.054296 0.253139 0.227707 255 220 0
0.054815 0.263593 0.289046 255 220 0
0.039372 0.231407 0.241346 255 220 0
0.103431 0.266584 0.245986 255 220 0
0.057619 0.182767 0.248982 255 220 0
0.072386 0.282632 0.260695 255 220 0
0.046847 0.194867 0.247520 255 220 0
0.071795 0.193988 0.275415 255 220 0
0.039577 0.237065 0.249525 255 220 0
0.123933 0.225073 0.273040 255 220 0
0.045023 0.239438 0.225540 255 220 0
0.066672 0.156037 0.206725 255 220 0
0.099484 0.152439 0.181978 255 220 0
0.047523 0.253752 0.278743 255 220 0
0.108869 0.194140 0.273587 255 220 0
0.118593 0.210546 0.241112 255 220 0
0.113508 0.253646 0.249311 255 220 0
0.103431 0.151901 0.184515 255 220 0
0.042356 0.211881 0.257934 255 220 0
0.099992 0.147281 0.185466 255 220 0
0.056618 0.244021 0.214347 255 220 0
0.063488 0.159265 0.207503 255 220 0
0.063759 0.212072 0.192505 255 220 0
0.112403 0.182004 0.243490 255 220 0
0.106933 0.165895 0.190865 255 220 0
0.108315 0.170566 0.197555 255 220 0
0.070085 0.243917 0.306808 255 220 0
0.100455 0.182066 0.262393 255 220 0
