ply
format ascii 1.0
element vertex 1024
property float x
property float y
property float z
property uchar red
property uchar green
property uchar blue
end_header
0.096542 0.164155 0.052945 255 220 0
0.135234 0.128027 0.065505 255 220 0
0.134744 0.134881 0.081354 255 220 0
0.057787 0.216685 0.059023 255 220 0
0.134827 0.180517 0.101688 255 220 0
0.158865 0.183042 0.075506 255 220 0
0.083256 0.177721 0.055798 255 220 0
0.106056 0.171037 0.037685 255 220 0
0.171046 0.156785 0.056970 255 220 0
0.137826 0.169091 0.022734 255 220 0
0.151547 0.163051 0.088636 255 220 0
0.161806 0.123968 0.024214 255 220 0
0.089101 0.163732 0.074052 255 220 0
0.123030 0.237756 0.037110 255 220 0
0.056048 0.213269 0.083008 255 220 0
0.102476 0.235020 0.107389 255 220 0
0.155031 0.199071 0.069102 255 220 0
0.159206 0.128012 0.019953 255 220 0
0.096092 0.264412 0.081439 255 220 0
0.118074 0.149280 0.043487 255 220 0
0.056159 0.238367 0.092966 255 220 0
0.101381 0.252515 0.039804 255 220 0
0.157499 0.119980 0.033042 255 220 0
0.151637 0.169684 0.089294 255 220 0
0.164697 0.178300 0.052770 255 220 0
0.106489 0.260507 0.058348 255 220 0
0.062938 0.264203 0.070473 255 220 0
0.087365 0.172669 0.096325 255 220 0
0.080074 0.253684 0.100050 255 220 0
0.165863 0.166831 0.067155 255 220 0
0.123423 0.249444 0.072210 255 220 0
0.090727 0.163621 0.089120 255 220 0
0.153478 0.179300 0.028895 255 220 0
0.138867 0.135014 0.081377 255 220 0
0.157540 0.194392 0.051716 255 220 0
0.127358 0.143919 0.037772 255 220 0
0.068381 0.189572 0.078068 255 220 0
0.089153 0.250236 0.038059 255 220 0
0.096069 0.180799 0.039812 255 220 0
0.063791 0.257753 0.091814 255 220 0
0.103963 0.180774 0.108230 255 220 0
0.174152 0.132966 0.044002 255 220 0
0.074869 0.194462 0.051402 255 220 0
0.132281 0.140505 0.035250 255 220 0
0.080154 0.191634 0.103089 255 220 0
0.142014 0.194857 0.096303 255 220 0
0.102639 0.258809 0.086593 255 220 0
0.073148 0.211113 0.104245 255 220 0
0.140933 0.164832 0.095993 255 220 0
0.069698 0.258143 0.095219 255 220 0
0.173135 0.136731 0.024998 255 220 0
0.054352 0.218594 0.084050 255 220 0
0.102180 0.154578 0.057359 255 220 0
0.154345 0.121312 0.030610 255 220 0
0.061106 0.226522 0.050294 255 220 0
0.163748 0.169930 0.033708 255 220 0
0.062944 0.208438 0.056168 255 220 0
0.112751 0.235344 0.030288 255 220 0
0.112173 0.251553 0.043908 255 220 0
0.097839 0.156566 0.088656 255 220 0
0.102605 0.242313 0.103958 255 220 0
0.060298 0.261271 0.081856 255 220 0
0.144525 0.195139 0.093731 255 220 0
0.096647 0.243240 0.033179 255 220 0
0.111683 0.170249 0.034053 255 220 0
0.129600 0.232898 0.091073 255 220 0
0.132303 0.149152 0.029352 255 220 0
0.154898 0.190839 0.079672 255 220 0
0.121832 0.220868 0.026527 255 220 0
0.089868 0.180609 0.045745 255 220 0
0.160651 0.170681 0.077119 255 220 0
0.128218 0.227823 0.096706 255 220 0
0.115621 0.198059 0.110271 255 220 0
0.109583 0.223838 0.109072 255 220 0
0.113393 0.234802 0.103587 255 220 0
0.062003 0.214917 0.053256 255 220 0
0.055660 0.252643 0.085100 255 220 0
0.072478 0.202165 0.101320 255 220 0
0.128710 0.202795 0.023842 255 220 0
0.103051 0.248663 0.036601 255 220 0
0.099506 0.264249 0.059283 255 220 0
0.167716 0.170538 0.049812 255 220 0
0.131676 0.237033 0.081655 255 220 0
0.125425 0.177399 0.104836 255 220 0
0.171708 0.143756 0.057048 255 220 0
0.081346 0.191411 0.103794 255 220 0
0.103881 0.261925 0.076696 255 220 0
0.154628 0.158925 0.020710 255 220 0
0.088237 0.180198 0.102106 255 220 0
0.130815 0.131130 0.051270 255 220 0
0.169420 0.124478 0.045240 255 220 0
0.132424 0.197850 0.103197 255 220 0
0.112377 0.217626 0.109706 255 220 0
0.096680 0.237570 0.107296 255 220 0
0.091956 0.174940 0.047949 255 220 0
0.120393 0.172854 0.028194 255 220 0
0.066544 0.193738 0.069187 255 220 0
0.132719 0.153910 0.095293 255 220 0
0.073895 0.200601 0.048372 255 220 0
0.091231 0.208464 0.031794 255 220 0
0.073516 0.224600 0.039466 255 220 0
0.148773 0.202327 0.037637 255 220 0
0.136013 0.235690 0.064557 255 220 0
0.175282 0.137622 0.042032 255 220 0
0.133368 0.238412 0.057229 255 220 0
0.130174 0.202246 0.024052 255 220 0
0.105374 0.156496 0.050696 255 220 0
0.137821 0.145239 0.026563 255 220 0
0.097351 0.172095 0.044790 255 220 0
0.082503 0.189105 0.103385 255 220 0
0.130915 0.241259 0.074052 255 220 0
0.052109 0.233981 0.085446 255 220 0
0.163184 0.181382 0.060218 255 220 0
0.078241 0.256629 0.045937 255 220 0
0.069932 0.246610 0.045095 255 220 0
0.100304 0.194151 0.031199 255 220 0
0.076859 0.229121 0.037054 255 220 0
0.050872 0.237996 0.078381 255 220 0
0.129578 0.201386 0.104632 255 220 0
0.080555 0.249122 0.102586 255 220 0
0.051398 0.237715 0.069546 255 220 0
0.105113 0.233126 0.107493 255 220 0
0.158285 0.180253 0.034346 255 220 0
0.139629 0.162097 0.022187 255 220 0
0.159070 0.187422 0.043364 255 220 0
0.096322 0.157242 0.065369 255 220 0
0.125845 0.161910 0.100542 255 220 0
0.134228 0.224308 0.092182 255 220 0
0.113856 0.250769 0.087488 255 220 0
0.139280 0.189707 0.099119 255 220 0
0.076880 0.251873 0.100855 255 220 0
0.127653 0.132046 0.058344 255 220 0
0.151159 0.168785 0.089708 255 220 0
0.106541 0.250200 0.038873 255 220 0
0.062246 0.238611 0.099161 255 220 0
0.151235 0.206585 0.048670 255 220 0
0.110646 0.180437 0.108267 255 220 0
0.083304 0.186231 0.048303 255 220 0
0.171097 0.158654 0.038303 255 220 0
0.088783 0.268633 0.073534 255 220 0
0.117203 0.162004 0.034454 255 220 0
0.160076 0.173181 0.077497 255 220 0
0.142090 0.130760 0.031723 255 220 0
0.079262 0.178100 0.063897 255 220 0
0.075300 0.184306 0.061935 255 220 0
0.113760 0.141539 0.076866 255 220 0
0.102925 0.155711 0.094214 255 220 0
0.125123 0.248241 0.065998 255 220 0
0.056780 0.246628 0.091258 255 220 0
0.158770 0.172946 0.079821 255 220 0
0.098024 0.173246 0.043219 255 220 0
0.165627 0.152628 0.070040 255 220 0
0.131045 0.182671 0.103607 255 220 0
0.116419 0.207195 0.109947 255 220 0
0.138255 0.198125 0.099086 255 220 0
0.150844 0.208978 0.053434 255 220 0
0.133756 0.151321 0.093705 255 220 0
0.110910 0.162983 0.102521 255 220 0
0.106283 0.255334 0.088610 255 220 0
0.137411 0.210864 0.029900 255 220 0
0.089723 0.190208 0.039613 255 220 0
0.163794 0.133192 0.018080 255 220 0
0.115235 0.223172 0.107231 255 220 0
0.145770 0.174470 0.094620 255 220 0
0.060589 0.219110 0.053039 255 220 0
0.085456 0.267551 0.082986 255 220 0
0.093098 0.162828 0.092377 255 220 0
0.143641 0.157434 0.092246 255 220 0
0.079899 0.174171 0.077770 255 220 0
0.161398 0.135852 0.069370 255 220 0
0.128817 0.242077 0.051946 255 220 0
0.160905 0.177869 0.036361 255 220 0
0.060641 0.260409 0.066009 255 220 0
0.087781 0.179801 0.101570 255 220 0
0.109356 0.233876 0.105851 255 220 0
0.133160 0.185453 0.102845 255 220 0
0.080660 0.268168 0.063067 255 220 0
0.053379 0.225644 0.063771 255 220 0
0.074229 0.232867 0.105975 255 220 0
0.072199 0.239300 0.104298 255 220 0
0.063165 0.261959 0.064246 255 220 0
0.130613 0.152540 0.095301 255 220 0
0.149482 0.146665 0.084529 255 220 0
0.068443 0.253578 0.097672 255 220 0
0.087663 0.227248 0.109735 255 220 0
0.105777 0.227223 0.109141 255 220 0
0.165543 0.163880 0.069150 255 220 0
0.118137 0.224091 0.105551 255 220 0
0.106800 0.161578 0.101160 255 220 0
0.119071 0.188083 0.024995 255 220 0
0.090952 0.268244 0.069275 255 220 0
0.141382 0.200978 0.095662 255 220 0
0.096543 0.198910 0.111447 255 220 0
0.118153 0.141636 0.085095 255 220 0
0.124369 0.154201 0.033144 255 220 0
0.138168 0.127046 0.044976 255 220 0
0.130208 0.236640 0.043992 255 220 0
0.166841 0.172346 0.047268 255 220 0
0.061464 0.240142 0.098302 255 220 0
0.116402 0.162978 0.034522 255 220 0
0.067961 0.200898 0.054959 255 220 0
0.059087 0.244508 0.055042 255 220 0
0.083455 0.178781 0.054301 255 220 0
0.155024 0.126505 0.021939 255 220 0
0.139775 0.194649 0.098281 255 220 0
0.066909 0.251991 0.050263 255 220 0
0.154906 0.120995 0.031064 255 220 0
0.073084 0.217066 0.041226 255 220 0
0.159472 0.176303 0.077604 255 220 0
0.092235 0.260232 0.046654 255 220 0
0.063461 0.233152 0.047580 255 220 0
0.082948 0.252066 0.040790 255 220 0
0.144958 0.220743 0.055471 255 220 0
0.162890 0.150210 0.073752 255 220 0
0.118442 0.158734 0.035360 255 220 0
0.062887 0.204210 0.060471 255 220 0
0.154566 0.158968 0.020713 255 220 0
0.141807 0.124163 0.058388 255 220 0
0.113361 0.230589 0.028329 255 220 0
0.089905 0.264696 0.086436 255 220 0
0.128863 0.131547 0.055777 255 220 0
0.131923 0.185289 0.023210 255 220 0
0.142890 0.214573 0.038164 255 220 0
0.136139 0.167934 0.023102 255 220 0
0.126264 0.229905 0.033216 255 220 0
0.088062 0.232946 0.108705 255 220 0
0.092184 0.267777 0.072632 255 220 0
0.092136 0.267799 0.065796 255 220 0
0.082808 0.181371 0.052607 255 220 0
0.149588 0.212340 0.059799 255 220 0
0.075875 0.180655 0.087841 255 220 0
0.144176 0.215180 0.040975 255 220 0
0.083748 0.234008 0.033832 255 220 0
0.165941 0.162547 0.068646 255 220 0
0.092797 0.177734 0.044951 255 220 0
0.053496 0.237569 0.062375 255 220 0
0.108759 0.145805 0.081536 255 220 0
0.075331 0.269451 0.077487 255 220 0
0.128095 0.242154 0.080142 255 220 0
0.071450 0.247309 0.044303 255 220 0
0.146096 0.170410 0.094014 255 220 0
0.072174 0.210550 0.044427 255 220 0
0.096240 0.265031 0.079250 255 220 0
0.093955 0.243992 0.104856 255 220 0
0.105091 0.179136 0.107866 255 220 0
0.106922 0.148873 0.059085 255 220 0
0.097604 0.154847 0.070858 255 220 0
0.168379 0.167456 0.056793 255 220 0
0.050757 0.237199 0.075476 255 220 0
0.089751 0.257969 0.044021 255 220 0
0.094697 0.264812 0.055456 255 220 0
0.147866 0.190122 0.091063 255 220 0
0.093723 0.251062 0.100551 255 220 0
0.067712 0.201165 0.055091 255 220 0
0.155047 0.133567 0.018219 255 220 0
0.063978 0.196603 0.074813 255 220 0
0.109784 0.256281 0.050628 255 220 0
0.099343 0.180689 0.037299 255 220 0
0.127080 0.173845 0.103608 255 220 0
0.139586 0.125573 0.046246 255 220 0
0.117033 0.210646 0.109398 255 220 0
0.105197 0.161308 0.046150 255 220 0
0.120772 0.155060 0.098575 255 220 0
0.092664 0.267762 0.067502 255 220 0
0.129744 0.214941 0.027095 255 220 0
0.088871 0.221693 0.110602 255 220 0
0.059130 0.230050 0.096352 255 220 0
0.151296 0.206894 0.049723 255 220 0
0.146862 0.190514 0.092140 255 220 0
0.062657 0.215709 0.096148 255 220 0
0.101729 0.158048 0.095957 255 220 0
0.075234 0.258743 0.049457 255 220 0
0.107729 0.191952 0.110845 255 220 0
0.150683 0.175251 0.090241 255 220 0
0.099716 0.264820 0.071596 255 220 0
0.146720 0.152015 0.088460 255 220 0
0.158453 0.167778 0.026427 255 220 0
0.109413 0.144365 0.067428 255 220 0
0.127725 0.159255 0.028543 255 220 0
0.133511 0.230560 0.087437 255 220 0
0.173337 0.142193 0.052306 255 220 0
0.126923 0.147287 0.035368 255 220 0
0.165000 0.177255 0.049893 255 220 0
0.088728 0.190578 0.107325 255 220 0
0.065895 0.193727 0.080659 255 220 0
0.097300 0.242444 0.105173 255 220 0
0.070451 0.224939 0.041732 255 220 0
0.150919 0.181751 0.089231 255 220 0
0.126353 0.175921 0.104273 255 220 0
0.103101 0.249016 0.098695 255 220 0
0.085639 0.199367 0.038197 255 220 0
0.108358 0.179594 0.108136 255 220 0
0.121966 0.166458 0.029479 255 220 0
0.127400 0.201842 0.023572 255 220 0
0.107657 0.175897 0.033981 255 220 0
0.104171 0.150297 0.085615 255 220 0
0.119304 0.252312 0.075120 255 220 0
0.101428 0.156087 0.093266 255 220 0
0.073431 0.205061 0.046085 255 220 0
0.116709 0.225153 0.105881 255 220 0
0.128958 0.244257 0.070030 255 220 0
0.128032 0.230094 0.095359 255 220 0
0.102876 0.236980 0.030045 255 220 0
0.102193 0.238287 0.106133 255 220 0
0.110433 0.148402 0.090457 255 220 0
0.130565 0.190072 0.023235 255 220 0
0.066049 0.197904 0.089942 255 220 0
0.060318 0.204579 0.083215 255 220 0
0.115437 0.206256 0.024026 255 220 0
0.073192 0.260215 0.052365 255 220 0
0.131330 0.239360 0.051960 255 220 0
0.137006 0.159530 0.023331 255 220 0
0.131894 0.130964 0.049129 255 220 0
0.100263 0.255141 0.093785 255 220 0
0.139529 0.216597 0.090445 255 220 0
0.140653 0.126231 0.066974 255 220 0
0.053452 0.221391 0.083845 255 220 0
0.133850 0.228550 0.089022 255 220 0
0.102538 0.260594 0.052177 255 220 0
0.128448 0.181450 0.023713 255 220 0
0.165807 0.131673 0.019407 255 220 0
0.141140 0.227495 0.057574 255 220 0
0.170497 0.126477 0.029868 255 220 0
0.130309 0.148593 0.031338 255 220 0
0.056580 0.210148 0.074600 255 220 0
0.151567 0.206978 0.051520 255 220 0
0.083170 0.170385 0.081486 255 220 0
0.091119 0.165979 0.093966 255 220 0
0.143510 0.123126 0.055137 255 220 0
0.135562 0.142919 0.029873 255 220 0
0.097189 0.157940 0.090483 255 220 0
0.068608 0.189273 0.079716 255 220 0
0.057775 0.259459 0.077984 255 220 0
0.168174 0.126410 0.025521 255 220 0
0.067448 0.229377 0.043900 255 220 0
0.155245 0.158957 0.020859 255 220 0
0.121724 0.246960 0.083155 255 220 0
0.131514 0.233595 0.041786 255 220 0
0.118416 0.222372 0.106026 255 220 0
0.132630 0.188015 0.023289 255 220 0
0.155431 0.141816 0.017225 255 220 0
0.146149 0.203282 0.034626 255 220 0
0.165857 0.173352 0.043626 255 220 0
0.096178 0.157031 0.066761 255 220 0
0.058987 0.221839 0.054168 255 220 0
0.070976 0.199932 0.051980 255 220 0
0.136199 0.208340 0.028004 255 220 0
0.071875 0.186594 0.088401 255 220 0
0.063708 0.223016 0.048106 255 220 0
0.157233 0.176749 0.030684 255 220 0
0.132672 0.172192 0.101357 255 220 0
0.073330 0.193359 0.054063 255 220 0
0.094829 0.161277 0.092598 255 220 0
0.107579 0.217310 0.025502 255 220 0
0.103607 0.181757 0.108469 255 220 0
0.134753 0.233637 0.047917 255 220 0
0.108379 0.157373 0.046473 255 220 0
0.054863 0.219353 0.086062 255 220 0
0.089242 0.233516 0.108649 255 220 0
0.122336 0.199212 0.023378 255 220 0
0.129233 0.139866 0.039680 255 220 0
0.155381 0.121691 0.059790 255 220 0
0.116521 0.168912 0.104514 255 220 0
0.106577 0.247859 0.097681 255 220 0
0.134507 0.235207 0.077609 255 220 0
0.134992 0.234117 0.049649 255 220 0
0.093720 0.171802 0.101151 255 220 0
0.120970 0.232082 0.031534 255 220 0
0.175341 0.143029 0.036001 255 220 0
0.115331 0.199434 0.110404 255 220 0
0.128056 0.225068 0.031186 255 220 0
0.052832 0.228673 0.086311 255 220 0
0.119326 0.143306 0.048544 255 220 0
0.076622 0.259307 0.095949 255 220 0
0.093318 0.174034 0.102110 255 220 0
0.139210 0.226719 0.080040 255 220 0
0.116896 0.240243 0.097473 255 220 0
0.079921 0.267051 0.086473 255 220 0
0.090265 0.266418 0.057252 255 220 0
0.152211 0.152573 0.085255 255 220 0
0.158189 0.157249 0.080959 255 220 0
0.139852 0.227209 0.048962 255 220 0
0.100417 0.213599 0.027244 255 220 0
0.126195 0.150995 0.033490 255 220 0
0.129832 0.193401 0.104735 255 220 0
0.104140 0.149392 0.065127 255 220 0
0.082104 0.267184 0.059450 255 220 0
0.157806 0.129829 0.018975 255 220 0
0.130491 0.223401 0.031771 255 220 0
0.162762 0.158888 0.074942 255 220 0
0.096526 0.159864 0.058722 255 220 0
0.133626 0.226751 0.091039 255 220 0
0.131791 0.218622 0.098517 255 220 0
0.143893 0.187587 0.095617 255 220 0
0.053340 0.246473 0.084536 255 220 0
0.092237 0.241619 0.033184 255 220 0
0.174486 0.140819 0.047748 255 220 0
0.084968 0.190591 0.105550 255 220 0
0.126148 0.198467 0.106521 255 220 0
0.099635 0.246684 0.102118 255 220 0
0.144660 0.156510 0.020607 255 220 0
0.148416 0.161193 0.020726 255 220 0
0.141083 0.227997 0.062949 255 220 0
0.081388 0.227447 0.108587 255 220 0
0.112613 0.250692 0.042952 255 220 0
0.074649 0.200472 0.102613 255 220 0
0.104576 0.190739 0.110711 255 220 0
0.128861 0.148363 0.032760 255 220 0
0.065053 0.232654 0.101489 255 220 0
0.160054 0.135075 0.070280 255 220 0
0.146840 0.158764 0.090934 255 220 0
0.170943 0.146535 0.059286 255 220 0
0.091254 0.203271 0.111021 255 220 0
0.089896 0.234267 0.031608 255 220 0
0.070101 0.188204 0.070244 255 220 0
0.055374 0.247656 0.088429 255 220 0
0.122946 0.250086 0.065127 255 220 0
0.072978 0.191096 0.056770 255 220 0
0.140067 0.209485 0.031449 255 220 0
0.159196 0.190086 0.065550 255 220 0
0.102001 0.253292 0.094803 255 220 0
0.123891 0.159560 0.030902 255 220 0
0.123189 0.230861 0.031940 255 220 0
0.104516 0.224976 0.109942 255 220 0
0.086379 0.174817 0.097085 255 220 0
0.146421 0.123273 0.062223 255 220 0
0.114325 0.245385 0.037829 255 220 0
0.166774 0.172978 0.053196 255 220 0
0.144997 0.155210 0.090680 255 220 0
0.111653 0.199999 0.111230 255 220 0
0.079492 0.240357 0.105830 255 220 0
0.099990 0.207025 0.112289 255 220 0
0.144583 0.189121 0.027119 255 220 0
0.053671 0.249344 0.082904 255 220 0
0.170023 0.144571 0.060936 255 220 0
0.123029 0.135097 0.059536 255 220 0
0.109115 0.256611 0.083293 255 220 0
0.170538 0.125345 0.034243 255 220 0
0.055937 0.230447 0.092514 255 220 0
0.131081 0.130371 0.053578 255 220 0
0.075613 0.184012 0.061687 255 220 0
0.175329 0.141406 0.042219 255 220 0
0.084527 0.257378 0.044281 255 220 0
0.066401 0.264993 0.084419 255 220 0
0.166817 0.161444 0.066969 255 220 0
0.146124 0.122270 0.056502 255 220 0
0.101613 0.168748 0.043279 255 220 0
0.107664 0.146571 0.081458 255 220 0
0.086795 0.208042 0.110330 255 220 0
0.115587 0.214956 0.024544 255 220 0
0.172050 0.157632 0.041939 255 220 0
0.091525 0.243005 0.033897 255 220 0
0.109922 0.258910 0.073943 255 220 0
0.145374 0.184153 0.094685 255 220 0
0.154258 0.164893 0.022896 255 220 0
0.106478 0.183811 0.031470 255 220 0
0.065488 0.219416 0.100114 255 220 0
0.104348 0.172517 0.038127 255 220 0
0.161493 0.120108 0.051093 255 220 0
0.076506 0.188723 0.053951 255 220 0
0.098506 0.183601 0.108154 255 220 0
0.132009 0.133830 0.043370 255 220 0
0.101672 0.236069 0.107147 255 220 0
0.117663 0.139034 0.060059 255 220 0
0.114897 0.238370 0.032670 255 220 0
0.110500 0.240629 0.032540 255 220 0
0.060394 0.208905 0.060550 255 220 0
0.064856 0.195486 0.072540 255 220 0
0.107918 0.156027 0.097656 255 220 0
0.122654 0.198847 0.023361 255 220 0
0.147811 0.126818 0.070930 255 220 0
0.101906 0.256085 0.091366 255 220 0
0.072113 0.262678 0.056334 255 220 0
0.136015 0.179182 0.023184 255 220 0
0.111876 0.142683 0.064962 255 220 0
0.125667 0.173284 0.103887 255 220 0
0.126336 0.224037 0.100447 255 220 0
0.156940 0.119267 0.036862 255 220 0
0.161024 0.120425 0.031539 255 220 0
0.066714 0.236443 0.044929 255 220 0
0.160081 0.189178 0.060018 255 220 0
0.058646 0.206080 0.077599 255 220 0
0.149712 0.159543 0.020364 255 220 0
0.121131 0.190232 0.108085 255 220 0
0.111912 0.234993 0.104244 255 220 0
0.060785 0.219775 0.095547 255 220 0
0.168818 0.155598 0.063776 255 220 0
0.102125 0.202624 0.028149 255 220 0
0.147871 0.208528 0.081436 255 220 0
0.168561 0.155223 0.064414 255 220 0
0.098992 0.153287 0.072797 255 220 0
0.113338 0.153303 0.044967 255 220 0
0.121359 0.136716 0.057704 255 220 0
0.107286 0.146538 0.079878 255 220 0
0.109386 0.149715 0.091561 255 220 0
0.054156 0.252588 0.073721 255 220 0
0.091669 0.179769 0.103968 255 220 0
0.072514 0.251065 0.100426 255 220 0
0.078579 0.214300 0.037898 255 220 0
0.144041 0.123069 0.042610 255 220 0
0.135536 0.198011 0.101154 255 220 0
0.092407 0.162737 0.090983 255 220 0
0.132749 0.148333 0.029381 255 220 0
0.149301 0.212981 0.062070 255 220 0
0.098250 0.251885 0.098398 255 220 0
0.068445 0.214816 0.046111 255 220 0
0.141380 0.194075 0.096992 255 220 0
0.134202 0.197220 0.024355 255 220 0
0.087590 0.166090 0.086168 255 220 0
0.135596 0.207731 0.027424 255 220 0
0.134045 0.216460 0.097397 255 220 0
0.120190 0.141288 0.086000 255 220 0
0.063478 0.233427 0.100379 255 220 0
0.087730 0.226285 0.109890 255 220 0
0.148615 0.211089 0.075676 255 220 0
0.170410 0.161044 0.055529 255 220 0
0.155940 0.153854 0.019236 255 220 0
0.084795 0.269395 0.073036 255 220 0
0.107620 0.182559 0.108914 255 220 0
0.132506 0.202406 0.102742 255 220 0
0.172924 0.136309 0.050910 255 220 0
0.068393 0.202718 0.097209 255 220 0
0.172763 0.139669 0.024413 255 220 0
0.129803 0.162197 0.026452 255 220 0
0.127665 0.234869 0.038586 255 220 0
0.068918 0.190095 0.085719 255 220 0
0.111202 0.149817 0.051171 255 220 0
0.158231 0.193210 0.062694 255 220 0
0.094008 0.217026 0.029241 255 220 0
0.066754 0.259918 0.057219 255 220 0
0.071176 0.193980 0.056602 255 220 0
0.148381 0.173636 0.024075 255 220 0
0.132048 0.178918 0.023398 255 220 0
0.138456 0.227983 0.080015 255 220 0
0.144649 0.131384 0.027444 255 220 0
0.160263 0.141429 0.073702 255 220 0
0.127299 0.176109 0.104022 255 220 0
0.148918 0.201299 0.085028 255 220 0
0.052603 0.227857 0.085379 255 220 0
0.091656 0.212938 0.111509 255 220 0
0.100314 0.264359 0.061861 255 220 0
0.109406 0.258088 0.078984 255 220 0
0.098234 0.192386 0.110527 255 220 0
0.051528 0.234664 0.083412 255 220 0
0.123388 0.217375 0.105070 255 220 0
0.131837 0.225343 0.034157 255 220 0
0.156880 0.192784 0.072155 255 220 0
0.087269 0.187766 0.105469 255 220 0
0.152153 0.169785 0.024044 255 220 0
0.173602 0.132069 0.045169 255 220 0
0.172223 0.131822 0.048944 255 220 0
0.138258 0.133717 0.034228 255 220 0
0.054095 0.238032 0.061094 255 220 0
0.053358 0.249817 0.072455 255 220 0
0.138225 0.231434 0.072686 255 220 0
0.062320 0.236014 0.048989 255 220 0
0.051446 0.228269 0.080994 255 220 0
0.070184 0.252364 0.047826 255 220 0
0.088416 0.221847 0.110516 255 220 0
0.069779 0.240324 0.043208 255 220 0
0.089034 0.258146 0.044244 255 220 0
0.139365 0.128898 0.073147 255 220 0
0.149343 0.212743 0.064778 255 220 0
0.080173 0.186932 0.051053 255 220 0
0.107033 0.259822 0.056701 255 220 0
0.158523 0.191349 0.066678 255 220 0
0.155236 0.153336 0.019009 255 220 0
0.149694 0.209489 0.048066 255 220 0
0.071880 0.215031 0.104086 255 220 0
0.121049 0.247515 0.047890 255 220 0
0.140161 0.225957 0.078515 255 220 0
0.056484 0.232300 0.055938 255 220 0
0.075538 0.241336 0.039604 255 220 0
0.118463 0.185489 0.108147 255 220 0
0.061844 0.207266 0.059185 255 220 0
0.138393 0.125634 0.056306 255 220 0
0.162706 0.147191 0.018498 255 220 0
0.073687 0.184863 0.065503 255 220 0
0.174209 0.150199 0.041817 255 220 0
0.101184 0.248310 0.100289 255 220 0
0.138957 0.201453 0.027414 255 220 0
0.091961 0.240858 0.032957 255 220 0
0.136721 0.233832 0.056150 255 220 0
0.124411 0.201997 0.107214 255 220 0
0.124211 0.198604 0.107367 255 220 0
0.054359 0.218065 0.067435 255 220 0
0.139737 0.182823 0.023866 255 220 0
0.092889 0.261636 0.089728 255 220 0
0.055489 0.216146 0.065653 255 220 0
0.068382 0.215542 0.045868 255 220 0
0.086784 0.237694 0.033390 255 220 0
0.057253 0.254411 0.086579 255 220 0
0.120802 0.219364 0.105832 255 220 0
0.079485 0.241224 0.105574 255 220 0
0.072711 0.217486 0.041406 255 220 0
0.111299 0.154879 0.045699 255 220 0
0.142963 0.123146 0.050513 255 220 0
0.147802 0.215011 0.053043 255 220 0
0.135967 0.203757 0.026403 255 220 0
0.136052 0.147138 0.090706 255 220 0
0.121315 0.236891 0.035087 255 220 0
0.082059 0.184712 0.100455 255 220 0
0.091728 0.165107 0.059077 255 220 0
0.138993 0.188705 0.024523 255 220 0
0.104443 0.148446 0.077169 255 220 0
0.144305 0.154131 0.090602 255 220 0
0.131870 0.187942 0.103595 255 220 0
0.080164 0.177944 0.092484 255 220 0
0.058124 0.237019 0.054043 255 220 0
0.126720 0.189591 0.106024 255 220 0
0.055578 0.212285 0.077299 255 220 0
0.069785 0.214593 0.044920 255 220 0
0.099721 0.212515 0.112148 255 220 0
0.123595 0.214095 0.105895 255 220 0
0.151004 0.127789 0.071279 255 220 0
0.167346 0.126130 0.024953 255 220 0
0.129337 0.215441 0.027106 255 220 0
0.124859 0.133741 0.060188 255 220 0
0.055452 0.245916 0.061931 255 220 0
0.079678 0.220816 0.035882 255 220 0
0.100600 0.153273 0.063685 255 220 0
0.142473 0.168318 0.096010 255 220 0
0.056206 0.221326 0.059190 255 220 0
0.123462 0.173757 0.104572 255 220 0
0.152536 0.196554 0.039128 255 220 0
0.162349 0.173879 0.072497 255 220 0
0.088796 0.188101 0.041618 255 220 0
0.056224 0.222934 0.058344 255 220 0
0.133221 0.204336 0.101964 255 220 0
0.101196 0.166459 0.045641 255 220 0
0.139058 0.204607 0.028538 255 220 0
0.111744 0.246192 0.037148 255 220 0
0.123729 0.137805 0.050116 255 220 0
0.127834 0.235411 0.090848 255 220 0
0.101457 0.189291 0.032220 255 220 0
0.107505 0.246128 0.035483 255 220 0
0.124382 0.157871 0.031297 255 220 0
0.099229 0.189859 0.110084 255 220 0
0.175277 0.140558 0.042843 255 220 0
0.085394 0.259123 0.095507 255 220 0
0.081008 0.263150 0.092065 255 220 0
0.102281 0.155027 0.056515 255 220 0
0.089948 0.248808 0.037076 255 220 0
0.058502 0.260495 0.074224 255 220 0
0.144318 0.157528 0.091930 255 220 0
0.091118 0.231232 0.030700 255 220 0
0.150883 0.209717 0.060987 255 220 0
0.128469 0.227357 0.096761 255 220 0
0.152235 0.135255 0.076671 255 220 0
0.162525 0.175783 0.070893 255 220 0
0.098283 0.189395 0.034017 255 220 0
0.131227 0.132040 0.047917 255 220 0
0.066895 0.252674 0.097412 255 220 0
0.151990 0.207351 0.062047 255 220 0
0.117099 0.170712 0.104982 255 220 0
0.153693 0.195931 0.078733 255 220 0
0.125759 0.181174 0.024309 255 220 0
0.080774 0.268287 0.083357 255 220 0
0.066102 0.253241 0.096641 255 220 0
0.097287 0.225251 0.110589 255 220 0
0.165754 0.175594 0.054142 255 220 0
0.099315 0.265052 0.071069 255 220 0
0.093761 0.240380 0.032402 255 220 0
0.053817 0.217976 0.081322 255 220 0
0.154765 0.180352 0.030538 255 220 0
0.137367 0.130075 0.074567 255 220 0
0.104040 0.241439 0.031964 255 220 0
0.130803 0.201429 0.103917 255 220 0
0.088523 0.171590 0.096645 255 220 0
0.163955 0.150525 0.020424 255 220 0
0.151245 0.208618 0.065538 255 220 0
0.076241 0.240744 0.039032 255 220 0
0.079064 0.175312 0.082800 255 220 0
0.129433 0.231170 0.036789 255 220 0
0.173827 0.130570 0.041879 255 220 0
0.136854 0.204542 0.027109 255 220 0
0.152379 0.119611 0.040588 255 220 0
0.134592 0.230167 0.085905 255 220 0
0.097486 0.233609 0.108530 255 220 0
0.117399 0.194875 0.024412 255 220 0
0.110050 0.191309 0.110552 255 220 0
0.172689 0.149596 0.054241 255 220 0
0.124821 0.160193 0.030037 255 220 0
0.138802 0.125402 0.055688 255 220 0
0.068461 0.213252 0.046804 255 220 0
0.073362 0.213613 0.042113 255 220 0
0.134154 0.128362 0.052696 255 220 0
0.130692 0.236537 0.084674 255 220 0
0.126366 0.231703 0.095928 255 220 0
0.101092 0.246929 0.035108 255 220 0
0.137027 0.229666 0.081087 255 220 0
0.094051 0.237092 0.031259 255 220 0
0.088035 0.253874 0.040714 255 220 0
0.060141 0.203519 0.072395 255 220 0
0.163253 0.179138 0.064981 255 220 0
0.132546 0.147221 0.030145 255 220 0
0.075685 0.254438 0.099235 255 220 0
0.084690 0.176267 0.055349 255 220 0
0.106159 0.147098 0.067577 255 220 0
0.135454 0.157646 0.095944 255 220 0
0.146022 0.139310 0.021991 255 220 0
0.145797 0.162715 0.021107 255 220 0
0.069031 0.220857 0.043605 255 220 0
0.119553 0.152342 0.097094 255 220 0
0.130217 0.155072 0.028402 255 220 0
0.051003 0.231008 0.079732 255 220 0
0.118649 0.244840 0.040621 255 220 0
0.138370 0.125769 0.050884 255 220 0
0.104508 0.191073 0.110774 255 220 0
0.082666 0.189370 0.103632 255 220 0
0.157656 0.143140 0.017001 255 220 0
0.080282 0.203639 0.040451 255 220 0
0.140578 0.202865 0.095993 255 220 0
0.121614 0.250211 0.076064 255 220 0
0.089304 0.178456 0.047918 255 220 0
0.140351 0.130123 0.075602 255 220 0
0.089802 0.195730 0.036836 255 220 0
0.083975 0.176831 0.055762 255 220 0
0.059520 0.258484 0.085740 255 220 0
0.142001 0.224253 0.049817 255 220 0
0.160668 0.164885 0.026409 255 220 0
0.079213 0.244827 0.038774 255 220 0
0.074388 0.261194 0.052730 255 220 0
0.138273 0.146971 0.089824 255 220 0
0.159873 0.120086 0.032447 255 220 0
0.146467 0.123949 0.034357 255 220 0
0.148568 0.128526 0.025017 255 220 0
0.159578 0.121300 0.056185 255 220 0
0.154213 0.147022 0.081580 255 220 0
0.091585 0.162762 0.064570 255 220 0
0.115947 0.198234 0.024367 255 220 0
0.156464 0.162905 0.083669 255 220 0
0.079351 0.174814 0.078098 255 220 0
0.098512 0.176596 0.040363 255 220 0
0.149174 0.170154 0.023241 255 220 0
0.140360 0.210156 0.032072 255 220 0
0.113494 0.160131 0.038775 255 220 0
0.105973 0.147017 0.070176 255 220 0
0.089666 0.262453 0.049381 255 220 0
0.114852 0.212265 0.024309 255 220 0
0.119698 0.138604 0.079129 255 220 0
0.129940 0.184023 0.104214 255 220 0
0.131126 0.142836 0.034525 255 220 0
0.057209 0.236277 0.055196 255 220 0
0.051206 0.238205 0.071008 255 220 0
0.077737 0.182768 0.094475 255 220 0
0.164911 0.161927 0.028501 255 220 0
0.163712 0.173252 0.069299 255 220 0
0.052400 0.226866 0.066531 255 220 0
0.072460 0.217452 0.041615 255 220 0
0.140246 0.145468 0.024511 255 220 0
0.104953 0.249318 0.037540 255 220 0
0.157384 0.195140 0.053650 255 220 0
0.171483 0.160008 0.048174 255 220 0
0.059349 0.261479 0.074828 255 220 0
0.125928 0.140187 0.043662 255 220 0
0.079550 0.247299 0.039643 255 220 0
0.125893 0.171511 0.103395 255 220 0
0.126282 0.146243 0.036889 255 220 0
0.119063 0.141102 0.084812 255 220 0
0.119117 0.165120 0.031661 255 220 0
0.162648 0.171929 0.072724 255 220 0
0.101184 0.252756 0.040001 255 220 0
0.092588 0.160418 0.084748 255 220 0
0.159725 0.183890 0.040393 255 220 0
0.129723 0.180546 0.103913 255 220 0
0.159330 0.154283 0.079093 255 220 0
0.136042 0.185041 0.023467 255 220 0
0.110069 0.166885 0.037092 255 220 0
0.080489 0.177655 0.092631 255 220 0
0.113763 0.210295 0.110439 255 220 0
0.140922 0.132634 0.078749 255 220 0
0.109477 0.234088 0.029165 255 220 0
0.168712 0.123534 0.034290 255 220 0
0.088544 0.216922 0.031608 255 220 0
0.093369 0.231015 0.030012 255 220 0
0.099481 0.210530 0.027864 255 220 0
0.053202 0.238080 0.063261 255 220 0
0.062545 0.200899 0.084372 255 220 0
0.069987 0.190259 0.065061 255 220 0
0.154430 0.165911 0.086191 255 220 0
0.158337 0.193245 0.054607 255 220 0
0.168988 0.153066 0.026638 255 220 0
0.140252 0.229316 0.061687 255 220 0
0.147970 0.152111 0.087808 255 220 0
0.084330 0.231662 0.108564 255 220 0
0.098805 0.263424 0.080731 255 220 0
0.158728 0.150324 0.078744 255 220 0
0.093969 0.158766 0.070131 255 220 0
0.098065 0.194595 0.032224 255 220 0
0.134629 0.163490 0.098328 255 220 0
0.074424 0.259655 0.095422 255 220 0
0.104249 0.225015 0.026867 255 220 0
0.139140 0.230827 0.059181 255 220 0
0.103782 0.258113 0.048233 255 220 0
0.133611 0.202678 0.025111 255 220 0
0.072496 0.253344 0.099246 255 220 0
0.150132 0.210529 0.053874 255 220 0
0.098682 0.253356 0.096734 255 220 0
0.171057 0.150438 0.027778 255 220 0
0.118695 0.210345 0.023969 255 220 0
0.066188 0.210746 0.098115 255 220 0
0.110545 0.148492 0.053709 255 220 0
0.138876 0.174903 0.022970 255 220 0
0.092528 0.245032 0.034621 255 220 0
0.131295 0.145681 0.032211 255 220 0
0.122093 0.240442 0.092180 255 220 0
0.153172 0.198147 0.041971 255 220 0
0.100978 0.262627 0.055742 255 220 0
0.059410 0.205106 0.080022 255 220 0
0.160534 0.118921 0.039559 255 220 0
0.103862 0.186548 0.031890 255 220 0
0.072661 0.269054 0.076633 255 220 0
0.161832 0.121059 0.029881 255 220 0
0.133928 0.195417 0.102401 255 220 0
0.087472 0.226611 0.031578 255 220 0
0.088185 0.197473 0.109208 255 220 0
0.145327 0.122004 0.046100 255 220 0
0.137090 0.229398 0.045613 255 220 0
0.122401 0.183773 0.024795 255 220 0
0.081509 0.224846 0.034461 255 220 0
0.056573 0.210127 0.075090 255 220 0
0.085583 0.259741 0.046341 255 220 0
0.065236 0.198925 0.089234 255 220 0
0.062439 0.205824 0.090250 255 220 0
0.058250 0.212218 0.062139 255 220 0
0.063484 0.197755 0.072249 255 220 0
0.054152 0.226001 0.088316 255 220 0
0.113939 0.151236 0.046343 255 220 0
0.153179 0.119354 0.045457 255 220 0
0.109515 0.159284 0.043484 255 220 0
0.083796 0.262284 0.049750 255 220 0
0.156591 0.124687 0.023353 255 220 0
0.119072 0.172059 0.105054 255 220 0
0.075040 0.267659 0.085009 255 220 0
0.127965 0.237707 0.042192 255 220 0
0.125324 0.217645 0.026402 255 220 0
0.151510 0.204040 0.076175 255 220 0
0.137231 0.184625 0.023609 255 220 0
0.153831 0.169473 0.024609 255 220 0
0.124796 0.152930 0.033519 255 220 0
0.166002 0.156427 0.069459 255 220 0
0.090014 0.178885 0.046880 255 220 0
0.056519 0.212294 0.067835 255 220 0
0.097988 0.175650 0.041477 255 220 0
0.101524 0.163726 0.100592 255 220 0
0.124791 0.165004 0.028394 255 220 0
0.118821 0.153102 0.039046 255 220 0
0.092136 0.160407 0.073422 255 220 0
0.167689 0.166858 0.061201 255 220 0
0.112585 0.251201 0.088245 255 220 0
0.115265 0.227261 0.027398 255 220 0
0.086033 0.183914 0.047199 255 220 0
0.143724 0.147321 0.087761 255 220 0
0.133453 0.142009 0.088163 255 220 0
0.082394 0.177858 0.057066 255 220 0
0.134887 0.235512 0.053192 255 220 0
0.081845 0.202277 0.107655 255 220 0
0.101696 0.183246 0.108662 255 220 0
0.094426 0.214144 0.111808 255 220 0
0.106694 0.151214 0.055416 255 220 0
0.082368 0.250941 0.040339 255 220 0
0.114857 0.145158 0.052237 255 220 0
0.104913 0.257904 0.085837 255 220 0
0.110828 0.210077 0.024735 255 220 0
0.117702 0.195451 0.109558 255 220 0
0.074364 0.213405 0.105426 255 220 0
0.121006 0.137490 0.077480 255 220 0
0.139465 0.168411 0.097595 255 220 0
0.115008 0.161622 0.036411 255 220 0
0.141954 0.223968 0.048907 255 220 0
0.147425 0.165855 0.021772 255 220 0
0.060204 0.211971 0.058005 255 220 0
0.172325 0.143084 0.055365 255 220 0
0.110888 0.252566 0.044423 255 220 0
0.115490 0.183533 0.027295 255 220 0
0.111856 0.142361 0.070618 255 220 0
0.167348 0.122470 0.046227 255 220 0
0.173166 0.135340 0.049542 255 220 0
0.065981 0.263596 0.086732 255 220 0
0.128320 0.244716 0.071880 255 220 0
0.075109 0.194058 0.100189 255 220 0
0.115732 0.182464 0.027485 255 220 0
0.068226 0.203851 0.052490 255 220 0
0.061942 0.213754 0.054002 255 220 0
0.096713 0.219695 0.028185 255 220 0
0.059978 0.241585 0.052825 255 220 0
0.149916 0.180356 0.027031 255 220 0
0.132946 0.239713 0.063207 255 220 0
0.124912 0.195233 0.107040 255 220 0
0.061422 0.254388 0.057815 255 220 0
0.131384 0.220590 0.097880 255 220 0
0.134856 0.194000 0.024117 255 220 0
0.123840 0.247466 0.054014 255 220 0
0.168343 0.149203 0.064963 255 220 0
0.144555 0.126445 0.033205 255 220 0
0.102379 0.194738 0.030008 255 220 0
0.123496 0.201269 0.107636 255 220 0
0.174535 0.134073 0.043451 255 220 0
0.139292 0.166531 0.097231 255 220 0
0.142608 0.212505 0.036090 255 220 0
0.083943 0.171541 0.089665 255 220 0
0.091843 0.202645 0.111079 255 220 0
0.165830 0.172654 0.042164 255 220 0
0.116387 0.249935 0.085753 255 220 0
0.071826 0.257745 0.096296 255 220 0
0.120722 0.171243 0.104537 255 220 0
0.130528 0.235026 0.087161 255 220 0
0.089442 0.176951 0.048950 255 220 0
0.113568 0.239732 0.033011 255 220 0
0.143311 0.210940 0.035890 255 220 0
0.100953 0.190961 0.110560 255 220 0
0.130725 0.130650 0.068307 255 220 0
0.078159 0.177397 0.086993 255 220 0
0.140200 0.226787 0.076637 255 220 0
0.138739 0.165291 0.097158 255 220 0
0.129308 0.137751 0.084277 255 220 0
0.084910 0.183408 0.048700 255 220 0
0.073128 0.240390 0.104350 255 220 0
0.115359 0.253683 0.080157 255 220 0
0.096552 0.202967 0.111868 255 220 0
0.138733 0.171401 0.098572 255 220 0
0.121308 0.201094 0.108526 255 220 0
0.052463 0.244123 0.083385 255 220 0
0.165316 0.121300 0.033255 255 220 0
0.155604 0.127323 0.068086 255 220 0
0.172222 0.128445 0.044609 255 220 0
0.093051 0.176596 0.045561 255 220 0
0.095825 0.222129 0.028480 255 220 0
0.085367 0.239539 0.034406 255 220 0
0.074781 0.268399 0.082833 255 220 0
0.051743 0.243397 0.072530 255 220 0
0.160794 0.125309 0.022371 255 220 0
0.124650 0.246357 0.078911 255 220 0
0.076941 0.181483 0.091716 255 220 0
0.154426 0.165840 0.086192 255 220 0
0.126923 0.229481 0.033367 255 220 0
0.053285 0.249524 0.080922 255 220 0
0.165982 0.174733 0.048853 255 220 0
0.091070 0.201630 0.110784 255 220 0
0.137758 0.183179 0.023566 255 220 0
0.149142 0.166998 0.091262 255 220 0
0.127917 0.242031 0.049460 255 220 0
0.130238 0.221333 0.098565 255 220 0
0.108357 0.259059 0.077839 255 220 0
0.116500 0.149164 0.094398 255 220 0
0.095364 0.249077 0.036594 255 220 0
0.118498 0.225814 0.027517 255 220 0
0.080231 0.268674 0.082297 255 220 0
0.097589 0.203536 0.029913 255 220 0
0.150263 0.121245 0.035174 255 220 0
0.131612 0.196163 0.103754 255 220 0
0.095329 0.199365 0.032132 255 220 0
0.128976 0.230098 0.094311 255 220 0
0.162240 0.184308 0.053952 255 220 0
0.096836 0.218377 0.028168 255 220 0
0.135579 0.148472 0.091603 255 220 0
0.071640 0.212661 0.043996 255 220 0
0.065700 0.240877 0.046687 255 220 0
0.125392 0.143087 0.041039 255 220 0
0.099836 0.152623 0.078891 255 220 0
0.137524 0.127906 0.069069 255 220 0
0.124644 0.171101 0.026745 255 220 0
0.127690 0.221304 0.100712 255 220 0
0.160144 0.152961 0.077853 255 220 0
0.051773 0.244076 0.079804 255 220 0
0.076722 0.217862 0.038334 255 220 0
0.060460 0.203272 0.080550 255 220 0
0.147815 0.215614 0.056628 255 220 0
0.110399 0.185853 0.109528 255 220 0
0.175141 0.143091 0.033963 255 220 0
0.071278 0.235871 0.041251 255 220 0
0.154101 0.202046 0.053160 255 220 0
0.117604 0.190809 0.024946 255 220 0
0.110036 0.176530 0.107249 255 220 0
0.139444 0.184472 0.024029 255 220 0
0.149623 0.201539 0.038386 255 220 0
0.118448 0.215999 0.024745 255 220 0
0.054401 0.216631 0.069685 255 220 0
0.145733 0.148634 0.087447 255 220 0
0.092633 0.183237 0.041268 255 220 0
0.073486 0.187505 0.093186 255 220 0
0.076449 0.202426 0.044568 255 220 0
0.117404 0.153985 0.039794 255 220 0
0.061993 0.250544 0.054405 255 220 0
0.069938 0.260030 0.054601 255 220 0
0.069954 0.217808 0.043634 255 220 0
0.142841 0.224653 0.057151 255 220 0
0.125732 0.175971 0.025224 255 220 0
0.099324 0.251459 0.038500 255 220 0
0.093579 0.264478 0.083986 255 220 0
0.080757 0.264491 0.090438 255 220 0
0.141330 0.192603 0.026323 255 220 0
0.134611 0.229998 0.041823 255 220 0
0.079019 0.209071 0.107411 255 220 0
0.133086 0.194570 0.023778 255 220 0
0.088159 0.180773 0.102375 255 220 0
0.088828 0.242909 0.105635 255 220 0
0.115532 0.189788 0.109475 255 220 0
0.063051 0.203963 0.060411 255 220 0
0.156315 0.190591 0.076411 255 220 0
0.060579 0.219131 0.095073 255 220 0
0.148241 0.190440 0.090530 255 220 0
0.145879 0.219307 0.066815 255 220 0
0.111607 0.198769 0.111171 255 220 0
0.099817 0.225180 0.027647 255 220 0
0.103518 0.175860 0.106662 255 220 0
0.171031 0.145215 0.058901 255 220 0
0.159609 0.122274 0.026570 255 220 0
0.098554 0.230727 0.109263 255 220 0
0.133551 0.219808 0.031807 255 220 0
0.109555 0.191061 0.027781 255 220 0
0.072449 0.205772 0.046685 255 220 0
0.159284 0.124929 0.022678 255 220 0
0.135625 0.203164 0.100381 255 220 0
0.164853 0.124910 0.024428 255 220 0
0.093606 0.166286 0.097132 255 220 0
0.169178 0.146306 0.062968 255 220 0
0.117315 0.140061 0.079843 255 220 0
0.138536 0.188423 0.024341 255 220 0
0.146221 0.133654 0.023966 255 220 0
0.142581 0.141082 0.024219 255 220 0
0.105328 0.258172 0.084885 255 220 0
0.145562 0.206319 0.035762 255 220 0
