ply
format ascii 1.0
element vertex 1024
property float x
property float y
property float z
property uchar red
property uchar green
property uchar blue
end_header
0.242008 0.165639 0.086833 255 220 0
0.270458 0.122156 0.070713 255 220 0
0.284334 0.132387 0.071794 255 220 0
0.228903 0.228455 0.100277 255 220 0
0.297368 0.178328 0.057111 255 220 0
0.279603 0.165370 0.029072 255 220 0
0.238841 0.183374 0.093475 255 220 0
0.229559 0.164586 0.072181 255 220 0
0.269355 0.132787 0.025236 255 220 0
0.225335 0.147552 0.041707 255 220 0
0.292479 0.153328 0.046813 255 220 0
0.240095 0.098644 0.039844 255 220 0
0.259725 0.173170 0.098253 255 220 0
0.225129 0.218139 0.029142 255 220 0
0.251467 0.231924 0.108572 255 220 0
0.285580 0.240482 0.064006 255 220 0
0.270232 0.179586 0.024304 255 220 0
0.234741 0.102176 0.039491 255 220 0
0.255189 0.262818 0.051534 255 220 0
0.241615 0.142090 0.072013 255 220 0
0.257499 0.256865 0.100167 255 220 0
0.219119 0.239963 0.042610 255 220 0
0.247659 0.098810 0.047270 255 220 0
0.292230 0.159411 0.044099 255 220 0
0.260560 0.153389 0.020871 255 220 0
0.237080 0.249833 0.038886 255 220 0
0.234836 0.272049 0.078368 255 220 0
0.279003 0.187307 0.100987 255 220 0
0.269349 0.263619 0.074270 255 220 0
0.276036 0.146205 0.027852 255 220 0
0.256780 0.237124 0.031700 255 220 0
0.274448 0.176183 0.100218 255 220 0
0.234504 0.152514 0.025020 255 220 0
0.285586 0.131005 0.068114 255 220 0
0.255222 0.170192 0.020191 255 220 0
0.239759 0.132478 0.064817 255 220 0
0.253745 0.204927 0.106552 255 220 0
0.214080 0.241956 0.053942 255 220 0
0.227222 0.177523 0.077353 255 220 0
0.256099 0.271196 0.085066 255 220 0
0.294162 0.191447 0.085625 255 220 0
0.261284 0.107078 0.029604 255 220 0
0.229890 0.200387 0.092862 255 220 0
0.239332 0.126994 0.061355 255 220 0
0.280636 0.208631 0.100887 255 220 0
0.292524 0.187251 0.043576 255 220 0
0.262791 0.256664 0.049267 255 220 0
0.276970 0.228964 0.099146 255 220 0
0.295966 0.160615 0.057045 255 220 0
0.261048 0.270225 0.080460 255 220 0
0.242538 0.106155 0.024696 255 220 0
0.251216 0.237580 0.108065 255 220 0
0.249174 0.156067 0.086866 255 220 0
0.244230 0.100560 0.048948 255 220 0
0.220342 0.233925 0.091291 255 220 0
0.243421 0.141533 0.020978 255 220 0
0.228886 0.218464 0.098560 255 220 0
0.215907 0.218052 0.037685 255 220 0
0.226389 0.236165 0.034426 255 220 0
0.277117 0.167137 0.096812 255 220 0
0.281395 0.246138 0.060073 255 220 0
0.245172 0.273181 0.084452 255 220 0
0.290819 0.185954 0.040675 255 220 0
0.212692 0.231736 0.049193 255 220 0
0.227943 0.160929 0.066751 255 220 0
0.278685 0.224652 0.037393 255 220 0
0.232604 0.133298 0.056399 255 220 0
0.281278 0.174845 0.030221 255 220 0
0.217066 0.200813 0.034924 255 220 0
0.230968 0.181078 0.084210 255 220 0
0.283337 0.154017 0.033040 255 220 0
0.284268 0.221987 0.041989 255 220 0
0.297279 0.203207 0.068571 255 220 0
0.290831 0.228261 0.062812 255 220 0
0.285327 0.235362 0.053643 255 220 0
0.224977 0.223908 0.096025 255 220 0
0.247996 0.267928 0.092873 255 220 0
0.275218 0.220456 0.102836 255 220 0
0.219061 0.181413 0.035849 255 220 0
0.217125 0.235107 0.042043 255 220 0
0.235342 0.255974 0.043672 255 220 0
0.259734 0.144590 0.020810 255 220 0
0.269869 0.225289 0.031738 255 220 0
0.297915 0.179739 0.067393 255 220 0
0.271392 0.120868 0.030132 255 220 0
0.281692 0.208170 0.100088 255 220 0
0.253409 0.256573 0.044667 255 220 0
0.229887 0.131787 0.030730 255 220 0
0.283703 0.195169 0.098348 255 220 0
0.255270 0.123054 0.070137 255 220 0
0.262168 0.101492 0.037603 255 220 0
0.295719 0.195138 0.052295 255 220 0
0.293117 0.221819 0.063097 255 220 0
0.283393 0.244867 0.068019 255 220 0
0.234446 0.175767 0.085238 255 220 0
0.224700 0.158644 0.056689 255 220 0
0.244247 0.207154 0.104448 255 220 0
0.294297 0.153639 0.068698 255 220 0
0.225907 0.205509 0.090473 255 220 0
0.214450 0.202154 0.068231 255 220 0
0.214143 0.225001 0.078766 255 220 0
0.238211 0.177056 0.021452 255 220 0
0.255232 0.218293 0.024682 255 220 0
0.259137 0.110361 0.026219 255 220 0
0.247150 0.219900 0.024241 255 220 0
0.219776 0.180438 0.034837 255 220 0
0.243595 0.154982 0.081770 255 220 0
0.232172 0.127082 0.052562 255 220 0
0.233485 0.170465 0.080980 255 220 0
0.281969 0.205575 0.099945 255 220 0
0.261893 0.227491 0.028946 255 220 0
0.249772 0.252556 0.103899 255 220 0
0.266712 0.158541 0.022567 255 220 0
0.217345 0.253621 0.062618 255 220 0
0.215391 0.247456 0.073945 255 220 0
0.218572 0.185843 0.066112 255 220 0
0.212268 0.227245 0.073392 255 220 0
0.242189 0.254875 0.101733 255 220 0
0.295734 0.199706 0.053637 255 220 0
0.272505 0.259972 0.076322 255 220 0
0.234052 0.252258 0.099425 255 220 0
0.286732 0.237844 0.062502 255 220 0
0.240973 0.152953 0.021601 255 220 0
0.226311 0.140480 0.042931 255 220 0
0.248748 0.161321 0.019910 255 220 0
0.254597 0.162569 0.092688 255 220 0
0.296085 0.164624 0.072562 255 220 0
0.282294 0.215522 0.037166 255 220 0
0.268119 0.245567 0.042963 255 220 0
0.295049 0.184319 0.048767 255 220 0
0.269387 0.263358 0.078019 255 220 0
0.260863 0.126772 0.074109 255 220 0
0.292598 0.158881 0.044989 255 220 0
0.220117 0.235770 0.038832 255 220 0
0.265153 0.256383 0.096083 255 220 0
0.248790 0.182693 0.019953 255 220 0
0.296266 0.188711 0.079892 255 220 0
0.230634 0.189153 0.088200 255 220 0
0.251507 0.129855 0.020257 255 220 0
0.244948 0.267334 0.054442 255 220 0
0.231108 0.151609 0.065437 255 220 0
0.283181 0.156565 0.032582 255 220 0
0.240292 0.113793 0.056021 255 220 0
0.245222 0.187166 0.098633 255 220 0
0.241332 0.193703 0.099083 255 220 0
0.272847 0.144928 0.086476 255 220 0
0.284017 0.165878 0.093930 255 220 0
0.251597 0.233894 0.029327 255 220 0
0.254958 0.263634 0.095778 255 220 0
0.285011 0.157403 0.034347 255 220 0
0.232051 0.170865 0.079556 255 220 0
0.280607 0.134250 0.034655 255 220 0
0.297743 0.182116 0.059963 255 220 0
0.295978 0.211037 0.063967 255 220 0
0.293569 0.192243 0.046133 255 220 0
0.252842 0.186155 0.020352 255 220 0
0.293463 0.150545 0.068517 255 220 0
0.293286 0.171531 0.085699 255 220 0
0.266267 0.252708 0.047964 255 220 0
0.226318 0.186968 0.026154 255 220 0
0.223840 0.188240 0.078950 255 220 0
0.233662 0.104690 0.032864 255 220 0
0.290896 0.225144 0.057707 255 220 0
0.294831 0.167162 0.048442 255 220 0
0.223777 0.228136 0.095464 255 220 0
0.253004 0.269904 0.059926 255 220 0
0.278345 0.175406 0.099188 255 220 0
0.294252 0.152062 0.056930 255 220 0
0.259035 0.186819 0.102804 255 220 0
0.280965 0.120571 0.045260 255 220 0
0.240292 0.223554 0.025535 255 220 0
0.243989 0.150351 0.020742 255 220 0
0.230442 0.268384 0.080988 255 220 0
0.283113 0.194848 0.098797 255 220 0
0.286366 0.236563 0.058088 255 220 0
0.297287 0.183653 0.056766 255 220 0
0.232676 0.267310 0.059460 255 220 0
0.230836 0.239275 0.101457 255 220 0
0.275987 0.248524 0.089459 255 220 0
0.272920 0.254628 0.088176 255 220 0
0.229333 0.268419 0.077724 255 220 0
0.293853 0.153181 0.071128 255 220 0
0.290197 0.138361 0.054587 255 220 0
0.263599 0.267189 0.084024 255 220 0
0.284361 0.239495 0.080825 255 220 0
0.289287 0.232707 0.064759 255 220 0
0.278221 0.144164 0.029814 255 220 0
0.290065 0.224496 0.054394 255 220 0
0.290948 0.171437 0.089603 255 220 0
0.219221 0.172012 0.050757 255 220 0
0.241638 0.265145 0.051749 255 220 0
0.290899 0.192819 0.041424 255 220 0
0.292498 0.211231 0.085269 255 220 0
0.281927 0.145434 0.084398 255 220 0
0.233097 0.141663 0.062109 255 220 0
0.252110 0.115153 0.063977 255 220 0
0.233945 0.216208 0.024821 255 220 0
0.256824 0.145907 0.020257 255 220 0
0.263900 0.257832 0.095940 255 220 0
0.230798 0.152793 0.065749 255 220 0
0.230285 0.209564 0.097036 255 220 0
0.221777 0.251978 0.086584 255 220 0
0.237346 0.183885 0.092523 255 220 0
0.235552 0.102841 0.044245 255 220 0
0.293740 0.188369 0.046073 255 220 0
0.218623 0.254662 0.075499 255 220 0
0.244871 0.100182 0.048688 255 220 0
0.216692 0.218829 0.082696 255 220 0
0.282677 0.159615 0.031829 255 220 0
0.221770 0.251918 0.048949 255 220 0
0.217597 0.238349 0.085835 255 220 0
0.214531 0.246538 0.059243 255 220 0
0.251391 0.199370 0.021054 255 220 0
0.283609 0.133993 0.038903 255 220 0
0.232780 0.148444 0.065919 255 220 0
0.233500 0.215748 0.101339 255 220 0
0.229865 0.131850 0.030767 255 220 0
0.266255 0.114534 0.064964 255 220 0
0.214886 0.213078 0.038706 255 220 0
0.257992 0.266563 0.057973 255 220 0
0.258875 0.125251 0.072682 255 220 0
0.221806 0.164368 0.040219 255 220 0
0.235271 0.190329 0.021613 255 220 0
0.225327 0.147221 0.043759 255 220 0
0.223495 0.208951 0.028721 255 220 0
0.282739 0.244211 0.077855 255 220 0
0.245242 0.265101 0.051606 255 220 0
0.238775 0.263457 0.050120 255 220 0
0.235202 0.186029 0.091630 255 220 0
0.258011 0.191199 0.021464 255 220 0
0.266441 0.196588 0.105866 255 220 0
0.238230 0.191096 0.020852 255 220 0
0.210652 0.228322 0.064563 255 220 0
0.278046 0.142697 0.029910 255 220 0
0.231495 0.177231 0.082660 255 220 0
0.227941 0.249596 0.096044 255 220 0
0.275162 0.151734 0.090128 255 220 0
0.244494 0.273956 0.066819 255 220 0
0.266665 0.230822 0.032407 255 220 0
0.215008 0.247334 0.072140 255 220 0
0.294907 0.163249 0.049722 255 220 0
0.220317 0.214099 0.086940 255 220 0
0.253085 0.262781 0.050658 255 220 0
0.279397 0.251027 0.067183 255 220 0
0.294383 0.189474 0.085238 255 220 0
0.253009 0.149636 0.085468 255 220 0
0.260488 0.161301 0.093783 255 220 0
0.266937 0.143298 0.023071 255 220 0
0.239521 0.253487 0.101524 255 220 0
0.218840 0.250147 0.051499 255 220 0
0.230199 0.257295 0.046819 255 220 0
0.289992 0.179573 0.039244 255 220 0
0.274309 0.256401 0.063466 255 220 0
0.230297 0.209927 0.097173 255 220 0
0.231094 0.108256 0.040437 255 220 0
0.248390 0.212047 0.106757 255 220 0
0.231365 0.242936 0.036041 255 220 0
0.225858 0.175610 0.073958 255 220 0
0.297737 0.175641 0.067153 255 220 0
0.253937 0.113625 0.063629 255 220 0
0.295180 0.213775 0.061857 255 220 0
0.238601 0.158248 0.078898 255 220 0
0.293621 0.159844 0.079462 255 220 0
0.240549 0.263650 0.050050 255 220 0
0.220800 0.192740 0.030570 255 220 0
0.286296 0.234280 0.082283 255 220 0
0.262719 0.249145 0.101791 255 220 0
0.249760 0.183207 0.020003 255 220 0
0.290651 0.180556 0.040202 255 220 0
0.265534 0.234931 0.104653 255 220 0
0.284983 0.168842 0.094390 255 220 0
0.219469 0.257483 0.065162 255 220 0
0.296258 0.200749 0.078205 255 220 0
0.292081 0.164991 0.042816 255 220 0
0.246944 0.259439 0.045986 255 220 0
0.292345 0.145140 0.055649 255 220 0
0.235241 0.139744 0.024922 255 220 0
0.262245 0.146732 0.087020 255 220 0
0.229089 0.143842 0.056013 255 220 0
0.276755 0.220230 0.034122 255 220 0
0.267622 0.117703 0.028300 255 220 0
0.236903 0.135070 0.063254 255 220 0
0.258079 0.151632 0.020403 255 220 0
0.287371 0.205593 0.094724 255 220 0
0.254876 0.210203 0.107574 255 220 0
0.280918 0.248493 0.064958 255 220 0
0.215307 0.226984 0.081825 255 220 0
0.290320 0.170492 0.039659 255 220 0
0.297864 0.177935 0.067071 255 220 0
0.275673 0.250681 0.055656 255 220 0
0.220029 0.197606 0.078390 255 220 0
0.295564 0.188758 0.082230 255 220 0
0.227253 0.152643 0.058272 255 220 0
0.218538 0.180971 0.037342 255 220 0
0.225892 0.167453 0.067911 255 220 0
0.277013 0.158446 0.093190 255 220 0
0.257891 0.241919 0.034770 255 220 0
0.282618 0.166529 0.094879 255 220 0
0.223005 0.209120 0.088503 255 220 0
0.289801 0.226052 0.055279 255 220 0
0.257101 0.229907 0.028518 255 220 0
0.282633 0.223762 0.040901 255 220 0
0.212468 0.223069 0.045637 255 220 0
0.283867 0.243210 0.062606 255 220 0
0.283734 0.155648 0.089549 255 220 0
0.220771 0.169164 0.039415 255 220 0
0.263115 0.216181 0.107752 255 220 0
0.254130 0.222613 0.108502 255 220 0
0.214748 0.189417 0.046123 255 220 0
0.221396 0.260266 0.066989 255 220 0
0.241434 0.220200 0.024466 255 220 0
0.226943 0.139415 0.046570 255 220 0
0.253599 0.121985 0.068781 255 220 0
0.269354 0.256009 0.054495 255 220 0
0.283304 0.206235 0.035346 255 220 0
0.273727 0.118924 0.067022 255 220 0
0.250372 0.240369 0.107639 255 220 0
0.278625 0.218691 0.035018 255 220 0
0.230050 0.249837 0.040956 255 220 0
0.221747 0.162315 0.044999 255 220 0
0.235729 0.102916 0.032024 255 220 0
0.251305 0.207344 0.022052 255 220 0
0.247721 0.099111 0.032399 255 220 0
0.233950 0.134013 0.058831 255 220 0
0.244118 0.226859 0.107543 255 220 0
0.251526 0.183626 0.020128 255 220 0
0.264043 0.183140 0.102337 255 220 0
0.278819 0.179349 0.099962 255 220 0
0.263844 0.112181 0.063177 255 220 0
0.234925 0.126639 0.056259 255 220 0
0.278458 0.169057 0.097215 255 220 0
0.255410 0.204981 0.106844 255 220 0
0.241001 0.271524 0.086571 255 220 0
0.242925 0.098831 0.033506 255 220 0
0.215842 0.232598 0.083090 255 220 0
0.230210 0.131628 0.030206 255 220 0
0.266928 0.238206 0.036670 255 220 0
0.232671 0.212454 0.024458 255 220 0
0.290831 0.222967 0.054974 255 220 0
0.221725 0.166576 0.038471 255 220 0
0.229157 0.115278 0.036420 255 220 0
0.234448 0.178131 0.022691 255 220 0
0.252954 0.146274 0.019892 255 220 0
0.255895 0.162775 0.093212 255 220 0
0.223989 0.231448 0.095981 255 220 0
0.228518 0.206863 0.094125 255 220 0
0.224504 0.184679 0.027858 255 220 0
0.264955 0.203520 0.107022 255 220 0
0.219539 0.229288 0.089984 255 220 0
0.237674 0.149291 0.023182 255 220 0
0.297530 0.171561 0.062424 255 220 0
0.232085 0.200614 0.095272 255 220 0
0.279288 0.173435 0.098363 255 220 0
0.212266 0.202574 0.048733 255 220 0
0.294148 0.192518 0.085580 255 220 0
0.239430 0.212816 0.022952 255 220 0
0.240402 0.153632 0.077818 255 220 0
0.253166 0.238570 0.107744 255 220 0
0.282966 0.244278 0.076566 255 220 0
0.217178 0.180412 0.042859 255 220 0
0.242675 0.128624 0.065290 255 220 0
0.272022 0.107699 0.054364 255 220 0
0.296063 0.175295 0.078717 255 220 0
0.275925 0.248122 0.052856 255 220 0
0.267155 0.221619 0.029112 255 220 0
0.241072 0.213586 0.022925 255 220 0
0.285597 0.185394 0.096829 255 220 0
0.220012 0.212427 0.032095 255 220 0
0.252734 0.113709 0.022560 255 220 0
0.297130 0.204579 0.068279 255 220 0
0.222778 0.203455 0.028720 255 220 0
0.251525 0.247740 0.105680 255 220 0
0.247573 0.137513 0.074540 255 220 0
0.263675 0.268920 0.074039 255 220 0
0.286079 0.187781 0.096460 255 220 0
0.272021 0.212880 0.029071 255 220 0
0.279883 0.237463 0.046919 255 220 0
0.254686 0.272335 0.065782 255 220 0
0.230335 0.260798 0.050446 255 220 0
0.290908 0.142847 0.049869 255 220 0
0.288033 0.143803 0.041692 255 220 0
0.242829 0.205439 0.021391 255 220 0
0.212244 0.202288 0.056981 255 220 0
0.234410 0.138202 0.061923 255 220 0
0.296988 0.192469 0.056783 255 220 0
0.257798 0.152606 0.089043 255 220 0
0.229834 0.265009 0.057797 255 220 0
0.233149 0.104079 0.039744 255 220 0
0.224292 0.201213 0.027406 255 220 0
0.283518 0.142124 0.035642 255 220 0
0.248033 0.163213 0.089931 255 220 0
0.280703 0.217654 0.036418 255 220 0
0.288302 0.212866 0.043103 255 220 0
0.293428 0.179869 0.044816 255 220 0
0.247596 0.263097 0.097376 255 220 0
0.211581 0.231894 0.053756 255 220 0
0.263857 0.114928 0.026851 255 220 0
0.284556 0.206542 0.097634 255 220 0
0.296873 0.198803 0.058300 255 220 0
0.278169 0.250695 0.060445 255 220 0
0.227099 0.133237 0.040493 255 220 0
0.227715 0.136098 0.035250 255 220 0
0.256291 0.209138 0.023086 255 220 0
0.281351 0.241684 0.086010 255 220 0
0.225736 0.234996 0.034187 255 220 0
0.277325 0.218460 0.101922 255 220 0
0.295341 0.200779 0.081460 255 220 0
0.234884 0.134685 0.060517 255 220 0
0.269005 0.250583 0.096628 255 220 0
0.281522 0.120588 0.046972 255 220 0
0.293802 0.151764 0.053265 255 220 0
0.272896 0.124192 0.030138 255 220 0
0.289905 0.216974 0.088002 255 220 0
0.210380 0.225762 0.058548 255 220 0
0.247070 0.201146 0.103872 255 220 0
0.251725 0.264374 0.095956 255 220 0
0.249867 0.236131 0.030276 255 220 0
0.234838 0.199377 0.097131 255 220 0
0.228770 0.185141 0.024739 255 220 0
0.269357 0.169124 0.023615 255 220 0
0.271090 0.253963 0.053966 255 220 0
0.230112 0.146097 0.059785 255 220 0
0.221232 0.210619 0.030744 255 220 0
0.289965 0.231348 0.066989 255 220 0
0.279132 0.189783 0.101123 255 220 0
0.271390 0.112993 0.062129 255 220 0
0.222140 0.228347 0.033767 255 220 0
0.262311 0.147957 0.021368 255 220 0
0.293486 0.149185 0.056320 255 220 0
0.296720 0.206634 0.071463 255 220 0
0.276429 0.253289 0.081653 255 220 0
0.293238 0.217463 0.079020 255 220 0
0.228807 0.164144 0.028338 255 220 0
0.245768 0.265152 0.095518 255 220 0
0.274439 0.123171 0.032139 255 220 0
0.260175 0.131494 0.077166 255 220 0
0.261935 0.251512 0.043754 255 220 0
0.252014 0.099157 0.033811 255 220 0
0.258077 0.249724 0.103582 255 220 0
0.257631 0.122843 0.070734 255 220 0
0.241232 0.193264 0.098875 255 220 0
0.258815 0.113787 0.024634 255 220 0
0.217583 0.251589 0.056403 255 220 0
0.248934 0.274922 0.078089 255 220 0
0.276878 0.140975 0.029228 255 220 0
0.266039 0.110793 0.061538 255 220 0
0.233802 0.165531 0.078295 255 220 0
0.274653 0.152803 0.090754 255 220 0
0.287257 0.222716 0.089773 255 220 0
0.214105 0.197299 0.042458 255 220 0
0.255364 0.129483 0.020656 255 220 0
0.211850 0.233574 0.053960 255 220 0
0.253048 0.250982 0.040001 255 220 0
0.293462 0.176016 0.044745 255 220 0
0.231029 0.137819 0.029039 255 220 0
0.222095 0.174371 0.065073 255 220 0
0.269631 0.238201 0.101488 255 220 0
0.229259 0.166648 0.073163 255 220 0
0.265881 0.101905 0.047714 255 220 0
0.233568 0.195264 0.094394 255 220 0
0.292057 0.195960 0.089227 255 220 0
0.247814 0.123099 0.066197 255 220 0
0.284966 0.241659 0.064221 255 220 0
0.258511 0.137118 0.080354 255 220 0
0.218394 0.220570 0.035057 255 220 0
0.216635 0.224173 0.037952 255 220 0
0.232185 0.220893 0.101583 255 220 0
0.246663 0.210165 0.105947 255 220 0
0.288732 0.165183 0.090167 255 220 0
0.217307 0.179963 0.042728 255 220 0
0.279547 0.117809 0.061354 255 220 0
0.267440 0.255660 0.052115 255 220 0
0.224480 0.263848 0.067788 255 220 0
0.223846 0.157383 0.039171 255 220 0
0.260892 0.143715 0.085009 255 220 0
0.297649 0.175724 0.068695 255 220 0
0.287739 0.220196 0.046064 255 220 0
0.251190 0.099314 0.048910 255 220 0
0.247248 0.097551 0.043647 255 220 0
0.215635 0.239463 0.081003 255 220 0
0.264529 0.166624 0.021985 255 220 0
0.248122 0.223190 0.108096 255 220 0
0.227989 0.134054 0.034721 255 220 0
0.297943 0.193628 0.066516 255 220 0
0.285473 0.236237 0.055013 255 220 0
0.263850 0.239118 0.104463 255 220 0
0.275262 0.134210 0.029207 255 220 0
0.215100 0.192035 0.060279 255 220 0
0.278421 0.193726 0.029383 255 220 0
0.275837 0.134124 0.029733 255 220 0
0.262948 0.159870 0.093646 255 220 0
0.241034 0.147796 0.074824 255 220 0
0.257722 0.133107 0.077549 255 220 0
0.273053 0.152522 0.090749 255 220 0
0.284281 0.157481 0.090166 255 220 0
0.236813 0.265629 0.091690 255 220 0
0.286557 0.193988 0.095921 255 220 0
0.267770 0.264122 0.082106 255 220 0
0.215590 0.213518 0.078278 255 220 0
0.252194 0.108855 0.059949 255 220 0
0.294712 0.193643 0.049033 255 220 0
0.276834 0.175234 0.099524 255 220 0
0.232878 0.132407 0.056357 255 220 0
0.259981 0.192437 0.021952 255 220 0
0.273536 0.254956 0.058657 255 220 0
0.220200 0.219705 0.088808 255 220 0
0.293088 0.186950 0.044615 255 220 0
0.221962 0.174528 0.033466 255 220 0
0.270379 0.178820 0.101289 255 220 0
0.223857 0.184210 0.028515 255 220 0
0.288221 0.209827 0.041777 255 220 0
0.283445 0.144600 0.082952 255 220 0
0.267377 0.251579 0.097444 255 220 0
0.284658 0.238644 0.081204 255 220 0
0.272865 0.194337 0.026374 255 220 0
0.267226 0.136488 0.023690 255 220 0
0.229579 0.126394 0.031373 255 220 0
0.243167 0.269352 0.057522 255 220 0
0.295673 0.191881 0.081809 255 220 0
0.294699 0.199086 0.050212 255 220 0
0.266976 0.112228 0.030820 255 220 0
0.270029 0.221434 0.105286 255 220 0
0.241475 0.108785 0.023662 255 220 0
0.227347 0.145209 0.052486 255 220 0
0.228314 0.214217 0.026601 255 220 0
0.261055 0.207083 0.107561 255 220 0
0.246711 0.146973 0.079546 255 220 0
0.265948 0.171578 0.022519 255 220 0
0.211724 0.208198 0.061629 255 220 0
0.224066 0.263547 0.073859 255 220 0
0.233744 0.202583 0.097471 255 220 0
0.229180 0.148106 0.030810 255 220 0
0.222883 0.158649 0.042821 255 220 0
0.271598 0.214283 0.029199 255 220 0
0.236945 0.112366 0.052556 255 220 0
0.283954 0.127058 0.044885 255 220 0
0.297888 0.177696 0.066104 255 220 0
0.283105 0.187738 0.032291 255 220 0
0.250687 0.246861 0.106016 255 220 0
0.289179 0.225626 0.083703 255 220 0
0.238004 0.256411 0.043488 255 220 0
0.257758 0.251672 0.041921 255 220 0
0.293024 0.204530 0.086311 255 220 0
0.247585 0.252882 0.103671 255 220 0
0.292110 0.216429 0.052480 255 220 0
0.226688 0.203051 0.025937 255 220 0
0.274523 0.174018 0.025990 255 220 0
0.285558 0.203145 0.096775 255 220 0
0.230814 0.143262 0.029097 255 220 0
0.262339 0.106761 0.030724 255 220 0
0.265517 0.107972 0.032881 255 220 0
0.241095 0.118465 0.058712 255 220 0
0.226851 0.249478 0.095039 255 220 0
0.235752 0.263121 0.093272 255 220 0
0.264147 0.215663 0.026327 255 220 0
0.218193 0.241683 0.085953 255 220 0
0.246144 0.246576 0.105887 255 220 0
0.217264 0.253201 0.071918 255 220 0
0.286056 0.234563 0.082600 255 220 0
0.214414 0.241404 0.076295 255 220 0
0.218809 0.250622 0.052105 255 220 0
0.278800 0.123308 0.068410 255 220 0
0.262580 0.192875 0.022617 255 220 0
0.232185 0.191603 0.091273 255 220 0
0.235783 0.248614 0.038328 255 220 0
0.270046 0.170781 0.023928 255 220 0
0.229222 0.126129 0.032159 255 220 0
0.247360 0.185714 0.019957 255 220 0
0.275907 0.232905 0.098583 255 220 0
0.233379 0.230277 0.029191 255 220 0
0.270973 0.211473 0.028214 255 220 0
0.223485 0.242190 0.094192 255 220 0
0.212621 0.239321 0.070001 255 220 0
0.297836 0.190361 0.070867 255 220 0
0.231558 0.218556 0.100690 255 220 0
0.263059 0.116590 0.066890 255 220 0
0.231833 0.117758 0.028047 255 220 0
0.244135 0.195670 0.101062 255 220 0
0.256907 0.121991 0.021844 255 220 0
0.276692 0.251139 0.057994 255 220 0
0.225714 0.177343 0.028185 255 220 0
0.211385 0.231256 0.054267 255 220 0
0.247767 0.214298 0.022969 255 220 0
0.296522 0.202778 0.058503 255 220 0
0.297066 0.199842 0.060135 255 220 0
0.235615 0.233015 0.104587 255 220 0
0.225123 0.159460 0.034521 255 220 0
0.262415 0.263536 0.057361 255 220 0
0.234536 0.230441 0.104000 255 220 0
0.219854 0.220321 0.088506 255 220 0
0.210655 0.230414 0.060246 255 220 0
0.249635 0.269297 0.091058 255 220 0
0.291776 0.219348 0.054091 255 220 0
0.276068 0.254007 0.081239 255 220 0
0.216692 0.219386 0.082888 255 220 0
0.240894 0.150136 0.076121 255 220 0
0.259314 0.111261 0.062622 255 220 0
0.250736 0.192587 0.020414 255 220 0
0.223544 0.180255 0.029627 255 220 0
0.291895 0.145213 0.067583 255 220 0
0.222818 0.217492 0.030564 255 220 0
0.279664 0.201074 0.101526 255 220 0
0.246206 0.169761 0.092035 255 220 0
0.224722 0.165174 0.032855 255 220 0
0.269378 0.154607 0.091850 255 220 0
0.293349 0.148449 0.057365 255 220 0
0.297268 0.186544 0.057024 255 220 0
0.272486 0.193729 0.104259 255 220 0
0.221556 0.245361 0.090349 255 220 0
0.297778 0.190504 0.061407 255 220 0
0.246071 0.229808 0.108129 255 220 0
0.219513 0.218723 0.087457 255 220 0
0.292280 0.222456 0.076923 255 220 0
0.293394 0.213613 0.053856 255 220 0
0.280711 0.117599 0.058215 255 220 0
0.242176 0.098742 0.034226 255 220 0
0.220619 0.193340 0.030721 255 220 0
0.261527 0.129768 0.076268 255 220 0
0.226985 0.256265 0.090725 255 220 0
0.213138 0.218471 0.074131 255 220 0
0.254840 0.157028 0.090211 255 220 0
0.295977 0.163186 0.054231 255 220 0
0.227954 0.233240 0.099761 255 220 0
0.297564 0.177122 0.070589 255 220 0
0.241538 0.170864 0.020891 255 220 0
0.279058 0.155131 0.029177 255 220 0
0.225736 0.187180 0.081095 255 220 0
0.226943 0.234468 0.098883 255 220 0
0.293921 0.200366 0.048601 255 220 0
0.236214 0.164209 0.080147 255 220 0
0.226378 0.180414 0.027024 255 220 0
0.220606 0.229846 0.035549 255 220 0
0.251134 0.131352 0.073320 255 220 0
0.277598 0.227498 0.037844 255 220 0
0.220542 0.181310 0.067361 255 220 0
0.217761 0.230928 0.038937 255 220 0
0.230861 0.144499 0.060149 255 220 0
0.293250 0.201789 0.086395 255 220 0
0.259503 0.113198 0.025173 255 220 0
0.265938 0.265440 0.066297 255 220 0
0.260819 0.269811 0.067704 255 220 0
0.248347 0.156225 0.086401 255 220 0
0.213587 0.240142 0.053622 255 220 0
0.237533 0.271263 0.084661 255 220 0
0.294145 0.151821 0.056224 255 220 0
0.210303 0.222366 0.058543 255 220 0
0.259880 0.188663 0.021687 255 220 0
0.284458 0.221490 0.041976 255 220 0
0.285160 0.125179 0.055199 255 220 0
0.277341 0.156382 0.027867 255 220 0
0.221262 0.183006 0.070512 255 220 0
0.252108 0.122896 0.068648 255 220 0
0.263007 0.266879 0.085708 255 220 0
0.261535 0.186396 0.021941 255 220 0
0.296436 0.176814 0.077558 255 220 0
0.279338 0.179625 0.028939 255 220 0
0.221534 0.163197 0.047614 255 220 0
0.251837 0.272366 0.063821 255 220 0
0.261964 0.267488 0.085997 255 220 0
0.288350 0.234395 0.073380 255 220 0
0.262540 0.150911 0.021380 255 220 0
0.246295 0.259664 0.046124 255 220 0
0.211472 0.230033 0.052760 255 220 0
0.248564 0.236550 0.108188 255 220 0
0.236301 0.153391 0.023811 255 220 0
0.279375 0.125444 0.069991 255 220 0
0.214027 0.227119 0.043170 255 220 0
0.295424 0.199121 0.052382 255 220 0
0.279802 0.185993 0.100490 255 220 0
0.233577 0.120768 0.025977 255 220 0
0.264431 0.188664 0.022841 255 220 0
0.212373 0.238393 0.069503 255 220 0
0.263373 0.189386 0.104178 255 220 0
0.227655 0.209808 0.026196 255 220 0
0.259507 0.104524 0.030422 255 220 0
0.224372 0.180810 0.028674 255 220 0
0.253278 0.102205 0.053609 255 220 0
0.275690 0.219105 0.032994 255 220 0
0.285337 0.241320 0.069244 255 220 0
0.217246 0.178577 0.049252 255 220 0
0.296771 0.199251 0.076366 255 220 0
0.268251 0.125061 0.026197 255 220 0
0.229491 0.146112 0.058509 255 220 0
0.262631 0.116081 0.066490 255 220 0
0.221071 0.218466 0.089604 255 220 0
0.218080 0.215845 0.084096 255 220 0
0.258001 0.119700 0.068676 255 220 0
0.272486 0.225946 0.033484 255 220 0
0.282448 0.225955 0.041820 255 220 0
0.215357 0.233898 0.044163 255 220 0
0.271949 0.216580 0.029990 255 220 0
0.210926 0.226693 0.053628 255 220 0
0.215755 0.246284 0.053990 255 220 0
0.244012 0.219064 0.106697 255 220 0
0.271530 0.157673 0.024506 255 220 0
0.233687 0.131671 0.057171 255 220 0
0.267150 0.265699 0.077636 255 220 0
0.239049 0.181434 0.092723 255 220 0
0.261030 0.150411 0.088771 255 220 0
0.295233 0.156154 0.064870 255 220 0
0.231144 0.117638 0.046812 255 220 0
0.227075 0.138515 0.037002 255 220 0
0.217196 0.224298 0.085203 255 220 0
0.292223 0.157486 0.081345 255 220 0
0.230276 0.139141 0.055542 255 220 0
0.244449 0.248886 0.104848 255 220 0
0.226157 0.226963 0.030809 255 220 0
0.257918 0.115386 0.065648 255 220 0
0.295334 0.201119 0.081394 255 220 0
0.282215 0.205815 0.099746 255 220 0
0.229440 0.115598 0.033856 255 220 0
0.219956 0.203954 0.081816 255 220 0
0.290713 0.194889 0.041413 255 220 0
0.259766 0.239420 0.033828 255 220 0
0.233138 0.179886 0.086092 255 220 0
0.281248 0.124651 0.067574 255 220 0
0.220498 0.192486 0.075948 255 220 0
0.239146 0.182304 0.093207 255 220 0
0.248978 0.271918 0.087168 255 220 0
0.244686 0.202211 0.020929 255 220 0
0.236286 0.136334 0.024181 255 220 0
0.212478 0.240909 0.065117 255 220 0
0.221970 0.260798 0.065606 255 220 0
0.291757 0.144034 0.065502 255 220 0
0.247802 0.097891 0.045004 255 220 0
0.245024 0.106728 0.055610 255 220 0
0.236228 0.107771 0.049765 255 220 0
0.269944 0.104928 0.050032 255 220 0
0.288798 0.136228 0.049617 255 220 0
0.251662 0.169059 0.094365 255 220 0
0.216309 0.182112 0.049112 255 220 0
0.289301 0.150178 0.041441 255 220 0
0.259091 0.187677 0.103089 255 220 0
0.229050 0.172993 0.077086 255 220 0
0.229105 0.144484 0.031386 255 220 0
0.229355 0.185789 0.024338 255 220 0
0.234315 0.152346 0.070448 255 220 0
0.263437 0.151045 0.089548 255 220 0
0.223265 0.255521 0.050885 255 220 0
0.214025 0.195094 0.044182 255 220 0
0.277176 0.140680 0.082982 255 220 0
0.297798 0.183884 0.060504 255 220 0
0.237983 0.129330 0.061234 255 220 0
0.222466 0.245313 0.091721 255 220 0
0.235306 0.253128 0.099713 255 220 0
0.272977 0.199436 0.104816 255 220 0
0.239944 0.132642 0.022151 255 220 0
0.276539 0.153284 0.027529 255 220 0
0.232978 0.241410 0.102421 255 220 0
0.216818 0.219499 0.083169 255 220 0
0.230940 0.125897 0.049876 255 220 0
0.218498 0.235230 0.040303 255 220 0
0.256898 0.171396 0.020444 255 220 0
0.260753 0.133357 0.021544 255 220 0
0.238226 0.271986 0.083637 255 220 0
0.245387 0.131100 0.068950 255 220 0
0.213065 0.243218 0.063978 255 220 0
0.297493 0.173928 0.069129 255 220 0
0.238285 0.134740 0.064594 255 220 0
0.282008 0.144552 0.083758 255 220 0
0.228630 0.153020 0.061825 255 220 0
0.279627 0.153327 0.029782 255 220 0
0.219213 0.240300 0.042726 255 220 0
0.271320 0.171552 0.098951 255 220 0
0.246621 0.157180 0.020153 255 220 0
0.297919 0.180767 0.062086 255 220 0
0.287018 0.140265 0.041516 255 220 0
0.223329 0.162703 0.036754 255 220 0
0.230777 0.159246 0.070258 255 220 0
0.272762 0.193387 0.104127 255 220 0
0.295219 0.214911 0.065114 255 220 0
0.284050 0.127471 0.066718 255 220 0
0.214026 0.217845 0.040844 255 220 0
0.251750 0.098209 0.036188 255 220 0
0.212318 0.210684 0.067009 255 220 0
0.210365 0.221180 0.056499 255 220 0
0.212961 0.200028 0.059229 255 220 0
0.228619 0.250380 0.096286 255 220 0
0.256394 0.218779 0.108343 255 220 0
0.241868 0.201758 0.101959 255 220 0
0.290658 0.154240 0.042532 255 220 0
0.258346 0.169582 0.020614 255 220 0
0.240619 0.122739 0.021864 255 220 0
0.254670 0.210315 0.022985 255 220 0
0.292096 0.144609 0.054364 255 220 0
0.281650 0.244388 0.081648 255 220 0
0.255476 0.260766 0.049403 255 220 0
0.287042 0.136844 0.043628 255 220 0
0.258171 0.165969 0.095178 255 220 0
0.218801 0.187312 0.068125 255 220 0
0.296442 0.162288 0.063676 255 220 0
0.262465 0.269906 0.075711 255 220 0
0.211504 0.211044 0.048739 255 220 0
0.251765 0.211462 0.022773 255 220 0
0.227041 0.246185 0.040024 255 220 0
0.221757 0.179830 0.031866 255 220 0
0.266343 0.265885 0.080904 255 220 0
0.252832 0.187917 0.020427 255 220 0
0.271898 0.255709 0.057290 255 220 0
0.242677 0.119904 0.021397 255 220 0
0.215127 0.191883 0.041528 255 220 0
0.269130 0.229669 0.104063 255 220 0
0.249087 0.146648 0.081243 255 220 0
0.225089 0.152444 0.038399 255 220 0
0.212562 0.235205 0.052388 255 220 0
0.235466 0.131254 0.059377 255 220 0
0.276436 0.234440 0.041084 255 220 0
0.244198 0.172762 0.020295 255 220 0
0.232666 0.253109 0.042269 255 220 0
0.250772 0.222632 0.108371 255 220 0
0.254870 0.098353 0.046492 255 220 0
0.221330 0.177888 0.066322 255 220 0
0.242934 0.274365 0.069145 255 220 0
0.245843 0.097418 0.042301 255 220 0
0.295754 0.192208 0.051814 255 220 0
0.210654 0.219766 0.063884 255 220 0
0.288050 0.212444 0.092731 255 220 0
0.256020 0.108287 0.060039 255 220 0
0.238538 0.207590 0.022160 255 220 0
0.220623 0.166876 0.049588 255 220 0
0.211807 0.221070 0.070514 255 220 0
0.244581 0.226963 0.107667 255 220 0
0.219527 0.253831 0.054940 255 220 0
0.262063 0.217221 0.107882 255 220 0
0.261241 0.224686 0.107678 255 220 0
0.232587 0.225041 0.102435 255 220 0
0.245666 0.212631 0.106138 255 220 0
0.254178 0.245352 0.106084 255 220 0
0.242793 0.146059 0.075467 255 220 0
0.258149 0.102880 0.054096 255 220 0
0.237668 0.154198 0.075352 255 220 0
0.221858 0.257606 0.056205 255 220 0
0.237607 0.100983 0.043943 255 220 0
0.296919 0.177320 0.075273 255 220 0
0.251744 0.274305 0.069499 255 220 0
0.231423 0.217542 0.025949 255 220 0
0.218442 0.196612 0.033173 255 220 0
0.275167 0.187073 0.026892 255 220 0
0.223879 0.161931 0.035914 255 220 0
0.231897 0.142507 0.027876 255 220 0
0.233752 0.140458 0.062350 255 220 0
0.279659 0.137381 0.032603 255 220 0
0.232316 0.179756 0.085056 255 220 0
0.237426 0.227144 0.105193 255 220 0
0.230070 0.172608 0.078192 255 220 0
0.288526 0.175154 0.093220 255 220 0
0.227281 0.150039 0.056153 255 220 0
0.237134 0.144155 0.068766 255 220 0
0.260499 0.168921 0.096835 255 220 0
0.270968 0.144098 0.024909 255 220 0
0.268390 0.246606 0.044069 255 220 0
0.215035 0.209166 0.038218 255 220 0
0.230732 0.185804 0.086523 255 220 0
0.291414 0.141849 0.060099 255 220 0
0.289402 0.140932 0.071456 255 220 0
0.239758 0.184124 0.094459 255 220 0
0.244193 0.215748 0.023221 255 220 0
0.284016 0.218691 0.095952 255 220 0
0.293550 0.194601 0.086681 255 220 0
0.290136 0.225770 0.080826 255 220 0
0.249163 0.150919 0.083871 255 220 0
0.214082 0.245629 0.060126 255 220 0
0.249454 0.141717 0.078518 255 220 0
0.262889 0.254834 0.047476 255 220 0
0.213504 0.194705 0.048735 255 220 0
0.297588 0.199929 0.067673 255 220 0
0.278142 0.230867 0.097377 255 220 0
0.276168 0.138796 0.081931 255 220 0
0.296549 0.164758 0.057192 255 220 0
0.232341 0.152549 0.067964 255 220 0
0.243853 0.201748 0.020887 255 220 0
0.227771 0.140903 0.034401 255 220 0
0.229311 0.223089 0.099899 255 220 0
0.270082 0.119625 0.029497 255 220 0
0.226349 0.237671 0.035247 255 220 0
0.220922 0.169801 0.056328 255 220 0
0.266265 0.144825 0.086419 255 220 0
0.262743 0.100689 0.040488 255 220 0
0.265891 0.110932 0.030708 255 220 0
0.251178 0.274391 0.079558 255 220 0
0.258591 0.231008 0.029298 255 220 0
0.276044 0.211938 0.103667 255 220 0
0.221319 0.168800 0.056606 255 220 0
0.227636 0.211511 0.095016 255 220 0
0.225820 0.223070 0.096733 255 220 0
0.211186 0.209346 0.057895 255 220 0
0.220350 0.248483 0.086533 255 220 0
0.231524 0.154304 0.027298 255 220 0
0.252486 0.222693 0.025396 255 220 0
0.297425 0.196479 0.060858 255 220 0
0.223762 0.260677 0.081003 255 220 0
0.287312 0.214625 0.042496 255 220 0
0.222371 0.171339 0.034187 255 220 0
0.240008 0.230719 0.028116 255 220 0
0.277104 0.128934 0.032571 255 220 0
0.243020 0.109384 0.055990 255 220 0
0.217997 0.185319 0.063775 255 220 0
0.296742 0.202562 0.059707 255 220 0
0.260730 0.107797 0.028681 255 220 0
0.296408 0.163045 0.058053 255 220 0
0.233509 0.188065 0.022268 255 220 0
0.271837 0.185906 0.102990 255 220 0
0.290222 0.216211 0.087758 255 220 0
0.251661 0.145297 0.019883 255 220 0
0.267361 0.243466 0.040698 255 220 0
0.262762 0.269355 0.078993 255 220 0
0.297041 0.175858 0.074048 255 220 0
0.274987 0.225261 0.034814 255 220 0
0.234358 0.178737 0.086830 255 220 0
0.218130 0.222362 0.035732 255 220 0
0.233744 0.186354 0.022260 255 220 0
0.294071 0.202265 0.084522 255 220 0
0.271381 0.126847 0.074205 255 220 0
0.266773 0.192619 0.105033 255 220 0
0.269102 0.211741 0.027414 255 220 0
0.296339 0.162116 0.059043 255 220 0
0.285058 0.137668 0.076026 255 220 0
0.231877 0.186130 0.088057 255 220 0
0.273103 0.255280 0.086913 255 220 0
0.261263 0.245830 0.038788 255 220 0
0.292349 0.214973 0.083654 255 220 0
0.296844 0.167951 0.056801 255 220 0
0.296943 0.203423 0.061904 255 220 0
0.246562 0.261025 0.098878 255 220 0
0.250048 0.097191 0.039884 255 220 0
0.279154 0.114715 0.053651 255 220 0
0.261883 0.103875 0.033333 255 220 0
0.232301 0.176266 0.083049 255 220 0
0.210865 0.211928 0.057722 255 220 0
0.210935 0.232837 0.060946 255 220 0
0.249513 0.274528 0.068933 255 220 0
0.236202 0.257967 0.097403 255 220 0
0.237869 0.099765 0.039763 255 220 0
0.263891 0.235552 0.033404 255 220 0
0.270307 0.197895 0.105442 255 220 0
0.290668 0.154178 0.042566 255 220 0
0.223895 0.208367 0.028352 255 220 0
0.243757 0.264968 0.095342 255 220 0
0.257736 0.148753 0.020365 255 220 0
0.289848 0.215510 0.088799 255 220 0
0.224193 0.160429 0.036047 255 220 0
0.293695 0.158396 0.047859 255 220 0
0.237681 0.223229 0.025794 255 220 0
0.287511 0.215880 0.043345 255 220 0
0.256229 0.252645 0.042182 255 220 0
0.289185 0.155085 0.084766 255 220 0
0.214735 0.238285 0.048634 255 220 0
0.216322 0.206715 0.036005 255 220 0
0.250620 0.272652 0.063901 255 220 0
0.215267 0.194945 0.064282 255 220 0
0.247309 0.103114 0.053583 255 220 0
0.296228 0.194057 0.053841 255 220 0
0.217241 0.192571 0.068513 255 220 0
0.281930 0.223164 0.039836 255 220 0
0.260118 0.159972 0.020779 255 220 0
0.211385 0.208114 0.058335 255 220 0
0.292417 0.146804 0.067640 255 220 0
0.219463 0.216083 0.086429 255 220 0
0.216387 0.244246 0.080428 255 220 0
0.242359 0.133253 0.067623 255 220 0
0.269042 0.160464 0.094537 255 220 0
0.274529 0.122087 0.069540 255 220 0
0.224857 0.155161 0.053360 255 220 0
0.288769 0.217313 0.046077 255 220 0
0.286274 0.138475 0.041078 255 220 0
0.242981 0.260354 0.098708 255 220 0
0.214957 0.217503 0.078516 255 220 0
0.251836 0.220732 0.108333 255 220 0
0.254041 0.194006 0.020947 255 220 0
0.296649 0.193974 0.078119 255 220 0
0.250742 0.113337 0.022257 255 220 0
0.213624 0.236377 0.076408 255 220 0
0.254507 0.178675 0.020330 255 220 0
0.218362 0.174983 0.050895 255 220 0
0.295650 0.185177 0.081841 255 220 0
0.224965 0.161088 0.034123 255 220 0
0.239282 0.176221 0.021200 255 220 0
0.215020 0.197239 0.039547 255 220 0
0.237944 0.232266 0.105650 255 220 0
0.291548 0.142217 0.057710 255 220 0
0.227226 0.181326 0.079679 255 220 0
0.269834 0.204926 0.106286 255 220 0
0.222844 0.205278 0.086614 255 220 0
0.237292 0.145650 0.069809 255 220 0
0.221238 0.256178 0.081354 255 220 0
0.222545 0.261839 0.070428 255 220 0
0.217916 0.221231 0.085675 255 220 0
0.251805 0.204067 0.021652 255 220 0
0.223092 0.158761 0.050023 255 220 0
0.217410 0.239446 0.044574 255 220 0
0.256822 0.264423 0.054286 255 220 0
0.259026 0.270707 0.067001 255 220 0
0.226600 0.168263 0.029564 255 220 0
0.234131 0.208102 0.023248 255 220 0
0.282011 0.225763 0.095537 255 220 0
0.221437 0.172415 0.035431 255 220 0
0.283855 0.195780 0.098235 255 220 0
0.278726 0.252121 0.072323 255 220 0
0.297620 0.195618 0.071939 255 220 0
0.233527 0.215451 0.101285 255 220 0
0.278663 0.173302 0.028353 255 220 0
0.263428 0.238499 0.104809 255 220 0
0.289560 0.179590 0.038663 255 220 0
0.262566 0.200535 0.023368 255 220 0
0.296816 0.205532 0.072006 255 220 0
0.210876 0.213004 0.052744 255 220 0
0.293214 0.186812 0.087728 255 220 0
0.272738 0.122880 0.030529 255 220 0
0.241882 0.098506 0.043012 255 220 0
0.286741 0.238523 0.069675 255 220 0
0.225738 0.196877 0.026227 255 220 0
0.218566 0.178848 0.058505 255 220 0
0.223178 0.210264 0.089203 255 220 0
0.237753 0.100051 0.041321 255 220 0
0.293313 0.198046 0.046623 255 220 0
0.241092 0.098429 0.036815 255 220 0
0.282518 0.179495 0.098348 255 220 0
0.275866 0.125538 0.032607 255 220 0
0.276932 0.143034 0.084629 255 220 0
0.224450 0.165043 0.033336 255 220 0
0.233833 0.112974 0.049447 255 220 0
0.231965 0.121034 0.049594 255 220 0
0.262080 0.254689 0.046787 255 220 0
0.234931 0.181352 0.022187 255 220 0
