ply
format ascii 1.0
element vertex 1024
property float x
property float y
property float z
property uchar red
property uchar green
property uchar blue
end_header
0.552318 0.158005 0.141145 255 220 0
0.557487 0.109957 0.116152 255 220 0
0.561848 0.119107 0.102164 255 220 0
0.546905 0.222984 0.147981 255 220 0
0.544651 0.159013 0.077510 255 220 0
0.515063 0.140939 0.085731 255 220 0
0.553558 0.177006 0.143617 255 220 0
0.534495 0.154320 0.147430 255 220 0
0.514051 0.109236 0.098972 255 220 0
0.508798 0.130727 0.142991 255 220 0
0.538417 0.132681 0.082273 255 220 0
0.522529 0.081900 0.136604 255 220 0
0.568009 0.166785 0.127812 255 220 0
0.483482 0.195946 0.127309 255 220 0
0.562475 0.226722 0.129717 255 220 0
0.533991 0.221661 0.080869 255 220 0
0.504316 0.154206 0.090327 255 220 0
0.519427 0.085619 0.140825 255 220 0
0.506520 0.242431 0.100668 255 220 0
0.543482 0.131647 0.139908 255 220 0
0.552342 0.248357 0.117133 255 220 0
0.488948 0.220771 0.134211 255 220 0
0.532124 0.083321 0.132326 255 220 0
0.534678 0.137920 0.080542 255 220 0
0.502631 0.128736 0.102162 255 220 0
0.490648 0.228105 0.114790 255 220 0
0.520904 0.259375 0.127603 255 220 0
0.575190 0.179723 0.108838 255 220 0
0.532331 0.247718 0.095782 255 220 0
0.516359 0.122365 0.091636 255 220 0
0.494370 0.212631 0.096135 255 220 0
0.574919 0.169108 0.114525 255 220 0
0.496381 0.130793 0.127727 255 220 0
0.559299 0.116783 0.099902 255 220 0
0.496622 0.145209 0.104122 255 220 0
0.538183 0.120733 0.140544 255 220 0
0.566875 0.199955 0.131220 255 220 0
0.496783 0.225826 0.142626 255 220 0
0.535683 0.168262 0.149377 255 220 0
0.535384 0.258639 0.110646 255 220 0
0.566462 0.178882 0.088688 255 220 0
0.519910 0.086023 0.112087 255 220 0
0.546161 0.193960 0.148885 255 220 0
0.535985 0.114616 0.140559 255 220 0
0.571527 0.200204 0.103885 255 220 0
0.528827 0.164696 0.075620 255 220 0
0.508658 0.235374 0.093853 255 220 0
0.564519 0.219710 0.103360 255 220 0
0.547542 0.141969 0.081613 255 220 0
0.533360 0.256218 0.104589 255 220 0
0.508371 0.085296 0.127666 255 220 0
0.560804 0.232086 0.128857 255 220 0
0.557030 0.148235 0.136113 255 220 0
0.531951 0.085671 0.135802 255 220 0
0.534406 0.226707 0.151705 255 220 0
0.498388 0.118540 0.119836 255 220 0
0.547326 0.212905 0.148976 255 220 0
0.487590 0.198614 0.138887 255 220 0
0.485168 0.214576 0.125179 255 220 0
0.574681 0.159336 0.112290 255 220 0
0.527706 0.226477 0.082378 255 220 0
0.530181 0.261202 0.120137 255 220 0
0.525809 0.162859 0.076342 255 220 0
0.493988 0.214886 0.143817 255 220 0
0.529702 0.149577 0.147532 255 220 0
0.510489 0.200366 0.080088 255 220 0
0.527661 0.119993 0.143929 255 220 0
0.514880 0.150260 0.083092 255 220 0
0.488961 0.181184 0.139585 255 220 0
0.542608 0.173099 0.147854 255 220 0
0.522330 0.130655 0.085562 255 220 0
0.517325 0.198504 0.077056 255 220 0
0.550014 0.185874 0.077759 255 220 0
0.537375 0.209169 0.077574 255 220 0
0.525581 0.214202 0.078165 255 220 0
0.542448 0.217835 0.150772 255 220 0
0.539894 0.257969 0.121440 255 220 0
0.568835 0.212508 0.107670 255 220 0
0.494400 0.162503 0.141199 255 220 0
0.488618 0.216082 0.136615 255 220 0
0.493064 0.235337 0.117135 255 220 0
0.503991 0.120271 0.104309 255 220 0
0.501841 0.200244 0.086029 255 220 0
0.553835 0.162844 0.080510 255 220 0
0.521602 0.098754 0.100788 255 220 0
0.571311 0.199486 0.102700 255 220 0
0.500881 0.234846 0.100814 255 220 0
0.503809 0.112474 0.137359 255 220 0
0.573095 0.186343 0.102307 255 220 0
0.550873 0.111788 0.129742 255 220 0
0.528552 0.082506 0.115071 255 220 0
0.536358 0.174217 0.074583 255 220 0
0.539794 0.202842 0.076612 255 220 0
0.535882 0.227038 0.083629 255 220 0
0.545937 0.167961 0.145885 255 220 0
0.519838 0.145151 0.147227 255 220 0
0.560841 0.202286 0.138821 255 220 0
0.558750 0.138183 0.088489 255 220 0
0.541447 0.198621 0.150855 255 220 0
0.517638 0.190789 0.153847 255 220 0
0.522484 0.215474 0.154286 255 220 0
0.489772 0.153389 0.119096 255 220 0
0.491171 0.192822 0.098030 255 220 0
0.515381 0.088528 0.112304 255 220 0
0.487307 0.194855 0.105033 255 220 0
0.493961 0.161261 0.140332 255 220 0
0.550486 0.146350 0.139560 255 220 0
0.525268 0.113078 0.143930 255 220 0
0.542779 0.161865 0.146074 255 220 0
0.571802 0.196922 0.102810 255 220 0
0.495787 0.202273 0.091987 255 220 0
0.553538 0.245660 0.126271 255 220 0
0.505537 0.133685 0.096303 255 220 0
0.503558 0.238985 0.140904 255 220 0
0.514202 0.235925 0.147793 255 220 0
0.520558 0.174198 0.151909 255 220 0
0.516477 0.216470 0.153699 255 220 0
0.548178 0.247926 0.132076 255 220 0
0.536669 0.178961 0.074324 255 220 0
0.536127 0.244461 0.094214 255 220 0
0.543446 0.245423 0.139129 255 220 0
0.533608 0.218659 0.079689 255 220 0
0.495740 0.129914 0.120478 255 220 0
0.511675 0.124114 0.143672 255 220 0
0.495597 0.137030 0.111386 255 220 0
0.563097 0.155548 0.132201 255 220 0
0.560755 0.149618 0.086486 255 220 0
0.513494 0.191219 0.078156 255 220 0
0.507253 0.222719 0.088455 255 220 0
0.535059 0.162943 0.075653 255 220 0
0.535770 0.248375 0.097148 255 220 0
0.555892 0.115945 0.125452 255 220 0
0.535727 0.137598 0.080612 255 220 0
0.486765 0.215723 0.132597 255 220 0
0.551746 0.246340 0.108703 255 220 0
0.491433 0.157708 0.107937 255 220 0
0.562664 0.174687 0.085117 255 220 0
0.544474 0.181905 0.148313 255 220 0
0.503196 0.106483 0.114023 255 220 0
0.504253 0.248251 0.110400 255 220 0
0.531594 0.140013 0.145644 255 220 0
0.521354 0.133018 0.085130 255 220 0
0.534167 0.100480 0.139860 255 220 0
0.559936 0.181467 0.139021 255 220 0
0.557534 0.188181 0.141708 255 220 0
0.568103 0.135648 0.116022 255 220 0
0.575026 0.156914 0.105112 255 220 0
0.490853 0.209306 0.100551 255 220 0
0.546067 0.254018 0.116790 255 220 0
0.523489 0.134126 0.083956 255 220 0
0.540860 0.162009 0.146810 255 220 0
0.526620 0.112129 0.091822 255 220 0
0.546615 0.163345 0.077593 255 220 0
0.543820 0.192418 0.076028 255 220 0
0.530549 0.170072 0.074788 255 220 0
0.492688 0.160859 0.103807 255 220 0
0.558874 0.135207 0.089684 255 220 0
0.570118 0.159703 0.092712 255 220 0
0.509621 0.230979 0.090824 255 220 0
0.487410 0.164986 0.130131 255 220 0
0.533686 0.179262 0.151343 255 220 0
0.512549 0.086513 0.139011 255 220 0
0.533424 0.204906 0.076163 255 220 0
0.538068 0.146286 0.078486 255 220 0
0.540641 0.221875 0.150992 255 220 0
0.511818 0.251487 0.104581 255 220 0
0.575664 0.167822 0.110698 255 220 0
0.548458 0.133793 0.084516 255 220 0
0.569139 0.181144 0.127908 255 220 0
0.539000 0.101458 0.097531 255 220 0
0.485078 0.199203 0.111212 255 220 0
0.496657 0.126969 0.117815 255 220 0
0.522272 0.256788 0.133174 255 220 0
0.573333 0.186184 0.103063 255 220 0
0.529747 0.216371 0.078629 255 220 0
0.543258 0.164085 0.076606 255 220 0
0.503989 0.250341 0.123490 255 220 0
0.546583 0.233596 0.144900 255 220 0
0.551561 0.236337 0.097615 255 220 0
0.548007 0.242152 0.098987 255 220 0
0.518897 0.256108 0.133003 255 220 0
0.560854 0.138364 0.089851 255 220 0
0.547475 0.120266 0.089586 255 220 0
0.538160 0.253964 0.104025 255 220 0
0.548839 0.224893 0.088244 255 220 0
0.537647 0.214056 0.078984 255 220 0
0.519378 0.120710 0.090669 255 220 0
0.530247 0.203532 0.075829 255 220 0
0.572737 0.160733 0.096289 255 220 0
0.509729 0.157032 0.147964 255 220 0
0.500973 0.245717 0.112813 255 220 0
0.525158 0.169675 0.075438 255 220 0
0.561587 0.198050 0.086916 255 220 0
0.569672 0.134972 0.106852 255 220 0
0.531338 0.129439 0.144206 255 220 0
0.545661 0.102875 0.131677 255 220 0
0.483412 0.192385 0.117958 255 220 0
0.502099 0.121621 0.106569 255 220 0
0.550843 0.247797 0.109570 255 220 0
0.531519 0.141257 0.145852 255 220 0
0.548257 0.203824 0.148565 255 220 0
0.527167 0.242915 0.145788 255 220 0
0.552018 0.177377 0.144563 255 220 0
0.523889 0.087361 0.141698 255 220 0
0.531326 0.166298 0.075229 255 220 0
0.515437 0.243039 0.144234 255 220 0
0.532041 0.085196 0.135180 255 220 0
0.528232 0.210277 0.154361 255 220 0
0.519878 0.135821 0.084831 255 220 0
0.493322 0.233686 0.132159 255 220 0
0.527555 0.229855 0.151538 255 220 0
0.500823 0.231517 0.143400 255 220 0
0.490146 0.173916 0.103275 255 220 0
0.531662 0.112698 0.090648 255 220 0
0.533303 0.136948 0.144791 255 220 0
0.552160 0.210620 0.146182 255 220 0
0.503822 0.112545 0.137382 255 220 0
0.552183 0.101489 0.119148 255 220 0
0.489093 0.194127 0.140991 255 220 0
0.512664 0.247418 0.099828 255 220 0
0.554134 0.114271 0.127004 255 220 0
0.502765 0.146884 0.142996 255 220 0
0.486152 0.166479 0.119726 255 220 0
0.510707 0.130907 0.143795 255 220 0
0.484281 0.187077 0.130129 255 220 0
0.544605 0.228849 0.087901 255 220 0
0.502257 0.245378 0.109460 255 220 0
0.498725 0.243896 0.115122 255 220 0
0.549956 0.179388 0.145864 255 220 0
0.494707 0.165633 0.098655 255 220 0
0.572851 0.190801 0.120653 255 220 0
0.486468 0.166820 0.116611 255 220 0
0.507693 0.215478 0.151809 255 220 0
0.519686 0.119328 0.091099 255 220 0
0.542179 0.168963 0.147425 255 220 0
0.538550 0.242469 0.143941 255 220 0
0.570947 0.142952 0.114130 255 220 0
0.513902 0.257704 0.114243 255 220 0
0.500102 0.205992 0.088327 255 220 0
0.512453 0.235395 0.147510 255 220 0
0.540021 0.142808 0.079508 255 220 0
0.534396 0.206473 0.153329 255 220 0
0.504919 0.242334 0.102288 255 220 0
0.532357 0.233083 0.086007 255 220 0
0.566588 0.176864 0.088662 255 220 0
0.558536 0.141397 0.133115 255 220 0
0.566628 0.154161 0.127394 255 220 0
0.509087 0.119049 0.098722 255 220 0
0.547223 0.246726 0.134672 255 220 0
0.494824 0.232807 0.136057 255 220 0
0.493630 0.237755 0.122786 255 220 0
0.525459 0.156399 0.077604 255 220 0
0.525970 0.237743 0.088469 255 220 0
0.548313 0.204208 0.148545 255 220 0
0.517657 0.091995 0.143542 255 220 0
0.563567 0.207280 0.135069 255 220 0
0.487223 0.221157 0.120110 255 220 0
0.532474 0.165684 0.149706 255 220 0
0.554358 0.158835 0.081243 255 220 0
0.546361 0.101179 0.130118 255 220 0
0.541071 0.194611 0.075558 255 220 0
0.545311 0.149171 0.142580 255 220 0
0.566945 0.146856 0.092017 255 220 0
0.499315 0.243937 0.113437 255 220 0
0.488093 0.172045 0.135873 255 220 0
0.551935 0.220065 0.087832 255 220 0
0.557361 0.240908 0.114168 255 220 0
0.491756 0.158146 0.106982 255 220 0
0.526384 0.157536 0.077189 255 220 0
0.563838 0.227654 0.114899 255 220 0
0.575231 0.159823 0.103917 255 220 0
0.505911 0.243186 0.139257 255 220 0
0.558768 0.185919 0.082583 255 220 0
0.532364 0.143015 0.079319 255 220 0
0.498983 0.238409 0.106767 255 220 0
0.547929 0.126925 0.086912 255 220 0
0.499101 0.118366 0.129063 255 220 0
0.564105 0.138295 0.125664 255 220 0
0.523862 0.130352 0.145326 255 220 0
0.507667 0.195433 0.081383 255 220 0
0.519109 0.095520 0.104092 255 220 0
0.535153 0.123065 0.142183 255 220 0
0.501590 0.127103 0.104551 255 220 0
0.569208 0.195274 0.095954 255 220 0
0.567193 0.205224 0.129707 255 220 0
0.531449 0.229979 0.084210 255 220 0
0.525299 0.218052 0.154009 255 220 0
0.527752 0.147693 0.078909 255 220 0
0.553881 0.161024 0.080729 255 220 0
0.520606 0.230209 0.085302 255 220 0
0.529848 0.188460 0.153137 255 220 0
0.564484 0.175353 0.086602 255 220 0
0.523442 0.139548 0.146419 255 220 0
0.495627 0.162477 0.142291 255 220 0
0.528659 0.156319 0.148790 255 220 0
0.573098 0.150056 0.112465 255 220 0
0.496617 0.217937 0.095460 255 220 0
0.575205 0.157877 0.106636 255 220 0
0.537832 0.201844 0.152226 255 220 0
0.530634 0.205272 0.076143 255 220 0
0.493057 0.204854 0.095843 255 220 0
0.515359 0.200074 0.077878 255 220 0
0.492413 0.205654 0.144123 255 220 0
0.531526 0.224083 0.081496 255 220 0
0.572994 0.145974 0.105424 255 220 0
0.500692 0.151401 0.142885 255 220 0
0.569384 0.210450 0.121249 255 220 0
0.565288 0.217507 0.128739 255 220 0
0.500381 0.173060 0.147600 255 220 0
0.507756 0.246183 0.137705 255 220 0
0.485223 0.195615 0.110314 255 220 0
0.515406 0.123925 0.144582 255 220 0
0.549213 0.110545 0.130956 255 220 0
0.516047 0.235538 0.089829 255 220 0
0.514083 0.181721 0.078058 255 220 0
0.556079 0.105695 0.112331 255 220 0
0.559542 0.234742 0.129030 255 220 0
0.509506 0.194027 0.080237 255 220 0
0.489770 0.229124 0.121993 255 220 0
0.507447 0.146067 0.145111 255 220 0
0.512949 0.084444 0.137093 255 220 0
0.489436 0.181877 0.102437 255 220 0
0.518711 0.079984 0.126829 255 220 0
0.530231 0.121180 0.143460 255 220 0
0.559686 0.222106 0.136903 255 220 0
0.492474 0.158454 0.105339 255 220 0
0.571397 0.177108 0.123731 255 220 0
0.575767 0.171791 0.109911 255 220 0
0.550100 0.098953 0.121091 255 220 0
0.529754 0.113351 0.142814 255 220 0
0.575187 0.161193 0.110897 255 220 0
0.567775 0.199958 0.129789 255 220 0
0.530789 0.260419 0.125001 255 220 0
0.517893 0.080331 0.131678 255 220 0
0.525537 0.223752 0.153076 255 220 0
0.503496 0.112169 0.136898 255 220 0
0.502582 0.214153 0.088447 255 220 0
0.483330 0.188759 0.119598 255 220 0
0.531370 0.202140 0.075581 255 220 0
0.500726 0.148599 0.142082 255 220 0
0.511903 0.097947 0.142739 255 220 0
0.489208 0.155005 0.122828 255 220 0
0.500190 0.122168 0.109930 255 220 0
0.564033 0.155781 0.131167 255 220 0
0.540535 0.225189 0.150455 255 220 0
0.545483 0.200630 0.149565 255 220 0
0.488688 0.163318 0.132781 255 220 0
0.571944 0.197894 0.121325 255 220 0
0.533832 0.221962 0.152712 255 220 0
0.496599 0.126998 0.124668 255 220 0
0.550829 0.153752 0.080372 255 220 0
0.549138 0.194608 0.147708 255 220 0
0.575678 0.165647 0.109850 255 220 0
0.499165 0.186602 0.148716 255 220 0
0.566204 0.179908 0.088513 255 220 0
0.484538 0.188251 0.112789 255 220 0
0.545953 0.144312 0.141275 255 220 0
0.561080 0.232825 0.126791 255 220 0
0.543521 0.228583 0.087214 255 220 0
0.500170 0.163379 0.145629 255 220 0
0.540506 0.116908 0.138656 255 220 0
0.546244 0.091877 0.111105 255 220 0
0.564177 0.161440 0.087028 255 220 0
0.518690 0.227033 0.084465 255 220 0
0.499146 0.196253 0.088157 255 220 0
0.485001 0.188870 0.111148 255 220 0
0.574397 0.176381 0.101584 255 220 0
0.485272 0.191513 0.133993 255 220 0
0.508933 0.091340 0.116320 255 220 0
0.549423 0.187141 0.077569 255 220 0
0.485085 0.181813 0.131669 255 220 0
0.556774 0.241310 0.126079 255 220 0
0.548980 0.127404 0.136087 255 220 0
0.528866 0.253199 0.100058 255 220 0
0.573782 0.178564 0.100625 255 220 0
0.502730 0.187437 0.085076 255 220 0
0.516997 0.214990 0.080388 255 220 0
0.517262 0.255144 0.104770 255 220 0
0.496254 0.242017 0.123415 255 220 0
0.542623 0.123403 0.086503 255 220 0
0.533958 0.122544 0.086025 255 220 0
0.485915 0.180490 0.110284 255 220 0
0.506631 0.188336 0.151773 255 220 0
0.532366 0.125952 0.143487 255 220 0
0.541417 0.172638 0.075474 255 220 0
0.563032 0.144792 0.129539 255 220 0
0.501840 0.247917 0.125865 255 220 0
0.518659 0.087636 0.142074 255 220 0
0.484935 0.179214 0.130161 255 220 0
0.527088 0.119773 0.088246 255 220 0
0.557931 0.155976 0.137125 255 220 0
0.511780 0.193214 0.079003 255 220 0
0.521700 0.189661 0.075218 255 220 0
0.531752 0.157793 0.076422 255 220 0
0.544742 0.254424 0.124214 255 220 0
0.497628 0.216231 0.146466 255 220 0
0.516886 0.092757 0.107468 255 220 0
0.570541 0.197105 0.099442 255 220 0
0.541486 0.179141 0.075114 255 220 0
0.525883 0.231209 0.084745 255 220 0
0.511219 0.116458 0.143225 255 220 0
0.506179 0.117902 0.140301 255 220 0
0.491955 0.183502 0.097948 255 220 0
0.551899 0.228493 0.092537 255 220 0
0.484930 0.213435 0.125878 255 220 0
0.569228 0.210202 0.105725 255 220 0
0.561332 0.186807 0.084600 255 220 0
0.531980 0.122173 0.143106 255 220 0
0.554882 0.240583 0.106294 255 220 0
0.540753 0.101851 0.097638 255 220 0
0.545045 0.132644 0.083647 255 220 0
0.521537 0.101861 0.098876 255 220 0
0.561902 0.204459 0.089367 255 220 0
0.502681 0.211556 0.150289 255 220 0
0.562609 0.196130 0.136983 255 220 0
0.544821 0.255012 0.119704 255 220 0
0.490591 0.211827 0.102124 255 220 0
0.552128 0.193664 0.146053 255 220 0
0.487453 0.162695 0.127660 255 220 0
0.505421 0.143983 0.092558 255 220 0
0.516652 0.233305 0.088371 255 220 0
0.527209 0.133378 0.145392 255 220 0
0.484889 0.189347 0.132673 255 220 0
0.540186 0.213235 0.079388 255 220 0
0.574873 0.182141 0.108373 255 220 0
0.551938 0.098935 0.113652 255 220 0
0.484462 0.207162 0.130094 255 220 0
0.504832 0.123477 0.101605 255 220 0
0.548180 0.130917 0.085459 255 220 0
0.551721 0.189933 0.078771 255 220 0
0.543771 0.239012 0.093615 255 220 0
0.555024 0.202502 0.082972 255 220 0
0.494850 0.143263 0.132296 255 220 0
0.541953 0.256091 0.124889 255 220 0
0.524140 0.101249 0.098348 255 220 0
0.557442 0.121307 0.126434 255 220 0
0.504382 0.229110 0.093466 255 220 0
0.521645 0.080060 0.123392 255 220 0
0.557049 0.242241 0.118986 255 220 0
0.552372 0.111558 0.127825 255 220 0
0.557395 0.187713 0.141794 255 220 0
0.513153 0.091479 0.111476 255 220 0
0.498461 0.235488 0.138758 255 220 0
0.525580 0.261063 0.114098 255 220 0
0.518957 0.117581 0.092200 255 220 0
0.549756 0.097053 0.118703 255 220 0
0.541461 0.156416 0.145600 255 220 0
0.571100 0.144175 0.114654 255 220 0
0.561329 0.210636 0.091519 255 220 0
0.495278 0.179837 0.145598 255 220 0
0.505131 0.105940 0.110686 255 220 0
0.497585 0.217886 0.146023 255 220 0
0.497647 0.228328 0.100349 255 220 0
0.532462 0.154047 0.076983 255 220 0
0.501543 0.117813 0.134730 255 220 0
0.523260 0.162594 0.150137 255 220 0
0.561943 0.229747 0.109466 255 220 0
0.534853 0.156576 0.147731 255 220 0
0.539013 0.085099 0.115262 255 220 0
0.549983 0.189112 0.146886 255 220 0
0.567990 0.184278 0.091204 255 220 0
0.544415 0.111412 0.135153 255 220 0
0.533713 0.222896 0.081322 255 220 0
0.558551 0.127644 0.128217 255 220 0
0.485698 0.200228 0.135247 255 220 0
0.486906 0.204546 0.137334 255 220 0
0.550851 0.215751 0.146654 255 220 0
0.562537 0.205388 0.136663 255 220 0
0.573615 0.154984 0.099530 255 220 0
0.500190 0.162904 0.145535 255 220 0
0.553469 0.102812 0.105111 255 220 0
0.513229 0.234759 0.090778 255 220 0
0.508970 0.249618 0.134588 255 220 0
0.503996 0.139725 0.141863 255 220 0
0.562364 0.134986 0.126661 255 220 0
0.555695 0.159297 0.081869 255 220 0
0.522697 0.197512 0.075633 255 220 0
0.534875 0.083951 0.129598 255 220 0
0.528953 0.081250 0.131591 255 220 0
0.522224 0.229897 0.151409 255 220 0
0.502567 0.141519 0.096800 255 220 0
0.562468 0.218402 0.134015 255 220 0
0.506213 0.115777 0.140185 255 220 0
0.550315 0.176061 0.077939 255 220 0
0.526697 0.215371 0.078387 255 220 0
0.562184 0.231779 0.115705 255 220 0
0.519645 0.111151 0.094761 255 220 0
0.512735 0.179016 0.151990 255 220 0
0.509286 0.168524 0.082384 255 220 0
0.520358 0.111154 0.094437 255 220 0
0.567746 0.152565 0.125315 255 220 0
0.544658 0.137893 0.140546 255 220 0
0.556512 0.123139 0.128568 255 220 0
0.570528 0.144019 0.116166 255 220 0
0.573400 0.147858 0.104851 255 220 0
0.534925 0.256269 0.131647 255 220 0
0.572257 0.184401 0.098996 255 220 0
0.538665 0.250228 0.099992 255 220 0
0.524876 0.204145 0.154622 255 220 0
0.543313 0.095796 0.131149 255 220 0
0.533327 0.172049 0.074565 255 220 0
0.575411 0.167848 0.112235 255 220 0
0.527905 0.119101 0.143805 255 220 0
0.495669 0.166806 0.096826 255 220 0
0.521629 0.235230 0.087666 255 220 0
0.534924 0.212359 0.153215 255 220 0
0.530040 0.164617 0.075527 255 220 0
0.494745 0.155052 0.138775 255 220 0
0.573776 0.172215 0.118226 255 220 0
0.489119 0.163072 0.133689 255 220 0
0.521076 0.186404 0.075299 255 220 0
0.569128 0.133702 0.105068 255 220 0
0.554785 0.241863 0.107925 255 220 0
0.549464 0.224142 0.088245 255 220 0
0.504294 0.168785 0.086295 255 220 0
0.511100 0.112593 0.099772 255 220 0
0.505333 0.107437 0.138739 255 220 0
0.505931 0.251082 0.112828 255 220 0
0.563532 0.178262 0.085848 255 220 0
0.533307 0.177602 0.074132 255 220 0
0.522205 0.090886 0.106476 255 220 0
0.568824 0.214428 0.113166 255 220 0
0.506508 0.087664 0.127845 255 220 0
0.519741 0.130941 0.145427 255 220 0
0.483212 0.191303 0.124092 255 220 0
0.570206 0.201755 0.124530 255 220 0
0.551280 0.137835 0.137177 255 220 0
0.502622 0.146338 0.094897 255 220 0
0.509444 0.195222 0.152988 255 220 0
0.514329 0.250836 0.137218 255 220 0
0.551374 0.196927 0.146667 255 220 0
0.500385 0.128327 0.135420 255 220 0
0.506655 0.141909 0.143867 255 220 0
0.502403 0.188856 0.085285 255 220 0
0.530028 0.098497 0.141905 255 220 0
0.538546 0.107423 0.093611 255 220 0
0.553068 0.160556 0.080394 255 220 0
0.514909 0.163101 0.080098 255 220 0
0.556923 0.240602 0.127112 255 220 0
0.556044 0.211831 0.087088 255 220 0
0.493849 0.235522 0.114555 255 220 0
0.501073 0.229121 0.096610 255 220 0
0.564052 0.191785 0.087884 255 220 0
0.552417 0.246079 0.128144 255 220 0
0.530915 0.195116 0.074550 255 220 0
0.484185 0.180460 0.127134 255 220 0
0.508605 0.148920 0.087892 255 220 0
0.570830 0.193538 0.098755 255 220 0
0.500437 0.123107 0.134077 255 220 0
0.521391 0.085913 0.111575 255 220 0
0.524331 0.087378 0.109246 255 220 0
0.535978 0.105595 0.139349 255 220 0
0.537243 0.242189 0.144595 255 220 0
0.536430 0.254307 0.133597 255 220 0
0.496644 0.190032 0.090864 255 220 0
0.527236 0.233064 0.150499 255 220 0
0.555093 0.240624 0.131281 255 220 0
0.511975 0.240852 0.144417 255 220 0
0.552071 0.220433 0.088122 255 220 0
0.517130 0.230716 0.150512 255 220 0
0.495263 0.233417 0.136229 255 220 0
0.558439 0.109904 0.107474 255 220 0
0.497194 0.167203 0.094610 255 220 0
0.547359 0.184911 0.147610 255 220 0
0.489882 0.226885 0.115973 255 220 0
0.505644 0.145612 0.091773 255 220 0
0.505953 0.107399 0.139394 255 220 0
0.490284 0.160735 0.108767 255 220 0
0.562820 0.223462 0.103500 255 220 0
0.484345 0.207098 0.117807 255 220 0
0.501829 0.185944 0.085953 255 220 0
0.536609 0.235179 0.148547 255 220 0
0.511181 0.227298 0.150210 255 220 0
0.554832 0.173969 0.080139 255 220 0
0.550265 0.213319 0.147280 255 220 0
0.552264 0.104180 0.122450 255 220 0
0.504924 0.098111 0.136848 255 220 0
0.560019 0.190362 0.139537 255 220 0
0.508280 0.098872 0.110901 255 220 0
0.523016 0.231148 0.085141 255 220 0
0.490903 0.156216 0.132965 255 220 0
0.498138 0.215753 0.146933 255 220 0
0.487509 0.189083 0.104904 255 220 0
0.540747 0.183060 0.074872 255 220 0
0.543006 0.180579 0.075435 255 220 0
0.552497 0.227957 0.142650 255 220 0
0.499901 0.140508 0.138670 255 220 0
0.514435 0.244020 0.096031 255 220 0
0.552057 0.225404 0.143841 255 220 0
0.534395 0.212906 0.153325 255 220 0
0.503398 0.216449 0.149906 255 220 0
0.538629 0.258731 0.119058 255 220 0
0.531659 0.198355 0.074973 255 220 0
0.543116 0.239632 0.093681 255 220 0
0.528294 0.210863 0.154340 255 220 0
0.545308 0.140482 0.140769 255 220 0
0.548018 0.098258 0.125196 255 220 0
0.490653 0.167248 0.104731 255 220 0
0.490779 0.159541 0.135013 255 220 0
0.558475 0.129937 0.091640 255 220 0
0.483989 0.195835 0.130050 255 220 0
0.573215 0.193121 0.106221 255 220 0
0.557820 0.162955 0.138516 255 220 0
0.497119 0.145657 0.137519 255 220 0
0.569674 0.146571 0.119605 255 220 0
0.549211 0.130471 0.086082 255 220 0
0.542912 0.166945 0.076253 255 220 0
0.574326 0.187205 0.114978 255 220 0
0.531774 0.237449 0.148417 255 220 0
0.546271 0.171806 0.076740 255 220 0
0.560392 0.224959 0.134849 255 220 0
0.533635 0.211130 0.153514 255 220 0
0.551780 0.206889 0.082290 255 220 0
0.533209 0.192633 0.074322 255 220 0
0.551140 0.101760 0.102938 255 220 0
0.518266 0.080474 0.132641 255 220 0
0.488040 0.172675 0.135997 255 220 0
0.557501 0.119321 0.125145 255 220 0
0.532076 0.247692 0.141821 255 220 0
0.519213 0.208101 0.154575 255 220 0
0.562057 0.149569 0.131969 255 220 0
0.544507 0.143768 0.080171 255 220 0
0.545126 0.227555 0.147898 255 220 0
0.557089 0.161117 0.082410 255 220 0
0.491786 0.147023 0.116831 255 220 0
0.516967 0.131101 0.087911 255 220 0
0.536563 0.178621 0.150550 255 220 0
0.543700 0.228603 0.148310 255 220 0
0.531302 0.178504 0.074057 255 220 0
0.544328 0.155414 0.144270 255 220 0
0.489511 0.158854 0.131442 255 220 0
0.485172 0.209158 0.131907 255 220 0
0.550486 0.120889 0.133364 255 220 0
0.509909 0.203308 0.080794 255 220 0
0.523344 0.169975 0.151281 255 220 0
0.486897 0.211237 0.135574 255 220 0
0.528144 0.131866 0.145093 255 220 0
0.564758 0.189138 0.088147 255 220 0
0.514022 0.090991 0.111134 255 220 0
0.523471 0.247783 0.095732 255 220 0
0.521878 0.252726 0.100241 255 220 0
0.556258 0.148335 0.136677 255 220 0
0.496661 0.224030 0.143253 255 220 0
0.527771 0.259953 0.127534 255 220 0
0.547830 0.133395 0.084396 255 220 0
0.503317 0.208276 0.150902 255 220 0
0.496137 0.163099 0.097428 255 220 0
0.517485 0.198006 0.076956 255 220 0
0.548665 0.108032 0.096545 255 220 0
0.514873 0.132116 0.088813 255 220 0
0.526124 0.172330 0.151490 255 220 0
0.548333 0.111502 0.132131 255 220 0
0.539505 0.254118 0.105229 255 220 0
0.497457 0.160847 0.096363 255 220 0
0.562980 0.162600 0.086021 255 220 0
0.512027 0.154712 0.083641 255 220 0
0.509542 0.147572 0.146114 255 220 0
0.514381 0.254902 0.106669 255 220 0
0.539238 0.254854 0.106194 255 220 0
0.544704 0.217857 0.082700 255 220 0
0.504349 0.126319 0.100925 255 220 0
0.498810 0.238708 0.107377 255 220 0
0.497057 0.214196 0.146503 255 220 0
0.560086 0.231313 0.131501 255 220 0
0.495821 0.131216 0.125498 255 220 0
0.559664 0.112314 0.107176 255 220 0
0.490001 0.208856 0.141148 255 220 0
0.535535 0.178112 0.074247 255 220 0
0.575313 0.178274 0.108136 255 220 0
0.503148 0.100391 0.134014 255 220 0
0.498948 0.163050 0.093667 255 220 0
0.510819 0.226296 0.150406 255 220 0
0.571559 0.183647 0.124012 255 220 0
0.483461 0.186988 0.125257 255 220 0
0.520457 0.083881 0.114424 255 220 0
0.490135 0.159785 0.133819 255 220 0
0.539346 0.087742 0.128921 255 220 0
0.506460 0.194148 0.082132 255 220 0
0.538443 0.223765 0.082857 255 220 0
0.506308 0.163158 0.148179 255 220 0
0.557609 0.183985 0.081686 255 220 0
0.516010 0.102079 0.101572 255 220 0
0.525816 0.133127 0.145497 255 220 0
0.551838 0.103620 0.122780 255 220 0
0.536224 0.211292 0.152903 255 220 0
0.530621 0.207632 0.154072 255 220 0
0.551285 0.107990 0.127243 255 220 0
0.504301 0.201115 0.084154 255 220 0
0.515680 0.202432 0.078030 255 220 0
0.490075 0.215558 0.139200 255 220 0
0.502799 0.191245 0.084882 255 220 0
0.498285 0.211218 0.147854 255 220 0
0.496625 0.229902 0.140412 255 220 0
0.560421 0.214369 0.137942 255 220 0
0.509329 0.132968 0.092722 255 220 0
0.529098 0.118530 0.143475 255 220 0
0.534092 0.250709 0.098688 255 220 0
0.553345 0.174931 0.143465 255 220 0
0.564480 0.142368 0.126824 255 220 0
0.555175 0.139614 0.085838 255 220 0
0.521559 0.102618 0.144304 255 220 0
0.507028 0.120714 0.141136 255 220 0
0.529604 0.216141 0.153929 255 220 0
0.568560 0.145136 0.094361 255 220 0
0.524829 0.125605 0.144819 255 220 0
0.553042 0.242729 0.132091 255 220 0
0.483641 0.204812 0.125556 255 220 0
0.549381 0.103085 0.126913 255 220 0
0.561203 0.187120 0.084528 255 220 0
0.571672 0.197088 0.102473 255 220 0
0.509644 0.097611 0.141498 255 220 0
0.531648 0.195439 0.153429 255 220 0
0.524668 0.171687 0.075274 255 220 0
0.496994 0.215155 0.093797 255 220 0
0.545382 0.172247 0.146735 255 220 0
0.558377 0.110822 0.104707 255 220 0
0.528845 0.182879 0.152643 255 220 0
0.553647 0.175884 0.143412 255 220 0
0.534357 0.260367 0.117831 255 220 0
0.486860 0.177120 0.108930 255 220 0
0.499515 0.114811 0.128381 255 220 0
0.506418 0.227653 0.148317 255 220 0
0.506631 0.246318 0.136591 255 220 0
0.556782 0.128299 0.091201 255 220 0
0.530322 0.081869 0.131520 255 220 0
0.537036 0.093202 0.136500 255 220 0
0.528144 0.093425 0.142288 255 220 0
0.542085 0.088293 0.111888 255 220 0
0.542881 0.117093 0.089410 255 220 0
0.562181 0.162447 0.134464 255 220 0
0.505120 0.166611 0.148422 255 220 0
0.532969 0.128555 0.083748 255 220 0
0.569248 0.182039 0.127822 255 220 0
0.537049 0.163683 0.148329 255 220 0
0.501589 0.124971 0.136280 255 220 0
0.487193 0.163182 0.126873 255 220 0
0.537205 0.141715 0.144398 255 220 0
0.565992 0.142996 0.124794 255 220 0
0.494935 0.237534 0.130911 255 220 0
0.497232 0.178130 0.146650 255 220 0
0.567486 0.130374 0.111463 255 220 0
0.546774 0.165182 0.077455 255 220 0
0.534889 0.116944 0.141379 255 220 0
0.533373 0.237671 0.148086 255 220 0
0.544023 0.246244 0.137942 255 220 0
0.573892 0.192825 0.113815 255 220 0
0.499843 0.110480 0.124879 255 220 0
0.514867 0.129096 0.089923 255 220 0
0.547864 0.235740 0.142940 255 220 0
0.528574 0.211031 0.154309 255 220 0
0.522605 0.111367 0.144277 255 220 0
0.487564 0.215677 0.134704 255 220 0
0.497265 0.146313 0.102482 255 220 0
0.507266 0.109512 0.105440 255 220 0
0.526977 0.260352 0.126411 255 220 0
0.544367 0.119998 0.137095 255 220 0
0.505166 0.229567 0.146994 255 220 0
0.556379 0.157677 0.082458 255 220 0
0.536962 0.122973 0.141453 255 220 0
0.569302 0.133957 0.106687 255 220 0
0.527100 0.140678 0.146383 255 220 0
0.518089 0.129462 0.087898 255 220 0
0.489022 0.221119 0.134113 255 220 0
0.573474 0.164548 0.117680 255 220 0
0.495805 0.133239 0.114090 255 220 0
0.548860 0.162544 0.078418 255 220 0
0.534103 0.119153 0.087460 255 220 0
0.500571 0.144318 0.140608 255 220 0
0.534293 0.148599 0.146471 255 220 0
0.574382 0.186822 0.114732 255 220 0
0.543791 0.196501 0.076520 255 220 0
0.558142 0.113136 0.101373 255 220 0
0.489739 0.199320 0.141792 255 220 0
0.523867 0.079742 0.124648 255 220 0
0.514024 0.198894 0.153995 255 220 0
0.501737 0.206626 0.150294 255 220 0
0.509380 0.186646 0.152292 255 220 0
0.538877 0.243237 0.143280 255 220 0
0.566783 0.213596 0.127217 255 220 0
0.558740 0.196633 0.140967 255 220 0
0.533677 0.132652 0.082246 255 220 0
0.498340 0.144495 0.101505 255 220 0
0.501803 0.100783 0.125742 255 220 0
0.491000 0.184734 0.099210 255 220 0
0.546781 0.126116 0.086760 255 220 0
0.547557 0.230023 0.090247 255 220 0
0.505119 0.239906 0.099961 255 220 0
0.536687 0.116357 0.088751 255 220 0
0.566058 0.159184 0.129278 255 220 0
0.522168 0.176092 0.152193 255 220 0
0.553362 0.145168 0.083312 255 220 0
0.529704 0.254648 0.101616 255 220 0
0.497201 0.194850 0.148060 255 220 0
0.489451 0.186002 0.101617 255 220 0
0.488480 0.225583 0.125003 255 220 0
0.492180 0.159805 0.137533 255 220 0
0.536681 0.251744 0.100584 255 220 0
0.492404 0.162582 0.103561 255 220 0
0.519612 0.235744 0.088554 255 220 0
0.502745 0.097778 0.124138 255 220 0
0.495909 0.174298 0.145191 255 220 0
0.565747 0.222160 0.112227 255 220 0
0.553797 0.137762 0.135664 255 220 0
0.504761 0.134669 0.141233 255 220 0
0.496127 0.219029 0.144538 255 220 0
0.531858 0.118534 0.142708 255 220 0
0.511001 0.210896 0.081921 255 220 0
0.491912 0.148520 0.113869 255 220 0
0.491325 0.232418 0.119543 255 220 0
0.563858 0.217737 0.131771 255 220 0
0.534324 0.082165 0.125497 255 220 0
0.523391 0.166354 0.150729 255 220 0
0.515307 0.258780 0.116453 255 220 0
0.527221 0.080895 0.132415 255 220 0
0.536517 0.171264 0.074847 255 220 0
0.508772 0.207038 0.152933 255 220 0
0.566327 0.201365 0.093510 255 220 0
0.544997 0.094991 0.127760 255 220 0
0.484509 0.183069 0.114159 255 220 0
0.510237 0.151678 0.147076 255 220 0
0.514928 0.209831 0.154069 255 220 0
0.559957 0.222204 0.136506 255 220 0
0.497460 0.237159 0.136084 255 220 0
0.568886 0.211564 0.122096 255 220 0
0.566909 0.218794 0.121580 255 220 0
0.550955 0.219941 0.145928 255 220 0
0.561834 0.207892 0.137252 255 220 0
0.558643 0.238905 0.124173 255 220 0
0.546265 0.136242 0.139442 255 220 0
0.541548 0.088159 0.124518 255 220 0
0.542558 0.144457 0.142801 255 220 0
0.498762 0.240949 0.133797 255 220 0
0.524784 0.085342 0.140000 255 220 0
0.561012 0.162497 0.084668 255 220 0
0.519070 0.258168 0.108502 255 220 0
0.483180 0.194134 0.120468 255 220 0
0.488751 0.176595 0.138361 255 220 0
0.507090 0.161719 0.085534 255 220 0
0.500182 0.143326 0.139922 255 220 0
0.499909 0.122001 0.132760 255 220 0
0.532048 0.128285 0.143884 255 220 0
0.523786 0.114726 0.091447 255 220 0
0.544156 0.171929 0.147135 255 220 0
0.554908 0.222295 0.142148 255 220 0
0.538517 0.163507 0.147854 255 220 0
0.574313 0.165386 0.099229 255 220 0
0.522061 0.136511 0.146042 255 220 0
0.538408 0.133179 0.142513 255 220 0
0.567873 0.162273 0.127269 255 220 0
0.512153 0.119978 0.095560 255 220 0
0.508149 0.223973 0.088441 255 220 0
0.489484 0.190213 0.141305 255 220 0
0.543665 0.178251 0.148152 255 220 0
0.552219 0.124894 0.089907 255 220 0
0.561832 0.126921 0.096019 255 220 0
0.554652 0.177904 0.143012 255 220 0
0.486058 0.190806 0.108043 255 220 0
0.566419 0.208485 0.097380 255 220 0
0.566550 0.182234 0.089128 255 220 0
0.553801 0.211200 0.085142 255 220 0
0.555348 0.142528 0.135862 255 220 0
0.501622 0.230886 0.144277 255 220 0
0.552462 0.132302 0.135129 255 220 0
0.507446 0.233161 0.093408 255 220 0
0.501203 0.178902 0.148841 255 220 0
0.549974 0.182462 0.077675 255 220 0
0.563009 0.221035 0.101337 255 220 0
0.566519 0.128369 0.112310 255 220 0
0.547084 0.145969 0.080467 255 220 0
0.534162 0.141450 0.145277 255 220 0
0.486588 0.176723 0.109754 255 220 0
0.504488 0.122339 0.139171 255 220 0
0.547784 0.217673 0.148329 255 220 0
0.520765 0.097492 0.101959 255 220 0
0.485594 0.216236 0.125272 255 220 0
0.515839 0.156128 0.148776 255 220 0
0.565507 0.136013 0.122062 255 220 0
0.531530 0.082390 0.115718 255 220 0
0.521938 0.089685 0.107640 255 220 0
0.527881 0.260744 0.112655 255 220 0
0.494122 0.206000 0.094582 255 220 0
0.571586 0.204413 0.108578 255 220 0
0.516441 0.155199 0.148673 255 220 0
0.545023 0.205407 0.149953 255 220 0
0.543578 0.217136 0.150389 255 220 0
0.505648 0.195462 0.151943 255 220 0
0.527255 0.239626 0.147639 255 220 0
0.496916 0.133296 0.131002 255 220 0
0.489874 0.197451 0.100105 255 220 0
0.544461 0.177477 0.075907 255 220 0
0.521203 0.249824 0.140547 255 220 0
0.520420 0.191286 0.075625 255 220 0
0.496183 0.152115 0.139172 255 220 0
0.485875 0.206782 0.111261 255 220 0
0.524430 0.106735 0.095135 255 220 0
0.536073 0.096009 0.138051 255 220 0
0.518335 0.173163 0.151674 255 220 0
0.541959 0.183129 0.075141 255 220 0
0.518721 0.086534 0.112146 255 220 0
0.548141 0.144532 0.081183 255 220 0
0.486501 0.164577 0.121944 255 220 0
0.574476 0.179377 0.116369 255 220 0
0.561957 0.203639 0.089109 255 220 0
0.499872 0.121315 0.111270 255 220 0
0.505336 0.220190 0.088666 255 220 0
0.532881 0.254894 0.102623 255 220 0
0.560247 0.160775 0.084347 255 220 0
0.506608 0.200595 0.082450 255 220 0
0.546749 0.171228 0.146067 255 220 0
0.485849 0.202145 0.135447 255 220 0
0.486923 0.162904 0.121999 255 220 0
0.563299 0.189083 0.086638 255 220 0
0.560063 0.115278 0.115818 255 220 0
0.573015 0.186735 0.120682 255 220 0
0.500327 0.186144 0.087338 255 220 0
0.549188 0.143879 0.081754 255 220 0
0.564894 0.125193 0.102188 255 220 0
0.545427 0.178856 0.147605 255 220 0
0.546813 0.242461 0.098257 255 220 0
0.500774 0.222454 0.093193 255 220 0
0.559338 0.201287 0.085867 255 220 0
0.546216 0.148940 0.079542 255 220 0
0.543844 0.184483 0.075615 255 220 0
0.546099 0.252860 0.126040 255 220 0
0.526730 0.079781 0.127714 255 220 0
0.546998 0.097970 0.103175 255 220 0
0.524130 0.083790 0.113402 255 220 0
0.543034 0.168066 0.146981 255 220 0
0.504858 0.197940 0.151761 255 220 0
0.503658 0.218943 0.149515 255 220 0
0.517647 0.258408 0.110310 255 220 0
0.541338 0.250295 0.135507 255 220 0
0.521367 0.083126 0.138439 255 220 0
0.498984 0.211010 0.090476 255 220 0
0.573719 0.191680 0.116740 255 220 0
0.533724 0.132599 0.082260 255 220 0
0.484220 0.186393 0.129722 255 220 0
0.541047 0.256015 0.126701 255 220 0
0.501990 0.124334 0.105314 255 220 0
0.562885 0.203241 0.089943 255 220 0
0.500720 0.141884 0.139923 255 220 0
0.538831 0.137749 0.080723 255 220 0
0.484357 0.199142 0.113756 255 220 0
0.521014 0.192692 0.075549 255 220 0
0.500521 0.230237 0.097953 255 220 0
0.570927 0.143868 0.098775 255 220 0
0.492989 0.220935 0.140689 255 220 0
0.488479 0.187210 0.139714 255 220 0
0.513922 0.255287 0.107769 255 220 0
0.515827 0.182794 0.152821 255 220 0
0.536816 0.089047 0.134246 255 220 0
0.538160 0.173511 0.074850 255 220 0
0.520871 0.181386 0.152923 255 220 0
0.514245 0.199286 0.078233 255 220 0
0.501076 0.135112 0.101478 255 220 0
0.506365 0.194363 0.152118 255 220 0
0.558416 0.131451 0.090926 255 220 0
0.533212 0.208330 0.153610 255 220 0
0.521056 0.234328 0.149743 255 220 0
0.541568 0.121977 0.139050 255 220 0
0.570805 0.152914 0.119948 255 220 0
0.558033 0.109309 0.112000 255 220 0
0.517592 0.140959 0.146435 255 220 0
0.523679 0.194652 0.075155 255 220 0
0.533772 0.117369 0.088271 255 220 0
0.544683 0.252430 0.129373 255 220 0
0.524058 0.208102 0.154651 255 220 0
0.564613 0.215813 0.131086 255 220 0
0.492141 0.168510 0.101663 255 220 0
0.560180 0.179317 0.083279 255 220 0
0.507957 0.091051 0.118098 255 220 0
0.517916 0.225939 0.152084 255 220 0
0.494794 0.153499 0.103469 255 220 0
0.508932 0.160002 0.148326 255 220 0
0.564875 0.171788 0.086955 255 220 0
0.499161 0.141996 0.138410 255 220 0
0.490128 0.152443 0.118156 255 220 0
0.493028 0.179003 0.143713 255 220 0
0.554509 0.227323 0.141017 255 220 0
0.550050 0.124658 0.088859 255 220 0
0.537025 0.172506 0.149607 255 220 0
0.572905 0.198720 0.116354 255 220 0
0.536828 0.197679 0.152305 255 220 0
0.539112 0.134867 0.142507 255 220 0
0.521423 0.245741 0.143713 255 220 0
0.510987 0.248459 0.137644 255 220 0
0.530914 0.213238 0.153932 255 220 0
0.489918 0.178575 0.102359 255 220 0
0.513192 0.143757 0.146268 255 220 0
0.490149 0.220874 0.136575 255 220 0
0.509314 0.244535 0.099909 255 220 0
0.520371 0.253551 0.101488 255 220 0
0.494280 0.147705 0.134107 255 220 0
0.483670 0.184149 0.118517 255 220 0
0.563869 0.215369 0.097937 255 220 0
0.496726 0.153526 0.140308 255 220 0
0.572933 0.186895 0.102029 255 220 0
0.536504 0.235442 0.088311 255 220 0
0.554675 0.179330 0.079883 255 220 0
0.552181 0.210318 0.146186 255 220 0
0.512485 0.148503 0.085062 255 220 0
0.562453 0.231295 0.116317 255 220 0
0.524764 0.156305 0.077788 255 220 0
0.496352 0.174795 0.093668 255 220 0
0.552465 0.188993 0.079056 255 220 0
0.500172 0.197766 0.149774 255 220 0
0.568899 0.174982 0.091065 255 220 0
0.522086 0.100699 0.099374 255 220 0
0.526102 0.082409 0.136134 255 220 0
0.539930 0.221063 0.082172 255 220 0
0.485294 0.174629 0.129101 255 220 0
0.515093 0.165578 0.150279 255 220 0
0.538303 0.203109 0.152138 255 220 0
0.522666 0.083791 0.139065 255 220 0
0.529744 0.175822 0.074270 255 220 0
0.520235 0.080882 0.134625 255 220 0
0.575728 0.171269 0.105908 255 220 0
0.524650 0.103549 0.096829 255 220 0
0.568407 0.133070 0.111906 255 220 0
0.497470 0.145667 0.137964 255 220 0
0.525898 0.098554 0.143538 255 220 0
0.523711 0.106521 0.144014 255 220 0
0.506539 0.232911 0.093923 255 220 0
0.488307 0.157962 0.121686 255 220 0
