ply
format ascii 1.0
element vertex 1024
property float x
property float y
property float z
property uchar red
property uchar green
property uchar blue
end_header
0.438789 0.156196 0.088428 255 220 0
0.453357 0.108274 0.067185 255 220 0
0.466248 0.116948 0.059637 255 220 0
0.436825 0.221193 0.096787 255 220 0
0.471811 0.159203 0.033567 255 220 0
0.441766 0.145241 0.020450 255 220 0
0.440140 0.174807 0.092953 255 220 0
0.420592 0.154900 0.082270 255 220 0
0.429715 0.113783 0.027272 255 220 0
0.400797 0.135128 0.060965 255 220 0
0.461386 0.133907 0.031042 255 220 0
0.410620 0.084980 0.059537 255 220 0
0.460133 0.162937 0.088211 255 220 0
0.397019 0.203434 0.039508 255 220 0
0.460590 0.223031 0.092114 255 220 0
0.467625 0.222664 0.035781 255 220 0
0.431842 0.159788 0.018858 255 220 0
0.405973 0.089026 0.061356 255 220 0
0.436022 0.246709 0.036820 255 220 0
0.429990 0.131322 0.079582 255 220 0
0.462491 0.246039 0.078110 255 220 0
0.399554 0.227167 0.050648 255 220 0
0.420908 0.085133 0.062090 255 220 0
0.460032 0.139636 0.027915 255 220 0
0.420743 0.134616 0.024758 255 220 0
0.413502 0.234488 0.037020 255 220 0
0.432514 0.261112 0.068440 255 220 0
0.478665 0.175050 0.078787 255 220 0
0.459791 0.248474 0.049067 255 220 0
0.437321 0.126579 0.024123 255 220 0
0.426297 0.218932 0.023036 255 220 0
0.473916 0.164489 0.082103 255 220 0
0.400401 0.137127 0.041394 255 220 0
0.465401 0.115029 0.056084 255 220 0
0.416468 0.151726 0.024253 255 220 0
0.424357 0.121231 0.075836 255 220 0
0.460459 0.195894 0.093398 255 220 0
0.401056 0.230971 0.062524 255 220 0
0.421719 0.168515 0.085864 255 220 0
0.454178 0.258648 0.063713 255 220 0
0.484063 0.175719 0.057495 255 220 0
0.423977 0.089791 0.038961 255 220 0
0.432799 0.192536 0.094271 255 220 0
0.422014 0.115474 0.073933 255 220 0
0.480860 0.195912 0.074618 255 220 0
0.461117 0.167033 0.023050 255 220 0
0.441168 0.239529 0.032047 255 220 0
0.477623 0.216201 0.071834 255 220 0
0.469873 0.141863 0.036926 255 220 0
0.456055 0.256619 0.057468 255 220 0
0.405319 0.090421 0.044235 255 220 0
0.460339 0.228586 0.090938 255 220 0
0.444593 0.145948 0.086361 255 220 0
0.418880 0.087432 0.064960 255 220 0
0.425109 0.226540 0.092532 255 220 0
0.405584 0.124835 0.035193 255 220 0
0.435544 0.211138 0.096862 255 220 0
0.393423 0.205338 0.051402 255 220 0
0.401499 0.221685 0.040627 255 220 0
0.474125 0.154877 0.079256 255 220 0
0.462250 0.228273 0.033636 255 220 0
0.444543 0.261759 0.068319 255 220 0
0.458124 0.165617 0.021621 255 220 0
0.397046 0.220502 0.060728 255 220 0
0.416297 0.150859 0.078999 255 220 0
0.447544 0.204812 0.018916 255 220 0
0.413956 0.121893 0.072081 255 220 0
0.444165 0.154538 0.019145 255 220 0
0.392337 0.187877 0.051113 255 220 0
0.428567 0.172378 0.089310 255 220 0
0.446548 0.134061 0.023723 255 220 0
0.454577 0.202074 0.020472 255 220 0
0.478540 0.185066 0.039579 255 220 0
0.471055 0.209876 0.034024 255 220 0
0.461939 0.216471 0.027844 255 220 0
0.431107 0.216664 0.095806 255 220 0
0.451045 0.257204 0.074911 255 220 0
0.477656 0.208411 0.077162 255 220 0
0.393758 0.168603 0.053887 255 220 0
0.397358 0.222531 0.051901 255 220 0
0.414682 0.241284 0.041029 255 220 0
0.419654 0.126013 0.026467 255 220 0
0.437110 0.205789 0.018374 255 220 0
0.477563 0.161691 0.041858 255 220 0
0.433486 0.102337 0.032268 255 220 0
0.481344 0.195249 0.073482 255 220 0
0.430754 0.239970 0.032800 255 220 0
0.398512 0.117820 0.051746 255 220 0
0.481677 0.181992 0.072990 255 220 0
0.440033 0.110792 0.074109 255 220 0
0.428583 0.085076 0.046207 255 220 0
0.468608 0.175444 0.027696 255 220 0
0.472912 0.203292 0.034120 255 220 0
0.467956 0.227688 0.039622 255 220 0
0.431873 0.166862 0.089273 255 220 0
0.408303 0.147834 0.072371 255 220 0
0.451306 0.198917 0.095984 255 220 0
0.474084 0.136471 0.048776 255 220 0
0.428360 0.197770 0.093426 255 220 0
0.407067 0.193237 0.080648 255 220 0
0.413058 0.217014 0.086290 255 220 0
0.402745 0.160544 0.032738 255 220 0
0.420656 0.199723 0.020703 255 220 0
0.420540 0.092891 0.036635 255 220 0
0.413542 0.202163 0.024099 255 220 0
0.393821 0.167447 0.052818 255 220 0
0.437161 0.144928 0.084950 255 220 0
0.411389 0.115373 0.069973 255 220 0
0.428672 0.161255 0.086929 255 220 0
0.481407 0.192640 0.073620 255 220 0
0.428916 0.208540 0.019619 255 220 0
0.457571 0.243067 0.085801 255 220 0
0.427100 0.139207 0.022356 255 220 0
0.408735 0.243099 0.066518 255 220 0
0.412567 0.238503 0.078108 255 220 0
0.408893 0.176433 0.079291 255 220 0
0.408802 0.218834 0.082290 255 220 0
0.450038 0.245959 0.087368 255 220 0
0.469483 0.180103 0.028133 255 220 0
0.463405 0.244751 0.049810 255 220 0
0.441760 0.244025 0.089845 255 220 0
0.467749 0.219761 0.034328 255 220 0
0.404245 0.136454 0.035190 255 220 0
0.401980 0.128173 0.062609 255 220 0
0.410405 0.143658 0.028595 255 220 0
0.452475 0.152417 0.087636 255 220 0
0.478020 0.147552 0.049501 255 220 0
0.450173 0.195368 0.018327 255 220 0
0.442109 0.227269 0.025717 255 220 0
0.465812 0.164439 0.026677 255 220 0
0.461719 0.248633 0.052290 255 220 0
0.447011 0.114284 0.074148 255 220 0
0.460780 0.139172 0.028574 255 220 0
0.398326 0.222491 0.047569 255 220 0
0.466982 0.244249 0.070890 255 220 0
0.411306 0.164761 0.025331 255 220 0
0.482850 0.172138 0.051974 255 220 0
0.430626 0.180836 0.091644 255 220 0
0.411714 0.112321 0.032348 255 220 0
0.428867 0.252638 0.043704 255 220 0
0.417985 0.141155 0.077733 255 220 0
0.446282 0.136542 0.023019 255 220 0
0.419609 0.101734 0.070927 255 220 0
0.448401 0.178419 0.093601 255 220 0
0.445541 0.185358 0.094917 255 220 0
0.464323 0.132263 0.075962 255 220 0
0.478546 0.152539 0.073556 255 220 0
0.420505 0.216055 0.024083 255 220 0
0.458341 0.252513 0.074587 255 220 0
0.448786 0.137364 0.023487 255 220 0
0.426730 0.161650 0.086364 255 220 0
0.444240 0.115030 0.029493 255 220 0
0.473733 0.163222 0.035235 255 220 0
0.475390 0.192424 0.035093 255 220 0
0.463512 0.172133 0.023948 255 220 0
0.415132 0.167772 0.023126 255 220 0
0.473153 0.133489 0.049512 255 220 0
0.482561 0.156161 0.061051 255 220 0
0.443339 0.235089 0.029813 255 220 0
0.395293 0.172188 0.041147 255 220 0
0.420045 0.179654 0.087265 255 220 0
0.401776 0.090883 0.055849 255 220 0
0.468393 0.206218 0.030112 255 220 0
0.464782 0.147487 0.029140 255 220 0
0.429957 0.220909 0.095275 255 220 0
0.438686 0.254892 0.043985 255 220 0
0.476715 0.163171 0.079405 255 220 0
0.468002 0.133596 0.038993 255 220 0
0.462390 0.177003 0.090346 255 220 0
0.449399 0.102675 0.040469 255 220 0
0.408444 0.206682 0.028055 255 220 0
0.406301 0.133452 0.033355 255 220 0
0.429921 0.258278 0.073424 255 220 0
0.481385 0.181791 0.073716 255 220 0
0.465140 0.218041 0.030937 255 220 0
0.471776 0.164431 0.032495 255 220 0
0.420859 0.254548 0.054096 255 220 0
0.439514 0.231794 0.095172 255 220 0
0.472626 0.234535 0.061051 255 220 0
0.469576 0.240761 0.060545 255 220 0
0.427309 0.258070 0.071184 255 220 0
0.474919 0.136341 0.051143 255 220 0
0.462782 0.120258 0.041111 255 220 0
0.459942 0.253737 0.059708 255 220 0
0.475085 0.223715 0.050899 255 220 0
0.470891 0.214657 0.035772 255 220 0
0.440118 0.124540 0.025025 255 220 0
0.465968 0.205298 0.027795 255 220 0
0.482530 0.156768 0.065561 255 220 0
0.401102 0.160978 0.067980 255 220 0
0.424565 0.250543 0.043386 255 220 0
0.458845 0.172470 0.021166 255 220 0
0.483230 0.195398 0.054984 255 220 0
0.471098 0.131515 0.069594 255 220 0
0.417612 0.130739 0.075428 255 220 0
0.433873 0.102651 0.071634 255 220 0
0.402331 0.200057 0.031729 255 220 0
0.416921 0.127576 0.027240 255 220 0
0.465887 0.245804 0.071169 255 220 0
0.417923 0.142394 0.077972 255 220 0
0.435621 0.202022 0.096230 255 220 0
0.424663 0.243676 0.085030 255 220 0
0.438390 0.175372 0.092805 255 220 0
0.409114 0.090125 0.064910 255 220 0
0.463476 0.168282 0.024406 255 220 0
0.416422 0.245433 0.076722 255 220 0
0.419284 0.086959 0.064477 255 220 0
0.417005 0.211076 0.089325 255 220 0
0.445585 0.139525 0.022158 255 220 0
0.405527 0.239388 0.052907 255 220 0
0.420149 0.230602 0.088560 255 220 0
0.404319 0.236041 0.066123 255 220 0
0.414761 0.181060 0.022419 255 220 0
0.448971 0.114918 0.031667 255 220 0
0.419543 0.137898 0.077798 255 220 0
0.440819 0.208253 0.097357 255 220 0
0.398515 0.117888 0.051779 255 220 0
0.446519 0.100571 0.065536 255 220 0
0.392868 0.200656 0.053544 255 220 0
0.441854 0.250817 0.040349 255 220 0
0.444515 0.112845 0.074153 255 220 0
0.397668 0.151958 0.058869 255 220 0
0.400821 0.173997 0.032302 255 220 0
0.401821 0.135032 0.062772 255 220 0
0.395037 0.194497 0.041370 255 220 0
0.472367 0.228219 0.048447 255 220 0
0.427591 0.250081 0.041479 255 220 0
0.421207 0.249013 0.043679 255 220 0
0.436176 0.177628 0.092780 255 220 0
0.420343 0.172300 0.020730 255 220 0
0.470703 0.186165 0.087777 255 220 0
0.403009 0.174338 0.030062 255 220 0
0.402967 0.219086 0.075389 255 220 0
0.439958 0.123123 0.025419 255 220 0
0.428081 0.168347 0.088314 255 220 0
0.434680 0.241699 0.090407 255 220 0
0.468438 0.139135 0.076884 255 220 0
0.435028 0.260618 0.053482 255 220 0
0.434912 0.211686 0.019690 255 220 0
0.411316 0.238222 0.076776 255 220 0
0.465344 0.143758 0.030795 255 220 0
0.422094 0.206478 0.091871 255 220 0
0.433765 0.246809 0.037125 255 220 0
0.464336 0.234123 0.039950 255 220 0
0.483977 0.173703 0.057358 255 220 0
0.446929 0.139014 0.084246 255 220 0
0.458049 0.150630 0.085836 255 220 0
0.426949 0.124187 0.025013 255 220 0
0.447581 0.244863 0.088729 255 220 0
0.404233 0.238252 0.056814 255 220 0
0.411909 0.243516 0.046071 255 220 0
0.456435 0.159248 0.021789 255 220 0
0.458282 0.239579 0.038483 255 220 0
0.435716 0.202395 0.096285 255 220 0
0.403557 0.095542 0.063045 255 220 0
0.456236 0.203545 0.095144 255 220 0
0.406868 0.227997 0.038491 255 220 0
0.418744 0.166397 0.083937 255 220 0
0.477127 0.157638 0.042370 255 220 0
0.435208 0.100899 0.070663 255 220 0
0.473739 0.194980 0.033269 255 220 0
0.431534 0.148387 0.084480 255 220 0
0.479218 0.143883 0.057352 255 220 0
0.422706 0.248998 0.042706 255 220 0
0.393018 0.179000 0.046777 255 220 0
0.477286 0.218514 0.051982 255 220 0
0.467503 0.238017 0.078085 255 220 0
0.412186 0.165165 0.024813 255 220 0
0.457527 0.160253 0.022129 255 220 0
0.470819 0.223989 0.081310 255 220 0
0.479728 0.155409 0.073014 255 220 0
0.412008 0.246961 0.067041 255 220 0
0.482461 0.183836 0.048691 255 220 0
0.459471 0.145018 0.026037 255 220 0
0.425976 0.243669 0.036702 255 220 0
0.465438 0.126831 0.039909 255 220 0
0.400481 0.124426 0.042904 255 220 0
0.455549 0.135289 0.081423 255 220 0
0.411151 0.132653 0.071882 255 220 0
0.444046 0.200294 0.017761 255 220 0
0.429186 0.099427 0.033064 255 220 0
0.421209 0.123933 0.075524 255 220 0
0.418301 0.133106 0.025862 255 220 0
0.483402 0.191467 0.066472 255 220 0
0.462159 0.201092 0.092899 255 220 0
0.464415 0.231201 0.037683 255 220 0
0.415693 0.219185 0.088019 255 220 0
0.456569 0.150291 0.023373 255 220 0
0.477284 0.159879 0.041885 255 220 0
0.455261 0.232901 0.032013 255 220 0
0.416851 0.189265 0.087245 255 220 0
0.483437 0.172525 0.054312 255 220 0
0.411068 0.141802 0.073373 255 220 0
0.394050 0.168392 0.055490 255 220 0
0.415379 0.157660 0.080009 255 220 0
0.471852 0.145900 0.077548 255 220 0
0.429002 0.223888 0.024369 255 220 0
0.477851 0.153445 0.074962 255 220 0
0.425005 0.201438 0.092633 255 220 0
0.466253 0.206964 0.028444 255 220 0
0.424672 0.211414 0.021266 255 220 0
0.452688 0.203887 0.020084 255 220 0
0.394703 0.211569 0.059133 255 220 0
0.465548 0.225391 0.035019 255 220 0
0.475673 0.141978 0.071526 255 220 0
0.396559 0.156719 0.057961 255 220 0
0.469573 0.206094 0.088036 255 220 0
0.462478 0.213532 0.092159 255 220 0
0.395584 0.178142 0.063577 255 220 0
0.414703 0.249700 0.067216 255 220 0
0.408751 0.203122 0.027088 255 220 0
0.404332 0.127460 0.065566 255 220 0
0.437865 0.109770 0.073947 255 220 0
0.449444 0.238737 0.033348 255 220 0
0.449751 0.185882 0.017696 255 220 0
0.454166 0.104303 0.062904 255 220 0
0.459507 0.231387 0.090566 255 220 0
0.446050 0.198666 0.017832 255 220 0
0.408507 0.235510 0.042283 255 220 0
0.399966 0.150475 0.063295 255 220 0
0.403057 0.088807 0.054376 255 220 0
0.415509 0.189056 0.022090 255 220 0
0.413415 0.083753 0.049315 255 220 0
0.416378 0.122722 0.073378 255 220 0
0.453545 0.218735 0.095668 255 220 0
0.413786 0.165396 0.023978 255 220 0
0.466316 0.172758 0.088021 255 220 0
0.477672 0.167098 0.079225 255 220 0
0.443444 0.098316 0.065571 255 220 0
0.415619 0.115043 0.071829 255 220 0
0.475559 0.156668 0.078638 255 220 0
0.462041 0.195794 0.092811 255 220 0
0.441966 0.260827 0.072458 255 220 0
0.409841 0.084136 0.052689 255 220 0
0.417017 0.224811 0.087971 255 220 0
0.398518 0.117568 0.051163 255 220 0
0.437596 0.219427 0.022066 255 220 0
0.400902 0.196452 0.032630 255 220 0
0.466862 0.203768 0.028145 255 220 0
0.396798 0.153951 0.057078 255 220 0
0.400126 0.102240 0.059502 255 220 0
0.400179 0.162166 0.035503 255 220 0
0.413421 0.128330 0.028797 255 220 0
0.453866 0.152534 0.087406 255 220 0
0.430532 0.224215 0.095103 255 220 0
0.432515 0.199225 0.095038 255 220 0
0.394508 0.170322 0.043856 255 220 0
0.470285 0.193305 0.088440 255 220 0
0.423571 0.221905 0.092527 255 220 0
0.402066 0.133385 0.038743 255 220 0
0.474384 0.153101 0.039061 255 220 0
0.435920 0.192786 0.095202 255 220 0
0.477029 0.161027 0.078534 255 220 0
0.395295 0.191704 0.065022 255 220 0
0.484069 0.176773 0.057300 255 220 0
0.405966 0.195885 0.027926 255 220 0
0.432352 0.143507 0.083371 255 220 0
0.461893 0.229311 0.089542 255 220 0
0.471910 0.228115 0.047222 255 220 0
0.395662 0.168613 0.060963 255 220 0
0.426954 0.117153 0.075381 255 220 0
0.445824 0.091987 0.054665 255 220 0
0.481550 0.158782 0.053131 255 220 0
0.453954 0.230031 0.029890 255 220 0
0.433296 0.202174 0.018045 255 220 0
0.407395 0.196460 0.026968 255 220 0
0.482149 0.171958 0.072251 255 220 0
0.393892 0.198697 0.045450 255 220 0
0.413303 0.096501 0.036181 255 220 0
0.478318 0.186404 0.039194 255 220 0
0.394202 0.189150 0.042570 255 220 0
0.459794 0.238316 0.087189 255 220 0
0.436220 0.126422 0.079478 255 220 0
0.455001 0.254315 0.050879 255 220 0
0.482470 0.174219 0.071330 255 220 0
0.437116 0.192997 0.016931 255 220 0
0.453921 0.218398 0.024488 255 220 0
0.443206 0.257763 0.047776 255 220 0
0.414007 0.247368 0.048563 255 220 0
0.461174 0.124077 0.036041 255 220 0
0.454582 0.124424 0.030342 255 220 0
0.407806 0.188047 0.026034 255 220 0
0.399456 0.192351 0.072119 255 220 0
0.418511 0.127155 0.075147 255 220 0
0.471876 0.173171 0.031307 255 220 0
0.452982 0.141813 0.084461 255 220 0
0.417478 0.252407 0.054443 255 220 0
0.404807 0.091110 0.062072 255 220 0
0.394748 0.186620 0.041038 255 220 0
0.447556 0.122590 0.027680 255 220 0
0.445451 0.153476 0.088448 255 220 0
0.448509 0.197567 0.018153 255 220 0
0.458255 0.192743 0.020816 255 220 0
0.462234 0.159782 0.024792 255 220 0
0.452799 0.252985 0.079696 255 220 0
0.398415 0.221294 0.065152 255 220 0
0.425101 0.096945 0.034125 255 220 0
0.482497 0.193045 0.070211 255 220 0
0.472797 0.179608 0.031687 255 220 0
0.459843 0.233175 0.034859 255 220 0
0.401133 0.120660 0.061247 255 220 0
0.399112 0.122826 0.056025 255 220 0
0.420395 0.190386 0.020219 255 220 0
0.475218 0.226796 0.056488 255 220 0
0.400770 0.220578 0.040927 255 220 0
0.478925 0.206103 0.075641 255 220 0
0.483327 0.184333 0.051921 255 220 0
0.418065 0.123471 0.074250 255 220 0
0.470344 0.238153 0.070329 255 220 0
0.450748 0.102822 0.041651 255 220 0
0.465741 0.132940 0.036132 255 220 0
0.434914 0.105452 0.031015 255 220 0
0.482615 0.201666 0.057726 255 220 0
0.399575 0.215912 0.070782 255 220 0
0.453204 0.192604 0.095010 255 220 0
0.455680 0.253625 0.076234 255 220 0
0.419587 0.218564 0.025410 255 220 0
0.439185 0.191466 0.095610 255 220 0
0.396611 0.169951 0.039000 255 220 0
0.430326 0.149478 0.020311 255 220 0
0.450589 0.236464 0.032347 255 220 0
0.414038 0.135189 0.074248 255 220 0
0.394183 0.196624 0.043967 255 220 0
0.472554 0.213490 0.037548 255 220 0
0.478942 0.177496 0.078460 255 220 0
0.449435 0.098157 0.060797 255 220 0
0.397200 0.214366 0.043377 255 220 0
0.422287 0.129113 0.025145 255 220 0
0.466920 0.130772 0.039295 255 220 0
0.479664 0.188837 0.041801 255 220 0
0.469227 0.238313 0.053435 255 220 0
0.480936 0.200768 0.048324 255 220 0
0.397644 0.149620 0.045276 255 220 0
0.450363 0.255009 0.078704 255 220 0
0.437218 0.104496 0.032112 255 220 0
0.448159 0.119367 0.076376 255 220 0
0.437426 0.233918 0.028556 255 220 0
0.417828 0.083477 0.048378 255 220 0
0.464443 0.239307 0.081834 255 220 0
0.442360 0.110387 0.073477 255 220 0
0.445332 0.184912 0.094857 255 220 0
0.419592 0.096131 0.034915 255 220 0
0.405701 0.240368 0.061405 255 220 0
0.444614 0.262343 0.060748 255 220 0
0.438539 0.121476 0.025682 255 220 0
0.444445 0.096517 0.063292 255 220 0
0.427386 0.156046 0.085235 255 220 0
0.468360 0.140317 0.077508 255 220 0
0.481463 0.207830 0.059673 255 220 0
0.393480 0.185585 0.059558 255 220 0
0.415220 0.111568 0.030827 255 220 0
0.398816 0.222946 0.064934 255 220 0
0.427852 0.233965 0.029853 255 220 0
0.462075 0.155966 0.025306 255 220 0
0.398874 0.123458 0.048809 255 220 0
0.410943 0.164596 0.078412 255 220 0
0.472865 0.226404 0.076068 255 220 0
0.420913 0.157080 0.082941 255 220 0
0.436932 0.086205 0.052931 255 220 0
0.436539 0.187239 0.094536 255 220 0
0.484259 0.180815 0.060926 255 220 0
0.431618 0.111225 0.074447 255 220 0
0.467253 0.223918 0.036089 255 220 0
0.448570 0.125465 0.079064 255 220 0
0.394326 0.207251 0.047535 255 220 0
0.394426 0.211330 0.050328 255 220 0
0.440014 0.213507 0.097430 255 220 0
0.454265 0.201788 0.095601 255 220 0
0.480663 0.150904 0.068104 255 220 0
0.395688 0.168141 0.060855 255 220 0
0.456249 0.101915 0.055341 255 220 0
0.446575 0.238339 0.032321 255 220 0
0.417904 0.252982 0.065814 255 220 0
0.398615 0.144716 0.058032 255 220 0
0.453243 0.132235 0.080842 255 220 0
0.477838 0.157902 0.043718 255 220 0
0.459565 0.200376 0.022500 255 220 0
0.424799 0.085421 0.061657 255 220 0
0.418663 0.083529 0.059394 255 220 0
0.416049 0.231378 0.085239 255 220 0
0.425246 0.147366 0.021704 255 220 0
0.457126 0.214727 0.094712 255 220 0
0.398998 0.120718 0.055751 255 220 0
0.477689 0.175303 0.038964 255 220 0
0.462795 0.217473 0.028806 255 220 0
0.469438 0.228289 0.081342 255 220 0
0.436872 0.114975 0.027506 255 220 0
0.403185 0.182278 0.075088 255 220 0
0.442026 0.173406 0.016953 255 220 0
0.437630 0.114885 0.027682 255 220 0
0.460039 0.148928 0.084715 255 220 0
0.431144 0.137337 0.081396 255 220 0
0.446307 0.121277 0.077677 255 220 0
0.466970 0.140218 0.078343 255 220 0
0.476529 0.143796 0.071499 255 220 0
0.440732 0.256049 0.079816 255 220 0
0.482852 0.180234 0.069679 255 220 0
0.462435 0.250028 0.056466 255 220 0
0.413602 0.205459 0.086916 255 220 0
0.431649 0.095970 0.069119 255 220 0
0.466025 0.173713 0.025641 255 220 0
0.475579 0.163208 0.080469 255 220 0
0.414135 0.120978 0.072045 255 220 0
0.422334 0.173357 0.019977 255 220 0
0.455116 0.237698 0.034983 255 220 0
0.423164 0.212236 0.092665 255 220 0
0.462118 0.166789 0.023703 255 220 0
0.394771 0.161213 0.051466 255 220 0
0.471064 0.167668 0.084636 255 220 0
0.394267 0.170005 0.044811 255 220 0
0.457391 0.189602 0.020191 255 220 0
0.471636 0.130360 0.067732 255 220 0
0.469397 0.239410 0.071683 255 220 0
0.475500 0.222885 0.051206 255 220 0
0.435741 0.174291 0.017053 255 220 0
0.427244 0.117501 0.026442 255 220 0
0.398362 0.112601 0.053276 255 220 0
0.428981 0.255176 0.046909 255 220 0
0.483440 0.175549 0.053419 255 220 0
0.466827 0.179222 0.025819 255 220 0
0.429696 0.094377 0.036377 255 220 0
0.474475 0.210232 0.081685 255 220 0
0.403983 0.093019 0.043478 255 220 0
0.407914 0.133801 0.069527 255 220 0
0.398313 0.198920 0.036355 255 220 0
0.467345 0.197319 0.090294 255 220 0
0.438395 0.136422 0.082730 255 220 0
0.426933 0.152159 0.020694 255 220 0
0.401605 0.198766 0.075440 255 220 0
0.420622 0.253412 0.071250 255 220 0
0.438543 0.194792 0.095953 255 220 0
0.398589 0.134020 0.049662 255 220 0
0.399692 0.146484 0.061433 255 220 0
0.436873 0.194444 0.017035 255 220 0
0.414912 0.100308 0.069853 255 220 0
0.452035 0.108704 0.037667 255 220 0
0.476805 0.159532 0.041084 255 220 0
0.447297 0.167297 0.018025 255 220 0
0.459209 0.237580 0.088028 255 220 0
0.480147 0.209806 0.053089 255 220 0
0.416895 0.241398 0.039480 255 220 0
0.432907 0.234336 0.029044 255 220 0
0.483948 0.188841 0.056640 255 220 0
0.455586 0.243607 0.086644 255 220 0
0.466437 0.196890 0.026382 255 220 0
0.396135 0.188002 0.038310 255 220 0
0.436170 0.154000 0.019019 255 220 0
0.482789 0.189483 0.069501 255 220 0
0.398933 0.128863 0.048130 255 220 0
0.425442 0.089486 0.039440 255 220 0
0.429320 0.090569 0.039516 255 220 0
0.421851 0.106559 0.072109 255 220 0
0.433227 0.241591 0.090108 255 220 0
0.440524 0.253870 0.082080 255 220 0
0.429058 0.196316 0.018077 255 220 0
0.420853 0.233840 0.087853 255 220 0
0.455224 0.237790 0.090220 255 220 0
0.413375 0.243739 0.074564 255 220 0
0.477252 0.218856 0.052328 255 220 0
0.412683 0.232901 0.081529 255 220 0
0.404533 0.238793 0.057273 255 220 0
0.459409 0.108221 0.060893 255 220 0
0.424926 0.173574 0.019185 255 220 0
0.433619 0.183428 0.093120 255 220 0
0.412055 0.233367 0.037375 255 220 0
0.431143 0.151073 0.019981 255 220 0
0.398444 0.112468 0.054166 255 220 0
0.410198 0.167904 0.025583 255 220 0
0.476578 0.220149 0.071279 255 220 0
0.404620 0.214502 0.033584 255 220 0
0.435724 0.191629 0.016936 255 220 0
0.429613 0.234676 0.092178 255 220 0
0.407859 0.230337 0.077366 255 220 0
0.479679 0.172577 0.043234 255 220 0
0.438929 0.211169 0.097338 255 220 0
0.444830 0.103175 0.068455 255 220 0
0.398270 0.103449 0.050640 255 220 0
0.449035 0.187209 0.094911 255 220 0
0.416856 0.104132 0.032223 255 220 0
0.457344 0.233502 0.033433 255 220 0
0.395427 0.162980 0.044659 255 220 0
0.398481 0.220743 0.065784 255 220 0
0.413205 0.196419 0.023566 255 220 0
0.472755 0.183595 0.031425 255 220 0
0.473936 0.180819 0.032998 255 220 0
0.444969 0.225430 0.096428 255 220 0
0.397433 0.146101 0.053106 255 220 0
0.445228 0.247265 0.038091 255 220 0
0.443641 0.222944 0.096859 255 220 0
0.422736 0.212849 0.092484 255 220 0
0.400859 0.220666 0.071381 255 220 0
0.451586 0.258168 0.072336 255 220 0
0.467084 0.199989 0.027476 255 220 0
0.468735 0.239016 0.053151 255 220 0
0.417125 0.211648 0.089403 255 220 0
0.431775 0.139810 0.082214 255 220 0
0.439228 0.097851 0.067491 255 220 0
0.413605 0.174365 0.023239 255 220 0
0.394407 0.166260 0.046523 255 220 0
0.471119 0.128295 0.050313 255 220 0
0.395727 0.203213 0.041971 255 220 0
0.480051 0.188630 0.076807 255 220 0
0.445208 0.160382 0.090149 255 220 0
0.396467 0.151601 0.051007 255 220 0
0.464450 0.142812 0.080791 255 220 0
0.467304 0.130179 0.040368 255 220 0
0.472005 0.167316 0.032282 255 220 0
0.474975 0.182487 0.083838 255 220 0
0.426125 0.237590 0.089370 255 220 0
0.474827 0.171662 0.035163 255 220 0
0.455639 0.221494 0.094744 255 220 0
0.421847 0.211191 0.092004 255 220 0
0.479244 0.205569 0.046243 255 220 0
0.468130 0.194120 0.027350 255 220 0
0.455647 0.101225 0.052113 255 220 0
0.409559 0.084212 0.053689 255 220 0
0.392963 0.179629 0.046904 255 220 0
0.448797 0.117412 0.075202 255 220 0
0.431417 0.247792 0.085317 255 220 0
0.409581 0.210157 0.083834 255 220 0
0.451206 0.146641 0.086250 255 220 0
0.468553 0.144084 0.034124 255 220 0
0.435935 0.225966 0.096083 255 220 0
0.478782 0.159505 0.045163 255 220 0
0.405077 0.153997 0.031554 255 220 0
0.440947 0.135204 0.022382 255 220 0
0.422724 0.178637 0.088316 255 220 0
0.434668 0.227193 0.095648 255 220 0
0.465389 0.180391 0.024634 255 220 0
0.430350 0.154680 0.085820 255 220 0
0.395529 0.165807 0.042866 255 220 0
0.396846 0.216218 0.045431 255 220 0
0.438420 0.119804 0.077611 255 220 0
0.446950 0.207794 0.019405 255 220 0
0.411043 0.171878 0.080074 255 220 0
0.396162 0.217985 0.049572 255 220 0
0.414804 0.133568 0.074431 255 220 0
0.484077 0.186118 0.057020 255 220 0
0.420435 0.095534 0.035124 255 220 0
0.452876 0.249757 0.043677 255 220 0
0.449359 0.254803 0.046754 255 220 0
0.443653 0.146145 0.086350 255 220 0
0.400398 0.229199 0.062774 255 220 0
0.438002 0.260741 0.072592 255 220 0
0.467543 0.133291 0.038480 255 220 0
0.399373 0.212568 0.071336 255 220 0
0.421964 0.169612 0.020381 255 220 0
0.454715 0.201561 0.020442 255 220 0
0.458240 0.107874 0.046162 255 220 0
0.438853 0.136483 0.021926 255 220 0
0.413331 0.173826 0.082146 255 220 0
0.436550 0.110821 0.074435 255 220 0
0.460277 0.253686 0.061487 255 220 0
0.423427 0.167217 0.020122 255 220 0
0.481342 0.160110 0.051722 255 220 0
0.442033 0.159331 0.018281 255 220 0
0.401146 0.151663 0.065498 255 220 0
0.439759 0.257891 0.047513 255 220 0
0.459550 0.254437 0.062160 255 220 0
0.474533 0.217398 0.043341 255 220 0
0.422607 0.132005 0.024588 255 220 0
0.425497 0.243980 0.037108 255 220 0
0.397741 0.219357 0.064641 255 220 0
0.458080 0.227879 0.092520 255 220 0
0.401367 0.137657 0.039334 255 220 0
0.460792 0.110444 0.061629 255 220 0
0.394951 0.215117 0.055629 255 220 0
0.468556 0.179419 0.027305 255 220 0
0.479048 0.173608 0.078168 255 220 0
0.398837 0.105993 0.047544 255 220 0
0.426466 0.169234 0.019102 255 220 0
0.407356 0.229392 0.077206 255 220 0
0.466922 0.179207 0.088968 255 220 0
0.397366 0.194595 0.037013 255 220 0
0.422764 0.087559 0.040935 255 220 0
0.394657 0.166608 0.045212 255 220 0
0.429098 0.088571 0.064187 255 220 0
0.442512 0.199175 0.017500 255 220 0
0.470112 0.224106 0.040246 255 220 0
0.398896 0.167512 0.066669 255 220 0
0.481909 0.182093 0.047095 255 220 0
0.428949 0.106386 0.029826 255 220 0
0.412856 0.135130 0.073464 255 220 0
0.444238 0.102675 0.068404 255 220 0
0.424269 0.211006 0.093101 255 220 0
0.418793 0.208133 0.090288 255 220 0
0.441508 0.107011 0.072018 255 220 0
0.440275 0.206342 0.018462 255 220 0
0.453082 0.206176 0.020624 255 220 0
0.396867 0.221774 0.054775 255 220 0
0.437668 0.196762 0.017183 255 220 0
0.397582 0.216218 0.066167 255 220 0
0.402692 0.235063 0.061068 255 220 0
0.452716 0.210955 0.096194 255 220 0
0.432196 0.138030 0.021748 255 220 0
0.415216 0.120253 0.072451 255 220 0
0.459692 0.251151 0.052716 255 220 0
0.439860 0.172784 0.092505 255 220 0
0.455539 0.139254 0.082957 255 220 0
0.473043 0.138419 0.044656 255 220 0
0.407210 0.105517 0.067024 255 220 0
0.399547 0.125482 0.057469 255 220 0
0.418929 0.216702 0.090376 255 220 0
0.478880 0.141922 0.060017 255 220 0
0.411747 0.127826 0.071611 255 220 0
0.453329 0.240144 0.089822 255 220 0
0.399098 0.212219 0.039066 255 220 0
0.439728 0.102420 0.070136 255 220 0
0.483301 0.184662 0.051816 255 220 0
0.481528 0.192827 0.073290 255 220 0
0.399079 0.102236 0.057122 255 220 0
0.418779 0.195925 0.089233 255 220 0
0.458761 0.174533 0.020933 255 220 0
0.430037 0.221106 0.023015 255 220 0
0.431344 0.171170 0.090020 255 220 0
0.461144 0.109180 0.058755 255 220 0
0.415810 0.183882 0.085713 255 220 0
0.440224 0.173687 0.092737 255 220 0
0.449148 0.260393 0.068940 255 220 0
0.409042 0.184600 0.025211 255 220 0
0.400869 0.120858 0.042275 255 220 0
0.405316 0.231372 0.073024 255 220 0
0.414515 0.250005 0.065668 255 220 0
0.469896 0.126912 0.048785 255 220 0
0.419843 0.083955 0.060225 255 220 0
0.423192 0.094183 0.069307 255 220 0
0.412695 0.095538 0.068530 255 220 0
0.441725 0.088997 0.052426 255 220 0
0.458969 0.117749 0.037891 255 220 0
0.451058 0.159342 0.089532 255 220 0
0.398159 0.171091 0.066474 255 220 0
0.455797 0.130548 0.028519 255 220 0
0.462617 0.177875 0.090429 255 220 0
0.422978 0.163808 0.085422 255 220 0
0.398674 0.130518 0.050748 255 220 0
0.396937 0.170481 0.038267 255 220 0
0.423319 0.142088 0.080303 255 220 0
0.458029 0.139699 0.082326 255 220 0
0.407939 0.242996 0.053264 255 220 0
0.394200 0.183610 0.061408 255 220 0
0.466104 0.127192 0.071477 255 220 0
0.474125 0.165022 0.035398 255 220 0
0.420884 0.117918 0.074143 255 220 0
0.427604 0.237595 0.090096 255 220 0
0.443021 0.244776 0.089334 255 220 0
0.475905 0.188130 0.083193 255 220 0
0.402839 0.116577 0.039288 255 220 0
0.437869 0.133476 0.022511 255 220 0
0.441931 0.233770 0.094602 255 220 0
0.417380 0.211777 0.089564 255 220 0
0.408917 0.114038 0.068474 255 220 0
0.397660 0.222304 0.049713 255 220 0
0.418086 0.152756 0.023452 255 220 0
0.420461 0.114891 0.028311 255 220 0
0.438106 0.261263 0.071262 255 220 0
0.431246 0.119706 0.076777 255 220 0
0.405333 0.233459 0.071404 255 220 0
0.477853 0.156195 0.044442 255 220 0
0.423066 0.123604 0.076031 255 220 0
0.470807 0.130563 0.069143 255 220 0
0.414073 0.142419 0.075665 255 220 0
0.441672 0.133427 0.022892 255 220 0
0.399707 0.227502 0.050648 255 220 0
0.470399 0.160124 0.083288 255 220 0
0.408536 0.139834 0.030496 255 220 0
0.474910 0.162108 0.037167 255 220 0
0.453480 0.121023 0.031240 255 220 0
0.397152 0.149755 0.055409 255 220 0
0.420450 0.149276 0.080842 255 220 0
0.475131 0.182104 0.083640 255 220 0
0.475473 0.196464 0.035856 255 220 0
0.463231 0.111555 0.056198 255 220 0
0.393402 0.205698 0.055066 255 220 0
0.418771 0.082838 0.050685 255 220 0
0.404948 0.201759 0.079356 255 220 0
0.398340 0.211159 0.069743 255 220 0
0.401127 0.190292 0.074029 255 220 0
0.435417 0.242425 0.090156 255 220 0
0.464193 0.209477 0.091485 255 220 0
0.447781 0.193574 0.095870 255 220 0
0.457679 0.134530 0.028152 255 220 0
0.419346 0.150823 0.023154 255 220 0
0.402883 0.106691 0.040226 255 220 0
0.418995 0.191718 0.020758 255 220 0
0.464550 0.126190 0.039018 255 220 0
0.473365 0.228942 0.052199 255 220 0
0.435105 0.244411 0.035173 255 220 0
0.454439 0.117880 0.033555 255 220 0
0.456949 0.155655 0.087463 255 220 0
0.410171 0.178084 0.080670 255 220 0
0.473718 0.144207 0.042094 255 220 0
0.454849 0.255612 0.052756 255 220 0
0.394976 0.200153 0.064106 255 220 0
0.416433 0.193151 0.021846 255 220 0
0.405300 0.232135 0.043544 255 220 0
0.393991 0.166291 0.049388 255 220 0
0.460666 0.251792 0.055880 255 220 0
0.415230 0.169521 0.022924 255 220 0
0.453042 0.238471 0.034515 255 220 0
0.404305 0.103609 0.039240 255 220 0
0.393673 0.180018 0.059087 255 220 0
0.473405 0.218326 0.079824 255 220 0
0.441289 0.136027 0.083048 255 220 0
0.399097 0.139613 0.057512 255 220 0
0.398694 0.224300 0.062988 255 220 0
0.417851 0.119890 0.073514 255 220 0
0.447871 0.215143 0.021683 255 220 0
0.407137 0.155506 0.029432 255 220 0
0.411553 0.238596 0.041601 255 220 0
0.459524 0.213911 0.093714 255 220 0
0.426698 0.083789 0.057909 255 220 0
0.411058 0.168294 0.079319 255 220 0
0.434885 0.261458 0.056181 255 220 0
0.416765 0.083403 0.058964 255 220 0
0.468278 0.172493 0.027718 255 220 0
0.402286 0.210562 0.076122 255 220 0
0.483244 0.197932 0.063381 255 220 0
0.434964 0.094992 0.067380 255 220 0
0.404590 0.190736 0.028495 255 220 0
0.401511 0.155619 0.067072 255 220 0
0.406699 0.212465 0.081010 255 220 0
0.454010 0.218800 0.095527 255 220 0
0.406718 0.242200 0.058845 255 220 0
0.468775 0.207253 0.088511 255 220 0
0.468259 0.214692 0.087600 255 220 0
0.440956 0.217654 0.097320 255 220 0
0.453602 0.204356 0.095881 255 220 0
0.462187 0.235707 0.086581 255 220 0
0.432916 0.135498 0.081337 255 220 0
0.433562 0.088748 0.062076 255 220 0
0.428769 0.144093 0.082539 255 220 0
0.409516 0.245809 0.058186 255 220 0
0.410654 0.088028 0.063915 255 220 0
0.480616 0.160299 0.049453 255 220 0
0.442642 0.260454 0.052110 255 220 0
0.400787 0.201783 0.033742 255 220 0
0.392465 0.183378 0.049578 255 220 0
0.437698 0.166920 0.017465 255 220 0
0.397168 0.148836 0.054536 255 220 0
0.399214 0.127859 0.046665 255 220 0
0.418250 0.129504 0.075492 255 220 0
0.442505 0.117996 0.027732 255 220 0
0.430105 0.171017 0.089564 255 220 0
0.446605 0.219499 0.096946 255 220 0
0.424402 0.163439 0.085918 255 220 0
0.482431 0.161115 0.069284 255 220 0
0.409912 0.138989 0.071949 255 220 0
0.424567 0.133497 0.078722 255 220 0
0.459910 0.158496 0.087267 255 220 0
0.431383 0.124734 0.024455 255 220 0
0.442946 0.228388 0.026368 255 220 0
0.392593 0.196721 0.053654 255 220 0
0.429726 0.177331 0.090677 255 220 0
0.466769 0.124185 0.044677 255 220 0
0.470774 0.124781 0.055516 255 220 0
0.441458 0.175556 0.093221 255 220 0
0.410317 0.198279 0.025337 255 220 0
0.481657 0.204913 0.067179 255 220 0
0.484197 0.179020 0.058217 255 220 0
0.479514 0.209519 0.050134 255 220 0
0.442859 0.140530 0.084599 255 220 0
0.404346 0.235293 0.067239 255 220 0
0.440025 0.130810 0.081295 255 220 0
0.440269 0.237510 0.030751 255 220 0
0.396051 0.183796 0.065615 255 220 0
0.478221 0.181693 0.039162 255 220 0
0.477808 0.217751 0.069449 255 220 0
0.464627 0.125327 0.071371 255 220 0
0.470613 0.145905 0.036126 255 220 0
0.420367 0.142231 0.079133 255 220 0
0.408285 0.184231 0.025661 255 220 0
0.398917 0.127469 0.054535 255 220 0
0.436773 0.215807 0.097084 255 220 0
0.431987 0.101184 0.032567 255 220 0
0.401941 0.223270 0.041117 255 220 0
0.405309 0.159232 0.072230 255 220 0
0.458626 0.132890 0.079203 255 220 0
0.430512 0.084543 0.048509 255 220 0
0.428654 0.093206 0.037020 255 220 0
0.447270 0.261733 0.060968 255 220 0
0.426393 0.212421 0.021022 255 220 0
0.478453 0.200002 0.078768 255 220 0
0.405752 0.158230 0.072423 255 220 0
0.432393 0.204013 0.095524 255 220 0
0.432159 0.215822 0.096119 255 220 0
0.399289 0.199541 0.072342 255 220 0
0.423272 0.240378 0.086231 255 220 0
0.399065 0.139484 0.044547 255 220 0
0.418829 0.204454 0.022003 255 220 0
0.474481 0.177540 0.033953 255 220 0
0.423877 0.251416 0.077942 255 220 0
0.457164 0.194522 0.020520 255 220 0
0.395363 0.158100 0.052368 255 220 0
0.409794 0.214079 0.029301 255 220 0
0.439958 0.109938 0.030272 255 220 0
0.421766 0.097072 0.070220 255 220 0
0.407190 0.175717 0.077662 255 220 0
0.473548 0.183492 0.032377 255 220 0
0.423060 0.090459 0.038337 255 220 0
0.470861 0.144326 0.037194 255 220 0
0.399548 0.172031 0.034084 255 220 0
0.473463 0.174692 0.084277 255 220 0
0.482734 0.200850 0.057477 255 220 0
0.412266 0.127509 0.029582 255 220 0
0.440224 0.225025 0.024483 255 220 0
0.456751 0.255404 0.055497 255 220 0
0.480041 0.158704 0.048570 255 220 0
0.443076 0.205536 0.018459 255 220 0
0.432723 0.169983 0.090220 255 220 0
0.394513 0.209126 0.047967 255 220 0
0.399679 0.170315 0.034223 255 220 0
0.483850 0.186286 0.054939 255 220 0
0.456112 0.113195 0.068988 255 220 0
0.470409 0.182116 0.087510 255 220 0
0.433718 0.192013 0.017143 255 220 0
0.471269 0.143527 0.038216 255 220 0
0.469230 0.122557 0.062079 255 220 0
0.431504 0.177697 0.091368 255 220 0
0.469117 0.241242 0.059275 255 220 0
0.434100 0.227825 0.025522 255 220 0
0.482429 0.198929 0.053104 255 220 0
0.470794 0.148981 0.035155 255 220 0
0.474872 0.184568 0.034021 255 220 0
0.452591 0.251223 0.081810 255 220 0
0.419146 0.082438 0.054843 255 220 0
0.451874 0.098038 0.049433 255 220 0
0.426262 0.086980 0.042338 255 220 0
0.428934 0.167348 0.088394 255 220 0
0.399027 0.202106 0.071957 255 220 0
0.401550 0.223106 0.071468 255 220 0
0.440443 0.260860 0.052702 255 220 0
0.442808 0.249194 0.086173 255 220 0
0.408708 0.086326 0.060403 255 220 0
0.433219 0.216778 0.021195 255 220 0
0.473866 0.186976 0.085292 255 220 0
0.457703 0.134471 0.028186 255 220 0
0.395170 0.193835 0.040946 255 220 0
0.448537 0.255031 0.079582 255 220 0
0.417873 0.130297 0.026441 255 220 0
0.482913 0.200316 0.058659 255 220 0
0.397446 0.147333 0.054724 255 220 0
0.463163 0.138893 0.030553 255 220 0
0.406316 0.206682 0.029624 255 220 0
0.457816 0.195834 0.020954 255 220 0
0.431763 0.235497 0.029878 255 220 0
0.477910 0.140275 0.064817 255 220 0
0.398778 0.226677 0.058229 255 220 0
0.392479 0.193909 0.051501 255 220 0
0.438765 0.258319 0.048143 255 220 0
0.405479 0.185583 0.077976 255 220 0
0.423985 0.090132 0.066994 255 220 0
0.469789 0.174493 0.028929 255 220 0
0.409234 0.183495 0.080971 255 220 0
0.451518 0.203254 0.019616 255 220 0
0.420575 0.141154 0.023888 255 220 0
0.399635 0.198351 0.072808 255 220 0
0.471660 0.129813 0.049857 255 220 0
0.421178 0.208475 0.091556 255 220 0
0.416592 0.235952 0.083640 255 220 0
0.428051 0.122021 0.076820 255 220 0
0.465759 0.148934 0.082353 255 220 0
0.456261 0.107619 0.064169 255 220 0
0.406608 0.144003 0.069985 255 220 0
0.460343 0.197415 0.022441 255 220 0
0.452547 0.119290 0.031511 255 220 0
0.449398 0.250941 0.083549 255 220 0
0.413336 0.209491 0.086823 255 220 0
0.460344 0.211912 0.093444 255 220 0
0.416775 0.175456 0.021833 255 220 0
0.482487 0.177093 0.049462 255 220 0
0.411421 0.096322 0.036970 255 220 0
0.411862 0.228038 0.082789 255 220 0
0.416258 0.160198 0.023427 255 220 0
0.400550 0.164023 0.068069 255 220 0
0.483172 0.168936 0.054486 255 220 0
0.397159 0.147681 0.052596 255 220 0
0.403505 0.159573 0.032119 255 220 0
0.392785 0.185096 0.056627 255 220 0
0.447484 0.224551 0.096292 255 220 0
0.465685 0.124266 0.042515 255 220 0
0.423055 0.172531 0.087264 255 220 0
0.474164 0.194066 0.085169 255 220 0
0.423754 0.197450 0.091690 255 220 0
0.425291 0.135073 0.079304 255 220 0
0.421707 0.247295 0.080187 255 220 0
0.417502 0.251511 0.069339 255 220 0
0.419666 0.213646 0.090892 255 220 0
0.415607 0.185719 0.022003 255 220 0
0.403537 0.147380 0.067460 255 220 0
0.399061 0.227068 0.053254 255 220 0
0.438889 0.248420 0.038111 255 220 0
0.447495 0.255808 0.046908 255 220 0
0.396531 0.154070 0.046789 255 220 0
0.401371 0.191856 0.031538 255 220 0
0.479999 0.212073 0.066738 255 220 0
0.395235 0.159406 0.053729 255 220 0
0.481775 0.182566 0.072725 255 220 0
0.466415 0.235855 0.044505 255 220 0
0.480246 0.177913 0.043450 255 220 0
0.440802 0.207950 0.097343 255 220 0
0.440905 0.153097 0.019087 255 220 0
0.469227 0.227764 0.081943 255 220 0
0.455768 0.159247 0.021505 255 220 0
0.425597 0.181223 0.018658 255 220 0
0.479980 0.187799 0.042386 255 220 0
0.396549 0.202607 0.067537 255 220 0
0.484132 0.171485 0.060474 255 220 0
0.434925 0.104218 0.031628 255 220 0
0.413762 0.085000 0.061374 255 220 0
0.471429 0.221237 0.040344 255 220 0
0.395222 0.182045 0.039977 255 220 0
0.404745 0.168672 0.073872 255 220 0
0.425554 0.202627 0.092970 255 220 0
0.409411 0.086796 0.061747 255 220 0
0.463770 0.177946 0.023603 255 220 0
0.409930 0.084316 0.056488 255 220 0
0.480039 0.166648 0.075985 255 220 0
0.438777 0.106727 0.031439 255 220 0
0.466823 0.129729 0.072643 255 220 0
0.396471 0.151556 0.051573 255 220 0
0.410678 0.100907 0.068653 255 220 0
0.409464 0.109091 0.068470 255 220 0
0.439217 0.237380 0.030587 255 220 0
0.400465 0.165235 0.034338 255 220 0
