ply
format ascii 1.0
element vertex 1024
property float x
property float y
property float z
property uchar red
property uchar green
property uchar blue
end_header
0.526601 0.214259 0.322709 255 220 0
0.544161 0.167104 0.302020 255 220 0
0.558151 0.175930 0.297041 255 220 0
0.523657 0.278862 0.333481 255 220 0
0.568089 0.219179 0.274090 255 220 0
0.540491 0.206159 0.255691 255 220 0
0.527301 0.232644 0.328204 255 220 0
0.509635 0.213450 0.313641 255 220 0
0.527325 0.174591 0.259091 255 220 0
0.493447 0.194845 0.288572 255 220 0
0.558074 0.194144 0.268808 255 220 0
0.503103 0.144685 0.286554 255 220 0
0.547734 0.220739 0.326240 255 220 0
0.493559 0.264041 0.269800 255 220 0
0.547874 0.280603 0.332795 255 220 0
0.563939 0.282536 0.278377 255 220 0
0.531033 0.220882 0.253156 255 220 0
0.498245 0.148707 0.287773 255 220 0
0.532714 0.306905 0.275349 255 220 0
0.519218 0.189893 0.311477 255 220 0
0.552142 0.304158 0.320303 255 220 0
0.494384 0.287247 0.282233 255 220 0
0.512842 0.144603 0.290740 255 220 0
0.557276 0.200017 0.265757 255 220 0
0.518991 0.195621 0.256076 255 220 0
0.510394 0.294966 0.271372 255 220 0
0.524208 0.319997 0.306586 255 220 0
0.567612 0.233010 0.320474 255 220 0
0.554195 0.307855 0.291341 255 220 0
0.535410 0.187414 0.257777 255 220 0
0.525201 0.279860 0.258971 255 220 0
0.562333 0.222378 0.322513 255 220 0
0.496236 0.197677 0.269301 255 220 0
0.557880 0.174174 0.293317 255 220 0
0.514945 0.212789 0.255638 255 220 0
0.514213 0.180040 0.306431 255 220 0
0.547392 0.253440 0.332850 255 220 0
0.493963 0.290526 0.294350 255 220 0
0.510239 0.226886 0.317963 255 220 0
0.546338 0.317468 0.305319 255 220 0
0.576391 0.234513 0.300384 255 220 0
0.519642 0.150198 0.268637 255 220 0
0.519939 0.250390 0.329094 255 220 0
0.512178 0.174399 0.303924 255 220 0
0.570565 0.254001 0.317633 255 220 0
0.559281 0.227579 0.262337 255 220 0
0.538526 0.299870 0.271160 255 220 0
0.567931 0.274428 0.315254 255 220 0
0.565539 0.201738 0.276329 255 220 0
0.549191 0.315683 0.299377 255 220 0
0.500379 0.150835 0.270850 255 220 0
0.547847 0.286206 0.331838 255 220 0
0.532609 0.204037 0.321160 255 220 0
0.510389 0.146803 0.293342 255 220 0
0.512813 0.284530 0.327628 255 220 0
0.502290 0.185595 0.263486 255 220 0
0.522327 0.268830 0.332907 255 220 0
0.488094 0.265484 0.281029 255 220 0
0.497896 0.282172 0.272427 255 220 0
0.562949 0.212892 0.319319 255 220 0
0.559012 0.288298 0.275640 255 220 0
0.536101 0.320500 0.308439 255 220 0
0.556552 0.226262 0.260382 255 220 0
0.490240 0.280192 0.291473 255 220 0
0.505905 0.209605 0.309545 255 220 0
0.546759 0.265665 0.257723 255 220 0
0.504561 0.180989 0.301077 255 220 0
0.543119 0.215472 0.255200 255 220 0
0.486976 0.248065 0.279803 255 220 0
0.516458 0.230514 0.322636 255 220 0
0.544619 0.194791 0.259201 255 220 0
0.553433 0.262776 0.260274 255 220 0
0.573893 0.244679 0.282238 255 220 0
0.567539 0.269793 0.276639 255 220 0
0.559581 0.276757 0.269362 255 220 0
0.518150 0.274450 0.331391 255 220 0
0.541425 0.315589 0.315790 255 220 0
0.567059 0.266419 0.320171 255 220 0
0.487826 0.228675 0.281924 255 220 0
0.491989 0.282590 0.282910 255 220 0
0.510945 0.301571 0.275812 255 220 0
0.517593 0.186968 0.257208 255 220 0
0.536556 0.266793 0.255546 255 220 0
0.572435 0.221242 0.283303 255 220 0
0.530176 0.162898 0.264125 255 220 0
0.571224 0.253380 0.316561 255 220 0
0.528130 0.300408 0.270239 255 220 0
0.492593 0.177973 0.278356 255 220 0
0.571561 0.240154 0.315549 255 220 0
0.529906 0.169491 0.306804 255 220 0
0.522988 0.145123 0.276319 255 220 0
0.565966 0.235693 0.268496 255 220 0
0.569321 0.263189 0.276745 255 220 0
0.563670 0.287389 0.282438 255 220 0
0.519697 0.224964 0.322892 255 220 0
0.499074 0.206963 0.301586 255 220 0
0.537957 0.256463 0.334054 255 220 0
0.567746 0.195797 0.288456 255 220 0
0.515723 0.255710 0.327773 255 220 0
0.496757 0.251986 0.311536 255 220 0
0.501882 0.275426 0.319109 255 220 0
0.500077 0.221409 0.262172 255 220 0
0.519910 0.260838 0.254917 255 220 0
0.516643 0.153436 0.265924 255 220 0
0.512353 0.263219 0.257223 255 220 0
0.488056 0.227564 0.280828 255 220 0
0.525498 0.203169 0.318524 255 220 0
0.502334 0.174597 0.298299 255 220 0
0.516888 0.219502 0.319818 255 220 0
0.571250 0.250768 0.316593 255 220 0
0.528284 0.269590 0.255570 255 220 0
0.546025 0.300924 0.326960 255 220 0
0.525678 0.200231 0.254936 255 220 0
0.500958 0.302378 0.300061 255 220 0
0.502838 0.297248 0.311905 255 220 0
0.498689 0.235234 0.309758 255 220 0
0.498340 0.277467 0.314557 255 220 0
0.538353 0.303841 0.327415 255 220 0
0.566783 0.240318 0.269272 255 220 0
0.557621 0.304060 0.292494 255 220 0
0.529773 0.301905 0.328435 255 220 0
0.564281 0.279696 0.276838 255 220 0
0.501032 0.197220 0.263776 255 220 0
0.494311 0.187813 0.290079 255 220 0
0.508217 0.204620 0.258585 255 220 0
0.540214 0.210348 0.323974 255 220 0
0.571573 0.206787 0.290292 255 220 0
0.549399 0.256223 0.257154 255 220 0
0.540415 0.287879 0.264535 255 220 0
0.563313 0.224777 0.266557 255 220 0
0.555576 0.307854 0.294837 255 220 0
0.536803 0.172892 0.308123 255 220 0
0.557905 0.199516 0.266507 255 220 0
0.493646 0.282721 0.278794 255 220 0
0.557733 0.302621 0.313833 255 220 0
0.509747 0.225829 0.256438 255 220 0
0.576070 0.231186 0.294588 255 220 0
0.518157 0.238840 0.325640 255 220 0
0.508733 0.173138 0.261123 255 220 0
0.524571 0.312625 0.281239 255 220 0
0.507724 0.199944 0.308144 255 220 0
0.544484 0.197303 0.258573 255 220 0
0.510218 0.160829 0.299970 255 220 0
0.535367 0.236122 0.330336 255 220 0
0.532369 0.243034 0.331475 255 220 0
0.553689 0.190562 0.313496 255 220 0
0.568222 0.210744 0.314311 255 220 0
0.519301 0.277012 0.258941 255 220 0
0.548652 0.310827 0.316444 255 220 0
0.546883 0.198073 0.259475 255 220 0
0.515065 0.219945 0.318965 255 220 0
0.541306 0.175563 0.263682 255 220 0
0.569736 0.223100 0.276221 255 220 0
0.571551 0.252259 0.277629 255 220 0
0.561527 0.232607 0.263833 255 220 0
0.513895 0.228884 0.255013 255 220 0
0.566693 0.192798 0.288900 255 220 0
0.574229 0.214843 0.302789 255 220 0
0.541007 0.295502 0.269114 255 220 0
0.491424 0.232777 0.269769 255 220 0
0.508419 0.237976 0.319562 255 220 0
0.495005 0.150848 0.281747 255 220 0
0.565527 0.266337 0.272191 255 220 0
0.561807 0.207749 0.268077 255 220 0
0.517123 0.278728 0.330868 255 220 0
0.534226 0.314744 0.283202 255 220 0
0.565525 0.221140 0.320247 255 220 0
0.563314 0.193415 0.277702 255 220 0
0.549691 0.234672 0.329325 255 220 0
0.544552 0.162691 0.274796 255 220 0
0.506706 0.267630 0.260497 255 220 0
0.503341 0.194273 0.262168 255 220 0
0.520827 0.316987 0.310958 255 220 0
0.571154 0.239925 0.316209 255 220 0
0.562246 0.278154 0.272998 255 220 0
0.568256 0.224448 0.273257 255 220 0
0.514995 0.314192 0.290275 255 220 0
0.526629 0.289488 0.332788 255 220 0
0.564844 0.293263 0.304619 255 220 0
0.561950 0.299542 0.303900 255 220 0
0.518611 0.316906 0.308317 255 220 0
0.568187 0.195557 0.290918 255 220 0
0.557749 0.180064 0.278363 255 220 0
0.552649 0.312660 0.302086 255 220 0
0.568858 0.282854 0.294534 255 220 0
0.567120 0.274498 0.278546 255 220 0
0.538012 0.185304 0.259028 255 220 0
0.563504 0.265547 0.269476 255 220 0
0.573471 0.215258 0.307258 255 220 0
0.492750 0.220370 0.296670 255 220 0
0.520365 0.310599 0.280139 255 220 0
0.557373 0.233120 0.260351 255 220 0
0.576081 0.254291 0.298636 255 220 0
0.561402 0.190001 0.308280 255 220 0
0.507674 0.189640 0.305356 255 220 0
0.524184 0.161539 0.303012 255 220 0
0.500043 0.260931 0.262842 255 220 0
0.514780 0.188531 0.257597 255 220 0
0.556616 0.304175 0.313999 255 220 0
0.507631 0.201172 0.308424 255 220 0
0.522457 0.259749 0.331897 255 220 0
0.513680 0.301972 0.320910 255 220 0
0.525601 0.233236 0.327800 255 220 0
0.500774 0.149616 0.291833 255 220 0
0.561397 0.228740 0.264109 255 220 0
0.506903 0.304181 0.311464 255 220 0
0.510863 0.146346 0.292910 255 220 0
0.505253 0.269317 0.322479 255 220 0
0.543952 0.200328 0.257742 255 220 0
0.499977 0.299287 0.285961 255 220 0
0.508584 0.288817 0.323088 255 220 0
0.496627 0.295398 0.298648 255 220 0
0.513715 0.242194 0.254839 255 220 0
0.545622 0.175301 0.266585 255 220 0
0.509233 0.196667 0.308318 255 220 0
0.527437 0.265861 0.334121 255 220 0
0.492591 0.178040 0.278392 255 220 0
0.537640 0.159563 0.298952 255 220 0
0.487175 0.260722 0.282846 255 220 0
0.537919 0.310788 0.279950 255 220 0
0.534332 0.171484 0.307661 255 220 0
0.490789 0.211787 0.286738 255 220 0
0.498321 0.234890 0.262020 255 220 0
0.494164 0.194660 0.290514 255 220 0
0.491254 0.255058 0.270924 255 220 0
0.566596 0.287491 0.291874 255 220 0
0.523658 0.310181 0.278727 255 220 0
0.516996 0.309100 0.279818 255 220 0
0.523433 0.235518 0.327517 255 220 0
0.519450 0.233444 0.253692 255 220 0
0.558359 0.243832 0.328538 255 220 0
0.500845 0.235299 0.260181 255 220 0
0.493701 0.278084 0.306822 255 220 0
0.537784 0.183874 0.259329 255 220 0
0.516118 0.226536 0.321399 255 220 0
0.522684 0.299645 0.327743 255 220 0
0.557637 0.197337 0.315372 255 220 0
0.529109 0.320107 0.292224 255 220 0
0.534205 0.272656 0.256746 255 220 0
0.501817 0.297039 0.310376 255 220 0
0.562073 0.203947 0.269636 255 220 0
0.509838 0.264552 0.325610 255 220 0
0.530438 0.307020 0.275289 255 220 0
0.560080 0.293848 0.282459 255 220 0
0.576318 0.232506 0.300146 255 220 0
0.535219 0.197170 0.319148 255 220 0
0.545997 0.208570 0.323022 255 220 0
0.525018 0.185115 0.256874 255 220 0
0.535703 0.302718 0.328312 255 220 0
0.498062 0.298002 0.289553 255 220 0
0.507404 0.303622 0.280433 255 220 0
0.554823 0.219914 0.259996 255 220 0
0.554372 0.299436 0.280273 255 220 0
0.522544 0.260118 0.331984 255 220 0
0.495622 0.155176 0.289334 255 220 0
0.542984 0.261061 0.334225 255 220 0
0.503574 0.288501 0.271466 255 220 0
0.507604 0.224889 0.315489 255 220 0
0.571900 0.217177 0.283559 255 220 0
0.525649 0.159813 0.302193 255 220 0
0.570231 0.254911 0.275676 255 220 0
0.520040 0.206715 0.317303 255 220 0
0.571463 0.202775 0.298064 255 220 0
0.518632 0.309108 0.279101 255 220 0
0.488303 0.239372 0.275250 255 220 0
0.570826 0.277584 0.295729 255 220 0
0.557049 0.296083 0.320737 255 220 0
0.510702 0.226245 0.256087 255 220 0
0.555852 0.220890 0.260551 255 220 0
0.559724 0.281892 0.323838 255 220 0
0.569492 0.213620 0.314093 255 220 0
0.504123 0.306174 0.301274 255 220 0
0.576280 0.243015 0.291800 255 220 0
0.557056 0.205480 0.264051 255 220 0
0.522803 0.303998 0.273476 255 220 0
0.560599 0.186649 0.277895 255 220 0
0.496003 0.184923 0.270245 255 220 0
0.544162 0.193462 0.317595 255 220 0
0.501883 0.191782 0.300900 255 220 0
0.543471 0.261243 0.255821 255 220 0
0.525789 0.160010 0.264087 255 220 0
0.511171 0.182792 0.305733 255 220 0
0.516395 0.194096 0.256704 255 220 0
0.574370 0.249874 0.309818 255 220 0
0.549178 0.258633 0.332861 255 220 0
0.560508 0.291024 0.280108 255 220 0
0.504213 0.277489 0.321334 255 220 0
0.554651 0.210897 0.261187 255 220 0
0.572146 0.219434 0.283205 255 220 0
0.552403 0.293076 0.273114 255 220 0
0.505321 0.247617 0.319447 255 220 0
0.576272 0.231466 0.297005 255 220 0
0.501608 0.200860 0.302757 255 220 0
0.487854 0.228393 0.283542 255 220 0
0.504873 0.216368 0.310690 255 220 0
0.560935 0.204025 0.316875 255 220 0
0.527681 0.284721 0.260939 255 220 0
0.567313 0.211598 0.315625 255 220 0
0.512560 0.259449 0.326610 255 220 0
0.563689 0.267179 0.270234 255 220 0
0.523844 0.272444 0.256634 255 220 0
0.551641 0.264628 0.259665 255 220 0
0.488140 0.271365 0.289131 255 220 0
0.562028 0.285319 0.277410 255 220 0
0.565659 0.200314 0.311383 255 220 0
0.489867 0.216595 0.285872 255 220 0
0.557309 0.263744 0.329483 255 220 0
0.549680 0.271088 0.332727 255 220 0
0.488110 0.237771 0.292190 255 220 0
0.506770 0.308868 0.302002 255 220 0
0.507146 0.264110 0.259438 255 220 0
0.496149 0.186946 0.293343 255 220 0
0.527787 0.168503 0.306248 255 220 0
0.546478 0.298921 0.273745 255 220 0
0.549033 0.246778 0.256048 255 220 0
0.545632 0.163308 0.297756 255 220 0
0.547101 0.289030 0.331459 255 220 0
0.545428 0.259590 0.256144 255 220 0
0.504617 0.295826 0.275798 255 220 0
0.492332 0.210089 0.291407 255 220 0
0.496497 0.148821 0.280411 255 220 0
0.514549 0.250186 0.254986 255 220 0
0.507510 0.143858 0.276874 255 220 0
0.506745 0.181733 0.302784 255 220 0
0.540324 0.276247 0.334972 255 220 0
0.512416 0.226490 0.255532 255 220 0
0.553919 0.230481 0.327482 255 220 0
0.566519 0.225060 0.320397 255 220 0
0.534587 0.157347 0.298390 255 220 0
0.506206 0.174137 0.300797 255 220 0
0.564474 0.214690 0.319019 255 220 0
0.549048 0.253345 0.332523 255 220 0
0.532883 0.319425 0.312063 255 220 0
0.503439 0.144142 0.279639 255 220 0
0.505558 0.283096 0.321748 255 220 0
0.492692 0.177746 0.277771 255 220 0
0.536511 0.280255 0.259862 255 220 0
0.498468 0.257309 0.263341 255 220 0
0.564322 0.263992 0.269897 255 220 0
0.490231 0.213864 0.284918 255 220 0
0.492845 0.162060 0.285579 255 220 0
0.497106 0.222943 0.264554 255 220 0
0.511078 0.189261 0.258599 255 220 0
0.541625 0.210458 0.323978 255 220 0
0.517736 0.282031 0.330936 255 220 0
0.519570 0.257044 0.330098 255 220 0
0.490201 0.230808 0.272230 255 220 0
0.557878 0.250942 0.329437 255 220 0
0.511272 0.279918 0.327171 255 220 0
0.498289 0.194030 0.266792 255 220 0
0.569705 0.212818 0.279655 255 220 0
0.522869 0.250562 0.330527 255 220 0
0.565964 0.219032 0.319345 255 220 0
0.487664 0.251262 0.294161 255 220 0
0.576435 0.235574 0.300238 255 220 0
0.504224 0.256880 0.259497 255 220 0
0.521001 0.201876 0.316127 255 220 0
0.549610 0.286969 0.330745 255 220 0
0.566343 0.287444 0.290588 255 220 0
0.488559 0.228361 0.289207 255 220 0
0.516827 0.175953 0.306223 255 220 0
0.538668 0.151457 0.287746 255 220 0
0.574528 0.217809 0.294933 255 220 0
0.551442 0.290315 0.270683 255 220 0
0.532827 0.263243 0.254447 255 220 0
0.505792 0.257476 0.258809 255 220 0
0.572092 0.230155 0.314457 255 220 0
0.489486 0.259095 0.274946 255 220 0
0.509595 0.157152 0.264466 255 220 0
0.573744 0.246035 0.281881 255 220 0
0.490207 0.249676 0.271738 255 220 0
0.547969 0.296092 0.328480 255 220 0
0.525356 0.184926 0.312166 255 220 0
0.549206 0.313673 0.292609 255 220 0
0.572571 0.232449 0.313701 255 220 0
0.536728 0.254075 0.253563 255 220 0
0.552223 0.278922 0.264843 255 220 0
0.538088 0.317395 0.287795 255 220 0
0.509091 0.307338 0.283398 255 220 0
0.557004 0.184114 0.273271 255 220 0
0.551423 0.184784 0.266603 255 220 0
0.506304 0.249106 0.257586 255 220 0
0.490623 0.251556 0.301859 255 220 0
0.508587 0.186060 0.305067 255 220 0
0.568593 0.233229 0.272484 255 220 0
0.541173 0.199882 0.320461 255 220 0
0.511591 0.312080 0.289976 255 220 0
0.496989 0.150774 0.288383 255 220 0
0.490981 0.247206 0.270205 255 220 0
0.544912 0.183151 0.262762 255 220 0
0.533158 0.211459 0.323686 255 220 0
0.547796 0.258447 0.256809 255 220 0
0.556956 0.253395 0.260798 255 220 0
0.560063 0.220249 0.263917 255 220 0
0.542358 0.311150 0.320606 255 220 0
0.490879 0.280780 0.296091 255 220 0
0.521573 0.157536 0.264365 255 220 0
0.572879 0.251303 0.313427 255 220 0
0.569475 0.239632 0.273290 255 220 0
0.556465 0.293172 0.276671 255 220 0
0.493656 0.180376 0.288270 255 220 0
0.492518 0.182786 0.282890 255 220 0
0.519681 0.251534 0.253989 255 220 0
0.568099 0.285693 0.300200 255 220 0
0.497123 0.281061 0.272556 255 220 0
0.568545 0.264162 0.318774 255 220 0
0.576614 0.243365 0.295147 255 220 0
0.508273 0.182424 0.303949 255 220 0
0.561109 0.296513 0.313556 255 220 0
0.545693 0.162771 0.276186 255 220 0
0.561543 0.192909 0.274488 255 220 0
0.531805 0.166046 0.263257 255 220 0
0.575064 0.260444 0.301514 255 220 0
0.491083 0.275150 0.301593 255 220 0
0.539955 0.250175 0.333123 255 220 0
0.545765 0.311900 0.317686 255 220 0
0.518193 0.279474 0.260211 255 220 0
0.526018 0.249185 0.331400 255 220 0
0.493060 0.230617 0.267766 255 220 0
0.529247 0.210539 0.253891 255 220 0
0.547758 0.296679 0.272844 255 220 0
0.504362 0.194180 0.303809 255 220 0
0.490003 0.257084 0.273440 255 220 0
0.568467 0.273236 0.280514 255 220 0
0.567952 0.235464 0.320303 255 220 0
0.541272 0.157316 0.294646 255 220 0
0.493170 0.274796 0.274123 255 220 0
0.520423 0.190089 0.256467 255 220 0
0.562183 0.190594 0.277701 255 220 0
0.574663 0.248338 0.284775 255 220 0
0.562744 0.297403 0.296727 255 220 0
0.574926 0.259965 0.291934 255 220 0
0.492954 0.210027 0.273230 255 220 0
0.540126 0.313245 0.319322 255 220 0
0.533896 0.165016 0.264669 255 220 0
0.537602 0.177861 0.310728 255 220 0
0.535369 0.294459 0.266868 255 220 0
0.512015 0.143568 0.276651 255 220 0
0.553428 0.297251 0.323996 255 220 0
0.532301 0.169084 0.306539 255 220 0
0.532170 0.242594 0.331363 255 220 0
0.516004 0.156758 0.264217 255 220 0
0.498778 0.299903 0.294410 255 220 0
0.537401 0.321404 0.301013 255 220 0
0.536332 0.182235 0.259287 255 220 0
0.535935 0.155633 0.296227 255 220 0
0.515866 0.214386 0.317712 255 220 0
0.557466 0.198493 0.316026 255 220 0
0.573645 0.266534 0.303518 255 220 0
0.486724 0.245403 0.288214 255 220 0
0.512435 0.172407 0.260157 255 220 0
0.491319 0.282434 0.296013 255 220 0
0.525712 0.294569 0.266602 255 220 0
0.559802 0.216416 0.264230 255 220 0
0.493456 0.183726 0.275765 255 220 0
0.500791 0.223420 0.308703 255 220 0
0.562604 0.284501 0.319106 255 220 0
0.509855 0.215596 0.314450 255 220 0
0.530144 0.145863 0.284346 255 220 0
0.523558 0.245041 0.329728 255 220 0
0.576057 0.239456 0.304021 255 220 0
0.521549 0.170013 0.305797 255 220 0
0.563529 0.283780 0.278676 255 220 0
0.537605 0.183833 0.313711 255 220 0
0.489623 0.267548 0.277446 255 220 0
0.489291 0.271503 0.280395 255 220 0
0.526659 0.271118 0.334293 255 220 0
0.540955 0.259312 0.334279 255 220 0
0.571185 0.209315 0.309207 255 220 0
0.488600 0.227894 0.289085 255 220 0
0.548899 0.161217 0.290531 255 220 0
0.543811 0.298603 0.272251 255 220 0
0.510173 0.312167 0.301281 255 220 0
0.491820 0.204575 0.285747 255 220 0
0.541965 0.190464 0.316515 255 220 0
0.572384 0.217375 0.285014 255 220 0
0.558017 0.260932 0.263004 255 220 0
0.516754 0.144861 0.290954 255 220 0
0.511055 0.143142 0.287649 255 220 0
0.505081 0.289784 0.319186 255 220 0
0.523997 0.208433 0.254352 255 220 0
0.543992 0.272240 0.334432 255 220 0
0.492439 0.180693 0.282509 255 220 0
0.573101 0.234962 0.281066 255 220 0
0.560274 0.277706 0.270493 255 220 0
0.558379 0.286203 0.323835 255 220 0
0.534356 0.175683 0.260531 255 220 0
0.493768 0.241322 0.304947 255 220 0
0.541464 0.234441 0.253520 255 220 0
0.535075 0.175577 0.260823 255 220 0
0.548133 0.206892 0.322163 255 220 0
0.520095 0.195811 0.313715 255 220 0
0.535574 0.179737 0.311794 255 220 0
0.555958 0.198376 0.316620 255 220 0
0.566518 0.202121 0.311574 255 220 0
0.530447 0.314356 0.318908 255 220 0
0.573247 0.238523 0.312398 255 220 0
0.555614 0.309061 0.299131 255 220 0
0.502256 0.263850 0.319308 255 220 0
0.522361 0.154998 0.299880 255 220 0
0.563741 0.234083 0.265977 255 220 0
0.564231 0.221146 0.321115 255 220 0
0.504738 0.180075 0.301031 255 220 0
0.521542 0.234508 0.253318 255 220 0
0.551805 0.297744 0.276228 255 220 0
0.510797 0.270259 0.326817 255 220 0
0.560162 0.227296 0.263131 255 220 0
0.489178 0.221382 0.279376 255 220 0
0.559125 0.225481 0.324689 255 220 0
0.489806 0.230454 0.273119 255 220 0
0.556188 0.250294 0.259905 255 220 0
0.562228 0.188918 0.306480 255 220 0
0.559962 0.297723 0.314793 255 220 0
0.569213 0.282006 0.294866 255 220 0
0.535251 0.235399 0.252642 255 220 0
0.525042 0.178371 0.258037 255 220 0
0.492169 0.172696 0.279611 255 220 0
0.524177 0.315023 0.284529 255 220 0
0.576436 0.234525 0.296258 255 220 0
0.564533 0.239569 0.266523 255 220 0
0.525728 0.154818 0.267214 255 220 0
0.563197 0.268086 0.324196 255 220 0
0.499198 0.153480 0.270001 255 220 0
0.499076 0.193069 0.298105 255 220 0
0.495323 0.259649 0.266703 255 220 0
0.554698 0.254910 0.330965 255 220 0
0.527030 0.194750 0.316162 255 220 0
0.525851 0.213243 0.253839 255 220 0
0.492240 0.257798 0.305761 255 220 0
0.511976 0.312333 0.307099 255 220 0
0.525346 0.252502 0.331779 255 220 0
0.493093 0.194245 0.277023 255 220 0
0.492341 0.206184 0.289352 255 220 0
0.536479 0.255519 0.253690 255 220 0
0.505750 0.159509 0.298089 255 220 0
0.547640 0.168801 0.272724 255 220 0
0.571800 0.219127 0.282322 255 220 0
0.546459 0.228227 0.255161 255 220 0
0.547251 0.295328 0.329180 255 220 0
0.573423 0.268803 0.296901 255 220 0
0.513381 0.301723 0.274648 255 220 0
0.530833 0.294912 0.266637 255 220 0
0.576487 0.247660 0.300097 255 220 0
0.543933 0.301452 0.327495 255 220 0
0.564151 0.257200 0.267789 255 220 0
0.492799 0.248686 0.267801 255 220 0
0.535248 0.215039 0.253760 255 220 0
0.573263 0.247771 0.312617 255 220 0
0.493652 0.189153 0.275343 255 220 0
0.521008 0.149855 0.269333 255 220 0
0.524828 0.150886 0.270082 255 220 0
0.512265 0.165572 0.301708 255 220 0
0.521297 0.299568 0.327209 255 220 0
0.529864 0.312085 0.321011 255 220 0
0.528608 0.257441 0.253537 255 220 0
0.509411 0.292073 0.322646 255 220 0
0.542965 0.295495 0.330707 255 220 0
0.504238 0.302619 0.308771 255 220 0
0.570738 0.277912 0.296080 255 220 0
0.502368 0.291505 0.315051 255 220 0
0.498286 0.298520 0.290078 255 220 0
0.551152 0.167243 0.296792 255 220 0
0.524229 0.234726 0.252965 255 220 0
0.520886 0.241329 0.327693 255 220 0
0.508902 0.293849 0.271439 255 220 0
0.530116 0.212136 0.253768 255 220 0
0.492105 0.172525 0.280495 255 220 0
0.508629 0.228973 0.256644 255 220 0
0.567011 0.278408 0.314710 255 220 0
0.502079 0.275256 0.265673 255 220 0
0.535346 0.252725 0.253284 255 220 0
0.517359 0.292617 0.328363 255 220 0
0.498268 0.289180 0.310055 255 220 0
0.574359 0.232034 0.285478 255 220 0
0.525590 0.268799 0.333925 255 220 0
0.535513 0.162061 0.301670 255 220 0
0.492456 0.163666 0.276596 255 220 0
0.535828 0.244841 0.332116 255 220 0
0.513783 0.164899 0.261472 255 220 0
0.554232 0.293591 0.274876 255 220 0
0.490937 0.223428 0.272849 255 220 0
0.490839 0.280202 0.296700 255 220 0
0.512076 0.257508 0.256392 255 220 0
0.569498 0.243627 0.273199 255 220 0
0.570394 0.240772 0.274820 255 220 0
0.531775 0.283011 0.334629 255 220 0
0.491459 0.206183 0.280761 255 220 0
0.541596 0.307293 0.278114 255 220 0
0.530381 0.280524 0.334730 255 220 0
0.510407 0.270884 0.326597 255 220 0
0.492278 0.279858 0.302599 255 220 0
0.542381 0.316655 0.313381 255 220 0
0.564629 0.260243 0.269108 255 220 0
0.562308 0.298123 0.296398 255 220 0
0.505362 0.269883 0.322600 255 220 0
0.520599 0.198239 0.314731 255 220 0
0.530114 0.156853 0.299582 255 220 0
0.512406 0.235484 0.255167 255 220 0
0.489647 0.226638 0.274666 255 220 0
0.564528 0.187600 0.289133 255 220 0
0.491885 0.263731 0.272010 255 220 0
0.569373 0.246643 0.319341 255 220 0
0.532679 0.218289 0.325626 255 220 0
0.490875 0.211778 0.278777 255 220 0
0.553089 0.200894 0.318740 255 220 0
0.562384 0.189951 0.278795 255 220 0
0.568532 0.227337 0.273210 255 220 0
0.563193 0.240271 0.325183 255 220 0
0.514388 0.295690 0.325158 255 220 0
0.570873 0.231521 0.276697 255 220 0
0.542555 0.279017 0.334520 255 220 0
0.509598 0.269259 0.325907 255 220 0
0.573618 0.264871 0.289820 255 220 0
0.565650 0.254371 0.268896 255 220 0
0.548824 0.160672 0.287222 255 220 0
0.502999 0.144179 0.280583 255 220 0
0.488232 0.239996 0.275393 255 220 0
0.538412 0.175949 0.309587 255 220 0
0.520321 0.305989 0.322465 255 220 0
0.498812 0.268723 0.315825 255 220 0
0.539156 0.204652 0.322150 255 220 0
0.564703 0.204092 0.273450 255 220 0
0.522918 0.283671 0.332853 255 220 0
0.573091 0.218904 0.286662 255 220 0
0.502535 0.214889 0.261095 255 220 0
0.539316 0.196059 0.257024 255 220 0
0.510886 0.236882 0.320986 255 220 0
0.521745 0.284931 0.332272 255 220 0
0.563312 0.240805 0.265174 255 220 0
0.518688 0.212960 0.318708 255 220 0
0.491344 0.226327 0.271222 255 220 0
0.492497 0.276564 0.276172 255 220 0
0.527794 0.178366 0.310391 255 220 0
0.546110 0.268631 0.258240 255 220 0
0.500659 0.230623 0.310677 255 220 0
0.491162 0.278162 0.280222 255 220 0
0.505079 0.192543 0.304043 255 220 0
0.576538 0.244923 0.300374 255 220 0
0.516799 0.156142 0.264533 255 220 0
0.548251 0.309451 0.284966 255 220 0
0.544309 0.314405 0.287652 255 220 0
0.531683 0.204245 0.321006 255 220 0
0.493263 0.288753 0.294413 255 220 0
0.528949 0.319383 0.311551 255 220 0
0.562942 0.193137 0.277108 255 220 0
0.490776 0.271788 0.301960 255 220 0
0.521092 0.230754 0.253492 255 220 0
0.553570 0.262263 0.260244 255 220 0
0.552383 0.167534 0.282066 255 220 0
0.537330 0.197383 0.256292 255 220 0
0.502592 0.232453 0.313174 255 220 0
0.526416 0.169549 0.306563 255 220 0
0.552690 0.312530 0.303893 255 220 0
0.522564 0.228354 0.253368 255 220 0
0.574558 0.219198 0.293568 255 220 0
0.541181 0.220323 0.254214 255 220 0
0.493145 0.211168 0.293822 255 220 0
0.534729 0.317577 0.286985 255 220 0
0.551868 0.313260 0.304471 255 220 0
0.569503 0.276869 0.286716 255 220 0
0.520844 0.192997 0.256095 255 220 0
0.522266 0.304296 0.273813 255 220 0
0.490287 0.278874 0.295394 255 220 0
0.545358 0.285460 0.333002 255 220 0
0.497526 0.198282 0.267449 255 220 0
0.552409 0.169415 0.297839 255 220 0
0.488970 0.275055 0.285872 255 220 0
0.565998 0.239681 0.268276 255 220 0
0.568083 0.231591 0.319862 255 220 0
0.493531 0.166332 0.273747 255 220 0
0.525739 0.230375 0.252942 255 220 0
0.497793 0.288248 0.309774 255 220 0
0.554399 0.236877 0.328795 255 220 0
0.494259 0.255312 0.267010 255 220 0
0.518113 0.147900 0.270289 255 220 0
0.490108 0.227038 0.273429 255 220 0
0.520603 0.147847 0.294281 255 220 0
0.541993 0.260156 0.255268 255 220 0
0.565677 0.283757 0.283244 255 220 0
0.490820 0.226979 0.295308 255 220 0
0.575984 0.241349 0.290062 255 220 0
0.526116 0.167103 0.261162 255 220 0
0.503322 0.194169 0.302843 255 220 0
0.534935 0.161571 0.301503 255 220 0
0.511809 0.268997 0.327372 255 220 0
0.506846 0.266314 0.323588 255 220 0
0.531679 0.165784 0.304815 255 220 0
0.539668 0.267303 0.256168 255 220 0
0.551955 0.266887 0.260362 255 220 0
0.491035 0.281718 0.285631 255 220 0
0.537252 0.257819 0.254067 255 220 0
0.489865 0.275676 0.296734 255 220 0
0.495835 0.294655 0.293359 255 220 0
0.539379 0.268463 0.335015 255 220 0
0.530798 0.199018 0.255109 255 220 0
0.505735 0.179319 0.301574 255 220 0
0.553520 0.310377 0.295040 255 220 0
0.527086 0.230645 0.327628 255 220 0
0.543925 0.197359 0.319280 255 220 0
0.567397 0.197931 0.284311 255 220 0
0.498635 0.164927 0.294284 255 220 0
0.492728 0.185372 0.284500 255 220 0
0.507012 0.274869 0.324072 255 220 0
0.570687 0.200707 0.300551 255 220 0
0.502489 0.186964 0.300517 255 220 0
0.541172 0.297886 0.330112 255 220 0
0.495730 0.272811 0.270086 255 220 0
0.530203 0.161299 0.302471 255 220 0
0.576608 0.243698 0.295053 255 220 0
0.571423 0.250967 0.316296 255 220 0
0.492198 0.162170 0.283065 255 220 0
0.506938 0.254163 0.322010 255 220 0
0.557339 0.235191 0.260197 255 220 0
0.528907 0.281986 0.259650 255 220 0
0.519077 0.229243 0.323732 255 220 0
0.553215 0.168270 0.295007 255 220 0
0.504514 0.242318 0.317533 255 220 0
0.527413 0.231532 0.327955 255 220 0
0.540537 0.319052 0.309736 255 220 0
0.507638 0.245682 0.256823 255 220 0
0.496469 0.181381 0.269532 255 220 0
0.496468 0.290428 0.305408 255 220 0
0.506836 0.309241 0.300459 255 220 0
0.563562 0.186299 0.287368 255 220 0
0.512087 0.143518 0.288677 255 220 0
0.513975 0.153310 0.298620 255 220 0
0.503751 0.154826 0.296218 255 220 0
0.534970 0.148614 0.284745 255 220 0
0.554494 0.177742 0.274462 255 220 0
0.538546 0.217203 0.325918 255 220 0
0.490144 0.230573 0.295152 255 220 0
0.552951 0.190964 0.265270 255 220 0
0.549906 0.235537 0.329482 255 220 0
0.511527 0.222187 0.317524 255 220 0
0.492982 0.190699 0.277953 255 220 0
0.493503 0.231173 0.267119 255 220 0
0.512576 0.200701 0.311581 255 220 0
0.546488 0.197799 0.319079 255 220 0
0.502319 0.302846 0.286861 255 220 0
0.487125 0.243343 0.290067 255 220 0
0.556145 0.185664 0.309140 255 220 0
0.570106 0.224886 0.276524 255 220 0
0.511042 0.176845 0.304055 255 220 0
0.515730 0.295647 0.326113 255 220 0
0.531104 0.302662 0.328168 255 220 0
0.564246 0.245924 0.324945 255 220 0
0.498873 0.177206 0.266718 255 220 0
0.536249 0.194366 0.256579 255 220 0
0.529117 0.291457 0.332703 255 220 0
0.505589 0.270002 0.322805 255 220 0
0.500131 0.173358 0.296363 255 220 0
0.492640 0.282452 0.280792 255 220 0
0.516677 0.213832 0.255154 255 220 0
0.518031 0.175768 0.258669 255 220 0
0.529269 0.319960 0.310279 255 220 0
0.520850 0.178391 0.308405 255 220 0
0.496758 0.292582 0.303905 255 220 0
0.572273 0.215639 0.285656 255 220 0
0.512919 0.182419 0.306519 255 220 0
0.561183 0.189072 0.307746 255 220 0
0.504205 0.201342 0.305528 255 220 0
0.539939 0.194254 0.257567 255 220 0
0.494536 0.287580 0.282272 255 220 0
0.558647 0.218010 0.322922 255 220 0
0.506044 0.200742 0.259990 255 220 0
0.570579 0.221891 0.278268 255 220 0
0.550173 0.181362 0.267161 255 220 0
0.490828 0.209738 0.283146 255 220 0
0.509697 0.207894 0.311963 255 220 0
0.563377 0.239895 0.324997 255 220 0
0.571531 0.256261 0.278571 255 220 0
0.555701 0.170725 0.292927 255 220 0
0.487483 0.265688 0.284654 255 220 0
0.512569 0.142820 0.279049 255 220 0
0.494920 0.260581 0.310294 255 220 0
0.490008 0.270461 0.300160 255 220 0
0.491951 0.249397 0.303922 255 220 0
0.523455 0.300372 0.327647 255 220 0
0.551460 0.267044 0.332162 255 220 0
0.534469 0.251174 0.333137 255 220 0
0.554888 0.194935 0.265387 255 220 0
0.517959 0.211898 0.254980 255 220 0
0.498712 0.167289 0.267217 255 220 0
0.518220 0.252859 0.254352 255 220 0
0.559864 0.186057 0.276844 255 220 0
0.566977 0.288041 0.295766 255 220 0
0.532063 0.304691 0.273476 255 220 0
0.550727 0.178113 0.269461 255 220 0
0.544674 0.213535 0.324668 255 220 0
0.499735 0.236808 0.311396 255 220 0
0.568509 0.203813 0.282148 255 220 0
0.548758 0.314891 0.294493 255 220 0
0.487542 0.259745 0.293577 255 220 0
0.515523 0.254276 0.255074 255 220 0
0.501231 0.292440 0.276375 255 220 0
0.488773 0.226553 0.277424 255 220 0
0.553972 0.310871 0.298344 255 220 0
0.514035 0.230638 0.254907 255 220 0
0.549838 0.298562 0.275465 255 220 0
0.500258 0.164235 0.266339 255 220 0
0.486962 0.239859 0.287536 255 220 0
0.562486 0.276264 0.322543 255 220 0
0.529832 0.194306 0.316925 255 220 0
0.492353 0.199494 0.285089 255 220 0
0.491521 0.283871 0.294134 255 220 0
0.508161 0.178879 0.303031 255 220 0
0.546689 0.275864 0.260957 255 220 0
0.504920 0.216461 0.259401 255 220 0
0.507751 0.298900 0.275753 255 220 0
0.546515 0.271437 0.333800 255 220 0
0.519226 0.143366 0.287495 255 220 0
0.500777 0.227074 0.309778 255 220 0
0.528535 0.320833 0.294899 255 220 0
0.509251 0.143058 0.286913 255 220 0
0.565620 0.232748 0.268335 255 220 0
0.492865 0.269545 0.307061 255 220 0
0.574748 0.256466 0.307028 255 220 0
0.525909 0.154054 0.298658 255 220 0
0.502746 0.251728 0.259610 255 220 0
0.493272 0.215049 0.295606 255 220 0
0.496438 0.271185 0.312676 255 220 0
0.540807 0.276313 0.334911 255 220 0
0.500206 0.301829 0.292131 255 220 0
0.556451 0.264891 0.329873 255 220 0
0.556129 0.272369 0.329218 255 220 0
0.527629 0.275253 0.334519 255 220 0
0.540269 0.261873 0.334561 255 220 0
0.550415 0.293481 0.328153 255 220 0
0.521843 0.193955 0.313862 255 220 0
0.525351 0.148058 0.292929 255 220 0
0.517603 0.202542 0.314754 255 220 0
0.503093 0.305428 0.292091 255 220 0
0.502444 0.147544 0.291009 255 220 0
0.574210 0.219492 0.291222 255 220 0
0.536843 0.319907 0.292095 255 220 0
0.498203 0.262589 0.264652 255 220 0
0.487327 0.243634 0.278114 255 220 0
0.537076 0.227994 0.253041 255 220 0
0.490980 0.208857 0.282248 255 220 0
0.494162 0.188210 0.273899 255 220 0
0.508286 0.188395 0.305468 255 220 0
0.539894 0.178623 0.261796 255 220 0
0.517927 0.229125 0.323076 255 220 0
0.533273 0.277043 0.335144 255 220 0
0.512850 0.221780 0.318227 255 220 0
0.572793 0.219444 0.311103 255 220 0
0.500683 0.198124 0.301043 255 220 0
0.514018 0.192170 0.309847 255 220 0
0.547644 0.216345 0.325078 255 220 0
0.529486 0.185630 0.257063 255 220 0
0.541141 0.288959 0.265360 255 220 0
0.486865 0.256790 0.282738 255 220 0
0.517407 0.235390 0.324388 255 220 0
0.561126 0.183788 0.282694 255 220 0
0.563326 0.183874 0.294053 255 220 0
0.528563 0.233364 0.328714 255 220 0
0.508949 0.259327 0.257752 255 220 0
0.572605 0.263298 0.310822 255 220 0
0.576424 0.237779 0.301262 255 220 0
0.573275 0.268649 0.293872 255 220 0
0.531154 0.198721 0.318905 255 220 0
0.496468 0.294603 0.299720 255 220 0
0.528841 0.189185 0.314764 255 220 0
0.537839 0.297919 0.269648 255 220 0
0.488271 0.243328 0.294522 255 220 0
0.573628 0.241332 0.281627 255 220 0
0.568507 0.276075 0.313001 255 220 0
0.554696 0.183823 0.308715 255 220 0
0.566420 0.205801 0.275837 255 220 0
0.509854 0.200929 0.309956 255 220 0
0.506816 0.245304 0.257128 255 220 0
0.492593 0.187490 0.281593 255 220 0
0.523529 0.273470 0.333529 255 220 0
0.528642 0.161752 0.264127 255 220 0
0.498262 0.283728 0.273051 255 220 0
0.496204 0.218392 0.301463 255 220 0
0.547546 0.191121 0.315798 255 220 0
0.524516 0.144470 0.278876 255 220 0
0.524590 0.153634 0.267629 255 220 0
0.539983 0.320752 0.301632 255 220 0
0.525587 0.273439 0.256716 255 220 0
0.567540 0.257941 0.321514 255 220 0
0.496605 0.217378 0.301681 255 220 0
0.519396 0.261808 0.330767 255 220 0
0.519132 0.273583 0.331834 255 220 0
0.490461 0.258732 0.302367 255 220 0
0.512095 0.298644 0.321725 255 220 0
0.494421 0.199914 0.272296 255 220 0
0.517922 0.265532 0.256111 255 220 0
0.570759 0.237449 0.275706 255 220 0
0.514095 0.310015 0.314134 255 220 0
0.555937 0.255198 0.260408 255 220 0
0.489601 0.218227 0.280225 255 220 0
0.507876 0.274950 0.262268 255 220 0
0.536926 0.170496 0.263536 255 220 0
0.512436 0.156175 0.299417 255 220 0
0.497268 0.234608 0.307845 255 220 0
0.570125 0.243474 0.274261 255 220 0
0.518841 0.150903 0.267903 255 220 0
0.566484 0.204175 0.276860 255 220 0
0.496766 0.232867 0.263485 255 220 0
0.561588 0.232484 0.325030 255 220 0
0.575217 0.259638 0.301252 255 220 0
0.509806 0.188421 0.259151 255 220 0
0.538742 0.285712 0.262915 255 220 0
0.550190 0.314543 0.297492 255 220 0
0.573777 0.217943 0.290190 255 220 0
0.542428 0.266463 0.256582 255 220 0
0.520399 0.228032 0.324100 255 220 0
0.489747 0.269400 0.277985 255 220 0
0.496863 0.231145 0.263569 255 220 0
0.576652 0.245181 0.298293 255 220 0
0.546613 0.171910 0.304458 255 220 0
0.558091 0.239802 0.328049 255 220 0
0.533335 0.253125 0.253180 255 220 0
0.566716 0.203329 0.277899 255 220 0
0.560727 0.181393 0.300177 255 220 0
0.519051 0.235704 0.325373 255 220 0
0.561705 0.300082 0.302595 255 220 0
0.532546 0.288542 0.263072 255 220 0
0.575614 0.257907 0.296808 255 220 0
0.566773 0.208912 0.275044 255 220 0
0.571171 0.244462 0.276143 255 220 0
0.541801 0.309303 0.322579 255 220 0
0.512263 0.142239 0.283192 255 220 0
0.545518 0.157648 0.283830 255 220 0
0.521334 0.147218 0.272212 255 220 0
0.516942 0.225523 0.321572 255 220 0
0.490278 0.261314 0.302058 255 220 0
0.492960 0.282283 0.302903 255 220 0
0.534580 0.320314 0.292342 255 220 0
0.531430 0.307212 0.325211 255 220 0
0.501083 0.146017 0.287158 255 220 0
0.532318 0.277700 0.258180 255 220 0
0.561887 0.244708 0.326634 255 220 0
0.554906 0.194874 0.265422 255 220 0
0.491451 0.254413 0.270499 255 220 0
0.538182 0.313252 0.319894 255 220 0
0.515863 0.191271 0.257083 255 220 0
0.575199 0.259052 0.302424 255 220 0
0.491216 0.207345 0.282412 255 220 0
0.559934 0.199124 0.268831 255 220 0
0.504352 0.267590 0.261701 255 220 0
0.556517 0.256482 0.260998 255 220 0
0.529575 0.296051 0.267326 255 220 0
0.568944 0.198871 0.305055 255 220 0
0.492387 0.286446 0.289560 255 220 0
0.487086 0.254073 0.280473 255 220 0
0.533648 0.317989 0.287463 255 220 0
0.495581 0.244472 0.308310 255 220 0
0.515111 0.149351 0.296291 255 220 0
0.566926 0.234676 0.269860 255 220 0
0.498791 0.242213 0.311778 255 220 0
0.550559 0.264030 0.258987 255 220 0
0.519001 0.202192 0.255478 255 220 0
0.490721 0.257519 0.302830 255 220 0
0.565144 0.189130 0.288838 255 220 0
0.508996 0.266573 0.325238 255 220 0
0.505900 0.294414 0.317897 255 220 0
0.517702 0.180742 0.308032 255 220 0
0.554160 0.206928 0.320759 255 220 0
0.547512 0.166542 0.299487 255 220 0
0.497768 0.203258 0.298792 255 220 0
0.558778 0.257968 0.262942 255 220 0
0.549198 0.179631 0.267201 255 220 0
0.538367 0.308987 0.323765 255 220 0
0.502029 0.267885 0.319349 255 220 0
0.547357 0.269442 0.333579 255 220 0
0.515768 0.236595 0.254341 255 220 0
0.576144 0.236246 0.292270 255 220 0
0.507609 0.156963 0.264931 255 220 0
0.501328 0.286603 0.315947 255 220 0
0.514918 0.221290 0.255160 255 220 0
0.492207 0.223415 0.296802 255 220 0
0.575963 0.227876 0.296976 255 220 0
0.491280 0.207786 0.280283 255 220 0
0.500922 0.220455 0.261641 255 220 0
0.486511 0.245048 0.285190 255 220 0
0.534274 0.282106 0.334863 255 220 0
0.560407 0.183973 0.280390 255 220 0
0.511351 0.230823 0.319735 255 220 0
0.562239 0.251792 0.326872 255 220 0
0.511458 0.255520 0.325303 255 220 0
0.514647 0.193711 0.310608 255 220 0
0.511567 0.305830 0.315816 255 220 0
0.509197 0.310553 0.304627 255 220 0
0.507640 0.271786 0.324566 255 220 0
0.514642 0.246855 0.254770 255 220 0
0.495164 0.206776 0.295955 255 220 0
0.493474 0.287044 0.284718 255 220 0
0.535343 0.308525 0.277160 255 220 0
0.542450 0.315426 0.287547 255 220 0
0.491635 0.214423 0.274737 255 220 0
0.499083 0.252758 0.262139 255 220 0
0.571079 0.270491 0.310432 255 220 0
0.489260 0.219475 0.281603 255 220 0
0.571703 0.240736 0.315329 255 220 0
0.561402 0.295360 0.287361 255 220 0
0.574911 0.237348 0.286016 255 220 0
0.527421 0.265560 0.334091 255 220 0
0.539904 0.214075 0.254553 255 220 0
0.558070 0.285656 0.324370 255 220 0
0.554211 0.219933 0.259608 255 220 0
0.525018 0.242381 0.252889 255 220 0
0.574874 0.247273 0.285358 255 220 0
0.488551 0.262033 0.297321 255 220 0
0.575955 0.230157 0.303147 255 220 0
0.531709 0.164787 0.263809 255 220 0
0.505906 0.144589 0.288873 255 220 0
0.566945 0.280870 0.283428 255 220 0
0.491596 0.242675 0.269036 255 220 0
0.495432 0.227760 0.303405 255 220 0
0.513054 0.260616 0.327083 255 220 0
0.501561 0.146421 0.288617 255 220 0
0.561868 0.238426 0.263789 255 220 0
0.502912 0.144159 0.283407 255 220 0
0.569377 0.224717 0.317565 255 220 0
0.535555 0.167253 0.264355 255 220 0
0.556680 0.188140 0.310517 255 220 0
0.490787 0.211709 0.279333 255 220 0
0.501769 0.160210 0.296248 255 220 0
0.500644 0.168408 0.296230 255 220 0
0.536826 0.297809 0.269311 255 220 0
0.497593 0.226056 0.263587 255 220 0
