ply
format ascii 1.0
element vertex 1024
property float x
property float y
property float z
property uchar red
property uchar green
property uchar blue
end_header
0.061062 0.199772 0.169368 255 220 0
0.059360 0.145405 0.170528 255 220 0
0.047213 0.147287 0.182666 255 220 0
0.050717 0.261591 0.188597 255 220 0
0.040794 0.173947 0.224427 255 220 0
0.074819 0.163542 0.226360 255 220 0
0.055792 0.217831 0.173216 255 220 0
0.080133 0.200557 0.171907 255 220 0
0.089964 0.140789 0.205520 255 220 0
0.107012 0.179442 0.180176 255 220 0
0.055432 0.152793 0.214776 255 220 0
0.105899 0.131695 0.161947 255 220 0
0.039485 0.200712 0.175251 255 220 0
0.104405 0.233368 0.227352 255 220 0
0.028570 0.255886 0.196777 255 220 0
0.034177 0.232587 0.248244 255 220 0
0.082391 0.178295 0.232495 255 220 0
0.109326 0.137098 0.161364 255 220 0
0.060519 0.261934 0.253029 255 220 0
0.075449 0.176222 0.165797 255 220 0
0.026118 0.270739 0.219193 255 220 0
0.095727 0.258236 0.227538 255 220 0
0.095414 0.130382 0.161106 255 220 0
0.056502 0.157057 0.219786 255 220 0
0.095814 0.160597 0.215226 255 220 0
0.084109 0.256358 0.244725 255 220 0
0.054675 0.287618 0.230101 255 220 0
0.021769 0.203638 0.191268 255 220 0
0.034679 0.262564 0.245962 255 220 0
0.081282 0.149267 0.214699 255 220 0
0.077343 0.234132 0.252568 255 220 0
0.027306 0.196552 0.183254 255 220 0
0.111354 0.173920 0.198556 255 220 0
0.049113 0.144424 0.184950 255 220 0
0.097300 0.176731 0.222213 255 220 0
0.083307 0.167093 0.164210 255 220 0
0.032760 0.232106 0.184327 255 220 0
0.091075 0.265783 0.218641 255 220 0
0.076081 0.213842 0.174486 255 220 0
0.035250 0.278535 0.236258 255 220 0
0.021123 0.194911 0.211426 255 220 0
0.096772 0.125079 0.184259 255 220 0
0.059731 0.235927 0.178405 255 220 0
0.086900 0.161769 0.163212 255 220 0
0.017228 0.220223 0.203985 255 220 0
0.052135 0.179491 0.235694 255 220 0
0.057760 0.252490 0.255034 255 220 0
0.017703 0.238095 0.214483 255 220 0
0.044702 0.160149 0.213937 255 220 0
0.035133 0.273913 0.241286 255 220 0
0.113478 0.132022 0.177254 255 220 0
0.028179 0.260473 0.200111 255 220 0
0.057568 0.188452 0.167754 255 220 0
0.096370 0.134003 0.159206 255 220 0
0.062069 0.267521 0.193062 255 220 0
0.109689 0.159350 0.199726 255 220 0
0.053544 0.252917 0.184177 255 220 0
0.104960 0.240418 0.216959 255 220 0
0.096925 0.249080 0.234537 255 220 0
0.029267 0.186819 0.181848 255 220 0
0.038922 0.238061 0.251778 255 220 0
0.043019 0.285326 0.232105 255 220 0
0.055554 0.178385 0.235987 255 220 0
0.097004 0.256672 0.215363 255 220 0
0.085629 0.196710 0.172589 255 220 0
0.060054 0.214940 0.253279 255 220 0
0.094034 0.168708 0.166456 255 220 0
0.071307 0.170808 0.231722 255 220 0
0.108864 0.224930 0.209815 255 220 0
0.068118 0.216996 0.173918 255 220 0
0.071290 0.153647 0.219415 255 220 0
0.053382 0.211425 0.251692 255 220 0
0.028861 0.197797 0.230679 255 220 0
0.033308 0.219668 0.244974 255 220 0
0.042378 0.225376 0.252041 255 220 0
0.057160 0.258508 0.186824 255 220 0
0.036047 0.282214 0.225162 255 220 0
0.017754 0.233129 0.206458 255 220 0
0.109975 0.208390 0.199502 255 220 0
0.098309 0.255076 0.224188 255 220 0
0.081009 0.263682 0.244103 255 220 0
0.097866 0.153798 0.209966 255 220 0
0.070059 0.218061 0.252761 255 220 0
0.033046 0.177962 0.218782 255 220 0
0.087075 0.131545 0.196779 255 220 0
0.017116 0.219085 0.204797 255 220 0
0.067549 0.255616 0.253132 255 220 0
0.113999 0.160995 0.180965 255 220 0
0.019026 0.206952 0.199775 255 220 0
0.070267 0.153410 0.163545 255 220 0
0.091509 0.122517 0.176405 255 220 0
0.042561 0.187019 0.236025 255 220 0
0.032554 0.213373 0.242402 255 220 0
0.032214 0.238462 0.246922 255 220 0
0.065827 0.211266 0.172106 255 220 0
0.095258 0.193372 0.176212 255 220 0
0.040521 0.237941 0.182019 255 220 0
0.038920 0.158816 0.201607 255 220 0
0.063351 0.241336 0.180740 255 220 0
0.087367 0.237445 0.187470 255 220 0
0.076559 0.259461 0.193087 255 220 0
0.107241 0.191060 0.216390 255 220 0
0.086359 0.217376 0.245920 255 220 0
0.100093 0.127781 0.187175 255 220 0
0.092074 0.222517 0.242917 255 220 0
0.110334 0.206935 0.199992 255 220 0
0.065194 0.188750 0.167593 255 220 0
0.098009 0.162676 0.165295 255 220 0
0.070318 0.206112 0.171451 255 220 0
0.017443 0.216787 0.203597 255 220 0
0.077233 0.222920 0.251676 255 220 0
0.029648 0.272145 0.210375 255 220 0
0.089485 0.162306 0.220154 255 220 0
0.080868 0.276350 0.221127 255 220 0
0.075380 0.275720 0.209311 255 220 0
0.088597 0.221457 0.181954 255 220 0
0.081239 0.260576 0.196866 255 220 0
0.036093 0.277097 0.209149 255 220 0
0.040877 0.191151 0.237686 255 220 0
0.031634 0.258663 0.244235 255 220 0
0.043829 0.278247 0.204997 255 220 0
0.034841 0.229410 0.248361 255 220 0
0.109118 0.170067 0.204376 255 220 0
0.106628 0.173560 0.175966 255 220 0
0.103478 0.172574 0.214135 255 220 0
0.048667 0.192874 0.170361 255 220 0
0.033198 0.168087 0.206093 255 220 0
0.059164 0.205645 0.250239 255 220 0
0.060202 0.238897 0.255759 255 220 0
0.047237 0.177438 0.231990 255 220 0
0.032093 0.263473 0.243390 255 220 0
0.062983 0.154913 0.165905 255 220 0
0.055712 0.156715 0.219102 255 220 0
0.098331 0.253173 0.228198 255 220 0
0.023661 0.265350 0.225550 255 220 0
0.099946 0.190021 0.225962 255 220 0
0.024071 0.189901 0.214740 255 220 0
0.064271 0.224969 0.175612 255 220 0
0.106415 0.145629 0.197912 255 220 0
0.064951 0.271528 0.248334 255 220 0
0.085836 0.187146 0.169923 255 220 0
0.071303 0.155664 0.221044 255 220 0
0.092073 0.148894 0.159880 255 220 0
0.047120 0.219369 0.175251 255 220 0
0.048475 0.226752 0.176565 255 220 0
0.043044 0.167629 0.174087 255 220 0
0.026632 0.181531 0.186601 255 220 0
0.083150 0.233313 0.249647 255 220 0
0.029846 0.276178 0.224491 255 220 0
0.068659 0.155989 0.221303 255 220 0
0.072247 0.206708 0.171860 255 220 0
0.075297 0.139333 0.206005 255 220 0
0.037936 0.177726 0.224857 255 220 0
0.031696 0.203429 0.237345 255 220 0
0.048816 0.183834 0.237330 255 220 0
0.096263 0.190984 0.229714 255 220 0
0.040133 0.156643 0.199581 255 220 0
0.024923 0.179099 0.199897 255 220 0
0.056869 0.247159 0.255492 255 220 0
0.110710 0.206418 0.212658 255 220 0
0.075603 0.224739 0.177629 255 220 0
0.114273 0.137663 0.166521 255 220 0
0.037312 0.215537 0.246612 255 220 0
0.050404 0.163434 0.222589 255 220 0
0.057704 0.262378 0.188910 255 220 0
0.055078 0.271346 0.250346 255 220 0
0.025413 0.193693 0.185512 255 220 0
0.047374 0.153969 0.208390 255 220 0
0.034594 0.213583 0.179482 255 220 0
0.069909 0.131213 0.191695 255 220 0
0.095391 0.229258 0.240548 255 220 0
0.108021 0.166201 0.205056 255 220 0
0.056534 0.287576 0.224089 255 220 0
0.019180 0.207115 0.198998 255 220 0
0.038370 0.227200 0.250344 255 220 0
0.040225 0.178231 0.227559 255 220 0
0.070081 0.279052 0.238698 255 220 0
0.046784 0.269840 0.194819 255 220 0
0.021936 0.251604 0.231126 255 220 0
0.023985 0.257703 0.233756 255 220 0
0.059571 0.287155 0.225665 255 220 0
0.037619 0.159399 0.199538 255 220 0
0.054071 0.144054 0.200235 255 220 0
0.031364 0.271267 0.238599 255 220 0
0.023521 0.237497 0.236092 255 220 0
0.032318 0.224649 0.245366 255 220 0
0.078720 0.147126 0.213418 255 220 0
0.040300 0.214407 0.247986 255 220 0
0.023869 0.181356 0.196088 255 220 0
0.101045 0.205170 0.184651 255 220 0
0.069498 0.270543 0.247167 255 220 0
0.053863 0.184180 0.239341 255 220 0
0.019323 0.211776 0.221752 255 220 0
0.038035 0.162958 0.180420 255 220 0
0.088366 0.177036 0.167616 255 220 0
0.078041 0.146632 0.161555 255 220 0
0.101533 0.226153 0.233663 255 220 0
0.100077 0.156132 0.209551 255 220 0
0.024405 0.267105 0.225798 255 220 0
0.085644 0.188361 0.170215 255 220 0
0.055067 0.244499 0.180968 255 220 0
0.061395 0.280129 0.206871 255 220 0
0.057418 0.218691 0.173347 255 220 0
0.105350 0.138689 0.159048 255 220 0
0.049367 0.180568 0.235313 255 220 0
0.070863 0.280494 0.213959 255 220 0
0.096163 0.133301 0.159498 255 220 0
0.073047 0.254366 0.188423 255 220 0
0.071684 0.158173 0.222964 255 220 0
0.087527 0.268630 0.231393 255 220 0
0.067061 0.270820 0.197651 255 220 0
0.086335 0.270918 0.217952 255 220 0
0.094646 0.202701 0.235823 255 220 0
0.070286 0.138944 0.204643 255 220 0
0.084843 0.183889 0.168721 255 220 0
0.048820 0.249282 0.183247 255 220 0
0.113978 0.161067 0.180964 255 220 0
0.067535 0.139491 0.167885 255 220 0
0.105775 0.237167 0.213011 255 220 0
0.053477 0.265577 0.252352 255 220 0
0.065615 0.154211 0.164965 255 220 0
0.107787 0.194454 0.188632 255 220 0
0.107034 0.203391 0.222113 255 220 0
0.105647 0.179800 0.178649 255 220 0
0.107336 0.226537 0.221695 255 220 0
0.025953 0.241241 0.239802 255 220 0
0.067076 0.268697 0.249100 255 220 0
0.072911 0.270073 0.245815 255 220 0
0.059194 0.221222 0.174007 255 220 0
0.091046 0.192907 0.234456 255 220 0
0.025687 0.218862 0.186724 255 220 0
0.105363 0.202335 0.224565 255 220 0
0.088324 0.259562 0.202388 255 220 0
0.079014 0.146043 0.212454 255 220 0
0.069449 0.213124 0.173072 255 220 0
0.050893 0.278040 0.202568 255 220 0
0.037780 0.173164 0.176670 255 220 0
0.055605 0.280926 0.243690 255 220 0
0.070943 0.224355 0.253731 255 220 0
0.076921 0.275259 0.210224 255 220 0
0.050099 0.160590 0.219627 255 220 0
0.068328 0.250017 0.184910 255 220 0
0.062609 0.262669 0.252491 255 220 0
0.034596 0.245198 0.248812 255 220 0
0.021558 0.193074 0.210701 255 220 0
0.056893 0.180894 0.167090 255 220 0
0.043981 0.189284 0.171991 255 220 0
0.091454 0.149899 0.211502 255 220 0
0.038336 0.277208 0.207137 255 220 0
0.088100 0.269396 0.227232 255 220 0
0.082218 0.268240 0.240121 255 220 0
0.058164 0.173143 0.232960 255 220 0
0.039871 0.250949 0.251580 255 220 0
0.054904 0.244831 0.181086 255 220 0
0.110239 0.144139 0.162226 255 220 0
0.035217 0.240608 0.185365 255 220 0
0.091213 0.252661 0.239806 255 220 0
0.079705 0.211916 0.174937 255 220 0
0.034003 0.174629 0.216578 255 220 0
0.077250 0.144382 0.161881 255 220 0
0.033274 0.205415 0.239825 255 220 0
0.070159 0.192992 0.168692 255 220 0
0.030916 0.167491 0.197669 255 220 0
0.071684 0.269339 0.246885 255 220 0
0.110578 0.215182 0.210118 255 220 0
0.021999 0.232733 0.233254 255 220 0
0.022584 0.262370 0.216559 255 220 0
0.099146 0.189981 0.226715 255 220 0
0.056877 0.173915 0.233220 255 220 0
0.020933 0.250252 0.208277 255 220 0
0.025154 0.183618 0.188442 255 220 0
0.076985 0.279237 0.222705 255 220 0
0.023291 0.199223 0.222502 255 220 0
0.056590 0.161297 0.223636 255 220 0
0.070702 0.261528 0.250513 255 220 0
0.050725 0.148861 0.204407 255 220 0
0.112981 0.163101 0.191930 255 220 0
0.049810 0.174466 0.169247 255 220 0
0.095054 0.178926 0.170728 255 220 0
0.064397 0.211279 0.251967 255 220 0
0.091505 0.130251 0.194272 255 220 0
0.085973 0.170133 0.165188 255 220 0
0.098165 0.160237 0.213275 255 220 0
0.017274 0.212563 0.209808 255 220 0
0.030401 0.236171 0.187166 255 220 0
0.035485 0.241705 0.249648 255 220 0
0.073297 0.261440 0.192791 255 220 0
0.059122 0.165692 0.227831 255 220 0
0.033599 0.176414 0.217967 255 220 0
0.045263 0.243232 0.254215 255 220 0
0.077143 0.234086 0.181208 255 220 0
0.022933 0.190995 0.212878 255 220 0
0.093344 0.187701 0.173177 255 220 0
0.109378 0.208739 0.198012 255 220 0
0.085203 0.203397 0.174383 255 220 0
0.033265 0.178670 0.179346 255 220 0
0.073655 0.238439 0.253795 255 220 0
0.026849 0.183037 0.185619 255 220 0
0.066166 0.245108 0.182524 255 220 0
0.039617 0.216077 0.248133 255 220 0
0.080499 0.227113 0.250815 255 220 0
0.054995 0.213345 0.252539 255 220 0
0.101038 0.248622 0.212768 255 220 0
0.035906 0.235229 0.249783 255 220 0
0.031533 0.171982 0.183649 255 220 0
0.108291 0.198633 0.191277 255 220 0
0.023527 0.237067 0.194622 255 220 0
0.028263 0.246955 0.193045 255 220 0
0.104570 0.220168 0.194998 255 220 0
0.073913 0.281121 0.224050 255 220 0
0.095878 0.225633 0.239979 255 220 0
0.103831 0.173488 0.173328 255 220 0
0.072553 0.152943 0.162974 255 220 0
0.049636 0.250329 0.254654 255 220 0
0.061228 0.197011 0.246806 255 220 0
0.060153 0.140040 0.172838 255 220 0
0.028613 0.263036 0.201497 255 220 0
0.062713 0.209378 0.251497 255 220 0
0.087603 0.260438 0.239740 255 220 0
0.104845 0.194260 0.184346 255 220 0
0.113695 0.134945 0.167156 255 220 0
0.092718 0.209560 0.239543 255 220 0
0.105641 0.126072 0.171008 255 220 0
0.091286 0.169372 0.165962 255 220 0
0.035261 0.255039 0.190843 255 220 0
0.097753 0.189495 0.227779 255 220 0
0.032003 0.207980 0.180340 255 220 0
0.023902 0.196917 0.187435 255 220 0
0.070849 0.138208 0.166501 255 220 0
0.093585 0.162089 0.164062 255 220 0
0.027735 0.187852 0.183342 255 220 0
0.031382 0.231423 0.185027 255 220 0
0.044743 0.286663 0.227647 255 220 0
0.108283 0.128531 0.167650 255 220 0
0.071132 0.266148 0.195351 255 220 0
0.114162 0.160547 0.181385 255 220 0
0.066600 0.231554 0.255173 255 220 0
0.103289 0.223601 0.231162 255 220 0
0.039608 0.212959 0.247157 255 220 0
0.108698 0.195764 0.190954 255 220 0
0.113245 0.149601 0.167732 255 220 0
0.108847 0.194161 0.214230 255 220 0
0.102985 0.158218 0.207991 255 220 0
0.047360 0.192566 0.170804 255 220 0
0.056659 0.265138 0.190516 255 220 0
0.058766 0.242273 0.180457 255 220 0
0.111172 0.205956 0.209340 255 220 0
0.024800 0.225603 0.189039 255 220 0
0.064292 0.263730 0.190932 255 220 0
0.110930 0.169175 0.199610 255 220 0
0.038093 0.169959 0.217298 255 220 0
0.056483 0.235770 0.178094 255 220 0
0.025644 0.191371 0.185447 255 220 0
0.102361 0.232925 0.199296 255 220 0
0.020991 0.195779 0.212041 255 220 0
0.099534 0.220125 0.235842 255 220 0
0.070396 0.188010 0.167773 255 220 0
0.026872 0.260229 0.201877 255 220 0
0.026678 0.240791 0.240799 255 220 0
0.106594 0.210628 0.193399 255 220 0
0.081559 0.162659 0.163276 255 220 0
0.071957 0.127856 0.174002 255 220 0
0.027209 0.178686 0.207973 255 220 0
0.047446 0.240166 0.254756 255 220 0
0.074381 0.215596 0.251039 255 220 0
0.098276 0.219941 0.237135 255 220 0
0.020340 0.197577 0.196333 255 220 0
0.106873 0.232110 0.219615 255 220 0
0.106580 0.132542 0.188105 255 220 0
0.028944 0.198902 0.231552 255 220 0
0.108733 0.222399 0.218280 255 220 0
0.027965 0.267894 0.207453 255 220 0
0.070260 0.170332 0.164696 255 220 0
0.037958 0.269605 0.246112 255 220 0
0.019870 0.199178 0.198144 255 220 0
0.072417 0.206060 0.248743 255 220 0
0.050521 0.227714 0.254775 255 220 0
0.049438 0.274289 0.248741 255 220 0
0.079037 0.272139 0.239764 255 220 0
0.056117 0.145933 0.206166 255 220 0
0.063653 0.145636 0.210543 255 220 0
0.099431 0.211958 0.234534 255 220 0
0.096700 0.235212 0.193744 255 220 0
0.088137 0.173509 0.166501 255 220 0
0.038990 0.185584 0.232274 255 220 0
0.050571 0.182059 0.168878 255 220 0
0.073602 0.278060 0.237039 255 220 0
0.109958 0.139509 0.161428 255 220 0
0.108947 0.219426 0.218680 255 220 0
0.071291 0.144636 0.211226 255 220 0
0.055081 0.195780 0.169121 255 220 0
0.060452 0.207938 0.251084 255 220 0
0.051261 0.202337 0.248002 255 220 0
0.051839 0.173396 0.231266 255 220 0
0.033988 0.279836 0.219342 255 220 0
0.094592 0.258735 0.211898 255 220 0
0.095602 0.129390 0.191734 255 220 0
0.017075 0.215604 0.206978 255 220 0
0.036989 0.191274 0.234732 255 220 0
0.040187 0.243478 0.252389 255 220 0
0.108943 0.166517 0.173955 255 220 0
0.111684 0.166955 0.179278 255 220 0
0.088212 0.208895 0.242440 255 220 0
0.021678 0.242339 0.232364 255 220 0
0.097738 0.248373 0.233708 255 220 0
0.017234 0.230188 0.207039 255 220 0
0.021671 0.200688 0.219921 255 220 0
0.089351 0.169977 0.165717 255 220 0
0.021524 0.258890 0.223976 255 220 0
0.068328 0.131475 0.190876 255 220 0
0.050281 0.152830 0.210384 255 220 0
0.085475 0.133525 0.199394 255 220 0
0.018312 0.218570 0.221807 255 220 0
0.093105 0.255773 0.204755 255 220 0
0.039917 0.231475 0.180529 255 220 0
0.031870 0.278422 0.223112 255 220 0
0.083342 0.236278 0.249372 255 220 0
0.053462 0.233976 0.177620 255 220 0
0.110269 0.203293 0.213838 255 220 0
0.085183 0.169970 0.226698 255 220 0
0.049117 0.247646 0.254765 255 220 0
0.091352 0.181413 0.170044 255 220 0
0.107249 0.229624 0.220127 255 220 0
0.030516 0.223885 0.243509 255 220 0
0.021182 0.205638 0.192616 255 220 0
0.066151 0.134852 0.171539 255 220 0
0.101633 0.244577 0.228440 255 220 0
0.095124 0.155455 0.212799 255 220 0
0.048802 0.151809 0.206799 255 220 0
0.026689 0.201751 0.230399 255 220 0
0.026268 0.252903 0.239086 255 220 0
0.022127 0.214602 0.229663 255 220 0
0.111158 0.187222 0.199883 255 220 0
0.036225 0.281845 0.220747 255 220 0
0.083170 0.132543 0.198322 255 220 0
0.060576 0.160037 0.166169 255 220 0
0.063024 0.247025 0.255336 255 220 0
0.101643 0.124434 0.172333 255 220 0
0.024503 0.265663 0.213309 255 220 0
0.068230 0.152262 0.164260 255 220 0
0.048760 0.226379 0.176405 255 220 0
0.100863 0.130255 0.189940 255 220 0
0.085344 0.272682 0.224181 255 220 0
0.044512 0.282968 0.239167 255 220 0
0.080586 0.145002 0.211340 255 220 0
0.070672 0.135500 0.167938 255 220 0
0.072761 0.201109 0.170635 255 220 0
0.037529 0.174477 0.176590 255 220 0
0.018007 0.225097 0.222461 255 220 0
0.106283 0.225805 0.201421 255 220 0
0.103493 0.143556 0.199441 255 220 0
0.093988 0.260037 0.212835 255 220 0
0.071948 0.249806 0.252894 255 220 0
0.052491 0.170211 0.229196 255 220 0
0.113390 0.164846 0.185999 255 220 0
0.088711 0.210045 0.178102 255 220 0
0.019724 0.249950 0.214272 255 220 0
0.079327 0.202687 0.172253 255 220 0
0.081821 0.124111 0.171956 255 220 0
0.056921 0.230406 0.176472 255 220 0
0.019368 0.200725 0.210486 255 220 0
0.078223 0.155903 0.162283 255 220 0
0.034267 0.233914 0.248438 255 220 0
0.058617 0.166416 0.166341 255 220 0
0.104629 0.240455 0.221355 255 220 0
0.103268 0.245141 0.220550 255 220 0
0.048737 0.254204 0.185256 255 220 0
0.037297 0.239672 0.183958 255 220 0
0.026049 0.177507 0.191111 255 220 0
0.106667 0.210159 0.193303 255 220 0
0.060185 0.134551 0.178930 255 220 0
0.052686 0.250257 0.255024 255 220 0
0.070613 0.282777 0.227108 255 220 0
0.108219 0.187430 0.186503 255 220 0
0.052645 0.172053 0.168188 255 220 0
0.032982 0.175208 0.215572 255 220 0
0.048410 0.209500 0.249837 255 220 0
0.091717 0.129561 0.162141 255 220 0
0.098421 0.128453 0.162560 255 220 0
0.071609 0.271221 0.200406 255 220 0
0.090106 0.169800 0.223880 255 220 0
0.032665 0.250247 0.190522 255 220 0
0.112192 0.164991 0.178633 255 220 0
0.031378 0.189024 0.227060 255 220 0
0.041183 0.226435 0.251707 255 220 0
0.021566 0.254439 0.209848 255 220 0
0.082833 0.140263 0.206772 255 220 0
0.094074 0.226441 0.187392 255 220 0
0.070824 0.187374 0.241245 255 220 0
0.082079 0.140071 0.206679 255 220 0
0.042583 0.186868 0.172561 255 220 0
0.072979 0.182023 0.166821 255 220 0
0.061769 0.162674 0.165542 255 220 0
0.038700 0.175030 0.175610 255 220 0
0.030423 0.173398 0.184545 255 220 0
0.045087 0.285460 0.218876 255 220 0
0.018901 0.203849 0.202181 255 220 0
0.030267 0.266134 0.240310 255 220 0
0.077749 0.249225 0.187795 255 220 0
0.081802 0.140221 0.160740 255 220 0
0.045774 0.185299 0.236804 255 220 0
0.026268 0.194396 0.184416 255 220 0
0.094016 0.167833 0.166132 255 220 0
0.089125 0.193101 0.235842 255 220 0
0.043985 0.248685 0.253519 255 220 0
0.066202 0.255221 0.186735 255 220 0
0.051067 0.179285 0.235142 255 220 0
0.110713 0.200619 0.198745 255 220 0
0.028988 0.201026 0.181911 255 220 0
0.111246 0.206091 0.208317 255 220 0
0.052732 0.199491 0.247142 255 220 0
0.038109 0.161092 0.181687 255 220 0
0.021938 0.260750 0.223153 255 220 0
0.023188 0.236772 0.235528 255 220 0
0.076709 0.189681 0.240673 255 220 0
0.091929 0.144384 0.207478 255 220 0
0.114645 0.156936 0.177399 255 220 0
0.063735 0.274987 0.246521 255 220 0
0.022641 0.193363 0.214938 255 220 0
0.044081 0.190110 0.239042 255 220 0
0.091099 0.126863 0.189263 255 220 0
0.019534 0.237218 0.202716 255 220 0
0.114513 0.134376 0.178835 255 220 0
0.098501 0.179823 0.172885 255 220 0
0.104571 0.227829 0.228487 255 220 0
0.026582 0.230589 0.188643 255 220 0
0.065854 0.180004 0.166221 255 220 0
0.087936 0.173313 0.227009 255 220 0
0.092879 0.241708 0.193714 255 220 0
0.066739 0.284582 0.222765 255 220 0
0.053473 0.237234 0.178608 255 220 0
0.111787 0.174692 0.189583 255 220 0
0.106155 0.190047 0.184324 255 220 0
0.072397 0.207452 0.249219 255 220 0
0.097057 0.148315 0.159619 255 220 0
0.067019 0.134931 0.197078 255 220 0
0.034291 0.175913 0.218478 255 220 0
0.066494 0.181072 0.238455 255 220 0
0.028463 0.267690 0.206313 255 220 0
0.020398 0.224684 0.229027 255 220 0
0.079199 0.262678 0.245842 255 220 0
0.067200 0.248645 0.254460 255 220 0
0.019320 0.206363 0.217634 255 220 0
0.031287 0.273414 0.209572 255 220 0
0.041504 0.206233 0.245826 255 220 0
0.107987 0.219306 0.221896 255 220 0
0.079116 0.172157 0.230531 255 220 0
0.017520 0.212077 0.206176 255 220 0
0.112617 0.169415 0.188863 255 220 0
0.095306 0.124643 0.183899 255 220 0
0.091384 0.124730 0.184806 255 220 0
0.088883 0.153135 0.161127 255 220 0
0.052375 0.278172 0.202595 255 220 0
0.045140 0.284413 0.215906 255 220 0
0.079392 0.211358 0.248002 255 220 0
0.066019 0.273286 0.199729 255 220 0
0.031785 0.269644 0.203889 255 220 0
0.074539 0.278877 0.214784 255 220 0
0.021902 0.233178 0.233080 255 220 0
0.075418 0.271972 0.203921 255 220 0
0.087624 0.269984 0.227085 255 220 0
0.054919 0.141555 0.176984 255 220 0
0.086769 0.192387 0.236995 255 220 0
0.060652 0.227144 0.175766 255 220 0
0.085604 0.255829 0.243744 255 220 0
0.084213 0.171081 0.227769 255 220 0
0.114392 0.157135 0.176555 255 220 0
0.100454 0.193191 0.226892 255 220 0
0.018198 0.241665 0.216482 255 220 0
0.096611 0.239250 0.238308 255 220 0
0.073975 0.205164 0.247982 255 220 0
0.056508 0.273613 0.197370 255 220 0
0.081382 0.269234 0.205948 255 220 0
0.028965 0.187732 0.222355 255 220 0
0.050176 0.252331 0.184220 255 220 0
0.068107 0.143324 0.166114 255 220 0
0.116775 0.147766 0.175954 255 220 0
0.044816 0.227586 0.177812 255 220 0
0.102804 0.137042 0.195317 255 220 0
0.042852 0.243818 0.253471 255 220 0
0.111288 0.199471 0.205690 255 220 0
0.094478 0.258465 0.211110 255 220 0
0.093434 0.217253 0.240964 255 220 0
0.036448 0.194754 0.236619 255 220 0
0.035412 0.192587 0.234210 255 220 0
0.042277 0.263336 0.191782 255 220 0
0.110212 0.187084 0.191349 255 220 0
0.051291 0.260750 0.253362 255 220 0
0.043860 0.261585 0.190182 255 220 0
0.066555 0.255802 0.187094 255 220 0
0.090977 0.259955 0.206365 255 220 0
0.035935 0.281976 0.227952 255 220 0
0.040146 0.209271 0.246218 255 220 0
0.026692 0.253541 0.239568 255 220 0
0.072823 0.254879 0.188607 255 220 0
0.071797 0.184398 0.167199 255 220 0
0.074561 0.139509 0.164010 255 220 0
0.096652 0.197289 0.232146 255 220 0
0.111336 0.203353 0.205239 255 220 0
0.042747 0.152774 0.196427 255 220 0
0.105144 0.234405 0.224870 255 220 0
0.018694 0.214721 0.198880 255 220 0
0.053837 0.202664 0.170428 255 220 0
0.110721 0.191441 0.195392 255 220 0
0.040175 0.178871 0.174145 255 220 0
0.048293 0.151594 0.205639 255 220 0
0.039589 0.180680 0.228981 255 220 0
0.023026 0.213074 0.189317 255 220 0
0.060012 0.275979 0.200636 255 220 0
0.035547 0.184998 0.228578 255 220 0
0.033005 0.256668 0.193104 255 220 0
0.067781 0.254345 0.186717 255 220 0
0.023443 0.218511 0.233301 255 220 0
0.040106 0.203722 0.244033 255 220 0
0.061581 0.132853 0.181465 255 220 0
0.108323 0.129045 0.166744 255 220 0
0.110502 0.215806 0.210258 255 220 0
0.060532 0.157691 0.166499 255 220 0
0.054171 0.282337 0.209237 255 220 0
0.081541 0.253209 0.191976 255 220 0
0.051116 0.187477 0.169035 255 220 0
0.046229 0.161387 0.217202 255 220 0
0.050963 0.265807 0.191093 255 220 0
0.031499 0.176968 0.215066 255 220 0
0.106303 0.184202 0.215049 255 220 0
0.076792 0.155478 0.220339 255 220 0
0.072957 0.223596 0.176623 255 220 0
0.052082 0.267039 0.191823 255 220 0
0.045537 0.191047 0.240400 255 220 0
0.069998 0.199411 0.169942 255 220 0
0.111129 0.201300 0.208492 255 220 0
0.101228 0.247096 0.227314 255 220 0
0.069611 0.163183 0.163923 255 220 0
0.060042 0.217935 0.253998 255 220 0
0.087085 0.217170 0.179647 255 220 0
0.100697 0.250406 0.224231 255 220 0
0.090834 0.179851 0.169310 255 220 0
0.019548 0.204039 0.216178 255 220 0
0.100101 0.129601 0.189618 255 220 0
0.042309 0.263298 0.250408 255 220 0
0.044213 0.269806 0.249262 255 220 0
0.058445 0.188845 0.167717 255 220 0
0.091937 0.264446 0.217590 255 220 0
0.048543 0.287568 0.226955 255 220 0
0.047978 0.153609 0.208662 255 220 0
0.093715 0.253037 0.202838 255 220 0
0.089993 0.189988 0.233873 255 220 0
0.053339 0.210922 0.251524 255 220 0
0.059321 0.135945 0.189931 255 220 0
0.078702 0.156944 0.220998 255 220 0
0.084118 0.219160 0.178903 255 220 0
0.073543 0.154378 0.162794 255 220 0
0.030661 0.271817 0.237023 255 220 0
0.089024 0.187402 0.233308 255 220 0
0.027504 0.179391 0.209764 255 220 0
0.072780 0.175273 0.234202 255 220 0
0.103037 0.195880 0.183017 255 220 0
0.052793 0.275114 0.248564 255 220 0
0.031093 0.272914 0.236632 255 220 0
0.026718 0.229111 0.240190 255 220 0
0.094475 0.157758 0.214546 255 220 0
0.071025 0.262072 0.250212 255 220 0
0.095662 0.256965 0.211461 255 220 0
0.030120 0.260970 0.198088 255 220 0
0.110790 0.173388 0.200760 255 220 0
0.053071 0.143499 0.177433 255 220 0
0.100998 0.250414 0.217428 255 220 0
0.042060 0.190443 0.238021 255 220 0
0.021767 0.202022 0.191278 255 220 0
0.116499 0.148739 0.179873 255 220 0
0.085999 0.188108 0.235475 255 220 0
0.082052 0.268446 0.205631 255 220 0
0.030180 0.213970 0.182251 255 220 0
0.106031 0.224429 0.225969 255 220 0
0.097866 0.124113 0.181392 255 220 0
0.111327 0.203110 0.206597 255 220 0
0.086521 0.132329 0.161756 255 220 0
0.066109 0.210540 0.251529 255 220 0
0.030576 0.234984 0.245164 255 220 0
0.102409 0.211042 0.188246 255 220 0
0.024450 0.197189 0.223138 255 220 0
0.091327 0.135312 0.200044 255 220 0
0.092671 0.181342 0.170565 255 220 0
0.068767 0.142996 0.165872 255 220 0
0.065240 0.254025 0.185980 255 220 0
0.071586 0.251675 0.186576 255 220 0
0.069910 0.148887 0.164054 255 220 0
0.066905 0.217846 0.253340 255 220 0
0.054131 0.215506 0.253058 255 220 0
0.098274 0.255601 0.221221 255 220 0
0.071228 0.209397 0.250156 255 220 0
0.095985 0.254769 0.208763 255 220 0
0.089163 0.268512 0.221872 255 220 0
0.037190 0.248467 0.187025 255 220 0
0.084901 0.159825 0.220901 255 220 0
0.093003 0.167083 0.165612 255 220 0
0.033548 0.266365 0.243779 255 220 0
0.056484 0.215916 0.172740 255 220 0
0.048849 0.178599 0.169513 255 220 0
0.040511 0.159246 0.205982 255 220 0
0.104256 0.153717 0.163286 255 220 0
0.110525 0.169777 0.179142 255 220 0
0.070064 0.259348 0.190077 255 220 0
0.030972 0.166824 0.194412 255 220 0
0.095312 0.174361 0.169046 255 220 0
0.033320 0.272046 0.204969 255 220 0
0.101093 0.240578 0.231682 255 220 0
0.072770 0.144483 0.163598 255 220 0
0.021666 0.200948 0.220149 255 220 0
0.017369 0.216801 0.203987 255 220 0
0.114773 0.148943 0.169729 255 220 0
0.073785 0.240349 0.182450 255 220 0
0.053664 0.185958 0.240398 255 220 0
0.073399 0.235192 0.253996 255 220 0
0.065483 0.215531 0.173153 255 220 0
0.053563 0.141198 0.179540 255 220 0
0.079341 0.228932 0.180209 255 220 0
0.055938 0.216726 0.172956 255 220 0
0.038669 0.283256 0.231602 255 220 0
0.098974 0.208271 0.234009 255 220 0
0.113316 0.159578 0.191065 255 220 0
0.084613 0.269115 0.209940 255 220 0
0.074384 0.280853 0.225544 255 220 0
0.044480 0.151245 0.197061 255 220 0
0.097035 0.128872 0.162149 255 220 0
0.090188 0.140679 0.158684 255 220 0
0.100244 0.144064 0.158526 255 220 0
0.076871 0.125294 0.174218 255 220 0
0.058847 0.141486 0.201573 255 220 0
0.048507 0.200125 0.171342 255 220 0
0.102588 0.214346 0.189810 255 220 0
0.061901 0.150143 0.214893 255 220 0
0.034217 0.214342 0.179800 255 220 0
0.075720 0.209165 0.173097 255 220 0
0.112029 0.171947 0.187162 255 220 0
0.110031 0.203413 0.214762 255 220 0
0.079989 0.187701 0.168721 255 220 0
0.046519 0.178173 0.170602 255 220 0
0.084549 0.271429 0.232898 255 220 0
0.105502 0.224568 0.199034 255 220 0
0.043122 0.160974 0.176254 255 220 0
0.037235 0.179307 0.225512 255 220 0
0.087551 0.164302 0.163887 255 220 0
0.058429 0.275911 0.200185 255 220 0
0.042607 0.278430 0.205939 255 220 0
0.021367 0.217664 0.192368 255 220 0
0.112759 0.154151 0.192238 255 220 0
0.080003 0.154704 0.219089 255 220 0
0.044265 0.270826 0.196480 255 220 0
0.072521 0.254995 0.188550 255 220 0
0.100931 0.161494 0.165755 255 220 0
0.098533 0.253974 0.226102 255 220 0
0.095753 0.176969 0.223580 255 220 0
0.098467 0.144348 0.203794 255 220 0
0.048650 0.287508 0.228381 255 220 0
0.076714 0.164465 0.163662 255 220 0
0.084617 0.270366 0.212266 255 220 0
0.033082 0.173950 0.214213 255 220 0
0.084127 0.169595 0.164846 255 220 0
0.038565 0.162003 0.180391 255 220 0
0.089851 0.188415 0.171780 255 220 0
0.076267 0.153910 0.219240 255 220 0
0.095526 0.258501 0.227698 255 220 0
0.031131 0.193918 0.179898 255 220 0
0.105473 0.170309 0.210583 255 220 0
0.036559 0.177183 0.222816 255 220 0
0.065061 0.143190 0.208174 255 220 0
0.109394 0.191292 0.190759 255 220 0
0.081482 0.195014 0.170835 255 220 0
0.022979 0.212619 0.189357 255 220 0
0.030802 0.207314 0.238350 255 220 0
0.051733 0.141866 0.183109 255 220 0
0.104120 0.242132 0.213810 255 220 0
0.100332 0.124513 0.170121 255 220 0
0.088325 0.245084 0.191887 255 220 0
0.095282 0.251415 0.203547 255 220 0
0.095004 0.233699 0.191396 255 220 0
0.050122 0.278422 0.203195 255 220 0
0.027409 0.242665 0.192198 255 220 0
0.044794 0.233942 0.179425 255 220 0
0.059532 0.153128 0.217132 255 220 0
0.094914 0.174830 0.223215 255 220 0
0.114094 0.145645 0.187292 255 220 0
0.089228 0.210620 0.242319 255 220 0
0.051878 0.148158 0.204823 255 220 0
0.024057 0.243073 0.236862 255 220 0
0.062131 0.259468 0.253432 255 220 0
0.064135 0.141027 0.204915 255 220 0
0.043880 0.194657 0.172467 255 220 0
0.086801 0.223157 0.181572 255 220 0
0.039494 0.163300 0.210783 255 220 0
0.037486 0.271512 0.244942 255 220 0
0.101516 0.240217 0.203588 255 220 0
0.091227 0.212917 0.241590 255 220 0
0.090954 0.258647 0.236770 255 220 0
0.111105 0.204562 0.202619 255 220 0
0.031816 0.267908 0.241332 255 220 0
0.095932 0.192451 0.230636 255 220 0
0.045960 0.249687 0.253981 255 220 0
0.113435 0.142178 0.187091 255 220 0
0.107092 0.220597 0.199558 255 220 0
0.019675 0.244012 0.207609 255 220 0
0.063062 0.179091 0.166163 255 220 0
0.108685 0.182551 0.184916 255 220 0
0.094315 0.260541 0.215132 255 220 0
0.090292 0.166542 0.164862 255 220 0
0.057480 0.225160 0.255127 255 220 0
0.104543 0.184266 0.217864 255 220 0
0.084326 0.262227 0.242048 255 220 0
0.030706 0.248576 0.191404 255 220 0
0.090970 0.126237 0.165090 255 220 0
0.087810 0.213672 0.178839 255 220 0
0.055018 0.282732 0.241591 255 220 0
0.100362 0.128623 0.162637 255 220 0
0.043347 0.184463 0.234734 255 220 0
0.090184 0.252367 0.198094 255 220 0
0.017067 0.217219 0.215254 255 220 0
0.079148 0.137908 0.162346 255 220 0
0.101559 0.216053 0.233003 255 220 0
0.101707 0.199933 0.183295 255 220 0
0.084563 0.254884 0.195086 255 220 0
0.034833 0.254935 0.191059 255 220 0
0.084631 0.273115 0.227382 255 220 0
0.024005 0.238472 0.194568 255 220 0
0.023510 0.244910 0.198409 255 220 0
0.047190 0.257654 0.187205 255 220 0
0.037462 0.242233 0.184683 255 220 0
0.026212 0.264766 0.207239 255 220 0
0.071581 0.179938 0.166350 255 220 0
0.082658 0.130641 0.164331 255 220 0
0.073933 0.189062 0.168280 255 220 0
0.081504 0.275440 0.229853 255 220 0
0.104421 0.136073 0.159280 255 220 0
0.028669 0.178872 0.211786 255 220 0
0.048603 0.278471 0.245885 255 220 0
0.102303 0.228822 0.232361 255 220 0
0.109797 0.220292 0.209343 255 220 0
0.075916 0.182778 0.237504 255 220 0
0.109717 0.190136 0.191164 255 220 0
0.112827 0.167896 0.189802 255 220 0
0.087936 0.175804 0.167132 255 220 0
0.076878 0.141730 0.208587 255 220 0
0.066800 0.215513 0.173331 255 220 0
0.041540 0.257837 0.189072 255 220 0
0.074299 0.208688 0.172691 255 220 0
0.022454 0.186680 0.194533 255 220 0
0.095218 0.184915 0.173133 255 220 0
0.080510 0.179118 0.166741 255 220 0
0.040618 0.196431 0.174224 255 220 0
0.087222 0.149136 0.212830 255 220 0
0.059075 0.239948 0.255753 255 220 0
0.106645 0.233750 0.211240 255 220 0
0.065910 0.221675 0.174903 255 220 0
0.048825 0.147984 0.199199 255 220 0
0.042504 0.151678 0.190240 255 220 0
0.054344 0.218293 0.173464 255 220 0
0.095529 0.220266 0.239754 255 220 0
0.016646 0.225279 0.214524 255 220 0
0.020308 0.198108 0.212167 255 220 0
0.021700 0.223457 0.231480 255 220 0
0.060491 0.183342 0.166852 255 220 0
0.086185 0.270664 0.216641 255 220 0
0.065497 0.174054 0.165401 255 220 0
0.059232 0.250403 0.255239 255 220 0
0.102770 0.225892 0.195578 255 220 0
0.029799 0.194695 0.229609 255 220 0
0.017799 0.238537 0.217297 255 220 0
0.044865 0.159610 0.175375 255 220 0
0.043517 0.163292 0.216437 255 220 0
0.083064 0.188079 0.169433 255 220 0
0.099664 0.208289 0.233349 255 220 0
0.111454 0.170594 0.182522 255 220 0
0.051564 0.256893 0.186084 255 220 0
0.088637 0.130979 0.195828 255 220 0
0.096138 0.250580 0.234814 255 220 0
0.096345 0.204226 0.180671 255 220 0
0.047718 0.170755 0.170662 255 220 0
0.089234 0.122458 0.174374 255 220 0
0.092148 0.126303 0.188056 255 220 0
0.042005 0.281881 0.239075 255 220 0
0.078734 0.227519 0.251686 255 220 0
0.017981 0.226020 0.201627 255 220 0
0.096037 0.203299 0.180141 255 220 0
0.058010 0.246773 0.181994 255 220 0
0.056214 0.257626 0.186334 255 220 0
0.095661 0.241773 0.196509 255 220 0
0.062999 0.277958 0.204232 255 220 0
0.111572 0.177537 0.196519 255 220 0
0.087075 0.222534 0.246470 255 220 0
0.035204 0.189884 0.232062 255 220 0
0.062462 0.284562 0.216357 255 220 0
0.052091 0.204074 0.248860 255 220 0
0.110444 0.198034 0.196720 255 220 0
0.092635 0.236035 0.242684 255 220 0
0.080065 0.136075 0.202609 255 220 0
0.090898 0.143946 0.158870 255 220 0
0.090707 0.220600 0.182891 255 220 0
0.035493 0.194836 0.235828 255 220 0
0.097685 0.125656 0.184974 255 220 0
0.043298 0.162223 0.214854 255 220 0
0.108184 0.202605 0.219521 255 220 0
0.025633 0.206617 0.185478 255 220 0
0.018382 0.217717 0.221708 255 220 0
0.104057 0.158051 0.206787 255 220 0
0.062646 0.236863 0.255682 255 220 0
0.035090 0.271916 0.242648 255 220 0
0.029671 0.177245 0.211838 255 220 0
0.064339 0.216465 0.253386 255 220 0
0.064301 0.214220 0.172665 255 220 0
0.104055 0.242254 0.221770 255 220 0
0.108302 0.201091 0.218700 255 220 0
0.020194 0.203455 0.218089 255 220 0
0.055526 0.149847 0.171324 255 220 0
0.026676 0.215204 0.185242 255 220 0
0.075799 0.206057 0.247684 255 220 0
0.042810 0.161799 0.213658 255 220 0
0.042911 0.152533 0.183203 255 220 0
0.063989 0.221847 0.174674 255 220 0
0.024628 0.257761 0.235036 255 220 0
0.067865 0.241202 0.255083 255 220 0
0.019940 0.214414 0.224801 255 220 0
0.043063 0.165635 0.218613 255 220 0
0.033687 0.196110 0.234975 255 220 0
0.034008 0.279107 0.216680 255 220 0
0.099126 0.125640 0.166265 255 220 0
0.066309 0.129871 0.182041 255 220 0
0.094285 0.123303 0.180363 255 220 0
0.068770 0.212060 0.172701 255 220 0
0.095586 0.243986 0.197885 255 220 0
0.089902 0.262010 0.207394 255 220 0
0.050524 0.279575 0.245223 255 220 0
0.042796 0.281240 0.210590 255 220 0
0.107335 0.133677 0.161468 255 220 0
0.071428 0.229881 0.254264 255 220 0
0.023056 0.217904 0.189725 255 220 0
0.059512 0.153083 0.217080 255 220 0
0.107406 0.225752 0.221818 255 220 0
0.037788 0.282626 0.219719 255 220 0
0.098900 0.158042 0.211529 255 220 0
0.018037 0.217645 0.220447 255 220 0
0.109648 0.188796 0.190408 255 220 0
0.053030 0.156655 0.217528 255 220 0
0.097097 0.230352 0.238849 255 220 0
0.051159 0.205260 0.249103 255 220 0
0.067933 0.250269 0.254037 255 220 0
0.031120 0.167393 0.189279 255 220 0
0.094895 0.260849 0.220411 255 220 0
0.107676 0.230444 0.211992 255 220 0
0.053544 0.275968 0.248041 255 220 0
0.090706 0.229954 0.186477 255 220 0
0.090579 0.135990 0.159188 255 220 0
0.041307 0.186358 0.234681 255 220 0
0.086771 0.228336 0.183424 255 220 0
0.056325 0.212877 0.252539 255 220 0
0.095119 0.166162 0.218703 255 220 0
0.095416 0.240803 0.195642 255 220 0
0.042083 0.153833 0.197541 255 220 0
0.068958 0.251901 0.185901 255 220 0
0.070704 0.274583 0.203819 255 220 0
0.079410 0.167305 0.164153 255 220 0
0.037594 0.184636 0.175461 255 220 0
0.057329 0.142996 0.173362 255 220 0
0.098024 0.189437 0.176537 255 220 0
0.048148 0.206645 0.248765 255 220 0
0.066178 0.141960 0.207084 255 220 0
0.036747 0.280263 0.214567 255 220 0
0.077380 0.252862 0.189519 255 220 0
0.030295 0.246491 0.190927 255 220 0
0.093734 0.196989 0.234294 255 220 0
0.024177 0.193472 0.219010 255 220 0
0.108248 0.133123 0.187066 255 220 0
0.076711 0.268288 0.200656 255 220 0
0.096326 0.184052 0.226449 255 220 0
0.101069 0.208060 0.185761 255 220 0
0.023725 0.187909 0.211193 255 220 0
0.110334 0.188370 0.192428 255 220 0
0.106801 0.189777 0.216646 255 220 0
0.107672 0.224422 0.203760 255 220 0
0.040027 0.261906 0.191879 255 220 0
0.050329 0.147492 0.201031 255 220 0
0.073846 0.217654 0.175076 255 220 0
0.021660 0.224135 0.192822 255 220 0
0.068215 0.241475 0.181546 255 220 0
0.079432 0.180579 0.166970 255 220 0
0.064720 0.282232 0.212331 255 220 0
0.070465 0.282889 0.223272 255 220 0
0.069731 0.256635 0.188443 255 220 0
0.093178 0.206517 0.238248 255 220 0
0.100993 0.192227 0.179796 255 220 0
0.095648 0.259250 0.225087 255 220 0
0.057204 0.263281 0.252967 255 220 0
0.045813 0.271203 0.249289 255 220 0
0.111185 0.192041 0.200221 255 220 0
0.103812 0.218963 0.230297 255 220 0
0.017191 0.231912 0.217673 255 220 0
0.110061 0.199748 0.196021 255 220 0
0.018898 0.207342 0.200264 255 220 0
0.031322 0.247984 0.245717 255 220 0
0.027518 0.192457 0.224455 255 220 0
0.048887 0.249010 0.183131 255 220 0
0.074688 0.170262 0.230734 255 220 0
0.021723 0.254246 0.209062 255 220 0
0.058868 0.173192 0.233125 255 220 0
0.085013 0.198878 0.240739 255 220 0
0.026423 0.200969 0.229485 255 220 0
0.098859 0.243344 0.201735 255 220 0
0.021082 0.192232 0.206997 255 220 0
0.085528 0.132649 0.198331 255 220 0
0.102470 0.131670 0.160728 255 220 0
0.029747 0.232143 0.244062 255 220 0
0.109456 0.214817 0.217797 255 220 0
0.095018 0.213432 0.183041 255 220 0
0.065374 0.246172 0.182790 255 220 0
0.106289 0.134442 0.160550 255 220 0
0.047712 0.188848 0.240091 255 220 0
0.107337 0.130109 0.164320 255 220 0
0.022405 0.194731 0.190482 255 220 0
0.081460 0.133919 0.200065 255 220 0
0.041768 0.163517 0.176357 255 220 0
0.110600 0.191613 0.194866 255 220 0
0.101299 0.149392 0.160375 255 220 0
0.101198 0.156935 0.163776 255 220 0
0.060302 0.250471 0.255191 255 220 0
0.108334 0.196401 0.216592 255 220 0
