ply
format ascii 1.0
element vertex 1024
property float x
property float y
property float z
property uchar red
property uchar green
property uchar blue
end_header
0.565144 0.223992 0.415913 255 220 0
0.563566 0.185394 0.377602 255 220 0
0.565476 0.198302 0.366282 255 220 0
0.563602 0.284057 0.442146 255 220 0
0.545340 0.243283 0.358078 255 220 0
0.517247 0.222990 0.366367 255 220 0
0.567552 0.241477 0.423473 255 220 0
0.548750 0.218272 0.424236 255 220 0
0.517629 0.188794 0.369818 255 220 0
0.521813 0.196458 0.418304 255 220 0
0.539162 0.216579 0.356159 255 220 0
0.532203 0.151888 0.395524 255 220 0
0.578274 0.236590 0.402876 255 220 0
0.496406 0.262880 0.427411 255 220 0
0.575468 0.293261 0.423056 255 220 0
0.537892 0.302018 0.381409 255 220 0
0.508100 0.234124 0.376614 255 220 0
0.530119 0.154155 0.401162 255 220 0
0.515576 0.315566 0.411350 255 220 0
0.555252 0.198953 0.408875 255 220 0
0.563909 0.317403 0.419500 255 220 0
0.504033 0.284738 0.439975 255 220 0
0.540833 0.154688 0.390043 255 220 0
0.535358 0.222017 0.356785 255 220 0
0.507784 0.206285 0.380679 255 220 0
0.502214 0.297430 0.423560 255 220 0
0.535531 0.324251 0.438661 255 220 0
0.582124 0.254629 0.387424 255 220 0
0.540132 0.322579 0.403234 255 220 0
0.518964 0.203533 0.366282 255 220 0
0.501668 0.288123 0.400881 255 220 0
0.582561 0.242816 0.389740 255 220 0
0.506686 0.200697 0.406456 255 220 0
0.562451 0.196682 0.363991 255 220 0
0.502891 0.221350 0.388452 255 220 0
0.549771 0.188217 0.407359 255 220 0
0.579067 0.267309 0.415871 255 220 0
0.513534 0.287292 0.447783 255 220 0
0.550815 0.231068 0.429853 255 220 0
0.546414 0.328772 0.419718 255 220 0
0.569633 0.259496 0.370011 255 220 0
0.525042 0.162899 0.374255 255 220 0
0.561957 0.256013 0.434758 255 220 0
0.547389 0.182315 0.406038 255 220 0
0.578343 0.275584 0.389416 255 220 0
0.529674 0.248940 0.361052 255 220 0
0.516087 0.310839 0.402507 255 220 0
0.572103 0.294252 0.395931 255 220 0
0.548328 0.225845 0.356433 255 220 0
0.543166 0.328174 0.413740 255 220 0
0.516720 0.157439 0.390907 255 220 0
0.573865 0.298608 0.424127 255 220 0
0.568422 0.216206 0.407451 255 220 0
0.541426 0.155924 0.394012 255 220 0
0.552209 0.286277 0.449164 255 220 0
0.506664 0.191309 0.395129 255 220 0
0.563829 0.274134 0.440085 255 220 0
0.502775 0.262154 0.438224 255 220 0
0.498346 0.281356 0.430464 255 220 0
0.581528 0.234112 0.384870 255 220 0
0.532204 0.306056 0.385447 255 220 0
0.543248 0.328360 0.430373 255 220 0
0.526786 0.246910 0.361790 255 220 0
0.510614 0.276422 0.446288 255 220 0
0.543893 0.213606 0.423901 255 220 0
0.513902 0.281386 0.379139 255 220 0
0.540083 0.186308 0.412382 255 220 0
0.516906 0.232670 0.366622 255 220 0
0.503600 0.245305 0.433576 255 220 0
0.557491 0.236282 0.428464 255 220 0
0.523952 0.213352 0.361813 255 220 0
0.519946 0.280626 0.374418 255 220 0
0.551654 0.269018 0.365015 255 220 0
0.540103 0.291095 0.374050 255 220 0
0.528844 0.295494 0.378371 255 220 0
0.559579 0.278228 0.444149 255 220 0
0.552901 0.325090 0.428754 255 220 0
0.576899 0.286200 0.397043 255 220 0
0.508543 0.227078 0.428626 255 220 0
0.504000 0.279546 0.440938 255 220 0
0.505308 0.303717 0.427373 255 220 0
0.509215 0.197592 0.379980 255 220 0
0.506570 0.279364 0.386368 255 220 0
0.555068 0.246267 0.360193 255 220 0
0.524990 0.178396 0.367011 255 220 0
0.577875 0.275237 0.388140 255 220 0
0.509792 0.308151 0.410403 255 220 0
0.515146 0.180529 0.408734 255 220 0
0.579054 0.262815 0.383626 255 220 0
0.559783 0.183061 0.392164 255 220 0
0.533959 0.158847 0.374339 255 220 0
0.537214 0.258506 0.361353 255 220 0
0.542051 0.285372 0.370847 255 220 0
0.540483 0.306400 0.385177 255 220 0
0.560181 0.232008 0.424482 255 220 0
0.533998 0.209255 0.424273 255 220 0
0.574712 0.267206 0.424850 255 220 0
0.560506 0.220459 0.359583 255 220 0
0.557893 0.259802 0.438875 255 220 0
0.534837 0.250946 0.444088 255 220 0
0.540600 0.274534 0.450677 255 220 0
0.499384 0.224684 0.406190 255 220 0
0.498155 0.268556 0.397563 255 220 0
0.520737 0.165139 0.376070 255 220 0
0.495800 0.268387 0.405471 255 220 0
0.507899 0.226133 0.427541 255 220 0
0.562603 0.213265 0.411421 255 220 0
0.537478 0.179643 0.410856 255 220 0
0.556892 0.226056 0.423518 255 220 0
0.578281 0.272763 0.387406 255 220 0
0.501864 0.279448 0.393724 255 220 0
0.566751 0.312194 0.427049 255 220 0
0.509683 0.212782 0.376048 255 220 0
0.520336 0.300521 0.448641 255 220 0
0.531991 0.295813 0.452124 255 220 0
0.536701 0.235697 0.436908 255 220 0
0.534634 0.275533 0.451594 255 220 0
0.562705 0.312564 0.434195 255 220 0
0.537647 0.263126 0.362419 255 220 0
0.543428 0.319998 0.400079 255 220 0
0.559339 0.308023 0.441010 255 220 0
0.537176 0.299482 0.379511 255 220 0
0.504620 0.201949 0.399535 255 220 0
0.524517 0.189993 0.416468 255 220 0
0.502986 0.211395 0.393098 255 220 0
0.573886 0.224464 0.404708 255 220 0
0.562513 0.232022 0.360616 255 220 0
0.516129 0.273258 0.374097 255 220 0
0.513190 0.300272 0.394069 255 220 0
0.535724 0.247382 0.359355 255 220 0
0.543793 0.322883 0.404030 255 220 0
0.564029 0.188389 0.388359 255 220 0
0.536388 0.221710 0.356551 255 220 0
0.501391 0.280331 0.437434 255 220 0
0.561617 0.317910 0.411135 255 220 0
0.499013 0.232091 0.396655 255 220 0
0.565061 0.256441 0.366198 255 220 0
0.559740 0.244611 0.431071 255 220 0
0.509799 0.181563 0.385257 255 220 0
0.515457 0.318260 0.422596 255 220 0
0.545023 0.205044 0.418999 255 220 0
0.523001 0.215718 0.362282 255 220 0
0.544941 0.168957 0.401657 255 220 0
0.573082 0.247213 0.419204 255 220 0
0.571499 0.252806 0.424131 255 220 0
0.574913 0.210230 0.382818 255 220 0
0.580385 0.233887 0.377377 255 220 0
0.498951 0.283586 0.404748 255 220 0
0.557904 0.322789 0.422044 255 220 0
0.524908 0.217163 0.361083 255 220 0
0.555158 0.225940 0.424626 255 220 0
0.528674 0.193900 0.361487 255 220 0
0.547444 0.247443 0.359021 255 220 0
0.545493 0.275653 0.366500 255 220 0
0.531403 0.254360 0.361487 255 220 0
0.499561 0.236332 0.393448 255 220 0
0.560747 0.217267 0.359820 255 220 0
0.573277 0.240056 0.367526 255 220 0
0.516279 0.307535 0.398210 255 220 0
0.499641 0.232523 0.420343 255 220 0
0.549651 0.240979 0.435264 255 220 0
0.523059 0.155394 0.401070 255 220 0
0.535796 0.287345 0.372272 255 220 0
0.538598 0.230687 0.356609 255 220 0
0.558002 0.281991 0.445877 255 220 0
0.521868 0.323203 0.416592 255 220 0
0.582502 0.242713 0.385636 255 220 0
0.549482 0.217200 0.356613 255 220 0
0.579939 0.250323 0.406891 255 220 0
0.541516 0.182289 0.361327 255 220 0
0.494975 0.270705 0.412954 255 220 0
0.504892 0.199924 0.396009 255 220 0
0.537854 0.320186 0.442866 255 220 0
0.579428 0.262449 0.384242 255 220 0
0.533099 0.297521 0.378616 255 220 0
0.543989 0.248369 0.358968 255 220 0
0.517813 0.316452 0.435517 255 220 0
0.563088 0.295098 0.442386 255 220 0
0.558911 0.311559 0.397892 255 220 0
0.555912 0.316648 0.401555 255 220 0
0.534487 0.319514 0.443172 255 220 0
0.562839 0.220280 0.360500 255 220 0
0.548992 0.202766 0.357650 255 220 0
0.547678 0.326281 0.411619 255 220 0
0.553999 0.303276 0.386340 255 220 0
0.540826 0.295366 0.376729 255 220 0
0.521674 0.202294 0.364306 255 220 0
0.532565 0.286062 0.372185 255 220 0
0.576576 0.240056 0.370661 255 220 0
0.524676 0.220197 0.430378 255 220 0
0.512614 0.315067 0.424769 255 220 0
0.526229 0.253680 0.363040 255 220 0
0.565231 0.278247 0.374842 255 220 0
0.574650 0.212279 0.373721 255 220 0
0.544097 0.195340 0.414648 255 220 0
0.554713 0.173865 0.392426 255 220 0
0.494393 0.262188 0.417634 255 220 0
0.507849 0.198188 0.382858 255 220 0
0.560953 0.319034 0.412545 255 220 0
0.545037 0.206172 0.419568 255 220 0
0.564320 0.265586 0.436895 255 220 0
0.544576 0.303351 0.449720 255 220 0
0.566239 0.241525 0.424769 255 220 0
0.534728 0.155660 0.401608 255 220 0
0.532109 0.250638 0.360659 255 220 0
0.532780 0.303678 0.450601 255 220 0
0.541376 0.155652 0.393275 255 220 0
0.546054 0.269660 0.448119 255 220 0
0.521601 0.218455 0.363101 255 220 0
0.508409 0.297779 0.440924 255 220 0
0.545579 0.289195 0.451260 255 220 0
0.517859 0.292595 0.449359 255 220 0
0.497456 0.248924 0.397219 255 220 0
0.533411 0.194889 0.359562 255 220 0
0.546418 0.202395 0.416979 255 220 0
0.567941 0.272860 0.435859 255 220 0
0.515165 0.180590 0.408774 255 220 0
0.558629 0.176314 0.379005 255 220 0
0.504488 0.257281 0.438605 255 220 0
0.521625 0.320709 0.410798 255 220 0
0.562543 0.186300 0.389675 255 220 0
0.516506 0.211788 0.424158 255 220 0
0.496448 0.236948 0.411271 255 220 0
0.523847 0.196436 0.418735 255 220 0
0.497402 0.253592 0.427335 255 220 0
0.549930 0.307072 0.387992 255 220 0
0.513211 0.315743 0.421277 255 220 0
0.510789 0.312607 0.426847 255 220 0
0.564545 0.243029 0.426974 255 220 0
0.500722 0.242437 0.389603 255 220 0
0.582536 0.261745 0.402153 255 220 0
0.496168 0.238186 0.408388 255 220 0
0.525619 0.274951 0.451259 255 220 0
0.522007 0.200853 0.364249 255 220 0
0.556832 0.232441 0.426952 255 220 0
0.555359 0.303697 0.445626 255 220 0
0.577609 0.217826 0.382596 255 220 0
0.526016 0.326387 0.427033 255 220 0
0.505525 0.284159 0.390522 255 220 0
0.530202 0.295352 0.452048 255 220 0
0.540580 0.227103 0.356178 255 220 0
0.551754 0.266449 0.444844 255 220 0
0.514317 0.314970 0.413155 255 220 0
0.537715 0.311419 0.389843 255 220 0
0.569676 0.257576 0.369379 255 220 0
0.569061 0.210566 0.402372 255 220 0
0.576365 0.224607 0.399109 255 220 0
0.513083 0.198152 0.373392 255 220 0
0.562227 0.310643 0.436468 255 220 0
0.510604 0.295837 0.444028 255 220 0
0.507048 0.304401 0.433256 255 220 0
0.526445 0.240357 0.361177 255 220 0
0.532105 0.315029 0.394749 255 220 0
0.564386 0.265960 0.436976 255 220 0
0.529149 0.159428 0.405896 255 220 0
0.576845 0.273130 0.422243 255 220 0
0.499626 0.289166 0.427211 255 220 0
0.547637 0.228440 0.430046 255 220 0
0.555573 0.242230 0.359620 255 220 0
0.555035 0.172710 0.390338 255 220 0
0.542789 0.277831 0.367231 255 220 0
0.558221 0.214979 0.416081 255 220 0
0.569549 0.227901 0.363787 255 220 0
0.511042 0.313149 0.425164 255 220 0
0.501687 0.237623 0.427628 255 220 0
0.556772 0.298841 0.383952 255 220 0
0.567975 0.311243 0.413585 255 220 0
0.499160 0.232795 0.395824 255 220 0
0.527314 0.241584 0.360935 255 220 0
0.573969 0.298485 0.409172 255 220 0
0.580463 0.237021 0.377057 255 220 0
0.522483 0.305067 0.447848 255 220 0
0.561172 0.267841 0.367832 255 220 0
0.533044 0.227197 0.357564 255 220 0
0.509218 0.309791 0.417383 255 220 0
0.549170 0.209923 0.356978 255 220 0
0.509144 0.188477 0.403585 255 220 0
0.572960 0.209879 0.393402 255 220 0
0.537019 0.195734 0.417428 255 220 0
0.511201 0.276231 0.379481 255 220 0
0.523065 0.174290 0.369662 255 220 0
0.547205 0.189910 0.410163 255 220 0
0.507165 0.204007 0.382651 255 220 0
0.574348 0.273124 0.381015 255 220 0
0.579285 0.272796 0.415913 255 220 0
0.536360 0.308953 0.387441 255 220 0
0.543403 0.277140 0.450610 255 220 0
0.528619 0.231697 0.359436 255 220 0
0.555087 0.244463 0.359864 255 220 0
0.525950 0.308630 0.390658 255 220 0
0.546582 0.249178 0.440355 255 220 0
0.567158 0.256685 0.367425 255 220 0
0.537164 0.204204 0.421190 255 220 0
0.509957 0.226761 0.429401 255 220 0
0.543367 0.219668 0.427232 255 220 0
0.579662 0.225150 0.382665 255 220 0
0.503940 0.293442 0.401339 255 220 0
0.580892 0.234369 0.379048 255 220 0
0.554735 0.262412 0.441799 255 220 0
0.533071 0.287643 0.372906 255 220 0
0.500033 0.280740 0.398619 255 220 0
0.518237 0.281850 0.376028 255 220 0
0.508783 0.267467 0.444218 255 220 0
0.535688 0.304101 0.383180 255 220 0
0.578043 0.223289 0.374908 255 220 0
0.514622 0.216098 0.425766 255 220 0
0.579990 0.280298 0.409066 255 220 0
0.577690 0.284788 0.418926 255 220 0
0.516043 0.235442 0.436500 255 220 0
0.524103 0.308423 0.446898 255 220 0
0.494808 0.267536 0.411048 255 220 0
0.528343 0.189626 0.416534 255 220 0
0.558345 0.181485 0.393268 255 220 0
0.522558 0.312318 0.397333 255 220 0
0.516332 0.264213 0.371147 255 220 0
0.561286 0.182398 0.373067 255 220 0
0.572761 0.301072 0.425304 255 220 0
0.512729 0.275258 0.377641 255 220 0
0.502786 0.296294 0.430777 255 220 0
0.521475 0.210489 0.424986 255 220 0
0.523002 0.153980 0.398597 255 220 0
0.496897 0.256769 0.398873 255 220 0
0.526495 0.152815 0.386560 255 220 0
0.542557 0.187633 0.411781 255 220 0
0.573952 0.286700 0.429004 255 220 0
0.499557 0.233581 0.394232 255 220 0
0.581193 0.247722 0.401368 255 220 0
0.582600 0.246740 0.386025 255 220 0
0.556868 0.173280 0.380502 255 220 0
0.541670 0.180321 0.409009 255 220 0
0.581824 0.236304 0.384002 255 220 0
0.579673 0.267746 0.414355 255 220 0
0.544757 0.326210 0.434585 255 220 0
0.526645 0.151721 0.391365 255 220 0
0.543669 0.282868 0.451335 255 220 0
0.514737 0.180364 0.408276 255 220 0
0.508287 0.291983 0.392505 255 220 0
0.494494 0.258241 0.418139 255 220 0
0.533566 0.284825 0.371331 255 220 0
0.514394 0.213652 0.424197 255 220 0
0.523576 0.165236 0.407992 255 220 0
0.499614 0.225133 0.410265 255 220 0
0.506649 0.197695 0.386541 255 220 0
0.574613 0.225006 0.403622 255 220 0
0.557918 0.285316 0.446351 255 220 0
0.561674 0.262183 0.437454 255 220 0
0.501344 0.230185 0.422094 255 220 0
0.582043 0.268317 0.405009 255 220 0
0.551664 0.281434 0.448849 255 220 0
0.506164 0.197960 0.402450 255 220 0
0.551753 0.237546 0.358028 255 220 0
0.564672 0.257036 0.433257 255 220 0
0.582270 0.240879 0.384210 255 220 0
0.515576 0.248047 0.441695 255 220 0
0.569385 0.260523 0.370194 255 220 0
0.494340 0.259758 0.411375 255 220 0
0.558415 0.210724 0.413330 255 220 0
0.573763 0.299920 0.422350 255 220 0
0.548724 0.306995 0.387484 255 220 0
0.515091 0.226749 0.431899 255 220 0
0.551539 0.185155 0.404030 255 220 0
0.550888 0.169331 0.369858 255 220 0
0.566417 0.243245 0.363867 255 220 0
0.523791 0.305795 0.389333 255 220 0
0.504189 0.274871 0.387738 255 220 0
0.494500 0.260837 0.409925 255 220 0
0.579816 0.253522 0.379816 255 220 0
0.499289 0.256735 0.432043 255 220 0
0.515299 0.166529 0.381910 255 220 0
0.551086 0.270273 0.365320 255 220 0
0.498291 0.248126 0.427100 255 220 0
0.569723 0.308155 0.424978 255 220 0
0.559743 0.196118 0.402991 255 220 0
0.537769 0.326509 0.409504 255 220 0
0.579109 0.255876 0.379669 255 220 0
0.506775 0.267407 0.381602 255 220 0
0.520889 0.295424 0.382367 255 220 0
0.527379 0.326760 0.416758 255 220 0
0.509902 0.308350 0.434561 255 220 0
0.543756 0.206562 0.356618 255 220 0
0.535137 0.205699 0.357623 255 220 0
0.494913 0.253089 0.406516 255 220 0
0.523553 0.248974 0.443595 255 220 0
0.544834 0.192234 0.412766 255 220 0
0.542286 0.256841 0.360739 255 220 0
0.572903 0.214946 0.399119 255 220 0
0.516075 0.313398 0.437464 255 220 0
0.529684 0.155706 0.403066 255 220 0
0.497755 0.246075 0.424966 255 220 0
0.528727 0.202261 0.360252 255 220 0
0.569792 0.223336 0.410459 255 220 0
0.514689 0.274885 0.375803 255 220 0
0.523547 0.272792 0.369284 255 220 0
0.532438 0.242164 0.359237 255 220 0
0.558058 0.320993 0.429379 255 220 0
0.514746 0.277014 0.448445 255 220 0
0.521435 0.170620 0.372464 255 220 0
0.576399 0.273890 0.384550 255 220 0
0.542528 0.263169 0.362266 255 220 0
0.531053 0.309858 0.389389 255 220 0
0.523696 0.182790 0.413928 255 220 0
0.518242 0.184916 0.412593 255 220 0
0.498558 0.259680 0.394641 255 220 0
0.557965 0.305536 0.390802 255 220 0
0.498205 0.280056 0.430837 255 220 0
0.576820 0.284567 0.394478 255 220 0
0.564110 0.268159 0.369476 255 220 0
0.544240 0.188722 0.411393 255 220 0
0.564008 0.313168 0.406599 255 220 0
0.543270 0.182671 0.361196 255 220 0
0.545925 0.216282 0.356137 255 220 0
0.524673 0.181922 0.366130 255 220 0
0.566254 0.283673 0.378928 255 220 0
0.520265 0.271536 0.449685 255 220 0
0.575858 0.261887 0.421004 255 220 0
0.557284 0.322868 0.425307 255 220 0
0.499093 0.285535 0.407002 255 220 0
0.567247 0.256677 0.430847 255 220 0
0.499119 0.231051 0.417358 255 220 0
0.509231 0.223719 0.375535 255 220 0
0.522785 0.310618 0.395204 255 220 0
0.540426 0.198678 0.417707 255 220 0
0.498576 0.255038 0.430255 255 220 0
0.543362 0.294516 0.376373 255 220 0
0.581814 0.257071 0.387748 255 220 0
0.557228 0.175461 0.373166 255 220 0
0.498327 0.272821 0.433067 255 220 0
0.509637 0.201461 0.378207 255 220 0
0.549284 0.214169 0.356721 255 220 0
0.553676 0.272643 0.366802 255 220 0
0.550601 0.315117 0.396445 255 220 0
0.558200 0.283515 0.373720 255 220 0
0.506538 0.211267 0.414639 255 220 0
0.555517 0.322334 0.431040 255 220 0
0.527099 0.181544 0.364948 255 220 0
0.565939 0.193265 0.390525 255 220 0
0.511585 0.304871 0.401174 255 220 0
0.528708 0.153947 0.382786 255 220 0
0.568653 0.311112 0.418546 255 220 0
0.560873 0.183429 0.390007 255 220 0
0.571363 0.252330 0.424105 255 220 0
0.518503 0.168156 0.376583 255 220 0
0.514793 0.297693 0.446620 255 220 0
0.537562 0.329885 0.425576 255 220 0
0.521441 0.198847 0.364920 255 220 0
0.555996 0.172148 0.377784 255 220 0
0.555304 0.220953 0.421759 255 220 0
0.577906 0.218847 0.383409 255 220 0
0.566342 0.288945 0.382841 255 220 0
0.510907 0.242401 0.437583 255 220 0
0.511030 0.182054 0.381593 255 220 0
0.514681 0.278725 0.448516 255 220 0
0.506287 0.301983 0.408720 255 220 0
0.533101 0.238432 0.358541 255 220 0
0.512616 0.186352 0.408257 255 220 0
0.538571 0.225168 0.431366 255 220 0
0.571138 0.302027 0.405057 255 220 0
0.549245 0.220350 0.425098 255 220 0
0.544349 0.161490 0.373214 255 220 0
0.565135 0.252035 0.430734 255 220 0
0.571821 0.263959 0.373627 255 220 0
0.554486 0.180996 0.398393 255 220 0
0.537754 0.303062 0.382244 255 220 0
0.567610 0.198833 0.393807 255 220 0
0.500277 0.264717 0.435651 255 220 0
0.502027 0.268266 0.438616 255 220 0
0.566941 0.277605 0.438039 255 220 0
0.576073 0.270835 0.423392 255 220 0
0.577848 0.233632 0.371866 255 220 0
0.515075 0.226323 0.431669 255 220 0
0.557220 0.181683 0.365982 255 220 0
0.519950 0.311240 0.398551 255 220 0
0.524818 0.312639 0.444731 255 220 0
0.517224 0.205294 0.420787 255 220 0
0.571322 0.206387 0.393722 255 220 0
0.557021 0.242517 0.360078 255 220 0
0.524900 0.280203 0.371745 255 220 0
0.543027 0.156141 0.387129 255 220 0
0.537505 0.152855 0.389379 255 220 0
0.540330 0.289163 0.452197 255 220 0
0.507163 0.220071 0.379359 255 220 0
0.575981 0.284053 0.424682 255 220 0
0.518174 0.182917 0.411864 255 220 0
0.551615 0.259584 0.362292 255 220 0
0.530025 0.296571 0.378698 255 220 0
0.572659 0.302163 0.411443 255 220 0
0.522369 0.191966 0.365327 255 220 0
0.529229 0.240121 0.439910 255 220 0
0.511971 0.250232 0.372330 255 220 0
0.523006 0.192078 0.364885 255 220 0
0.576998 0.223707 0.396481 255 220 0
0.556763 0.204767 0.411046 255 220 0
0.565510 0.194378 0.393235 255 220 0
0.577632 0.218247 0.384894 255 220 0
0.578400 0.225265 0.374836 255 220 0
0.549943 0.320396 0.438803 255 220 0
0.577518 0.261902 0.380127 255 220 0
0.547252 0.323889 0.406661 255 220 0
0.542585 0.263648 0.447251 255 220 0
0.552043 0.167197 0.390347 255 220 0
0.534157 0.256375 0.361305 255 220 0
0.582553 0.242286 0.387134 255 220 0
0.540265 0.185496 0.411960 255 220 0
0.501355 0.244111 0.388039 255 220 0
0.527599 0.312768 0.394123 255 220 0
0.552471 0.272124 0.446333 255 220 0
0.530843 0.248917 0.360705 255 220 0
0.508133 0.220662 0.424136 255 220 0
0.582274 0.244690 0.394329 255 220 0
0.501934 0.229694 0.422789 255 220 0
0.522828 0.269640 0.368542 255 220 0
0.573723 0.211572 0.371790 255 220 0
0.564277 0.313917 0.408516 255 220 0
0.554583 0.302570 0.386002 255 220 0
0.507844 0.249242 0.377051 255 220 0
0.515017 0.191712 0.372116 255 220 0
0.516717 0.175340 0.408274 255 220 0
0.517679 0.320298 0.425359 255 220 0
0.566188 0.259667 0.367745 255 220 0
0.534262 0.261812 0.362506 255 220 0
0.526387 0.169229 0.369951 255 220 0
0.578024 0.286440 0.402750 255 220 0
0.515017 0.159613 0.392124 255 220 0
0.533021 0.196182 0.418502 255 220 0
0.495343 0.259367 0.423108 255 220 0
0.581105 0.271043 0.409468 255 220 0
0.562600 0.205828 0.406574 255 220 0
0.507029 0.225234 0.378956 255 220 0
0.526804 0.255267 0.446171 255 220 0
0.530627 0.313152 0.446495 255 220 0
0.566750 0.259604 0.432513 255 220 0
0.512008 0.196186 0.412167 255 220 0
0.520301 0.206856 0.422775 255 220 0
0.506549 0.268697 0.382272 255 220 0
0.541205 0.166381 0.403814 255 220 0
0.540536 0.189126 0.359465 255 220 0
0.554208 0.244096 0.359575 255 220 0
0.516837 0.245825 0.367519 255 220 0
0.570042 0.307182 0.425712 255 220 0
0.560348 0.291266 0.380071 255 220 0
0.505585 0.304660 0.424854 255 220 0
0.508951 0.303899 0.404773 255 220 0
0.567600 0.272023 0.373457 255 220 0
0.566030 0.312027 0.429145 255 220 0
0.532656 0.278395 0.368425 255 220 0
0.496479 0.248131 0.422637 255 220 0
0.511634 0.229864 0.371964 255 220 0
0.576415 0.270683 0.382820 255 220 0
0.511603 0.191584 0.409390 255 220 0
0.526390 0.162973 0.373452 255 220 0
0.528876 0.165113 0.371116 255 220 0
0.546809 0.174037 0.402301 255 220 0
0.554195 0.303212 0.446415 255 220 0
0.551723 0.317983 0.439768 255 220 0
0.502027 0.268082 0.388969 255 220 0
0.545185 0.292560 0.451276 255 220 0
0.569057 0.305954 0.429985 255 220 0
0.529339 0.301460 0.450820 255 220 0
0.556975 0.299112 0.384303 255 220 0
0.535193 0.290100 0.452593 255 220 0
0.511090 0.296380 0.444279 255 220 0
0.562816 0.187884 0.369268 255 220 0
0.502436 0.245166 0.385778 255 220 0
0.562545 0.247751 0.430714 255 220 0
0.501646 0.295903 0.424467 255 220 0
0.509359 0.225510 0.375226 255 220 0
0.517451 0.175127 0.408755 255 220 0
0.498160 0.234722 0.398532 255 220 0
0.570606 0.297765 0.397480 255 220 0
0.495831 0.276326 0.421558 255 220 0
0.506006 0.265705 0.382169 255 220 0
0.554076 0.295345 0.448219 255 220 0
0.529173 0.286795 0.452490 255 220 0
0.556391 0.257038 0.362863 255 220 0
0.566397 0.275084 0.438039 255 220 0
0.559449 0.177930 0.382861 255 220 0
0.515600 0.166959 0.403889 255 220 0
0.573597 0.255574 0.422240 255 220 0
0.513893 0.175295 0.379135 255 220 0
0.528316 0.309625 0.390305 255 220 0
0.503284 0.223383 0.419781 255 220 0
0.515318 0.276432 0.448644 255 220 0
0.495756 0.262906 0.403643 255 220 0
0.541905 0.266973 0.363316 255 220 0
0.544135 0.264483 0.362684 255 220 0
0.568238 0.290479 0.437490 255 220 0
0.512621 0.206885 0.418826 255 220 0
0.522498 0.318597 0.405911 255 220 0
0.567941 0.287681 0.437955 255 220 0
0.551994 0.272604 0.446698 255 220 0
0.521077 0.276343 0.450599 255 220 0
0.551229 0.326485 0.426991 255 220 0
0.533589 0.281386 0.369611 255 220 0
0.549995 0.315678 0.396814 255 220 0
0.546133 0.270227 0.448256 255 220 0
0.557541 0.207193 0.411876 255 220 0
0.555595 0.171379 0.384557 255 220 0
0.497985 0.242133 0.396559 255 220 0
0.503684 0.225966 0.422685 255 220 0
0.560537 0.211649 0.360210 255 220 0
0.497429 0.261988 0.429848 255 220 0
0.580184 0.268165 0.389227 255 220 0
0.570214 0.229606 0.413799 255 220 0
0.509864 0.212088 0.419780 255 220 0
0.577557 0.219671 0.389021 255 220 0
0.550398 0.213582 0.356973 255 220 0
0.543690 0.251200 0.359532 255 220 0
0.582748 0.259984 0.395508 255 220 0
0.549396 0.297454 0.449700 255 220 0
0.547259 0.255778 0.360733 255 220 0
0.574354 0.290041 0.427765 255 220 0
0.551219 0.270834 0.446511 255 220 0
0.555052 0.287843 0.374984 255 220 0
0.534768 0.276135 0.367045 255 220 0
0.554477 0.181260 0.364098 255 220 0
0.527203 0.151586 0.392235 255 220 0
0.501683 0.238188 0.427937 255 220 0
0.565673 0.191741 0.388731 255 220 0
0.548799 0.309175 0.446418 255 220 0
0.537172 0.267329 0.449460 255 220 0
0.572597 0.218790 0.402967 255 220 0
0.545142 0.227923 0.356197 255 220 0
0.562013 0.288417 0.443738 255 220 0
0.558562 0.244131 0.360837 255 220 0
0.500680 0.219294 0.401834 255 220 0
0.519166 0.212985 0.365195 255 220 0
0.552294 0.240656 0.433771 255 220 0
0.560734 0.289270 0.444706 255 220 0
0.532316 0.262655 0.363090 255 220 0
0.557819 0.220441 0.419660 255 220 0
0.501724 0.226320 0.419389 255 220 0
0.499449 0.274219 0.435203 255 220 0
0.560447 0.190708 0.398262 255 220 0
0.513580 0.283983 0.380763 255 220 0
0.539152 0.231898 0.434553 255 220 0
0.501929 0.275178 0.438901 255 220 0
0.541228 0.197339 0.416807 255 220 0
0.568243 0.269430 0.372800 255 220 0
0.519272 0.167807 0.375951 255 220 0
0.531439 0.322473 0.404944 255 220 0
0.530937 0.325858 0.410910 255 220 0
0.567778 0.216121 0.408161 255 220 0
0.513469 0.285388 0.447876 255 220 0
0.542272 0.324966 0.437416 255 220 0
0.548828 0.216841 0.356509 255 220 0
0.520884 0.268234 0.449188 255 220 0
0.501791 0.240399 0.387441 255 220 0
0.520065 0.280183 0.374150 255 220 0
0.551047 0.189066 0.360405 255 220 0
0.517326 0.213651 0.366744 255 220 0
0.542006 0.234148 0.434883 255 220 0
0.557745 0.182041 0.394818 255 220 0
0.549235 0.326107 0.412527 255 220 0
0.502795 0.238582 0.385534 255 220 0
0.565092 0.244622 0.363493 255 220 0
0.514383 0.236710 0.368982 255 220 0
0.523780 0.211681 0.425950 255 220 0
0.524913 0.325917 0.419033 255 220 0
0.549188 0.326524 0.413696 255 220 0
0.548607 0.298070 0.379925 255 220 0
0.509138 0.204368 0.378485 255 220 0
0.509177 0.309896 0.418075 255 220 0
0.514117 0.275045 0.448004 255 220 0
0.573644 0.297086 0.426522 255 220 0
0.505721 0.201738 0.404600 255 220 0
0.564050 0.190302 0.369445 255 220 0
0.505962 0.271346 0.442828 255 220 0
0.536488 0.262312 0.362324 255 220 0
0.582055 0.253448 0.386323 255 220 0
0.513395 0.169927 0.402240 255 220 0
0.503817 0.241503 0.383351 255 220 0
0.528819 0.285772 0.452455 255 220 0
0.581651 0.253899 0.403488 255 220 0
0.495651 0.254906 0.422905 255 220 0
0.525950 0.160183 0.375719 255 220 0
0.502831 0.226533 0.421762 255 220 0
0.547420 0.160057 0.386712 255 220 0
0.510114 0.274759 0.380049 255 220 0
0.542721 0.303546 0.383006 255 220 0
0.521595 0.225924 0.433020 255 220 0
0.559790 0.266228 0.366660 255 220 0
0.519784 0.181232 0.369803 255 220 0
0.539072 0.198378 0.418006 255 220 0
0.559074 0.177290 0.383092 255 220 0
0.553644 0.271220 0.445477 255 220 0
0.548241 0.267263 0.446615 255 220 0
0.559560 0.180162 0.388645 255 220 0
0.508651 0.280793 0.384379 255 220 0
0.518670 0.284068 0.376788 255 220 0
0.505909 0.278324 0.442923 255 220 0
0.506948 0.271108 0.382506 255 220 0
0.515471 0.271829 0.448169 255 220 0
0.513104 0.291831 0.446917 255 220 0
0.574584 0.279012 0.427599 255 220 0
0.512681 0.213216 0.371741 255 220 0
0.541350 0.185070 0.411252 255 220 0
0.542533 0.324633 0.406476 255 220 0
0.567235 0.239533 0.422774 255 220 0
0.573706 0.213446 0.395592 255 220 0
0.556542 0.222524 0.358214 255 220 0
0.533522 0.169451 0.408913 255 220 0
0.519342 0.187381 0.414021 255 220 0
0.547535 0.275424 0.449139 255 220 0
0.571521 0.225608 0.365170 255 220 0
0.537690 0.191359 0.415392 255 220 0
0.567282 0.307689 0.431754 255 220 0
0.496555 0.271874 0.428297 255 220 0
0.557446 0.175527 0.387293 255 220 0
0.563981 0.268476 0.369524 255 220 0
0.578094 0.273016 0.387164 255 220 0
0.521109 0.165229 0.407175 255 220 0
0.548666 0.255807 0.442290 255 220 0
0.525792 0.255643 0.363563 255 220 0
0.503882 0.291271 0.398904 255 220 0
0.559962 0.235850 0.426625 255 220 0
0.562254 0.189565 0.366953 255 220 0
0.545293 0.243961 0.438476 255 220 0
0.567557 0.240465 0.422940 255 220 0
0.546864 0.328317 0.427151 255 220 0
0.495450 0.250279 0.404088 255 220 0
0.509285 0.185283 0.401839 255 220 0
0.524151 0.287586 0.451753 255 220 0
0.522789 0.308853 0.446114 255 220 0
0.558731 0.210175 0.359657 255 220 0
0.538857 0.153497 0.389222 255 220 0
0.546829 0.163031 0.395844 255 220 0
0.539242 0.161378 0.403077 255 220 0
0.546827 0.165588 0.370372 255 220 0
0.544335 0.199687 0.357470 255 220 0
0.573685 0.230388 0.409000 255 220 0
0.520606 0.229132 0.434477 255 220 0
0.533952 0.212091 0.357419 255 220 0
0.580063 0.251206 0.407048 255 220 0
0.551780 0.227021 0.427280 255 220 0
0.513229 0.192751 0.411767 255 220 0
0.498729 0.231740 0.416812 255 220 0
0.550346 0.207150 0.417222 255 220 0
0.574818 0.214668 0.393574 255 220 0
0.509894 0.301856 0.440549 255 220 0
0.512963 0.240503 0.437691 255 220 0
0.573227 0.206496 0.377143 255 220 0
0.547642 0.249244 0.359391 255 220 0
0.546561 0.184281 0.407694 255 220 0
0.550907 0.297796 0.449141 255 220 0
0.559705 0.309164 0.440022 255 220 0
0.582308 0.265690 0.396125 255 220 0
0.508765 0.182164 0.397242 255 220 0
0.517422 0.210439 0.366913 255 220 0
0.564044 0.297744 0.440918 255 220 0
0.546408 0.270403 0.448221 255 220 0
0.534871 0.177850 0.411209 255 220 0
0.502581 0.279693 0.439237 255 220 0
0.503246 0.222896 0.387108 255 220 0
0.512240 0.187039 0.377290 255 220 0
0.541291 0.325658 0.436635 255 220 0
0.555137 0.188644 0.402702 255 220 0
0.522739 0.289775 0.451312 255 220 0
0.557745 0.240811 0.360028 255 220 0
0.548834 0.190071 0.409097 255 220 0
0.574217 0.211348 0.373346 255 220 0
0.540786 0.205372 0.420765 255 220 0
0.520202 0.211444 0.364489 255 220 0
0.504100 0.285100 0.439969 255 220 0
0.581585 0.237507 0.391663 255 220 0
0.503571 0.206987 0.394497 255 220 0
0.549774 0.246485 0.359122 255 220 0
0.535430 0.202041 0.357959 255 220 0
0.513796 0.209981 0.421610 255 220 0
0.548151 0.213073 0.421724 255 220 0
0.582741 0.259691 0.395155 255 220 0
0.545713 0.279415 0.368145 255 220 0
0.561465 0.192743 0.364543 255 220 0
0.505472 0.262030 0.440728 255 220 0
0.531118 0.153324 0.383435 255 220 0
0.531627 0.258582 0.447276 255 220 0
0.519155 0.266799 0.448452 255 220 0
0.526284 0.247263 0.443054 255 220 0
0.555581 0.304631 0.445165 255 220 0
0.578715 0.281520 0.416078 255 220 0
0.572856 0.261131 0.425642 255 220 0
0.534509 0.216461 0.357056 255 220 0
0.504041 0.221463 0.385457 255 220 0
0.510489 0.172678 0.394865 255 220 0
0.497913 0.260472 0.396367 255 220 0
0.547984 0.209169 0.356827 255 220 0
0.553323 0.307575 0.389950 255 220 0
0.513972 0.313327 0.410233 255 220 0
0.538108 0.199045 0.357856 255 220 0
0.576360 0.228853 0.402438 255 220 0
0.538405 0.237460 0.437405 255 220 0
0.554483 0.228533 0.357807 255 220 0
0.538947 0.327460 0.411219 255 220 0
0.513833 0.256088 0.443848 255 220 0
0.496907 0.260954 0.399292 255 220 0
0.501971 0.292006 0.432828 255 220 0
0.505556 0.225516 0.424847 255 220 0
0.545478 0.325126 0.408043 255 220 0
0.499299 0.238046 0.393771 255 220 0
0.525813 0.312961 0.395499 255 220 0
0.510989 0.170288 0.392310 255 220 0
0.511239 0.237233 0.435477 255 220 0
0.575117 0.294045 0.404707 255 220 0
0.564772 0.206250 0.404641 255 220 0
0.517663 0.200656 0.418587 255 220 0
0.513006 0.280220 0.447741 255 220 0
0.543907 0.185354 0.409993 255 220 0
0.515154 0.290937 0.383797 255 220 0
0.500286 0.221588 0.399466 255 220 0
0.503960 0.300190 0.429127 255 220 0
0.576885 0.284098 0.422115 255 220 0
0.541625 0.155613 0.382878 255 220 0
0.538956 0.228596 0.432980 255 220 0
0.527862 0.326804 0.429139 255 220 0
0.535954 0.152241 0.390388 255 220 0
0.537310 0.255607 0.360716 255 220 0
0.526578 0.266572 0.449664 255 220 0
0.571279 0.279601 0.381049 255 220 0
0.553008 0.167446 0.386609 255 220 0
0.494382 0.254402 0.411167 255 220 0
0.524801 0.215344 0.427900 255 220 0
0.532938 0.269042 0.450327 255 220 0
0.574145 0.286914 0.428607 255 220 0
0.513357 0.300047 0.444792 255 220 0
0.579708 0.281107 0.410279 255 220 0
0.577941 0.288133 0.412271 255 220 0
0.567060 0.281826 0.438549 255 220 0
0.575592 0.273045 0.424805 255 220 0
0.571095 0.306447 0.422132 255 220 0
0.558063 0.203542 0.409220 255 220 0
0.548742 0.161780 0.382274 255 220 0
0.555387 0.210348 0.415467 255 220 0
0.514332 0.304364 0.443489 255 220 0
0.535201 0.154241 0.399258 255 220 0
0.562897 0.244876 0.362582 255 220 0
0.529988 0.328606 0.420774 255 220 0
0.494717 0.263127 0.420536 255 220 0
0.502985 0.241266 0.431145 255 220 0
0.510173 0.242762 0.373748 255 220 0
0.513244 0.209224 0.420757 255 220 0
0.510789 0.190897 0.407941 255 220 0
0.544686 0.194345 0.413874 255 220 0
0.525921 0.196434 0.362442 255 220 0
0.558825 0.235403 0.427149 255 220 0
0.570291 0.285258 0.434912 255 220 0
0.553121 0.227020 0.426497 255 220 0
0.578865 0.243686 0.374450 255 220 0
0.535623 0.201379 0.420231 255 220 0
0.550840 0.199556 0.412755 255 220 0
0.577866 0.232430 0.401091 255 220 0
0.515511 0.200023 0.370095 255 220 0
0.514112 0.301494 0.394242 255 220 0
0.504785 0.253454 0.437693 255 220 0
0.558778 0.241146 0.430024 255 220 0
0.553879 0.207199 0.358357 255 220 0
0.564563 0.207562 0.362783 255 220 0
0.568541 0.242535 0.422951 255 220 0
0.495006 0.263613 0.407367 255 220 0
0.572386 0.285290 0.386713 255 220 0
0.569930 0.262577 0.371374 255 220 0
0.557747 0.291181 0.378506 255 220 0
0.566510 0.210784 0.405898 255 220 0
0.518788 0.291752 0.449842 255 220 0
0.563154 0.201154 0.402824 255 220 0
0.514730 0.308826 0.401688 255 220 0
0.517309 0.240688 0.439189 255 220 0
0.551471 0.265778 0.363959 255 220 0
0.570281 0.296075 0.394715 255 220 0
0.572368 0.204312 0.377547 255 220 0
0.547807 0.229995 0.356605 255 220 0
0.547523 0.206578 0.418566 255 220 0
0.495329 0.249654 0.404799 255 220 0
0.516532 0.189453 0.413148 255 220 0
0.564331 0.278893 0.440766 255 220 0
0.524349 0.176830 0.367908 255 220 0
0.498843 0.282926 0.430947 255 220 0
0.530790 0.219223 0.429679 255 220 0
0.573551 0.208770 0.389092 255 220 0
0.537000 0.158610 0.374328 255 220 0
0.526305 0.167736 0.370747 255 220 0
0.539527 0.330047 0.423681 255 220 0
0.500875 0.282225 0.397559 255 220 0
0.579468 0.278249 0.395017 255 220 0
0.531325 0.218377 0.429196 255 220 0
0.561478 0.266630 0.439287 255 220 0
0.560587 0.277694 0.443367 255 220 0
0.522890 0.255721 0.446006 255 220 0
0.544896 0.299669 0.450487 255 220 0
0.507938 0.202151 0.410143 255 220 0
0.497459 0.272354 0.401099 255 220 0
0.545536 0.261408 0.361945 255 220 0
0.537973 0.311359 0.447974 255 220 0
0.522432 0.274202 0.370385 255 220 0
0.509509 0.217766 0.423377 255 220 0
0.496050 0.277958 0.415032 255 220 0
0.526967 0.187731 0.363464 255 220 0
0.546290 0.165246 0.398297 255 220 0
0.534437 0.234730 0.436824 255 220 0
0.543147 0.266985 0.363351 255 220 0
0.523907 0.163346 0.374690 255 220 0
0.548928 0.228435 0.356653 255 220 0
0.497148 0.234492 0.412732 255 220 0
0.582870 0.252095 0.394520 255 220 0
0.566228 0.282964 0.378439 255 220 0
0.506564 0.196483 0.387613 255 220 0
0.511256 0.297752 0.393913 255 220 0
0.542266 0.327469 0.411609 255 220 0
0.562019 0.243306 0.361933 255 220 0
0.510563 0.280838 0.382179 255 220 0
0.561134 0.235097 0.425437 255 220 0
0.500535 0.266495 0.436362 255 220 0
0.497510 0.232883 0.412218 255 220 0
0.566518 0.269784 0.371656 255 220 0
0.566226 0.190635 0.378321 255 220 0
0.582549 0.257851 0.400974 255 220 0
0.504809 0.265463 0.383819 255 220 0
0.550041 0.227666 0.356794 255 220 0
0.568695 0.204181 0.367464 255 220 0
0.560422 0.241920 0.429340 255 220 0
0.554612 0.317132 0.401194 255 220 0
0.507746 0.298507 0.399704 255 220 0
0.562944 0.281602 0.375235 255 220 0
0.546890 0.233089 0.356766 255 220 0
0.545138 0.268182 0.363816 255 220 0
0.559683 0.318995 0.430372 255 220 0
0.534520 0.152530 0.385757 255 220 0
0.550319 0.177480 0.364038 255 220 0
0.529349 0.160468 0.374014 255 220 0
0.557550 0.231729 0.426109 255 220 0
0.522173 0.258128 0.446706 255 220 0
0.521350 0.278848 0.450901 255 220 0
0.528952 0.328281 0.422816 255 220 0
0.556754 0.313692 0.439436 255 220 0
0.531465 0.152503 0.397826 255 220 0
0.505034 0.288312 0.394204 255 220 0
0.582662 0.263742 0.398570 255 220 0
0.534555 0.216408 0.357044 255 220 0
0.497238 0.253055 0.426768 255 220 0
0.554978 0.321716 0.432894 255 220 0
0.507600 0.201145 0.382487 255 220 0
0.567285 0.282361 0.378923 255 220 0
0.513718 0.207854 0.420236 255 220 0
0.539458 0.221886 0.356090 255 220 0
0.494758 0.269892 0.415461 255 220 0
0.523052 0.275581 0.370604 255 220 0
0.508711 0.304566 0.406462 255 220 0
0.574649 0.223162 0.368475 255 220 0
0.509256 0.283097 0.445300 255 220 0
0.503379 0.251023 0.435532 255 220 0
0.524691 0.325956 0.420265 255 220 0
0.532563 0.243558 0.441173 255 220 0
0.546021 0.159706 0.392576 255 220 0
0.539006 0.257791 0.361046 255 220 0
0.537475 0.242287 0.439872 255 220 0
0.517184 0.280969 0.376352 255 220 0
0.506366 0.212551 0.382185 255 220 0
0.523585 0.254634 0.445712 255 220 0
0.560397 0.213304 0.359989 255 220 0
0.550717 0.268119 0.445875 255 220 0
0.539028 0.293861 0.452146 255 220 0
0.552846 0.189912 0.405654 255 220 0
0.578970 0.225664 0.390952 255 220 0
0.563272 0.185992 0.373417 255 220 0
0.531485 0.205429 0.422761 255 220 0
0.525662 0.277626 0.370278 255 220 0
0.535196 0.200092 0.358270 255 220 0
0.558925 0.317586 0.433649 255 220 0
0.541936 0.267409 0.448581 255 220 0
0.577420 0.282472 0.420768 255 220 0
0.498897 0.244262 0.393756 255 220 0
0.562443 0.261353 0.366301 255 220 0
0.514677 0.165715 0.383684 255 220 0
0.536088 0.285090 0.452532 255 220 0
0.501284 0.229432 0.390593 255 220 0
0.524076 0.222916 0.431731 255 220 0
0.567475 0.253180 0.366650 255 220 0
0.511901 0.208369 0.419157 255 220 0
0.499514 0.224059 0.404966 255 220 0
0.508305 0.242105 0.436016 255 220 0
0.569870 0.290388 0.435382 255 220 0
0.551541 0.207233 0.357732 255 220 0
0.552336 0.235090 0.431031 255 220 0
0.582053 0.270571 0.400400 255 220 0
0.553610 0.258384 0.440867 255 220 0
0.551593 0.201188 0.413098 255 220 0
0.538649 0.306539 0.449718 255 220 0
0.527344 0.310685 0.446864 255 220 0
0.548711 0.272672 0.448046 255 220 0
0.497230 0.253642 0.397751 255 220 0
0.527244 0.208062 0.424275 255 220 0
0.505673 0.284174 0.441985 255 220 0
0.518248 0.317858 0.410698 255 220 0
0.529731 0.326254 0.412613 255 220 0
0.506497 0.214980 0.417730 255 220 0
0.494444 0.254152 0.415728 255 220 0
0.570253 0.291661 0.389724 255 220 0
0.510314 0.218797 0.424742 255 220 0
0.578862 0.263421 0.383557 255 220 0
0.542315 0.313092 0.391869 255 220 0
0.556389 0.262237 0.364202 255 220 0
0.567950 0.272570 0.435771 255 220 0
0.514874 0.230367 0.368431 255 220 0
0.573023 0.301528 0.411824 255 220 0
0.525796 0.240199 0.361458 255 220 0
0.501712 0.252685 0.387253 255 220 0
0.554426 0.271677 0.366651 255 220 0
0.517187 0.258442 0.445714 255 220 0
0.572336 0.255125 0.370634 255 220 0
0.525263 0.180677 0.366152 255 220 0
0.535634 0.152585 0.394530 255 220 0
0.543944 0.301191 0.381292 255 220 0
0.497729 0.242004 0.422578 255 220 0
0.530704 0.227812 0.433963 255 220 0
0.555228 0.263657 0.441990 255 220 0
0.532885 0.152984 0.398349 255 220 0
0.530730 0.259995 0.362821 255 220 0
0.529533 0.151440 0.393826 255 220 0
0.581766 0.247404 0.382130 255 220 0
0.527391 0.184196 0.364088 255 220 0
0.574317 0.208965 0.378156 255 220 0
0.510295 0.211975 0.420131 255 220 0
0.537474 0.165875 0.406171 255 220 0
0.535721 0.173313 0.409346 255 220 0
0.513931 0.308419 0.402277 255 220 0
0.498620 0.228275 0.410225 255 220 0
