ply
format ascii 1.0
element vertex 1024
property float x
property float y
property float z
property uchar red
property uchar green
property uchar blue
end_header
0.335669 0.233683 0.222329 255 220 0
0.311086 0.199160 0.188214 255 220 0
0.299988 0.212040 0.185156 255 220 0
0.344143 0.286793 0.259822 255 220 0
0.273398 0.244788 0.211925 255 220 0
0.269975 0.214391 0.230202 255 220 0
0.339550 0.250335 0.231065 255 220 0
0.335290 0.221398 0.237150 255 220 0
0.280157 0.183369 0.219463 255 220 0
0.320975 0.190547 0.246097 255 220 0
0.274170 0.218011 0.205812 255 220 0
0.316718 0.155091 0.209517 255 220 0
0.329014 0.251007 0.209813 255 220 0
0.301566 0.240039 0.294203 255 220 0
0.332516 0.300699 0.243653 255 220 0
0.276686 0.294323 0.251738 255 220 0
0.271432 0.220377 0.246776 255 220 0
0.319849 0.156106 0.215034 255 220 0
0.287178 0.296400 0.289995 255 220 0
0.329924 0.207034 0.216746 255 220 0
0.318559 0.317935 0.259055 255 220 0
0.311390 0.262680 0.303404 255 220 0
0.316048 0.161402 0.201026 255 220 0
0.271589 0.221349 0.210973 255 220 0
0.280439 0.194821 0.239200 255 220 0
0.294179 0.273973 0.300220 255 220 0
0.318363 0.311739 0.293419 255 220 0
0.314422 0.269488 0.204860 255 220 0
0.291681 0.313251 0.269653 255 220 0
0.274843 0.197429 0.221830 255 220 0
0.277007 0.266003 0.284636 255 220 0
0.319030 0.258863 0.201548 255 220 0
0.302433 0.188475 0.252347 255 220 0
0.296859 0.209381 0.185557 255 220 0
0.281225 0.206228 0.252638 255 220 0
0.328065 0.195044 0.216116 255 220 0
0.333816 0.278842 0.227570 255 220 0
0.322254 0.268710 0.301570 255 220 0
0.338357 0.233708 0.243364 255 220 0
0.307324 0.320975 0.276373 255 220 0
0.292493 0.269258 0.206270 255 220 0
0.293065 0.162785 0.207017 255 220 0
0.342998 0.260858 0.246790 255 220 0
0.326965 0.188731 0.215026 255 220 0
0.309757 0.286892 0.216380 255 220 0
0.266587 0.243312 0.227343 255 220 0
0.281085 0.292596 0.282980 255 220 0
0.308052 0.301052 0.231429 255 220 0
0.277209 0.230239 0.202464 255 220 0
0.300807 0.319267 0.275257 255 220 0
0.303721 0.153835 0.220534 255 220 0
0.331463 0.304856 0.247383 255 220 0
0.331961 0.228239 0.212350 255 220 0
0.319393 0.162646 0.203239 255 220 0
0.343614 0.283846 0.273051 255 220 0
0.294974 0.180292 0.242661 255 220 0
0.344615 0.277937 0.254914 255 220 0
0.313988 0.241690 0.295197 255 220 0
0.301256 0.257539 0.301138 255 220 0
0.316266 0.250677 0.196459 255 220 0
0.276255 0.295497 0.259701 255 220 0
0.314618 0.318946 0.284522 255 220 0
0.266128 0.240242 0.229179 255 220 0
0.321766 0.257664 0.298987 255 220 0
0.333472 0.215146 0.238908 255 220 0
0.266688 0.265658 0.260947 255 220 0
0.327622 0.189118 0.225465 255 220 0
0.267994 0.223037 0.234102 255 220 0
0.314064 0.226870 0.285895 255 220 0
0.339571 0.241269 0.239486 255 220 0
0.271668 0.208568 0.219165 255 220 0
0.266054 0.267633 0.253525 255 220 0
0.277065 0.270583 0.220379 255 220 0
0.273993 0.285550 0.242035 255 220 0
0.270842 0.284723 0.254452 255 220 0
0.344939 0.279759 0.261836 255 220 0
0.318948 0.320045 0.275219 255 220 0
0.313132 0.295697 0.225548 255 220 0
0.316306 0.212521 0.272847 255 220 0
0.313253 0.257918 0.302086 255 220 0
0.297636 0.280854 0.302304 255 220 0
0.282408 0.187540 0.234595 255 220 0
0.269318 0.260541 0.269722 255 220 0
0.279564 0.251483 0.206908 255 220 0
0.283798 0.177073 0.208632 255 220 0
0.308528 0.286422 0.215895 255 220 0
0.284944 0.287284 0.291110 255 220 0
0.312899 0.173599 0.239991 255 220 0
0.307977 0.275768 0.208004 255 220 0
0.321703 0.195006 0.198305 255 220 0
0.298591 0.162813 0.198930 255 220 0
0.268744 0.255134 0.225334 255 220 0
0.273533 0.281261 0.236725 255 220 0
0.280241 0.299265 0.253484 255 220 0
0.338546 0.238630 0.233711 255 220 0
0.329568 0.207061 0.244939 255 220 0
0.339040 0.276652 0.235788 255 220 0
0.287244 0.230315 0.193162 255 220 0
0.343524 0.262480 0.253492 255 220 0
0.337771 0.244669 0.270430 255 220 0
0.341311 0.268295 0.278325 255 220 0
0.293442 0.207239 0.266341 255 220 0
0.276511 0.246864 0.278334 255 220 0
0.291880 0.162971 0.212057 255 220 0
0.281892 0.245481 0.284436 255 220 0
0.315269 0.211429 0.272383 255 220 0
0.332859 0.223019 0.217846 255 220 0
0.326395 0.182025 0.224152 255 220 0
0.337285 0.231883 0.233480 255 220 0
0.308644 0.284366 0.214287 255 220 0
0.272974 0.258427 0.277365 255 220 0
0.327380 0.314147 0.259247 255 220 0
0.276224 0.201662 0.237553 255 220 0
0.323729 0.283536 0.301748 255 220 0
0.333629 0.284001 0.293268 255 220 0
0.335950 0.231816 0.259521 255 220 0
0.338778 0.266690 0.283658 255 220 0
0.331143 0.312574 0.266384 255 220 0
0.268891 0.259478 0.227275 255 220 0
0.291304 0.312377 0.264498 255 220 0
0.336005 0.306831 0.271051 255 220 0
0.275267 0.291779 0.250299 255 220 0
0.295359 0.188970 0.250493 255 220 0
0.322196 0.185857 0.240713 255 220 0
0.287203 0.197076 0.251550 255 220 0
0.330790 0.238104 0.209725 255 220 0
0.286732 0.241625 0.196421 255 220 0
0.265347 0.259359 0.253533 255 220 0
0.274782 0.282053 0.276625 255 220 0
0.268631 0.244469 0.221310 255 220 0
0.294172 0.315026 0.267468 255 220 0
0.319631 0.201734 0.194940 255 220 0
0.271992 0.221506 0.209962 255 220 0
0.308831 0.257656 0.302370 255 220 0
0.310324 0.317705 0.256295 255 220 0
0.283792 0.214115 0.263991 255 220 0
0.287599 0.264699 0.206460 255 220 0
0.341164 0.249691 0.242270 255 220 0
0.290429 0.173052 0.231294 255 220 0
0.295891 0.298444 0.297319 255 220 0
0.331769 0.207991 0.232236 255 220 0
0.271073 0.210307 0.220994 255 220 0
0.324844 0.175712 0.209584 255 220 0
0.337671 0.257984 0.226628 255 220 0
0.339779 0.262252 0.232579 255 220 0
0.316113 0.226287 0.191621 255 220 0
0.309501 0.250233 0.193062 255 220 0
0.279757 0.260627 0.287178 255 220 0
0.316444 0.320249 0.266911 255 220 0
0.270764 0.212452 0.219424 255 220 0
0.337332 0.231021 0.235351 255 220 0
0.277891 0.192869 0.208413 255 220 0
0.274403 0.249414 0.212382 255 220 0
0.273728 0.274000 0.228214 255 220 0
0.266713 0.248943 0.228254 255 220 0
0.280531 0.218298 0.263330 255 220 0
0.288230 0.227508 0.191959 255 220 0
0.296362 0.253189 0.195126 255 220 0
0.278306 0.289808 0.279248 255 220 0
0.303692 0.214024 0.276864 255 220 0
0.340183 0.242059 0.250833 255 220 0
0.315862 0.154296 0.220711 255 220 0
0.271071 0.280405 0.242909 255 220 0
0.271314 0.230581 0.211590 255 220 0
0.344774 0.282467 0.265339 255 220 0
0.293194 0.305794 0.290972 255 220 0
0.315615 0.258874 0.199270 255 220 0
0.279754 0.222857 0.198573 255 220 0
0.330349 0.264053 0.215772 255 220 0
0.286816 0.187670 0.194519 255 220 0
0.287195 0.247008 0.290058 255 220 0
0.292994 0.187355 0.247594 255 220 0
0.323902 0.308880 0.292551 255 220 0
0.308758 0.275571 0.207935 255 220 0
0.272824 0.288328 0.252139 255 220 0
0.272380 0.248818 0.215271 255 220 0
0.308213 0.297375 0.302096 255 220 0
0.341778 0.296604 0.264336 255 220 0
0.299254 0.311224 0.248648 255 220 0
0.299683 0.314485 0.254772 255 220 0
0.322554 0.306858 0.294997 255 220 0
0.289248 0.231095 0.191863 255 220 0
0.283367 0.209505 0.194292 255 220 0
0.301773 0.319492 0.270018 255 220 0
0.288847 0.302017 0.242894 255 220 0
0.275703 0.289647 0.244532 255 220 0
0.274862 0.197493 0.218254 255 220 0
0.269596 0.277896 0.244812 255 220 0
0.300671 0.254464 0.194404 255 220 0
0.327537 0.212931 0.259268 255 220 0
0.296889 0.294290 0.299499 255 220 0
0.265469 0.246122 0.232740 255 220 0
0.290323 0.284312 0.219036 255 220 0
0.307998 0.228326 0.187495 255 220 0
0.329698 0.198925 0.226994 255 220 0
0.321213 0.184530 0.198913 255 220 0
0.292552 0.238880 0.290016 255 220 0
0.283968 0.187422 0.237434 255 220 0
0.310917 0.318405 0.257983 255 220 0
0.332013 0.209004 0.232950 255 220 0
0.344001 0.270474 0.249677 255 220 0
0.336572 0.296166 0.285248 255 220 0
0.339936 0.249792 0.232785 255 220 0
0.322289 0.159379 0.212381 255 220 0
0.267166 0.245881 0.225917 255 220 0
0.331135 0.291523 0.294677 255 220 0
0.318812 0.162401 0.202768 255 220 0
0.343022 0.266217 0.271059 255 220 0
0.270459 0.212186 0.223488 255 220 0
0.311725 0.276322 0.305380 255 220 0
0.341318 0.283672 0.280232 255 220 0
0.324694 0.275280 0.301133 255 220 0
0.279951 0.228745 0.271561 255 220 0
0.278536 0.195801 0.204158 255 220 0
0.331365 0.206228 0.229109 255 220 0
0.343499 0.278624 0.249026 255 220 0
0.312930 0.173661 0.240020 255 220 0
0.311587 0.188809 0.189401 255 220 0
0.316204 0.237963 0.292365 255 220 0
0.288777 0.303608 0.287026 255 220 0
0.320390 0.199176 0.196028 255 220 0
0.319899 0.202083 0.258872 255 220 0
0.293588 0.217001 0.275803 255 220 0
0.322389 0.191361 0.244808 255 220 0
0.303951 0.232016 0.290055 255 220 0
0.287324 0.303720 0.248230 255 220 0
0.294159 0.295263 0.297353 255 220 0
0.298183 0.291230 0.301131 255 220 0
0.340578 0.250383 0.235823 255 220 0
0.276668 0.224450 0.262532 255 220 0
0.325380 0.275662 0.215327 255 220 0
0.290792 0.218100 0.274856 255 220 0
0.333960 0.262419 0.290002 255 220 0
0.275287 0.196324 0.217453 255 220 0
0.338775 0.237552 0.237747 255 220 0
0.338680 0.301099 0.275031 255 220 0
0.315741 0.234319 0.192231 255 220 0
0.303344 0.310085 0.294835 255 220 0
0.271228 0.264332 0.274550 255 220 0
0.332737 0.282839 0.294398 255 220 0
0.272727 0.228164 0.208572 255 220 0
0.343920 0.265776 0.263811 255 220 0
0.288149 0.295277 0.291725 255 220 0
0.281637 0.302525 0.259967 255 220 0
0.292390 0.267552 0.205190 255 220 0
0.329249 0.223540 0.207003 255 220 0
0.327395 0.239442 0.204807 255 220 0
0.278824 0.189866 0.228238 255 220 0
0.333183 0.310557 0.267311 255 220 0
0.315842 0.275373 0.304763 255 220 0
0.303277 0.282014 0.304525 255 220 0
0.266807 0.234164 0.226720 255 220 0
0.282058 0.303316 0.268200 255 220 0
0.344025 0.270839 0.249809 255 220 0
0.322179 0.160345 0.220303 255 220 0
0.336745 0.283005 0.234885 255 220 0
0.297592 0.265271 0.301197 255 220 0
0.337420 0.229990 0.244897 255 220 0
0.280190 0.248043 0.204750 255 220 0
0.319886 0.183680 0.197093 255 220 0
0.272484 0.274830 0.231431 255 220 0
0.334105 0.222606 0.224337 255 220 0
0.293860 0.240710 0.191433 255 220 0
0.296804 0.291880 0.300200 255 220 0
0.309736 0.219280 0.281234 255 220 0
0.289223 0.299216 0.237886 255 220 0
0.317035 0.314217 0.250492 255 220 0
0.283032 0.214842 0.263673 255 220 0
0.266800 0.235649 0.226380 255 220 0
0.319128 0.305259 0.238936 255 220 0
0.308623 0.253124 0.193959 255 220 0
0.323235 0.288585 0.301348 255 220 0
0.284570 0.273387 0.214404 255 220 0
0.269961 0.225068 0.215012 255 220 0
0.290100 0.288315 0.296018 255 220 0
0.281411 0.216103 0.196376 255 220 0
0.303866 0.178485 0.244488 255 220 0
0.323962 0.224821 0.198846 255 220 0
0.328264 0.196248 0.233976 255 220 0
0.266648 0.259839 0.261291 255 220 0
0.285858 0.172458 0.210062 255 220 0
0.328714 0.195426 0.220208 255 220 0
0.282230 0.192432 0.239936 255 220 0
0.301229 0.283258 0.213801 255 220 0
0.332821 0.283917 0.229417 255 220 0
0.279456 0.299796 0.258751 255 220 0
0.342162 0.271832 0.277134 255 220 0
0.268289 0.227255 0.220991 255 220 0
0.279676 0.249862 0.206057 255 220 0
0.276810 0.295068 0.268209 255 220 0
0.341115 0.248070 0.258929 255 220 0
0.289651 0.265755 0.205663 255 220 0
0.329698 0.203887 0.239028 255 220 0
0.317746 0.212798 0.272107 255 220 0
0.334702 0.220330 0.243349 255 220 0
0.315336 0.241826 0.193384 255 220 0
0.277455 0.271767 0.285117 255 220 0
0.311050 0.250830 0.193787 255 220 0
0.343776 0.263445 0.258426 255 220 0
0.270126 0.279521 0.245408 255 220 0
0.275821 0.258684 0.281928 255 220 0
0.266251 0.267982 0.256141 255 220 0
0.320964 0.248831 0.295964 255 220 0
0.276582 0.295242 0.255126 255 220 0
0.308446 0.239705 0.189603 255 220 0
0.319361 0.205165 0.262736 255 220 0
0.325940 0.291242 0.227793 255 220 0
0.332002 0.294054 0.236626 255 220 0
0.324980 0.222996 0.274649 255 220 0
0.322585 0.292340 0.300821 255 220 0
0.286186 0.244120 0.287975 255 220 0
0.324306 0.187114 0.237756 255 220 0
0.322204 0.192940 0.199424 255 220 0
0.279829 0.296797 0.275797 255 220 0
0.264886 0.251317 0.248466 255 220 0
0.306765 0.195630 0.186311 255 220 0
0.331355 0.306598 0.249756 255 220 0
0.266114 0.259649 0.258772 255 220 0
0.300702 0.272951 0.303398 255 220 0
0.323427 0.202946 0.255147 255 220 0
0.314074 0.153065 0.218865 255 220 0
0.279401 0.235589 0.275739 255 220 0
0.306132 0.153839 0.209131 255 220 0
0.328126 0.191371 0.223760 255 220 0
0.338035 0.293919 0.245723 255 220 0
0.281752 0.215772 0.262774 255 220 0
0.326954 0.262385 0.210820 255 220 0
0.315150 0.262562 0.200871 255 220 0
0.312551 0.185272 0.190453 255 220 0
0.326889 0.184444 0.220234 255 220 0
0.315241 0.252819 0.196548 255 220 0
0.332780 0.279539 0.226431 255 220 0
0.319343 0.317489 0.284960 255 220 0
0.310425 0.152757 0.211297 255 220 0
0.341709 0.277125 0.279412 255 220 0
0.312342 0.173294 0.239981 255 220 0
0.272674 0.272529 0.276421 255 220 0
0.293846 0.235319 0.288793 255 220 0
0.269661 0.277216 0.243141 255 220 0
0.318451 0.202897 0.261148 255 220 0
0.319827 0.163237 0.227739 255 220 0
0.296850 0.207615 0.268599 255 220 0
0.286507 0.186359 0.240203 255 220 0
0.330151 0.238933 0.208773 255 220 0
0.344432 0.285439 0.266869 255 220 0
0.343805 0.266262 0.250735 255 220 0
0.306513 0.212553 0.275719 255 220 0
0.326129 0.281338 0.219664 255 220 0
0.344079 0.279229 0.271531 255 220 0
0.299408 0.185896 0.249517 255 220 0
0.277868 0.242247 0.205026 255 220 0
0.342943 0.262966 0.244295 255 220 0
0.314693 0.257156 0.197986 255 220 0
0.326426 0.234092 0.282452 255 220 0
0.292303 0.270082 0.206929 255 220 0
0.287834 0.236847 0.285692 255 220 0
0.332806 0.218906 0.221121 255 220 0
0.329662 0.306062 0.246945 255 220 0
0.286294 0.303163 0.248821 255 220 0
0.322478 0.214846 0.269653 255 220 0
0.326853 0.193103 0.211832 255 220 0
0.301444 0.179529 0.187571 255 220 0
0.289112 0.253346 0.199373 255 220 0
0.275183 0.291635 0.268060 255 220 0
0.270160 0.255424 0.270638 255 220 0
0.286490 0.237939 0.285156 255 220 0
0.307143 0.267760 0.201951 255 220 0
0.308181 0.235509 0.292402 255 220 0
0.293626 0.161786 0.219878 255 220 0
0.276762 0.271477 0.221428 255 220 0
0.305354 0.227427 0.287281 255 220 0
0.328040 0.311780 0.254410 255 220 0
0.327952 0.206512 0.209087 255 220 0
0.294846 0.315641 0.276332 255 220 0
0.306165 0.269610 0.203250 255 220 0
0.267958 0.249912 0.262587 255 220 0
0.270059 0.281221 0.262599 255 220 0
0.295441 0.311314 0.288230 255 220 0
0.305015 0.286749 0.304547 255 220 0
0.279013 0.210807 0.199007 255 220 0
0.275568 0.206403 0.205700 255 220 0
0.285486 0.231178 0.280145 255 220 0
0.331937 0.238195 0.277880 255 220 0
0.329164 0.196469 0.224271 255 220 0
0.271204 0.255752 0.220596 255 220 0
0.327624 0.229222 0.203905 255 220 0
0.309566 0.293815 0.303374 255 220 0
0.320881 0.157274 0.216981 255 220 0
0.303732 0.225407 0.285752 255 220 0
0.275151 0.200527 0.210711 255 220 0
0.333681 0.235193 0.215580 255 220 0
0.265680 0.260184 0.256149 255 220 0
0.265285 0.262175 0.245138 255 220 0
0.267920 0.238363 0.221814 255 220 0
0.322987 0.318450 0.270228 255 220 0
0.325570 0.259855 0.297313 255 220 0
0.288106 0.168356 0.211512 255 220 0
0.305065 0.284697 0.214512 255 220 0
0.271280 0.261554 0.223556 255 220 0
0.278140 0.298348 0.264131 255 220 0
0.321162 0.179049 0.237306 255 220 0
0.316791 0.178753 0.241411 255 220 0
0.276141 0.239059 0.273194 255 220 0
0.294132 0.305581 0.243230 255 220 0
0.301764 0.256287 0.300981 255 220 0
0.311301 0.294262 0.223588 255 220 0
0.287388 0.274847 0.213237 255 220 0
0.328448 0.193073 0.222680 255 220 0
0.308783 0.314534 0.250266 255 220 0
0.287535 0.188752 0.193273 255 220 0
0.277710 0.220558 0.200636 255 220 0
0.282169 0.180173 0.209655 255 220 0
0.293114 0.289539 0.222509 255 220 0
0.330595 0.257136 0.291894 255 220 0
0.337547 0.272417 0.230865 255 220 0
0.318816 0.319959 0.269218 255 220 0
0.281296 0.262386 0.289032 255 220 0
0.342349 0.263787 0.240898 255 220 0
0.301250 0.212562 0.275060 255 220 0
0.273288 0.211427 0.241564 255 220 0
0.278533 0.295413 0.273826 255 220 0
0.329645 0.200333 0.232650 255 220 0
0.306682 0.233726 0.291326 255 220 0
0.276896 0.289942 0.242129 255 220 0
0.314023 0.271567 0.206156 255 220 0
0.306192 0.187635 0.186890 255 220 0
0.305185 0.249694 0.299513 255 220 0
0.280350 0.191287 0.234693 255 220 0
0.280372 0.220018 0.197684 255 220 0
0.278839 0.274662 0.221173 255 220 0
0.293013 0.311043 0.255345 255 220 0
0.284658 0.286207 0.225575 255 220 0
0.306949 0.197760 0.260839 255 220 0
0.322772 0.318558 0.273538 255 220 0
0.282521 0.180877 0.207046 255 220 0
0.321402 0.206893 0.196481 255 220 0
0.278893 0.285340 0.283445 255 220 0
0.303907 0.155909 0.205785 255 220 0
0.321531 0.314223 0.252699 255 220 0
0.320399 0.195862 0.196423 255 220 0
0.339785 0.261763 0.232494 255 220 0
0.290522 0.164766 0.215105 255 220 0
0.319773 0.278722 0.303745 255 220 0
0.307378 0.318116 0.286655 255 220 0
0.275969 0.194244 0.217523 255 220 0
0.310078 0.183966 0.189182 255 220 0
0.336065 0.226640 0.231841 255 220 0
0.316358 0.235345 0.192830 255 220 0
0.295310 0.294244 0.226530 255 220 0
0.321773 0.227148 0.281610 255 220 0
0.287922 0.174125 0.228512 255 220 0
0.325239 0.261380 0.298021 255 220 0
0.283018 0.280273 0.290562 255 220 0
0.268463 0.235270 0.219579 255 220 0
0.309982 0.177852 0.243725 255 220 0
0.334509 0.223201 0.251226 255 220 0
0.313510 0.307427 0.240045 255 220 0
0.335829 0.223464 0.238013 255 220 0
0.302481 0.169576 0.191491 255 220 0
0.342129 0.258694 0.240735 255 220 0
0.295697 0.274111 0.208261 255 220 0
0.324564 0.190728 0.204986 255 220 0
0.277090 0.295187 0.252684 255 220 0
0.323832 0.212544 0.199074 255 220 0
0.310026 0.243059 0.296560 255 220 0
0.312654 0.246920 0.298187 255 220 0
0.343804 0.282450 0.252704 255 220 0
0.337777 0.280562 0.235272 255 220 0
0.303667 0.249119 0.191799 255 220 0
0.322368 0.214459 0.269383 255 220 0
0.298929 0.193511 0.185148 255 220 0
0.279716 0.294692 0.278034 255 220 0
0.320278 0.296537 0.300607 255 220 0
0.318824 0.196588 0.254108 255 220 0
0.324108 0.220956 0.198985 255 220 0
0.281259 0.248892 0.204026 255 220 0
0.266485 0.269395 0.248179 255 220 0
0.314461 0.163727 0.198289 255 220 0
0.314158 0.158371 0.202482 255 220 0
0.339387 0.281427 0.284667 255 220 0
0.276152 0.207131 0.243919 255 220 0
0.336049 0.292494 0.240842 255 220 0
0.316566 0.176931 0.240333 255 220 0
0.276748 0.262080 0.215478 255 220 0
0.271500 0.286183 0.254140 255 220 0
0.319569 0.307983 0.242511 255 220 0
0.278220 0.188366 0.214566 255 220 0
0.333656 0.232630 0.268380 255 220 0
0.266524 0.236761 0.247326 255 220 0
0.278159 0.188746 0.213884 255 220 0
0.325727 0.238971 0.202545 255 220 0
0.331297 0.212878 0.218929 255 220 0
0.323198 0.207640 0.198714 255 220 0
0.317573 0.234638 0.193644 255 220 0
0.308160 0.241652 0.190011 255 220 0
0.326737 0.314232 0.281326 255 220 0
0.304468 0.274409 0.206875 255 220 0
0.297936 0.317298 0.266711 255 220 0
0.341760 0.259337 0.270994 255 220 0
0.319495 0.177425 0.197339 255 220 0
0.267567 0.251926 0.226821 255 220 0
0.316973 0.258460 0.199911 255 220 0
0.327535 0.188469 0.224801 255 220 0
0.275348 0.226284 0.261793 255 220 0
0.279678 0.299405 0.270402 255 220 0
0.344346 0.271184 0.266158 255 220 0
0.266907 0.243789 0.226267 255 220 0
0.313702 0.206662 0.268332 255 220 0
0.322302 0.260301 0.204995 255 220 0
0.307497 0.212331 0.275487 255 220 0
0.264954 0.259035 0.244122 255 220 0
0.306063 0.227358 0.186858 255 220 0
0.310357 0.315266 0.251403 255 220 0
0.289016 0.301628 0.242013 255 220 0
0.268515 0.233994 0.252681 255 220 0
0.280106 0.184860 0.223751 255 220 0
0.314410 0.169553 0.236681 255 220 0
0.298910 0.301134 0.297933 255 220 0
0.288795 0.268051 0.207646 255 220 0
0.267487 0.256873 0.229379 255 220 0
0.288870 0.169233 0.205906 255 220 0
0.318402 0.296204 0.227970 255 220 0
0.303399 0.155063 0.223271 255 220 0
0.326994 0.194957 0.237727 255 220 0
0.298175 0.236539 0.291331 255 220 0
0.328777 0.283285 0.223834 255 220 0
0.330382 0.216413 0.212458 255 220 0
0.274673 0.211779 0.245663 255 220 0
0.334446 0.245186 0.279160 255 220 0
0.324641 0.299366 0.297430 255 220 0
0.342865 0.266188 0.243256 255 220 0
0.310867 0.186412 0.249914 255 220 0
0.321740 0.199226 0.253479 255 220 0
0.268128 0.250969 0.263597 255 220 0
0.325238 0.171748 0.212645 255 220 0
0.283341 0.193533 0.196690 255 220 0
0.279058 0.249171 0.206421 255 220 0
0.265964 0.234933 0.239414 255 220 0
0.329017 0.311005 0.254227 255 220 0
0.289427 0.293944 0.230310 255 220 0
0.295492 0.281904 0.301036 255 220 0
0.280721 0.283247 0.287066 255 220 0
0.291694 0.279687 0.214242 255 220 0
0.328783 0.313629 0.260892 255 220 0
0.268117 0.271086 0.239877 255 220 0
0.300711 0.226817 0.286153 255 220 0
0.270286 0.218123 0.240003 255 220 0
0.304305 0.281844 0.212376 255 220 0
0.309310 0.182148 0.247006 255 220 0
0.293080 0.163439 0.205589 255 220 0
0.291981 0.166492 0.203204 255 220 0
0.325287 0.181085 0.210383 255 220 0
0.338834 0.300148 0.276165 255 220 0
0.328961 0.312750 0.279659 255 220 0
0.271477 0.248316 0.270483 255 220 0
0.340427 0.286565 0.281754 255 220 0
0.332310 0.309344 0.256898 255 220 0
0.329999 0.288069 0.296570 255 220 0
0.289563 0.299536 0.238027 255 220 0
0.336864 0.280128 0.289068 255 220 0
0.316189 0.276061 0.304736 255 220 0
0.303261 0.201373 0.185037 255 220 0
0.273811 0.227763 0.260108 255 220 0
0.341665 0.253723 0.241110 255 220 0
0.294956 0.272320 0.300597 255 220 0
0.272724 0.213118 0.241945 255 220 0
0.315233 0.169649 0.236323 255 220 0
0.284362 0.216092 0.266625 255 220 0
0.307832 0.303572 0.234682 255 220 0
0.293609 0.252201 0.296241 255 220 0
0.268385 0.248027 0.262863 255 220 0
0.341907 0.292893 0.274411 255 220 0
0.334353 0.274622 0.292316 255 220 0
0.280222 0.261736 0.211302 255 220 0
0.344047 0.279933 0.252198 255 220 0
0.314875 0.190497 0.191519 255 220 0
0.311937 0.161610 0.232043 255 220 0
0.338717 0.265700 0.230959 255 220 0
0.288770 0.169253 0.222557 255 220 0
0.277534 0.296968 0.266603 255 220 0
0.307012 0.207252 0.270518 255 220 0
0.326153 0.259558 0.296785 255 220 0
0.281493 0.240540 0.281468 255 220 0
0.271037 0.264719 0.225983 255 220 0
0.272185 0.263405 0.223062 255 220 0
0.341338 0.294706 0.256088 255 220 0
0.314483 0.196179 0.257034 255 220 0
0.285612 0.302207 0.282889 255 220 0
0.342153 0.292025 0.255556 255 220 0
0.344303 0.271411 0.266891 255 220 0
0.330772 0.261813 0.293535 255 220 0
0.316328 0.320672 0.275993 255 220 0
0.268961 0.274155 0.240922 255 220 0
0.292890 0.311289 0.256207 255 220 0
0.343060 0.266762 0.271281 255 220 0
0.331883 0.215380 0.219687 255 220 0
0.315654 0.182887 0.192974 255 220 0
0.281090 0.222815 0.268340 255 220 0
0.309092 0.209675 0.272771 255 220 0
0.289614 0.222303 0.190299 255 220 0
0.304304 0.239577 0.294472 255 220 0
0.312098 0.280923 0.212214 255 220 0
0.335367 0.240961 0.219392 255 220 0
0.312766 0.199728 0.261510 255 220 0
0.320664 0.235772 0.196513 255 220 0
0.281280 0.219940 0.196778 255 220 0
0.272103 0.251249 0.216834 255 220 0
0.320340 0.274359 0.210832 255 220 0
0.340277 0.292815 0.279499 255 220 0
0.273993 0.256857 0.216490 255 220 0
0.336519 0.297160 0.245942 255 220 0
0.344115 0.269485 0.266726 255 220 0
0.283178 0.288788 0.230200 255 220 0
0.268534 0.269955 0.236711 255 220 0
0.296034 0.192043 0.185998 255 220 0
0.311464 0.152839 0.211316 255 220 0
0.309873 0.219783 0.281614 255 220 0
0.320092 0.205454 0.195130 255 220 0
0.334803 0.303320 0.282360 255 220 0
0.340028 0.260360 0.277603 255 220 0
0.329860 0.232466 0.207666 255 220 0
0.274932 0.230807 0.205467 255 220 0
0.343734 0.290044 0.263474 255 220 0
0.282350 0.250976 0.203880 255 220 0
0.291618 0.203018 0.260996 255 220 0
0.272078 0.206136 0.224494 255 220 0
0.340378 0.242913 0.247909 255 220 0
0.343700 0.290256 0.265278 255 220 0
0.266789 0.256810 0.231465 255 220 0
0.335731 0.227288 0.228607 255 220 0
0.305268 0.209285 0.272530 255 220 0
0.307248 0.251363 0.300369 255 220 0
0.325516 0.202039 0.203970 255 220 0
0.267330 0.267833 0.263031 255 220 0
0.336053 0.229458 0.255002 255 220 0
0.311400 0.253151 0.300920 255 220 0
0.329591 0.199478 0.231064 255 220 0
0.292021 0.277618 0.212457 255 220 0
0.290467 0.164789 0.214053 255 220 0
0.288627 0.309481 0.277067 255 220 0
0.292614 0.312160 0.281988 255 220 0
0.332234 0.227872 0.213195 255 220 0
0.322693 0.266950 0.300981 255 220 0
0.320667 0.315234 0.287944 255 220 0
0.279404 0.222262 0.198874 255 220 0
0.331189 0.254409 0.289959 255 220 0
0.275850 0.223111 0.259791 255 220 0
0.265985 0.267288 0.253126 255 220 0
0.289570 0.197825 0.189331 255 220 0
0.272273 0.205926 0.226974 255 220 0
0.337336 0.232681 0.253866 255 220 0
0.323064 0.193147 0.200937 255 220 0
0.303369 0.319954 0.269296 255 220 0
0.275165 0.221938 0.257322 255 220 0
0.287830 0.254057 0.200654 255 220 0
0.267808 0.225583 0.238765 255 220 0
0.325170 0.204958 0.254391 255 220 0
0.296230 0.309451 0.291036 255 220 0
0.304228 0.320277 0.270133 255 220 0
0.281817 0.295243 0.241471 255 220 0
0.279718 0.193712 0.236273 255 220 0
0.290632 0.288371 0.296471 255 220 0
0.325289 0.257818 0.296825 255 220 0
0.333654 0.303305 0.248331 255 220 0
0.300177 0.189077 0.252412 255 220 0
0.303543 0.204077 0.185088 255 220 0
0.317544 0.251224 0.298703 255 220 0
0.268383 0.258260 0.227795 255 220 0
0.313718 0.268421 0.203872 255 220 0
0.308810 0.163441 0.233848 255 220 0
0.273273 0.225087 0.256399 255 220 0
0.334354 0.273546 0.292191 255 220 0
0.327665 0.268122 0.213892 255 220 0
0.299095 0.232620 0.289373 255 220 0
0.295316 0.160649 0.206170 255 220 0
0.307767 0.209864 0.273101 255 220 0
0.315572 0.169127 0.196189 255 220 0
0.266865 0.258031 0.261888 255 220 0
0.280190 0.297671 0.249569 255 220 0
0.326944 0.216768 0.265115 255 220 0
0.283218 0.271383 0.214201 255 220 0
0.282834 0.177395 0.215106 255 220 0
0.329255 0.199488 0.233721 255 220 0
0.315006 0.189752 0.191697 255 220 0
0.344431 0.270878 0.264477 255 220 0
0.343404 0.264997 0.267719 255 220 0
0.319270 0.192390 0.195463 255 220 0
0.268447 0.262768 0.267575 255 220 0
0.266644 0.270154 0.257043 255 220 0
0.316142 0.257540 0.301322 255 220 0
0.268027 0.253318 0.264301 255 220 0
0.326795 0.255454 0.294741 255 220 0
0.320367 0.272683 0.303052 255 220 0
0.338797 0.287240 0.241687 255 220 0
0.274109 0.203439 0.233071 255 220 0
0.327597 0.188555 0.223441 255 220 0
0.295186 0.316015 0.270405 255 220 0
0.339210 0.248459 0.230208 255 220 0
0.325423 0.228304 0.200798 255 220 0
0.283627 0.230584 0.196112 255 220 0
0.324858 0.171178 0.222340 255 220 0
0.318032 0.181406 0.242275 255 220 0
0.343436 0.272039 0.272604 255 220 0
0.296506 0.239404 0.189898 255 220 0
0.327832 0.192617 0.230758 255 220 0
0.332499 0.310127 0.259838 255 220 0
0.300505 0.248245 0.297840 255 220 0
0.318019 0.187340 0.194614 255 220 0
0.287295 0.275081 0.213475 255 220 0
0.308294 0.284526 0.214383 255 220 0
0.317875 0.162228 0.229127 255 220 0
0.342419 0.254900 0.260848 255 220 0
0.265268 0.247707 0.234069 255 220 0
0.275856 0.269847 0.283019 255 220 0
0.339412 0.241963 0.236458 255 220 0
0.300698 0.202738 0.184777 255 220 0
0.339975 0.242853 0.256959 255 220 0
0.339320 0.249435 0.230397 255 220 0
0.313823 0.320515 0.280009 255 220 0
0.284334 0.228925 0.277375 255 220 0
0.303154 0.175696 0.242255 255 220 0
0.330979 0.273273 0.295947 255 220 0
0.321166 0.292208 0.301523 255 220 0
0.288528 0.220229 0.190809 255 220 0
0.314593 0.159522 0.201616 255 220 0
0.322228 0.171296 0.202791 255 220 0
0.324652 0.166408 0.211893 255 220 0
0.300549 0.174421 0.189539 255 220 0
0.281451 0.204774 0.196561 255 220 0
0.333016 0.243268 0.214408 255 220 0
0.326975 0.219226 0.267827 255 220 0
0.273455 0.211724 0.208786 255 220 0
0.330359 0.264902 0.216087 255 220 0
0.337562 0.230513 0.239746 255 220 0
0.311881 0.183811 0.247536 255 220 0
0.300452 0.213043 0.275296 255 220 0
0.332609 0.212177 0.228027 255 220 0
0.324069 0.229941 0.199285 255 220 0
0.311333 0.280656 0.305536 255 220 0
0.323322 0.226275 0.279447 255 220 0
0.311307 0.222371 0.188371 255 220 0
0.274438 0.251122 0.213092 255 220 0
0.327503 0.190121 0.217278 255 220 0
0.340523 0.293772 0.278181 255 220 0
0.335137 0.308052 0.270640 255 220 0
0.319438 0.279341 0.213570 255 220 0
0.299718 0.172790 0.238956 255 220 0
0.273132 0.203042 0.225833 255 220 0
0.340502 0.299453 0.263761 255 220 0
0.343136 0.267037 0.271119 255 220 0
0.325713 0.179299 0.225649 255 220 0
0.311076 0.257514 0.302253 255 220 0
0.279971 0.207823 0.252184 255 220 0
0.283938 0.179295 0.227016 255 220 0
0.319367 0.315479 0.288493 255 220 0
0.326886 0.197813 0.209665 255 220 0
0.329427 0.274688 0.297550 255 220 0
0.281948 0.247645 0.202839 255 220 0
0.328638 0.196284 0.218455 255 220 0
0.307657 0.227312 0.187274 255 220 0
0.330975 0.206469 0.236506 255 220 0
0.272348 0.205189 0.222769 255 220 0
0.311343 0.263037 0.303482 255 220 0
0.321227 0.253572 0.201427 255 220 0
0.289585 0.193270 0.250295 255 220 0
0.275892 0.249510 0.210349 255 220 0
0.276761 0.203190 0.204344 255 220 0
0.316758 0.199394 0.258827 255 220 0
0.333978 0.216503 0.234319 255 220 0
0.320105 0.274101 0.210535 255 220 0
0.274425 0.277458 0.230326 255 220 0
0.297628 0.205373 0.185175 255 220 0
0.317487 0.242621 0.294529 255 220 0
0.305822 0.156325 0.204119 255 220 0
0.337168 0.250172 0.277369 255 220 0
0.329983 0.252408 0.290323 255 220 0
0.333257 0.237795 0.274917 255 220 0
0.338217 0.302054 0.274947 255 220 0
0.330847 0.291601 0.233092 255 220 0
0.340001 0.270334 0.235418 255 220 0
0.272532 0.215938 0.209749 255 220 0
0.279310 0.206904 0.250151 255 220 0
0.300612 0.164963 0.232911 255 220 0
0.277075 0.239455 0.274924 255 220 0
0.280830 0.214930 0.196906 255 220 0
0.290599 0.305528 0.246965 255 220 0
0.285887 0.293732 0.289763 255 220 0
0.278683 0.201586 0.201199 255 220 0
0.329271 0.243193 0.208200 255 220 0
0.336877 0.234112 0.259161 255 220 0
0.280973 0.235200 0.199599 255 220 0
0.296680 0.316941 0.276750 255 220 0
0.325638 0.240605 0.287863 255 220 0
0.278883 0.239382 0.277479 255 220 0
0.302877 0.268651 0.303598 255 220 0
0.311949 0.209977 0.272412 255 220 0
0.297908 0.317640 0.269255 255 220 0
0.280307 0.219736 0.264326 255 220 0
0.279856 0.298793 0.272573 255 220 0
0.299247 0.163080 0.230250 255 220 0
0.321273 0.222656 0.278320 255 220 0
0.316939 0.301843 0.233986 255 220 0
0.329813 0.217761 0.209911 255 220 0
0.318190 0.192626 0.250877 255 220 0
0.323418 0.262065 0.299382 255 220 0
0.327815 0.189918 0.220931 255 220 0
0.269215 0.274712 0.266060 255 220 0
0.288971 0.205013 0.260803 255 220 0
0.299129 0.277031 0.303013 255 220 0
0.334375 0.292991 0.238754 255 220 0
0.310318 0.162797 0.196781 255 220 0
0.335334 0.226425 0.253078 255 220 0
0.305960 0.311166 0.294778 255 220 0
0.314321 0.157135 0.203981 255 220 0
0.268869 0.252560 0.223858 255 220 0
0.334875 0.255255 0.285365 255 220 0
0.298321 0.287865 0.218459 255 220 0
0.316838 0.178171 0.194627 255 220 0
0.288799 0.232004 0.283606 255 220 0
0.326555 0.208651 0.256039 255 220 0
0.338201 0.260125 0.281872 255 220 0
0.337761 0.294206 0.245436 255 220 0
0.317023 0.280321 0.304654 255 220 0
0.326632 0.291822 0.228972 255 220 0
0.325910 0.297408 0.233945 255 220 0
0.343410 0.286320 0.254426 255 220 0
0.338241 0.282325 0.237218 255 220 0
0.326741 0.310889 0.251181 255 220 0
0.330708 0.212363 0.216497 255 220 0
0.312213 0.171384 0.193354 255 220 0
0.333093 0.217237 0.224438 255 220 0
0.315547 0.284690 0.304762 255 220 0
0.320878 0.158360 0.210205 255 220 0
0.285886 0.253403 0.201880 255 220 0
0.299740 0.313952 0.289183 255 220 0
0.294934 0.239776 0.291729 255 220 0
0.312568 0.223020 0.283540 255 220 0
0.268327 0.229179 0.246756 255 220 0
0.315922 0.198503 0.258490 255 220 0
0.307829 0.181231 0.246559 255 220 0
0.329568 0.198290 0.225762 255 220 0
0.276731 0.193996 0.211920 255 220 0
0.339352 0.241067 0.237438 255 220 0
0.341347 0.290898 0.251227 255 220 0
0.337606 0.231095 0.238307 255 220 0
0.304245 0.258596 0.196115 255 220 0
0.328693 0.200708 0.238624 255 220 0
0.330736 0.205623 0.222424 255 220 0
0.328187 0.247113 0.207618 255 220 0
0.276953 0.192681 0.225264 255 220 0
0.275149 0.283542 0.276474 255 220 0
0.316397 0.234639 0.290249 255 220 0
0.340519 0.246175 0.241152 255 220 0
0.285559 0.215546 0.192636 255 220 0
0.294683 0.220185 0.187242 255 220 0
0.339407 0.251725 0.230417 255 220 0
0.284050 0.240753 0.284358 255 220 0
0.302412 0.293317 0.222843 255 220 0
0.293136 0.272139 0.207921 255 220 0
0.286801 0.292833 0.231353 255 220 0
0.330812 0.222565 0.210953 255 220 0
0.325751 0.274886 0.300402 255 220 0
0.328529 0.212515 0.208266 255 220 0
0.280123 0.290227 0.282810 255 220 0
0.326775 0.228205 0.277097 255 220 0
0.276768 0.267595 0.218755 255 220 0
0.305720 0.301988 0.232775 255 220 0
0.311653 0.220016 0.188448 255 220 0
0.276218 0.233787 0.204451 255 220 0
0.332383 0.210439 0.230680 255 220 0
0.284991 0.228284 0.277635 255 220 0
0.315422 0.182146 0.244640 255 220 0
0.344449 0.282448 0.256640 255 220 0
0.284538 0.175355 0.209045 255 220 0
0.301588 0.259157 0.301603 255 220 0
0.330322 0.214613 0.253955 255 220 0
0.320920 0.224196 0.195603 255 220 0
0.300204 0.163865 0.196564 255 220 0
0.289799 0.167817 0.205870 255 220 0
0.306787 0.319141 0.284190 255 220 0
0.275068 0.260418 0.281245 255 220 0
0.314434 0.289605 0.219622 255 220 0
0.330373 0.214082 0.252980 255 220 0
0.344299 0.270164 0.253512 255 220 0
0.344921 0.279718 0.260453 255 220 0
0.332190 0.243974 0.282160 255 220 0
0.338142 0.292929 0.284103 255 220 0
0.305839 0.190202 0.253989 255 220 0
0.278295 0.249914 0.282197 255 220 0
0.272936 0.261218 0.220490 255 220 0
0.330041 0.300748 0.292111 255 220 0
0.265330 0.262958 0.247095 255 220 0
0.314387 0.204627 0.265833 255 220 0
0.287966 0.253981 0.293036 255 220 0
0.279932 0.186490 0.208558 255 220 0
0.323525 0.173007 0.205361 255 220 0
0.334911 0.229997 0.260817 255 220 0
0.271706 0.265246 0.225078 255 220 0
0.292746 0.162705 0.208270 255 220 0
0.277162 0.232834 0.203075 255 220 0
0.295674 0.215014 0.275203 255 220 0
0.321226 0.267272 0.207336 255 220 0
0.292842 0.288900 0.222000 255 220 0
0.287605 0.185188 0.240424 255 220 0
0.274178 0.278962 0.277073 255 220 0
0.298719 0.318319 0.274489 255 220 0
0.285220 0.251632 0.201607 255 220 0
0.267600 0.263675 0.264938 255 220 0
0.339189 0.241804 0.234647 255 220 0
0.310379 0.244761 0.297407 255 220 0
0.295770 0.213720 0.274064 255 220 0
0.290105 0.277258 0.213238 255 220 0
0.311967 0.205007 0.188522 255 220 0
0.325219 0.272166 0.213251 255 220 0
0.269186 0.247257 0.264589 255 220 0
0.278015 0.232595 0.202043 255 220 0
0.301410 0.218685 0.185534 255 220 0
0.340641 0.247585 0.239822 255 220 0
0.298610 0.314394 0.255718 255 220 0
0.277012 0.278005 0.283194 255 220 0
0.288768 0.286395 0.222180 255 220 0
0.275233 0.236211 0.206346 255 220 0
0.272873 0.267148 0.224282 255 220 0
0.325067 0.317280 0.268842 255 220 0
0.309675 0.156947 0.202580 255 220 0
0.294622 0.186880 0.187706 255 220 0
0.295599 0.162377 0.202782 255 220 0
0.338595 0.237231 0.236483 255 220 0
0.331899 0.245841 0.283956 255 220 0
0.330643 0.264193 0.294405 255 220 0
0.300967 0.313161 0.290977 255 220 0
0.332181 0.310956 0.274160 255 220 0
0.318120 0.155271 0.211573 255 220 0
0.273167 0.267786 0.278470 255 220 0
0.322056 0.277641 0.213961 255 220 0
0.272558 0.215909 0.209688 255 220 0
0.303508 0.231477 0.289668 255 220 0
0.324161 0.317714 0.274750 255 220 0
0.282916 0.190018 0.238484 255 220 0
0.293916 0.288776 0.221261 255 220 0
0.316020 0.197472 0.257350 255 220 0
0.273160 0.222959 0.207473 255 220 0
0.289333 0.246100 0.291321 255 220 0
0.265545 0.264462 0.247253 255 220 0
0.281860 0.283700 0.288426 255 220 0
0.301377 0.238380 0.188514 255 220 0
0.318853 0.263195 0.301869 255 220 0
0.314382 0.231912 0.289218 255 220 0
0.297130 0.309354 0.291902 255 220 0
0.335713 0.237101 0.267834 255 220 0
0.319789 0.168042 0.200372 255 220 0
0.269565 0.255240 0.223564 255 220 0
0.337439 0.238032 0.262977 255 220 0
0.266159 0.266734 0.256791 255 220 0
0.279651 0.199877 0.243366 255 220 0
0.332532 0.243285 0.281082 255 220 0
0.289014 0.223755 0.190880 255 220 0
0.343893 0.266830 0.265765 255 220 0
0.337693 0.285156 0.287313 255 220 0
0.327888 0.197918 0.213481 255 220 0
0.321750 0.241744 0.198700 255 220 0
0.307335 0.199712 0.186321 255 220 0
0.327810 0.202586 0.244592 255 220 0
0.266198 0.267417 0.245860 255 220 0
0.277303 0.201312 0.203987 255 220 0
0.327689 0.315580 0.270724 255 220 0
0.341746 0.262443 0.273580 255 220 0
0.333873 0.291779 0.237016 255 220 0
0.278792 0.225218 0.266869 255 220 0
0.285308 0.268069 0.210252 255 220 0
0.294946 0.160732 0.221036 255 220 0
0.338319 0.275950 0.286552 255 220 0
0.280488 0.212836 0.257956 255 220 0
0.327784 0.215109 0.261454 255 220 0
0.289902 0.262726 0.203726 255 220 0
0.314077 0.197217 0.258295 255 220 0
0.292623 0.206764 0.265336 255 220 0
0.319189 0.225844 0.282577 255 220 0
0.340451 0.295370 0.253661 255 220 0
0.283824 0.214622 0.194049 255 220 0
0.339284 0.237958 0.244338 255 220 0
0.321839 0.283536 0.217906 255 220 0
0.343259 0.259345 0.257291 255 220 0
0.331071 0.207408 0.222643 255 220 0
0.332842 0.296595 0.290833 255 220 0
0.323763 0.295745 0.299198 255 220 0
0.343709 0.270064 0.270121 255 220 0
0.279293 0.232922 0.273733 255 220 0
0.326325 0.203165 0.249559 255 220 0
0.314023 0.262787 0.303092 255 220 0
0.287541 0.299615 0.288464 255 220 0
0.293322 0.311964 0.283981 255 220 0
0.308721 0.201019 0.263934 255 220 0
0.292670 0.231658 0.286008 255 220 0
0.302481 0.298123 0.228420 255 220 0
0.315722 0.205856 0.266364 255 220 0
0.307694 0.276240 0.208329 255 220 0
0.285350 0.305897 0.258261 255 220 0
0.280250 0.266418 0.213932 255 220 0
0.343491 0.278367 0.248865 255 220 0
0.268925 0.220041 0.235795 255 220 0
0.320206 0.307546 0.242221 255 220 0
0.266738 0.233742 0.227305 255 220 0
0.273096 0.234248 0.264192 255 220 0
0.279303 0.274101 0.220179 255 220 0
0.328432 0.244081 0.287246 255 220 0
0.295318 0.266392 0.203013 255 220 0
0.282752 0.179287 0.208775 255 220 0
0.317522 0.157185 0.206650 255 220 0
0.279891 0.296095 0.246848 255 220 0
0.302584 0.221772 0.282969 255 220 0
0.332045 0.222247 0.259512 255 220 0
0.343929 0.264775 0.258614 255 220 0
0.319188 0.156283 0.210976 255 220 0
0.266299 0.253741 0.231538 255 220 0
0.314020 0.153627 0.210407 255 220 0
0.311347 0.262940 0.199566 255 220 0
0.281406 0.183435 0.207309 255 220 0
0.312198 0.225036 0.189014 255 220 0
0.313304 0.199795 0.261342 255 220 0
0.325370 0.169661 0.216564 255 220 0
0.325552 0.175589 0.222334 255 220 0
0.280284 0.289506 0.283588 255 220 0
0.295649 0.210058 0.270457 255 220 0
