ply
format ascii 1.0
element vertex 1024
property float x
property float y
property float z
property uchar red
property uchar green
property uchar blue
end_header
0.557142 0.166548 0.175645 255 220 0
0.562203 0.119448 0.148888 255 220 0
0.565727 0.129135 0.135026 255 220 0
0.550649 0.231136 0.184838 255 220 0
0.546573 0.169397 0.112484 255 220 0
0.517785 0.150397 0.121423 255 220 0
0.558084 0.185485 0.178680 255 220 0
0.539706 0.162258 0.182597 255 220 0
0.518057 0.118276 0.133653 255 220 0
0.514348 0.138234 0.178541 255 220 0
0.541130 0.142791 0.116656 255 220 0
0.528821 0.089962 0.169954 255 220 0
0.572019 0.176104 0.161919 255 220 0
0.486949 0.203319 0.166148 255 220 0
0.565290 0.235808 0.166028 255 220 0
0.534732 0.231646 0.118363 255 220 0
0.506975 0.163261 0.126926 255 220 0
0.525834 0.093473 0.174429 255 220 0
0.507749 0.251141 0.140038 255 220 0
0.548828 0.140047 0.173943 255 220 0
0.554133 0.257592 0.154624 255 220 0
0.492187 0.228032 0.173607 255 220 0
0.538178 0.091737 0.165299 255 220 0
0.537204 0.147996 0.115267 255 220 0
0.506377 0.137397 0.137985 255 220 0
0.492846 0.236015 0.154379 255 220 0
0.522973 0.267549 0.166843 255 220 0
0.578051 0.189799 0.143076 255 220 0
0.533192 0.257172 0.134179 255 220 0
0.519746 0.131680 0.126654 255 220 0
0.496049 0.221230 0.135081 255 220 0
0.578267 0.179006 0.148419 255 220 0
0.501252 0.138498 0.163858 255 220 0
0.563127 0.126825 0.132805 255 220 0
0.500110 0.153657 0.140750 255 220 0
0.543799 0.128999 0.174458 255 220 0
0.570328 0.209115 0.166457 255 220 0
0.500286 0.232996 0.181824 255 220 0
0.540681 0.176154 0.184944 255 220 0
0.536680 0.267683 0.149241 255 220 0
0.568437 0.189397 0.123320 255 220 0
0.525003 0.094799 0.145726 255 220 0
0.550571 0.202089 0.184825 255 220 0
0.541736 0.122836 0.174371 255 220 0
0.573728 0.210337 0.138964 255 220 0
0.530561 0.174773 0.111489 255 220 0
0.509726 0.244355 0.132907 255 220 0
0.566285 0.229684 0.139391 255 220 0
0.550013 0.152302 0.115894 255 220 0
0.534437 0.265409 0.143205 255 220 0
0.514202 0.093313 0.161773 255 220 0
0.563467 0.241157 0.165420 255 220 0
0.561830 0.157054 0.170091 255 220 0
0.538114 0.093972 0.168855 255 220 0
0.538255 0.234451 0.189237 255 220 0
0.503161 0.126551 0.155488 255 220 0
0.551332 0.221043 0.185482 255 220 0
0.491520 0.205712 0.177612 255 220 0
0.488136 0.222041 0.164555 255 220 0
0.578138 0.169306 0.145879 255 220 0
0.528420 0.236266 0.120308 255 220 0
0.531860 0.269824 0.159034 255 220 0
0.527619 0.172845 0.112285 255 220 0
0.497784 0.221962 0.182781 255 220 0
0.535026 0.157405 0.182757 255 220 0
0.511683 0.209853 0.117937 255 220 0
0.533460 0.127912 0.178284 255 220 0
0.517281 0.159791 0.119101 255 220 0
0.493296 0.188305 0.177677 255 220 0
0.547425 0.181195 0.183272 255 220 0
0.525256 0.140293 0.120593 255 220 0
0.518412 0.208244 0.114543 255 220 0
0.551363 0.196352 0.113371 255 220 0
0.538231 0.219346 0.114513 255 220 0
0.526371 0.224085 0.115795 255 220 0
0.546435 0.225801 0.187656 255 220 0
0.541689 0.266775 0.159795 255 220 0
0.570946 0.222450 0.143266 255 220 0
0.499203 0.169712 0.178435 255 220 0
0.492069 0.223262 0.175868 255 220 0
0.495210 0.243222 0.156850 255 220 0
0.508015 0.128902 0.139791 255 220 0
0.503318 0.209344 0.124251 255 220 0
0.555799 0.173341 0.115194 255 220 0
0.525906 0.107917 0.134785 255 220 0
0.573474 0.209652 0.137767 255 220 0
0.502286 0.243429 0.140188 255 220 0
0.509502 0.120059 0.172544 255 220 0
0.575520 0.196573 0.136865 255 220 0
0.556175 0.120695 0.162813 255 220 0
0.533845 0.091388 0.148204 255 220 0
0.537831 0.184492 0.110429 255 220 0
0.540740 0.213110 0.113238 255 220 0
0.536631 0.236975 0.121210 255 220 0
0.550771 0.176200 0.180989 255 220 0
0.525256 0.152766 0.182749 255 220 0
0.564597 0.211064 0.174392 255 220 0
0.561601 0.148558 0.122134 255 220 0
0.545853 0.206576 0.187155 255 220 0
0.522378 0.198108 0.190950 255 220 0
0.526707 0.222872 0.191979 255 220 0
0.493773 0.161199 0.156274 255 220 0
0.493366 0.201302 0.136468 255 220 0
0.520436 0.097191 0.146228 255 220 0
0.489781 0.203023 0.143699 255 220 0
0.498752 0.168488 0.177548 255 220 0
0.555491 0.154910 0.173764 255 220 0
0.531219 0.120947 0.178166 255 220 0
0.547756 0.170030 0.181120 255 220 0
0.574024 0.207098 0.137771 255 220 0
0.497498 0.211043 0.130537 255 220 0
0.555801 0.254636 0.163606 255 220 0
0.508906 0.142595 0.132168 255 220 0
0.506691 0.246355 0.180233 255 220 0
0.517701 0.243323 0.186535 255 220 0
0.525563 0.181658 0.188342 255 220 0
0.520659 0.223748 0.191694 255 220 0
0.550662 0.256593 0.169716 255 220 0
0.538028 0.189247 0.110312 255 220 0
0.536982 0.254054 0.132337 255 220 0
0.546310 0.253760 0.176888 255 220 0
0.534361 0.228675 0.117103 255 220 0
0.500301 0.137836 0.156620 255 220 0
0.517394 0.131670 0.178876 255 220 0
0.499593 0.145231 0.147781 255 220 0
0.567554 0.164625 0.166153 255 220 0
0.563267 0.160094 0.120419 255 220 0
0.514792 0.200842 0.115574 255 220 0
0.508350 0.231849 0.127167 255 220 0
0.536825 0.173162 0.111187 255 220 0
0.536674 0.257865 0.135412 255 220 0
0.560903 0.125100 0.158441 255 220 0
0.538262 0.147695 0.115280 255 220 0
0.490043 0.222988 0.171928 255 220 0
0.553199 0.255831 0.146168 255 220 0
0.494833 0.165906 0.145200 255 220 0
0.564572 0.185231 0.119787 255 220 0
0.549119 0.190023 0.183935 255 220 0
0.507958 0.114798 0.149075 255 220 0
0.505801 0.256596 0.150048 255 220 0
0.537035 0.147952 0.180475 255 220 0
0.524211 0.142646 0.120283 255 220 0
0.540192 0.108691 0.173292 255 220 0
0.564149 0.190235 0.173952 255 220 0
0.561728 0.196803 0.176961 255 220 0
0.572247 0.145367 0.149125 255 220 0
0.578208 0.167122 0.138618 255 220 0
0.492809 0.217686 0.139538 255 220 0
0.547729 0.263117 0.154747 255 220 0
0.526266 0.143839 0.119052 255 220 0
0.545869 0.170107 0.181945 255 220 0
0.530223 0.121682 0.126046 255 220 0
0.548446 0.173768 0.112620 255 220 0
0.544958 0.202805 0.112134 255 220 0
0.532128 0.180210 0.110757 255 220 0
0.495831 0.169215 0.141123 255 220 0
0.561843 0.145550 0.123225 255 220 0
0.572684 0.170190 0.126547 255 220 0
0.510645 0.240081 0.129696 255 220 0
0.491666 0.172383 0.167777 255 220 0
0.538539 0.187038 0.187355 255 220 0
0.518864 0.094266 0.172954 255 220 0
0.534313 0.215040 0.113142 255 220 0
0.540317 0.156498 0.113336 255 220 0
0.544553 0.229789 0.188088 255 220 0
0.513023 0.260188 0.144004 255 220 0
0.578865 0.177859 0.144523 255 220 0
0.551236 0.144062 0.118484 255 220 0
0.572843 0.190476 0.162434 255 220 0
0.543076 0.111121 0.130844 255 220 0
0.487742 0.207121 0.150111 255 220 0
0.501159 0.134999 0.153823 255 220 0
0.524648 0.264819 0.172260 255 220 0
0.575795 0.196395 0.137604 255 220 0
0.530506 0.226334 0.116143 255 220 0
0.545032 0.174462 0.111809 255 220 0
0.506087 0.258264 0.163197 255 220 0
0.549960 0.241831 0.182123 255 220 0
0.552725 0.246183 0.134778 255 220 0
0.549113 0.251868 0.136497 255 220 0
0.521284 0.264067 0.172218 255 220 0
0.563760 0.148744 0.123406 255 220 0
0.550775 0.130361 0.123147 255 220 0
0.539253 0.263286 0.142353 255 220 0
0.549828 0.234983 0.125169 255 220 0
0.538462 0.224190 0.116069 255 220 0
0.522754 0.130126 0.125499 255 220 0
0.531155 0.213605 0.112905 255 220 0
0.575440 0.171165 0.130034 255 220 0
0.514937 0.164382 0.184325 255 220 0
0.502689 0.253913 0.152520 255 220 0
0.526782 0.179669 0.111635 255 220 0
0.563076 0.208495 0.122395 255 220 0
0.573412 0.145018 0.139876 255 220 0
0.536942 0.137426 0.178705 255 220 0
0.551249 0.111608 0.164686 255 220 0
0.486531 0.200056 0.156698 255 220 0
0.506199 0.130136 0.142177 255 220 0
0.552304 0.257239 0.147121 255 220 0
0.536943 0.149187 0.180727 255 220 0
0.552438 0.212004 0.184734 255 220 0
0.530408 0.250668 0.184182 255 220 0
0.556581 0.185790 0.179705 255 220 0
0.530293 0.095289 0.175158 255 220 0
0.533005 0.176443 0.111040 255 220 0
0.518620 0.250572 0.183159 255 220 0
0.538185 0.093519 0.168214 255 220 0
0.532562 0.217808 0.191627 255 220 0
0.522663 0.145422 0.120142 255 220 0
0.496185 0.241102 0.171785 255 220 0
0.531337 0.237445 0.189479 255 220 0
0.504234 0.238751 0.182602 255 220 0
0.492987 0.182221 0.141132 255 220 0
0.535193 0.122403 0.124667 255 220 0
0.538769 0.144956 0.179447 255 220 0
0.556082 0.218960 0.182403 255 220 0
0.509514 0.120129 0.172569 255 220 0
0.557224 0.110770 0.151840 255 220 0
0.493213 0.201196 0.179499 255 220 0
0.513740 0.256293 0.139088 255 220 0
0.559254 0.123338 0.160014 255 220 0
0.507975 0.154240 0.179344 255 220 0
0.489905 0.174176 0.157493 255 220 0
0.516286 0.138432 0.179265 255 220 0
0.488065 0.194385 0.168638 255 220 0
0.545498 0.238849 0.125145 255 220 0
0.503827 0.253710 0.149104 255 220 0
0.500588 0.251968 0.154867 255 220 0
0.554537 0.187711 0.181162 255 220 0
0.497511 0.174195 0.136045 255 220 0
0.576013 0.200440 0.155340 255 220 0
0.490072 0.174623 0.154380 255 220 0
0.511821 0.222615 0.190167 255 220 0
0.523110 0.128739 0.125869 255 220 0
0.547065 0.177066 0.182727 255 220 0
0.541702 0.250542 0.181814 255 220 0
0.574844 0.152791 0.147347 255 220 0
0.515409 0.266142 0.153762 255 220 0
0.501562 0.214974 0.126811 255 220 0
0.515953 0.242762 0.186313 255 220 0
0.542389 0.153034 0.114155 255 220 0
0.538753 0.214182 0.190197 255 220 0
0.506225 0.250957 0.141725 255 220 0
0.533088 0.242858 0.123939 255 220 0
0.568606 0.187385 0.123222 255 220 0
0.563345 0.150350 0.166807 255 220 0
0.570892 0.163472 0.161150 255 220 0
0.512877 0.127975 0.133946 255 220 0
0.549852 0.255290 0.172311 255 220 0
0.497882 0.240134 0.175581 255 220 0
0.495979 0.245472 0.162546 255 220 0
0.527466 0.166342 0.113350 255 220 0
0.526721 0.247291 0.126836 255 220 0
0.552485 0.212389 0.184724 255 220 0
0.524053 0.099717 0.177428 255 220 0
0.567041 0.216236 0.170688 255 220 0
0.489817 0.228824 0.159617 255 220 0
0.537547 0.173494 0.185331 255 220 0
0.556442 0.169324 0.115771 255 220 0
0.551914 0.109979 0.163043 255 220 0
0.542144 0.204948 0.111858 255 220 0
0.550399 0.157515 0.177102 255 220 0
0.569759 0.157301 0.125574 255 220 0
0.501100 0.252076 0.153159 255 220 0
0.492457 0.179270 0.173711 255 220 0
0.553004 0.230242 0.124461 255 220 0
0.559171 0.250358 0.151195 255 220 0
0.495102 0.166382 0.144246 255 220 0
0.528346 0.167512 0.112932 255 220 0
0.565958 0.237240 0.151203 255 220 0
0.578296 0.170071 0.137510 255 220 0
0.508877 0.250659 0.178620 255 220 0
0.560324 0.196445 0.117798 255 220 0
0.534728 0.153072 0.114316 255 220 0
0.500584 0.246756 0.146334 255 220 0
0.550964 0.137111 0.120675 255 220 0
0.504296 0.126101 0.164663 255 220 0
0.568635 0.147615 0.159017 255 220 0
0.529507 0.138131 0.180187 255 220 0
0.509029 0.204817 0.119194 255 220 0
0.523636 0.104524 0.138090 255 220 0
0.540797 0.131208 0.176306 255 220 0
0.505481 0.135666 0.140364 255 220 0
0.571157 0.205609 0.130988 255 220 0
0.570464 0.214436 0.165105 255 220 0
0.532166 0.239794 0.122084 255 220 0
0.529450 0.225521 0.191661 255 220 0
0.530003 0.157654 0.114266 255 220 0
0.555895 0.171516 0.115351 255 220 0
0.521382 0.239739 0.123667 255 220 0
0.534590 0.196084 0.189620 255 220 0
0.566443 0.185891 0.121209 255 220 0
0.528939 0.147275 0.181598 255 220 0
0.500478 0.169679 0.179469 255 220 0
0.533896 0.164078 0.184280 255 220 0
0.576764 0.159992 0.145821 255 220 0
0.498149 0.226604 0.134480 255 220 0
0.578436 0.168040 0.140163 255 220 0
0.542235 0.209670 0.188790 255 220 0
0.531517 0.215342 0.113258 255 220 0
0.494892 0.213437 0.134594 255 220 0
0.516452 0.209743 0.115503 255 220 0
0.496423 0.212691 0.182855 255 220 0
0.532247 0.233989 0.119179 255 220 0
0.576429 0.156134 0.138661 255 220 0
0.505802 0.158709 0.179474 255 220 0
0.572155 0.219976 0.156733 255 220 0
0.568253 0.226695 0.164625 255 220 0
0.505240 0.180195 0.184904 255 220 0
0.510584 0.253745 0.177086 255 220 0
0.487923 0.203567 0.149090 255 220 0
0.521165 0.131538 0.179612 255 220 0
0.554599 0.119376 0.164059 255 220 0
0.516920 0.244816 0.128565 255 220 0
0.515581 0.191368 0.115139 255 220 0
0.560715 0.115278 0.144996 255 220 0
0.562157 0.243776 0.165735 255 220 0
0.510844 0.203491 0.117923 255 220 0
0.492274 0.236784 0.161644 255 220 0
0.512765 0.153464 0.181221 255 220 0
0.519220 0.092268 0.170953 255 220 0
0.492068 0.190186 0.140588 255 220 0
0.524605 0.088270 0.160302 255 220 0
0.535980 0.129171 0.177739 255 220 0
0.562930 0.230904 0.173177 255 220 0
0.495738 0.166758 0.142584 255 220 0
0.574996 0.186627 0.158030 255 220 0
0.578847 0.181852 0.143863 255 220 0
0.555286 0.108127 0.153790 255 220 0
0.535642 0.121357 0.176860 255 220 0
0.578540 0.171218 0.144526 255 220 0
0.571162 0.209184 0.164988 255 220 0
0.532705 0.268902 0.163838 255 220 0
0.524001 0.088443 0.165191 255 220 0
0.529523 0.231252 0.190905 255 220 0
0.509174 0.119762 0.172088 255 220 0
0.503869 0.223182 0.127087 255 220 0
0.486602 0.196378 0.158221 255 220 0
0.532294 0.212247 0.112562 255 220 0
0.505860 0.155936 0.178579 255 220 0
0.518142 0.105558 0.177078 255 220 0
0.493345 0.162682 0.160079 255 220 0
0.504433 0.130532 0.145636 255 220 0
0.568437 0.164911 0.165086 255 220 0
0.544352 0.233115 0.187665 255 220 0
0.549781 0.208717 0.185752 255 220 0
0.493098 0.170662 0.170312 255 220 0
0.574985 0.207486 0.156284 255 220 0
0.537830 0.229665 0.190113 255 220 0
0.501412 0.134808 0.160669 255 220 0
0.552987 0.164191 0.114893 255 220 0
0.553477 0.202842 0.183537 255 220 0
0.578888 0.175713 0.143604 255 220 0
0.503785 0.193663 0.186515 255 220 0
0.568149 0.190422 0.123190 255 220 0
0.487510 0.196114 0.151351 255 220 0
0.551085 0.152716 0.175612 255 220 0
0.563633 0.241967 0.163369 255 220 0
0.544389 0.238580 0.124498 255 220 0
0.505148 0.170579 0.182629 255 220 0
0.546116 0.125291 0.172344 255 220 0
0.551134 0.101284 0.143761 255 220 0
0.566455 0.171969 0.121194 255 220 0
0.519499 0.236549 0.122813 255 220 0
0.500808 0.205226 0.126366 255 220 0
0.487885 0.196796 0.149713 255 220 0
0.577001 0.186671 0.135759 255 220 0
0.489135 0.198718 0.172597 255 220 0
0.514118 0.099726 0.150617 255 220 0
0.550737 0.197611 0.113250 255 220 0
0.489052 0.189095 0.169967 255 220 0
0.559118 0.250369 0.163128 255 220 0
0.554237 0.136054 0.169744 255 220 0
0.529807 0.262434 0.138783 255 220 0
0.576296 0.188869 0.134901 255 220 0
0.504438 0.196597 0.122841 255 220 0
0.517881 0.224605 0.118424 255 220 0
0.518390 0.263961 0.144070 255 220 0
0.498537 0.249771 0.163196 255 220 0
0.545722 0.133482 0.120388 255 220 0
0.537065 0.132440 0.120271 255 220 0
0.488938 0.188470 0.148535 255 220 0
0.511344 0.195471 0.189291 255 220 0
0.538010 0.133987 0.177827 255 220 0
0.542958 0.183001 0.111040 255 220 0
0.567599 0.153959 0.163146 255 220 0
0.504101 0.255717 0.165586 255 220 0
0.525081 0.095431 0.175776 255 220 0
0.488889 0.186543 0.168383 255 220 0
0.530364 0.129444 0.122704 255 220 0
0.562609 0.164777 0.171314 255 220 0
0.513077 0.202770 0.116562 255 220 0
0.522889 0.199567 0.112223 255 220 0
0.533667 0.167917 0.111934 255 220 0
0.546734 0.263256 0.162233 255 220 0
0.501511 0.223306 0.185307 255 220 0
0.521629 0.101605 0.141470 255 220 0
0.572608 0.207359 0.134470 255 220 0
0.542871 0.189513 0.110891 255 220 0
0.526606 0.240877 0.122907 255 220 0
0.517083 0.124024 0.178200 255 220 0
0.511885 0.125444 0.175553 255 220 0
0.494346 0.192010 0.136046 255 220 0
0.553001 0.238514 0.129436 255 220 0
0.487954 0.220873 0.165227 255 220 0
0.571300 0.220217 0.141231 255 220 0
0.562958 0.197328 0.119727 255 220 0
0.537689 0.130215 0.177340 255 220 0
0.556345 0.250227 0.143434 255 220 0
0.544823 0.111551 0.130885 255 220 0
0.547813 0.142863 0.117732 255 220 0
0.525688 0.111081 0.132981 255 220 0
0.563364 0.214828 0.125037 255 220 0
0.506832 0.218629 0.188745 255 220 0
0.566411 0.205012 0.172277 255 220 0
0.546595 0.263989 0.157745 255 220 0
0.492564 0.220149 0.141204 255 220 0
0.556408 0.202020 0.181720 255 220 0
0.491646 0.170174 0.165233 255 220 0
0.508399 0.153001 0.128770 255 220 0
0.517506 0.242645 0.127009 255 220 0
0.532787 0.141229 0.180203 255 220 0
0.488739 0.196587 0.171225 255 220 0
0.541033 0.223416 0.116332 255 220 0
0.577662 0.192223 0.142705 255 220 0
0.556784 0.108387 0.146280 255 220 0
0.487813 0.214461 0.169251 255 220 0
0.508663 0.132210 0.137159 255 220 0
0.551063 0.141152 0.119344 255 220 0
0.553027 0.200416 0.114438 255 220 0
0.544706 0.248804 0.131220 255 220 0
0.556247 0.212917 0.118896 255 220 0
0.499662 0.150779 0.168896 255 220 0
0.543943 0.264837 0.163086 255 220 0
0.528276 0.110546 0.132317 255 220 0
0.562380 0.130463 0.159528 255 220 0
0.505572 0.238010 0.132507 255 220 0
0.527377 0.088522 0.156741 255 220 0
0.559049 0.251530 0.156064 255 220 0
0.557590 0.120561 0.160825 255 220 0
0.561603 0.196330 0.177038 255 220 0
0.518109 0.100115 0.145596 255 220 0
0.501579 0.242811 0.178203 255 220 0
0.526993 0.269771 0.153205 255 220 0
0.522470 0.126942 0.126945 255 220 0
0.554874 0.106295 0.151359 255 220 0
0.546535 0.164570 0.180527 255 220 0
0.574995 0.154000 0.147903 255 220 0
0.562757 0.220919 0.127414 255 220 0
0.499907 0.186914 0.183355 255 220 0
0.509751 0.114406 0.145639 255 220 0
0.501412 0.224973 0.184921 255 220 0
0.499176 0.236856 0.139656 255 220 0
0.534482 0.164172 0.112340 255 220 0
0.507004 0.125425 0.170195 255 220 0
0.528431 0.170182 0.186072 255 220 0
0.563774 0.239460 0.145931 255 220 0
0.540029 0.164510 0.182955 255 220 0
0.544246 0.094213 0.148012 255 220 0
0.554402 0.197396 0.182499 255 220 0
0.569962 0.194744 0.125939 255 220 0
0.549979 0.120000 0.168491 255 220 0
0.534448 0.232859 0.118868 255 220 0
0.563433 0.136764 0.161465 255 220 0
0.489431 0.207397 0.174114 255 220 0
0.490639 0.211673 0.176285 255 220 0
0.554686 0.224042 0.183100 255 220 0
0.566126 0.214271 0.172264 255 220 0
0.576587 0.165337 0.133044 255 220 0
0.505174 0.170108 0.182518 255 220 0
0.557842 0.112566 0.137810 255 220 0
0.514165 0.243944 0.129613 255 220 0
0.511581 0.257304 0.174032 255 220 0
0.509307 0.147150 0.177924 255 220 0
0.567012 0.144236 0.159982 255 220 0
0.557795 0.169796 0.116352 255 220 0
0.523735 0.207422 0.112850 255 220 0
0.540789 0.092517 0.162473 255 220 0
0.535023 0.089619 0.164640 255 220 0
0.526007 0.237369 0.189590 255 220 0
0.505795 0.150339 0.133053 255 220 0
0.565657 0.227358 0.170048 255 220 0
0.511960 0.123325 0.175366 255 220 0
0.551883 0.186548 0.113217 255 220 0
0.527470 0.225272 0.116005 255 220 0
0.564254 0.241298 0.152216 255 220 0
0.523411 0.120451 0.129260 255 220 0
0.517650 0.186291 0.188930 255 220 0
0.511270 0.177935 0.119242 255 220 0
0.524109 0.120481 0.128905 255 220 0
0.571948 0.161969 0.158972 255 220 0
0.549897 0.146295 0.174732 255 220 0
0.561509 0.132204 0.161759 255 220 0
0.574495 0.153783 0.149433 255 220 0
0.576767 0.158043 0.138133 255 220 0
0.537227 0.264639 0.170153 255 220 0
0.574575 0.194718 0.133533 255 220 0
0.539655 0.259692 0.138182 255 220 0
0.529355 0.211595 0.191837 255 220 0
0.549032 0.104497 0.164032 255 220 0
0.534850 0.182257 0.110475 255 220 0
0.578682 0.177831 0.146069 255 220 0
0.533717 0.127030 0.178120 255 220 0
0.498363 0.175447 0.134214 255 220 0
0.522403 0.244705 0.126146 255 220 0
0.539150 0.220079 0.190252 255 220 0
0.531771 0.174725 0.111340 255 220 0
0.499598 0.162351 0.175756 255 220 0
0.577226 0.181967 0.152267 255 220 0
0.493576 0.170397 0.171191 255 220 0
0.522339 0.196296 0.112226 255 220 0
0.572815 0.143794 0.138078 255 220 0
0.556295 0.251452 0.145108 255 220 0
0.550468 0.234246 0.125117 255 220 0
0.506456 0.177957 0.123379 255 220 0
0.515074 0.121537 0.134693 255 220 0
0.511194 0.115017 0.173689 255 220 0
0.507527 0.259387 0.152489 255 220 0
0.565396 0.188801 0.120595 255 220 0
0.534691 0.187818 0.110226 255 220 0
0.526936 0.099889 0.140180 255 220 0
0.571143 0.224194 0.148817 255 220 0
0.512299 0.095631 0.162113 255 220 0
0.525383 0.138622 0.180492 255 220 0
0.486633 0.198775 0.162796 255 220 0
0.573312 0.211202 0.159687 255 220 0
0.556359 0.146496 0.171070 255 220 0
0.505660 0.155215 0.131307 255 220 0
0.514060 0.202378 0.190603 255 220 0
0.517027 0.258560 0.176458 255 220 0
0.555613 0.205244 0.182474 255 220 0
0.505653 0.135882 0.171280 255 220 0
0.512006 0.149330 0.179878 255 220 0
0.504091 0.198001 0.123111 255 220 0
0.536194 0.106551 0.175454 255 220 0
0.542317 0.117196 0.127146 255 220 0
0.555078 0.171041 0.115038 255 220 0
0.516898 0.172717 0.116531 255 220 0
0.559328 0.249633 0.164129 255 220 0
0.557252 0.222133 0.123265 255 220 0
0.495873 0.243506 0.154244 255 220 0
0.502411 0.237845 0.135795 255 220 0
0.565717 0.202261 0.123047 255 220 0
0.554757 0.254969 0.165540 255 220 0
0.531944 0.205250 0.111323 255 220 0
0.487976 0.187867 0.165436 255 220 0
0.511261 0.158155 0.124130 255 220 0
0.572941 0.203823 0.133655 255 220 0
0.505756 0.130710 0.169765 255 220 0
0.526462 0.094739 0.145145 255 220 0
0.529260 0.096345 0.142736 255 220 0
0.541868 0.113860 0.172869 255 220 0
0.540433 0.250212 0.182517 255 220 0
0.538861 0.262651 0.171968 255 220 0
0.498566 0.198867 0.128977 255 220 0
0.530902 0.240678 0.188561 255 220 0
0.557689 0.249481 0.168375 255 220 0
0.515217 0.248302 0.183425 255 220 0
0.553145 0.230604 0.124756 255 220 0
0.520861 0.238099 0.188949 255 220 0
0.498314 0.240748 0.175753 255 220 0
0.562761 0.119692 0.140179 255 220 0
0.499777 0.175949 0.131946 255 220 0
0.551904 0.193114 0.183202 255 220 0
0.492160 0.234740 0.155555 255 220 0
0.508551 0.154659 0.128029 255 220 0
0.511845 0.114972 0.174314 255 220 0
0.493657 0.168878 0.146178 255 220 0
0.564514 0.233390 0.139730 255 220 0
0.487140 0.214783 0.156986 255 220 0
0.503609 0.195056 0.123708 255 220 0
0.540130 0.243067 0.186262 255 220 0
0.514978 0.234556 0.188801 255 220 0
0.556539 0.184491 0.115143 255 220 0
0.554181 0.221578 0.183672 255 220 0
0.557396 0.113356 0.155221 255 220 0
0.510900 0.105748 0.171514 255 220 0
0.564064 0.199108 0.174754 255 220 0
0.513058 0.107409 0.145482 255 220 0
0.523761 0.240738 0.123429 255 220 0
0.495471 0.163610 0.170164 255 220 0
0.502051 0.222825 0.185735 255 220 0
0.490101 0.197264 0.143372 255 220 0
0.542038 0.193420 0.110810 255 220 0
0.544373 0.190975 0.111191 255 220 0
0.555885 0.236403 0.179428 255 220 0
0.505055 0.147940 0.174945 255 220 0
0.515409 0.253058 0.135107 255 220 0
0.555554 0.233804 0.180553 255 220 0
0.538615 0.220610 0.190403 255 220 0
0.507425 0.223547 0.188491 255 220 0
0.540302 0.267583 0.157498 255 220 0
0.532636 0.208491 0.111818 255 220 0
0.544042 0.249406 0.131335 255 220 0
0.532611 0.218396 0.191623 255 220 0
0.550500 0.148890 0.175010 255 220 0
0.553407 0.107254 0.157959 255 220 0
0.493703 0.175523 0.142346 255 220 0
0.495369 0.166865 0.172323 255 220 0
0.561647 0.140212 0.125024 255 220 0
0.487582 0.203132 0.168859 255 220 0
0.575672 0.203224 0.140989 255 220 0
0.562411 0.171704 0.172936 255 220 0
0.502113 0.153058 0.174088 255 220 0
0.573744 0.156204 0.152988 255 220 0
0.552130 0.140709 0.119905 255 220 0
0.544609 0.177323 0.111566 255 220 0
0.577306 0.197061 0.149490 255 220 0
0.535246 0.245229 0.186422 255 220 0
0.547882 0.182242 0.112061 255 220 0
0.563480 0.233836 0.171188 255 220 0
0.537902 0.218811 0.190568 255 220 0
0.552881 0.217248 0.118504 255 220 0
0.534279 0.202830 0.110911 255 220 0
0.555440 0.111530 0.135710 255 220 0
0.524414 0.088565 0.166140 255 220 0
0.492396 0.179895 0.173858 255 220 0
0.562424 0.128520 0.158173 255 220 0
0.535028 0.255680 0.180158 255 220 0
0.523611 0.215421 0.192172 255 220 0
0.566633 0.158633 0.165772 255 220 0
0.546879 0.154076 0.114648 255 220 0
0.548770 0.235666 0.184984 255 220 0
0.559173 0.171630 0.116889 255 220 0
0.495819 0.154956 0.153715 255 220 0
0.519997 0.140541 0.123193 255 220 0
0.541391 0.186489 0.186414 255 220 0
0.547342 0.236667 0.185494 255 220 0
0.532665 0.188676 0.110270 255 220 0
0.549360 0.163677 0.179038 255 220 0
0.493955 0.166263 0.168792 255 220 0
0.488562 0.216414 0.171096 255 220 0
0.555757 0.129666 0.166744 255 220 0
0.511072 0.212756 0.118763 255 220 0
0.528407 0.177523 0.187452 255 220 0
0.490406 0.218415 0.174747 255 220 0
0.533740 0.139750 0.179812 255 220 0
0.566490 0.199624 0.123191 255 220 0
0.518973 0.099658 0.145200 255 220 0
0.524338 0.257036 0.134527 255 220 0
0.522847 0.261794 0.139262 255 220 0
0.561083 0.157118 0.170692 255 220 0
0.500232 0.231178 0.182397 255 220 0
0.529816 0.268286 0.166487 255 220 0
0.550611 0.143654 0.118379 255 220 0
0.507565 0.215347 0.189221 255 220 0
0.498937 0.171735 0.134672 255 220 0
0.518578 0.207754 0.114420 255 220 0
0.552543 0.117944 0.129643 255 220 0
0.517924 0.141479 0.124220 255 220 0
0.531143 0.179933 0.187614 255 220 0
0.553752 0.120275 0.165302 255 220 0
0.540648 0.263432 0.143500 255 220 0
0.500256 0.169549 0.133477 255 220 0
0.565189 0.173132 0.120280 255 220 0
0.514362 0.164156 0.119923 255 220 0
0.514870 0.154984 0.182178 255 220 0
0.515604 0.263593 0.146087 255 220 0
0.540409 0.264130 0.144500 255 220 0
0.545597 0.228033 0.119588 255 220 0
0.508089 0.135061 0.136595 255 220 0
0.500433 0.247032 0.146960 255 220 0
0.500986 0.221258 0.185303 255 220 0
0.562886 0.240284 0.168066 255 220 0
0.500582 0.138979 0.161671 255 220 0
0.563919 0.122138 0.139906 255 220 0
0.493811 0.215930 0.180096 255 220 0
0.536910 0.188375 0.110258 255 220 0
0.578174 0.188376 0.142322 255 220 0
0.508949 0.108076 0.168839 255 220 0
0.501575 0.171870 0.130790 255 220 0
0.514648 0.233541 0.188980 255 220 0
0.575030 0.193155 0.158517 255 220 0
0.487027 0.194432 0.163807 255 220 0
0.525702 0.092597 0.147965 255 220 0
0.494666 0.167132 0.171167 255 220 0
0.545142 0.096428 0.161722 255 220 0
0.507885 0.203482 0.119955 255 220 0
0.539224 0.233788 0.120218 255 220 0
0.511399 0.170418 0.184893 255 220 0
0.559168 0.194515 0.116890 255 220 0
0.520285 0.111086 0.135927 255 220 0
0.531406 0.140943 0.180361 255 220 0
0.556998 0.112777 0.155551 255 220 0
0.540456 0.219052 0.189847 255 220 0
0.534992 0.215229 0.191145 255 220 0
0.556555 0.116988 0.160175 255 220 0
0.505671 0.210330 0.122298 255 220 0
0.516730 0.212101 0.115717 255 220 0
0.493652 0.222690 0.178367 255 220 0
0.504416 0.200410 0.122769 255 220 0
0.502338 0.218268 0.186500 255 220 0
0.499941 0.237135 0.179754 255 220 0
0.563878 0.223157 0.173929 255 220 0
0.512547 0.142079 0.128399 255 220 0
0.534906 0.126496 0.177718 255 220 0
0.535018 0.260109 0.137100 255 220 0
0.557909 0.183412 0.178469 255 220 0
0.568975 0.151657 0.160292 255 220 0
0.557880 0.149990 0.119694 255 220 0
0.527756 0.110398 0.178362 255 220 0
0.512711 0.128246 0.176441 255 220 0
0.533787 0.223713 0.191327 255 220 0
0.571516 0.155545 0.127786 255 220 0
0.530551 0.133425 0.179483 255 220 0
0.555633 0.251511 0.169344 255 220 0
0.486837 0.212237 0.164680 255 220 0
0.554743 0.112054 0.159770 255 220 0
0.562819 0.197640 0.119670 255 220 0
0.573875 0.207271 0.137446 255 220 0
0.515836 0.105210 0.175930 255 220 0
0.536251 0.203090 0.190059 255 220 0
0.526242 0.181674 0.111559 255 220 0
0.498509 0.223885 0.132712 255 220 0
0.550163 0.180443 0.182003 255 220 0
0.562553 0.120695 0.137449 255 220 0
0.533686 0.190500 0.188988 255 220 0
0.558188 0.184372 0.178434 255 220 0
0.535944 0.269158 0.156517 255 220 0
0.489893 0.185167 0.147030 255 220 0
0.504755 0.122580 0.163849 255 220 0
0.510129 0.234862 0.187135 255 220 0
0.509407 0.253890 0.176029 255 220 0
0.559971 0.138551 0.124607 255 220 0
0.536374 0.090271 0.164528 255 220 0
0.543061 0.101592 0.169571 255 220 0
0.534439 0.101427 0.175755 255 220 0
0.547092 0.097582 0.144610 255 220 0
0.546247 0.127091 0.123074 255 220 0
0.566593 0.171426 0.168679 255 220 0
0.510149 0.173834 0.185301 255 220 0
0.535844 0.138497 0.118238 255 220 0
0.572929 0.191375 0.162372 255 220 0
0.542097 0.171643 0.183686 255 220 0
0.506966 0.132529 0.171974 255 220 0
0.491340 0.170679 0.164475 255 220 0
0.542546 0.149820 0.179036 255 220 0
0.570378 0.152383 0.158218 255 220 0
0.497657 0.245023 0.170593 255 220 0
0.501943 0.185219 0.184262 255 220 0
0.571537 0.140227 0.144427 255 220 0
0.548559 0.175612 0.112536 255 220 0
0.540628 0.125111 0.175315 255 220 0
0.536823 0.245498 0.186028 255 220 0
0.546815 0.254630 0.175704 255 220 0
0.576699 0.202703 0.148532 255 220 0
0.505017 0.118371 0.160195 255 220 0
0.518034 0.138426 0.125230 255 220 0
0.551104 0.244064 0.180179 255 220 0
0.532886 0.218571 0.191585 255 220 0
0.528612 0.119165 0.178575 255 220 0
0.490938 0.222894 0.173994 255 220 0
0.500655 0.154827 0.139120 255 220 0
0.511568 0.118190 0.140423 255 220 0
0.528964 0.268703 0.165414 255 220 0
0.549834 0.128516 0.170714 255 220 0
0.508777 0.236787 0.185933 255 220 0
0.558540 0.168175 0.116857 255 220 0
0.542573 0.131181 0.175493 255 220 0
0.573057 0.144001 0.139695 255 220 0
0.532566 0.148490 0.181435 255 220 0
0.521152 0.138930 0.123076 255 220 0
0.492249 0.228384 0.173517 255 220 0
0.577065 0.174316 0.151485 255 220 0
0.500004 0.141362 0.150348 255 220 0
0.550742 0.172993 0.113317 255 220 0
0.537348 0.129010 0.121586 255 220 0
0.505730 0.151701 0.176974 255 220 0
0.539584 0.156567 0.181461 255 220 0
0.577360 0.196687 0.149230 255 220 0
0.544864 0.206867 0.112760 255 220 0
0.562118 0.123108 0.134206 255 220 0
0.493783 0.206374 0.180439 255 220 0
0.529661 0.088216 0.157886 255 220 0
0.518601 0.206120 0.191524 255 220 0
0.505995 0.213681 0.188631 255 220 0
0.514148 0.193828 0.189631 255 220 0
0.541982 0.251339 0.181166 255 220 0
0.569762 0.222870 0.162911 255 220 0
0.562718 0.205299 0.176444 255 220 0
0.536395 0.142654 0.116841 255 220 0
0.501723 0.153066 0.138037 255 220 0
0.507221 0.108699 0.160652 255 220 0
0.493423 0.193179 0.137389 255 220 0
0.549828 0.136281 0.120548 255 220 0
0.548528 0.240016 0.127393 255 220 0
0.506372 0.248608 0.139312 255 220 0
0.540047 0.126235 0.122669 255 220 0
0.570301 0.168418 0.163221 255 220 0
0.527142 0.183579 0.188616 255 220 0
0.555834 0.155578 0.117434 255 220 0
0.530683 0.263852 0.140349 255 220 0
0.501616 0.201880 0.186218 255 220 0
0.491957 0.194334 0.139903 255 220 0
0.491198 0.233121 0.164591 255 220 0
0.496878 0.167081 0.174785 255 220 0
0.537667 0.261142 0.138911 255 220 0
0.495498 0.170938 0.140946 255 220 0
0.520418 0.245145 0.127139 255 220 0
0.508154 0.105769 0.158910 255 220 0
0.500638 0.181405 0.182739 255 220 0
0.567862 0.231879 0.148270 255 220 0
0.558806 0.146529 0.169444 255 220 0
0.510151 0.142136 0.177096 255 220 0
0.499864 0.226128 0.183541 255 220 0
0.537627 0.126589 0.176830 255 220 0
0.512051 0.220328 0.120089 255 220 0
0.495778 0.156548 0.150801 255 220 0
0.493645 0.240190 0.159236 255 220 0
0.566957 0.226796 0.167724 255 220 0
0.540091 0.090850 0.158345 255 220 0
0.528507 0.173923 0.186780 255 220 0
0.516889 0.267179 0.155941 255 220 0
0.533338 0.089199 0.165528 255 220 0
0.538066 0.181536 0.110589 255 220 0
0.513132 0.214170 0.190966 255 220 0
0.568038 0.211707 0.128875 255 220 0
0.550577 0.103839 0.160547 255 220 0
0.487655 0.190892 0.152551 255 220 0
0.515520 0.159072 0.183241 255 220 0
0.519271 0.217066 0.191916 255 220 0
0.563180 0.231020 0.172771 255 220 0
0.500422 0.244542 0.175632 255 220 0
0.571672 0.221051 0.157636 255 220 0
0.569519 0.228246 0.157446 255 220 0
0.554667 0.228254 0.182508 255 220 0
0.565396 0.216739 0.172965 255 220 0
0.560949 0.248070 0.161063 255 220 0
0.551487 0.144717 0.173504 255 220 0
0.547132 0.097036 0.157241 255 220 0
0.547761 0.152734 0.177292 255 220 0
0.501536 0.248432 0.173415 255 220 0
0.531153 0.093345 0.173356 255 220 0
0.563164 0.173027 0.119014 255 220 0
0.520300 0.266906 0.147814 255 220 0
0.486376 0.201718 0.159272 255 220 0
0.493129 0.183753 0.176314 255 220 0
0.509366 0.170985 0.122263 255 220 0
0.505332 0.150723 0.176274 255 220 0
0.505193 0.129634 0.168438 255 220 0
0.537661 0.136299 0.178314 255 220 0
0.527320 0.124223 0.125883 255 220 0
0.548963 0.180084 0.182447 255 220 0
0.558392 0.230817 0.178634 255 220 0
0.543545 0.171516 0.183141 255 220 0
0.577047 0.175757 0.133052 255 220 0
0.527607 0.144220 0.181184 255 220 0
0.543845 0.141378 0.176821 255 220 0
0.571956 0.171610 0.161235 255 220 0
0.515775 0.129074 0.130682 255 220 0
0.509217 0.233123 0.127153 255 220 0
0.493702 0.197284 0.179667 255 220 0
0.548382 0.186358 0.183690 255 220 0
0.555429 0.135085 0.123408 255 220 0
0.565264 0.137137 0.129147 255 220 0
0.559130 0.186426 0.178056 255 220 0
0.488757 0.198853 0.146628 255 220 0
0.568153 0.218701 0.132968 255 220 0
0.568473 0.192735 0.123864 255 220 0
0.554936 0.221513 0.121402 255 220 0
0.560261 0.151320 0.169729 255 220 0
0.505085 0.238110 0.183422 255 220 0
0.557565 0.141059 0.168791 255 220 0
0.508543 0.242130 0.132445 255 220 0
0.505991 0.186012 0.186298 255 220 0
0.551393 0.192945 0.113177 255 220 0
0.564656 0.231037 0.137482 255 220 0
0.570653 0.138175 0.145250 255 220 0
0.549418 0.156325 0.114901 255 220 0
0.539552 0.149458 0.180041 255 220 0
0.489668 0.184738 0.147852 255 220 0
0.510049 0.129874 0.174646 255 220 0
0.551657 0.225839 0.184972 255 220 0
0.525151 0.106599 0.135951 255 220 0
0.488529 0.223706 0.164683 255 220 0
0.521096 0.163593 0.184834 255 220 0
0.569920 0.145480 0.155283 255 220 0
0.536852 0.091320 0.148713 255 220 0
0.526748 0.098645 0.141315 255 220 0
0.529233 0.269551 0.151652 255 220 0
0.495873 0.214647 0.133324 255 220 0
0.573909 0.214395 0.143785 255 220 0
0.521712 0.162682 0.184673 255 220 0
0.549237 0.213468 0.186316 255 220 0
0.547562 0.225141 0.187200 255 220 0
0.510216 0.202563 0.189738 255 220 0
0.530651 0.247325 0.185919 255 220 0
0.501881 0.140908 0.167186 255 220 0
0.492065 0.205831 0.138749 255 220 0
0.545914 0.187893 0.111495 255 220 0
0.524065 0.257601 0.179442 255 220 0
0.521594 0.201149 0.112740 255 220 0
0.501115 0.159436 0.175992 255 220 0
0.488377 0.214711 0.150372 255 220 0
0.528302 0.116136 0.129276 255 220 0
0.542109 0.104325 0.171254 255 220 0
0.523354 0.180580 0.188172 255 220 0
0.543258 0.193507 0.111028 255 220 0
0.523808 0.095280 0.145854 255 220 0
0.550537 0.154890 0.115522 255 220 0
0.490394 0.172213 0.159630 255 220 0
0.577687 0.189198 0.150616 255 220 0
0.563424 0.214018 0.124751 255 220 0
0.504194 0.129630 0.146961 255 220 0
0.506499 0.229271 0.127381 255 220 0
0.533897 0.264138 0.141220 255 220 0
0.562422 0.171299 0.118671 255 220 0
0.507909 0.209918 0.120476 255 220 0
0.551519 0.179477 0.181242 255 220 0
0.489549 0.209309 0.174370 255 220 0
0.490855 0.170549 0.159612 255 220 0
0.564965 0.199582 0.121747 255 220 0
0.564646 0.124835 0.148614 255 220 0
0.576266 0.196380 0.155228 255 220 0
0.502168 0.195179 0.125165 255 220 0
0.551623 0.154244 0.116023 255 220 0
0.568639 0.135286 0.135113 255 220 0
0.550104 0.187021 0.183085 255 220 0
0.547881 0.252173 0.135831 255 220 0
0.502100 0.231285 0.132179 255 220 0
0.560712 0.211711 0.121554 255 220 0
0.548446 0.159303 0.114113 255 220 0
0.545133 0.194889 0.111461 255 220 0
0.548205 0.261667 0.163943 255 220 0
0.532658 0.088223 0.160820 255 220 0
0.551395 0.107641 0.136007 255 220 0
0.529325 0.092622 0.146777 255 220 0
0.547918 0.176203 0.182216 255 220 0
0.509365 0.205027 0.189672 255 220 0
0.507613 0.226057 0.188170 255 220 0
0.518956 0.267056 0.149691 255 220 0
0.543936 0.258695 0.173525 255 220 0
0.527717 0.091102 0.171878 255 220 0
0.500435 0.219895 0.129171 255 220 0
0.576684 0.201463 0.151423 255 220 0
0.536444 0.142602 0.116850 255 220 0
0.488001 0.193714 0.168212 255 220 0
0.543122 0.264683 0.164933 255 220 0
0.505974 0.132884 0.141017 255 220 0
0.564399 0.213616 0.125529 255 220 0
0.505900 0.149294 0.176204 255 220 0
0.541364 0.147913 0.115257 255 220 0
0.487138 0.206962 0.152681 255 220 0
0.522153 0.202570 0.112684 255 220 0
0.501896 0.238906 0.137197 255 220 0
0.574107 0.154193 0.132046 255 220 0
0.496514 0.228083 0.179899 255 220 0
0.492691 0.194311 0.178025 255 220 0
0.515187 0.263932 0.147218 255 220 0
0.520694 0.190110 0.189745 255 220 0
0.542829 0.097506 0.167195 255 220 0
0.539658 0.183820 0.110592 255 220 0
0.525767 0.188817 0.189575 255 220 0
0.515373 0.208919 0.115882 255 220 0
0.504656 0.143754 0.137581 255 220 0
0.510963 0.201476 0.189844 255 220 0
0.561522 0.141747 0.124362 255 220 0
0.537544 0.216001 0.190591 255 220 0
0.524668 0.241823 0.188124 255 220 0
0.547085 0.130367 0.172855 255 220 0
0.574752 0.162558 0.153488 255 220 0
0.562573 0.118944 0.144697 255 220 0
0.523067 0.148551 0.181921 255 220 0
0.524754 0.204602 0.112235 255 220 0
0.537093 0.127194 0.122353 255 220 0
0.546952 0.261099 0.167321 255 220 0
0.528453 0.215530 0.192032 255 220 0
0.567722 0.224913 0.166943 255 220 0
0.495022 0.176915 0.139257 255 220 0
0.561908 0.189859 0.118214 255 220 0
0.513230 0.099358 0.152426 255 220 0
0.521819 0.233294 0.190327 255 220 0
0.498077 0.161919 0.140450 255 220 0
0.514094 0.167320 0.184820 255 220 0
0.566926 0.182327 0.121428 255 220 0
0.504272 0.149418 0.174767 255 220 0
0.494106 0.160292 0.155289 255 220 0
0.497592 0.186088 0.181546 255 220 0
0.557834 0.235868 0.177687 255 220 0
0.553220 0.134833 0.122451 255 220 0
0.541941 0.180419 0.185252 255 220 0
0.575702 0.208491 0.151304 255 220 0
0.541325 0.205483 0.188778 255 220 0
0.544512 0.143082 0.176838 255 220 0
0.524517 0.253427 0.182459 255 220 0
0.513759 0.256095 0.176956 255 220 0
0.535158 0.220842 0.191176 255 220 0
0.492617 0.186899 0.140380 255 220 0
0.518605 0.151250 0.182043 255 220 0
0.493493 0.228087 0.175917 255 220 0
0.510460 0.253332 0.139224 255 220 0
0.521380 0.262545 0.140602 255 220 0
0.499079 0.155147 0.170875 255 220 0
0.486991 0.191814 0.156975 255 220 0
0.565483 0.225504 0.133864 255 220 0
0.501679 0.160823 0.177148 255 220 0
0.575333 0.197129 0.136613 255 220 0
0.537284 0.245238 0.126131 255 220 0
0.556255 0.189853 0.115070 255 220 0
0.556109 0.218658 0.182396 255 220 0
0.515017 0.157917 0.121118 255 220 0
0.564561 0.240802 0.152800 255 220 0
0.526782 0.166226 0.113561 255 220 0
0.498729 0.183546 0.131291 255 220 0
0.553803 0.199485 0.114659 255 220 0
0.504598 0.204809 0.187893 255 220 0
0.571063 0.185481 0.125456 255 220 0
0.526283 0.109916 0.133415 255 220 0
0.532357 0.090567 0.169341 255 220 0
0.540735 0.231144 0.119379 255 220 0
0.489298 0.182003 0.167159 255 220 0
0.520216 0.172972 0.186676 255 220 0
0.542674 0.210947 0.188723 255 220 0
0.529029 0.091776 0.172466 255 220 0
0.531177 0.185954 0.110464 255 220 0
0.526462 0.088954 0.168047 255 220 0
0.578637 0.181457 0.139850 255 220 0
0.528667 0.112904 0.130853 255 220 0
0.572419 0.142928 0.144917 255 220 0
0.502485 0.153062 0.174517 255 220 0
0.532142 0.106461 0.177271 255 220 0
0.529808 0.114356 0.178105 255 220 0
0.507666 0.241844 0.132992 255 220 0
0.492329 0.165652 0.159075 255 220 0
