ply
format ascii 1.0
element vertex 1024
property float x
property float y
property float z
property uchar red
property uchar green
property uchar blue
end_header
0.553638 0.148221 0.102830 255 220 0
0.561232 0.099153 0.080589 255 220 0
0.567358 0.107692 0.066879 255 220 0
0.548192 0.213461 0.106357 255 220 0
0.553730 0.146665 0.038746 255 220 0
0.523158 0.129142 0.044036 255 220 0
0.554790 0.167299 0.104673 255 220 0
0.535144 0.144917 0.107051 255 220 0
0.520185 0.098017 0.058313 255 220 0
0.509900 0.121333 0.100475 255 220 0
0.546662 0.120593 0.043767 255 220 0
0.523735 0.072195 0.097757 255 220 0
0.570926 0.156341 0.091158 255 220 0
0.487423 0.186020 0.079246 255 220 0
0.565898 0.216341 0.089981 255 220 0
0.543469 0.209468 0.038281 255 220 0
0.512089 0.142658 0.046761 255 220 0
0.520189 0.076104 0.101419 255 220 0
0.514050 0.231216 0.053757 255 220 0
0.544711 0.121894 0.101586 255 220 0
0.557611 0.237508 0.075406 255 220 0
0.492302 0.211071 0.085761 255 220 0
0.533792 0.073374 0.094620 255 220 0
0.543220 0.125782 0.041388 255 220 0
0.508690 0.117707 0.059312 255 220 0
0.496423 0.217589 0.066412 255 220 0
0.525269 0.249157 0.081538 255 220 0
0.580497 0.168441 0.072693 255 220 0
0.540322 0.236126 0.051829 255 220 0
0.523515 0.110818 0.050791 255 220 0
0.502192 0.201338 0.048980 255 220 0
0.579417 0.158070 0.078724 255 220 0
0.499421 0.120854 0.083828 255 220 0
0.565073 0.105293 0.064419 255 220 0
0.502680 0.134286 0.059869 255 220 0
0.539248 0.111051 0.102010 255 220 0
0.569773 0.189630 0.093074 255 220 0
0.499121 0.216415 0.094855 255 220 0
0.536249 0.158918 0.108568 255 220 0
0.541682 0.247628 0.066505 255 220 0
0.574259 0.166831 0.051683 255 220 0
0.524146 0.075324 0.072959 255 220 0
0.547007 0.184504 0.108324 255 220 0
0.536993 0.104954 0.102003 255 220 0
0.577697 0.188724 0.066517 255 220 0
0.538317 0.152371 0.034726 255 220 0
0.516913 0.223871 0.047539 255 220 0
0.571030 0.208238 0.064367 255 220 0
0.555906 0.129785 0.043847 255 220 0
0.540377 0.244973 0.060349 255 220 0
0.510802 0.075314 0.087040 255 220 0
0.564405 0.221677 0.088710 255 220 0
0.558810 0.138221 0.098801 255 220 0
0.533228 0.075866 0.097953 255 220 0
0.535378 0.217417 0.108387 255 220 0
0.502224 0.108275 0.076735 255 220 0
0.548373 0.203428 0.107797 255 220 0
0.490132 0.189134 0.091120 255 220 0
0.489570 0.204535 0.076592 255 220 0
0.579338 0.148216 0.076870 255 220 0
0.537104 0.214383 0.038823 255 220 0
0.535400 0.250614 0.075185 255 220 0
0.535213 0.150585 0.035149 255 220 0
0.496076 0.205552 0.096135 255 220 0
0.530319 0.140214 0.106760 255 220 0
0.519989 0.188316 0.035508 255 220 0
0.528386 0.110521 0.104122 255 220 0
0.523403 0.138348 0.041023 255 220 0
0.491207 0.171739 0.092676 255 220 0
0.543364 0.163643 0.107704 255 220 0
0.530272 0.118811 0.045159 255 220 0
0.527119 0.186285 0.033405 255 220 0
0.559335 0.173477 0.038569 255 220 0
0.547082 0.196829 0.035922 255 220 0
0.535362 0.201960 0.034877 255 220 0
0.543371 0.208461 0.108790 255 220 0
0.544846 0.247372 0.077784 255 220 0
0.574710 0.201191 0.069453 255 220 0
0.496193 0.153104 0.095682 255 220 0
0.491630 0.206486 0.088293 255 220 0
0.498621 0.224895 0.068742 255 220 0
0.509682 0.109329 0.061945 255 220 0
0.510685 0.188496 0.040357 255 220 0
0.562528 0.150555 0.042682 255 220 0
0.527339 0.087568 0.061448 255 220 0
0.577618 0.187960 0.065344 255 220 0
0.508347 0.223682 0.053521 255 220 0
0.505417 0.102898 0.095014 255 220 0
0.579284 0.174800 0.065696 255 220 0
0.553045 0.101585 0.093193 255 220 0
0.532323 0.071874 0.077106 255 220 0
0.546029 0.161791 0.034230 255 220 0
0.549526 0.190452 0.035515 255 220 0
0.545076 0.214941 0.041033 255 220 0
0.546847 0.158406 0.106360 255 220 0
0.520514 0.135845 0.105439 255 220 0
0.562892 0.192311 0.099788 255 220 0
0.566156 0.126210 0.052177 255 220 0
0.542145 0.189274 0.109520 255 220 0
0.518059 0.181729 0.109914 255 220 0
0.523103 0.206379 0.109950 255 220 0
0.494166 0.143121 0.073564 255 220 0
0.498558 0.181644 0.051263 255 220 0
0.519653 0.077866 0.072525 255 220 0
0.493900 0.183990 0.057659 255 220 0
0.495849 0.151830 0.094818 255 220 0
0.551875 0.136523 0.101502 255 220 0
0.525930 0.103628 0.104109 255 220 0
0.543618 0.152344 0.106408 255 220 0
0.578062 0.185399 0.065615 255 220 0
0.503979 0.190808 0.045451 255 220 0
0.557663 0.235181 0.084722 255 220 0
0.512340 0.122392 0.053656 255 220 0
0.506206 0.229447 0.093443 255 220 0
0.515904 0.226601 0.101689 255 220 0
0.520999 0.165054 0.109009 255 220 0
0.517222 0.207391 0.108600 255 220 0
0.551667 0.237719 0.089739 255 220 0
0.546424 0.166517 0.033821 255 220 0
0.544241 0.232782 0.050864 255 220 0
0.546089 0.235540 0.096261 255 220 0
0.543197 0.206423 0.037184 255 220 0
0.499650 0.119683 0.076596 255 220 0
0.512597 0.114735 0.101764 255 220 0
0.500690 0.126420 0.067276 255 220 0
0.565389 0.145327 0.095365 255 220 0
0.568521 0.137540 0.049977 255 220 0
0.523099 0.179077 0.034322 255 220 0
0.516025 0.211015 0.042521 255 220 0
0.544479 0.150579 0.035585 255 220 0
0.543578 0.236816 0.053575 255 220 0
0.558594 0.105529 0.089380 255 220 0
0.544249 0.125456 0.041597 255 220 0
0.490272 0.205975 0.084098 255 220 0
0.558016 0.235150 0.067053 255 220 0
0.497213 0.146966 0.062525 255 220 0
0.570872 0.162518 0.047848 255 220 0
0.545262 0.172447 0.108034 255 220 0
0.507559 0.095957 0.072035 255 220 0
0.510691 0.237446 0.062903 255 220 0
0.532314 0.130568 0.105499 255 220 0
0.529383 0.121161 0.044519 255 220 0
0.535109 0.090814 0.101655 255 220 0
0.561728 0.171525 0.100710 255 220 0
0.559097 0.178360 0.102814 255 220 0
0.572083 0.124746 0.080721 255 220 0
0.580519 0.145499 0.069889 255 220 0
0.498129 0.198220 0.053066 255 220 0
0.551490 0.243192 0.074078 255 220 0
0.531657 0.122206 0.043569 255 220 0
0.541626 0.152531 0.106900 255 220 0
0.533559 0.100530 0.052629 255 220 0
0.555720 0.150983 0.038893 255 220 0
0.553472 0.179986 0.035841 255 220 0
0.540190 0.157696 0.033894 255 220 0
0.498995 0.149937 0.058454 255 220 0
0.566100 0.123285 0.053497 255 220 0
0.577179 0.147809 0.056884 255 220 0
0.518185 0.219349 0.044827 255 220 0
0.490622 0.155176 0.083758 255 220 0
0.534157 0.170003 0.109836 255 220 0
0.513592 0.076969 0.098750 255 220 0
0.543281 0.192538 0.034215 255 220 0
0.546931 0.134033 0.039425 255 220 0
0.541597 0.212518 0.108628 255 220 0
0.518940 0.240390 0.057918 255 220 0
0.580605 0.156623 0.075070 255 220 0
0.556370 0.121729 0.047165 255 220 0
0.572202 0.170684 0.090816 255 220 0
0.545033 0.090020 0.060219 255 220 0
0.490991 0.188603 0.063344 255 220 0
0.500848 0.116625 0.074183 255 220 0
0.525923 0.246792 0.087333 255 220 0
0.579427 0.174671 0.066481 255 220 0
0.539466 0.204119 0.035757 255 220 0
0.552515 0.151705 0.037478 255 220 0
0.508871 0.240074 0.075769 255 220 0
0.548368 0.223939 0.102837 255 220 0
0.559055 0.224702 0.056433 255 220 0
0.555430 0.230591 0.057131 255 220 0
0.522586 0.246127 0.086782 255 220 0
0.568082 0.126433 0.053776 255 220 0
0.554624 0.108428 0.052614 255 220 0
0.545184 0.242666 0.060462 255 220 0
0.557354 0.212901 0.047267 255 220 0
0.547238 0.201767 0.037159 255 220 0
0.526610 0.109105 0.050264 255 220 0
0.540153 0.191173 0.033553 255 220 0
0.579359 0.148968 0.060708 255 220 0
0.510528 0.147813 0.104469 255 220 0
0.507114 0.235036 0.064999 255 220 0
0.534756 0.157363 0.033902 255 220 0
0.569857 0.185942 0.048568 255 220 0
0.574741 0.123683 0.071843 255 220 0
0.532112 0.119946 0.104464 255 220 0
0.547535 0.092794 0.094836 255 220 0
0.488443 0.182079 0.070105 255 220 0
0.507547 0.110783 0.063903 255 220 0
0.557031 0.236648 0.067745 255 220 0
0.532229 0.131820 0.105646 255 220 0
0.549241 0.194333 0.107866 255 220 0
0.529097 0.233416 0.100992 255 220 0
0.553151 0.167718 0.105410 255 220 0
0.524532 0.077851 0.102756 255 220 0
0.540864 0.153939 0.034577 255 220 0
0.517643 0.233554 0.098024 255 220 0
0.533387 0.075365 0.097366 255 220 0
0.528738 0.201151 0.110928 255 220 0
0.527986 0.123959 0.043931 255 220 0
0.497042 0.223861 0.083740 255 220 0
0.528635 0.220601 0.107264 255 220 0
0.503104 0.222106 0.095885 255 220 0
0.496687 0.162977 0.057097 255 220 0
0.538712 0.101016 0.052053 255 220 0
0.534078 0.127459 0.104983 255 220 0
0.553483 0.200998 0.105704 255 220 0
0.505428 0.102970 0.095036 255 220 0
0.555507 0.090852 0.083256 255 220 0
0.491318 0.184727 0.093569 255 220 0
0.520308 0.236124 0.053470 255 220 0
0.556642 0.103932 0.090773 255 220 0
0.504099 0.137516 0.099103 255 220 0
0.490648 0.156250 0.073226 255 220 0
0.511700 0.121533 0.101497 255 220 0
0.487772 0.177269 0.082494 255 220 0
0.553239 0.216868 0.046255 255 220 0
0.508790 0.234551 0.061843 255 220 0
0.504582 0.233326 0.067090 255 220 0
0.550971 0.169796 0.106370 255 220 0
0.501677 0.154481 0.053399 255 220 0
0.576876 0.180009 0.083684 255 220 0
0.491343 0.156460 0.070161 255 220 0
0.508720 0.206380 0.105700 255 220 0
0.526847 0.107740 0.050784 255 220 0
0.542941 0.159495 0.107392 255 220 0
0.540613 0.232818 0.100557 255 220 0
0.575219 0.131947 0.078897 255 220 0
0.519914 0.246985 0.067506 255 220 0
0.508748 0.194345 0.042196 255 220 0
0.514196 0.226071 0.101216 255 220 0
0.548705 0.130586 0.040814 255 220 0
0.534937 0.197267 0.110804 255 220 0
0.512264 0.231197 0.055174 255 220 0
0.541359 0.221102 0.042722 255 220 0
0.574364 0.164813 0.051753 255 220 0
0.560588 0.131256 0.096284 255 220 0
0.569459 0.143720 0.091080 255 220 0
0.515402 0.107845 0.057071 255 220 0
0.550392 0.236633 0.092246 255 220 0
0.498052 0.223133 0.087824 255 220 0
0.498527 0.227540 0.074319 255 220 0
0.534639 0.144185 0.036618 255 220 0
0.534776 0.225902 0.044204 255 220 0
0.549304 0.194715 0.107838 255 220 0
0.518178 0.082598 0.103644 255 220 0
0.566109 0.197129 0.096198 255 220 0
0.492299 0.210888 0.071551 255 220 0
0.532995 0.156377 0.108608 255 220 0
0.562913 0.146576 0.043633 255 220 0
0.548398 0.091031 0.093443 255 220 0
0.550825 0.182176 0.034953 255 220 0
0.546407 0.139500 0.103757 255 220 0
0.573965 0.134966 0.056323 255 220 0
0.505372 0.233294 0.065488 255 220 0
0.490688 0.162461 0.089254 255 220 0
0.560421 0.208039 0.047426 255 220 0
0.562865 0.229910 0.073371 255 220 0
0.497654 0.147363 0.061599 255 220 0
0.535619 0.145298 0.036273 255 220 0
0.569053 0.216654 0.075412 255 220 0
0.580901 0.148355 0.068612 255 220 0
0.508790 0.233560 0.091927 255 220 0
0.567441 0.173661 0.044414 255 220 0
0.541130 0.130837 0.039691 255 220 0
0.505785 0.227499 0.059054 255 220 0
0.555476 0.114969 0.049751 255 220 0
0.501815 0.108475 0.085980 255 220 0
0.566979 0.127814 0.089693 255 220 0
0.524566 0.120954 0.104633 255 220 0
0.516974 0.183459 0.036647 255 220 0
0.524428 0.084489 0.064552 255 220 0
0.536069 0.113469 0.103176 255 220 0
0.507349 0.116181 0.061621 255 220 0
0.576297 0.183489 0.058567 255 220 0
0.570333 0.194830 0.091402 255 220 0
0.540639 0.217933 0.040954 255 220 0
0.525960 0.208925 0.109913 255 220 0
0.536656 0.135525 0.038538 255 220 0
0.562526 0.148745 0.042978 255 220 0
0.529747 0.218279 0.040713 255 220 0
0.530238 0.179292 0.110783 255 220 0
0.572508 0.163231 0.049515 255 220 0
0.524124 0.130189 0.105298 255 220 0
0.497279 0.153114 0.096915 255 220 0
0.529210 0.147008 0.107611 255 220 0
0.577638 0.138962 0.077222 255 220 0
0.504566 0.206596 0.048370 255 220 0
0.580525 0.146523 0.071384 255 220 0
0.538428 0.192574 0.110312 255 220 0
0.540519 0.192921 0.033842 255 220 0
0.500834 0.193564 0.048842 255 220 0
0.525087 0.187901 0.033918 255 220 0
0.494368 0.196350 0.096617 255 220 0
0.540975 0.211929 0.038508 255 220 0
0.578339 0.134595 0.070389 255 220 0
0.502107 0.142039 0.098561 255 220 0
0.573590 0.199690 0.083070 255 220 0
0.568701 0.207075 0.089720 255 220 0
0.501479 0.163875 0.102334 255 220 0
0.510844 0.236479 0.090491 255 220 0
0.491201 0.184980 0.062614 255 220 0
0.516188 0.114558 0.103126 255 220 0
0.551237 0.100404 0.094246 255 220 0
0.524736 0.223820 0.044437 255 220 0
0.523586 0.169580 0.034676 255 220 0
0.560247 0.094747 0.076799 255 220 0
0.563162 0.224346 0.088622 255 220 0
0.518922 0.181995 0.035791 255 220 0
0.494692 0.218909 0.073409 255 220 0
0.508481 0.136756 0.101802 255 220 0
0.514196 0.074820 0.096979 255 220 0
0.496176 0.170902 0.055861 255 220 0
0.521105 0.069904 0.087676 255 220 0
0.531007 0.111671 0.103920 255 220 0
0.562207 0.212043 0.096953 255 220 0
0.498569 0.147598 0.060045 255 220 0
0.574902 0.166465 0.087108 255 220 0
0.580848 0.160555 0.074144 255 220 0
0.553175 0.088411 0.085032 255 220 0
0.530520 0.103825 0.103535 255 220 0
0.580030 0.150011 0.075475 255 220 0
0.570839 0.189568 0.091765 255 220 0
0.535407 0.250027 0.080114 255 220 0
0.519710 0.070455 0.092372 255 220 0
0.526375 0.214580 0.108789 255 220 0
0.505158 0.102577 0.094532 255 220 0
0.511290 0.202487 0.042289 255 220 0
0.488121 0.178523 0.071867 255 220 0
0.541281 0.189763 0.033499 255 220 0
0.502205 0.139206 0.097881 255 220 0
0.512632 0.088550 0.101912 255 220 0
0.493174 0.144892 0.077132 255 220 0
0.505252 0.111481 0.066984 255 220 0
0.566446 0.145511 0.094443 255 220 0
0.541595 0.215808 0.107950 255 220 0
0.546329 0.191201 0.108649 255 220 0
0.491551 0.153611 0.086608 255 220 0
0.575976 0.187130 0.083958 255 220 0
0.534633 0.212721 0.109505 255 220 0
0.499963 0.116936 0.080972 255 220 0
0.559456 0.141485 0.042544 255 220 0
0.550112 0.185083 0.107491 255 220 0
0.580696 0.154415 0.074318 255 220 0
0.500294 0.177459 0.102752 255 220 0
0.574036 0.167850 0.051437 255 220 0
0.490137 0.177728 0.065280 255 220 0
0.547145 0.134588 0.102735 255 220 0
0.564938 0.222328 0.086666 255 220 0
0.552242 0.216581 0.045452 255 220 0
0.501395 0.154123 0.100741 255 220 0
0.541737 0.107136 0.100572 255 220 0
0.550472 0.080957 0.074944 255 220 0
0.571989 0.149351 0.050457 255 220 0
0.527910 0.215085 0.039778 255 220 0
0.507706 0.184614 0.042301 255 220 0
0.490802 0.178276 0.063684 255 220 0
0.580547 0.164808 0.065535 255 220 0
0.488340 0.181854 0.086269 255 220 0
0.512800 0.080884 0.075613 255 220 0
0.558786 0.174739 0.038259 255 220 0
0.488324 0.172067 0.084329 255 220 0
0.560848 0.230805 0.085098 255 220 0
0.550581 0.117461 0.098633 255 220 0
0.536429 0.241801 0.055431 255 220 0
0.580078 0.166955 0.064423 255 220 0
0.511534 0.175655 0.040032 255 220 0
0.526582 0.202897 0.036011 255 220 0
0.524364 0.244015 0.058620 255 220 0
0.501105 0.231806 0.075090 255 220 0
0.550217 0.111468 0.048843 255 220 0
0.541664 0.110648 0.047353 255 220 0
0.491716 0.169861 0.063273 255 220 0
0.507356 0.179268 0.106620 255 220 0
0.533178 0.116425 0.104016 255 220 0
0.550924 0.160216 0.035790 255 220 0
0.565521 0.134471 0.093146 255 220 0
0.506423 0.237764 0.077962 255 220 0
0.519299 0.078176 0.102484 255 220 0
0.488327 0.169410 0.082919 255 220 0
0.534544 0.108017 0.048833 255 220 0
0.559672 0.145991 0.099605 255 220 0
0.521319 0.181117 0.034875 255 220 0
0.531582 0.177345 0.032465 255 220 0
0.541044 0.145488 0.036152 255 220 0
0.549282 0.243911 0.081265 255 220 0
0.499385 0.206980 0.099150 255 220 0
0.521782 0.081883 0.067742 255 220 0
0.577220 0.185452 0.062114 255 220 0
0.551111 0.166698 0.035181 255 220 0
0.535064 0.219220 0.040760 255 220 0
0.512110 0.107070 0.101572 255 220 0
0.507477 0.108426 0.098002 255 220 0
0.499238 0.172324 0.051649 255 220 0
0.559914 0.216654 0.051751 255 220 0
0.489236 0.203426 0.077303 255 220 0
0.575308 0.198805 0.067663 255 220 0
0.569753 0.174615 0.046690 255 220 0
0.532797 0.112637 0.103742 255 220 0
0.561353 0.229278 0.065274 255 220 0
0.546765 0.090406 0.060521 255 220 0
0.553074 0.120568 0.045935 255 220 0
0.527542 0.090595 0.059420 255 220 0
0.569947 0.192444 0.050780 255 220 0
0.503884 0.202432 0.103741 255 220 0
0.564797 0.186073 0.098426 255 220 0
0.549913 0.244313 0.076778 255 220 0
0.497707 0.200805 0.054494 255 220 0
0.553269 0.184052 0.106250 255 220 0
0.490937 0.152786 0.081404 255 220 0
0.512797 0.132528 0.049516 255 220 0
0.525487 0.221525 0.043154 255 220 0
0.527915 0.123957 0.104983 255 220 0
0.488094 0.179638 0.085000 255 220 0
0.549700 0.200947 0.037900 255 220 0
0.580267 0.170840 0.072096 255 220 0
0.555898 0.088075 0.077878 255 220 0
0.488190 0.197335 0.081678 255 220 0
0.510882 0.112415 0.059238 255 220 0
0.555946 0.118897 0.048181 255 220 0
0.560954 0.177563 0.039618 255 220 0
0.551838 0.227262 0.051415 255 220 0
0.563871 0.190271 0.043683 255 220 0
0.497493 0.133512 0.087676 255 220 0
0.546451 0.245623 0.081530 255 220 0
0.530182 0.089944 0.059236 255 220 0
0.560076 0.110917 0.090328 255 220 0
0.512643 0.217626 0.046888 255 220 0
0.524433 0.069819 0.084620 255 220 0
0.561989 0.231442 0.078059 255 220 0
0.554762 0.101267 0.091483 255 220 0
0.558943 0.177896 0.102902 255 220 0
0.517576 0.080795 0.071315 255 220 0
0.501366 0.225898 0.090836 255 220 0
0.531561 0.250257 0.068643 255 220 0
0.525971 0.106044 0.051857 255 220 0
0.553099 0.086417 0.082698 255 220 0
0.542304 0.146889 0.105996 255 220 0
0.575322 0.133190 0.079386 255 220 0
0.569191 0.198708 0.052599 255 220 0
0.496734 0.170598 0.099459 255 220 0
0.509877 0.095265 0.068981 255 220 0
0.499415 0.208616 0.098640 255 220 0
0.505117 0.217172 0.052929 255 220 0
0.541637 0.141763 0.036944 255 220 0
0.503548 0.108139 0.091919 255 220 0
0.523761 0.153369 0.108043 255 220 0
0.567852 0.218535 0.069710 255 220 0
0.535490 0.147180 0.107302 255 220 0
0.542714 0.074404 0.078460 255 220 0
0.550987 0.179552 0.106998 255 220 0
0.575534 0.172315 0.054147 255 220 0
0.545977 0.101475 0.097791 255 220 0
0.543153 0.210722 0.038647 255 220 0
0.561035 0.117314 0.091977 255 220 0
0.488713 0.190610 0.087216 255 220 0
0.489710 0.195001 0.089259 255 220 0
0.552186 0.206153 0.105808 255 220 0
0.564872 0.195310 0.097730 255 220 0
0.579772 0.143350 0.064259 255 220 0
0.501422 0.153644 0.100669 255 220 0
0.558495 0.091588 0.069437 255 220 0
0.521816 0.223101 0.045068 255 220 0
0.512465 0.239774 0.087410 255 220 0
0.505374 0.130309 0.098415 255 220 0
0.565093 0.124559 0.090603 255 220 0
0.564168 0.147054 0.044398 255 220 0
0.532612 0.185200 0.032684 255 220 0
0.536861 0.073873 0.092223 255 220 0
0.530709 0.071296 0.093590 255 220 0
0.523360 0.220674 0.106488 255 220 0
0.509423 0.130260 0.053476 255 220 0
0.565275 0.208205 0.094575 255 220 0
0.507500 0.106298 0.097977 255 220 0
0.559498 0.163678 0.039177 255 220 0
0.536457 0.203130 0.035187 255 220 0
0.567361 0.220820 0.075846 255 220 0
0.526269 0.099720 0.054737 255 220 0
0.513281 0.169924 0.107948 255 220 0
0.518148 0.156604 0.038912 255 220 0
0.527016 0.099705 0.054503 255 220 0
0.570801 0.142033 0.089218 255 220 0
0.545874 0.128153 0.102111 255 220 0
0.558916 0.112840 0.092258 255 220 0
0.574569 0.133099 0.080822 255 220 0
0.578832 0.136451 0.069795 255 220 0
0.538661 0.246126 0.087373 255 220 0
0.578830 0.172730 0.062388 255 220 0
0.546130 0.238765 0.056672 255 220 0
0.525305 0.195057 0.111026 255 220 0
0.545186 0.085715 0.094311 255 220 0
0.542997 0.159645 0.033931 255 220 0
0.580168 0.156714 0.076563 255 220 0
0.528633 0.109623 0.104064 255 220 0
0.502867 0.155572 0.051654 255 220 0
0.530535 0.223387 0.042982 255 220 0
0.535544 0.203140 0.110520 255 220 0
0.539532 0.152280 0.034784 255 220 0
0.496743 0.145558 0.093618 255 220 0
0.577871 0.161334 0.082132 255 220 0
0.491866 0.153399 0.087570 255 220 0
0.530914 0.174099 0.032601 255 220 0
0.574401 0.122345 0.070058 255 220 0
0.561074 0.230625 0.066829 255 220 0
0.557965 0.212146 0.047374 255 220 0
0.512723 0.157059 0.042176 255 220 0
0.517198 0.101424 0.058614 255 220 0
0.506704 0.097912 0.096769 255 220 0
0.512096 0.240364 0.065401 255 220 0
0.571687 0.166114 0.048536 255 220 0
0.543094 0.165174 0.033277 255 220 0
0.527159 0.079937 0.067477 255 220 0
0.574057 0.203336 0.074825 255 220 0
0.508958 0.077700 0.086897 255 220 0
0.520470 0.121574 0.104210 255 220 0
0.487490 0.181250 0.076207 255 220 0
0.573909 0.191131 0.086771 255 220 0
0.552853 0.127913 0.099576 255 220 0
0.509764 0.134995 0.051402 255 220 0
0.510081 0.186179 0.107891 255 220 0
0.517481 0.241064 0.090619 255 220 0
0.552485 0.187343 0.106637 255 220 0
0.502436 0.118680 0.092043 255 220 0
0.507796 0.132555 0.100638 255 220 0
0.511201 0.177084 0.040143 255 220 0
0.530730 0.088945 0.103261 255 220 0
0.545126 0.095822 0.056038 255 220 0
0.561754 0.148269 0.042566 255 220 0
0.523942 0.151054 0.037544 255 220 0
0.560863 0.230140 0.086168 255 220 0
0.564494 0.199755 0.047515 255 220 0
0.499714 0.224968 0.066271 255 220 0
0.508979 0.217788 0.049605 255 220 0
0.572114 0.179706 0.050078 255 220 0
0.556329 0.235684 0.086427 255 220 0
0.540872 0.182706 0.032702 255 220 0
0.487962 0.170536 0.079777 255 220 0
0.516579 0.137248 0.045076 255 220 0
0.577548 0.181858 0.061611 255 220 0
0.502590 0.113409 0.090925 255 220 0
0.525677 0.075183 0.072634 255 220 0
0.528894 0.076532 0.070622 255 220 0
0.537028 0.095892 0.101163 255 220 0
0.539234 0.232574 0.101060 255 220 0
0.539896 0.244235 0.089568 255 220 0
0.504824 0.178526 0.044931 255 220 0
0.528481 0.223767 0.106067 255 220 0
0.558543 0.230345 0.090081 255 220 0
0.514158 0.231400 0.097873 255 220 0
0.560525 0.208418 0.047715 255 220 0
0.518421 0.221489 0.104948 255 220 0
0.498474 0.223746 0.088023 255 220 0
0.563225 0.098737 0.072099 255 220 0
0.504653 0.155867 0.049625 255 220 0
0.548246 0.175402 0.107566 255 220 0
0.495504 0.216424 0.067541 255 220 0
0.513132 0.134122 0.048699 255 220 0
0.507241 0.097896 0.097496 255 220 0
0.496008 0.150032 0.063087 255 220 0
0.569371 0.212005 0.064150 255 220 0
0.489558 0.196766 0.069480 255 220 0
0.510516 0.174205 0.040852 255 220 0
0.538045 0.225737 0.105183 255 220 0
0.512513 0.218101 0.104064 255 220 0
0.563691 0.161648 0.041990 255 220 0
0.551500 0.203753 0.106455 255 220 0
0.555219 0.093675 0.086434 255 220 0
0.506419 0.088518 0.095217 255 220 0
0.561851 0.180432 0.100876 255 220 0
0.512895 0.088191 0.069858 255 220 0
0.532169 0.219195 0.040808 255 220 0
0.493644 0.146507 0.087343 255 220 0
0.499828 0.206518 0.099694 255 220 0
0.494049 0.178215 0.057786 255 220 0
0.550453 0.170609 0.034695 255 220 0
0.552598 0.168138 0.035627 255 220 0
0.554445 0.218173 0.101549 255 220 0
0.501704 0.130987 0.094721 255 220 0
0.522485 0.232560 0.050055 255 220 0
0.553834 0.215674 0.102778 255 220 0
0.535012 0.203695 0.110543 255 220 0
0.504699 0.207301 0.103253 255 220 0
0.543888 0.248044 0.075238 255 220 0
0.541597 0.185955 0.033083 255 220 0
0.551187 0.227888 0.051376 255 220 0
0.528810 0.201735 0.110892 255 220 0
0.546521 0.130745 0.102308 255 220 0
0.550604 0.087899 0.088879 255 220 0
0.496937 0.156371 0.058869 255 220 0
0.493313 0.149915 0.089227 255 220 0
0.565407 0.118102 0.055599 255 220 0
0.487593 0.186018 0.082030 255 220 0
0.579008 0.181732 0.069322 255 220 0
0.559474 0.153022 0.100692 255 220 0
0.499142 0.136103 0.093036 255 220 0
0.573336 0.135796 0.084028 255 220 0
0.556889 0.118469 0.048942 255 220 0
0.552248 0.154550 0.036972 255 220 0
0.578984 0.176174 0.078379 255 220 0
0.533288 0.228032 0.104376 255 220 0
0.555580 0.159404 0.037667 255 220 0
0.563189 0.214805 0.094888 255 220 0
0.534214 0.201933 0.110709 255 220 0
0.560784 0.194648 0.042438 255 220 0
0.543148 0.180202 0.032853 255 220 0
0.556434 0.090463 0.067041 255 220 0
0.519966 0.070635 0.093367 255 220 0
0.490628 0.163096 0.089345 255 220 0
0.560268 0.108879 0.089136 255 220 0
0.534504 0.237993 0.097461 255 220 0
0.519735 0.199047 0.110134 255 220 0
0.564316 0.139350 0.095247 255 220 0
0.553089 0.131544 0.041977 255 220 0
0.546489 0.218036 0.105876 255 220 0
0.565509 0.148886 0.045030 255 220 0
0.496365 0.136654 0.071815 255 220 0
0.524670 0.119389 0.046822 255 220 0
0.537101 0.169311 0.109424 255 220 0
0.545036 0.219109 0.106070 255 220 0
0.541123 0.166086 0.032924 255 220 0
0.545299 0.145814 0.105064 255 220 0
0.492478 0.149090 0.085558 255 220 0
0.488698 0.199399 0.083483 255 220 0
0.552329 0.110830 0.096374 255 220 0
0.519362 0.191288 0.036020 255 220 0
0.523791 0.160790 0.108892 255 220 0
0.489991 0.201615 0.087245 255 220 0
0.528862 0.122429 0.104860 255 220 0
0.572752 0.177067 0.050530 255 220 0
0.518475 0.080288 0.071101 255 220 0
0.531534 0.236248 0.050702 255 220 0
0.529466 0.241382 0.054784 255 220 0
0.557977 0.138350 0.099264 255 220 0
0.498904 0.214646 0.095535 255 220 0
0.532100 0.249685 0.082279 255 220 0
0.555756 0.121331 0.046985 255 220 0
0.504403 0.199177 0.104557 255 220 0
0.503215 0.151889 0.052456 255 220 0
0.527284 0.185783 0.033345 255 220 0
0.554823 0.096483 0.060150 255 220 0
0.522494 0.120455 0.047421 255 220 0
0.526553 0.163134 0.109342 255 220 0
0.550232 0.101414 0.095265 255 220 0
0.546375 0.242861 0.061812 255 220 0
0.504628 0.149587 0.051651 255 220 0
0.570936 0.150476 0.049267 255 220 0
0.520557 0.142837 0.041044 255 220 0
0.510457 0.138287 0.102990 255 220 0
0.521272 0.243871 0.060164 255 220 0
0.546002 0.243637 0.062708 255 220 0
0.553838 0.205671 0.041548 255 220 0
0.510517 0.115231 0.058391 255 220 0
0.505543 0.227824 0.059626 255 220 0
0.498790 0.204953 0.099199 255 220 0
0.563363 0.221018 0.091276 255 220 0
0.499139 0.121190 0.081533 255 220 0
0.564505 0.101125 0.071857 255 220 0
0.492371 0.199444 0.093245 255 220 0
0.545297 0.165674 0.033641 255 220 0
0.580688 0.166963 0.072069 255 220 0
0.505024 0.090692 0.092100 255 220 0
0.506460 0.151667 0.049069 255 220 0
0.512119 0.217111 0.104254 255 220 0
0.575105 0.173008 0.087145 255 220 0
0.487546 0.176986 0.077566 255 220 0
0.524382 0.073276 0.075429 255 220 0
0.492820 0.150113 0.087954 255 220 0
0.541423 0.077603 0.091942 255 220 0
0.515670 0.182214 0.037296 255 220 0
0.547673 0.211622 0.040708 255 220 0
0.507178 0.153965 0.104023 255 220 0
0.566377 0.171700 0.043460 255 220 0
0.521732 0.090960 0.061415 255 220 0
0.526517 0.123720 0.104928 255 220 0
0.554750 0.093132 0.086731 255 220 0
0.536859 0.202052 0.110411 255 220 0
0.531114 0.198481 0.111037 255 220 0
0.553712 0.097685 0.090916 255 220 0
0.513364 0.189273 0.038761 255 220 0
0.525415 0.190261 0.034014 255 220 0
0.492758 0.206060 0.091054 255 220 0
0.511670 0.179451 0.039695 255 220 0
0.499811 0.202024 0.100807 255 220 0
0.499279 0.220398 0.092478 255 220 0
0.562722 0.204351 0.098383 255 220 0
0.516529 0.121504 0.050592 255 220 0
0.529850 0.109031 0.103904 255 220 0
0.541753 0.239222 0.054805 255 220 0
0.554573 0.165221 0.104579 255 220 0
0.567259 0.131929 0.090727 255 220 0
0.562945 0.127554 0.049057 255 220 0
0.522082 0.093217 0.104448 255 220 0
0.508251 0.111264 0.098821 255 220 0
0.530220 0.206984 0.110432 255 220 0
0.575264 0.133332 0.058913 255 220 0
0.525532 0.116183 0.104437 255 220 0
0.556433 0.232495 0.090551 255 220 0
0.487895 0.194805 0.077171 255 220 0
0.551805 0.092784 0.090554 255 220 0
0.569637 0.174926 0.046590 255 220 0
0.577976 0.185552 0.065259 255 220 0
0.510536 0.088179 0.100421 255 220 0
0.532070 0.186265 0.111012 255 220 0
0.534312 0.159370 0.033599 255 220 0
0.505108 0.203745 0.046878 255 220 0
0.546243 0.162727 0.106964 255 220 0
0.563508 0.099541 0.069311 255 220 0
0.529237 0.173703 0.110394 255 220 0
0.554890 0.166168 0.104525 255 220 0
0.539815 0.249656 0.073438 255 220 0
0.492779 0.166432 0.062179 255 220 0
0.502267 0.104892 0.085496 255 220 0
0.508019 0.218410 0.101595 255 220 0
0.509863 0.236576 0.089245 255 220 0
0.563760 0.116459 0.055023 255 220 0
0.532085 0.071903 0.093661 255 220 0
0.538278 0.083386 0.098961 255 220 0
0.528755 0.083905 0.103615 255 220 0
0.546208 0.077435 0.075358 255 220 0
0.550049 0.105282 0.052010 255 220 0
0.564286 0.152319 0.097222 255 220 0
0.506009 0.157434 0.103981 255 220 0
0.541027 0.116568 0.044734 255 220 0
0.572331 0.171574 0.090708 255 220 0
0.537679 0.154291 0.107877 255 220 0
0.503488 0.115354 0.093175 255 220 0
0.490780 0.153242 0.080572 255 220 0
0.538054 0.132179 0.104876 255 220 0
0.569012 0.132462 0.088871 255 220 0
0.498839 0.227643 0.082545 255 220 0
0.498528 0.168922 0.100807 255 220 0
0.571961 0.119293 0.076334 255 220 0
0.555916 0.152812 0.038703 255 220 0
0.535833 0.107321 0.102591 255 220 0
0.534918 0.228229 0.104233 255 220 0
0.546814 0.236307 0.095121 255 220 0
0.578759 0.181744 0.076947 255 220 0
0.502966 0.100419 0.082235 255 220 0
0.522320 0.117483 0.048642 255 220 0
0.549901 0.225992 0.100963 255 220 0
0.529094 0.201900 0.110888 255 220 0
0.523225 0.101950 0.104199 255 220 0
0.490810 0.206011 0.086286 255 220 0
0.503529 0.135318 0.058277 255 220 0
0.512671 0.098604 0.063894 255 220 0
0.531452 0.250043 0.081053 255 220 0
0.545794 0.110133 0.099369 255 220 0
0.506958 0.220276 0.100055 255 220 0
0.564758 0.145455 0.045129 255 220 0
0.537952 0.113334 0.102674 255 220 0
0.574382 0.122665 0.071675 255 220 0
0.527772 0.131292 0.105661 255 220 0
0.525766 0.117744 0.047010 255 220 0
0.492392 0.211414 0.085659 255 220 0
0.577549 0.153653 0.081861 255 220 0
0.500525 0.122742 0.070136 255 220 0
0.557839 0.150202 0.040016 255 220 0
0.541596 0.107318 0.048929 255 220 0
0.502179 0.134869 0.096571 255 220 0
0.534993 0.139162 0.106304 255 220 0
0.579065 0.175781 0.078157 255 220 0
0.553431 0.184085 0.036161 255 220 0
0.563705 0.101718 0.065883 255 220 0
0.491923 0.189944 0.094233 255 220 0
0.526483 0.069538 0.086148 255 220 0
0.514548 0.189859 0.109298 255 220 0
0.502889 0.197513 0.103829 255 220 0
0.510002 0.177582 0.107535 255 220 0
0.541026 0.233557 0.099911 255 220 0
0.570324 0.203095 0.088548 255 220 0
0.560482 0.186765 0.101889 255 220 0
0.541959 0.120594 0.043167 255 220 0
0.504693 0.133454 0.057511 255 220 0
0.504694 0.090753 0.083716 255 220 0
0.498152 0.173613 0.052736 255 220 0
0.554345 0.114163 0.049493 255 220 0
0.555899 0.218117 0.048893 255 220 0
0.512716 0.228674 0.052987 255 220 0
0.543972 0.104561 0.050635 255 220 0
0.568724 0.148820 0.092680 255 220 0
0.522585 0.166947 0.109410 255 220 0
0.561514 0.133012 0.046110 255 220 0
0.537089 0.243308 0.057020 255 220 0
0.498520 0.185686 0.101534 255 220 0
0.496338 0.174989 0.054885 255 220 0
0.493006 0.215504 0.076379 255 220 0
0.494402 0.150272 0.091885 255 220 0
0.544105 0.240317 0.056958 255 220 0
0.498762 0.151650 0.058107 255 220 0
0.528431 0.223951 0.043597 255 220 0
0.505788 0.087678 0.082360 255 220 0
0.497346 0.165042 0.099353 255 220 0
0.571207 0.211042 0.073212 255 220 0
0.555533 0.127761 0.098383 255 220 0
0.506151 0.125227 0.098085 255 220 0
0.498159 0.209707 0.096944 255 220 0
0.532682 0.108985 0.103478 255 220 0
0.520397 0.198908 0.036968 255 220 0
0.496865 0.138026 0.068834 255 220 0
0.496569 0.222090 0.071036 255 220 0
0.566918 0.207439 0.092545 255 220 0
0.536788 0.071924 0.088160 255 220 0
0.523863 0.157150 0.108495 255 220 0
0.521053 0.248141 0.069825 255 220 0
0.528887 0.070987 0.094211 255 220 0
0.546120 0.158850 0.034629 255 220 0
0.509557 0.197987 0.107283 255 220 0
0.573803 0.189493 0.055550 255 220 0
0.547258 0.084760 0.091186 255 220 0
0.489883 0.172607 0.066842 255 220 0
0.511078 0.142424 0.103864 255 220 0
0.515563 0.200782 0.109044 255 220 0
0.562525 0.212122 0.096589 255 220 0
0.500715 0.227464 0.087996 255 220 0
0.573006 0.200841 0.083804 255 220 0
0.571190 0.208056 0.082764 255 220 0
0.552425 0.210309 0.104933 255 220 0
0.564132 0.197841 0.098129 255 220 0
0.562905 0.228312 0.083530 255 220 0
0.547583 0.126447 0.101278 255 220 0
0.544147 0.077824 0.087826 255 220 0
0.543592 0.134818 0.103831 255 220 0
0.502327 0.231148 0.085734 255 220 0
0.525603 0.075758 0.101261 255 220 0
0.569146 0.150331 0.047690 255 220 0
0.525742 0.247178 0.062420 255 220 0
0.487930 0.183930 0.072497 255 220 0
0.491093 0.167104 0.091619 255 220 0
0.515508 0.149949 0.042043 255 220 0
0.501864 0.133853 0.095883 255 220 0
0.502212 0.112253 0.089600 255 220 0
0.532841 0.118775 0.104278 255 220 0
0.530821 0.103128 0.051810 255 220 0
0.544973 0.162433 0.107226 255 220 0
0.556833 0.212479 0.101570 255 220 0
0.539192 0.154086 0.107592 255 220 0
0.580622 0.153726 0.063628 255 220 0
0.522763 0.127148 0.104879 255 220 0
0.539377 0.123565 0.103493 255 220 0
0.570804 0.151812 0.090783 255 220 0
0.518838 0.108623 0.054269 255 220 0
0.516931 0.212261 0.042565 255 220 0
0.491623 0.180827 0.094084 255 220 0
0.544436 0.168795 0.107922 255 220 0
0.559348 0.113034 0.053323 255 220 0
0.568175 0.115247 0.060469 255 220 0
0.555959 0.168164 0.104169 255 220 0
0.492249 0.180076 0.060655 255 220 0
0.573510 0.196765 0.059115 255 220 0
0.574332 0.170197 0.051995 255 220 0
0.562495 0.199060 0.045339 255 220 0
0.557104 0.132520 0.098577 255 220 0
0.503783 0.221506 0.096877 255 220 0
0.554209 0.122292 0.097908 255 220 0
0.515739 0.221650 0.047039 255 220 0
0.502212 0.169757 0.103431 255 220 0
0.559266 0.170065 0.038617 255 220 0
0.569791 0.209489 0.062125 255 220 0
0.570875 0.117331 0.077137 255 220 0
0.555636 0.133737 0.042496 255 220 0
0.534924 0.131971 0.105389 255 220 0
0.492405 0.166071 0.062979 255 220 0
0.505986 0.112824 0.096500 255 220 0
0.548960 0.208163 0.107021 255 220 0
0.526352 0.086361 0.062559 255 220 0
0.490001 0.206195 0.076670 255 220 0
0.516484 0.146902 0.106052 255 220 0
0.568780 0.125376 0.086381 255 220 0
0.535200 0.071766 0.078114 255 220 0
0.526739 0.078786 0.068647 255 220 0
0.534016 0.249864 0.067504 255 220 0
0.502056 0.194650 0.047674 255 220 0
0.577237 0.193122 0.071011 255 220 0
0.517083 0.145966 0.106059 255 220 0
0.545882 0.195993 0.108787 255 220 0
0.544531 0.207739 0.108575 255 220 0
0.506442 0.186401 0.106385 255 220 0
0.528922 0.230205 0.102970 255 220 0
0.499585 0.123486 0.087041 255 220 0
0.497073 0.186363 0.052979 255 220 0
0.553950 0.165048 0.036395 255 220 0
0.523890 0.240143 0.094795 255 220 0
0.530281 0.178994 0.032649 255 220 0
0.498088 0.142629 0.094304 255 220 0
0.491863 0.196172 0.063185 255 220 0
0.530922 0.095291 0.055865 255 220 0
0.537167 0.086260 0.100270 255 220 0
0.518809 0.164025 0.108547 255 220 0
0.551624 0.170680 0.035106 255 220 0
0.522965 0.075844 0.072852 255 220 0
0.556582 0.132324 0.043391 255 220 0
0.490704 0.154438 0.075544 255 220 0
0.578874 0.168409 0.080089 255 220 0
0.570023 0.191613 0.050565 255 220 0
0.504764 0.110686 0.068308 255 220 0
0.514067 0.208510 0.042599 255 220 0
0.540124 0.243573 0.058394 255 220 0
0.568405 0.148602 0.047347 255 220 0
0.515854 0.188668 0.037371 255 220 0
0.547668 0.161672 0.106509 255 220 0
0.488861 0.192532 0.087356 255 220 0
0.491098 0.152765 0.075718 255 220 0
0.571485 0.176959 0.048858 255 220 0
0.563891 0.104439 0.080358 255 220 0
0.576988 0.175948 0.083896 255 220 0
0.508861 0.174472 0.042036 255 220 0
0.557545 0.131688 0.044110 255 220 0
0.570448 0.113753 0.067028 255 220 0
0.546258 0.169366 0.107569 255 220 0
0.554337 0.230879 0.056250 255 220 0
0.509018 0.210988 0.046446 255 220 0
0.567788 0.189148 0.047125 255 220 0
0.554921 0.136674 0.041354 255 220 0
0.553453 0.172040 0.035751 255 220 0
0.550390 0.242415 0.083303 255 220 0
0.528955 0.069684 0.089534 255 220 0
0.552249 0.086714 0.066925 255 220 0
0.528150 0.073118 0.074864 255 220 0
0.543833 0.158575 0.107091 255 220 0
0.505709 0.188875 0.106009 255 220 0
0.505033 0.209774 0.102796 255 220 0
0.524114 0.247501 0.064030 255 220 0
0.544491 0.240273 0.092218 255 220 0
0.522374 0.073502 0.099388 255 220 0
0.507437 0.199455 0.043991 255 220 0
0.578221 0.180722 0.079873 255 220 0
0.542003 0.120542 0.043188 255 220 0
0.487753 0.176570 0.082110 255 220 0
0.545333 0.245628 0.083220 255 220 0
0.507622 0.113443 0.062537 255 220 0
0.570840 0.191244 0.051520 255 220 0
0.502382 0.132408 0.096007 255 220 0
0.547318 0.125590 0.042078 255 220 0
0.489966 0.188650 0.065781 255 220 0
0.530896 0.180392 0.032590 255 220 0
0.508281 0.218962 0.050825 255 220 0
0.577066 0.132231 0.063628 255 220 0
0.495532 0.211474 0.092669 255 220 0
0.490782 0.177768 0.092504 255 220 0
0.520688 0.244303 0.061184 255 220 0
0.516293 0.173712 0.108996 255 220 0
0.538285 0.079143 0.096865 255 220 0
0.547777 0.161085 0.034742 255 220 0
0.521271 0.172276 0.109765 255 220 0
0.523928 0.187136 0.034167 255 220 0
0.507303 0.124060 0.058191 255 220 0
0.507120 0.185305 0.106689 255 220 0
0.565452 0.119586 0.054823 255 220 0
0.533750 0.199142 0.110865 255 220 0
0.522452 0.225040 0.104517 255 220 0
0.542802 0.112210 0.100889 255 220 0
0.574490 0.142141 0.084251 255 220 0
0.562268 0.098331 0.076563 255 220 0
0.518332 0.131639 0.104548 255 220 0
0.533611 0.182316 0.032443 255 220 0
0.541148 0.105572 0.049765 255 220 0
0.548577 0.242132 0.086455 255 220 0
0.524535 0.199018 0.110797 255 220 0
0.567728 0.205483 0.092033 255 220 0
0.498799 0.157496 0.055956 255 220 0
0.568682 0.167085 0.045539 255 220 0
0.511614 0.080674 0.077270 255 220 0
0.518956 0.216775 0.106794 255 220 0
0.501041 0.142554 0.058669 255 220 0
0.509727 0.150800 0.104613 255 220 0
0.572811 0.159682 0.050055 255 220 0
0.501018 0.132468 0.094314 255 220 0
0.494621 0.142135 0.072712 255 220 0
0.494719 0.169702 0.097350 255 220 0
0.556632 0.217459 0.100199 255 220 0
0.557319 0.112770 0.052030 255 220 0
0.537604 0.163160 0.108790 255 220 0
0.577541 0.187745 0.079110 255 220 0
0.537373 0.188423 0.110435 255 220 0
0.540096 0.125248 0.103505 255 220 0
0.523679 0.236193 0.098124 255 220 0
0.514084 0.238729 0.090732 255 220 0
0.531487 0.204074 0.110710 255 220 0
0.496626 0.167596 0.055974 255 220 0
0.514017 0.134456 0.103737 255 220 0
0.493210 0.211263 0.088248 255 220 0
0.516940 0.233268 0.053259 255 220 0
0.527828 0.242268 0.055806 255 220 0
0.496760 0.138028 0.089225 255 220 0
0.488535 0.173871 0.071020 255 220 0
0.570990 0.203683 0.059083 255 220 0
0.498506 0.144082 0.095440 255 220 0
0.579163 0.175341 0.065379 255 220 0
0.545224 0.223526 0.045416 255 220 0
0.563628 0.166995 0.041503 255 220 0
0.553499 0.200696 0.105722 255 220 0
0.520768 0.136689 0.042757 255 220 0
0.567549 0.220360 0.076505 255 220 0
0.533925 0.144103 0.036719 255 220 0
0.504018 0.163419 0.048285 255 220 0
0.561647 0.176631 0.040029 255 220 0
0.501295 0.188651 0.103478 255 220 0
0.576345 0.163015 0.054491 255 220 0
0.528013 0.089450 0.060026 255 220 0
0.527344 0.072660 0.097704 255 220 0
0.549200 0.208885 0.040317 255 220 0
0.488758 0.164783 0.082095 255 220 0
0.515672 0.156412 0.107074 255 220 0
0.538921 0.193831 0.110232 255 220 0
0.523596 0.074183 0.100139 255 220 0
0.539520 0.163426 0.033053 255 220 0
0.521685 0.071111 0.095557 255 220 0
0.581287 0.159870 0.070189 255 220 0
0.530899 0.092176 0.057699 255 220 0
0.572852 0.121999 0.076778 255 220 0
0.499437 0.136129 0.093519 255 220 0
0.526434 0.089096 0.104378 255 220 0
0.524298 0.097090 0.104266 255 220 0
0.514774 0.221428 0.047451 255 220 0
0.492452 0.147805 0.075772 255 220 0
