ply
format ascii 1.0
element vertex 1024
property float x
property float y
property float z
property uchar red
property uchar green
property uchar blue
end_header
0.409420 0.157877 0.089313 255 220 0
0.427099 0.110517 0.069202 255 220 0
0.440383 0.119581 0.062893 255 220 0
0.404995 0.222733 0.097822 255 220 0
0.447147 0.162170 0.037665 255 220 0
0.418781 0.147541 0.021819 255 220 0
0.409866 0.176481 0.094044 255 220 0
0.391890 0.156160 0.081535 255 220 0
0.407001 0.115729 0.027354 255 220 0
0.374620 0.136053 0.058425 255 220 0
0.437662 0.136634 0.034072 255 220 0
0.385853 0.086188 0.057609 255 220 0
0.430511 0.165169 0.091056 255 220 0
0.370979 0.204406 0.037094 255 220 0
0.429026 0.225222 0.095318 255 220 0
0.441102 0.225482 0.039846 255 220 0
0.408658 0.161839 0.019422 255 220 0
0.380957 0.090098 0.059024 255 220 0
0.408909 0.248694 0.038169 255 220 0
0.402112 0.132855 0.079573 255 220 0
0.431569 0.248381 0.081670 255 220 0
0.371875 0.228107 0.048549 255 220 0
0.395863 0.086587 0.061078 255 220 0
0.436444 0.142351 0.030867 255 220 0
0.397744 0.136342 0.024158 255 220 0
0.386793 0.235894 0.036273 255 220 0
0.402194 0.262751 0.069424 255 220 0
0.449488 0.177831 0.083406 255 220 0
0.431426 0.250976 0.052516 255 220 0
0.414519 0.128742 0.024974 255 220 0
0.401199 0.220785 0.023411 255 220 0
0.444741 0.167125 0.086223 255 220 0
0.375930 0.138196 0.038909 255 220 0
0.439909 0.117669 0.059268 255 220 0
0.393081 0.153340 0.023366 255 220 0
0.397107 0.122652 0.075279 255 220 0
0.429498 0.198081 0.096434 255 220 0
0.372203 0.231855 0.060533 255 220 0
0.392330 0.169771 0.085291 255 220 0
0.424252 0.260885 0.066653 255 220 0
0.456757 0.178807 0.062691 255 220 0
0.400874 0.091505 0.038345 255 220 0
0.401970 0.194003 0.094795 255 220 0
0.395097 0.116852 0.073141 255 220 0
0.451496 0.198775 0.079568 255 220 0
0.437237 0.169804 0.026272 255 220 0
0.414650 0.241687 0.033839 255 220 0
0.447988 0.218995 0.076616 255 220 0
0.445373 0.144760 0.040740 255 220 0
0.426736 0.258955 0.060591 255 220 0
0.381806 0.091611 0.041922 255 220 0
0.428735 0.230778 0.094155 255 220 0
0.415655 0.147800 0.087720 255 220 0
0.393525 0.088810 0.063766 255 220 0
0.393571 0.227810 0.092560 255 220 0
0.381973 0.126091 0.033131 255 220 0
0.403978 0.212648 0.097726 255 220 0
0.366280 0.206122 0.048627 255 220 0
0.374857 0.222758 0.038713 255 220 0
0.445459 0.157544 0.083352 255 220 0
0.435794 0.230968 0.037257 255 220 0
0.414164 0.263710 0.070390 255 220 0
0.434423 0.168322 0.024571 255 220 0
0.368648 0.221300 0.058325 255 220 0
0.388014 0.152036 0.077868 255 220 0
0.423096 0.207251 0.021142 255 220 0
0.387071 0.123075 0.070607 255 220 0
0.421041 0.156907 0.020787 255 220 0
0.365686 0.188641 0.048144 255 220 0
0.398735 0.173782 0.089361 255 220 0
0.423543 0.136462 0.025448 255 220 0
0.430031 0.204684 0.023310 255 220 0
0.452622 0.188150 0.044402 255 220 0
0.445012 0.212802 0.038334 255 220 0
0.436318 0.219208 0.031394 255 220 0
0.399510 0.218066 0.096305 255 220 0
0.420166 0.259272 0.077516 255 220 0
0.447747 0.211166 0.081882 255 220 0
0.367362 0.169390 0.050928 255 220 0
0.369699 0.223407 0.049573 255 220 0
0.387428 0.242686 0.040409 255 220 0
0.396734 0.127701 0.025715 255 220 0
0.412731 0.207963 0.019669 255 220 0
0.452062 0.164740 0.046454 255 220 0
0.410610 0.104345 0.032606 255 220 0
0.452098 0.198133 0.078476 255 220 0
0.404203 0.241853 0.033654 255 220 0
0.373630 0.118765 0.048942 255 220 0
0.452824 0.184894 0.077942 255 220 0
0.413146 0.112635 0.074913 255 220 0
0.404932 0.086853 0.045951 255 220 0
0.444055 0.178369 0.031620 255 220 0
0.447026 0.206267 0.038560 255 220 0
0.440953 0.230483 0.043729 255 220 0
0.402176 0.168354 0.089591 255 220 0
0.380731 0.148858 0.070531 255 220 0
0.420073 0.200846 0.098203 255 220 0
0.448643 0.139385 0.052891 255 220 0
0.397488 0.199127 0.093583 255 220 0
0.377557 0.194147 0.078915 255 220 0
0.382386 0.218025 0.085205 255 220 0
0.378422 0.161733 0.030629 255 220 0
0.396301 0.201456 0.020473 255 220 0
0.397578 0.094533 0.035736 255 220 0
0.388848 0.203684 0.023229 255 220 0
0.367551 0.168244 0.049862 255 220 0
0.408409 0.146599 0.085640 255 220 0
0.384878 0.116507 0.068240 255 220 0
0.399348 0.162685 0.086937 255 220 0
0.452217 0.195526 0.078604 255 220 0
0.404389 0.210492 0.020187 255 220 0
0.426058 0.245222 0.088870 255 220 0
0.404168 0.141115 0.022364 255 220 0
0.379168 0.244146 0.065270 255 220 0
0.382064 0.239559 0.077132 255 220 0
0.379941 0.177407 0.077635 255 220 0
0.378460 0.219766 0.080848 255 220 0
0.418340 0.247907 0.089768 255 220 0
0.444764 0.183045 0.032160 255 220 0
0.435056 0.247341 0.053560 255 220 0
0.409928 0.245740 0.091480 255 220 0
0.441432 0.222595 0.038394 255 220 0
0.380333 0.137671 0.033072 255 220 0
0.375833 0.129118 0.060130 255 220 0
0.386868 0.145084 0.027099 255 220 0
0.423216 0.154460 0.089735 255 220 0
0.452204 0.150557 0.054029 255 220 0
0.426016 0.197884 0.020741 255 220 0
0.416481 0.229506 0.027552 255 220 0
0.441654 0.167304 0.030292 255 220 0
0.433051 0.251159 0.055900 255 220 0
0.419996 0.116306 0.075599 255 220 0
0.437142 0.141901 0.031588 255 220 0
0.371053 0.223426 0.045346 255 220 0
0.436736 0.246766 0.074874 255 220 0
0.387500 0.166228 0.024047 255 220 0
0.456141 0.175241 0.057063 255 220 0
0.400352 0.182272 0.091918 255 220 0
0.388662 0.113762 0.030780 255 220 0
0.401010 0.254382 0.044414 255 220 0
0.390065 0.142389 0.076705 255 220 0
0.423276 0.138941 0.024736 255 220 0
0.393336 0.103078 0.069855 255 220 0
0.417937 0.180300 0.095454 255 220 0
0.414787 0.187152 0.096545 255 220 0
0.436594 0.134711 0.079063 255 220 0
0.450435 0.155366 0.078061 255 220 0
0.395414 0.217751 0.023917 255 220 0
0.427583 0.254774 0.077824 255 220 0
0.425705 0.139824 0.025433 255 220 0
0.397455 0.163035 0.086202 255 220 0
0.421231 0.117333 0.030880 255 220 0
0.448804 0.166224 0.039522 255 220 0
0.449694 0.195460 0.039692 255 220 0
0.439406 0.174957 0.027411 255 220 0
0.391427 0.169354 0.022212 255 220 0
0.447729 0.136374 0.053523 255 220 0
0.455460 0.159190 0.065988 255 220 0
0.417131 0.237322 0.031785 255 220 0
0.369940 0.173114 0.038398 255 220 0
0.390242 0.180852 0.086597 255 220 0
0.377224 0.091889 0.053172 255 220 0
0.442811 0.209107 0.034177 255 220 0
0.440856 0.150312 0.032559 255 220 0
0.398300 0.222285 0.095696 255 220 0
0.410701 0.256886 0.045590 255 220 0
0.447805 0.165900 0.083779 255 220 0
0.443543 0.136432 0.042584 255 220 0
0.432194 0.179271 0.093463 255 220 0
0.425707 0.105029 0.042208 255 220 0
0.383298 0.208039 0.026735 255 220 0
0.382624 0.134738 0.031414 255 220 0
0.399240 0.259812 0.074139 255 220 0
0.452473 0.184680 0.078638 255 220 0
0.439185 0.220835 0.034773 255 220 0
0.447070 0.167404 0.036624 255 220 0
0.392053 0.256002 0.054053 255 220 0
0.407537 0.233413 0.096515 255 220 0
0.443496 0.237278 0.065529 255 220 0
0.440340 0.243427 0.064785 255 220 0
0.396846 0.259554 0.071671 255 220 0
0.449266 0.139258 0.055323 255 220 0
0.438509 0.122946 0.044150 255 220 0
0.430481 0.256156 0.063156 255 220 0
0.447143 0.226606 0.055580 255 220 0
0.444566 0.217563 0.040087 255 220 0
0.417276 0.126769 0.026112 255 220 0
0.440629 0.208143 0.031647 255 220 0
0.455008 0.159760 0.070480 255 220 0
0.373609 0.161846 0.065582 255 220 0
0.396810 0.252179 0.043698 255 220 0
0.435000 0.175196 0.024221 255 220 0
0.455633 0.198478 0.060224 255 220 0
0.443931 0.134189 0.073327 255 220 0
0.390177 0.131985 0.074319 255 220 0
0.407450 0.104358 0.071848 255 220 0
0.377056 0.201229 0.029807 255 220 0
0.393902 0.129187 0.026247 255 220 0
0.435580 0.248289 0.075061 255 220 0
0.389949 0.143624 0.076944 255 220 0
0.404353 0.203543 0.097053 255 220 0
0.393348 0.244987 0.085143 255 220 0
0.408122 0.177001 0.093743 255 220 0
0.383735 0.091250 0.062853 255 220 0
0.439431 0.171103 0.027842 255 220 0
0.385843 0.246596 0.076136 255 220 0
0.393983 0.088351 0.063319 255 220 0
0.386199 0.212167 0.088550 255 220 0
0.422581 0.141912 0.023833 255 220 0
0.377296 0.240461 0.051405 255 220 0
0.388882 0.231773 0.088180 255 220 0
0.374994 0.236979 0.064439 255 220 0
0.390771 0.182634 0.021549 255 220 0
0.425748 0.117326 0.033471 255 220 0
0.391697 0.139173 0.076892 255 220 0
0.409262 0.209897 0.098677 255 220 0
0.373628 0.118833 0.048975 255 220 0
0.420644 0.102654 0.066902 255 220 0
0.365659 0.201410 0.050685 255 220 0
0.414289 0.252924 0.042231 255 220 0
0.417549 0.114802 0.075371 255 220 0
0.371247 0.152813 0.056150 255 220 0
0.376191 0.175134 0.030096 255 220 0
0.375479 0.135969 0.060316 255 220 0
0.369075 0.195406 0.038721 255 220 0
0.444538 0.231058 0.052918 255 220 0
0.400007 0.251811 0.042068 255 220 0
0.393481 0.250561 0.043679 255 220 0
0.405860 0.179199 0.093531 255 220 0
0.396711 0.174034 0.020320 255 220 0
0.440459 0.188665 0.091705 255 220 0
0.378562 0.175549 0.028065 255 220 0
0.373264 0.219922 0.073452 255 220 0
0.417120 0.125345 0.026482 255 220 0
0.398448 0.169748 0.088303 255 220 0
0.402890 0.243227 0.091389 255 220 0
0.440427 0.141680 0.080391 255 220 0
0.406054 0.262441 0.054751 255 220 0
0.410268 0.213790 0.020814 255 220 0
0.380945 0.239256 0.075690 255 220 0
0.441365 0.146586 0.034237 255 220 0
0.391159 0.207682 0.091519 255 220 0
0.406631 0.248733 0.038270 255 220 0
0.437150 0.236819 0.043766 255 220 0
0.456738 0.176791 0.062535 255 220 0
0.418354 0.140945 0.085785 255 220 0
0.428975 0.152832 0.088435 255 220 0
0.404176 0.126076 0.024913 255 220 0
0.415802 0.246737 0.090896 255 220 0
0.375686 0.239261 0.055172 255 220 0
0.384154 0.244806 0.045194 255 220 0
0.432894 0.161911 0.024551 255 220 0
0.431110 0.242128 0.041790 255 220 0
0.404433 0.203918 0.097118 255 220 0
0.378227 0.096536 0.060525 255 220 0
0.424935 0.205607 0.097836 255 220 0
0.380227 0.229222 0.037105 255 220 0
0.389597 0.167593 0.083092 255 220 0
0.451689 0.160673 0.046903 255 220 0
0.408912 0.102648 0.070991 255 220 0
0.448147 0.197987 0.037741 255 220 0
0.402758 0.149915 0.084685 255 220 0
0.452789 0.146859 0.061935 255 220 0
0.395061 0.250592 0.042845 255 220 0
0.366989 0.179820 0.043838 255 220 0
0.449374 0.221455 0.056827 255 220 0
0.436773 0.240492 0.082052 255 220 0
0.388412 0.166659 0.023613 255 220 0
0.433925 0.162941 0.024993 255 220 0
0.440156 0.226530 0.085484 255 220 0
0.451584 0.158271 0.077643 255 220 0
0.382278 0.248087 0.066106 255 220 0
0.455739 0.186949 0.053823 255 220 0
0.435912 0.147731 0.028977 255 220 0
0.398997 0.245397 0.037130 255 220 0
0.441087 0.129595 0.043228 255 220 0
0.376210 0.125489 0.040349 255 220 0
0.427288 0.137467 0.083729 255 220 0
0.384012 0.133760 0.070216 255 220 0
0.419837 0.202654 0.019652 255 220 0
0.406335 0.101318 0.032995 255 220 0
0.393929 0.125274 0.074700 255 220 0
0.395254 0.134761 0.025030 255 220 0
0.454877 0.194462 0.071659 255 220 0
0.431098 0.203325 0.096119 255 220 0
0.437509 0.233918 0.041498 255 220 0
0.384796 0.220250 0.087176 255 220 0
0.433123 0.152948 0.026091 255 220 0
0.451830 0.162921 0.046446 255 220 0
0.428860 0.235426 0.035037 255 220 0
0.386809 0.190376 0.086344 255 220 0
0.456504 0.175624 0.059446 255 220 0
0.383553 0.142891 0.071744 255 220 0
0.367514 0.169174 0.052550 255 220 0
0.386831 0.158803 0.078829 255 220 0
0.443587 0.148526 0.081397 255 220 0
0.403641 0.225799 0.025010 255 220 0
0.449592 0.156243 0.079404 255 220 0
0.394122 0.202713 0.092511 255 220 0
0.440810 0.209810 0.032328 255 220 0
0.399939 0.213241 0.021461 255 220 0
0.428137 0.206451 0.022764 255 220 0
0.366696 0.212323 0.056476 255 220 0
0.439030 0.228161 0.038915 255 220 0
0.448036 0.144751 0.075722 255 220 0
0.370098 0.157550 0.055172 255 220 0
0.438784 0.208555 0.091971 255 220 0
0.431153 0.215775 0.095480 255 220 0
0.368058 0.178896 0.060796 255 220 0
0.384873 0.250892 0.066538 255 220 0
0.383784 0.204495 0.025780 255 220 0
0.377928 0.128442 0.063282 255 220 0
0.411028 0.111559 0.074550 255 220 0
0.422794 0.241099 0.035875 255 220 0
0.425903 0.188395 0.020021 255 220 0
0.428395 0.106603 0.064989 255 220 0
0.427866 0.233559 0.093725 255 220 0
0.421869 0.201078 0.019894 255 220 0
0.381319 0.236745 0.041070 255 220 0
0.373177 0.151354 0.060755 255 220 0
0.378686 0.089859 0.051809 255 220 0
0.391333 0.190648 0.021332 255 220 0
0.389587 0.085115 0.047673 255 220 0
0.389344 0.123956 0.072121 255 220 0
0.421807 0.220717 0.098199 255 220 0
0.390074 0.166938 0.022926 255 220 0
0.436425 0.175147 0.091478 255 220 0
0.448670 0.169853 0.083709 255 220 0
0.417638 0.100320 0.066647 255 220 0
0.388931 0.116272 0.070467 255 220 0
0.446895 0.159376 0.082876 255 220 0
0.431128 0.198027 0.095992 255 220 0
0.411251 0.262679 0.074275 255 220 0
0.385715 0.085378 0.050713 255 220 0
0.385970 0.225908 0.087279 255 220 0
0.373695 0.118518 0.048360 255 220 0
0.412523 0.221579 0.023466 255 220 0
0.375648 0.197581 0.030555 255 220 0
0.441528 0.206634 0.032067 255 220 0
0.370489 0.154796 0.054298 255 220 0
0.374952 0.103171 0.056724 255 220 0
0.375577 0.163266 0.033161 255 220 0
0.390257 0.129838 0.027486 255 220 0
0.424619 0.154614 0.089633 255 220 0
0.398801 0.225605 0.095595 255 220 0
0.401442 0.200676 0.095570 255 220 0
0.368965 0.171206 0.041015 255 220 0
0.439795 0.195787 0.092367 255 220 0
0.392163 0.223137 0.092390 255 220 0
0.377925 0.134519 0.036398 255 220 0
0.449376 0.156093 0.043335 255 220 0
0.404987 0.194326 0.096004 255 220 0
0.448253 0.163773 0.082929 255 220 0
0.367281 0.192434 0.062284 255 220 0
0.456754 0.179862 0.062502 255 220 0
0.381128 0.197183 0.026323 255 220 0
0.403801 0.145067 0.083627 255 220 0
0.430388 0.231553 0.092909 255 220 0
0.444195 0.230952 0.051657 255 220 0
0.368621 0.169392 0.058147 255 220 0
0.399841 0.118646 0.075037 255 220 0
0.421155 0.094141 0.055965 255 220 0
0.455095 0.161846 0.058024 255 220 0
0.427825 0.232540 0.032789 255 220 0
0.409059 0.204254 0.018978 255 220 0
0.382621 0.197801 0.025501 255 220 0
0.453626 0.174882 0.077193 255 220 0
0.367457 0.199543 0.042705 255 220 0
0.390318 0.097959 0.034653 255 220 0
0.452400 0.189485 0.044006 255 220 0
0.368278 0.190030 0.039811 255 220 0
0.428272 0.240520 0.090426 255 220 0
0.408453 0.128119 0.080003 255 220 0
0.426340 0.256676 0.053921 255 220 0
0.453968 0.177158 0.076317 255 220 0
0.413205 0.195187 0.018161 255 220 0
0.428586 0.220953 0.027341 255 220 0
0.414784 0.259843 0.049788 255 220 0
0.385917 0.248691 0.047886 255 220 0
0.437262 0.126763 0.038976 255 220 0
0.431202 0.126984 0.032709 255 220 0
0.383337 0.189410 0.024561 255 220 0
0.370769 0.193132 0.069730 255 220 0
0.391192 0.128428 0.074100 255 220 0
0.447044 0.176153 0.035498 255 220 0
0.424287 0.143897 0.086560 255 220 0
0.388712 0.253771 0.054082 255 220 0
0.379676 0.092146 0.059644 255 220 0
0.369026 0.187527 0.038321 255 220 0
0.424495 0.124990 0.029415 255 220 0
0.416123 0.155330 0.089917 255 220 0
0.424317 0.200040 0.020429 255 220 0
0.433909 0.195448 0.023932 255 220 0
0.438384 0.162571 0.028067 255 220 0
0.421593 0.255062 0.082416 255 220 0
0.369593 0.222093 0.062859 255 220 0
0.402238 0.098724 0.033671 255 220 0
0.453598 0.195986 0.075310 255 220 0
0.447757 0.182608 0.035995 255 220 0
0.433158 0.235795 0.038285 255 220 0
0.375311 0.121597 0.058655 255 220 0
0.373711 0.123751 0.053285 255 220 0
0.396331 0.192119 0.019916 255 220 0
0.446691 0.229645 0.061175 255 220 0
0.374133 0.221629 0.038940 255 220 0
0.449208 0.208904 0.080468 255 220 0
0.456298 0.187444 0.057121 255 220 0
0.390926 0.124741 0.073146 255 220 0
0.440295 0.240763 0.074584 255 220 0
0.426941 0.105202 0.043507 255 220 0
0.441567 0.135740 0.039528 255 220 0
0.412062 0.107506 0.031503 255 220 0
0.454609 0.204706 0.062934 255 220 0
0.370385 0.216698 0.068540 255 220 0
0.422217 0.194593 0.097369 255 220 0
0.424755 0.255803 0.079230 255 220 0
0.394315 0.220225 0.025170 255 220 0
0.408236 0.193088 0.096698 255 220 0
0.371504 0.170929 0.036366 255 220 0
0.407291 0.151482 0.020674 255 220 0
0.424084 0.238864 0.034969 255 220 0
0.386607 0.136351 0.072846 255 220 0
0.367936 0.197490 0.041242 255 220 0
0.446093 0.216425 0.041998 255 220 0
0.449729 0.180286 0.083118 255 220 0
0.424036 0.100354 0.062431 255 220 0
0.370523 0.215308 0.041024 255 220 0
0.399393 0.130879 0.024652 255 220 0
0.442514 0.133578 0.042771 255 220 0
0.453441 0.191931 0.046737 255 220 0
0.440697 0.241028 0.057659 255 220 0
0.453806 0.203839 0.053414 255 220 0
0.372507 0.150582 0.042597 255 220 0
0.419204 0.257030 0.081219 255 220 0
0.414282 0.106601 0.032798 255 220 0
0.420805 0.121400 0.077949 255 220 0
0.411387 0.236009 0.029994 255 220 0
0.394072 0.084960 0.047136 255 220 0
0.433355 0.241673 0.085517 255 220 0
0.415529 0.112296 0.074490 255 220 0
0.414597 0.186701 0.096464 255 220 0
0.396703 0.097762 0.033956 255 220 0
0.376679 0.241377 0.059889 255 220 0
0.414899 0.264355 0.062860 255 220 0
0.415726 0.123660 0.026608 255 220 0
0.418887 0.098565 0.064457 255 220 0
0.398358 0.157458 0.085106 255 220 0
0.440262 0.142855 0.081012 255 220 0
0.453125 0.210823 0.064804 255 220 0
0.366127 0.186313 0.056645 255 220 0
0.392310 0.113112 0.029577 255 220 0
0.369969 0.223756 0.062687 255 220 0
0.401737 0.235798 0.030424 255 220 0
0.438281 0.158748 0.028543 255 220 0
0.374106 0.124433 0.046081 255 220 0
0.382374 0.165634 0.076878 255 220 0
0.442600 0.229038 0.080461 255 220 0
0.392092 0.158342 0.082244 255 220 0
0.412611 0.088144 0.053405 255 220 0
0.405810 0.188803 0.095366 255 220 0
0.456510 0.183879 0.066153 255 220 0
0.404726 0.112848 0.074494 255 220 0
0.440670 0.226723 0.040126 255 220 0
0.420811 0.127484 0.080697 255 220 0
0.367477 0.208089 0.044867 255 220 0
0.367217 0.212147 0.047681 255 220 0
0.408315 0.215128 0.098707 255 220 0
0.422977 0.203796 0.098103 255 220 0
0.453075 0.153830 0.072813 255 220 0
0.368670 0.168922 0.058039 255 220 0
0.431211 0.104329 0.057631 255 220 0
0.420041 0.240635 0.034592 255 220 0
0.388099 0.254267 0.065449 255 220 0
0.372457 0.145604 0.055360 255 220 0
0.425126 0.134359 0.082926 255 220 0
0.452269 0.160945 0.048310 255 220 0
0.434859 0.203099 0.025769 255 220 0
0.399768 0.086978 0.060998 255 220 0
0.393912 0.084946 0.058182 255 220 0
0.385079 0.232469 0.084508 255 220 0
0.402164 0.149228 0.021593 255 220 0
0.425564 0.216811 0.097547 255 220 0
0.373678 0.121643 0.052990 255 220 0
0.452088 0.178373 0.043658 255 220 0
0.437057 0.220223 0.032436 255 220 0
0.438665 0.230792 0.085416 255 220 0
0.414074 0.117103 0.028238 255 220 0
0.374481 0.183136 0.072967 255 220 0
0.418609 0.175730 0.018516 255 220 0
0.414816 0.117032 0.028481 255 220 0
0.431102 0.151190 0.087488 255 220 0
0.402939 0.138884 0.081517 255 220 0
0.418793 0.123250 0.079089 255 220 0
0.438806 0.142713 0.081717 255 220 0
0.448843 0.146591 0.075782 255 220 0
0.409487 0.257813 0.081466 255 220 0
0.454338 0.183193 0.074741 255 220 0
0.433352 0.252539 0.060131 255 220 0
0.383176 0.206484 0.085814 255 220 0
0.405639 0.097641 0.069105 255 220 0
0.441714 0.176588 0.029331 255 220 0
0.446577 0.165900 0.084738 255 220 0
0.387277 0.122165 0.070582 255 220 0
0.398733 0.175148 0.019755 255 220 0
0.428322 0.240194 0.038008 255 220 0
0.392001 0.213460 0.092437 255 220 0
0.438182 0.169581 0.027011 255 220 0
0.368783 0.162048 0.048567 255 220 0
0.441590 0.170208 0.088506 255 220 0
0.368647 0.170876 0.041942 255 220 0
0.433188 0.192291 0.023214 255 220 0
0.444665 0.133063 0.071515 255 220 0
0.439198 0.241984 0.075854 255 220 0
0.447550 0.225784 0.055918 255 220 0
0.412320 0.176452 0.018055 255 220 0
0.404518 0.119389 0.026325 255 220 0
0.373481 0.113532 0.050423 255 220 0
0.400767 0.256896 0.047630 255 220 0
0.456508 0.178654 0.058574 255 220 0
0.442351 0.182114 0.029611 255 220 0
0.406678 0.096257 0.036312 255 220 0
0.444126 0.212869 0.086111 255 220 0
0.380476 0.094180 0.041062 255 220 0
0.380971 0.134842 0.067586 255 220 0
0.372670 0.199952 0.034046 255 220 0
0.436595 0.199709 0.093970 255 220 0
0.410062 0.138145 0.083493 255 220 0
0.403808 0.154071 0.020765 255 220 0
0.372440 0.199574 0.073267 255 220 0
0.390305 0.254725 0.071110 255 220 0
0.407478 0.196393 0.096999 255 220 0
0.373466 0.134977 0.046963 255 220 0
0.373176 0.147372 0.058855 255 220 0
0.412916 0.196627 0.018251 255 220 0
0.388795 0.101540 0.068354 255 220 0
0.428424 0.111147 0.039688 255 220 0
0.451434 0.162568 0.045603 255 220 0
0.423922 0.169751 0.020025 255 220 0
0.427634 0.239762 0.091205 255 220 0
0.452353 0.212816 0.058139 255 220 0
0.389767 0.242869 0.039067 255 220 0
0.406833 0.236306 0.030076 255 220 0
0.456373 0.191928 0.061901 255 220 0
0.423992 0.245704 0.089534 255 220 0
0.441445 0.199761 0.030235 255 220 0
0.370616 0.188967 0.035736 255 220 0
0.413107 0.156164 0.019939 255 220 0
0.454046 0.192438 0.074609 255 220 0
0.374082 0.129843 0.045440 255 220 0
0.402297 0.091234 0.038953 255 220 0
0.406122 0.092416 0.039384 255 220 0
0.395335 0.107950 0.071260 255 220 0
0.401473 0.243084 0.090960 255 220 0
0.409135 0.255610 0.083689 255 220 0
0.404991 0.198287 0.018595 255 220 0
0.389561 0.235034 0.087557 255 220 0
0.423464 0.239852 0.093031 255 220 0
0.383049 0.244842 0.073704 255 220 0
0.449300 0.221793 0.057171 255 220 0
0.382020 0.233935 0.080518 255 220 0
0.375929 0.239806 0.055660 255 220 0
0.433691 0.110670 0.063480 255 220 0
0.401379 0.175438 0.019201 255 220 0
0.403131 0.184928 0.093672 255 220 0
0.385350 0.234733 0.036490 255 220 0
0.408093 0.153100 0.020428 255 220 0
0.373487 0.113394 0.051316 255 220 0
0.386291 0.169340 0.024215 255 220 0
0.446892 0.222918 0.075991 255 220 0
0.378787 0.215714 0.031940 255 220 0
0.411855 0.193783 0.018033 255 220 0
0.397872 0.236062 0.092658 255 220 0
0.377659 0.231280 0.075924 255 220 0
0.453758 0.175666 0.048075 255 220 0
0.407304 0.212764 0.098504 255 220 0
0.418630 0.105189 0.069671 255 220 0
0.373869 0.104401 0.047739 255 220 0
0.418218 0.189093 0.096865 255 220 0
0.394010 0.105710 0.031073 255 220 0
0.430790 0.236070 0.036642 255 220 0
0.370001 0.163885 0.041857 255 220 0
0.369617 0.221539 0.063491 255 220 0
0.388712 0.197938 0.022636 255 220 0
0.447634 0.186594 0.035752 255 220 0
0.448742 0.183838 0.037410 255 220 0
0.413023 0.227183 0.098221 255 220 0
0.371686 0.146997 0.050356 255 220 0
0.417945 0.249478 0.040267 255 220 0
0.411728 0.224659 0.098517 255 220 0
0.391575 0.214063 0.092222 255 220 0
0.371483 0.221478 0.069279 255 220 0
0.420910 0.260270 0.075005 255 220 0
0.441909 0.202868 0.031400 255 220 0
0.440213 0.241720 0.057336 255 220 0
0.386297 0.212741 0.088642 255 220 0
0.403428 0.141365 0.082402 255 220 0
0.413281 0.099731 0.068177 255 220 0
0.389723 0.175904 0.022224 255 220 0
0.368732 0.167123 0.043640 255 220 0
0.445770 0.131123 0.054109 255 220 0
0.369478 0.204132 0.039430 255 220 0
0.450686 0.191457 0.081634 255 220 0
0.415545 0.162214 0.091628 255 220 0
0.370767 0.152486 0.048209 255 220 0
0.436008 0.145221 0.083943 255 220 0
0.442815 0.132987 0.043871 255 220 0
0.447241 0.170296 0.036448 255 220 0
0.445164 0.185130 0.088145 255 220 0
0.394575 0.238907 0.089563 255 220 0
0.449676 0.174690 0.039595 255 220 0
0.423902 0.223537 0.097483 255 220 0
0.390777 0.212387 0.091655 255 220 0
0.452182 0.208611 0.051217 255 220 0
0.443117 0.197028 0.031336 255 220 0
0.430920 0.103649 0.054358 255 220 0
0.385343 0.085440 0.051685 255 220 0
0.366906 0.180447 0.043963 255 220 0
0.421598 0.119470 0.076827 255 220 0
0.399938 0.249274 0.086060 255 220 0
0.379326 0.211100 0.082408 255 220 0
0.422230 0.148664 0.088209 255 220 0
0.444253 0.146968 0.037843 255 220 0
0.404045 0.227487 0.097068 255 220 0
0.453037 0.162561 0.049843 255 220 0
0.381024 0.155258 0.029624 255 220 0
0.418058 0.137471 0.023614 255 220 0
0.392841 0.179896 0.087880 255 220 0
0.402790 0.228684 0.096527 255 220 0
0.440995 0.183256 0.028308 255 220 0
0.401292 0.156165 0.085948 255 220 0
0.370189 0.166728 0.040096 255 220 0
0.369937 0.217134 0.043049 255 220 0
0.410986 0.121575 0.078305 255 220 0
0.422382 0.210213 0.021592 255 220 0
0.382132 0.172903 0.078582 255 220 0
0.368838 0.218850 0.047122 255 220 0
0.387396 0.134749 0.073088 255 220 0
0.456539 0.189207 0.062277 255 220 0
0.397540 0.097185 0.034237 255 220 0
0.424992 0.252122 0.046532 255 220 0
0.421080 0.257051 0.049308 255 220 0
0.414714 0.147972 0.087626 255 220 0
0.371572 0.230064 0.060713 255 220 0
0.407294 0.262490 0.074051 255 220 0
0.443140 0.136118 0.042030 255 220 0
0.370221 0.213345 0.069056 255 220 0
0.398427 0.171392 0.020103 255 220 0
0.430184 0.204174 0.023290 255 220 0
0.433861 0.110409 0.048703 255 220 0
0.415980 0.138699 0.022978 255 220 0
0.384172 0.174893 0.080862 255 220 0
0.409648 0.112572 0.074923 255 220 0
0.430656 0.256100 0.064958 255 220 0
0.399971 0.169038 0.019963 255 220 0
0.454980 0.163180 0.056609 255 220 0
0.418869 0.161649 0.019762 255 220 0
0.374122 0.152555 0.063063 255 220 0
0.411373 0.259884 0.049217 255 220 0
0.429852 0.256827 0.065566 255 220 0
0.447439 0.220337 0.047968 255 220 0
0.399685 0.133782 0.024142 255 220 0
0.398476 0.245692 0.037494 255 220 0
0.369019 0.220143 0.062279 255 220 0
0.426363 0.230001 0.095523 255 220 0
0.377063 0.138767 0.036947 255 220 0
0.434943 0.112922 0.064350 255 220 0
0.367163 0.215904 0.053029 255 220 0
0.443933 0.182344 0.031248 255 220 0
0.449963 0.176404 0.082816 255 220 0
0.374644 0.106984 0.044720 255 220 0
0.403035 0.171141 0.019232 255 220 0
0.377198 0.230323 0.075714 255 220 0
0.436772 0.181602 0.092511 255 220 0
0.371783 0.195599 0.034592 255 220 0
0.399547 0.089227 0.040190 255 220 0
0.369089 0.167487 0.042358 255 220 0
0.403737 0.090218 0.063923 255 220 0
0.418363 0.201498 0.019249 255 220 0
0.443138 0.226953 0.044524 255 220 0
0.371358 0.168331 0.064115 255 220 0
0.455379 0.185206 0.052174 255 220 0
0.406205 0.108295 0.029788 255 220 0
0.385502 0.136267 0.071959 255 220 0
0.418059 0.104675 0.069564 255 220 0
0.393094 0.212255 0.092965 255 220 0
0.387971 0.209264 0.089654 255 220 0
0.414902 0.108910 0.072942 255 220 0
0.415859 0.208597 0.020045 255 220 0
0.428421 0.208744 0.023350 255 220 0
0.368972 0.222614 0.052387 255 220 0
0.413633 0.198963 0.018483 255 220 0
0.368806 0.216989 0.063766 255 220 0
0.373855 0.235999 0.059253 255 220 0
0.421140 0.212915 0.098605 255 220 0
0.409327 0.140075 0.022210 255 220 0
0.388336 0.121464 0.071080 255 220 0
0.430929 0.253621 0.056156 255 220 0
0.409681 0.174455 0.093562 255 220 0
0.427035 0.141418 0.085279 255 220 0
0.447926 0.141338 0.048705 255 220 0
0.381242 0.106570 0.064872 255 220 0
0.373944 0.126405 0.054777 255 220 0
0.387872 0.217833 0.089801 255 220 0
0.452264 0.144869 0.064548 255 220 0
0.384758 0.128952 0.069973 255 220 0
0.421550 0.242159 0.092477 255 220 0
0.372857 0.213245 0.036890 255 220 0
0.413420 0.104290 0.070882 255 220 0
0.456273 0.187773 0.057015 255 220 0
0.452362 0.195719 0.078288 255 220 0
0.374124 0.103159 0.054261 255 220 0
0.388375 0.197069 0.088534 255 220 0
0.434883 0.177258 0.023993 255 220 0
0.404868 0.223055 0.023739 255 220 0
0.401468 0.172641 0.090311 255 220 0
0.435585 0.111691 0.061512 255 220 0
0.386054 0.184981 0.084694 255 220 0
0.409998 0.175365 0.093831 255 220 0
0.418729 0.262458 0.071415 255 220 0
0.384732 0.186002 0.023834 255 220 0
0.376747 0.121938 0.039738 255 220 0
0.375490 0.232283 0.071376 255 220 0
0.384817 0.251205 0.064982 255 220 0
0.444726 0.129721 0.052469 255 220 0
0.395001 0.085397 0.059118 255 220 0
0.397249 0.095635 0.068521 255 220 0
0.386832 0.096724 0.066811 255 220 0
0.417354 0.091063 0.053349 255 220 0
0.435068 0.120366 0.040586 255 220 0
0.421452 0.161330 0.091535 255 220 0
0.370547 0.171891 0.063873 255 220 0
0.432414 0.133152 0.031037 255 220 0
0.432390 0.180148 0.093572 255 220 0
0.393747 0.165102 0.084938 255 220 0
0.373545 0.131470 0.048032 255 220 0
0.371881 0.171472 0.035668 255 220 0
0.395121 0.143440 0.079750 255 220 0
0.429560 0.141932 0.084876 255 220 0
0.379570 0.244127 0.051998 255 220 0
0.366730 0.184343 0.058541 255 220 0
0.438904 0.129724 0.074730 255 220 0
0.449131 0.168032 0.039730 255 220 0
0.393889 0.119264 0.073261 255 220 0
0.395982 0.238945 0.090419 255 220 0
0.411209 0.246527 0.091088 255 220 0
0.445999 0.190800 0.087618 255 220 0
0.379090 0.117733 0.036917 255 220 0
0.415027 0.135663 0.023456 255 220 0
0.409942 0.235455 0.096176 255 220 0
0.386533 0.212876 0.088826 255 220 0
0.382587 0.115121 0.066517 255 220 0
0.370202 0.223205 0.047421 255 220 0
0.394736 0.154418 0.022719 255 220 0
0.397665 0.116589 0.027561 255 220 0
0.407503 0.263024 0.072739 255 220 0
0.403921 0.121298 0.076828 255 220 0
0.375597 0.234382 0.069776 255 220 0
0.452264 0.159233 0.049023 255 220 0
0.395741 0.124989 0.075371 255 220 0
0.443708 0.133234 0.072846 255 220 0
0.386323 0.143568 0.074300 255 220 0
0.418781 0.135709 0.024178 255 220 0
0.372018 0.228447 0.048565 255 220 0
0.441248 0.162661 0.087062 255 220 0
0.384937 0.141198 0.028803 255 220 0
0.449831 0.165126 0.041546 255 220 0
0.430115 0.123549 0.033485 255 220 0
0.371103 0.150624 0.052644 255 220 0
0.392026 0.150546 0.080068 255 220 0
0.445347 0.184752 0.087961 255 220 0
0.449601 0.199494 0.040481 255 220 0
0.437830 0.114139 0.059167 255 220 0
0.365921 0.206453 0.052276 255 220 0
0.394821 0.084328 0.049514 255 220 0
0.375337 0.202621 0.077485 255 220 0
0.369374 0.211923 0.067368 255 220 0
0.372315 0.191101 0.071771 255 220 0
0.403627 0.243974 0.091209 255 220 0
0.433029 0.211771 0.094940 255 220 0
0.416715 0.195415 0.097742 255 220 0
0.434215 0.137184 0.030863 255 220 0
0.396069 0.152520 0.022525 255 220 0
0.379311 0.107844 0.037800 255 220 0
0.394854 0.193410 0.020334 255 220 0
0.440300 0.128939 0.042257 255 220 0
0.445175 0.231776 0.056749 255 220 0
0.408204 0.246386 0.036433 255 220 0
0.430944 0.120414 0.035860 255 220 0
0.427600 0.157813 0.089984 255 220 0
0.381045 0.179079 0.079132 255 220 0
0.448676 0.147162 0.046246 255 220 0
0.425985 0.257954 0.055785 255 220 0
0.366822 0.200878 0.061390 255 220 0
0.392167 0.194768 0.021195 255 220 0
0.378103 0.233278 0.042019 255 220 0
0.368059 0.167120 0.046456 255 220 0
0.431597 0.254261 0.059398 255 220 0
0.391498 0.171107 0.022030 255 220 0
0.426279 0.240917 0.037360 255 220 0
0.380897 0.104808 0.036929 255 220 0
0.366509 0.180757 0.056162 255 220 0
0.443014 0.220947 0.084206 255 220 0
0.412926 0.137822 0.084068 255 220 0
0.373119 0.140520 0.054858 255 220 0
0.369986 0.225122 0.060745 255 220 0
0.390873 0.121161 0.072373 255 220 0
0.422900 0.217565 0.023986 255 220 0
0.383226 0.156837 0.027704 255 220 0
0.384332 0.239914 0.040683 255 220 0
0.428062 0.216065 0.096765 255 220 0
0.402038 0.085426 0.057428 255 220 0
0.382309 0.169326 0.077812 255 220 0
0.405647 0.263255 0.057431 255 220 0
0.392065 0.084775 0.057583 255 220 0
0.443803 0.175410 0.031595 255 220 0
0.372745 0.211378 0.074073 255 220 0
0.454826 0.200945 0.068602 255 220 0
0.409121 0.096763 0.067667 255 220 0
0.379842 0.191995 0.026738 255 220 0
0.374240 0.156507 0.064685 255 220 0
0.376650 0.213356 0.079349 255 220 0
0.422281 0.220795 0.098102 255 220 0
0.377874 0.243255 0.057441 255 220 0
0.437916 0.209689 0.092378 255 220 0
0.437287 0.217120 0.091466 255 220 0
0.409154 0.219298 0.098705 255 220 0
0.422224 0.206344 0.098337 255 220 0
0.430778 0.237978 0.090021 255 220 0
0.404756 0.137092 0.081607 255 220 0
0.408366 0.090527 0.062224 255 220 0
0.400293 0.145567 0.082479 255 220 0
0.380623 0.246941 0.057057 255 220 0
0.385414 0.089201 0.061989 255 220 0
0.454456 0.163368 0.054285 255 220 0
0.413762 0.262484 0.054069 255 220 0
0.375293 0.202898 0.031682 255 220 0
0.366071 0.184160 0.046603 255 220 0
0.414426 0.169131 0.018600 255 220 0
0.371221 0.149713 0.051771 255 220 0
0.374520 0.128859 0.044000 255 220 0
0.390839 0.130766 0.074433 255 220 0
0.419583 0.120267 0.028987 255 220 0
0.400279 0.172460 0.089745 255 220 0
0.414762 0.221292 0.098852 255 220 0
0.395130 0.164766 0.085558 255 220 0
0.454459 0.164073 0.074204 255 220 0
0.382605 0.140061 0.070207 255 220 0
0.396732 0.134896 0.078240 255 220 0
0.430491 0.160731 0.090071 255 220 0
0.408626 0.126741 0.024759 255 220 0
0.417225 0.230641 0.028281 255 220 0
0.365480 0.197469 0.050747 255 220 0
0.399636 0.178752 0.090855 255 220 0
0.442054 0.126947 0.048082 255 220 0
0.445052 0.127561 0.059240 255 220 0
0.411135 0.177261 0.094435 255 220 0
0.385628 0.199708 0.024149 255 220 0
0.452720 0.207852 0.072281 255 220 0
0.456738 0.182105 0.063440 255 220 0
0.451996 0.212536 0.055137 255 220 0
0.414230 0.142353 0.085779 255 220 0
0.374940 0.236223 0.065549 255 220 0
0.411963 0.132589 0.082179 255 220 0
0.413925 0.239656 0.032456 255 220 0
0.368190 0.184544 0.062899 255 220 0
0.452431 0.184774 0.043939 255 220 0
0.448344 0.220568 0.074266 255 220 0
0.437493 0.127822 0.074480 255 220 0
0.446075 0.148826 0.040033 255 220 0
0.392283 0.143515 0.078320 255 220 0
0.383948 0.185611 0.024211 255 220 0
0.373528 0.128399 0.051809 255 220 0
0.405058 0.217346 0.098083 255 220 0
0.409121 0.103152 0.032762 255 220 0
0.375211 0.224349 0.039250 255 220 0
0.377462 0.160175 0.070184 255 220 0
0.430615 0.135165 0.081782 255 220 0
0.406660 0.086352 0.048414 255 220 0
0.405614 0.095055 0.036853 255 220 0
0.417540 0.263813 0.063315 255 220 0
0.401648 0.214295 0.021379 255 220 0
0.448619 0.202769 0.083507 255 220 0
0.377912 0.159184 0.070410 255 220 0
0.401149 0.205456 0.096070 255 220 0
0.400551 0.217249 0.096707 255 220 0
0.370393 0.200313 0.069977 255 220 0
0.391942 0.241645 0.086196 255 220 0
0.374255 0.140492 0.041942 255 220 0
0.394240 0.206128 0.021630 255 220 0
0.449285 0.180566 0.038392 255 220 0
0.392998 0.252760 0.078056 255 220 0
0.432802 0.197201 0.023549 255 220 0
0.369375 0.158944 0.049501 255 220 0
0.384334 0.215457 0.028138 255 220 0
0.417031 0.112126 0.031242 255 220 0
0.395671 0.098479 0.069319 255 220 0
0.378411 0.176660 0.075854 255 220 0
0.448340 0.186505 0.036771 255 220 0
0.399998 0.092154 0.037645 255 220 0
0.446268 0.147245 0.041109 255 220 0
0.374815 0.173123 0.031746 255 220 0
0.443825 0.177296 0.088404 255 220 0
0.454771 0.203895 0.062692 255 220 0
0.389059 0.128981 0.028160 255 220 0
0.414773 0.227224 0.026140 255 220 0
0.427638 0.257774 0.058684 255 220 0
0.454005 0.161765 0.053346 255 220 0
0.418670 0.207864 0.020289 255 220 0
0.402855 0.171488 0.090629 255 220 0
0.367574 0.209964 0.045325 255 220 0
0.374979 0.171410 0.031887 255 220 0
0.456496 0.189385 0.060185 255 220 0
0.429550 0.115494 0.071273 255 220 0
0.440298 0.184612 0.091389 255 220 0
0.409829 0.194114 0.018061 255 220 0
0.446603 0.146449 0.042159 255 220 0
0.442983 0.125245 0.065626 255 220 0
0.401334 0.179159 0.091705 255 220 0
0.439985 0.243907 0.063482 255 220 0
0.408509 0.229856 0.026639 255 220 0
0.454911 0.202002 0.058299 255 220 0
0.446261 0.151913 0.039099 255 220 0
0.449482 0.187601 0.038534 255 220 0
0.421243 0.253278 0.084493 255 220 0
0.394830 0.083904 0.053687 255 220 0
0.427489 0.100387 0.051332 255 220 0
0.402919 0.088727 0.041898 255 220 0
0.399316 0.168771 0.088454 255 220 0
0.370099 0.202874 0.069585 255 220 0
0.372099 0.223935 0.069441 255 220 0
0.411509 0.262828 0.054463 255 220 0
0.411164 0.250963 0.087946 255 220 0
0.383836 0.087477 0.058307 255 220 0
0.408313 0.218825 0.022189 255 220 0
0.443810 0.189577 0.089519 255 220 0
0.434237 0.137126 0.030899 255 220 0
0.369263 0.194751 0.038307 255 220 0
0.417306 0.256998 0.081930 255 220 0
0.394850 0.131938 0.025553 255 220 0
0.454858 0.203357 0.063883 255 220 0
0.371521 0.148216 0.051975 255 220 0
0.439344 0.141668 0.033772 255 220 0
0.381038 0.207971 0.028106 255 220 0
0.433377 0.198526 0.024047 255 220 0
0.405588 0.237431 0.030810 255 220 0
0.450911 0.143160 0.069232 255 220 0
0.370434 0.227538 0.056027 255 220 0
0.365634 0.194672 0.048577 255 220 0
0.410315 0.260281 0.049757 255 220 0
0.376418 0.186476 0.076068 255 220 0
0.398353 0.091624 0.066267 255 220 0
0.445145 0.177439 0.032949 255 220 0
0.379943 0.184462 0.079377 255 220 0
0.427031 0.205792 0.022189 255 220 0
0.397483 0.142881 0.023313 255 220 0
0.370727 0.199129 0.070466 255 220 0
0.446309 0.132658 0.053712 255 220 0
0.390223 0.209658 0.091133 255 220 0
0.385642 0.237068 0.082989 255 220 0
0.400675 0.123529 0.076596 255 220 0
0.437009 0.151363 0.085650 255 220 0
0.430279 0.109962 0.066456 255 220 0
0.379360 0.145003 0.067980 255 220 0
0.435718 0.200160 0.025764 255 220 0
0.429206 0.121790 0.033662 255 220 0
0.417915 0.252901 0.085936 255 220 0
0.382813 0.210508 0.085719 255 220 0
0.428956 0.214090 0.096559 255 220 0
0.392977 0.177088 0.021114 255 220 0
0.455873 0.180204 0.054556 255 220 0
0.388378 0.097725 0.035268 255 220 0
0.381218 0.229042 0.081672 255 220 0
0.392722 0.161809 0.022571 255 220 0
0.372971 0.164875 0.065638 255 220 0
0.456320 0.172028 0.059576 255 220 0
0.371417 0.148574 0.049832 255 220 0
0.379261 0.160787 0.030076 255 220 0
0.365711 0.185830 0.053661 255 220 0
0.415563 0.226369 0.098308 255 220 0
0.441167 0.127016 0.045831 255 220 0
0.393427 0.173809 0.086828 255 220 0
0.443931 0.196673 0.089463 255 220 0
0.393067 0.198702 0.091437 255 220 0
0.397360 0.136486 0.078894 255 220 0
0.390744 0.248567 0.080074 255 220 0
0.387421 0.252759 0.068915 255 220 0
0.388640 0.214793 0.090364 255 220 0
0.391527 0.187316 0.021236 255 220 0
0.376439 0.148320 0.065209 255 220 0
0.371152 0.227975 0.051099 255 220 0
0.411601 0.250469 0.039722 255 220 0
0.419184 0.258007 0.049299 255 220 0
0.371145 0.154990 0.044028 255 220 0
0.376335 0.193007 0.029484 255 220 0
0.450920 0.214970 0.071732 255 220 0
0.369090 0.160235 0.050853 255 220 0
0.452930 0.185472 0.077690 255 220 0
0.438764 0.238569 0.048499 255 220 0
0.454161 0.181013 0.048371 255 220 0
0.409255 0.209594 0.098660 255 220 0
0.417839 0.155383 0.020428 255 220 0
0.438414 0.230257 0.085992 255 220 0
0.432256 0.161895 0.024208 255 220 0
0.401892 0.183106 0.018779 255 220 0
0.453731 0.190897 0.047342 255 220 0
0.368015 0.203346 0.064962 255 220 0
0.456671 0.174554 0.065640 255 220 0
0.412050 0.106268 0.032108 255 220 0
0.388816 0.086275 0.059721 255 220 0
0.444516 0.224118 0.044725 255 220 0
0.369714 0.182975 0.037281 255 220 0
0.376503 0.169584 0.071821 255 220 0
0.394607 0.203913 0.092903 255 220 0
0.384403 0.087955 0.059711 255 220 0
0.439540 0.180778 0.027122 255 220 0
0.385458 0.085530 0.054506 255 220 0
0.451330 0.169489 0.080692 255 220 0
0.415836 0.108876 0.032280 255 220 0
0.439449 0.132269 0.075970 255 220 0
0.370722 0.152437 0.048773 255 220 0
0.384671 0.102039 0.066781 255 220 0
0.383262 0.110190 0.066535 255 220 0
0.412896 0.239500 0.032197 255 220 0
0.375885 0.166351 0.032044 255 220 0
