ply
format ascii 1.0
element vertex 1024
property float x
property float y
property float z
property uchar red
property uchar green
property uchar blue
end_header
0.524520 0.216378 0.336654 255 220 0
0.542136 0.170998 0.312359 255 220 0
0.555871 0.180348 0.307632 255 220 0
0.521018 0.280054 0.351867 255 220 0
0.564621 0.225194 0.287426 255 220 0
0.536713 0.213038 0.268904 255 220 0
0.525126 0.234358 0.343367 255 220 0
0.507328 0.215932 0.327994 255 220 0
0.524059 0.181120 0.270488 255 220 0
0.490720 0.198826 0.302144 255 220 0
0.554798 0.200428 0.280714 255 220 0
0.500976 0.149067 0.296470 255 220 0
0.545653 0.222919 0.340070 255 220 0
0.489421 0.269127 0.288126 255 220 0
0.545183 0.282198 0.350676 255 220 0
0.559756 0.288047 0.296119 255 220 0
0.526998 0.227756 0.267622 255 220 0
0.496100 0.152925 0.298086 255 220 0
0.528144 0.312097 0.295563 255 220 0
0.517159 0.192721 0.323985 255 220 0
0.548805 0.306605 0.339709 255 220 0
0.490274 0.291449 0.302082 255 220 0
0.510824 0.148847 0.300388 255 220 0
0.553841 0.206481 0.278092 255 220 0
0.515371 0.202179 0.269127 255 220 0
0.505884 0.300123 0.291362 255 220 0
0.520307 0.322917 0.327828 255 220 0
0.565207 0.235848 0.334640 255 220 0
0.550031 0.312283 0.311022 255 220 0
0.531936 0.194122 0.269841 255 220 0
0.520551 0.286112 0.277583 255 220 0
0.560124 0.225024 0.336087 255 220 0
0.492954 0.202996 0.283045 255 220 0
0.555523 0.178845 0.303805 255 220 0
0.511090 0.219276 0.269962 255 220 0
0.512149 0.183158 0.318412 255 220 0
0.545059 0.255089 0.348896 255 220 0
0.490135 0.293894 0.314402 255 220 0
0.507871 0.229052 0.333202 255 220 0
0.542427 0.320811 0.325820 255 220 0
0.573423 0.238837 0.314479 255 220 0
0.516955 0.156025 0.278548 255 220 0
0.517557 0.251891 0.345652 255 220 0
0.510122 0.177670 0.315581 255 220 0
0.567806 0.257024 0.333158 255 220 0
0.555392 0.234238 0.276503 255 220 0
0.533934 0.305449 0.290757 255 220 0
0.564841 0.277524 0.332243 255 220 0
0.562361 0.207606 0.288539 255 220 0
0.545143 0.319474 0.319698 255 220 0
0.497752 0.156224 0.281296 255 220 0
0.545056 0.287852 0.350103 255 220 0
0.530617 0.206376 0.334259 255 220 0
0.508412 0.150830 0.303196 255 220 0
0.509947 0.285942 0.346696 255 220 0
0.499008 0.191427 0.276267 255 220 0
0.519804 0.270064 0.350648 255 220 0
0.484240 0.269725 0.299564 255 220 0
0.493588 0.287101 0.291867 255 220 0
0.560778 0.215787 0.332240 255 220 0
0.554682 0.293907 0.293908 255 220 0
0.532238 0.323471 0.329403 255 220 0
0.552629 0.233016 0.274534 255 220 0
0.486472 0.283724 0.310926 255 220 0
0.503541 0.212317 0.323743 255 220 0
0.542252 0.272358 0.274816 255 220 0
0.502346 0.184323 0.313387 255 220 0
0.539204 0.222402 0.268979 255 220 0
0.483318 0.252414 0.297186 255 220 0
0.514166 0.232448 0.337949 255 220 0
0.541083 0.201522 0.271525 255 220 0
0.549029 0.269403 0.276991 255 220 0
0.570307 0.250168 0.297137 255 220 0
0.563475 0.275506 0.293425 255 220 0
0.555234 0.282827 0.286847 255 220 0
0.515514 0.275712 0.349626 255 220 0
0.537821 0.318154 0.336262 255 220 0
0.564206 0.269189 0.336624 255 220 0
0.484479 0.232941 0.297960 255 220 0
0.487959 0.286721 0.302503 255 220 0
0.506468 0.306419 0.296225 255 220 0
0.514118 0.193450 0.269704 255 220 0
0.531981 0.273478 0.272985 255 220 0
0.569185 0.226694 0.296643 255 220 0
0.527197 0.169157 0.274640 255 220 0
0.568444 0.256487 0.332030 255 220 0
0.523511 0.305892 0.290143 255 220 0
0.489814 0.182673 0.290830 255 220 0
0.568927 0.243366 0.330112 255 220 0
0.527984 0.172843 0.317661 255 220 0
0.520572 0.150493 0.285778 255 220 0
0.562132 0.242015 0.283025 255 220 0
0.565346 0.268937 0.293036 255 220 0
0.559533 0.292609 0.300506 255 220 0
0.517483 0.226942 0.337743 255 220 0
0.496534 0.210118 0.315803 255 220 0
0.535621 0.257883 0.350546 255 220 0
0.564971 0.200891 0.300173 255 220 0
0.513238 0.257225 0.344806 255 220 0
0.493894 0.254325 0.328849 255 220 0
0.498912 0.277274 0.337863 255 220 0
0.496290 0.227211 0.277450 255 220 0
0.515403 0.267332 0.272383 255 220 0
0.513843 0.159394 0.276140 255 220 0
0.507880 0.269438 0.275040 255 220 0
0.484694 0.231910 0.296786 255 220 0
0.523450 0.205582 0.331754 255 220 0
0.500130 0.178101 0.310238 255 220 0
0.514665 0.221660 0.334379 255 220 0
0.568505 0.253879 0.331884 255 220 0
0.523676 0.276144 0.273413 255 220 0
0.542911 0.302837 0.346287 255 220 0
0.521964 0.206955 0.268131 255 220 0
0.497124 0.305435 0.320722 255 220 0
0.499388 0.299544 0.332137 255 220 0
0.495997 0.237762 0.325885 255 220 0
0.495223 0.279565 0.333554 255 220 0
0.535217 0.305602 0.347137 255 220 0
0.562909 0.246589 0.284093 255 220 0
0.553536 0.308470 0.311825 255 220 0
0.526694 0.303474 0.348245 255 220 0
0.560094 0.285323 0.294382 255 220 0
0.497605 0.202986 0.277379 255 220 0
0.491716 0.191722 0.303147 255 220 0
0.504551 0.210826 0.272520 255 220 0
0.538212 0.212595 0.337298 255 220 0
0.568700 0.211788 0.302652 255 220 0
0.544999 0.263016 0.273538 255 220 0
0.535802 0.293963 0.283284 255 220 0
0.559572 0.231217 0.280417 255 220 0
0.551506 0.312066 0.314473 255 220 0
0.534869 0.176249 0.319030 255 220 0
0.554496 0.205939 0.278789 255 220 0
0.489503 0.287155 0.298364 255 220 0
0.554240 0.305593 0.333007 255 220 0
0.505744 0.232152 0.271781 255 220 0
0.572990 0.235904 0.308480 255 220 0
0.515835 0.240576 0.341468 255 220 0
0.505548 0.179256 0.272897 255 220 0
0.520087 0.317284 0.302037 255 220 0
0.505448 0.202801 0.321643 255 220 0
0.540898 0.204069 0.271072 255 220 0
0.508235 0.164371 0.310765 255 220 0
0.533199 0.237804 0.345522 255 220 0
0.530142 0.244578 0.347205 255 220 0
0.551659 0.193765 0.325154 255 220 0
0.565943 0.214060 0.326964 255 220 0
0.514690 0.283186 0.277512 255 220 0
0.545125 0.313467 0.336404 255 220 0
0.543310 0.204812 0.271963 255 220 0
0.512814 0.222132 0.333605 255 220 0
0.538143 0.181987 0.274772 255 220 0
0.566274 0.228986 0.289776 255 220 0
0.567742 0.258007 0.293116 255 220 0
0.557610 0.239186 0.278279 255 220 0
0.509813 0.235358 0.270461 255 220 0
0.563969 0.197854 0.300439 255 220 0
0.571584 0.219019 0.315596 255 220 0
0.536416 0.301267 0.288355 255 220 0
0.487696 0.237909 0.286023 255 220 0
0.505949 0.239980 0.335598 255 220 0
0.492672 0.155419 0.292305 255 220 0
0.561390 0.272329 0.288806 255 220 0
0.558331 0.214105 0.280814 255 220 0
0.514418 0.280000 0.349421 255 220 0
0.529763 0.319408 0.303889 255 220 0
0.563270 0.223990 0.333660 255 220 0
0.560283 0.199177 0.289399 255 220 0
0.547509 0.236639 0.344044 255 220 0
0.541855 0.168443 0.284897 255 220 0
0.502265 0.273533 0.278752 255 220 0
0.499910 0.200189 0.275515 255 220 0
0.517084 0.319568 0.332070 255 220 0
0.568542 0.243087 0.330766 255 220 0
0.557977 0.284014 0.290499 255 220 0
0.564696 0.230509 0.286950 255 220 0
0.510738 0.318093 0.311403 255 220 0
0.523830 0.290746 0.351823 255 220 0
0.561223 0.296987 0.322997 255 220 0
0.558229 0.303256 0.322782 255 220 0
0.514800 0.319633 0.329489 255 220 0
0.565480 0.200492 0.302601 255 220 0
0.554914 0.185730 0.289294 255 220 0
0.548711 0.316326 0.322106 255 220 0
0.565102 0.287344 0.312127 255 220 0
0.563046 0.280064 0.295658 255 220 0
0.534599 0.191971 0.270878 255 220 0
0.559306 0.271694 0.286096 255 220 0
0.570941 0.219119 0.320100 255 220 0
0.489905 0.223731 0.311975 255 220 0
0.515881 0.315274 0.300911 255 220 0
0.553359 0.239871 0.274948 255 220 0
0.572807 0.258680 0.314088 255 220 0
0.559236 0.193674 0.319714 255 220 0
0.505458 0.192710 0.318162 255 220 0
0.522267 0.165081 0.313486 255 220 0
0.495756 0.266592 0.280807 255 220 0
0.511296 0.194940 0.270271 255 220 0
0.553108 0.307116 0.333307 255 220 0
0.505346 0.204006 0.322007 255 220 0
0.520027 0.261076 0.349020 255 220 0
0.510405 0.303810 0.341160 255 220 0
0.523408 0.234950 0.343049 255 220 0
0.498725 0.153595 0.302131 255 220 0
0.557539 0.235308 0.278295 255 220 0
0.503349 0.306552 0.332065 255 220 0
0.508881 0.150410 0.302722 255 220 0
0.502452 0.271001 0.340721 255 220 0
0.540304 0.207135 0.270464 255 220 0
0.495806 0.303291 0.306475 255 220 0
0.505542 0.290463 0.342569 255 220 0
0.492848 0.298503 0.318951 255 220 0
0.509454 0.248645 0.271198 255 220 0
0.542538 0.181594 0.277538 255 220 0
0.507004 0.199543 0.321553 255 220 0
0.524983 0.267097 0.351524 255 220 0
0.489812 0.182737 0.290870 255 220 0
0.535634 0.163585 0.308955 255 220 0
0.483432 0.264838 0.301077 255 220 0
0.533419 0.315737 0.300281 255 220 0
0.532405 0.174839 0.318537 255 220 0
0.487792 0.215811 0.301536 255 220 0
0.494354 0.240644 0.278261 255 220 0
0.491491 0.198521 0.304050 255 220 0
0.487265 0.260056 0.288696 255 220 0
0.562709 0.292117 0.309848 255 220 0
0.519139 0.315001 0.299389 255 220 0
0.512524 0.313750 0.300576 255 220 0
0.521202 0.237214 0.342977 255 220 0
0.515270 0.240080 0.269310 255 220 0
0.556031 0.245960 0.343658 255 220 0
0.496823 0.241213 0.276389 255 220 0
0.490371 0.280634 0.326001 255 220 0
0.534397 0.190520 0.271086 255 220 0
0.513845 0.228558 0.336454 255 220 0
0.519618 0.301161 0.347584 255 220 0
0.555567 0.200457 0.327383 255 220 0
0.524820 0.324072 0.313385 255 220 0
0.529586 0.279210 0.274642 255 220 0
0.498329 0.299424 0.330625 255 220 0
0.558688 0.210211 0.282103 255 220 0
0.507182 0.266105 0.343401 255 220 0
0.525866 0.312181 0.295570 255 220 0
0.555860 0.298998 0.301058 255 220 0
0.573370 0.236850 0.314107 255 220 0
0.533263 0.199700 0.331718 255 220 0
0.543990 0.210972 0.336078 255 220 0
0.521555 0.191735 0.269052 255 220 0
0.532606 0.304382 0.348023 255 220 0
0.494005 0.301738 0.310020 255 220 0
0.503025 0.308100 0.301065 255 220 0
0.550974 0.226683 0.273762 255 220 0
0.550023 0.304635 0.299406 255 220 0
0.520110 0.261439 0.349128 255 220 0
0.493435 0.159233 0.300150 255 220 0
0.540589 0.262534 0.350899 255 220 0
0.499155 0.293565 0.291192 255 220 0
0.505198 0.227188 0.330668 255 220 0
0.568710 0.222613 0.296636 255 220 0
0.523732 0.163437 0.312514 255 220 0
0.566336 0.260765 0.291383 255 220 0
0.517915 0.209120 0.330919 255 220 0
0.568852 0.207258 0.310134 255 220 0
0.514140 0.313830 0.299819 255 220 0
0.484637 0.244070 0.292019 255 220 0
0.567170 0.282036 0.312909 255 220 0
0.553827 0.298593 0.339466 255 220 0
0.506684 0.232605 0.271435 255 220 0
0.552004 0.227634 0.274356 255 220 0
0.556770 0.284266 0.341524 255 220 0
0.567168 0.216963 0.326909 255 220 0
0.500271 0.309187 0.322109 255 220 0
0.572971 0.247897 0.306499 255 220 0
0.553504 0.212042 0.276767 255 220 0
0.518226 0.309175 0.293754 255 220 0
0.557663 0.192373 0.289202 255 220 0
0.492914 0.190205 0.283125 255 220 0
0.542209 0.196240 0.329685 255 220 0
0.499523 0.195063 0.314013 255 220 0
0.538972 0.268026 0.272703 255 220 0
0.522849 0.166213 0.274519 255 220 0
0.509054 0.185905 0.317982 255 220 0
0.512813 0.200577 0.269717 255 220 0
0.571454 0.253493 0.324984 255 220 0
0.546776 0.260295 0.349214 255 220 0
0.556262 0.296347 0.298510 255 220 0
0.501275 0.279216 0.340163 255 220 0
0.550952 0.217604 0.274341 255 220 0
0.568917 0.224893 0.296429 255 220 0
0.547946 0.298746 0.291884 255 220 0
0.502724 0.249559 0.336220 255 220 0
0.573253 0.236024 0.310904 255 220 0
0.499178 0.203988 0.316490 255 220 0
0.484554 0.232550 0.299554 255 220 0
0.502451 0.218971 0.325373 255 220 0
0.558816 0.207076 0.329252 255 220 0
0.523018 0.290866 0.279812 255 220 0
0.565058 0.214810 0.328355 255 220 0
0.509996 0.260986 0.343982 255 220 0
0.559490 0.273274 0.286959 255 220 0
0.519229 0.278852 0.274783 255 220 0
0.547198 0.271264 0.276556 255 220 0
0.484425 0.275045 0.308043 255 220 0
0.557783 0.290860 0.295392 255 220 0
0.563440 0.203816 0.323400 255 220 0
0.486783 0.220653 0.301023 255 220 0
0.554745 0.265744 0.345982 255 220 0
0.547111 0.272738 0.349915 255 220 0
0.484919 0.241325 0.308810 255 220 0
0.502900 0.311865 0.322950 255 220 0
0.502723 0.270100 0.277445 255 220 0
0.493652 0.190664 0.306295 255 220 0
0.525864 0.171864 0.317095 255 220 0
0.541964 0.304446 0.293065 255 220 0
0.544728 0.253663 0.271802 255 220 0
0.543542 0.167522 0.307810 255 220 0
0.544264 0.290684 0.349937 255 220 0
0.540959 0.266384 0.272862 255 220 0
0.500218 0.300595 0.295984 255 220 0
0.489481 0.213825 0.306037 255 220 0
0.494154 0.153510 0.290796 255 220 0
0.510186 0.256620 0.271866 255 220 0
0.505133 0.148962 0.286646 255 220 0
0.504565 0.184982 0.315083 255 220 0
0.537751 0.277593 0.352746 255 220 0
0.508380 0.232913 0.270854 255 220 0
0.551741 0.232646 0.341811 255 220 0
0.564216 0.227905 0.334051 255 220 0
0.532597 0.161367 0.308323 255 220 0
0.504073 0.177530 0.312599 255 220 0
0.562271 0.217623 0.332025 255 220 0
0.546706 0.255042 0.348520 255 220 0
0.529133 0.322106 0.333027 255 220 0
0.501133 0.148998 0.289528 255 220 0
0.502557 0.284801 0.340921 255 220 0
0.489900 0.182487 0.290228 255 220 0
0.531874 0.286615 0.278207 255 220 0
0.494242 0.262921 0.281098 255 220 0
0.560155 0.270127 0.286390 255 220 0
0.487158 0.217999 0.299877 255 220 0
0.490469 0.166313 0.296945 255 220 0
0.493364 0.228536 0.280007 255 220 0
0.507613 0.195546 0.271416 255 220 0
0.539620 0.212724 0.337273 255 220 0
0.514989 0.283298 0.349699 255 220 0
0.517128 0.258456 0.347115 255 220 0
0.486565 0.235759 0.288376 255 220 0
0.555481 0.252984 0.345051 255 220 0
0.508455 0.281350 0.345966 255 220 0
0.494987 0.199558 0.280241 255 220 0
0.566469 0.218496 0.292502 255 220 0
0.520522 0.252009 0.347017 255 220 0
0.563712 0.221954 0.332606 255 220 0
0.484348 0.254643 0.311706 255 220 0
0.573449 0.239906 0.314405 255 220 0
0.499899 0.262839 0.277087 255 220 0
0.518908 0.204387 0.329393 255 220 0
0.546780 0.288714 0.349019 255 220 0
0.562422 0.292154 0.308569 255 220 0
0.485411 0.232145 0.305184 255 220 0
0.514811 0.179134 0.317860 255 220 0
0.536468 0.156272 0.297201 255 220 0
0.571634 0.222514 0.307954 255 220 0
0.546956 0.296142 0.289297 255 220 0
0.528270 0.269955 0.271743 255 220 0
0.501440 0.263504 0.276401 255 220 0
0.569561 0.233473 0.328329 255 220 0
0.485552 0.263784 0.293027 255 220 0
0.506710 0.163095 0.275121 255 220 0
0.570130 0.251543 0.296877 255 220 0
0.486311 0.254616 0.289168 255 220 0
0.544958 0.297943 0.347424 255 220 0
0.523378 0.187810 0.324176 255 220 0
0.545002 0.317927 0.312812 255 220 0
0.569988 0.235820 0.327718 255 220 0
0.532266 0.260927 0.270138 255 220 0
0.547730 0.285183 0.282677 255 220 0
0.533711 0.321800 0.308551 255 220 0
0.504742 0.311632 0.304231 255 220 0
0.553979 0.190104 0.284511 255 220 0
0.548213 0.191140 0.278050 255 220 0
0.502029 0.255245 0.274598 255 220 0
0.487509 0.254460 0.319326 255 220 0
0.506410 0.189172 0.317606 255 220 0
0.564898 0.239327 0.286767 255 220 0
0.539213 0.202406 0.333058 255 220 0
0.507355 0.315955 0.311050 255 220 0
0.494834 0.154926 0.298866 255 220 0
0.487076 0.252267 0.287452 255 220 0
0.541624 0.189674 0.274277 255 220 0
0.531136 0.213616 0.337269 255 220 0
0.543359 0.265235 0.273387 255 220 0
0.552688 0.260061 0.276785 255 220 0
0.556312 0.226830 0.277560 255 220 0
0.538941 0.313414 0.340739 255 220 0
0.487226 0.284007 0.315555 255 220 0
0.518674 0.163664 0.274737 255 220 0
0.570042 0.254652 0.328720 255 220 0
0.565717 0.245673 0.287984 255 220 0
0.552100 0.298662 0.295334 255 220 0
0.491111 0.184415 0.300854 255 220 0
0.489798 0.187166 0.295682 255 220 0
0.515271 0.258109 0.270830 255 220 0
0.564458 0.289782 0.317991 255 220 0
0.492833 0.285973 0.291940 255 220 0
0.565684 0.267054 0.335040 255 220 0
0.573390 0.248025 0.309852 255 220 0
0.506114 0.185615 0.316253 255 220 0
0.557687 0.299569 0.332228 255 220 0
0.543032 0.168446 0.286259 255 220 0
0.558433 0.198863 0.286205 255 220 0
0.528760 0.172380 0.273946 255 220 0
0.571786 0.264609 0.317404 255 220 0
0.487652 0.278022 0.320654 255 220 0
0.537675 0.251702 0.349139 255 220 0
0.542259 0.314411 0.337790 255 220 0
0.513584 0.285540 0.278975 255 220 0
0.523711 0.250624 0.347712 255 220 0
0.489306 0.235914 0.283837 255 220 0
0.525368 0.217362 0.267698 255 220 0
0.543248 0.302289 0.291980 255 220 0
0.502047 0.197294 0.317014 255 220 0
0.486055 0.261887 0.291375 255 220 0
0.564462 0.278692 0.297500 255 220 0
0.565509 0.238312 0.334628 255 220 0
0.539179 0.161690 0.304413 255 220 0
0.489006 0.279558 0.293178 255 220 0
0.516885 0.196655 0.269103 255 220 0
0.559189 0.196346 0.289236 255 220 0
0.571096 0.253659 0.299896 255 220 0
0.558859 0.301619 0.315462 255 220 0
0.571398 0.264777 0.307821 255 220 0
0.489617 0.215002 0.287889 255 220 0
0.536649 0.315557 0.339660 255 220 0
0.530902 0.171288 0.275230 255 220 0
0.535672 0.181043 0.321945 255 220 0
0.530734 0.300294 0.286190 255 220 0
0.509633 0.148755 0.286288 255 220 0
0.550280 0.299484 0.342889 255 220 0
0.530377 0.172491 0.317307 255 220 0
0.529946 0.244143 0.347068 255 220 0
0.513114 0.162814 0.274681 255 220 0
0.494826 0.303316 0.314974 255 220 0
0.533326 0.324895 0.322024 255 220 0
0.532966 0.188867 0.270971 255 220 0
0.533909 0.159824 0.306014 255 220 0
0.513653 0.216683 0.331957 255 220 0
0.555398 0.201563 0.328118 255 220 0
0.570342 0.270527 0.319854 255 220 0
0.483327 0.249187 0.305399 255 220 0
0.509232 0.178647 0.271788 255 220 0
0.487643 0.285669 0.315579 255 220 0
0.521073 0.300278 0.286181 255 220 0
0.556110 0.222981 0.277619 255 220 0
0.490532 0.188600 0.288615 255 220 0
0.498225 0.226080 0.323976 255 220 0
0.559488 0.287232 0.336908 255 220 0
0.507542 0.218021 0.328941 255 220 0
0.527930 0.150795 0.293650 255 220 0
0.521262 0.246566 0.345827 255 220 0
0.573122 0.243517 0.318451 255 220 0
0.519597 0.173308 0.316908 255 220 0
0.559338 0.289262 0.296511 255 220 0
0.535677 0.186799 0.325326 255 220 0
0.485645 0.272049 0.296092 255 220 0
0.485340 0.275791 0.299311 255 220 0
0.524141 0.272318 0.352073 255 220 0
0.538585 0.260754 0.350887 255 220 0
0.568787 0.213025 0.321699 255 220 0
0.485455 0.231688 0.305029 255 220 0
0.546641 0.165973 0.300378 255 220 0
0.539262 0.304190 0.291622 255 220 0
0.506239 0.315256 0.322367 255 220 0
0.488890 0.208700 0.300031 255 220 0
0.540023 0.193289 0.328462 255 220 0
0.569231 0.222720 0.298088 255 220 0
0.553708 0.267447 0.279470 255 220 0
0.514737 0.149148 0.300518 255 220 0
0.508974 0.147572 0.297252 255 220 0
0.501923 0.291639 0.338834 255 220 0
0.520160 0.215151 0.268150 255 220 0
0.541455 0.273686 0.351840 255 220 0
0.489736 0.185103 0.295161 255 220 0
0.569611 0.240542 0.295327 255 220 0
0.555946 0.283707 0.288022 255 220 0
0.555369 0.288548 0.341849 255 220 0
0.531111 0.182217 0.271817 255 220 0
0.490870 0.244088 0.321629 255 220 0
0.537256 0.241414 0.268637 255 220 0
0.531839 0.182102 0.272082 255 220 0
0.546124 0.209388 0.335052 255 220 0
0.518018 0.198487 0.326598 255 220 0
0.533649 0.182811 0.323188 255 220 0
0.553909 0.201383 0.328742 255 220 0
0.564280 0.205619 0.323692 255 220 0
0.526948 0.316549 0.339572 255 220 0
0.570550 0.241977 0.326815 255 220 0
0.551643 0.312981 0.318837 255 220 0
0.499443 0.265717 0.337264 255 220 0
0.520447 0.158741 0.309964 255 220 0
0.559862 0.240546 0.280461 255 220 0
0.562000 0.223918 0.334560 255 220 0
0.502533 0.183417 0.313274 255 220 0
0.517337 0.241197 0.268955 255 220 0
0.547371 0.303183 0.295323 255 220 0
0.508097 0.271730 0.344969 255 220 0
0.556297 0.233915 0.277254 255 220 0
0.485858 0.225858 0.294888 255 220 0
0.556935 0.227924 0.338551 255 220 0
0.486199 0.235340 0.289248 255 220 0
0.551937 0.257016 0.275703 255 220 0
0.560028 0.192728 0.317824 255 220 0
0.556558 0.300675 0.333573 255 220 0
0.565476 0.286481 0.312392 255 220 0
0.531010 0.242336 0.267987 255 220 0
0.521698 0.184929 0.269753 255 220 0
0.489493 0.177317 0.291734 255 220 0
0.519750 0.319447 0.305492 255 220 0
0.573357 0.239128 0.310363 255 220 0
0.560596 0.245994 0.281358 255 220 0
0.522940 0.160821 0.277286 255 220 0
0.560433 0.270522 0.340852 255 220 0
0.496513 0.158902 0.280660 255 220 0
0.496625 0.196493 0.311386 255 220 0
0.491158 0.264982 0.284693 255 220 0
0.552292 0.256792 0.346927 255 220 0
0.525029 0.197366 0.328786 255 220 0
0.521937 0.220013 0.267917 255 220 0
0.489148 0.260447 0.323601 255 220 0
0.508196 0.315055 0.328134 255 220 0
0.523006 0.253897 0.348334 255 220 0
0.490065 0.199003 0.290594 255 220 0
0.489487 0.210068 0.303722 255 220 0
0.532001 0.262356 0.270369 255 220 0
0.503736 0.163114 0.308915 255 220 0
0.544806 0.174725 0.283166 255 220 0
0.568552 0.224641 0.295537 255 220 0
0.542375 0.235179 0.269722 255 220 0
0.544270 0.297123 0.348088 255 220 0
0.569913 0.273236 0.313414 255 220 0
0.508869 0.306686 0.295012 255 220 0
0.526188 0.300694 0.286107 255 220 0
0.573338 0.251973 0.315084 255 220 0
0.540828 0.303297 0.346910 255 220 0
0.560017 0.263492 0.283830 255 220 0
0.488809 0.253933 0.285107 255 220 0
0.531304 0.221950 0.267718 255 220 0
0.570450 0.251189 0.327662 255 220 0
0.490645 0.194046 0.288558 255 220 0
0.518344 0.155656 0.279184 255 220 0
0.522169 0.156691 0.279902 255 220 0
0.510266 0.169015 0.312768 255 220 0
0.518219 0.301099 0.347082 255 220 0
0.526452 0.314133 0.341530 255 220 0
0.524104 0.264166 0.270550 255 220 0
0.506314 0.293754 0.342329 255 220 0
0.540024 0.297122 0.349734 255 220 0
0.500633 0.305135 0.329341 255 220 0
0.567087 0.282338 0.313284 255 220 0
0.499078 0.293595 0.334897 255 220 0
0.494236 0.302222 0.310573 255 220 0
0.548982 0.171594 0.306973 255 220 0
0.520011 0.241479 0.268548 255 220 0
0.518585 0.242961 0.343614 255 220 0
0.504410 0.298982 0.291391 255 220 0
0.526212 0.218976 0.267661 255 220 0
0.489455 0.177086 0.292606 255 220 0
0.504592 0.235258 0.272230 255 220 0
0.563855 0.281517 0.331995 255 220 0
0.497678 0.280721 0.284552 255 220 0
0.530895 0.259578 0.269803 255 220 0
0.514405 0.294028 0.347862 255 220 0
0.494877 0.291552 0.329862 255 220 0
0.571025 0.237341 0.299496 255 220 0
0.523094 0.270014 0.351576 255 220 0
0.533549 0.165862 0.311891 255 220 0
0.489818 0.168517 0.288105 255 220 0
0.533593 0.246388 0.347878 255 220 0
0.510714 0.171088 0.272554 255 220 0
0.549815 0.299167 0.293629 255 220 0
0.487415 0.228366 0.288472 255 220 0
0.487211 0.283389 0.316124 255 220 0
0.507656 0.263793 0.273830 255 220 0
0.565685 0.249664 0.288164 255 220 0
0.566661 0.246721 0.289563 255 220 0
0.529108 0.284236 0.353085 255 220 0
0.488374 0.210635 0.295177 255 220 0
0.537091 0.312429 0.298118 255 220 0
0.527750 0.281728 0.353053 255 220 0
0.507694 0.272363 0.344802 255 220 0
0.488812 0.282668 0.321947 255 220 0
0.538699 0.319395 0.333907 255 220 0
0.560490 0.266445 0.285340 255 220 0
0.558404 0.302354 0.315194 255 220 0
0.502557 0.271560 0.340878 255 220 0
0.518516 0.200847 0.327763 255 220 0
0.528164 0.160727 0.309594 255 220 0
0.508241 0.241910 0.271102 255 220 0
0.486132 0.231427 0.290536 255 220 0
0.561879 0.192621 0.300374 255 220 0
0.487810 0.268644 0.290352 255 220 0
0.566757 0.249551 0.334392 255 220 0
0.530620 0.220292 0.339681 255 220 0
0.487664 0.216342 0.293593 255 220 0
0.551065 0.203709 0.331102 255 220 0
0.559429 0.195633 0.290278 255 220 0
0.564933 0.233399 0.287092 255 220 0
0.560820 0.242706 0.339944 255 220 0
0.511309 0.297266 0.344951 255 220 0
0.567312 0.237372 0.290794 255 220 0
0.539933 0.280420 0.352426 255 220 0
0.506888 0.270776 0.344024 255 220 0
0.569970 0.269795 0.306080 255 220 0
0.561582 0.260617 0.284703 255 220 0
0.546485 0.165653 0.297042 255 220 0
0.500719 0.148965 0.290484 255 220 0
0.484561 0.244682 0.292206 255 220 0
0.536476 0.179224 0.320657 255 220 0
0.517031 0.307811 0.342813 255 220 0
0.495843 0.270763 0.334212 255 220 0
0.537180 0.207020 0.335119 255 220 0
0.561417 0.210136 0.285849 255 220 0
0.520199 0.284883 0.351587 255 220 0
0.569962 0.224144 0.299817 255 220 0
0.498804 0.220816 0.275868 255 220 0
0.535707 0.202855 0.269577 255 220 0
0.508469 0.238829 0.336881 255 220 0
0.518994 0.286162 0.351125 255 220 0
0.559323 0.247300 0.280128 255 220 0
0.516520 0.215235 0.332780 255 220 0
0.487740 0.231375 0.287036 255 220 0
0.488366 0.281173 0.295360 255 220 0
0.525853 0.181423 0.321896 255 220 0
0.541578 0.275272 0.275550 255 220 0
0.498052 0.233130 0.326438 255 220 0
0.487118 0.282473 0.299543 255 220 0
0.502792 0.195657 0.317117 255 220 0
0.573433 0.249224 0.315173 255 220 0
0.513925 0.162190 0.274934 255 220 0
0.543898 0.314218 0.304926 255 220 0
0.539965 0.318919 0.308044 255 220 0
0.529685 0.206580 0.334144 255 220 0
0.489460 0.292110 0.314362 255 220 0
0.525187 0.322040 0.332615 255 220 0
0.559899 0.198934 0.288798 255 220 0
0.487399 0.274638 0.320799 255 220 0
0.516941 0.237434 0.268885 255 220 0
0.549172 0.268895 0.276923 255 220 0
0.549814 0.172900 0.292274 255 220 0
0.533685 0.204196 0.268988 255 220 0
0.500027 0.234815 0.329003 255 220 0
0.524489 0.172866 0.317515 255 220 0
0.548802 0.316075 0.323897 255 220 0
0.518441 0.235070 0.268560 255 220 0
0.571609 0.223992 0.306687 255 220 0
0.537177 0.227279 0.268376 255 220 0
0.490345 0.214750 0.308499 255 220 0
0.530330 0.321986 0.307842 255 220 0
0.547987 0.316753 0.324545 255 220 0
0.565615 0.281913 0.303906 255 220 0
0.517259 0.199588 0.268920 255 220 0
0.517694 0.309442 0.294124 255 220 0
0.486641 0.282144 0.314745 255 220 0
0.542610 0.286992 0.351278 255 220 0
0.494186 0.203744 0.281205 255 220 0
0.550238 0.173710 0.308133 255 220 0
0.485120 0.278959 0.305023 255 220 0
0.562107 0.246009 0.283077 255 220 0
0.565679 0.234480 0.333921 255 220 0
0.490781 0.171386 0.285417 255 220 0
0.521576 0.237162 0.268190 255 220 0
0.494406 0.290635 0.329531 255 220 0
0.552171 0.238945 0.343544 255 220 0
0.490160 0.260618 0.284731 255 220 0
0.515501 0.153598 0.280079 255 220 0
0.486554 0.231916 0.289317 255 220 0
0.518634 0.151960 0.303940 255 220 0
0.537495 0.266957 0.272116 255 220 0
0.561608 0.288962 0.301011 255 220 0
0.487853 0.230388 0.311116 255 220 0
0.572650 0.246348 0.304660 255 220 0
0.523004 0.173491 0.272076 255 220 0
0.500982 0.197333 0.316077 255 220 0
0.532973 0.165376 0.311705 255 220 0
0.509141 0.270449 0.345410 255 220 0
0.504114 0.267954 0.341582 255 220 0
0.529752 0.169306 0.315379 255 220 0
0.535101 0.273991 0.273560 255 220 0
0.547500 0.273475 0.277396 255 220 0
0.487090 0.285653 0.305182 255 220 0
0.532754 0.264636 0.270881 255 220 0
0.486298 0.278857 0.315875 255 220 0
0.491925 0.298108 0.313646 255 220 0
0.536910 0.269811 0.352284 255 220 0
0.527103 0.205809 0.268088 255 220 0
0.503555 0.182641 0.313738 255 220 0
0.549423 0.314538 0.314900 255 220 0
0.524921 0.232400 0.342662 255 220 0
0.541966 0.200009 0.331637 255 220 0
0.564483 0.203295 0.296193 255 220 0
0.496451 0.168671 0.305673 255 220 0
0.490017 0.189641 0.297458 255 220 0
0.504180 0.276459 0.342642 255 220 0
0.568170 0.205016 0.312494 255 220 0
0.500182 0.190291 0.313288 255 220 0
0.538185 0.299521 0.349349 255 220 0
0.491483 0.277889 0.288951 255 220 0
0.528272 0.164968 0.312774 255 220 0
0.573376 0.248364 0.309781 255 220 0
0.568668 0.254100 0.331596 255 220 0
0.489753 0.166583 0.294461 255 220 0
0.504323 0.255941 0.339180 255 220 0
0.553294 0.241948 0.274937 255 220 0
0.524246 0.288243 0.278309 255 220 0
0.516829 0.231145 0.338888 255 220 0
0.550983 0.172771 0.305210 255 220 0
0.501936 0.244391 0.333971 255 220 0
0.525245 0.233267 0.343041 255 220 0
0.536726 0.322005 0.330483 255 220 0
0.503386 0.251900 0.273570 255 220 0
0.493407 0.186727 0.282161 255 220 0
0.492936 0.293086 0.325359 255 220 0
0.502921 0.312343 0.321434 255 220 0
0.560883 0.191427 0.298550 255 220 0
0.510029 0.147893 0.298277 255 220 0
0.512054 0.157017 0.308810 255 220 0
0.501749 0.158539 0.306782 255 220 0
0.532729 0.153585 0.294110 255 220 0
0.551587 0.183629 0.285330 255 220 0
0.536507 0.219277 0.339746 255 220 0
0.487126 0.233974 0.311223 255 220 0
0.549624 0.197418 0.277102 255 220 0
0.547717 0.237495 0.344255 255 220 0
0.509209 0.224413 0.332412 255 220 0
0.490025 0.195401 0.291284 255 220 0
0.489724 0.236519 0.283218 255 220 0
0.510381 0.203397 0.324996 255 220 0
0.544516 0.200500 0.331401 255 220 0
0.498125 0.306815 0.307554 255 220 0
0.483804 0.247012 0.307097 255 220 0
0.554062 0.189211 0.320413 255 220 0
0.566628 0.230753 0.290190 255 220 0
0.508958 0.180085 0.315907 255 220 0
0.512676 0.297178 0.345866 255 220 0
0.528006 0.304267 0.347995 255 220 0
0.561792 0.248378 0.340065 255 220 0
0.495789 0.182788 0.279009 255 220 0
0.532651 0.201150 0.269097 255 220 0
0.526289 0.292752 0.351808 255 220 0
0.502788 0.271668 0.341085 255 220 0
0.497892 0.176963 0.308280 255 220 0
0.488555 0.286737 0.300364 255 220 0
0.512795 0.220375 0.269506 255 220 0
0.514742 0.182185 0.270387 255 220 0
0.525466 0.322706 0.331378 255 220 0
0.518858 0.181479 0.320097 255 220 0
0.493158 0.295340 0.323999 255 220 0
0.569160 0.220942 0.298613 255 220 0
0.510828 0.185506 0.318695 255 220 0
0.559015 0.192780 0.319124 255 220 0
0.501843 0.204321 0.319220 255 220 0
0.536368 0.201027 0.269979 255 220 0
0.490423 0.291781 0.302141 255 220 0
0.556507 0.220584 0.336293 255 220 0
0.502468 0.206830 0.273713 255 220 0
0.567186 0.227654 0.291713 255 220 0
0.547024 0.187670 0.278407 255 220 0
0.487761 0.214011 0.297813 255 220 0
0.507418 0.210503 0.325941 255 220 0
0.561004 0.242346 0.339729 255 220 0
0.567695 0.261936 0.294329 255 220 0
0.553380 0.175397 0.303238 255 220 0
0.483723 0.269675 0.303209 255 220 0
0.510261 0.147855 0.288614 255 220 0
0.491912 0.262956 0.328242 255 220 0
0.486600 0.273425 0.318934 255 220 0
0.488921 0.252187 0.321203 255 220 0
0.520377 0.301904 0.347517 255 220 0
0.548928 0.268768 0.349030 255 220 0
0.532179 0.252617 0.349362 255 220 0
0.551511 0.201400 0.277439 255 220 0
0.514096 0.218475 0.269167 255 220 0
0.495772 0.172859 0.278835 255 220 0
0.513803 0.259385 0.271321 255 220 0
0.556908 0.191843 0.288133 255 220 0
0.563187 0.292408 0.313758 255 220 0
0.527473 0.310005 0.293561 255 220 0
0.547682 0.184281 0.280465 255 220 0
0.542647 0.215793 0.338092 255 220 0
0.497066 0.239238 0.327600 255 220 0
0.565459 0.209326 0.294407 255 220 0
0.544590 0.319008 0.314784 255 220 0
0.484100 0.263144 0.311703 255 220 0
0.511108 0.260709 0.272206 255 220 0
0.496893 0.297128 0.296417 255 220 0
0.485333 0.231142 0.293304 255 220 0
0.549957 0.314815 0.318218 255 220 0
0.509926 0.237117 0.270471 255 220 0
0.545373 0.304021 0.294669 255 220 0
0.497334 0.169895 0.277712 255 220 0
0.483619 0.243705 0.304341 255 220 0
0.559570 0.278781 0.339778 255 220 0
0.527856 0.196913 0.329445 255 220 0
0.489472 0.203683 0.299015 255 220 0
0.487776 0.287233 0.313796 255 220 0
0.506025 0.182140 0.315099 255 220 0
0.542135 0.282312 0.278737 255 220 0
0.501122 0.222535 0.274225 255 220 0
0.503308 0.303711 0.296067 255 220 0
0.543971 0.272966 0.351090 255 220 0
0.517134 0.147928 0.296902 255 220 0
0.498192 0.229652 0.325297 255 220 0
0.524308 0.324607 0.316117 255 220 0
0.507153 0.147511 0.296559 255 220 0
0.561821 0.239083 0.282673 255 220 0
0.489653 0.272087 0.325681 255 220 0
0.571671 0.260263 0.322640 255 220 0
0.523973 0.157935 0.308590 255 220 0
0.498492 0.257670 0.276888 255 220 0
0.490469 0.218503 0.310539 255 220 0
0.493354 0.273396 0.331300 255 220 0
0.538231 0.277669 0.352678 255 220 0
0.496167 0.305413 0.312795 255 220 0
0.553883 0.266850 0.346471 255 220 0
0.553446 0.274349 0.346335 255 220 0
0.525063 0.276442 0.352555 255 220 0
0.537874 0.263280 0.351360 255 220 0
0.547428 0.295397 0.346856 255 220 0
0.519793 0.196650 0.326573 255 220 0
0.523340 0.152333 0.302483 255 220 0
0.515466 0.205093 0.328156 255 220 0
0.499004 0.309049 0.312926 255 220 0
0.500399 0.151608 0.301125 255 220 0
0.571194 0.224439 0.304376 255 220 0
0.532550 0.323996 0.313042 255 220 0
0.493943 0.268096 0.282773 255 220 0
0.483682 0.248114 0.295191 255 220 0
0.532942 0.234949 0.267835 255 220 0
0.487901 0.213196 0.296854 255 220 0
0.491129 0.193210 0.287041 255 220 0
0.506090 0.191470 0.318173 255 220 0
0.536642 0.185146 0.273135 255 220 0
0.515664 0.231055 0.338256 255 220 0
0.530697 0.278270 0.353154 255 220 0
0.510556 0.223979 0.333051 255 220 0
0.570312 0.223025 0.324237 255 220 0
0.498244 0.201362 0.314619 255 220 0
0.511887 0.195025 0.322650 255 220 0
0.545589 0.218613 0.338615 255 220 0
0.526019 0.192302 0.269161 255 220 0
0.536535 0.294995 0.284162 255 220 0
0.483172 0.260918 0.300709 255 220 0
0.515097 0.237208 0.340004 255 220 0
0.558357 0.189202 0.293780 255 220 0
0.560859 0.188552 0.305058 255 220 0
0.526391 0.235060 0.343892 255 220 0
0.504543 0.265469 0.275391 255 220 0
0.569540 0.266790 0.326945 255 220 0
0.573436 0.242036 0.315576 255 220 0
0.569686 0.273284 0.310387 255 220 0
0.529172 0.201203 0.331686 255 220 0
0.492729 0.297635 0.319970 255 220 0
0.526875 0.191935 0.326967 255 220 0
0.533232 0.303595 0.289134 255 220 0
0.485070 0.246713 0.311510 255 220 0
0.570069 0.246866 0.296307 255 220 0
0.565336 0.279328 0.330093 255 220 0
0.552626 0.187382 0.319901 255 220 0
0.563175 0.211705 0.288302 255 220 0
0.507613 0.203693 0.323462 255 220 0
0.502578 0.251491 0.273870 255 220 0
0.489775 0.191948 0.294706 255 220 0
0.520961 0.274669 0.351553 255 220 0
0.525679 0.167991 0.274604 255 220 0
0.493950 0.288617 0.292585 255 220 0
0.493512 0.221486 0.316531 255 220 0
0.545573 0.194076 0.327647 255 220 0
0.522177 0.149691 0.288245 255 220 0
0.521828 0.159595 0.277649 255 220 0
0.535932 0.324241 0.322530 255 220 0
0.520960 0.279866 0.274887 255 220 0
0.564835 0.260647 0.337375 255 220 0
0.493932 0.220465 0.316670 255 220 0
0.516910 0.263161 0.348111 255 220 0
0.516520 0.274831 0.349983 255 220 0
0.487266 0.261581 0.320326 255 220 0
0.508886 0.300411 0.341788 255 220 0
0.491190 0.204998 0.286232 255 220 0
0.513386 0.271904 0.273945 255 220 0
0.567093 0.243351 0.290211 255 220 0
0.510532 0.312298 0.334938 255 220 0
0.551635 0.261871 0.276544 255 220 0
0.486345 0.222659 0.295509 255 220 0
0.503386 0.280732 0.280985 255 220 0
0.533828 0.176877 0.274394 255 220 0
0.510499 0.159798 0.309840 255 220 0
0.494534 0.237247 0.323972 255 220 0
0.566342 0.249450 0.289197 255 220 0
0.516126 0.156767 0.277885 255 220 0
0.563288 0.210015 0.289210 255 220 0
0.492866 0.238503 0.279625 255 220 0
0.559314 0.234925 0.339305 255 220 0
0.571943 0.263824 0.317084 255 220 0
0.506368 0.194652 0.271942 255 220 0
0.534114 0.291886 0.281564 255 220 0
0.546106 0.318480 0.317715 255 220 0
0.570754 0.222957 0.303252 255 220 0
0.537882 0.273166 0.273844 255 220 0
0.518177 0.229931 0.339139 255 220 0
0.485759 0.273863 0.296752 255 220 0
0.492988 0.236781 0.279588 255 220 0
0.573488 0.249625 0.313112 255 220 0
0.544590 0.175664 0.315054 255 220 0
0.555803 0.241968 0.342904 255 220 0
0.528877 0.259954 0.269779 255 220 0
0.563559 0.209104 0.290182 255 220 0
0.558458 0.185624 0.311064 255 220 0
0.516763 0.237480 0.340965 255 220 0
0.557942 0.303880 0.321524 255 220 0
0.527888 0.294606 0.282074 255 220 0
0.572243 0.262405 0.312523 255 220 0
0.563466 0.214868 0.287713 255 220 0
0.567425 0.250324 0.291114 255 220 0
0.538462 0.311429 0.342596 255 220 0
0.510074 0.146991 0.292715 255 220 0
0.543129 0.162816 0.293539 255 220 0
0.518782 0.152836 0.281867 255 220 0
0.514686 0.227549 0.336536 255 220 0
0.487042 0.264176 0.320198 255 220 0
0.489470 0.285077 0.322398 255 220 0
0.530289 0.324352 0.313374 255 220 0
0.528193 0.309011 0.345347 255 220 0
0.498955 0.150324 0.297215 255 220 0
0.527672 0.284117 0.276463 255 220 0
0.559495 0.247015 0.341728 255 220 0
0.551530 0.201338 0.277469 255 220 0
0.487458 0.259443 0.288222 255 220 0
0.534720 0.315497 0.340280 255 220 0
0.512329 0.197725 0.269916 255 220 0
0.571965 0.263161 0.318213 255 220 0
0.488161 0.211679 0.296909 255 220 0
0.556592 0.205422 0.281028 255 220 0
0.499945 0.273376 0.280010 255 220 0
0.552214 0.263121 0.277206 255 220 0
0.524934 0.301765 0.286904 255 220 0
0.566572 0.202853 0.316906 255 220 0
0.488485 0.290124 0.309388 255 220 0
0.483368 0.258364 0.298260 255 220 0
0.529257 0.322349 0.308375 255 220 0
0.492731 0.247031 0.325150 255 220 0
0.513178 0.153242 0.306189 255 220 0
0.563142 0.240923 0.284292 255 220 0
0.496062 0.244590 0.328373 255 220 0
0.546105 0.270698 0.275867 255 220 0
0.515279 0.208775 0.268978 255 220 0
0.487554 0.260344 0.320698 255 220 0
0.562467 0.194176 0.300167 255 220 0
0.506304 0.268133 0.343190 255 220 0
0.502647 0.296358 0.337842 255 220 0
0.515671 0.183802 0.319967 255 220 0
0.552110 0.209608 0.333499 255 220 0
0.545425 0.170658 0.309708 255 220 0
0.495203 0.206591 0.312798 255 220 0
0.554507 0.264505 0.279187 255 220 0
0.546073 0.185925 0.278354 255 220 0
0.535065 0.310983 0.343847 255 220 0
0.499165 0.269736 0.337586 255 220 0
0.544834 0.271003 0.350712 255 220 0
0.511565 0.243124 0.270266 255 220 0
0.572936 0.241111 0.306511 255 220 0
0.504739 0.162845 0.275624 255 220 0
0.498127 0.288630 0.335484 255 220 0
0.510939 0.227788 0.270065 255 220 0
0.489327 0.226752 0.312328 255 220 0
0.572991 0.232440 0.310640 255 220 0
0.488162 0.212264 0.294814 255 220 0
0.497133 0.226308 0.276834 255 220 0
0.483037 0.249033 0.302365 255 220 0
0.531624 0.283355 0.353192 255 220 0
0.557574 0.189532 0.291514 255 220 0
0.508979 0.232876 0.335209 255 220 0
0.559761 0.254072 0.342438 255 220 0
0.508911 0.257139 0.342439 255 220 0
0.512516 0.196520 0.323497 255 220 0
0.508106 0.307971 0.336397 255 220 0
0.505374 0.313405 0.325620 255 220 0
0.504861 0.273358 0.342909 255 220 0
0.510317 0.253314 0.271421 255 220 0
0.492477 0.210255 0.310275 255 220 0
0.489434 0.291064 0.304571 255 220 0
0.530799 0.313629 0.297411 255 220 0
0.538091 0.319917 0.308056 255 220 0
0.488281 0.219266 0.289724 255 220 0
0.494885 0.258472 0.279574 255 220 0
0.567910 0.273969 0.327085 255 220 0
0.486025 0.223806 0.296978 255 220 0
0.569056 0.243964 0.329929 255 220 0
0.557293 0.300195 0.306016 255 220 0
0.571522 0.242614 0.300380 255 220 0
0.524971 0.266799 0.351475 255 220 0
0.535992 0.221004 0.268323 255 220 0
0.555082 0.287961 0.342353 255 220 0
0.550351 0.226719 0.273392 255 220 0
0.520696 0.249133 0.268973 255 220 0
0.571337 0.252560 0.300399 255 220 0
0.485179 0.265188 0.315567 255 220 0
0.573118 0.234298 0.316949 255 220 0
0.528696 0.171085 0.274414 255 220 0
0.503841 0.148856 0.298705 255 220 0
0.562919 0.286088 0.300965 255 220 0
0.487718 0.247835 0.285961 255 220 0
0.492669 0.230688 0.319125 255 220 0
0.510487 0.262126 0.344520 255 220 0
0.499468 0.150636 0.298686 255 220 0
0.557874 0.244999 0.278623 255 220 0
0.500708 0.148753 0.293301 255 220 0
0.567002 0.227798 0.331129 255 220 0
0.532522 0.173567 0.275026 255 220 0
0.554601 0.191596 0.321941 255 220 0
0.487593 0.216234 0.294146 255 220 0
0.499699 0.163879 0.307229 255 220 0
0.498466 0.172042 0.307798 255 220 0
0.532212 0.303493 0.288816 255 220 0
0.493785 0.231713 0.279241 255 220 0
