ply
format ascii 1.0
element vertex 1024
property float x
property float y
property float z
property uchar red
property uchar green
property uchar blue
end_header
0.036233 0.129434 0.096639 255 220 0
0.051044 0.080258 0.078685 255 220 0
0.066756 0.087125 0.076598 255 220 0
0.039806 0.193914 0.107945 255 220 0
0.086432 0.128553 0.056783 255 220 0
0.061339 0.119208 0.033275 255 220 0
0.038288 0.147593 0.102531 255 220 0
0.021326 0.130833 0.084532 255 220 0
0.043744 0.089682 0.033515 255 220 0
0.007864 0.114404 0.056504 255 220 0
0.074400 0.105039 0.049219 255 220 0
0.011065 0.063397 0.055341 255 220 0
0.056983 0.133075 0.104203 255 220 0
0.020591 0.182873 0.039464 255 220 0
0.063733 0.192426 0.111854 255 220 0
0.089893 0.191923 0.061471 255 220 0
0.054543 0.135040 0.029301 255 220 0
0.006634 0.068034 0.055707 255 220 0
0.063272 0.220199 0.053116 255 220 0
0.027972 0.106202 0.083739 255 220 0
0.073333 0.215141 0.100856 255 220 0
0.022090 0.205831 0.052288 255 220 0
0.019742 0.062047 0.061279 255 220 0
0.074969 0.110949 0.046190 255 220 0
0.038960 0.111614 0.029406 255 220 0
0.040734 0.211303 0.044782 255 220 0
0.050813 0.234469 0.082454 255 220 0
0.079027 0.142573 0.102518 255 220 0
0.081283 0.218379 0.072873 255 220 0
0.053542 0.101313 0.033997 255 220 0
0.055505 0.194301 0.035085 255 220 0
0.072109 0.132745 0.103318 255 220 0
0.014588 0.116738 0.038160 255 220 0
0.066965 0.085402 0.072855 255 220 0
0.037357 0.129165 0.028556 255 220 0
0.022761 0.097073 0.077649 255 220 0
0.059690 0.165567 0.111279 255 220 0
0.019823 0.209201 0.064173 255 220 0
0.022860 0.144093 0.089155 255 220 0
0.072258 0.229023 0.085315 255 220 0
0.091560 0.142792 0.084467 255 220 0
0.031266 0.066573 0.040962 255 220 0
0.033281 0.166163 0.102374 255 220 0
0.020514 0.091738 0.074693 255 220 0
0.085189 0.162971 0.100698 255 220 0
0.081180 0.137984 0.043754 255 220 0
0.068796 0.212434 0.049955 255 220 0
0.085754 0.183555 0.098273 255 220 0
0.081241 0.111616 0.058157 255 220 0
0.075923 0.226844 0.079980 255 220 0
0.012185 0.069769 0.039530 255 220 0
0.064621 0.197978 0.111020 255 220 0
0.041031 0.118498 0.096043 255 220 0
0.017151 0.064567 0.063418 255 220 0
0.031101 0.200938 0.100273 255 220 0
0.019993 0.103930 0.033347 255 220 0
0.037304 0.184143 0.106933 255 220 0
0.013342 0.185087 0.049493 255 220 0
0.026694 0.200283 0.043218 255 220 0
0.072068 0.123245 0.100108 255 220 0
0.086370 0.198273 0.057971 255 220 0
0.062104 0.233402 0.086517 255 220 0
0.078721 0.137030 0.041296 255 220 0
0.015388 0.199437 0.060444 255 220 0
0.017965 0.127494 0.079732 255 220 0
0.074859 0.177368 0.037627 255 220 0
0.014502 0.099264 0.070597 255 220 0
0.065210 0.128088 0.033470 255 220 0
0.010201 0.167964 0.047734 255 220 0
0.028507 0.146890 0.094984 255 220 0
0.063203 0.107412 0.037272 255 220 0
0.080494 0.173634 0.041328 255 220 0
0.093887 0.153102 0.066380 255 220 0
0.092054 0.178807 0.060187 255 220 0
0.086595 0.186725 0.051684 255 220 0
0.034262 0.190260 0.104771 255 220 0
0.065254 0.227868 0.094637 255 220 0
0.082926 0.175758 0.102778 255 220 0
0.008085 0.148644 0.049591 255 220 0
0.019021 0.201536 0.052411 255 220 0
0.041299 0.217799 0.049377 255 220 0
0.036251 0.103229 0.030084 255 220 0
0.065489 0.179827 0.033595 255 220 0
0.089193 0.130072 0.066688 255 220 0
0.044035 0.077741 0.038762 255 220 0
0.085952 0.162263 0.099757 255 220 0
0.058923 0.214339 0.047108 255 220 0
0.006749 0.097740 0.045977 255 220 0
0.084736 0.149103 0.098565 255 220 0
0.036580 0.084539 0.080753 255 220 0
0.032406 0.061141 0.049034 255 220 0
0.087588 0.145173 0.051219 255 220 0
0.092901 0.172025 0.060495 255 220 0
0.089501 0.196790 0.065504 255 220 0
0.030882 0.140961 0.095734 255 220 0
0.012473 0.125738 0.070582 255 220 0
0.050678 0.169821 0.110749 255 220 0
0.080321 0.105500 0.070363 255 220 0
0.030125 0.171987 0.100391 255 220 0
0.014244 0.170723 0.080811 255 220 0
0.020876 0.193318 0.089674 255 220 0
0.022783 0.139714 0.032351 255 220 0
0.048626 0.176127 0.029734 255 220 0
0.029284 0.070166 0.037799 255 220 0
0.041148 0.179501 0.030626 255 220 0
0.008369 0.147507 0.048537 255 220 0
0.034495 0.118566 0.092102 255 220 0
0.012022 0.093208 0.067324 255 220 0
0.028013 0.135903 0.092080 255 220 0
0.085628 0.159671 0.099742 255 220 0
0.057800 0.183696 0.032121 255 220 0
0.065699 0.212782 0.106180 255 220 0
0.046287 0.115291 0.029634 255 220 0
0.027107 0.220052 0.071329 255 220 0
0.026028 0.214781 0.083212 255 220 0
0.014263 0.153854 0.079094 255 220 0
0.018556 0.195786 0.084579 255 220 0
0.058529 0.216692 0.105243 255 220 0
0.088843 0.149653 0.052226 255 220 0
0.083901 0.214169 0.074573 255 220 0
0.049733 0.215916 0.104596 255 220 0
0.090144 0.189055 0.059967 255 220 0
0.020238 0.115620 0.033626 255 220 0
0.007498 0.107327 0.058007 255 220 0
0.029181 0.121975 0.030025 255 220 0
0.048729 0.123761 0.100360 255 220 0
0.085139 0.115896 0.073102 255 220 0
0.076297 0.167657 0.037377 255 220 0
0.070312 0.200263 0.043565 255 220 0
0.083940 0.134695 0.048600 255 220 0
0.081967 0.218213 0.076565 255 220 0
0.043490 0.087003 0.083411 255 220 0
0.075373 0.110373 0.047034 255 220 0
0.021427 0.201425 0.048682 255 220 0
0.079795 0.212842 0.095521 255 220 0
0.033856 0.142783 0.028624 255 220 0
0.091905 0.139505 0.078649 255 220 0
0.030685 0.154933 0.098419 255 220 0
0.025075 0.090716 0.031990 255 220 0
0.054984 0.226980 0.057484 255 220 0
0.018732 0.117669 0.078507 255 220 0
0.063520 0.109916 0.036678 255 220 0
0.017573 0.078526 0.070172 255 220 0
0.046191 0.149983 0.106208 255 220 0
0.043964 0.157238 0.106901 255 220 0
0.061226 0.102307 0.092208 255 220 0
0.077863 0.120389 0.096139 255 220 0
0.049394 0.192261 0.033892 255 220 0
0.071540 0.222193 0.096542 255 220 0
0.065785 0.110367 0.038031 255 220 0
0.026458 0.136579 0.090909 255 220 0
0.056611 0.088817 0.040668 255 220 0
0.088148 0.132233 0.059263 255 220 0
0.093472 0.160901 0.061565 255 220 0
0.083743 0.142677 0.045745 255 220 0
0.038563 0.145253 0.028065 255 220 0
0.078818 0.102670 0.070541 255 220 0
0.086422 0.123595 0.086033 255 220 0
0.071024 0.207765 0.048325 255 220 0
0.014419 0.152169 0.038412 255 220 0
0.022241 0.155334 0.090604 255 220 0
0.004899 0.070553 0.049223 255 220 0
0.090482 0.175624 0.055373 255 220 0
0.079955 0.118025 0.049472 255 220 0
0.033923 0.194633 0.104149 255 220 0
0.064289 0.227810 0.061267 255 220 0
0.075481 0.131083 0.101667 255 220 0
0.077725 0.103669 0.058923 255 220 0
0.060132 0.146642 0.107877 255 220 0
0.055985 0.075687 0.051937 255 220 0
0.035613 0.184639 0.032869 255 220 0
0.022402 0.112384 0.032422 255 220 0
0.046303 0.231957 0.086051 255 220 0
0.084185 0.148935 0.099132 255 220 0
0.088686 0.187776 0.055783 255 220 0
0.087443 0.133749 0.056101 255 220 0
0.044165 0.229850 0.064590 255 220 0
0.044223 0.204049 0.108033 255 220 0
0.087227 0.202576 0.087623 255 220 0
0.085369 0.209179 0.086498 255 220 0
0.044634 0.232157 0.083041 255 220 0
0.080253 0.105216 0.072859 255 220 0
0.070433 0.091177 0.058262 255 220 0
0.078380 0.223404 0.083230 255 220 0
0.091672 0.191672 0.078266 255 220 0
0.091903 0.183535 0.062074 255 220 0
0.055562 0.098884 0.035673 255 220 0
0.088922 0.175094 0.052311 255 220 0
0.084895 0.124131 0.090287 255 220 0
0.009004 0.139838 0.064832 255 220 0
0.050834 0.225522 0.055574 255 220 0
0.080425 0.143718 0.041555 255 220 0
0.094182 0.162426 0.083085 255 220 0
0.069644 0.100701 0.088523 255 220 0
0.017859 0.107448 0.075555 255 220 0
0.030684 0.077395 0.075796 255 220 0
0.027807 0.178895 0.033787 255 220 0
0.033644 0.105153 0.029969 255 220 0
0.078880 0.214532 0.095505 255 220 0
0.018750 0.118901 0.078789 255 220 0
0.036431 0.175121 0.105786 255 220 0
0.035500 0.218075 0.094185 255 220 0
0.036787 0.148403 0.101827 255 220 0
0.008448 0.068621 0.060186 255 220 0
0.083057 0.138864 0.045915 255 220 0
0.030977 0.221113 0.083680 255 220 0
0.017634 0.064048 0.063074 255 220 0
0.022720 0.186834 0.093495 255 220 0
0.063555 0.112981 0.035823 255 220 0
0.028409 0.217043 0.057238 255 220 0
0.028404 0.205723 0.095106 255 220 0
0.022243 0.213700 0.068991 255 220 0
0.040167 0.158468 0.028124 255 220 0
0.060229 0.088000 0.044324 255 220 0
0.019739 0.114223 0.078896 255 220 0
0.041659 0.180531 0.109026 255 220 0
0.006748 0.097806 0.046013 255 220 0
0.044287 0.073632 0.074298 255 220 0
0.011480 0.180499 0.051010 255 220 0
0.067978 0.223382 0.058689 255 220 0
0.040987 0.085932 0.082465 255 220 0
0.007845 0.131538 0.054540 255 220 0
0.022871 0.153308 0.032140 255 220 0
0.008171 0.114136 0.058543 255 220 0
0.016957 0.174282 0.039957 255 220 0
0.090581 0.196554 0.075322 255 220 0
0.054250 0.224664 0.054798 255 220 0
0.047419 0.224481 0.054596 255 220 0
0.035029 0.150951 0.101187 255 220 0
0.044817 0.149030 0.027901 255 220 0
0.069918 0.154568 0.108913 255 220 0
0.025728 0.153368 0.030816 255 220 0
0.015583 0.196970 0.076125 255 220 0
0.055095 0.097498 0.035897 255 220 0
0.027887 0.142985 0.093627 255 220 0
0.042667 0.214612 0.102540 255 220 0
0.065604 0.108510 0.094926 255 220 0
0.058309 0.233852 0.069272 255 220 0
0.063743 0.185956 0.034449 255 220 0
0.025296 0.214702 0.081515 255 220 0
0.079421 0.114230 0.050978 255 220 0
0.025966 0.181520 0.097337 255 220 0
0.061083 0.220614 0.052632 255 220 0
0.086850 0.203669 0.064978 255 220 0
0.091271 0.140811 0.084181 255 220 0
0.043051 0.111335 0.094422 255 220 0
0.054304 0.121227 0.100476 255 220 0
0.043297 0.100407 0.031113 255 220 0
0.055634 0.215936 0.105604 255 220 0
0.025698 0.216043 0.060381 255 220 0
0.037248 0.220326 0.053290 255 220 0
0.076279 0.130964 0.040466 255 220 0
0.082441 0.209952 0.061870 255 220 0
0.036547 0.175475 0.105894 255 220 0
0.004634 0.074801 0.056874 255 220 0
0.056140 0.173713 0.111952 255 220 0
0.033231 0.205799 0.043465 255 220 0
0.020501 0.142449 0.086192 255 220 0
0.088091 0.126114 0.066758 255 220 0
0.032038 0.075486 0.075233 255 220 0
0.092904 0.163694 0.059452 255 220 0
0.029878 0.122798 0.089948 255 220 0
0.083040 0.111974 0.080635 255 220 0
0.049147 0.224268 0.054199 255 220 0
0.011212 0.159148 0.043339 255 220 0
0.092671 0.186195 0.079705 255 220 0
0.076967 0.206489 0.102043 255 220 0
0.034907 0.143066 0.028467 255 220 0
0.077303 0.131799 0.041224 255 220 0
0.077124 0.192085 0.105308 255 220 0
0.079517 0.123071 0.096220 255 220 0
0.030457 0.223401 0.073191 255 220 0
0.094187 0.151188 0.076186 255 220 0
0.075793 0.116384 0.044582 255 220 0
0.053598 0.218621 0.049358 255 220 0
0.074159 0.097323 0.058468 255 220 0
0.012510 0.104133 0.038791 255 220 0
0.051562 0.106467 0.094502 255 220 0
0.013345 0.110316 0.070134 255 220 0
0.071438 0.173411 0.035054 255 220 0
0.039394 0.075460 0.037844 255 220 0
0.020293 0.100199 0.076447 255 220 0
0.036114 0.110450 0.029505 255 220 0
0.089826 0.158335 0.093656 255 220 0
0.062108 0.170478 0.111728 255 220 0
0.087341 0.200800 0.062694 255 220 0
0.022996 0.195066 0.092338 255 220 0
0.074704 0.122056 0.041425 255 220 0
0.088693 0.128317 0.066501 255 220 0
0.081042 0.203871 0.054344 255 220 0
0.020513 0.165300 0.090101 255 220 0
0.091682 0.139769 0.081066 255 220 0
0.013917 0.119359 0.072086 255 220 0
0.007769 0.148370 0.051180 255 220 0
0.017631 0.134340 0.080797 255 220 0
0.069406 0.114710 0.097154 255 220 0
0.058184 0.198801 0.037580 255 220 0
0.076843 0.121363 0.097275 255 220 0
0.027757 0.176106 0.098729 255 220 0
0.089173 0.176692 0.053122 255 220 0
0.053652 0.187118 0.032389 255 220 0
0.079108 0.175703 0.040431 255 220 0
0.012628 0.190954 0.057574 255 220 0
0.088580 0.194930 0.060217 255 220 0
0.074554 0.110376 0.092575 255 220 0
0.007741 0.136421 0.053612 255 220 0
0.071329 0.174448 0.110039 255 220 0
0.064255 0.182756 0.111938 255 220 0
0.007617 0.157677 0.059906 255 220 0
0.033248 0.225725 0.074456 255 220 0
0.035779 0.181086 0.031841 255 220 0
0.008557 0.106242 0.061540 255 220 0
0.034493 0.083838 0.079790 255 220 0
0.075923 0.210453 0.053968 255 220 0
0.074912 0.158338 0.036035 255 220 0
0.052782 0.076279 0.074698 255 220 0
0.064337 0.200874 0.110564 255 220 0
0.073065 0.171514 0.035706 255 220 0
0.034389 0.212944 0.048061 255 220 0
0.008242 0.129676 0.059381 255 220 0
0.006337 0.068338 0.048151 255 220 0
0.041998 0.166280 0.028583 255 220 0
0.017072 0.061941 0.046647 255 220 0
0.016404 0.099721 0.072698 255 220 0
0.055402 0.189121 0.112487 255 220 0
0.036712 0.143079 0.028249 255 220 0
0.064046 0.141918 0.106778 255 220 0
0.076935 0.134837 0.102079 255 220 0
0.041132 0.071837 0.073129 255 220 0
0.015258 0.092252 0.070495 255 220 0
0.073844 0.124823 0.100136 255 220 0
0.061351 0.165253 0.111267 255 220 0
0.058147 0.232782 0.089449 255 220 0
0.012625 0.062777 0.048603 255 220 0
0.024962 0.200446 0.093108 255 220 0
0.006925 0.097498 0.045417 255 220 0
0.066395 0.193199 0.038093 255 220 0
0.025705 0.175516 0.033909 255 220 0
0.089434 0.173448 0.052847 255 220 0
0.007918 0.133662 0.052690 255 220 0
0.003544 0.081972 0.052803 255 220 0
0.019643 0.141641 0.034163 255 220 0
0.029948 0.106373 0.030271 255 220 0
0.050116 0.123682 0.100631 255 220 0
0.034939 0.197826 0.104397 255 220 0
0.033606 0.172812 0.103422 255 220 0
0.012505 0.150392 0.040560 255 220 0
0.070213 0.161684 0.109847 255 220 0
0.029082 0.196569 0.099444 255 220 0
0.016581 0.112838 0.036010 255 220 0
0.086121 0.122064 0.062426 255 220 0
0.035885 0.165952 0.104335 255 220 0
0.075803 0.128930 0.100822 255 220 0
0.008579 0.171119 0.062026 255 220 0
0.091769 0.143837 0.084354 255 220 0
0.031976 0.174307 0.031207 255 220 0
0.030401 0.117868 0.088878 255 220 0
0.066644 0.198495 0.110293 255 220 0
0.090571 0.196535 0.074011 255 220 0
0.007382 0.148275 0.056875 255 220 0
0.024809 0.092674 0.077855 255 220 0
0.046340 0.065401 0.063326 255 220 0
0.088585 0.126454 0.078433 255 220 0
0.080203 0.201249 0.051722 255 220 0
0.061601 0.176797 0.031745 255 220 0
0.033710 0.174687 0.030837 255 220 0
0.084148 0.139117 0.097394 255 220 0
0.015007 0.178539 0.043654 255 220 0
0.023187 0.074775 0.035117 255 220 0
0.093987 0.154464 0.066029 255 220 0
0.015079 0.169090 0.040453 255 220 0
0.066670 0.207743 0.107942 255 220 0
0.033164 0.100469 0.085470 255 220 0
0.076951 0.224814 0.073297 255 220 0
0.085057 0.141323 0.096786 255 220 0
0.064362 0.167187 0.031429 255 220 0
0.080571 0.189822 0.045907 255 220 0
0.067527 0.229951 0.066555 255 220 0
0.038818 0.223802 0.056592 255 220 0
0.071200 0.095263 0.053202 255 220 0
0.067115 0.096631 0.045619 255 220 0
0.033342 0.166316 0.029566 255 220 0
0.010045 0.171059 0.070147 255 220 0
0.018333 0.103777 0.075371 255 220 0
0.089069 0.142404 0.055580 255 220 0
0.048953 0.113241 0.096883 255 220 0
0.040632 0.228206 0.063616 255 220 0
0.005568 0.070251 0.056110 255 220 0
0.015798 0.166531 0.039044 255 220 0
0.061290 0.095855 0.040592 255 220 0
0.042062 0.125795 0.098774 255 220 0
0.075095 0.170072 0.036782 255 220 0
0.082594 0.163871 0.042319 255 220 0
0.080681 0.130623 0.045307 255 220 0
0.064671 0.223370 0.099454 255 220 0
0.015215 0.199959 0.065110 255 220 0
0.034913 0.073568 0.037275 255 220 0
0.087882 0.159969 0.096949 255 220 0
0.090614 0.148638 0.056664 255 220 0
0.084336 0.203447 0.058603 255 220 0
0.006227 0.100033 0.055960 255 220 0
0.006451 0.102544 0.050512 255 220 0
0.047358 0.166931 0.028594 255 220 0
0.090237 0.194617 0.083745 255 220 0
0.025771 0.199286 0.043177 255 220 0
0.084340 0.173317 0.101642 255 220 0
0.093926 0.151508 0.079542 255 220 0
0.017761 0.100209 0.074143 255 220 0
0.082331 0.206339 0.095762 255 220 0
0.056843 0.075623 0.053517 255 220 0
0.076541 0.103385 0.055424 255 220 0
0.046197 0.080640 0.038277 255 220 0
0.093455 0.168675 0.085842 255 220 0
0.013637 0.194382 0.070440 255 220 0
0.051973 0.163318 0.110086 255 220 0
0.068636 0.223646 0.097241 255 220 0
0.048400 0.194855 0.034980 255 220 0
0.038605 0.164176 0.105756 255 220 0
0.016106 0.149800 0.036710 255 220 0
0.051310 0.125030 0.029482 255 220 0
0.077044 0.208057 0.053278 255 220 0
0.015523 0.112379 0.073504 255 220 0
0.015530 0.176468 0.042232 255 220 0
0.092677 0.182116 0.064235 255 220 0
0.079711 0.144959 0.102462 255 220 0
0.048340 0.070901 0.070706 255 220 0
0.020807 0.193608 0.043849 255 220 0
0.039554 0.105943 0.029949 255 220 0
0.076254 0.101023 0.058653 255 220 0
0.094637 0.156641 0.069089 255 220 0
0.087216 0.206915 0.079560 255 220 0
0.095066 0.168168 0.076399 255 220 0
0.012271 0.129435 0.041647 255 220 0
0.063016 0.225735 0.097816 255 220 0
0.047830 0.079350 0.040036 255 220 0
0.044428 0.091836 0.086217 255 220 0
0.065824 0.207466 0.045040 255 220 0
0.021460 0.061055 0.047268 255 220 0
0.072982 0.208144 0.104586 255 220 0
0.038908 0.083817 0.080934 255 220 0
0.043735 0.156827 0.106744 255 220 0
0.029420 0.073534 0.036069 255 220 0
0.025728 0.217858 0.065322 255 220 0
0.064889 0.234085 0.079485 255 220 0
0.053475 0.096065 0.035550 255 220 0
0.042627 0.069949 0.071223 255 220 0
0.026744 0.130956 0.089718 255 220 0
0.065465 0.109681 0.095559 255 220 0
0.092495 0.174910 0.087665 255 220 0
0.008019 0.165404 0.055893 255 220 0
0.028765 0.089496 0.031722 255 220 0
0.015875 0.201540 0.065150 255 220 0
0.056490 0.208854 0.042967 255 220 0
0.079866 0.126861 0.045490 255 220 0
0.008832 0.103313 0.043710 255 220 0
0.014959 0.141860 0.078219 255 220 0
0.081163 0.194265 0.101255 255 220 0
0.021669 0.132934 0.085410 255 220 0
0.037952 0.060969 0.058275 255 220 0
0.035983 0.160385 0.103570 255 220 0
0.091196 0.147755 0.088074 255 220 0
0.028706 0.086159 0.078205 255 220 0
0.089600 0.193213 0.061711 255 220 0
0.044650 0.097771 0.089266 255 220 0
0.015777 0.186911 0.046302 255 220 0
0.015416 0.190891 0.049215 255 220 0
0.041558 0.185845 0.109153 255 220 0
0.053926 0.172248 0.111590 255 220 0
0.081523 0.118554 0.091654 255 220 0
0.007384 0.147805 0.056754 255 220 0
0.057051 0.073735 0.068176 255 220 0
0.073568 0.210483 0.051994 255 220 0
0.037129 0.228540 0.074453 255 220 0
0.008090 0.124249 0.053618 255 220 0
0.049234 0.103781 0.092970 255 220 0
0.088314 0.126254 0.068282 255 220 0
0.084198 0.171214 0.044834 255 220 0
0.023542 0.061785 0.062229 255 220 0
0.018395 0.060819 0.057880 255 220 0
0.025858 0.207125 0.090635 255 220 0
0.045837 0.123640 0.028907 255 220 0
0.058548 0.184660 0.112566 255 220 0
0.006172 0.100478 0.050081 255 220 0
0.092063 0.143570 0.064888 255 220 0
0.087181 0.187579 0.052944 255 220 0
0.076382 0.196537 0.105139 255 220 0
0.050458 0.089840 0.036271 255 220 0
0.011181 0.160515 0.073567 255 220 0
0.066405 0.147099 0.031886 255 220 0
0.051089 0.089641 0.036691 255 220 0
0.056325 0.119276 0.100001 255 220 0
0.029179 0.111964 0.086219 255 220 0
0.042498 0.093970 0.086921 255 220 0
0.063870 0.109768 0.095857 255 220 0
0.075591 0.112054 0.092960 255 220 0
0.053820 0.228117 0.095614 255 220 0
0.086758 0.147247 0.095755 255 220 0
0.081351 0.219428 0.080813 255 220 0
0.019684 0.181795 0.089710 255 220 0
0.028644 0.071137 0.072249 255 220 0
0.085686 0.143859 0.048295 255 220 0
0.074059 0.131265 0.102277 255 220 0
0.014563 0.098334 0.070567 255 220 0
0.047063 0.149805 0.027948 255 220 0
0.080484 0.208594 0.057383 255 220 0
0.027419 0.187055 0.098815 255 220 0
0.081851 0.137591 0.044694 255 220 0
0.008925 0.141223 0.047199 255 220 0
0.068984 0.136257 0.104914 255 220 0
0.011907 0.150098 0.041352 255 220 0
0.081609 0.160895 0.041236 255 220 0
0.070645 0.099510 0.086890 255 220 0
0.081140 0.207697 0.096785 255 220 0
0.091843 0.190787 0.078643 255 220 0
0.060649 0.148867 0.029876 255 220 0
0.042216 0.093726 0.032126 255 220 0
0.005407 0.092572 0.047026 255 220 0
0.054294 0.229426 0.060689 255 220 0
0.092384 0.142775 0.080424 255 220 0
0.087074 0.149194 0.049089 255 220 0
0.038063 0.070338 0.040800 255 220 0
0.078627 0.177944 0.106039 255 220 0
0.011542 0.072543 0.038527 255 220 0
0.011310 0.111948 0.066888 255 220 0
0.022316 0.178270 0.036667 255 220 0
0.067350 0.166046 0.110829 255 220 0
0.035327 0.110006 0.089903 255 220 0
0.048370 0.128160 0.028846 255 220 0
0.011700 0.177052 0.074407 255 220 0
0.037808 0.228497 0.080508 255 220 0
0.038314 0.167553 0.106068 255 220 0
0.009621 0.113794 0.045085 255 220 0
0.008127 0.125793 0.057288 255 220 0
0.064285 0.168653 0.031535 255 220 0
0.013407 0.077800 0.067460 255 220 0
0.060182 0.081323 0.050602 255 220 0
0.088484 0.128054 0.065564 255 220 0
0.070141 0.140287 0.034312 255 220 0
0.065740 0.207084 0.108479 255 220 0
0.093825 0.177154 0.081170 255 220 0
0.043908 0.217621 0.048695 255 220 0
0.061513 0.208515 0.043970 255 220 0
0.093431 0.155809 0.084464 255 220 0
0.063632 0.213586 0.106323 255 220 0
0.088775 0.166727 0.050610 255 220 0
0.018215 0.167744 0.037053 255 220 0
0.057765 0.128694 0.030570 255 220 0
0.087945 0.156412 0.096156 255 220 0
0.009815 0.108664 0.043439 255 220 0
0.032419 0.066056 0.041896 255 220 0
0.036130 0.066575 0.043369 255 220 0
0.019860 0.082965 0.072358 255 220 0
0.041409 0.214717 0.101753 255 220 0
0.052558 0.225954 0.097524 255 220 0
0.056906 0.171600 0.029944 255 220 0
0.029719 0.208839 0.094892 255 220 0
0.061302 0.207826 0.109177 255 220 0
0.028686 0.219903 0.080503 255 220 0
0.092562 0.186533 0.080040 255 220 0
0.024224 0.209168 0.086099 255 220 0
0.025885 0.216529 0.060949 255 220 0
0.058852 0.079441 0.074866 255 220 0
0.049774 0.149663 0.028110 255 220 0
0.033279 0.157049 0.100997 255 220 0
0.039123 0.210393 0.044546 255 220 0
0.052388 0.126497 0.029556 255 220 0
0.005156 0.092416 0.047879 255 220 0
0.033142 0.146048 0.028679 255 220 0
0.085483 0.187619 0.097645 255 220 0
0.031132 0.192838 0.037233 255 220 0
0.062893 0.166031 0.030868 255 220 0
0.036447 0.208355 0.102009 255 220 0
0.020872 0.207380 0.080377 255 220 0
0.092070 0.140524 0.069399 255 220 0
0.040284 0.183686 0.108544 255 220 0
0.042032 0.076404 0.076617 255 220 0
0.005071 0.083567 0.043940 255 220 0
0.047447 0.158573 0.108215 255 220 0
0.028844 0.081882 0.033117 255 220 0
0.082557 0.204148 0.056428 255 220 0
0.012138 0.142983 0.041160 255 220 0
0.014985 0.199395 0.065689 255 220 0
0.040287 0.173873 0.029645 255 220 0
0.091178 0.152593 0.056658 255 220 0
0.091369 0.149654 0.058361 255 220 0
0.048034 0.196956 0.110679 255 220 0
0.008890 0.125863 0.048686 255 220 0
0.071444 0.219421 0.057507 255 220 0
0.046332 0.194677 0.110467 255 220 0
0.027164 0.187726 0.098539 255 220 0
0.015227 0.198895 0.071746 255 220 0
0.066779 0.228785 0.092473 255 220 0
0.089390 0.169686 0.052056 255 220 0
0.086948 0.207685 0.079170 255 220 0
0.022877 0.187381 0.093646 255 220 0
0.029796 0.114309 0.087360 255 220 0
0.036488 0.071947 0.073450 255 220 0
0.037950 0.151993 0.028067 255 220 0
0.010960 0.146345 0.042765 255 220 0
0.075986 0.097806 0.070261 255 220 0
0.018504 0.182800 0.041313 255 220 0
0.082742 0.155846 0.102006 255 220 0
0.042125 0.132638 0.100725 255 220 0
0.009430 0.131475 0.046738 255 220 0
0.061008 0.112656 0.097450 255 220 0
0.076159 0.100365 0.059752 255 220 0
0.088099 0.136576 0.056165 255 220 0
0.074789 0.150380 0.106455 255 220 0
0.034563 0.211778 0.098365 255 220 0
0.090268 0.140431 0.060111 255 220 0
0.058022 0.191569 0.112518 255 220 0
0.026294 0.186218 0.097677 255 220 0
0.094836 0.173192 0.074175 255 220 0
0.089654 0.163730 0.051923 255 220 0
0.057532 0.073187 0.064901 255 220 0
0.012024 0.062877 0.049449 255 220 0
0.011197 0.159777 0.043479 255 220 0
0.045180 0.089828 0.085212 255 220 0
0.042196 0.221185 0.097039 255 220 0
0.017629 0.187063 0.085740 255 220 0
0.047297 0.118245 0.098257 255 220 0
0.081279 0.114044 0.055220 255 220 0
0.039836 0.198775 0.107285 255 220 0
0.088891 0.127684 0.070063 255 220 0
0.024524 0.132920 0.031626 255 220 0
0.058619 0.109360 0.034163 255 220 0
0.024231 0.153930 0.092444 255 220 0
0.038969 0.200177 0.106519 255 220 0
0.086302 0.150574 0.047559 255 220 0
0.029116 0.129174 0.091198 255 220 0
0.013221 0.145794 0.039696 255 220 0
0.019997 0.195460 0.045770 255 220 0
0.035012 0.093634 0.084054 255 220 0
0.074519 0.180397 0.038071 255 220 0
0.015402 0.149027 0.080276 255 220 0
0.018142 0.197243 0.049528 255 220 0
0.015963 0.110663 0.073836 255 220 0
0.093070 0.153090 0.084691 255 220 0
0.030053 0.072820 0.036517 255 220 0
0.076911 0.220715 0.065528 255 220 0
0.073217 0.226161 0.067524 255 220 0
0.040187 0.118826 0.095723 255 220 0
0.018898 0.207537 0.064068 255 220 0
0.054410 0.233259 0.088207 255 220 0
0.077438 0.103440 0.058264 255 220 0
0.012827 0.191092 0.070676 255 220 0
0.046099 0.146145 0.027959 255 220 0
0.080566 0.173107 0.041314 255 220 0
0.062868 0.079489 0.060642 255 220 0
0.056998 0.110931 0.033097 255 220 0
0.017052 0.150598 0.083128 255 220 0
0.033237 0.085058 0.079862 255 220 0
0.078062 0.223279 0.085009 255 220 0
0.047242 0.143570 0.028067 255 220 0
0.089054 0.127819 0.077127 255 220 0
0.064146 0.133148 0.032235 255 220 0
0.008720 0.130650 0.061927 255 220 0
0.064436 0.230572 0.065133 255 220 0
0.077249 0.224115 0.085437 255 220 0
0.092990 0.185614 0.070592 255 220 0
0.040416 0.108768 0.029721 255 220 0
0.053051 0.218990 0.049594 255 220 0
0.014520 0.198145 0.064276 255 220 0
0.061882 0.197576 0.111681 255 220 0
0.016272 0.117157 0.036596 255 220 0
0.060163 0.081434 0.076173 255 220 0
0.014535 0.194484 0.054603 255 220 0
0.088184 0.149120 0.051088 255 220 0
0.079414 0.141100 0.101977 255 220 0
0.007005 0.086053 0.041396 255 220 0
0.050677 0.145150 0.028284 255 220 0
0.020340 0.206519 0.079994 255 220 0
0.065103 0.148200 0.108284 255 220 0
0.020654 0.174114 0.036682 255 220 0
0.029164 0.064507 0.042252 255 220 0
0.011694 0.146674 0.041645 255 220 0
0.027052 0.064253 0.066279 255 220 0
0.069962 0.172526 0.034212 255 220 0
0.090826 0.192929 0.066601 255 220 0
0.008250 0.146638 0.063263 255 220 0
0.094009 0.149566 0.074390 255 220 0
0.041194 0.082431 0.035173 255 220 0
0.014692 0.112501 0.072360 255 220 0
0.041437 0.075994 0.076334 255 220 0
0.028135 0.185673 0.099525 255 220 0
0.023667 0.183652 0.094824 255 220 0
0.038195 0.080619 0.079059 255 220 0
0.068466 0.179923 0.034801 255 220 0
0.079578 0.177905 0.041218 255 220 0
0.017464 0.200813 0.054886 255 220 0
0.065268 0.170832 0.032095 255 220 0
0.013438 0.195038 0.065450 255 220 0
0.022374 0.213041 0.063633 255 220 0
0.053454 0.181532 0.112198 255 220 0
0.051079 0.113411 0.030741 255 220 0
0.015333 0.097456 0.071272 255 220 0
0.080259 0.220987 0.076429 255 220 0
0.037925 0.145638 0.101885 255 220 0
0.051524 0.110369 0.096190 255 220 0
0.081043 0.107639 0.066269 255 220 0
0.007911 0.084093 0.062495 255 220 0
0.006691 0.105088 0.052183 255 220 0
0.024859 0.192112 0.095500 255 220 0
0.081544 0.110041 0.082890 255 220 0
0.013376 0.105458 0.069776 255 220 0
0.059983 0.210431 0.108303 255 220 0
0.023799 0.191279 0.040326 255 220 0
0.036613 0.076357 0.076391 255 220 0
0.093981 0.151839 0.079456 255 220 0
0.085879 0.159843 0.099487 255 220 0
0.003403 0.082153 0.050214 255 220 0
0.022461 0.171588 0.093051 255 220 0
0.080693 0.145775 0.041439 255 220 0
0.059262 0.195921 0.036490 255 220 0
0.030682 0.145289 0.096527 255 220 0
0.061332 0.080177 0.073521 255 220 0
0.019394 0.160145 0.087964 255 220 0
0.038297 0.146475 0.102286 255 220 0
0.065987 0.231385 0.088594 255 220 0
0.034335 0.162742 0.029000 255 220 0
0.012633 0.100557 0.038108 255 220 0
0.020161 0.208832 0.075501 255 220 0
0.033653 0.226078 0.072961 255 220 0
0.075208 0.096634 0.068321 255 220 0
0.019254 0.061061 0.059091 255 220 0
0.020499 0.070568 0.069404 255 220 0
0.011200 0.073413 0.065155 255 220 0
0.042935 0.063058 0.059628 255 220 0
0.067697 0.089286 0.053774 255 220 0
0.047638 0.130786 0.102092 255 220 0
0.008093 0.150289 0.063055 255 220 0
0.069664 0.102547 0.044720 255 220 0
0.060426 0.147472 0.108089 255 220 0
0.023580 0.139262 0.088873 255 220 0
0.008872 0.110299 0.045908 255 220 0
0.016732 0.150289 0.036169 255 220 0
0.022906 0.117795 0.082808 255 220 0
0.054113 0.110465 0.096483 255 220 0
0.030985 0.220265 0.058632 255 220 0
0.007789 0.163319 0.057747 255 220 0
0.063797 0.097104 0.088296 255 220 0
0.088685 0.133956 0.059666 255 220 0
0.019704 0.094314 0.074656 255 220 0
0.035683 0.211562 0.099554 255 220 0
0.051178 0.216488 0.104598 255 220 0
0.076600 0.155843 0.106532 255 220 0
0.014957 0.096085 0.035713 255 220 0
0.055496 0.108086 0.033116 255 220 0
0.046918 0.205670 0.108456 255 220 0
0.023075 0.187470 0.093893 255 220 0
0.010080 0.092262 0.064984 255 220 0
0.020036 0.201302 0.050450 255 220 0
0.039271 0.129966 0.028427 255 220 0
0.034933 0.092078 0.031378 255 220 0
0.055037 0.233781 0.087030 255 220 0
0.028631 0.094569 0.080801 255 220 0
0.021010 0.210920 0.074122 255 220 0
0.087857 0.124551 0.068857 255 220 0
0.021797 0.099602 0.077539 255 220 0
0.069410 0.099807 0.087940 255 220 0
0.015985 0.119508 0.075305 255 220 0
0.058887 0.107491 0.034777 255 220 0
0.022275 0.206142 0.052362 255 220 0
0.067872 0.128906 0.102940 255 220 0
0.026292 0.118427 0.030919 255 220 0
0.088423 0.130934 0.061407 255 220 0
0.065345 0.093408 0.045864 255 220 0
0.008293 0.129483 0.050980 255 220 0
0.020974 0.125308 0.082786 255 220 0
0.074954 0.149982 0.106300 255 220 0
0.093799 0.164876 0.062566 255 220 0
0.064466 0.082269 0.071995 255 220 0
0.012089 0.185390 0.052942 255 220 0
0.021449 0.060253 0.049713 255 220 0
0.013818 0.179479 0.079416 255 220 0
0.012246 0.189869 0.068738 255 220 0
0.010665 0.168754 0.072379 255 220 0
0.043532 0.215230 0.102604 255 220 0
0.065564 0.178509 0.111637 255 220 0
0.046762 0.165036 0.109089 255 220 0
0.072049 0.106226 0.045277 255 220 0
0.040297 0.127878 0.028458 255 220 0
0.013406 0.086280 0.035976 255 220 0
0.046041 0.168440 0.028703 255 220 0
0.073564 0.096829 0.057286 255 220 0
0.090289 0.197070 0.079227 255 220 0
0.062701 0.218080 0.051111 255 220 0
0.065024 0.090126 0.048163 255 220 0
0.053357 0.126332 0.101943 255 220 0
0.015178 0.155284 0.080931 255 220 0
0.083305 0.113310 0.064471 255 220 0
0.076320 0.226090 0.075087 255 220 0
0.009684 0.179540 0.061598 255 220 0
0.043466 0.170205 0.028933 255 220 0
0.030541 0.210040 0.047924 255 220 0
0.009577 0.146391 0.045309 255 220 0
0.080140 0.221435 0.079768 255 220 0
0.038949 0.146973 0.028022 255 220 0
0.078821 0.209661 0.056281 255 220 0
0.014675 0.083043 0.035343 255 220 0
0.007651 0.159874 0.055162 255 220 0
0.079319 0.186135 0.104444 255 220 0
0.037852 0.109199 0.091170 255 220 0
0.008066 0.119138 0.052971 255 220 0
0.016615 0.202928 0.063370 255 220 0
0.017361 0.096706 0.073150 255 220 0
0.075518 0.187504 0.040992 255 220 0
0.027371 0.134153 0.030442 255 220 0
0.037850 0.215575 0.048666 255 220 0
0.061018 0.183527 0.112404 255 220 0
0.026405 0.059957 0.059267 255 220 0
0.015221 0.145489 0.079345 255 220 0
0.057341 0.234662 0.071806 255 220 0
0.016767 0.060971 0.056817 255 220 0
0.086896 0.142299 0.050937 255 220 0
0.013604 0.188619 0.076033 255 220 0
0.091586 0.164804 0.091118 255 220 0
0.032203 0.069725 0.071697 255 220 0
0.029841 0.169398 0.030938 255 220 0
0.009016 0.134490 0.063780 255 220 0
0.016237 0.189801 0.082251 255 220 0
0.055892 0.189122 0.112520 255 220 0
0.027800 0.219566 0.063390 255 220 0
0.070571 0.175701 0.110284 255 220 0
0.071361 0.183152 0.109728 255 220 0
0.043002 0.189816 0.109639 255 220 0
0.053541 0.174880 0.111789 255 220 0
0.068770 0.204829 0.108028 255 220 0
0.030609 0.109893 0.086655 255 220 0
0.031955 0.063825 0.065847 255 220 0
0.027441 0.118971 0.086904 255 220 0
0.031089 0.222750 0.063965 255 220 0
0.009957 0.066341 0.059650 255 220 0
0.089197 0.128144 0.074763 255 220 0
0.065834 0.232628 0.070594 255 220 0
0.025892 0.180791 0.035252 255 220 0
0.010280 0.163517 0.046053 255 220 0
0.061379 0.141288 0.030464 255 220 0
0.008494 0.128585 0.050109 255 220 0
0.010459 0.107654 0.042099 255 220 0
0.018271 0.106134 0.075755 255 220 0
0.055995 0.092026 0.038612 255 220 0
0.029671 0.145320 0.095665 255 220 0
0.048612 0.190845 0.111348 255 220 0
0.024682 0.138687 0.089804 255 220 0
0.084058 0.128390 0.094019 255 220 0
0.012982 0.116762 0.070175 255 220 0
0.023517 0.109139 0.081207 255 220 0
0.056538 0.128725 0.102959 255 220 0
0.047677 0.100326 0.032148 255 220 0
0.071005 0.201242 0.044533 255 220 0
0.010683 0.176642 0.050768 255 220 0
0.029739 0.151606 0.096980 255 220 0
0.073391 0.094443 0.063223 255 220 0
0.073399 0.094298 0.074793 255 220 0
0.039513 0.148142 0.103283 255 220 0
0.037225 0.176097 0.030429 255 220 0
0.089679 0.171880 0.094577 255 220 0
0.091854 0.146029 0.085401 255 220 0
0.094233 0.177004 0.078165 255 220 0
0.039343 0.113410 0.093450 255 220 0
0.021782 0.212939 0.069998 255 220 0
0.036624 0.104242 0.088760 255 220 0
0.068156 0.210583 0.048302 255 220 0
0.008062 0.163176 0.062337 255 220 0
0.093305 0.149816 0.065664 255 220 0
0.086956 0.185099 0.096201 255 220 0
0.062225 0.095470 0.087569 255 220 0
0.082724 0.115524 0.057920 255 220 0
0.020592 0.118374 0.080706 255 220 0
0.033428 0.162478 0.029137 255 220 0
0.007385 0.107190 0.049345 255 220 0
0.038965 0.188587 0.107862 255 220 0
0.042391 0.076809 0.038453 255 220 0
0.027136 0.201780 0.043930 255 220 0
0.011202 0.137446 0.070148 255 220 0
0.054887 0.103688 0.093327 255 220 0
0.033325 0.060304 0.051819 255 220 0
0.036722 0.069318 0.040970 255 220 0
0.067200 0.233101 0.080566 255 220 0
0.055464 0.187874 0.032816 255 220 0
0.082029 0.167298 0.104020 255 220 0
0.011418 0.136389 0.070418 255 220 0
0.033935 0.177561 0.104142 255 220 0
0.035021 0.189272 0.105373 255 220 0
0.010732 0.178195 0.070758 255 220 0
0.033367 0.214991 0.094622 255 220 0
0.012548 0.119212 0.040805 255 220 0
0.047082 0.181050 0.030626 255 220 0
0.091122 0.146317 0.059234 255 220 0
0.038237 0.225956 0.087768 255 220 0
0.081912 0.165792 0.041780 255 220 0
0.008762 0.138044 0.048049 255 220 0
0.037377 0.191748 0.034972 255 220 0
0.051712 0.084374 0.039601 255 220 0
0.019226 0.073616 0.069954 255 220 0
0.013159 0.153412 0.076937 255 220 0
0.091568 0.152365 0.057816 255 220 0
0.030717 0.067375 0.040105 255 220 0
0.082380 0.113909 0.058905 255 220 0
0.020816 0.151517 0.033247 255 220 0
0.072234 0.142874 0.105850 255 220 0
0.093548 0.167854 0.085598 255 220 0
0.028496 0.105712 0.030558 255 220 0
0.068706 0.198329 0.041617 255 220 0
0.077101 0.225572 0.078294 255 220 0
0.088767 0.126660 0.073637 255 220 0
0.070964 0.178727 0.035709 255 220 0
0.031740 0.143914 0.097113 255 220 0
0.016038 0.188734 0.046892 255 220 0
0.020669 0.149797 0.033313 255 220 0
0.093608 0.153320 0.082674 255 220 0
0.053600 0.084710 0.081635 255 220 0
0.069221 0.150606 0.108303 255 220 0
0.061008 0.166693 0.030396 255 220 0
0.082299 0.113045 0.059952 255 220 0
0.069388 0.092216 0.080269 255 220 0
0.031194 0.151705 0.098262 255 220 0
0.085448 0.209740 0.085181 255 220 0
0.063017 0.201955 0.040665 255 220 0
0.094546 0.166063 0.081274 255 220 0
0.083625 0.118557 0.057269 255 220 0
0.092360 0.153216 0.059880 255 220 0
0.063514 0.221623 0.101251 255 220 0
0.020293 0.059740 0.053712 255 220 0
0.054558 0.070609 0.060889 255 220 0
0.031847 0.063415 0.044732 255 220 0
0.028524 0.141873 0.093932 255 220 0
0.010951 0.180778 0.070471 255 220 0
0.016151 0.201210 0.072221 255 220 0
0.063638 0.233333 0.070419 255 220 0
0.052649 0.220939 0.101846 255 220 0
0.009159 0.064987 0.055582 255 220 0
0.062297 0.191213 0.035602 255 220 0
0.073826 0.154959 0.107724 255 220 0
0.072051 0.106164 0.045314 255 220 0
0.017144 0.173613 0.039563 255 220 0
0.061016 0.226003 0.098012 255 220 0
0.035155 0.107723 0.029721 255 220 0
0.093233 0.167283 0.086733 255 220 0
0.008495 0.127056 0.050284 255 220 0
0.076858 0.109728 0.049690 255 220 0
0.033089 0.184917 0.033607 255 220 0
0.082533 0.166991 0.042494 255 220 0
0.060308 0.209814 0.044433 255 220 0
0.078756 0.108476 0.086949 255 220 0
0.018659 0.205341 0.059092 255 220 0
0.010970 0.173908 0.048532 255 220 0
0.063348 0.231126 0.065408 255 220 0
0.012723 0.163415 0.077273 255 220 0
0.021525 0.066481 0.067251 255 220 0
0.088131 0.144045 0.052719 255 220 0
0.014896 0.160768 0.081236 255 220 0
0.078104 0.175251 0.039550 255 220 0
0.039944 0.118123 0.028951 255 220 0
0.010738 0.176962 0.071237 255 220 0
0.076842 0.099238 0.070117 255 220 0
0.025482 0.183632 0.096854 255 220 0
0.027506 0.211599 0.089616 255 220 0
0.025947 0.097315 0.079890 255 220 0
0.062460 0.118505 0.099754 255 220 0
0.054709 0.079243 0.076816 255 220 0
0.011243 0.122224 0.067519 255 220 0
0.084562 0.168174 0.044857 255 220 0
0.064161 0.091821 0.045687 255 220 0
0.059907 0.221772 0.101764 255 220 0
0.019985 0.185825 0.089789 255 220 0
0.061618 0.181436 0.112305 255 220 0
0.041524 0.152644 0.027909 255 220 0
0.093078 0.144499 0.076488 255 220 0
0.021142 0.074853 0.035198 255 220 0
0.022399 0.204453 0.086687 255 220 0
0.038535 0.137591 0.028251 255 220 0
0.008851 0.142929 0.064920 255 220 0
0.090916 0.136252 0.080909 255 220 0
0.009016 0.127474 0.048215 255 220 0
0.023581 0.138653 0.031970 255 220 0
0.008335 0.165064 0.052877 255 220 0
0.050303 0.195730 0.111360 255 220 0
0.073150 0.094710 0.060830 255 220 0
0.024124 0.147857 0.091183 255 220 0
0.075053 0.161935 0.108164 255 220 0
0.026416 0.172352 0.097161 255 220 0
0.024188 0.110587 0.082103 255 220 0
0.034911 0.222152 0.088863 255 220 0
0.035336 0.227088 0.077523 255 220 0
0.024972 0.188975 0.096042 255 220 0
0.041693 0.162965 0.028323 255 220 0
0.009706 0.126041 0.064314 255 220 0
0.020709 0.205764 0.054553 255 220 0
0.065701 0.221466 0.055420 255 220 0
0.071561 0.227420 0.067092 255 220 0
0.011280 0.133975 0.042966 255 220 0
0.025934 0.170917 0.032754 255 220 0
0.089211 0.179209 0.094051 255 220 0
0.008335 0.139334 0.049364 255 220 0
0.084992 0.149661 0.098387 255 220 0
0.087410 0.205018 0.070070 255 220 0
0.093203 0.145721 0.070137 255 220 0
0.041610 0.180234 0.108988 255 220 0
0.062020 0.127126 0.032204 255 220 0
0.075908 0.196039 0.105595 255 220 0
0.075759 0.131063 0.039970 255 220 0
0.051559 0.157146 0.028335 255 220 0
0.094593 0.155560 0.069680 255 220 0
0.010259 0.181694 0.065510 255 220 0
0.090042 0.138547 0.087012 255 220 0
0.045834 0.079408 0.038777 255 220 0
0.013342 0.062942 0.058144 255 220 0
0.091647 0.189900 0.066962 255 220 0
0.016023 0.161952 0.037921 255 220 0
0.011312 0.146844 0.072096 255 220 0
0.028302 0.177200 0.099309 255 220 0
0.009402 0.065333 0.057112 255 220 0
0.084846 0.148400 0.045881 255 220 0
0.011404 0.062884 0.052205 255 220 0
0.080206 0.134104 0.099828 255 220 0
0.049798 0.081346 0.040084 255 220 0
0.064382 0.099495 0.089797 255 220 0
0.009231 0.131422 0.047267 255 220 0
0.009972 0.079013 0.064919 255 220 0
0.009956 0.087288 0.064853 255 220 0
0.067221 0.210607 0.047778 255 220 0
0.020708 0.144656 0.033366 255 220 0
