ply
format ascii 1.0
element vertex 1024
property float x
property float y
property float z
property uchar red
property uchar green
property uchar blue
end_header
0.533741 0.230707 0.421225 255 220 0
0.533240 0.191120 0.383907 255 220 0
0.535824 0.203692 0.372345 255 220 0
0.531961 0.291469 0.445782 255 220 0
0.516725 0.248707 0.362100 255 220 0
0.488006 0.229028 0.369695 255 220 0
0.536080 0.248354 0.428421 255 220 0
0.516923 0.225436 0.428977 255 220 0
0.487734 0.194936 0.374055 255 220 0
0.489946 0.203839 0.422458 255 220 0
0.510242 0.222048 0.360617 255 220 0
0.500645 0.158537 0.401326 255 220 0
0.547603 0.242771 0.408443 255 220 0
0.465155 0.270822 0.428711 255 220 0
0.544771 0.299995 0.426989 255 220 0
0.509151 0.308143 0.383539 255 220 0
0.478593 0.240557 0.379240 255 220 0
0.498354 0.160983 0.406807 255 220 0
0.485773 0.322793 0.412120 255 220 0
0.523792 0.205625 0.414424 255 220 0
0.533733 0.324189 0.422305 255 220 0
0.472557 0.292903 0.441017 255 220 0
0.509543 0.161072 0.396152 255 220 0
0.506495 0.227552 0.360934 255 220 0
0.477691 0.212844 0.384016 255 220 0
0.471632 0.305174 0.424211 255 220 0
0.504663 0.331934 0.440033 255 220 0
0.552379 0.260334 0.392704 255 220 0
0.510756 0.329250 0.404894 255 220 0
0.489437 0.209555 0.370194 255 220 0
0.471923 0.295271 0.401781 255 220 0
0.552542 0.248583 0.395346 255 220 0
0.475405 0.207965 0.409859 255 220 0
0.532876 0.202053 0.369969 255 220 0
0.472692 0.228177 0.391172 255 220 0
0.518223 0.194928 0.412954 255 220 0
0.548292 0.273814 0.420650 255 220 0
0.481752 0.295536 0.449159 255 220 0
0.518933 0.238349 0.434341 255 220 0
0.516415 0.335797 0.421466 255 220 0
0.540720 0.264902 0.374645 255 220 0
0.494566 0.169070 0.379485 255 220 0
0.530221 0.263262 0.439068 255 220 0
0.515813 0.189026 0.411686 255 220 0
0.548826 0.281385 0.393980 255 220 0
0.501031 0.254655 0.364244 255 220 0
0.486593 0.317823 0.403434 255 220 0
0.542588 0.300304 0.399727 255 220 0
0.519524 0.231192 0.361044 255 220 0
0.513418 0.335082 0.415371 255 220 0
0.485458 0.164172 0.395899 255 220 0
0.543203 0.305391 0.427849 255 220 0
0.537264 0.222652 0.413120 255 220 0
0.509983 0.162405 0.400110 255 220 0
0.520312 0.294032 0.452240 255 220 0
0.475731 0.198278 0.398792 255 220 0
0.532130 0.281493 0.443994 255 220 0
0.471043 0.270300 0.439806 255 220 0
0.467234 0.289345 0.431360 255 220 0
0.551591 0.239766 0.390666 255 220 0
0.503355 0.312365 0.387220 255 220 0
0.512788 0.335713 0.431981 255 220 0
0.498085 0.252685 0.364909 255 220 0
0.478738 0.284671 0.447825 255 220 0
0.512016 0.220829 0.428555 255 220 0
0.484978 0.287786 0.380774 255 220 0
0.508301 0.193287 0.417601 255 220 0
0.487797 0.238716 0.369680 255 220 0
0.471818 0.253323 0.435641 255 220 0
0.525739 0.243432 0.433106 255 220 0
0.494757 0.219181 0.365689 255 220 0
0.491207 0.286818 0.376341 255 220 0
0.523115 0.274530 0.368628 255 220 0
0.511514 0.296998 0.376571 255 220 0
0.500146 0.301663 0.380284 255 220 0
0.527771 0.285752 0.447762 255 220 0
0.522453 0.332270 0.430868 255 220 0
0.547212 0.292220 0.401257 255 220 0
0.476699 0.234904 0.431390 255 220 0
0.472406 0.287740 0.442113 255 220 0
0.474653 0.311519 0.427988 255 220 0
0.479022 0.204117 0.383608 255 220 0
0.477313 0.286059 0.387729 255 220 0
0.526396 0.251614 0.364556 255 220 0
0.495054 0.184366 0.371842 255 220 0
0.548408 0.281010 0.392695 255 220 0
0.479925 0.315434 0.411118 255 220 0
0.483461 0.187752 0.413029 255 220 0
0.549596 0.268456 0.388563 255 220 0
0.528801 0.189230 0.398348 255 220 0
0.503411 0.164900 0.380062 255 220 0
0.508692 0.264122 0.364620 255 220 0
0.513513 0.291165 0.373607 255 220 0
0.511642 0.312589 0.387300 255 220 0
0.528534 0.239016 0.429357 255 220 0
0.502051 0.216625 0.428612 255 220 0
0.543554 0.274010 0.429432 255 220 0
0.531474 0.225727 0.364859 255 220 0
0.526041 0.267215 0.442904 255 220 0
0.502654 0.258817 0.447344 255 220 0
0.508477 0.282493 0.453556 255 220 0
0.468476 0.232033 0.408648 255 220 0
0.468267 0.275670 0.398829 255 220 0
0.490222 0.171416 0.381053 255 220 0
0.465573 0.275746 0.406629 255 220 0
0.476088 0.233939 0.430303 255 220 0
0.531237 0.219898 0.416910 255 220 0
0.505666 0.186619 0.416139 255 220 0
0.525202 0.233086 0.428409 255 220 0
0.548809 0.278511 0.392044 255 220 0
0.472298 0.286404 0.394869 255 220 0
0.536171 0.319146 0.430104 255 220 0
0.479883 0.219188 0.379303 255 220 0
0.488705 0.308689 0.449963 255 220 0
0.500129 0.303918 0.454070 255 220 0
0.504599 0.243358 0.440654 255 220 0
0.502493 0.283597 0.454187 255 220 0
0.531828 0.319762 0.437055 255 220 0
0.509146 0.268762 0.365582 255 220 0
0.514145 0.326540 0.401954 255 220 0
0.528105 0.315452 0.443835 255 220 0
0.508479 0.305566 0.381679 255 220 0
0.473657 0.209059 0.402825 255 220 0
0.492630 0.197292 0.420911 255 220 0
0.472441 0.218350 0.396077 255 220 0
0.542962 0.230759 0.410400 255 220 0
0.533606 0.237285 0.365674 255 220 0
0.487300 0.279497 0.376048 255 220 0
0.483905 0.307074 0.395159 255 220 0
0.507125 0.252970 0.362852 255 220 0
0.514383 0.329525 0.405839 255 220 0
0.533284 0.194395 0.394592 255 220 0
0.507529 0.227224 0.360754 255 220 0
0.469962 0.288467 0.438480 255 220 0
0.531810 0.324502 0.413837 255 220 0
0.468624 0.239186 0.398915 255 220 0
0.536272 0.261808 0.370719 255 220 0
0.527996 0.251797 0.435589 255 220 0
0.479143 0.188228 0.389324 255 220 0
0.485211 0.325788 0.423275 255 220 0
0.513228 0.212124 0.423932 255 220 0
0.493821 0.221571 0.366055 255 220 0
0.513358 0.175590 0.407555 255 220 0
0.541872 0.253897 0.424246 255 220 0
0.540163 0.259641 0.428952 255 220 0
0.544718 0.215930 0.388956 255 220 0
0.550767 0.239356 0.383139 255 220 0
0.468976 0.290876 0.405645 255 220 0
0.527704 0.329722 0.424444 255 220 0
0.495800 0.222958 0.364902 255 220 0
0.523421 0.233024 0.429443 255 220 0
0.499201 0.199665 0.366079 255 220 0
0.518848 0.252862 0.363024 255 220 0
0.516994 0.281286 0.369669 255 220 0
0.502820 0.260061 0.364611 255 220 0
0.469373 0.243332 0.395625 255 220 0
0.531657 0.222540 0.365190 255 220 0
0.544180 0.245354 0.372830 255 220 0
0.486921 0.314402 0.399238 255 220 0
0.468241 0.240245 0.422589 255 220 0
0.517685 0.248416 0.439434 255 220 0
0.491324 0.162315 0.406377 255 220 0
0.507232 0.293260 0.374707 255 220 0
0.509867 0.236169 0.360671 255 220 0
0.526177 0.289581 0.449320 255 220 0
0.491946 0.330481 0.417428 255 220 0
0.552658 0.248371 0.391248 255 220 0
0.520541 0.222540 0.361500 255 220 0
0.549297 0.256582 0.412164 255 220 0
0.511865 0.187880 0.366779 255 220 0
0.464461 0.278275 0.414006 255 220 0
0.474050 0.206937 0.399368 255 220 0
0.506743 0.327952 0.444439 255 220 0
0.549938 0.268101 0.389204 255 220 0
0.504417 0.303638 0.380659 255 220 0
0.515413 0.253833 0.362798 255 220 0
0.486983 0.324296 0.436329 255 220 0
0.531601 0.302518 0.445711 255 220 0
0.529582 0.317835 0.400661 255 220 0
0.526503 0.323062 0.404055 255 220 0
0.503356 0.327335 0.444616 255 220 0
0.533763 0.225541 0.365880 255 220 0
0.519794 0.208147 0.362893 255 220 0
0.517988 0.333072 0.413497 255 220 0
0.525048 0.309313 0.389128 255 220 0
0.512185 0.301328 0.379167 255 220 0
0.492211 0.208225 0.368370 255 220 0
0.503990 0.292019 0.374515 255 220 0
0.547341 0.245394 0.376104 255 220 0
0.492638 0.227853 0.434018 255 220 0
0.482230 0.322694 0.425406 255 220 0
0.497575 0.259493 0.365956 255 220 0
0.536392 0.283834 0.378788 255 220 0
0.544875 0.217738 0.379806 255 220 0
0.512347 0.202321 0.419801 255 220 0
0.523589 0.180114 0.398630 255 220 0
0.463553 0.269896 0.418878 255 220 0
0.477543 0.204808 0.386408 255 220 0
0.531103 0.325672 0.415187 255 220 0
0.513235 0.213267 0.424471 255 220 0
0.532632 0.272856 0.441054 255 220 0
0.512915 0.311217 0.452016 255 220 0
0.534714 0.248455 0.429657 255 220 0
0.502961 0.162437 0.407413 255 220 0
0.503505 0.256308 0.363912 255 220 0
0.501098 0.311728 0.452377 255 220 0
0.509960 0.162114 0.399378 255 220 0
0.513962 0.277478 0.451365 255 220 0
0.492428 0.224349 0.366740 255 220 0
0.477081 0.305905 0.441812 255 220 0
0.513642 0.297095 0.453970 255 220 0
0.486082 0.300820 0.450781 255 220 0
0.467294 0.256048 0.398970 255 220 0
0.504030 0.200537 0.364335 255 220 0
0.514670 0.209403 0.422045 255 220 0
0.536401 0.280050 0.439985 255 220 0
0.483480 0.187814 0.413068 255 220 0
0.528113 0.182149 0.385332 255 220 0
0.472665 0.265416 0.440388 255 220 0
0.491915 0.327836 0.411695 255 220 0
0.531712 0.192363 0.395896 255 220 0
0.484619 0.219392 0.427673 255 220 0
0.465506 0.244469 0.413274 255 220 0
0.491958 0.203801 0.422977 255 220 0
0.466016 0.261523 0.428922 255 220 0
0.520969 0.313207 0.390502 255 220 0
0.482987 0.323268 0.421927 255 220 0
0.480281 0.320316 0.427468 255 220 0
0.532949 0.250040 0.431746 255 220 0
0.470787 0.249315 0.391675 255 220 0
0.552263 0.267837 0.407245 255 220 0
0.465369 0.245632 0.410351 255 220 0
0.493493 0.283129 0.453478 255 220 0
0.492525 0.206780 0.368366 255 220 0
0.525089 0.239561 0.431668 255 220 0
0.523868 0.311306 0.448386 255 220 0
0.547532 0.223480 0.388652 255 220 0
0.495689 0.333887 0.427952 255 220 0
0.476163 0.290977 0.391706 255 220 0
0.498338 0.303480 0.453929 255 220 0
0.511812 0.232548 0.360421 255 220 0
0.519750 0.274103 0.448425 255 220 0
0.484429 0.322262 0.413883 255 220 0
0.508751 0.317768 0.391707 255 220 0
0.540762 0.262965 0.374066 255 220 0
0.538037 0.216870 0.408223 255 220 0
0.545681 0.230717 0.404912 255 220 0
0.483177 0.204446 0.377181 255 220 0
0.531225 0.317909 0.439355 255 220 0
0.479111 0.304017 0.445058 255 220 0
0.476148 0.312336 0.433921 255 220 0
0.497674 0.246122 0.364454 255 220 0
0.502990 0.321585 0.396270 255 220 0
0.532700 0.273231 0.441128 255 220 0
0.497260 0.166394 0.411355 255 220 0
0.545884 0.279833 0.426764 255 220 0
0.468768 0.297047 0.427962 255 220 0
0.515711 0.235770 0.434465 255 220 0
0.526866 0.247556 0.364111 255 220 0
0.523983 0.178899 0.396590 255 220 0
0.514294 0.283519 0.370225 255 220 0
0.526685 0.221797 0.421329 255 220 0
0.540437 0.233155 0.369253 255 220 0
0.480615 0.320808 0.425783 255 220 0
0.470048 0.245510 0.429820 255 220 0
0.527856 0.304778 0.386980 255 220 0
0.537958 0.317817 0.416735 255 220 0
0.468818 0.239865 0.398073 255 220 0
0.498570 0.247331 0.364218 255 220 0
0.543947 0.304865 0.412921 255 220 0
0.550905 0.242479 0.382741 255 220 0
0.490950 0.313183 0.449146 255 220 0
0.532485 0.273300 0.371883 255 220 0
0.504227 0.232782 0.361476 255 220 0
0.479077 0.317268 0.418021 255 220 0
0.520105 0.215280 0.362042 255 220 0
0.477804 0.195640 0.407419 255 220 0
0.542307 0.215889 0.399451 255 220 0
0.505163 0.202885 0.422261 255 220 0
0.482189 0.282680 0.381133 255 220 0
0.492957 0.180360 0.374514 255 220 0
0.515565 0.196730 0.415599 255 220 0
0.476954 0.210628 0.386019 255 220 0
0.545159 0.278754 0.385482 255 220 0
0.548588 0.279296 0.420557 255 220 0
0.507464 0.315257 0.389314 255 220 0
0.511318 0.285057 0.453542 255 220 0
0.499792 0.237390 0.363036 255 220 0
0.526403 0.249801 0.364275 255 220 0
0.496922 0.315163 0.392085 255 220 0
0.514521 0.256790 0.444171 255 220 0
0.538317 0.262056 0.372028 255 220 0
0.505271 0.211451 0.425802 255 220 0
0.478073 0.234588 0.432233 255 220 0
0.511437 0.226985 0.431699 255 220 0
0.549689 0.230775 0.388618 255 220 0
0.474251 0.300568 0.402198 255 220 0
0.551209 0.239876 0.384817 255 220 0
0.522799 0.269946 0.445619 255 220 0
0.504487 0.293612 0.375215 255 220 0
0.470277 0.287852 0.399645 255 220 0
0.489449 0.288107 0.377842 255 220 0
0.476865 0.275690 0.445912 255 220 0
0.506904 0.310303 0.385157 255 220 0
0.548377 0.228728 0.380849 255 220 0
0.482731 0.223769 0.429084 255 220 0
0.549697 0.286601 0.413553 255 220 0
0.547043 0.291385 0.423183 255 220 0
0.483977 0.243373 0.439359 255 220 0
0.492659 0.316490 0.448178 255 220 0
0.464330 0.275059 0.412178 255 220 0
0.496444 0.196874 0.421152 255 220 0
0.527293 0.187704 0.399429 255 220 0
0.493301 0.319075 0.398508 255 220 0
0.487495 0.270373 0.373347 255 220 0
0.531112 0.188034 0.379357 255 220 0
0.542085 0.307900 0.428912 255 220 0
0.483780 0.281636 0.379388 255 220 0
0.471877 0.304225 0.431473 255 220 0
0.489528 0.218048 0.428749 255 220 0
0.491352 0.160836 0.403941 255 220 0
0.466780 0.263942 0.400392 255 220 0
0.495341 0.159301 0.392102 255 220 0
0.510818 0.194561 0.417073 255 220 0
0.542904 0.293618 0.433036 255 220 0
0.469294 0.240603 0.396480 255 220 0
0.550748 0.253817 0.406771 255 220 0
0.552798 0.252405 0.391534 255 220 0
0.526245 0.179180 0.386831 255 220 0
0.509943 0.187190 0.414458 255 220 0
0.551956 0.241930 0.389754 255 220 0
0.548968 0.274201 0.419150 255 220 0
0.514083 0.333657 0.436310 255 220 0
0.495268 0.158334 0.396936 255 220 0
0.511637 0.290799 0.454127 255 220 0
0.483070 0.187581 0.412558 255 220 0
0.478951 0.298813 0.393601 255 220 0
0.463574 0.265962 0.419491 255 220 0
0.505008 0.290746 0.373737 255 220 0
0.482535 0.221285 0.427572 255 220 0
0.491689 0.172331 0.413054 255 220 0
0.468538 0.232589 0.412716 255 220 0
0.476179 0.204431 0.390047 255 220 0
0.543743 0.231262 0.409333 255 220 0
0.526122 0.292918 0.449703 255 220 0
0.529915 0.269505 0.441587 255 220 0
0.469833 0.237932 0.424473 255 220 0
0.551745 0.274489 0.409904 255 220 0
0.519709 0.289190 0.452029 255 220 0
0.475016 0.205128 0.405908 255 220 0
0.523049 0.242884 0.362479 255 220 0
0.533013 0.264208 0.437660 255 220 0
0.552460 0.246502 0.389862 255 220 0
0.483473 0.256118 0.444196 255 220 0
0.540480 0.265937 0.374790 255 220 0
0.463733 0.267300 0.412688 255 220 0
0.526934 0.217467 0.418701 255 220 0
0.543197 0.306656 0.426036 255 220 0
0.519784 0.313133 0.389944 255 220 0
0.483094 0.234574 0.434950 255 220 0
0.520087 0.191754 0.409786 255 220 0
0.520669 0.175029 0.376045 255 220 0
0.537531 0.248537 0.368796 255 220 0
0.494780 0.312323 0.390743 255 220 0
0.474810 0.281637 0.389112 255 220 0
0.463971 0.268336 0.411219 255 220 0
0.550384 0.259055 0.385035 255 220 0
0.467745 0.264764 0.433623 255 220 0
0.484559 0.173036 0.386614 255 220 0
0.522553 0.275801 0.368874 255 220 0
0.466833 0.256041 0.428869 255 220 0
0.539169 0.315012 0.428270 255 220 0
0.528489 0.202572 0.408816 255 220 0
0.508184 0.333378 0.410951 255 220 0
0.549719 0.261414 0.384796 255 220 0
0.477547 0.273976 0.383291 255 220 0
0.492026 0.301809 0.383932 255 220 0
0.497496 0.333965 0.417738 255 220 0
0.479002 0.316279 0.435245 255 220 0
0.514664 0.211985 0.361537 255 220 0
0.505997 0.211267 0.362190 255 220 0
0.464415 0.260495 0.408036 255 220 0
0.491374 0.256987 0.446415 255 220 0
0.513118 0.199156 0.418035 255 220 0
0.513761 0.262372 0.364270 255 220 0
0.542079 0.221108 0.405026 255 220 0
0.485118 0.321319 0.438279 255 220 0
0.497861 0.162590 0.408649 255 220 0
0.466359 0.253941 0.426769 255 220 0
0.499431 0.207988 0.364628 255 220 0
0.538609 0.229841 0.415996 255 220 0
0.485811 0.281188 0.377647 255 220 0
0.494909 0.278800 0.371575 255 220 0
0.503770 0.247796 0.362729 255 220 0
0.527517 0.328121 0.431823 255 220 0
0.482782 0.285265 0.450142 255 220 0
0.491155 0.176789 0.377338 255 220 0
0.547068 0.279587 0.389081 255 220 0
0.514030 0.268734 0.365640 255 220 0
0.502092 0.316286 0.391007 255 220 0
0.491812 0.190034 0.418528 255 220 0
0.486453 0.192198 0.416903 255 220 0
0.468664 0.266715 0.396160 255 220 0
0.528852 0.311638 0.393697 255 220 0
0.467058 0.288058 0.431760 255 220 0
0.547220 0.290520 0.398734 255 220 0
0.535354 0.273621 0.373644 255 220 0
0.512532 0.195617 0.416730 255 220 0
0.534323 0.319608 0.409536 255 220 0
0.513628 0.188234 0.366714 255 220 0
0.516994 0.221658 0.360895 255 220 0
0.494827 0.187872 0.370856 255 220 0
0.537319 0.289353 0.382770 255 220 0
0.488161 0.279747 0.451764 255 220 0
0.544785 0.268575 0.425780 255 220 0
0.526946 0.329897 0.427673 255 220 0
0.469050 0.292883 0.407851 255 220 0
0.535684 0.263749 0.435374 255 220 0
0.467826 0.238701 0.419623 255 220 0
0.479615 0.230112 0.378485 255 220 0
0.493594 0.317315 0.396436 255 220 0
0.508598 0.205789 0.422610 255 220 0
0.467084 0.263030 0.431852 255 220 0
0.514721 0.300435 0.378943 255 220 0
0.552092 0.262787 0.392950 255 220 0
0.526951 0.181159 0.379462 255 220 0
0.466978 0.280885 0.434183 255 220 0
0.479577 0.207931 0.381754 255 220 0
0.520293 0.219516 0.361679 255 220 0
0.525112 0.278174 0.370404 255 220 0
0.521394 0.321467 0.398762 255 220 0
0.529495 0.289165 0.377224 255 220 0
0.475062 0.218752 0.417748 255 220 0
0.524927 0.329541 0.433337 255 220 0
0.497296 0.187429 0.369790 255 220 0
0.535172 0.199302 0.396709 255 220 0
0.482065 0.311883 0.402065 255 220 0
0.497730 0.160301 0.388399 255 220 0
0.538420 0.317810 0.421722 255 220 0
0.529987 0.189526 0.396231 255 220 0
0.540020 0.259167 0.428932 255 220 0
0.488012 0.174476 0.381389 255 220 0
0.483212 0.305884 0.447779 255 220 0
0.507337 0.337187 0.426904 255 220 0
0.491901 0.204800 0.369064 255 220 0
0.525474 0.177988 0.384107 255 220 0
0.523615 0.227960 0.426717 255 220 0
0.547810 0.224518 0.389450 255 220 0
0.537317 0.294727 0.386544 255 220 0
0.478902 0.250428 0.440035 255 220 0
0.480537 0.188604 0.385705 255 220 0
0.482739 0.286978 0.450166 255 220 0
0.476405 0.309272 0.409447 255 220 0
0.504408 0.244038 0.362160 255 220 0
0.481040 0.193594 0.412291 255 220 0
0.506550 0.232658 0.435476 255 220 0
0.541347 0.308333 0.408596 255 220 0
0.517410 0.227529 0.429805 255 220 0
0.513878 0.167370 0.379319 255 220 0
0.533510 0.259135 0.435291 255 220 0
0.542817 0.269430 0.378234 255 220 0
0.523211 0.187406 0.404393 255 220 0
0.508992 0.309211 0.384340 255 220 0
0.536783 0.204932 0.399914 255 220 0
0.468695 0.272826 0.437060 255 220 0
0.470368 0.276430 0.440005 255 220 0
0.535379 0.284865 0.441994 255 220 0
0.545030 0.277580 0.427939 255 220 0
0.548466 0.238988 0.377531 255 220 0
0.483082 0.234141 0.434731 255 220 0
0.527344 0.187185 0.372124 255 220 0
0.490628 0.318065 0.399640 255 220 0
0.493529 0.320637 0.445935 255 220 0
0.485386 0.212800 0.424508 255 220 0
0.540606 0.212430 0.399791 255 220 0
0.528297 0.247836 0.364624 255 220 0
0.496265 0.286255 0.373896 255 220 0
0.511880 0.162416 0.393298 255 220 0
0.506219 0.159267 0.395393 255 220 0
0.508357 0.297160 0.454679 255 220 0
0.477331 0.226596 0.382310 255 220 0
0.545078 0.290828 0.428877 255 220 0
0.486386 0.190182 0.416224 255 220 0
0.523054 0.265028 0.366153 255 220 0
0.501328 0.302732 0.380634 255 220 0
0.542595 0.308620 0.415036 255 220 0
0.492709 0.197920 0.369691 255 220 0
0.497071 0.247962 0.443212 255 220 0
0.482881 0.256490 0.374707 255 220 0
0.493366 0.198012 0.369274 255 220 0
0.546413 0.229739 0.402338 255 220 0
0.525294 0.211474 0.416505 255 220 0
0.534643 0.200493 0.399368 255 220 0
0.547463 0.223961 0.390936 255 220 0
0.548766 0.230696 0.380741 255 220 0
0.518997 0.327888 0.440899 255 220 0
0.548199 0.267471 0.385026 255 220 0
0.517740 0.330554 0.408591 255 220 0
0.510446 0.271493 0.450505 255 220 0
0.520913 0.173430 0.396614 255 220 0
0.505609 0.262031 0.364495 255 220 0
0.552638 0.247983 0.392756 255 220 0
0.508489 0.192461 0.417209 255 220 0
0.471512 0.250938 0.390096 255 220 0
0.498482 0.319369 0.395509 255 220 0
0.520486 0.279805 0.449795 255 220 0
0.502213 0.254606 0.363948 255 220 0
0.476387 0.228375 0.427055 255 220 0
0.552086 0.250583 0.399868 255 220 0
0.470385 0.237452 0.425205 255 220 0
0.494177 0.275639 0.370885 255 220 0
0.544022 0.216991 0.377855 255 220 0
0.534521 0.320404 0.411442 255 220 0
0.525636 0.308590 0.388834 255 220 0
0.478542 0.255683 0.379269 255 220 0
0.485069 0.197949 0.376160 255 220 0
0.484974 0.182532 0.412774 255 220 0
0.487342 0.327870 0.426078 255 220 0
0.537379 0.265059 0.372229 255 220 0
0.505743 0.267497 0.365557 255 220 0
0.496189 0.175264 0.375079 255 220 0
0.548096 0.292598 0.406999 255 220 0
0.483737 0.166402 0.396984 255 220 0
0.501129 0.203417 0.423148 255 220 0
0.464226 0.267209 0.424460 255 220 0
0.550657 0.277346 0.414245 255 220 0
0.531333 0.212335 0.412263 255 220 0
0.477291 0.231748 0.381766 255 220 0
0.494604 0.263302 0.448963 255 220 0
0.499264 0.321117 0.447935 255 220 0
0.535159 0.266726 0.436939 255 220 0
0.480411 0.203537 0.415912 255 220 0
0.488397 0.214373 0.426585 255 220 0
0.477311 0.275287 0.383917 255 220 0
0.509495 0.173123 0.409615 255 220 0
0.511067 0.194677 0.364698 255 220 0
0.525532 0.249439 0.363958 255 220 0
0.487884 0.251889 0.370229 255 220 0
0.539442 0.314055 0.429042 255 220 0
0.531482 0.297054 0.383457 255 220 0
0.475051 0.312389 0.425460 255 220 0
0.479264 0.311044 0.405570 255 220 0
0.538726 0.277544 0.377670 255 220 0
0.535359 0.319045 0.432170 255 220 0
0.504129 0.284254 0.370965 255 220 0
0.465215 0.255950 0.424334 255 220 0
0.482260 0.236125 0.374861 255 220 0
0.547111 0.276335 0.387438 255 220 0
0.480057 0.198867 0.413242 255 220 0
0.495949 0.169104 0.378740 255 220 0
0.498564 0.171146 0.376458 255 220 0
0.515272 0.180659 0.408146 255 220 0
0.522664 0.310859 0.449136 255 220 0
0.520698 0.325478 0.442003 255 220 0
0.472497 0.274913 0.390426 255 220 0
0.513297 0.300465 0.453880 255 220 0
0.538256 0.312955 0.433299 255 220 0
0.497619 0.309564 0.452505 255 220 0
0.528047 0.305056 0.387332 255 220 0
0.503223 0.298178 0.454827 255 220 0
0.479594 0.304559 0.445315 255 220 0
0.532885 0.193395 0.375486 255 220 0
0.472704 0.251916 0.387857 255 220 0
0.530860 0.254887 0.435272 255 220 0
0.471003 0.303680 0.425132 255 220 0
0.479782 0.231893 0.378134 255 220 0
0.485683 0.182321 0.413292 255 220 0
0.467731 0.241878 0.400684 255 220 0
0.541079 0.303878 0.401117 255 220 0
0.465030 0.284113 0.422488 255 220 0
0.476728 0.272301 0.383869 255 220 0
0.522351 0.303045 0.451139 255 220 0
0.497165 0.294953 0.454551 255 220 0
0.527763 0.262433 0.366997 255 220 0
0.534798 0.282352 0.442037 255 220 0
0.528790 0.183856 0.389176 255 220 0
0.483922 0.174052 0.408566 255 220 0
0.542380 0.262329 0.427081 255 220 0
0.483402 0.181743 0.383552 255 220 0
0.499316 0.316116 0.391809 255 220 0
0.471770 0.231044 0.422424 255 220 0
0.483336 0.284680 0.450381 255 220 0
0.465527 0.270219 0.404945 255 220 0
0.513418 0.272573 0.366562 255 220 0
0.515637 0.270037 0.366093 255 220 0
0.536887 0.297700 0.441165 255 220 0
0.480895 0.214401 0.422308 255 220 0
0.492965 0.325582 0.406908 255 220 0
0.536529 0.294920 0.441689 255 220 0
0.520002 0.280302 0.450126 255 220 0
0.489004 0.284565 0.452585 255 220 0
0.520878 0.333640 0.428998 255 220 0
0.505054 0.287263 0.372111 255 220 0
0.520782 0.322045 0.399090 255 220 0
0.514045 0.278048 0.451491 255 220 0
0.526071 0.213911 0.417304 255 220 0
0.524771 0.177406 0.390875 255 220 0
0.467751 0.249235 0.398511 255 220 0
0.472084 0.233699 0.425275 255 220 0
0.531348 0.216937 0.365717 255 220 0
0.466059 0.269982 0.431213 255 220 0
0.550564 0.273939 0.394066 255 220 0
0.538980 0.236192 0.419186 255 220 0
0.478176 0.219665 0.423005 255 220 0
0.547232 0.225497 0.395018 255 220 0
0.521387 0.218921 0.361994 255 220 0
0.515131 0.256682 0.363274 255 220 0
0.552734 0.265896 0.400664 255 220 0
0.517644 0.305257 0.452361 255 220 0
0.518713 0.261242 0.364507 255 220 0
0.543408 0.296918 0.431728 255 220 0
0.519208 0.278538 0.449952 255 220 0
0.526359 0.293568 0.378237 255 220 0
0.506264 0.281928 0.369736 255 220 0
0.524678 0.186749 0.370135 255 220 0
0.495787 0.158215 0.397832 255 220 0
0.470040 0.246084 0.430113 255 220 0
0.534961 0.197734 0.394946 255 220 0
0.517361 0.316893 0.448750 255 220 0
0.504998 0.275306 0.452381 255 220 0
0.541666 0.225058 0.408754 255 220 0
0.516381 0.233306 0.360616 255 220 0
0.530370 0.295892 0.447189 255 220 0
0.529827 0.249448 0.365406 255 220 0
0.469879 0.226511 0.404495 255 220 0
0.489826 0.218970 0.368870 255 220 0
0.520384 0.248018 0.438066 255 220 0
0.529064 0.296788 0.448078 255 220 0
0.503786 0.268382 0.366034 255 220 0
0.526211 0.227357 0.424743 255 220 0
0.470272 0.233991 0.421888 255 220 0
0.468028 0.282323 0.436328 255 220 0
0.529316 0.197028 0.404266 255 220 0
0.484625 0.290430 0.382314 255 220 0
0.507093 0.239463 0.438508 255 220 0
0.470360 0.283348 0.440104 255 220 0
0.509418 0.204415 0.421780 255 220 0
0.539358 0.274925 0.377110 255 220 0
0.488802 0.174099 0.380801 255 220 0
0.501996 0.329308 0.406228 255 220 0
0.501288 0.332858 0.412075 255 220 0
0.536590 0.222596 0.413803 255 220 0
0.481654 0.293637 0.449299 255 220 0
0.511460 0.332523 0.439062 255 220 0
0.519886 0.222188 0.361378 255 220 0
0.488751 0.276424 0.451380 255 220 0
0.471918 0.247206 0.389615 255 220 0
0.491331 0.286365 0.376089 255 220 0
0.521526 0.194499 0.366093 255 220 0
0.487930 0.219702 0.370319 255 220 0
0.509963 0.241683 0.438902 255 220 0
0.526635 0.188310 0.400936 255 220 0
0.519502 0.332901 0.414477 255 220 0
0.472976 0.245324 0.387802 255 220 0
0.536244 0.249921 0.368329 255 220 0
0.485235 0.242851 0.371822 255 220 0
0.491807 0.219234 0.429780 255 220 0
0.494923 0.333217 0.419926 255 220 0
0.519411 0.333351 0.415631 255 220 0
0.519860 0.304011 0.382624 255 220 0
0.479110 0.210851 0.381934 255 220 0
0.479008 0.317392 0.418708 255 220 0
0.482144 0.283293 0.449726 255 220 0
0.542856 0.303936 0.430272 255 220 0
0.474537 0.208969 0.407936 255 220 0
0.534146 0.195800 0.375653 255 220 0
0.474165 0.279567 0.444300 255 220 0
0.507981 0.267962 0.365459 255 220 0
0.552340 0.259125 0.391632 255 220 0
0.481834 0.177004 0.406746 255 220 0
0.474133 0.248172 0.385590 255 220 0
0.496797 0.293935 0.454527 255 220 0
0.551207 0.260042 0.408746 255 220 0
0.464476 0.262741 0.424387 255 220 0
0.495371 0.166382 0.381058 255 220 0
0.471278 0.234253 0.424301 255 220 0
0.516345 0.166258 0.392970 255 220 0
0.481057 0.281238 0.381692 255 220 0
0.513929 0.309647 0.385303 255 220 0
0.489531 0.233690 0.436373 255 220 0
0.531131 0.271675 0.370695 255 220 0
0.489776 0.187347 0.374331 255 220 0
0.507228 0.205516 0.422858 255 220 0
0.528396 0.183228 0.389407 255 220 0
0.521682 0.278863 0.449015 255 220 0
0.516176 0.275012 0.450021 255 220 0
0.528687 0.186241 0.394899 255 220 0
0.479499 0.287405 0.385796 255 220 0
0.489882 0.290339 0.378562 255 220 0
0.474210 0.286546 0.444210 255 220 0
0.477735 0.277698 0.384105 255 220 0
0.483441 0.280064 0.450034 255 220 0
0.481426 0.300056 0.448156 255 220 0
0.543482 0.285887 0.431862 255 220 0
0.483069 0.219465 0.375120 255 220 0
0.509597 0.192001 0.416560 255 220 0
0.513045 0.331357 0.408181 255 220 0
0.535766 0.246396 0.427759 255 220 0
0.543011 0.219504 0.401577 255 220 0
0.527603 0.227808 0.363266 255 220 0
0.501647 0.176433 0.414294 255 220 0
0.487527 0.194685 0.418312 255 220 0
0.515484 0.283247 0.452297 255 220 0
0.542314 0.230874 0.370780 255 220 0
0.505856 0.198449 0.420372 255 220 0
0.536433 0.314762 0.434943 255 220 0
0.465398 0.279834 0.429367 255 220 0
0.526564 0.181600 0.393578 255 220 0
0.535228 0.273942 0.373678 255 220 0
0.548636 0.278761 0.391788 255 220 0
0.489259 0.172336 0.412132 255 220 0
0.516617 0.263439 0.446020 255 220 0
0.497145 0.261474 0.366408 255 220 0
0.474267 0.298333 0.399820 255 220 0
0.528280 0.242917 0.431388 255 220 0
0.532447 0.195021 0.373105 255 220 0
0.513237 0.251543 0.442376 255 220 0
0.536094 0.247328 0.427915 255 220 0
0.516538 0.335535 0.428921 255 220 0
0.465015 0.257614 0.405708 255 220 0
0.477972 0.192398 0.405764 255 220 0
0.492191 0.295792 0.453576 255 220 0
0.491387 0.316916 0.447327 255 220 0
0.529545 0.215474 0.365125 255 220 0
0.507586 0.159885 0.395278 255 220 0
0.515406 0.169485 0.401987 255 220 0
0.507492 0.168130 0.408925 255 220 0
0.516536 0.171357 0.376481 255 220 0
0.515104 0.205128 0.362593 255 220 0
0.542665 0.236798 0.414523 255 220 0
0.488529 0.236950 0.437702 255 220 0
0.504916 0.217667 0.361767 255 220 0
0.549427 0.257468 0.412303 255 220 0
0.519948 0.234221 0.431919 255 220 0
0.481596 0.200076 0.415655 255 220 0
0.467471 0.239380 0.419043 255 220 0
0.518654 0.214109 0.422333 255 220 0
0.544227 0.220655 0.399578 255 220 0
0.478640 0.309949 0.441395 255 220 0
0.480923 0.248506 0.440283 255 220 0
0.543222 0.212068 0.383313 255 220 0
0.519057 0.254669 0.363355 255 220 0
0.514944 0.191047 0.413253 255 220 0
0.519183 0.305563 0.451858 255 220 0
0.528531 0.316562 0.442834 255 220 0
0.552352 0.271621 0.401112 255 220 0
0.477605 0.189165 0.401232 255 220 0
0.487972 0.216495 0.370576 255 220 0
0.532658 0.305111 0.444216 255 220 0
0.514323 0.278219 0.451463 255 220 0
0.503019 0.184871 0.416426 255 220 0
0.471064 0.287860 0.440349 255 220 0
0.473127 0.229681 0.389805 255 220 0
0.482004 0.193454 0.381329 255 220 0
0.510524 0.333207 0.438221 255 220 0
0.523790 0.195157 0.408524 255 220 0
0.490832 0.297987 0.453017 255 220 0
0.528998 0.246119 0.364650 255 220 0
0.517240 0.196840 0.414601 255 220 0
0.544446 0.216803 0.379437 255 220 0
0.508925 0.212557 0.425504 255 220 0
0.490868 0.217397 0.368250 255 220 0
0.472630 0.293264 0.441004 255 220 0
0.551406 0.243341 0.397363 255 220 0
0.472900 0.213973 0.397615 255 220 0
0.521157 0.251875 0.363251 255 220 0
0.506221 0.207615 0.362634 255 220 0
0.481994 0.217555 0.425058 255 220 0
0.516355 0.220180 0.426579 255 220 0
0.552738 0.265593 0.400320 255 220 0
0.517199 0.285088 0.371223 255 220 0
0.531810 0.198143 0.370581 255 220 0
0.473627 0.270206 0.442427 255 220 0
0.500101 0.159663 0.389168 255 220 0
0.499423 0.266580 0.450189 255 220 0
0.487035 0.274994 0.450608 255 220 0
0.494100 0.255225 0.446038 255 220 0
0.524123 0.312224 0.447911 255 220 0
0.548141 0.288028 0.420468 255 220 0
0.541576 0.267985 0.430301 255 220 0
0.505553 0.222017 0.361314 255 220 0
0.473972 0.228194 0.388228 255 220 0
0.479288 0.179595 0.399183 255 220 0
0.467957 0.267561 0.397836 255 220 0
0.518917 0.214539 0.361860 255 220 0
0.524281 0.313716 0.392591 255 220 0
0.484185 0.320546 0.410994 255 220 0
0.508857 0.204582 0.362725 255 220 0
0.545596 0.235051 0.408125 255 220 0
0.506306 0.245110 0.441178 255 220 0
0.525653 0.233832 0.362612 255 220 0
0.509301 0.334359 0.412689 255 220 0
0.481758 0.264237 0.446060 255 220 0
0.466834 0.268135 0.400701 255 220 0
0.470912 0.300004 0.433599 255 220 0
0.473854 0.233281 0.427527 255 220 0
0.515926 0.331852 0.409862 255 220 0
0.469123 0.245057 0.395891 255 220 0
0.496641 0.319623 0.396801 255 220 0
0.479862 0.177131 0.396715 255 220 0
0.479248 0.245201 0.438082 255 220 0
0.545220 0.300292 0.408628 255 220 0
0.533592 0.212675 0.410416 255 220 0
0.485849 0.208100 0.422451 255 220 0
0.481121 0.288473 0.449280 255 220 0
0.512209 0.192217 0.415406 255 220 0
0.486170 0.297441 0.385230 255 220 0
0.469621 0.228746 0.402053 255 220 0
0.473178 0.308058 0.429775 255 220 0
0.546091 0.290792 0.426351 255 220 0
0.510654 0.161792 0.389007 255 220 0
0.506915 0.236123 0.437015 255 220 0
0.497448 0.334335 0.430123 255 220 0
0.504617 0.158701 0.396350 255 220 0
0.508772 0.261206 0.364064 255 220 0
0.494395 0.274699 0.452146 255 220 0
0.542188 0.285272 0.385213 255 220 0
0.522041 0.173565 0.392915 255 220 0
0.463705 0.261939 0.412623 255 220 0
0.492798 0.222934 0.431676 255 220 0
0.500757 0.277098 0.453019 255 220 0
0.543117 0.293819 0.432642 255 220 0
0.481891 0.308208 0.445830 255 220 0
0.549375 0.287447 0.414731 255 220 0
0.547628 0.294546 0.416460 255 220 0
0.535538 0.289096 0.442398 255 220 0
0.544521 0.279834 0.429271 255 220 0
0.540637 0.313210 0.425531 255 220 0
0.526653 0.210183 0.414770 255 220 0
0.517881 0.167844 0.388550 255 220 0
0.523812 0.217190 0.420714 255 220 0
0.482984 0.312475 0.444457 255 220 0
0.503514 0.160948 0.405123 255 220 0
0.534094 0.250181 0.367317 255 220 0
0.499957 0.335883 0.421813 255 220 0
0.463766 0.270907 0.421766 255 220 0
0.471248 0.249229 0.433292 255 220 0
0.480914 0.249085 0.376242 255 220 0
0.481469 0.216782 0.424203 255 220 0
0.479296 0.198153 0.411777 255 220 0
0.512954 0.201297 0.419080 255 220 0
0.496447 0.202261 0.366846 255 220 0
0.527115 0.242500 0.431873 255 220 0
0.538973 0.292385 0.438815 255 220 0
0.521321 0.234182 0.431195 255 220 0
0.549519 0.249092 0.379893 255 220 0
0.503731 0.208622 0.424852 255 220 0
0.519227 0.206392 0.418092 255 220 0
0.547211 0.238569 0.406751 255 220 0
0.485772 0.206195 0.373945 255 220 0
0.484837 0.308288 0.395339 255 220 0
0.472945 0.261562 0.439590 255 220 0
0.527029 0.248318 0.434592 255 220 0
0.524711 0.212530 0.363695 255 220 0
0.535199 0.212866 0.368568 255 220 0
0.537106 0.249384 0.427914 255 220 0
0.464628 0.271036 0.408614 255 220 0
0.543135 0.291095 0.390768 255 220 0
0.541004 0.268014 0.375938 255 220 0
0.528950 0.296962 0.381783 255 220 0
0.535340 0.217217 0.411628 255 220 0
0.486977 0.299979 0.451326 255 220 0
0.531978 0.207555 0.408666 255 220 0
0.485242 0.315808 0.402610 255 220 0
0.485203 0.248671 0.441961 255 220 0
0.522929 0.271266 0.367650 255 220 0
0.540847 0.302119 0.398386 255 220 0
0.542314 0.209908 0.383737 255 220 0
0.519057 0.235352 0.361084 255 220 0
0.515767 0.213612 0.423568 255 220 0
0.464854 0.257010 0.406429 255 220 0
0.484788 0.196771 0.417264 255 220 0
0.532673 0.286261 0.444571 255 220 0
0.494352 0.182834 0.372752 255 220 0
0.467734 0.290920 0.431823 255 220 0
0.498761 0.226777 0.433611 255 220 0
0.543066 0.214658 0.395201 255 220 0
0.506446 0.164622 0.380188 255 220 0
0.496051 0.173794 0.375909 255 220 0
0.509383 0.337271 0.425092 255 220 0
0.471186 0.289297 0.398584 255 220 0
0.549748 0.284183 0.399553 255 220 0
0.499304 0.225911 0.433173 255 220 0
0.529706 0.274003 0.443292 255 220 0
0.528804 0.285183 0.447038 255 220 0
0.490707 0.263804 0.448617 255 220 0
0.513148 0.307553 0.452893 255 220 0
0.476520 0.209500 0.413557 255 220 0
0.467477 0.279571 0.402230 255 220 0
0.517023 0.266925 0.365495 255 220 0
0.506512 0.319265 0.449777 255 220 0
0.493769 0.280254 0.372589 255 220 0
0.477751 0.225442 0.426433 255 220 0
0.465553 0.285566 0.415938 255 220 0
0.497319 0.193575 0.368140 255 220 0
0.514796 0.171771 0.404355 255 220 0
0.502327 0.242419 0.440498 255 220 0
0.514658 0.272570 0.366650 255 220 0
0.493420 0.169544 0.379859 255 220 0
0.520152 0.233778 0.361222 255 220 0
0.466107 0.242043 0.414827 255 220 0
0.552782 0.257982 0.399890 255 220 0
0.537303 0.288632 0.382299 255 220 0
0.476030 0.203249 0.391145 255 220 0
0.481942 0.304577 0.394986 255 220 0
0.512599 0.334333 0.413222 255 220 0
0.533222 0.248606 0.366672 255 220 0
0.481504 0.287366 0.383680 255 220 0
0.529491 0.242117 0.430272 255 220 0
0.468949 0.274620 0.437735 255 220 0
0.466467 0.240416 0.414372 255 220 0
0.537690 0.275272 0.375883 255 220 0
0.535944 0.196342 0.384603 255 220 0
0.552270 0.263913 0.406171 255 220 0
0.475459 0.272120 0.385472 255 220 0
0.521246 0.232999 0.361431 255 220 0
0.539075 0.209556 0.373511 255 220 0
0.528713 0.249052 0.433960 255 220 0
0.525227 0.323553 0.403626 255 220 0
0.478198 0.305535 0.400597 255 220 0
0.534140 0.287229 0.378993 255 220 0
0.518179 0.238461 0.361125 255 220 0
0.516645 0.273752 0.367170 255 220 0
0.529068 0.326129 0.432937 255 220 0
0.503388 0.158885 0.391655 255 220 0
0.520471 0.183025 0.369994 255 220 0
0.498844 0.166575 0.379495 255 220 0
0.525832 0.238818 0.430876 255 220 0
0.489996 0.266239 0.449222 255 220 0
0.489301 0.287073 0.452833 255 220 0
0.498830 0.335627 0.423817 255 220 0
0.525674 0.321112 0.442002 255 220 0
0.499818 0.159223 0.403577 255 220 0
0.475575 0.295234 0.395254 255 220 0
0.552572 0.269734 0.403620 255 220 0
0.505599 0.221963 0.361306 255 220 0
0.465868 0.260973 0.428363 255 220 0
0.524300 0.328981 0.435181 255 220 0
0.477354 0.207758 0.385949 255 220 0
0.538330 0.288027 0.382844 255 220 0
0.481944 0.215393 0.423738 255 220 0
0.510619 0.227346 0.360421 255 220 0
0.464125 0.277533 0.416522 255 220 0
0.494400 0.281630 0.372799 255 220 0
0.478962 0.311759 0.407229 255 220 0
0.545261 0.228475 0.374281 255 220 0
0.477522 0.291335 0.446604 255 220 0
0.471597 0.259093 0.437435 255 220 0
0.494649 0.333292 0.421145 255 220 0
0.500398 0.251386 0.444528 255 220 0
0.514691 0.166085 0.398775 255 220 0
0.510484 0.263374 0.364410 255 220 0
0.505342 0.250013 0.443475 255 220 0
0.488370 0.287250 0.378143 255 220 0
0.476303 0.219167 0.385295 255 220 0
0.491398 0.262700 0.448382 255 220 0
0.531242 0.218587 0.365447 255 220 0
0.518695 0.275814 0.449367 255 220 0
0.507128 0.301872 0.454448 255 220 0
0.521393 0.196534 0.411340 255 220 0
0.548649 0.231520 0.396851 255 220 0
0.533135 0.191609 0.379699 255 220 0
0.499549 0.212794 0.427093 255 220 0
0.497051 0.283630 0.372532 255 220 0
0.505945 0.205679 0.362985 255 220 0
0.528149 0.324819 0.436214 255 220 0
0.509796 0.275296 0.451707 255 220 0
0.546660 0.289123 0.425072 255 220 0
0.468813 0.251276 0.395696 255 220 0
0.533725 0.266757 0.370579 255 220 0
0.483849 0.172279 0.388380 255 220 0
0.504045 0.293156 0.454937 255 220 0
0.471114 0.236335 0.393029 255 220 0
0.492021 0.230615 0.435273 255 220 0
0.538616 0.258528 0.371360 255 220 0
0.480183 0.215903 0.422569 255 220 0
0.468650 0.231375 0.407448 255 220 0
0.476365 0.250125 0.438366 255 220 0
0.538607 0.297531 0.439132 255 220 0
0.522402 0.212579 0.362969 255 220 0
0.520461 0.242380 0.435478 255 220 0
0.551987 0.276618 0.405243 255 220 0
0.521656 0.265910 0.444746 255 220 0
0.519988 0.208022 0.418424 255 220 0
0.507041 0.314484 0.451675 255 220 0
0.495932 0.318706 0.448226 255 220 0
0.516665 0.280451 0.451328 255 220 0
0.467115 0.260782 0.399367 255 220 0
0.495286 0.215524 0.428352 255 220 0
0.474101 0.292371 0.443109 255 220 0
0.488503 0.325029 0.411524 255 220 0
0.500017 0.333316 0.413714 255 220 0
0.474943 0.222546 0.420736 255 220 0
0.463567 0.261811 0.417187 255 220 0
0.540968 0.297573 0.393516 255 220 0
0.478512 0.226498 0.427805 255 220 0
0.549416 0.269062 0.388470 255 220 0
0.513283 0.319432 0.393887 255 220 0
0.527780 0.267667 0.368198 255 220 0
0.536409 0.279758 0.439905 255 220 0
0.485656 0.236490 0.371459 255 220 0
0.542933 0.307991 0.415449 255 220 0
0.497011 0.245981 0.364711 255 220 0
0.472029 0.259481 0.389102 255 220 0
0.525853 0.277194 0.370312 255 220 0
0.485063 0.266594 0.448007 255 220 0
0.543329 0.260513 0.375498 255 220 0
0.495398 0.186620 0.370936 255 220 0
0.504125 0.159160 0.400463 255 220 0
0.515189 0.307231 0.383706 255 220 0
0.466375 0.249808 0.424489 255 220 0
0.498618 0.235479 0.437660 255 220 0
0.523301 0.271189 0.445798 255 220 0
0.501221 0.159699 0.404148 255 220 0
0.502173 0.265738 0.365766 255 220 0
0.498043 0.158081 0.399526 255 220 0
0.552142 0.252975 0.387591 255 220 0
0.497664 0.190052 0.368874 255 220 0
0.544304 0.214549 0.384307 255 220 0
0.478590 0.219556 0.423377 255 220 0
0.505660 0.172732 0.411820 255 220 0
0.503883 0.180275 0.414721 255 220 0
0.484413 0.315428 0.403175 255 220 0
0.467594 0.235742 0.412551 255 220 0
