ply
format ascii 1.0
element vertex 1024
property float x
property float y
property float z
property uchar red
property uchar green
property uchar blue
end_header
0.023369 0.127690 0.079074 255 220 0
0.050888 0.080807 0.076900 255 220 0
0.062879 0.088846 0.086387 255 220 0
0.012156 0.191469 0.089310 255 220 0
0.086923 0.132636 0.085828 255 220 0
0.086368 0.123023 0.051521 255 220 0
0.019065 0.145561 0.084623 255 220 0
0.021111 0.128789 0.059984 255 220 0
0.076389 0.092402 0.039515 255 220 0
0.032614 0.113189 0.030642 255 220 0
0.085797 0.108850 0.072121 255 220 0
0.040331 0.062682 0.032318 255 220 0
0.032491 0.132281 0.098993 255 220 0
0.047331 0.183267 0.027051 255 220 0
0.026551 0.191389 0.108874 255 220 0
0.080352 0.195699 0.091270 255 220 0
0.082880 0.138564 0.043842 255 220 0
0.036508 0.066975 0.029449 255 220 0
0.064715 0.222538 0.066508 255 220 0
0.028621 0.104763 0.064203 255 220 0
0.038985 0.215326 0.107639 255 220 0
0.037357 0.205463 0.037131 255 220 0
0.042469 0.061575 0.042642 255 220 0
0.087779 0.114956 0.070329 255 220 0
0.073869 0.114163 0.033118 255 220 0
0.055339 0.212637 0.044814 255 220 0
0.034088 0.234137 0.078631 255 220 0
0.048458 0.143348 0.113190 255 220 0
0.063874 0.220773 0.093233 255 220 0
0.081953 0.104626 0.046665 255 220 0
0.074142 0.197297 0.048336 255 220 0
0.043880 0.133040 0.108964 255 220 0
0.049985 0.117074 0.022256 255 220 0
0.065797 0.087368 0.083873 255 220 0
0.071730 0.131582 0.031297 255 220 0
0.030002 0.095680 0.056254 255 220 0
0.026522 0.164399 0.105770 255 220 0
0.027142 0.207951 0.044003 255 220 0
0.017767 0.141822 0.064288 255 220 0
0.047812 0.230009 0.095729 255 220 0
0.069940 0.145506 0.109096 255 220 0
0.064427 0.068089 0.036202 255 220 0
0.013933 0.163720 0.080907 255 220 0
0.030955 0.090391 0.052598 255 220 0
0.052251 0.164193 0.116105 255 220 0
0.091435 0.142450 0.072805 255 220 0
0.071550 0.215372 0.068164 255 220 0
0.052476 0.184875 0.114664 255 220 0
0.083816 0.115332 0.083257 255 220 0
0.054337 0.228409 0.094502 255 220 0
0.051587 0.070053 0.021792 255 220 0
0.027260 0.197029 0.108873 255 220 0
0.028186 0.117163 0.082068 255 220 0
0.038907 0.063779 0.042339 255 220 0
0.010694 0.198328 0.077701 255 220 0
0.058347 0.104977 0.022676 255 220 0
0.011973 0.181628 0.086886 255 220 0
0.034980 0.184374 0.029114 255 220 0
0.047463 0.200797 0.033916 255 220 0
0.046954 0.123769 0.106694 255 220 0
0.079718 0.201991 0.086272 255 220 0
0.039365 0.233603 0.089447 255 220 0
0.091492 0.141479 0.069332 255 220 0
0.027483 0.198148 0.038285 255 220 0
0.022379 0.125522 0.054222 255 220 0
0.087648 0.181606 0.063801 255 220 0
0.028862 0.097721 0.045425 255 220 0
0.088175 0.132120 0.054328 255 220 0
0.035533 0.167213 0.025746 255 220 0
0.017453 0.144644 0.072389 255 220 0
0.085973 0.111164 0.055740 255 220 0
0.089404 0.178051 0.070409 255 220 0
0.083286 0.157017 0.097772 255 220 0
0.083974 0.182861 0.091936 255 220 0
0.085316 0.190883 0.082004 255 220 0
0.010767 0.187641 0.083180 255 220 0
0.036434 0.227820 0.097476 255 220 0
0.048031 0.176647 0.115937 255 220 0
0.034488 0.147717 0.025688 255 220 0
0.035481 0.200969 0.035090 255 220 0
0.051941 0.218870 0.048454 255 220 0
0.072234 0.105587 0.031746 255 220 0
0.083586 0.183656 0.054345 255 220 0
0.081830 0.133743 0.094820 255 220 0
0.074016 0.080216 0.043523 255 220 0
0.053514 0.163596 0.115972 255 220 0
0.066354 0.216765 0.059205 255 220 0
0.040686 0.097149 0.022436 255 220 0
0.054678 0.150479 0.114337 255 220 0
0.038785 0.083957 0.068217 255 220 0
0.060094 0.062273 0.042786 255 220 0
0.090120 0.149599 0.082582 255 220 0
0.084977 0.176147 0.092785 255 220 0
0.076816 0.200277 0.093847 255 220 0
0.019155 0.138857 0.074619 255 220 0
0.025028 0.123947 0.043855 255 220 0
0.020106 0.168051 0.099053 255 220 0
0.075195 0.108446 0.091351 255 220 0
0.012548 0.169424 0.077250 255 220 0
0.015057 0.168254 0.052160 255 220 0
0.011526 0.190676 0.063014 255 220 0
0.057774 0.140863 0.023737 255 220 0
0.074645 0.179049 0.039792 255 220 0
0.064902 0.071721 0.032538 255 220 0
0.068405 0.181844 0.035171 255 220 0
0.035530 0.146667 0.025141 255 220 0
0.026290 0.117021 0.074676 255 220 0
0.029937 0.091717 0.041383 255 220 0
0.020128 0.133843 0.070028 255 220 0
0.053530 0.160993 0.115747 255 220 0
0.078805 0.187071 0.047885 255 220 0
0.030061 0.212135 0.106100 255 220 0
0.078579 0.118312 0.038396 255 220 0
0.026332 0.218826 0.054157 255 220 0
0.017747 0.212791 0.061904 255 220 0
0.017801 0.151558 0.051036 255 220 0
0.013212 0.193281 0.057741 255 220 0
0.025268 0.215595 0.100387 255 220 0
0.089901 0.154086 0.084158 255 220 0
0.064929 0.216657 0.096303 255 220 0
0.019545 0.214259 0.093764 255 220 0
0.081841 0.192950 0.090387 255 220 0
0.057264 0.116619 0.022986 255 220 0
0.031947 0.106027 0.031493 255 220 0
0.065552 0.123775 0.026652 255 220 0
0.030159 0.122671 0.090515 255 220 0
0.075760 0.118964 0.096628 255 220 0
0.089726 0.172048 0.064680 255 220 0
0.078194 0.203739 0.064732 255 220 0
0.090310 0.139072 0.078212 255 220 0
0.061797 0.220433 0.096347 255 220 0
0.041612 0.086724 0.074943 255 220 0
0.087529 0.114360 0.071218 255 220 0
0.039804 0.201246 0.034117 255 220 0
0.047507 0.213798 0.108374 255 220 0
0.067960 0.144900 0.028822 255 220 0
0.074547 0.142606 0.105205 255 220 0
0.015871 0.152597 0.076324 255 220 0
0.064103 0.092247 0.025338 255 220 0
0.055164 0.228462 0.063781 255 220 0
0.024671 0.115865 0.053936 255 220 0
0.086384 0.113715 0.055526 255 220 0
0.033223 0.077304 0.047381 255 220 0
0.021892 0.148261 0.092773 255 220 0
0.019168 0.155292 0.091669 255 220 0
0.046673 0.102651 0.093569 255 220 0
0.054100 0.121559 0.107939 255 220 0
0.070822 0.194919 0.043213 255 220 0
0.040083 0.222484 0.103269 255 220 0
0.087008 0.114238 0.058076 255 220 0
0.019780 0.134480 0.068099 255 220 0
0.080609 0.091991 0.053639 255 220 0
0.086075 0.136269 0.088780 255 220 0
0.085645 0.165045 0.094005 255 220 0
0.091438 0.147180 0.075996 255 220 0
0.071469 0.147715 0.031709 255 220 0
0.074261 0.105514 0.090440 255 220 0
0.066942 0.125943 0.106711 255 220 0
0.074695 0.210973 0.068587 255 220 0
0.046472 0.152331 0.022134 255 220 0
0.015296 0.152888 0.064830 255 220 0
0.039575 0.069753 0.023596 255 220 0
0.086508 0.179873 0.087417 255 220 0
0.088385 0.122147 0.076128 255 220 0
0.010563 0.192010 0.082476 255 220 0
0.059055 0.229698 0.072995 255 220 0
0.047577 0.131714 0.110158 255 220 0
0.081507 0.107131 0.081380 255 220 0
0.030930 0.145787 0.103750 255 220 0
0.073488 0.078198 0.061306 255 220 0
0.062443 0.186448 0.032865 255 220 0
0.059936 0.113616 0.023662 255 220 0
0.028601 0.231111 0.078049 255 220 0
0.053907 0.150239 0.114357 255 220 0
0.083843 0.191827 0.086388 255 220 0
0.087645 0.137920 0.086023 255 220 0
0.042260 0.230154 0.061253 255 220 0
0.014310 0.201858 0.092416 255 220 0
0.059231 0.204556 0.108001 255 220 0
0.058098 0.211072 0.105863 255 220 0
0.029500 0.231377 0.074732 255 220 0
0.073430 0.108009 0.093085 255 220 0
0.077925 0.094232 0.075863 255 220 0
0.054125 0.224956 0.098560 255 220 0
0.069911 0.194563 0.104498 255 220 0
0.082120 0.187447 0.093152 255 220 0
0.082438 0.102244 0.049288 255 220 0
0.087588 0.179423 0.084142 255 220 0
0.062839 0.126117 0.108673 255 220 0
0.025299 0.138096 0.037249 255 220 0
0.053683 0.226841 0.059517 255 220 0
0.091914 0.148240 0.070677 255 220 0
0.070985 0.165321 0.109846 255 220 0
0.055369 0.101848 0.096848 255 220 0
0.027041 0.105803 0.051271 255 220 0
0.038708 0.076737 0.060587 255 220 0
0.056780 0.180139 0.028079 255 220 0
0.070289 0.107331 0.029827 255 220 0
0.046715 0.215419 0.107713 255 220 0
0.024376 0.117075 0.054143 255 220 0
0.012973 0.172652 0.085501 255 220 0
0.016512 0.216061 0.076352 255 220 0
0.018417 0.146307 0.083065 255 220 0
0.034615 0.067415 0.033913 255 220 0
0.091179 0.143325 0.075657 255 220 0
0.020359 0.219406 0.065674 255 220 0
0.039538 0.063316 0.042435 255 220 0
0.010756 0.184116 0.067065 255 220 0
0.086729 0.116821 0.054925 255 220 0
0.037369 0.216764 0.045032 255 220 0
0.011952 0.203219 0.072100 255 220 0
0.025088 0.212308 0.049112 255 220 0
0.071366 0.160982 0.032807 255 220 0
0.080699 0.091206 0.058787 255 220 0
0.025428 0.112478 0.054937 255 220 0
0.013932 0.178203 0.091449 255 220 0
0.040654 0.097213 0.022462 255 220 0
0.049755 0.074010 0.069070 255 220 0
0.033015 0.179587 0.028915 255 220 0
0.063877 0.225696 0.073765 255 220 0
0.040593 0.085544 0.072520 255 220 0
0.032416 0.130369 0.029138 255 220 0
0.056749 0.154419 0.023577 255 220 0
0.031433 0.112821 0.032312 255 220 0
0.045187 0.174433 0.024901 255 220 0
0.070749 0.199527 0.101609 255 220 0
0.056729 0.226267 0.061362 255 220 0
0.052036 0.225630 0.056431 255 220 0
0.017385 0.148762 0.081363 255 220 0
0.075681 0.151914 0.035955 255 220 0
0.036435 0.154287 0.111307 255 220 0
0.059697 0.154754 0.024635 255 220 0
0.016896 0.194764 0.049620 255 220 0
0.082076 0.100819 0.049128 255 220 0
0.018315 0.140794 0.071007 255 220 0
0.016082 0.212601 0.087353 255 220 0
0.047320 0.108963 0.098544 255 220 0
0.048670 0.234826 0.074484 255 220 0
0.081194 0.189588 0.053699 255 220 0
0.018419 0.212763 0.060181 255 220 0
0.087299 0.118240 0.076847 255 220 0
0.010862 0.178816 0.072108 255 220 0
0.063461 0.222831 0.064626 255 220 0
0.074676 0.206977 0.091578 255 220 0
0.070115 0.143531 0.108699 255 220 0
0.031402 0.110265 0.082364 255 220 0
0.034267 0.120523 0.094518 255 220 0
0.076775 0.103196 0.037432 255 220 0
0.023029 0.214622 0.098619 255 220 0
0.033340 0.215394 0.045379 255 220 0
0.046104 0.220875 0.048394 255 220 0
0.090888 0.135321 0.067060 255 220 0
0.073144 0.213119 0.086239 255 220 0
0.012948 0.173006 0.085658 255 220 0
0.033659 0.073507 0.028846 255 220 0
0.022791 0.172229 0.103720 255 220 0
0.051431 0.206722 0.038646 255 220 0
0.018310 0.140202 0.060530 255 220 0
0.081357 0.129722 0.094119 255 220 0
0.040237 0.074962 0.061144 255 220 0
0.086464 0.167913 0.092085 255 220 0
0.024131 0.121048 0.069882 255 220 0
0.069365 0.114463 0.100550 255 220 0
0.053560 0.225559 0.057361 255 220 0
0.040120 0.158766 0.023365 255 220 0
0.070113 0.189091 0.106253 255 220 0
0.041522 0.206887 0.111078 255 220 0
0.068790 0.145263 0.029445 255 220 0
0.091010 0.136177 0.068314 255 220 0
0.040662 0.192358 0.113592 255 220 0
0.054974 0.124338 0.109142 255 220 0
0.027106 0.222279 0.057814 255 220 0
0.076826 0.154543 0.104987 255 220 0
0.088994 0.120521 0.069731 255 220 0
0.060614 0.220530 0.057056 255 220 0
0.079868 0.100595 0.078590 255 220 0
0.049214 0.104341 0.021314 255 220 0
0.037831 0.105994 0.088411 255 220 0
0.027360 0.108675 0.044226 255 220 0
0.087375 0.177586 0.059588 255 220 0
0.071569 0.077682 0.039627 255 220 0
0.028805 0.098697 0.053650 255 220 0
0.071885 0.112803 0.031200 255 220 0
0.060882 0.160315 0.114356 255 220 0
0.027479 0.169428 0.107759 255 220 0
0.076880 0.204291 0.090308 255 220 0
0.011012 0.192402 0.066391 255 220 0
0.089910 0.126285 0.066687 255 220 0
0.081765 0.131973 0.094346 255 220 0
0.077959 0.207419 0.079922 255 220 0
0.013514 0.162724 0.063208 255 220 0
0.072677 0.142708 0.106771 255 220 0
0.025582 0.117603 0.045973 255 220 0
0.033180 0.147327 0.026601 255 220 0
0.020776 0.132254 0.054712 255 220 0
0.047902 0.115264 0.102765 255 220 0
0.073894 0.201813 0.051971 255 220 0
0.052494 0.122392 0.108029 255 220 0
0.011653 0.173464 0.074384 255 220 0
0.087054 0.180982 0.084888 255 220 0
0.075362 0.190179 0.045151 255 220 0
0.088859 0.180071 0.068787 255 220 0
0.028298 0.189683 0.034348 255 220 0
0.080023 0.198678 0.089440 255 220 0
0.055148 0.111575 0.103129 255 220 0
0.032547 0.135280 0.028378 255 220 0
0.034845 0.174114 0.112995 255 220 0
0.027741 0.181790 0.109350 255 220 0
0.026133 0.156062 0.032671 255 220 0
0.027993 0.224708 0.060661 255 220 0
0.063601 0.182983 0.032267 255 220 0
0.030331 0.104806 0.034761 255 220 0
0.038039 0.083174 0.066071 255 220 0
0.073989 0.213647 0.076032 255 220 0
0.090526 0.162754 0.062800 255 220 0
0.055268 0.077202 0.075295 255 220 0
0.027114 0.199921 0.108334 255 220 0
0.088247 0.175769 0.061203 255 220 0
0.048395 0.213641 0.042698 255 220 0
0.029487 0.128251 0.032880 255 220 0
0.041546 0.067711 0.023850 255 220 0
0.071636 0.168859 0.034378 255 220 0
0.050800 0.062165 0.030334 255 220 0
0.028704 0.098180 0.048253 255 220 0
0.020494 0.187490 0.103505 255 220 0
0.070224 0.145413 0.030554 255 220 0
0.034905 0.141416 0.105733 255 220 0
0.047981 0.135527 0.111451 255 220 0
0.048494 0.072076 0.066034 255 220 0
0.030107 0.090796 0.045918 255 220 0
0.048052 0.125460 0.107951 255 220 0
0.027738 0.164200 0.106927 255 220 0
0.034564 0.232539 0.088769 255 220 0
0.046200 0.062575 0.028608 255 220 0
0.011382 0.197849 0.068290 255 220 0
0.041225 0.096954 0.022162 255 220 0
0.079875 0.196764 0.058119 255 220 0
0.055510 0.176623 0.026710 255 220 0
0.087726 0.177786 0.084892 255 220 0
0.033567 0.132599 0.027858 255 220 0
0.035076 0.080818 0.025141 255 220 0
0.054104 0.142458 0.022819 255 220 0
0.067342 0.108275 0.027446 255 220 0
0.030962 0.122672 0.091680 255 220 0
0.010822 0.195244 0.083349 255 220 0
0.012827 0.170301 0.081848 255 220 0
0.043774 0.150301 0.022335 255 220 0
0.035346 0.161337 0.112142 255 220 0
0.010236 0.193889 0.075717 255 220 0
0.053256 0.113455 0.022138 255 220 0
0.083351 0.125814 0.089668 255 220 0
0.014432 0.163571 0.084132 255 220 0
0.048591 0.129643 0.109791 255 220 0
0.024115 0.169386 0.034788 255 220 0
0.070074 0.146568 0.109156 255 220 0
0.061959 0.176010 0.029184 255 220 0
0.025697 0.116238 0.069511 255 220 0
0.029157 0.197726 0.109769 255 220 0
0.071659 0.199586 0.100666 255 220 0
0.028937 0.146864 0.030393 255 220 0
0.031712 0.091428 0.057858 255 220 0
0.059622 0.066612 0.062724 255 220 0
0.073525 0.129394 0.102791 255 220 0
0.079432 0.204908 0.077477 255 220 0
0.082393 0.180483 0.050316 255 220 0
0.063414 0.176529 0.030134 255 220 0
0.055986 0.140564 0.113142 255 220 0
0.040834 0.178317 0.026149 255 220 0
0.062027 0.076055 0.026328 255 220 0
0.083479 0.158402 0.097584 255 220 0
0.043979 0.169104 0.023965 255 220 0
0.029978 0.207078 0.108063 255 220 0
0.031619 0.099305 0.069106 255 220 0
0.059918 0.226859 0.090466 255 220 0
0.056855 0.142860 0.113334 255 220 0
0.085447 0.171121 0.052075 255 220 0
0.084791 0.193902 0.073646 255 220 0
0.057467 0.231734 0.079027 255 220 0
0.044597 0.224245 0.051832 255 220 0
0.081631 0.098657 0.072770 255 220 0
0.083901 0.100194 0.064492 255 220 0
0.064800 0.168244 0.029012 255 220 0
0.019491 0.168940 0.041609 255 220 0
0.027838 0.102191 0.051491 255 220 0
0.088378 0.146682 0.086746 255 220 0
0.033702 0.112420 0.088246 255 220 0
0.040580 0.228333 0.058090 255 220 0
0.035269 0.069086 0.028979 255 220 0
0.045705 0.166690 0.023477 255 220 0
0.083345 0.099325 0.056827 255 220 0
0.026348 0.124336 0.084701 255 220 0
0.089068 0.174407 0.063400 255 220 0
0.091090 0.168413 0.072638 255 220 0
0.090665 0.134992 0.073601 255 220 0
0.033066 0.223012 0.100526 255 220 0
0.024055 0.198376 0.041490 255 220 0
0.068956 0.075525 0.036092 255 220 0
0.057054 0.161611 0.115333 255 220 0
0.088152 0.152930 0.088570 255 220 0
0.077362 0.206967 0.085270 255 220 0
0.033136 0.098798 0.029180 255 220 0
0.036872 0.101641 0.025438 255 220 0
0.075375 0.169873 0.038138 255 220 0
0.064799 0.197069 0.107385 255 220 0
0.046926 0.199743 0.033245 255 220 0
0.050050 0.174381 0.116130 255 220 0
0.074268 0.154643 0.107196 255 220 0
0.028614 0.098672 0.050233 255 220 0
0.049730 0.207482 0.110357 255 220 0
0.073001 0.078098 0.063035 255 220 0
0.083135 0.106977 0.078056 255 220 0
0.075626 0.083280 0.044677 255 220 0
0.067976 0.171329 0.111271 255 220 0
0.019719 0.192394 0.044215 255 220 0
0.022079 0.161704 0.099522 255 220 0
0.037401 0.223692 0.101725 255 220 0
0.069120 0.197369 0.043279 255 220 0
0.015532 0.161903 0.087060 255 220 0
0.049073 0.150189 0.022115 255 220 0
0.081366 0.128362 0.041758 255 220 0
0.075484 0.211378 0.076338 255 220 0
0.026366 0.110677 0.048146 255 220 0
0.042386 0.176376 0.025512 255 220 0
0.081290 0.185957 0.095243 255 220 0
0.048766 0.145774 0.113618 255 220 0
0.055389 0.071783 0.069362 255 220 0
0.043448 0.193709 0.030275 255 220 0
0.074427 0.108523 0.033950 255 220 0
0.080890 0.104412 0.080171 255 220 0
0.081606 0.160430 0.100211 255 220 0
0.064459 0.209360 0.102220 255 220 0
0.075759 0.171501 0.105667 255 220 0
0.044752 0.129350 0.023054 255 220 0
0.032819 0.225352 0.098186 255 220 0
0.075675 0.082001 0.047083 255 220 0
0.039879 0.091433 0.077577 255 220 0
0.073323 0.210517 0.062601 255 220 0
0.053562 0.061545 0.033857 255 220 0
0.036766 0.208110 0.110091 255 220 0
0.040377 0.083387 0.069982 255 220 0
0.019152 0.154876 0.091399 255 220 0
0.065901 0.075188 0.031382 255 220 0
0.029746 0.216907 0.048916 255 220 0
0.046190 0.234896 0.086380 255 220 0
0.081298 0.099303 0.047753 255 220 0
0.051058 0.070412 0.065732 255 220 0
0.021325 0.128971 0.067480 255 220 0
0.046673 0.110083 0.098892 255 220 0
0.065455 0.177363 0.111866 255 220 0
0.028519 0.164025 0.030050 255 220 0
0.067021 0.091300 0.027739 255 220 0
0.024352 0.199993 0.041972 255 220 0
0.068017 0.211385 0.054574 255 220 0
0.090300 0.131179 0.073179 255 220 0
0.043242 0.102978 0.022250 255 220 0
0.019995 0.139714 0.050962 255 220 0
0.046162 0.195048 0.113519 255 220 0
0.020550 0.130853 0.060840 255 220 0
0.057595 0.061927 0.053267 255 220 0
0.015541 0.158079 0.083683 255 220 0
0.066713 0.150207 0.111388 255 220 0
0.034826 0.085185 0.060873 255 220 0
0.079860 0.196949 0.091229 255 220 0
0.037370 0.097176 0.079877 255 220 0
0.038771 0.186549 0.028535 255 220 0
0.036120 0.190313 0.030339 255 220 0
0.013290 0.183480 0.091441 255 220 0
0.021605 0.170640 0.101917 255 220 0
0.059997 0.120251 0.107314 255 220 0
0.029066 0.146404 0.030310 255 220 0
0.063084 0.075352 0.073648 255 220 0
0.073692 0.213634 0.072973 255 220 0
0.030496 0.227777 0.063364 255 220 0
0.033895 0.123181 0.028690 255 220 0
0.037492 0.103252 0.085701 255 220 0
0.080439 0.129785 0.095361 255 220 0
0.089806 0.175683 0.075518 255 220 0
0.044528 0.061517 0.045984 255 220 0
0.043998 0.060464 0.039279 255 220 0
0.013138 0.204709 0.067119 255 220 0
0.078008 0.126639 0.037519 255 220 0
0.023077 0.183258 0.105789 255 220 0
0.037162 0.099590 0.024945 255 220 0
0.083899 0.147489 0.095478 255 220 0
0.084775 0.191699 0.083310 255 220 0
0.039848 0.196751 0.112927 255 220 0
0.079218 0.092854 0.046185 255 220 0
0.018867 0.158312 0.044899 255 220 0
0.088402 0.151229 0.053937 255 220 0
0.079391 0.092673 0.046927 255 220 0
0.036211 0.118746 0.095605 255 220 0
0.027223 0.110435 0.066788 255 220 0
0.037824 0.093384 0.076716 255 220 0
0.045325 0.110042 0.097986 255 220 0
0.055463 0.113294 0.104122 255 220 0
0.027611 0.227228 0.090158 255 220 0
0.058245 0.148937 0.113759 255 220 0
0.058284 0.221346 0.098939 255 220 0
0.011701 0.179118 0.062264 255 220 0
0.040305 0.070579 0.056659 255 220 0
0.090930 0.148336 0.079171 255 220 0
0.046126 0.131762 0.109595 255 220 0
0.029011 0.096800 0.045451 255 220 0
0.077173 0.152836 0.037559 255 220 0
0.075012 0.211902 0.081674 255 220 0
0.010358 0.184339 0.074153 255 220 0
0.091290 0.142048 0.073947 255 220 0
0.037429 0.140528 0.024609 255 220 0
0.040227 0.136228 0.107893 255 220 0
0.042823 0.149920 0.022481 255 220 0
0.091417 0.165446 0.071190 255 220 0
0.057329 0.100827 0.096391 255 220 0
0.048047 0.208691 0.110245 255 220 0
0.069850 0.193671 0.104892 255 220 0
0.085558 0.152717 0.048461 255 220 0
0.075907 0.096408 0.037432 255 220 0
0.039470 0.091848 0.022271 255 220 0
0.052215 0.230659 0.065571 255 220 0
0.073351 0.145788 0.106789 255 220 0
0.090877 0.153696 0.080682 255 220 0
0.069025 0.072313 0.040830 255 220 0
0.042503 0.178334 0.115239 255 220 0
0.051579 0.072831 0.020611 255 220 0
0.028033 0.110356 0.040476 255 220 0
0.050927 0.178968 0.026288 255 220 0
0.032231 0.165427 0.110814 255 220 0
0.029194 0.108685 0.073735 255 220 0
0.079439 0.131317 0.039227 255 220 0
0.017148 0.174766 0.045776 255 220 0
0.026754 0.227417 0.068159 255 220 0
0.014801 0.165228 0.087062 255 220 0
0.041890 0.113387 0.023730 255 220 0
0.031219 0.124502 0.031326 255 220 0
0.085185 0.172569 0.052090 255 220 0
0.032224 0.076459 0.042530 255 220 0
0.076889 0.084177 0.063267 255 220 0
0.082294 0.131753 0.093532 255 220 0
0.089980 0.144555 0.058321 255 220 0
0.029002 0.206326 0.107798 255 220 0
0.070731 0.180078 0.108154 255 220 0
0.054287 0.218911 0.049797 255 220 0
0.070914 0.211330 0.058811 255 220 0
0.070089 0.158597 0.110338 255 220 0
0.028420 0.212785 0.104748 255 220 0
0.089430 0.171182 0.082870 255 220 0
0.048701 0.168183 0.023745 255 220 0
0.084858 0.132388 0.047038 255 220 0
0.057975 0.158122 0.114830 255 220 0
0.043643 0.108390 0.022718 255 220 0
0.064641 0.067597 0.037678 255 220 0
0.066201 0.068279 0.041327 255 220 0
0.032917 0.081750 0.050519 255 220 0
0.015728 0.212666 0.085909 255 220 0
0.025577 0.224873 0.090648 255 220 0
0.080788 0.175095 0.045768 255 220 0
0.012752 0.206425 0.072853 255 220 0
0.025295 0.206719 0.105182 255 220 0
0.021061 0.218235 0.061808 255 220 0
0.069771 0.189400 0.106414 255 220 0
0.014960 0.206904 0.062728 255 220 0
0.033032 0.215857 0.045913 255 220 0
0.059173 0.080757 0.079653 255 220 0
0.078997 0.152871 0.039575 255 220 0
0.015721 0.154727 0.079970 255 220 0
0.054443 0.211636 0.043522 255 220 0
0.081948 0.129893 0.042558 255 220 0
0.038711 0.091624 0.022704 255 220 0
0.067118 0.148099 0.028344 255 220 0
0.052353 0.188941 0.114005 255 220 0
0.055469 0.194045 0.032796 255 220 0
0.084900 0.169903 0.050651 255 220 0
0.012603 0.205976 0.082647 255 220 0
0.016738 0.205238 0.056306 255 220 0
0.081031 0.144186 0.098716 255 220 0
0.013005 0.181280 0.090125 255 220 0
0.046283 0.076477 0.069130 255 220 0
0.042205 0.083043 0.019881 255 220 0
0.020602 0.156781 0.095040 255 220 0
0.066795 0.083640 0.028830 255 220 0
0.077554 0.207674 0.082468 255 220 0
0.043767 0.142862 0.022543 255 220 0
0.023539 0.197764 0.041745 255 220 0
0.068990 0.176240 0.033896 255 220 0
0.088197 0.156909 0.088940 255 220 0
0.087411 0.153892 0.090304 255 220 0
0.015813 0.194897 0.097011 255 220 0
0.037761 0.125140 0.025724 255 220 0
0.067523 0.222059 0.075371 255 220 0
0.014959 0.192524 0.095679 255 220 0
0.010309 0.185006 0.073773 255 220 0
0.019527 0.196919 0.046238 255 220 0
0.038946 0.228967 0.096996 255 220 0
0.088589 0.174084 0.084316 255 220 0
0.064471 0.210132 0.101750 255 220 0
0.010712 0.184663 0.067280 255 220 0
0.026651 0.112743 0.068022 255 220 0
0.044963 0.071849 0.063008 255 220 0
0.070420 0.154386 0.031246 255 220 0
0.041505 0.146034 0.022846 255 220 0
0.072887 0.100493 0.088280 255 220 0
0.044565 0.182940 0.026908 255 220 0
0.050248 0.156851 0.115360 255 220 0
0.024409 0.131039 0.086102 255 220 0
0.038995 0.130883 0.024684 255 220 0
0.041918 0.112627 0.097102 255 220 0
0.080116 0.103684 0.080892 255 220 0
0.087810 0.140776 0.086513 255 220 0
0.041990 0.150597 0.112989 255 220 0
0.013500 0.209474 0.078710 255 220 0
0.086245 0.144528 0.090829 255 220 0
0.022111 0.190105 0.105350 255 220 0
0.010430 0.183497 0.072556 255 220 0
0.076693 0.176622 0.103893 255 220 0
0.089410 0.168179 0.084437 255 220 0
0.065762 0.075036 0.071651 255 220 0
0.045174 0.062584 0.028790 255 220 0
0.039955 0.159383 0.023452 255 220 0
0.041298 0.089545 0.077397 255 220 0
0.018991 0.219444 0.083065 255 220 0
0.012535 0.184461 0.057964 255 220 0
0.031111 0.117207 0.088040 255 220 0
0.085673 0.117929 0.081176 255 220 0
0.012197 0.196352 0.088835 255 220 0
0.079476 0.131142 0.097029 255 220 0
0.060134 0.134260 0.024474 255 220 0
0.084712 0.112977 0.050300 255 220 0
0.015551 0.151515 0.067544 255 220 0
0.011988 0.197734 0.087674 255 220 0
0.091272 0.155110 0.079043 255 220 0
0.022138 0.127270 0.070207 255 220 0
0.045303 0.145823 0.022243 255 220 0
0.041363 0.195383 0.031068 255 220 0
0.034540 0.092710 0.069426 255 220 0
0.086821 0.184572 0.063863 255 220 0
0.018224 0.146759 0.052703 255 220 0
0.037260 0.196806 0.032440 255 220 0
0.026603 0.108978 0.048699 255 220 0
0.069921 0.155851 0.110261 255 220 0
0.066103 0.074493 0.032148 255 220 0
0.065686 0.223240 0.084917 255 220 0
0.061175 0.228292 0.083724 255 220 0
0.027780 0.117452 0.081246 255 220 0
0.026709 0.206237 0.043288 255 220 0
0.032734 0.232833 0.085261 255 220 0
0.081783 0.106923 0.080711 255 220 0
0.019278 0.189049 0.043833 255 220 0
0.076813 0.149125 0.036911 255 220 0
0.089513 0.177532 0.070452 255 220 0
0.071953 0.081932 0.072320 255 220 0
0.084162 0.114495 0.048396 255 220 0
0.017261 0.148265 0.055884 255 220 0
0.036986 0.084299 0.065236 255 220 0
0.052668 0.224704 0.099608 255 220 0
0.077783 0.146633 0.037801 255 220 0
0.074647 0.130864 0.102181 255 220 0
0.087823 0.137160 0.052675 255 220 0
0.027960 0.129101 0.035026 255 220 0
0.056209 0.232227 0.075842 255 220 0
0.051716 0.225455 0.099339 255 220 0
0.076756 0.189081 0.099979 255 220 0
0.074941 0.111409 0.034377 255 220 0
0.060027 0.220846 0.056839 255 220 0
0.024308 0.196572 0.040417 255 220 0
0.024890 0.196401 0.107427 255 220 0
0.052236 0.117700 0.022318 255 220 0
0.059010 0.082752 0.081494 255 220 0
0.031406 0.193507 0.033547 255 220 0
0.090276 0.153579 0.082887 255 220 0
0.049244 0.141941 0.113083 255 220 0
0.045128 0.085803 0.019409 255 220 0
0.079926 0.148428 0.040356 255 220 0
0.016706 0.204366 0.055665 255 220 0
0.034033 0.147654 0.107516 255 220 0
0.050114 0.174715 0.025156 255 220 0
0.062222 0.065811 0.035659 255 220 0
0.042778 0.146479 0.022559 255 220 0
0.043968 0.063972 0.051320 255 220 0
0.086995 0.176654 0.057957 255 220 0
0.077342 0.196457 0.095578 255 220 0
0.025242 0.144911 0.035567 255 220 0
0.078101 0.153024 0.103589 255 220 0
0.074079 0.084907 0.038948 255 220 0
0.026564 0.110810 0.046747 255 220 0
0.046095 0.076045 0.068513 255 220 0
0.010496 0.182969 0.075168 255 220 0
0.010790 0.180932 0.068693 255 220 0
0.041471 0.080265 0.068161 255 220 0
0.084850 0.183883 0.057291 255 220 0
0.088443 0.182247 0.069667 255 220 0
0.032713 0.199993 0.035769 255 220 0
0.085294 0.174772 0.053167 255 220 0
0.023002 0.193334 0.040512 255 220 0
0.028981 0.211982 0.045386 255 220 0
0.020001 0.179816 0.101973 255 220 0
0.081379 0.116701 0.042554 255 220 0
0.029145 0.095936 0.046498 255 220 0
0.060428 0.223087 0.095038 255 220 0
0.019436 0.143627 0.083919 255 220 0
0.036272 0.109776 0.089568 255 220 0
0.078372 0.110871 0.088926 255 220 0
0.031217 0.082648 0.035104 255 220 0
0.035644 0.104091 0.026785 255 220 0
0.010396 0.189399 0.069967 255 220 0
0.066904 0.112301 0.101121 255 220 0
0.028073 0.103861 0.044018 255 220 0
0.024733 0.209276 0.103620 255 220 0
0.048244 0.191806 0.029871 255 220 0
0.042597 0.076073 0.065171 255 220 0
0.074338 0.154981 0.107171 255 220 0
0.053871 0.161198 0.115740 255 220 0
0.036767 0.081144 0.023194 255 220 0
0.012267 0.168942 0.066646 255 220 0
0.091998 0.150314 0.070771 255 220 0
0.075682 0.199083 0.051964 255 220 0
0.018065 0.143106 0.075022 255 220 0
0.061807 0.081740 0.080427 255 220 0
0.014680 0.157642 0.060927 255 220 0
0.019344 0.144463 0.084461 255 220 0
0.040855 0.231735 0.093661 255 220 0
0.066225 0.164786 0.029323 255 220 0
0.050103 0.100829 0.020932 255 220 0
0.019506 0.206927 0.052322 255 220 0
0.029293 0.225177 0.059877 255 220 0
0.073796 0.099390 0.086357 255 220 0
0.043740 0.060691 0.040744 255 220 0
0.036560 0.069626 0.048924 255 220 0
0.032666 0.072078 0.039362 255 220 0
0.059999 0.064267 0.057712 255 220 0
0.079288 0.092431 0.070755 255 220 0
0.027537 0.129490 0.090950 255 220 0
0.024943 0.148548 0.035289 255 220 0
0.085802 0.106314 0.065606 255 220 0
0.030914 0.146621 0.104103 255 220 0
0.018914 0.137078 0.064617 255 220 0
0.041102 0.109806 0.023810 255 220 0
0.049851 0.150752 0.022165 255 220 0
0.024620 0.116017 0.059929 255 220 0
0.037897 0.110031 0.091591 255 220 0
0.037932 0.220065 0.047816 255 220 0
0.027251 0.161821 0.031223 255 220 0
0.051703 0.097879 0.092606 255 220 0
0.086019 0.137997 0.089435 255 220 0
0.030171 0.092903 0.051991 255 220 0
0.013484 0.209264 0.080344 255 220 0
0.020517 0.214928 0.094775 255 220 0
0.042726 0.156156 0.114284 255 220 0
0.053831 0.096678 0.020876 255 220 0
0.083341 0.111557 0.047370 255 220 0
0.015781 0.203632 0.094599 255 220 0
0.010673 0.184750 0.067594 255 220 0
0.030277 0.090782 0.038358 255 220 0
0.037592 0.200923 0.034404 255 220 0
0.073106 0.132519 0.032542 255 220 0
0.071407 0.094314 0.031803 255 220 0
0.033954 0.233466 0.084859 255 220 0
0.032197 0.093400 0.062629 255 220 0
0.020881 0.209147 0.051923 255 220 0
0.079868 0.128024 0.095460 255 220 0
0.029164 0.098140 0.055487 255 220 0
0.055691 0.100977 0.096272 255 220 0
0.024789 0.117700 0.049718 255 220 0
0.084643 0.111097 0.050935 255 220 0
0.037408 0.205780 0.037312 255 220 0
0.041483 0.128950 0.105744 255 220 0
0.063199 0.119990 0.025284 255 220 0
0.084892 0.134865 0.090509 255 220 0
0.082765 0.096850 0.063442 255 220 0
0.035406 0.128567 0.026923 255 220 0
0.022582 0.123368 0.058520 255 220 0
0.042252 0.150221 0.112996 255 220 0
0.084818 0.168965 0.094928 255 220 0
0.064908 0.084129 0.081524 255 220 0
0.031655 0.184384 0.030694 255 220 0
0.051920 0.060599 0.035597 255 220 0
0.014934 0.177028 0.050822 255 220 0
0.020329 0.187907 0.042049 255 220 0
0.018582 0.166553 0.043648 255 220 0
0.016595 0.213271 0.088002 255 220 0
0.029266 0.177667 0.110074 255 220 0
0.018919 0.163118 0.095150 255 220 0
0.086771 0.110108 0.067656 255 220 0
0.074003 0.130507 0.033294 255 220 0
0.053437 0.086792 0.020026 255 220 0
0.074227 0.171279 0.037285 255 220 0
0.080316 0.100133 0.077332 255 220 0
0.067768 0.199786 0.104186 255 220 0
0.065903 0.220509 0.064688 255 220 0
0.081231 0.093421 0.064874 255 220 0
0.032107 0.125453 0.094874 255 220 0
0.017039 0.152935 0.052981 255 220 0
0.080719 0.116781 0.089199 255 220 0
0.058104 0.227979 0.091294 255 220 0
0.024434 0.177874 0.035213 255 220 0
0.072077 0.172847 0.035636 255 220 0
0.046021 0.210494 0.039919 255 220 0
0.038743 0.145832 0.023690 255 220 0
0.057971 0.223324 0.097335 255 220 0
0.071617 0.149457 0.031940 255 220 0
0.074504 0.212917 0.079717 255 220 0
0.055074 0.083693 0.020482 255 220 0
0.029270 0.158537 0.029300 255 220 0
0.043364 0.186634 0.114544 255 220 0
0.030175 0.107977 0.076412 255 220 0
0.034794 0.118129 0.028238 255 220 0
0.025994 0.201533 0.041215 255 220 0
0.029342 0.095216 0.049262 255 220 0
0.084846 0.191543 0.066611 255 220 0
0.062870 0.135754 0.025618 255 220 0
0.050191 0.216462 0.045542 255 220 0
0.025047 0.182309 0.107410 255 220 0
0.048795 0.060070 0.045887 255 220 0
0.019067 0.143279 0.051930 255 220 0
0.046140 0.235415 0.075609 255 220 0
0.043570 0.060568 0.037379 255 220 0
0.090086 0.146707 0.081911 255 220 0
0.016313 0.186318 0.048211 255 220 0
0.063316 0.167029 0.113745 255 220 0
0.043346 0.069449 0.058767 255 220 0
0.061076 0.170991 0.027521 255 220 0
0.026527 0.132834 0.036535 255 220 0
0.013734 0.187302 0.054485 255 220 0
0.020819 0.187522 0.103871 255 220 0
0.032412 0.218866 0.048981 255 220 0
0.034022 0.175295 0.112632 255 220 0
0.034294 0.182802 0.112752 255 220 0
0.013614 0.187505 0.092779 255 220 0
0.020954 0.173222 0.101776 255 220 0
0.031673 0.204315 0.109611 255 220 0
0.028122 0.108444 0.068112 255 220 0
0.047790 0.063907 0.054450 255 220 0
0.024873 0.117252 0.066023 255 220 0
0.034056 0.222227 0.051680 255 220 0
0.036269 0.065280 0.034600 255 220 0
0.076369 0.131339 0.100593 255 220 0
0.053202 0.234042 0.080707 255 220 0
0.054225 0.181809 0.027772 255 220 0
0.037167 0.162891 0.024626 255 220 0
0.086354 0.145183 0.049430 255 220 0
0.036239 0.127738 0.026448 255 220 0
0.045129 0.107508 0.022219 255 220 0
0.027312 0.104510 0.051710 255 220 0
0.081316 0.095269 0.051723 255 220 0
0.017947 0.143120 0.073699 255 220 0
0.016311 0.188811 0.097925 255 220 0
0.019099 0.136524 0.066056 255 220 0
0.059253 0.130078 0.110727 255 220 0
0.026488 0.115067 0.043968 255 220 0
0.026958 0.107535 0.059260 255 220 0
0.033439 0.127994 0.097816 255 220 0
0.079169 0.103353 0.041241 255 220 0
0.077921 0.204703 0.065903 255 220 0
0.032969 0.175706 0.028203 255 220 0
0.016506 0.149305 0.074652 255 220 0
0.076264 0.097389 0.081458 255 220 0
0.068204 0.096551 0.089718 255 220 0
0.019360 0.146146 0.086016 255 220 0
0.066067 0.178198 0.032298 255 220 0
0.058904 0.173739 0.114839 255 220 0
0.069204 0.148694 0.109951 255 220 0
0.073133 0.180137 0.106297 255 220 0
0.029259 0.112136 0.079062 255 220 0
0.024126 0.211458 0.049512 255 220 0
0.031436 0.103102 0.073858 255 220 0
0.072418 0.213585 0.066547 255 220 0
0.024252 0.161423 0.034689 255 220 0
0.083671 0.153748 0.096870 255 220 0
0.054637 0.186619 0.114021 255 220 0
0.051243 0.096188 0.090995 255 220 0
0.084679 0.119339 0.084108 255 220 0
0.024393 0.116561 0.056805 255 220 0
0.065509 0.164453 0.028787 255 220 0
0.037928 0.106401 0.025236 255 220 0
0.012100 0.186111 0.088689 255 220 0
0.073149 0.079193 0.042156 255 220 0
0.047143 0.202275 0.034726 255 220 0
0.023364 0.135546 0.042594 255 220 0
0.041265 0.103525 0.089917 255 220 0
0.058878 0.061336 0.045422 255 220 0
0.068046 0.071195 0.040017 255 220 0
0.047166 0.234009 0.088775 255 220 0
0.076281 0.191031 0.046722 255 220 0
0.047295 0.168086 0.116238 255 220 0
0.023426 0.134492 0.042943 255 220 0
0.012128 0.175010 0.082567 255 220 0
0.010976 0.186673 0.084146 255 220 0
0.018904 0.176057 0.042489 255 220 0
0.014972 0.212817 0.075185 255 220 0
0.046465 0.119239 0.022701 255 220 0
0.072478 0.183792 0.039321 255 220 0
0.086929 0.150500 0.090771 255 220 0
0.022220 0.224481 0.073652 255 220 0
0.090808 0.170311 0.071765 255 220 0
0.037009 0.137300 0.025117 255 220 0
0.061581 0.193522 0.035565 255 220 0
0.078279 0.087296 0.049467 255 220 0
0.034995 0.072541 0.048409 255 220 0
0.018565 0.151172 0.048726 255 220 0
0.087686 0.156638 0.090041 255 220 0
0.064563 0.068901 0.035202 255 220 0
0.083894 0.117648 0.084577 255 220 0
0.054680 0.152428 0.022936 255 220 0
0.041280 0.142984 0.110805 255 220 0
0.068287 0.170533 0.111166 255 220 0
0.066171 0.107500 0.026637 255 220 0
0.078589 0.201819 0.062227 255 220 0
0.056467 0.227324 0.094132 255 220 0
0.076985 0.129900 0.099496 255 220 0
0.086098 0.182808 0.059696 255 220 0
0.018532 0.141774 0.076189 255 220 0
0.038380 0.188346 0.029129 255 220 0
0.054685 0.150702 0.022889 255 220 0
0.071690 0.156238 0.109198 255 220 0
0.050239 0.085238 0.080773 255 220 0
0.036725 0.150331 0.110403 255 220 0
0.083831 0.170462 0.048990 255 220 0
0.083184 0.116720 0.085271 255 220 0
0.061722 0.093875 0.090824 255 220 0
0.016635 0.149426 0.076586 255 220 0
0.059023 0.211716 0.104976 255 220 0
0.074885 0.205099 0.057541 255 220 0
0.072178 0.169077 0.108791 255 220 0
0.085498 0.122460 0.084259 255 220 0
0.086730 0.157416 0.092064 255 220 0
0.031148 0.221086 0.101007 255 220 0
0.048353 0.059769 0.037642 255 220 0
0.066686 0.072506 0.066719 255 220 0
0.062495 0.064757 0.039314 255 220 0
0.018656 0.139712 0.071676 255 220 0
0.019026 0.178661 0.042425 255 220 0
0.019641 0.199259 0.047212 255 220 0
0.051701 0.234605 0.079040 255 220 0
0.023080 0.219626 0.093820 255 220 0
0.038666 0.064121 0.031146 255 220 0
0.078885 0.194656 0.053481 255 220 0
0.040005 0.155015 0.113195 255 220 0
0.086754 0.110044 0.067683 255 220 0
0.045656 0.173804 0.024754 255 220 0
0.031238 0.225471 0.096923 255 220 0
0.071301 0.110008 0.030696 255 220 0
0.067322 0.169874 0.111758 255 220 0
0.036256 0.126204 0.026581 255 220 0
0.086788 0.113660 0.074156 255 220 0
0.060109 0.186508 0.031621 255 220 0
0.090641 0.171505 0.072704 255 220 0
0.069617 0.212514 0.058290 255 220 0
0.062233 0.110308 0.102071 255 220 0
0.030213 0.204332 0.039583 255 220 0
0.034982 0.173137 0.026823 255 220 0
0.055194 0.232688 0.075273 255 220 0
0.017112 0.161083 0.048608 255 220 0
0.039162 0.065755 0.048128 255 220 0
0.089561 0.148424 0.084039 255 220 0
0.016127 0.158359 0.052972 255 220 0
0.088802 0.179604 0.067457 255 220 0
0.074294 0.120739 0.033450 255 220 0
0.018686 0.174800 0.042842 255 220 0
0.073465 0.101987 0.088769 255 220 0
0.010663 0.180915 0.071413 255 220 0
0.014614 0.209339 0.067524 255 220 0
0.030677 0.096005 0.060084 255 220 0
0.040809 0.118413 0.099733 255 220 0
0.054888 0.080160 0.078141 255 220 0
0.026612 0.120547 0.040826 255 220 0
0.090325 0.172680 0.075805 255 220 0
0.082193 0.095199 0.062495 255 220 0
0.028214 0.220956 0.098844 255 220 0
0.011494 0.183146 0.062510 255 220 0
0.025732 0.180273 0.107771 255 220 0
0.073009 0.155288 0.033634 255 220 0
0.076436 0.147789 0.104459 255 220 0
0.060511 0.075988 0.024952 255 220 0
0.013682 0.202048 0.061893 255 220 0
0.072015 0.140072 0.031861 255 220 0
0.024847 0.141159 0.037189 255 220 0
0.072562 0.139162 0.106140 255 220 0
0.038034 0.126780 0.025468 255 220 0
0.058703 0.139884 0.024029 255 220 0
0.030881 0.163889 0.028122 255 220 0
0.017060 0.193790 0.099093 255 220 0
0.077740 0.097782 0.079581 255 220 0
0.016907 0.145535 0.066601 255 220 0
0.039935 0.162020 0.114333 255 220 0
0.012136 0.169727 0.072345 255 220 0
0.026678 0.108969 0.060361 255 220 0
0.019440 0.220399 0.072122 255 220 0
0.027211 0.226024 0.064305 255 220 0
0.010383 0.186250 0.070449 255 220 0
0.071902 0.165553 0.033995 255 220 0
0.027412 0.124436 0.037443 255 220 0
0.034800 0.205166 0.037780 255 220 0
0.064716 0.223827 0.069847 255 220 0
0.060187 0.229457 0.082249 255 220 0
0.042715 0.133725 0.023277 255 220 0
0.056896 0.172128 0.026071 255 220 0
0.058274 0.181037 0.114098 255 220 0
0.035670 0.138476 0.025749 255 220 0
0.054934 0.151063 0.114387 255 220 0
0.071396 0.208054 0.095597 255 220 0
0.080848 0.149395 0.100010 255 220 0
0.013951 0.177906 0.091389 255 220 0
0.086881 0.131019 0.051194 255 220 0
0.039239 0.196194 0.112924 255 220 0
0.090856 0.135414 0.066342 255 220 0
0.079428 0.160431 0.040948 255 220 0
0.081261 0.159315 0.100607 255 220 0
0.021915 0.179823 0.038396 255 220 0
0.067472 0.141022 0.109870 255 220 0
0.075132 0.081998 0.044786 255 220 0
0.040033 0.062216 0.035916 255 220 0
0.077947 0.193475 0.096426 255 220 0
0.047065 0.162213 0.022857 255 220 0
0.021229 0.144796 0.044012 255 220 0
0.011535 0.174555 0.075174 255 220 0
0.037738 0.064390 0.032406 255 220 0
0.091607 0.152946 0.076837 255 220 0
0.042808 0.062383 0.030321 255 220 0
0.051942 0.135156 0.112141 255 220 0
0.076858 0.084121 0.048486 255 220 0
0.050853 0.100210 0.094075 255 220 0
0.038489 0.130784 0.024922 255 220 0
0.031450 0.077584 0.038304 255 220 0
0.030733 0.085827 0.038202 255 220 0
0.072117 0.213575 0.065517 255 220 0
0.055143 0.145582 0.022981 255 220 0
