ply
format ascii 1.0
element vertex 1024
property float x
property float y
property float z
property uchar red
property uchar green
property uchar blue
end_header
0.319364 0.164809 0.091577 255 220 0
0.338355 0.118659 0.069907 255 220 0
0.351610 0.128211 0.064298 255 220 0
0.313566 0.229158 0.102705 255 220 0
0.358164 0.171946 0.041051 255 220 0
0.330435 0.157516 0.023945 255 220 0
0.319364 0.183199 0.097097 255 220 0
0.302049 0.163121 0.083327 255 220 0
0.319116 0.125299 0.027857 255 220 0
0.285675 0.143720 0.058993 255 220 0
0.349231 0.146426 0.036164 255 220 0
0.297832 0.094137 0.056339 255 220 0
0.340274 0.172383 0.094118 255 220 0
0.281271 0.212846 0.040482 255 220 0
0.337598 0.232165 0.100870 255 220 0
0.350918 0.234994 0.045755 255 220 0
0.320110 0.171726 0.021916 255 220 0
0.292834 0.097898 0.057804 255 220 0
0.318352 0.257696 0.044307 255 220 0
0.312736 0.140101 0.080624 255 220 0
0.340026 0.255925 0.088273 255 220 0
0.281475 0.236050 0.052943 255 220 0
0.307752 0.094560 0.060055 255 220 0
0.347981 0.152252 0.033176 255 220 0
0.309559 0.145866 0.025318 255 220 0
0.296522 0.244609 0.041358 255 220 0
0.310678 0.270293 0.075961 255 220 0
0.359185 0.185685 0.087453 255 220 0
0.340494 0.259754 0.059259 255 220 0
0.326447 0.138529 0.026204 255 220 0
0.311489 0.230311 0.028210 255 220 0
0.354572 0.174788 0.089705 255 220 0
0.287387 0.146714 0.039621 255 220 0
0.351253 0.126448 0.060584 255 220 0
0.304605 0.162800 0.025134 255 220 0
0.308017 0.130005 0.075788 255 220 0
0.338540 0.205014 0.100853 255 220 0
0.281464 0.239290 0.065078 255 220 0
0.302156 0.176566 0.087662 255 220 0
0.332824 0.268928 0.073630 255 220 0
0.366902 0.187667 0.066973 255 220 0
0.313184 0.100527 0.037673 255 220 0
0.311135 0.200534 0.098401 255 220 0
0.306162 0.124267 0.073361 255 220 0
0.360897 0.206804 0.084548 255 220 0
0.348377 0.179885 0.029761 255 220 0
0.324317 0.250980 0.039821 255 220 0
0.357088 0.227068 0.082371 255 220 0
0.356639 0.154392 0.043347 255 220 0
0.335479 0.267301 0.067551 255 220 0
0.294042 0.100152 0.040805 255 220 0
0.337232 0.237760 0.099935 255 220 0
0.325817 0.154917 0.089707 255 220 0
0.305313 0.096627 0.062779 255 220 0
0.302173 0.234256 0.097396 255 220 0
0.293779 0.134972 0.033481 255 220 0
0.312736 0.219070 0.102161 255 220 0
0.276282 0.213989 0.051963 255 220 0
0.284775 0.231176 0.042963 255 220 0
0.355530 0.165352 0.086451 255 220 0
0.345571 0.240492 0.043276 255 220 0
0.322603 0.271416 0.077246 255 220 0
0.345630 0.178429 0.027934 255 220 0
0.278153 0.228779 0.062345 255 220 0
0.298333 0.159090 0.079399 255 220 0
0.333674 0.217267 0.025885 255 220 0
0.298083 0.130452 0.070905 255 220 0
0.332546 0.166955 0.023361 255 220 0
0.276019 0.196536 0.050731 255 220 0
0.308393 0.180511 0.092045 255 220 0
0.335316 0.146377 0.027213 255 220 0
0.340605 0.214729 0.028104 255 220 0
0.363011 0.197706 0.049002 255 220 0
0.355091 0.222458 0.043802 255 220 0
0.346441 0.229003 0.036938 255 220 0
0.308203 0.224466 0.100866 255 220 0
0.328523 0.266783 0.084316 255 220 0
0.356872 0.219020 0.087295 255 220 0
0.277981 0.177216 0.052740 255 220 0
0.279363 0.231273 0.053717 255 220 0
0.296939 0.251229 0.045790 255 220 0
0.308671 0.137151 0.026485 255 220 0
0.323334 0.217862 0.024201 255 220 0
0.362832 0.174224 0.050053 255 220 0
0.322812 0.113766 0.032708 255 220 0
0.361535 0.206220 0.083445 255 220 0
0.313875 0.250973 0.039398 255 220 0
0.285216 0.126837 0.048770 255 220 0
0.362514 0.193030 0.082371 255 220 0
0.324240 0.120291 0.075374 255 220 0
0.317154 0.095627 0.045168 255 220 0
0.354915 0.188331 0.035623 255 220 0
0.357219 0.215956 0.043800 255 220 0
0.350590 0.239821 0.049841 255 220 0
0.311926 0.175137 0.092127 255 220 0
0.291277 0.156103 0.071767 255 220 0
0.329028 0.207538 0.102516 255 220 0
0.359732 0.148563 0.055334 255 220 0
0.306588 0.205627 0.097301 255 220 0
0.287088 0.200932 0.081975 255 220 0
0.291337 0.224601 0.089377 255 220 0
0.289636 0.170622 0.032401 255 220 0
0.307011 0.211043 0.024347 255 220 0
0.309894 0.103606 0.035118 255 220 0
0.299459 0.213023 0.027019 255 220 0
0.278216 0.176120 0.051631 255 220 0
0.318643 0.153681 0.087410 255 220 0
0.296064 0.123955 0.068213 255 220 0
0.309263 0.169539 0.089172 255 220 0
0.361699 0.203613 0.083466 255 220 0
0.314937 0.220221 0.024630 255 220 0
0.334412 0.252368 0.095203 255 220 0
0.315933 0.150821 0.023877 255 220 0
0.288095 0.251486 0.070490 255 220 0
0.290805 0.246450 0.082213 255 220 0
0.289806 0.184306 0.080047 255 220 0
0.287480 0.226458 0.085007 255 220 0
0.326629 0.254878 0.096033 255 220 0
0.355526 0.192992 0.036376 255 220 0
0.344165 0.256142 0.060233 255 220 0
0.318221 0.252495 0.097455 255 220 0
0.351333 0.232177 0.044191 255 220 0
0.291930 0.146514 0.033872 255 220 0
0.286976 0.136741 0.060432 255 220 0
0.298461 0.154286 0.028370 255 220 0
0.333208 0.161615 0.092177 255 220 0
0.363062 0.159737 0.057024 255 220 0
0.336774 0.207977 0.025157 255 220 0
0.326511 0.239111 0.033070 255 220 0
0.352747 0.177293 0.033774 255 220 0
0.342039 0.259821 0.062684 255 220 0
0.331005 0.124048 0.076375 255 220 0
0.348670 0.151784 0.033893 255 220 0
0.280811 0.231496 0.049527 255 220 0
0.345374 0.254689 0.081537 255 220 0
0.298776 0.175548 0.026227 255 220 0
0.366478 0.184333 0.061187 255 220 0
0.309797 0.188911 0.094995 255 220 0
0.300743 0.122871 0.030769 255 220 0
0.310212 0.262976 0.050599 255 220 0
0.300586 0.149539 0.077880 255 220 0
0.335019 0.148879 0.026601 255 220 0
0.304727 0.110617 0.069457 255 220 0
0.327330 0.187093 0.098854 255 220 0
0.324032 0.193838 0.100160 255 220 0
0.347181 0.142573 0.080998 255 220 0
0.360663 0.163487 0.081190 255 220 0
0.305750 0.227159 0.028452 255 220 0
0.336012 0.262405 0.084608 255 220 0
0.337416 0.149773 0.027390 255 220 0
0.307381 0.169886 0.088408 255 220 0
0.333230 0.126997 0.031780 255 220 0
0.359704 0.175945 0.043115 255 220 0
0.360057 0.205158 0.044537 255 220 0
0.350425 0.185021 0.031166 255 220 0
0.302686 0.178817 0.024617 255 220 0
0.358859 0.145512 0.055817 255 220 0
0.365888 0.167907 0.069409 255 220 0
0.326922 0.246750 0.037643 255 220 0
0.280774 0.181513 0.040442 255 220 0
0.299837 0.187544 0.089385 255 220 0
0.289202 0.099872 0.051947 255 220 0
0.353052 0.218906 0.039443 255 220 0
0.352208 0.160208 0.035304 255 220 0
0.306930 0.228685 0.100407 255 220 0
0.319827 0.265595 0.052106 255 220 0
0.357713 0.173722 0.087284 255 220 0
0.354921 0.145963 0.044795 255 220 0
0.341646 0.186397 0.097155 255 220 0
0.337673 0.114301 0.042680 255 220 0
0.293752 0.217128 0.030575 255 220 0
0.294311 0.143694 0.032145 255 220 0
0.307672 0.267105 0.080478 255 220 0
0.362152 0.192781 0.083049 255 220 0
0.349200 0.230534 0.040447 255 220 0
0.358015 0.177217 0.040230 255 220 0
0.301011 0.264030 0.060087 255 220 0
0.315941 0.239926 0.101909 255 220 0
0.352515 0.245726 0.071961 255 220 0
0.349266 0.251846 0.071404 255 220 0
0.305340 0.266911 0.077946 255 220 0
0.360301 0.148343 0.057772 255 220 0
0.350099 0.132338 0.045674 255 220 0
0.339215 0.264460 0.070082 255 220 0
0.356580 0.235552 0.061659 255 220 0
0.354519 0.227133 0.045743 255 220 0
0.329213 0.136557 0.027323 255 220 0
0.350946 0.218014 0.036824 255 220 0
0.365325 0.168278 0.073910 255 220 0
0.284033 0.169164 0.067205 255 220 0
0.306071 0.260733 0.049694 255 220 0
0.346089 0.185320 0.027888 255 220 0
0.365475 0.207402 0.065311 255 220 0
0.354655 0.142422 0.075417 255 220 0
0.300941 0.139249 0.075060 255 220 0
0.318767 0.112055 0.071831 255 220 0
0.287568 0.210087 0.033211 255 220 0
0.305802 0.138563 0.027014 255 220 0
0.344187 0.256183 0.081762 255 220 0
0.300442 0.150761 0.078168 255 220 0
0.313292 0.210010 0.101114 255 220 0
0.301804 0.251726 0.090706 255 220 0
0.317618 0.183702 0.096777 255 220 0
0.295504 0.098934 0.061741 255 220 0
0.350511 0.181153 0.031435 255 220 0
0.294477 0.253587 0.081603 255 220 0
0.305790 0.096195 0.062324 255 220 0
0.295180 0.218673 0.092561 255 220 0
0.334291 0.151873 0.025808 255 220 0
0.286604 0.248363 0.056442 255 220 0
0.297513 0.238320 0.093079 255 220 0
0.284072 0.244291 0.069261 255 220 0
0.301803 0.192100 0.024499 255 220 0
0.337688 0.126958 0.034472 255 220 0
0.302271 0.146346 0.077969 255 220 0
0.318046 0.216372 0.103118 255 220 0
0.285212 0.126903 0.048806 255 220 0
0.332097 0.110790 0.067127 255 220 0
0.275701 0.209183 0.053806 255 220 0
0.323561 0.261842 0.048668 255 220 0
0.328592 0.122513 0.076026 255 220 0
0.282050 0.160501 0.057348 255 220 0
0.287172 0.183993 0.032380 255 220 0
0.286493 0.143571 0.060898 255 220 0
0.279495 0.203754 0.041683 255 220 0
0.353955 0.240067 0.059127 255 220 0
0.309309 0.260490 0.048125 255 220 0
0.302773 0.259060 0.049528 255 220 0
0.315322 0.185868 0.096606 255 220 0
0.307925 0.183664 0.023048 255 220 0
0.349775 0.195999 0.095988 255 220 0
0.289581 0.184535 0.030424 255 220 0
0.282450 0.226839 0.077504 255 220 0
0.329074 0.135116 0.027628 255 220 0
0.308203 0.176521 0.090813 255 220 0
0.311234 0.249867 0.097094 255 220 0
0.350856 0.149544 0.082707 255 220 0
0.314873 0.270674 0.061381 255 220 0
0.320740 0.223591 0.025533 255 220 0
0.289725 0.246190 0.080734 255 220 0
0.352746 0.156424 0.036835 255 220 0
0.300153 0.214152 0.095452 255 220 0
0.316073 0.257692 0.044356 255 220 0
0.346672 0.246084 0.050056 255 220 0
0.366923 0.185659 0.066732 255 220 0
0.328684 0.148198 0.087549 255 220 0
0.339024 0.160144 0.090944 255 220 0
0.316158 0.135690 0.025790 255 220 0
0.324087 0.253618 0.097051 255 220 0
0.284932 0.246976 0.060117 255 220 0
0.293520 0.253087 0.050581 255 220 0
0.344219 0.171998 0.027608 255 220 0
0.340582 0.251367 0.048165 255 220 0
0.313363 0.210383 0.101197 255 220 0
0.289954 0.104218 0.059510 255 220 0
0.333810 0.212393 0.102463 255 220 0
0.290062 0.237795 0.041754 255 220 0
0.299513 0.174436 0.085310 255 220 0
0.362523 0.170136 0.050321 255 220 0
0.320279 0.110409 0.070937 255 220 0
0.358509 0.207739 0.042659 255 220 0
0.312955 0.156937 0.086464 255 220 0
0.363535 0.155716 0.064779 255 220 0
0.304370 0.259154 0.048734 255 220 0
0.277579 0.187930 0.046089 255 220 0
0.358876 0.230392 0.062740 255 220 0
0.345363 0.248117 0.088443 255 220 0
0.299690 0.176013 0.025833 255 220 0
0.345220 0.173027 0.028118 255 220 0
0.348922 0.234082 0.091362 255 220 0
0.361768 0.166426 0.080921 255 220 0
0.291112 0.255442 0.071564 255 220 0
0.365936 0.196160 0.058434 255 220 0
0.347394 0.157697 0.031502 255 220 0
0.308529 0.254276 0.042899 255 220 0
0.352575 0.139064 0.045094 255 220 0
0.287866 0.133964 0.040530 255 220 0
0.337724 0.144966 0.085557 255 220 0
0.294839 0.141091 0.070893 255 220 0
0.330535 0.212681 0.024126 255 220 0
0.318585 0.110652 0.032870 255 220 0
0.304805 0.132594 0.075246 255 220 0
0.307079 0.144207 0.026064 255 220 0
0.364534 0.202891 0.076546 255 220 0
0.340050 0.210294 0.100796 255 220 0
0.347135 0.243289 0.047677 255 220 0
0.293661 0.226781 0.091496 255 220 0
0.344576 0.162984 0.028775 255 220 0
0.362633 0.172403 0.049962 255 220 0
0.338608 0.244920 0.041085 255 220 0
0.296238 0.197009 0.089453 255 220 0
0.366780 0.184621 0.063592 255 220 0
0.294179 0.150139 0.072794 255 220 0
0.278101 0.176934 0.054354 255 220 0
0.297005 0.165789 0.080617 255 220 0
0.353867 0.156394 0.084074 255 220 0
0.313802 0.235294 0.030075 255 220 0
0.359774 0.164291 0.082548 255 220 0
0.303183 0.209197 0.096304 255 220 0
0.351081 0.219653 0.037579 255 220 0
0.310410 0.222837 0.025915 255 220 0
0.338692 0.216485 0.027588 255 220 0
0.276407 0.219856 0.060075 255 220 0
0.348819 0.237673 0.044890 255 220 0
0.358511 0.152941 0.078350 255 220 0
0.280837 0.165255 0.056544 255 220 0
0.347732 0.215827 0.097052 255 220 0
0.339893 0.222759 0.100683 255 220 0
0.278281 0.186304 0.063013 255 220 0
0.293646 0.258270 0.072175 255 220 0
0.294324 0.213638 0.029483 255 220 0
0.289011 0.135968 0.063602 255 220 0
0.322151 0.119195 0.074917 255 220 0
0.332423 0.250447 0.042020 255 220 0
0.336850 0.198527 0.024037 255 220 0
0.339817 0.114951 0.065564 255 220 0
0.336323 0.240542 0.099603 255 220 0
0.332588 0.211132 0.024350 255 220 0
0.290927 0.245160 0.046057 255 220 0
0.283901 0.158881 0.061932 255 220 0
0.290732 0.097927 0.050533 255 220 0
0.302224 0.200125 0.024634 255 220 0
0.301808 0.093552 0.046457 255 220 0
0.300305 0.131308 0.072507 255 220 0
0.330399 0.227418 0.103390 255 220 0
0.301361 0.176349 0.025197 255 220 0
0.345994 0.182435 0.095098 255 220 0
0.358507 0.177688 0.087400 255 220 0
0.329142 0.108418 0.066704 255 220 0
0.300069 0.123695 0.070522 255 220 0
0.356942 0.167227 0.086085 255 220 0
0.340181 0.205007 0.100446 255 220 0
0.319623 0.270171 0.081015 255 220 0
0.297864 0.093619 0.049414 255 220 0
0.294730 0.232450 0.091864 255 220 0
0.285298 0.126616 0.048180 255 220 0
0.322792 0.231298 0.028562 255 220 0
0.286210 0.206387 0.033772 255 220 0
0.351863 0.216504 0.037201 255 220 0
0.281297 0.162548 0.055564 255 220 0
0.286645 0.110951 0.055917 255 220 0
0.286706 0.171996 0.034928 255 220 0
0.302119 0.139098 0.028193 255 220 0
0.334609 0.161798 0.092114 255 220 0
0.307372 0.232014 0.100458 255 220 0
0.310468 0.207159 0.099444 255 220 0
0.279775 0.179480 0.042952 255 220 0
0.348967 0.203073 0.096934 255 220 0
0.300855 0.229570 0.096997 255 220 0
0.289505 0.143182 0.037004 255 220 0
0.360375 0.165672 0.046510 255 220 0
0.314118 0.200858 0.099693 255 220 0
0.358218 0.171641 0.086355 255 220 0
0.277224 0.199751 0.065051 255 220 0
0.366883 0.188729 0.066829 255 220 0
0.291790 0.206264 0.029656 255 220 0
0.314110 0.152156 0.085226 255 220 0
0.338899 0.238616 0.098762 255 220 0
0.353643 0.240009 0.057855 255 220 0
0.279077 0.176933 0.059980 255 220 0
0.310829 0.126060 0.075442 255 220 0
0.333011 0.102761 0.055856 255 220 0
0.365655 0.170894 0.061557 255 220 0
0.337677 0.242115 0.038694 255 220 0
0.319747 0.214122 0.023269 255 220 0
0.293290 0.206942 0.028896 255 220 0
0.363515 0.183074 0.081219 255 220 0
0.277713 0.207688 0.045799 255 220 0
0.302599 0.106949 0.034011 255 220 0
0.362774 0.199053 0.048658 255 220 0
0.278771 0.198323 0.042527 255 220 0
0.336676 0.247643 0.096611 255 220 0
0.319151 0.135461 0.081002 255 220 0
0.335274 0.265301 0.060784 255 220 0
0.363836 0.185391 0.080449 255 220 0
0.324075 0.205171 0.022168 255 220 0
0.338772 0.230785 0.032782 255 220 0
0.323759 0.268441 0.056519 255 220 0
0.295151 0.256883 0.053475 255 220 0
0.348900 0.136349 0.040638 255 220 0
0.342980 0.136732 0.034246 255 220 0
0.294180 0.198612 0.027620 255 220 0
0.280529 0.200191 0.072600 255 220 0
0.302025 0.135723 0.074715 255 220 0
0.357855 0.186004 0.039472 255 220 0
0.334543 0.151218 0.088585 255 220 0
0.297712 0.261743 0.059944 255 220 0
0.291503 0.099895 0.058479 255 220 0
0.279599 0.195899 0.040950 255 220 0
0.336387 0.134765 0.030715 255 220 0
0.326098 0.162355 0.092230 255 220 0
0.335042 0.210115 0.024897 255 220 0
0.344635 0.205544 0.028427 255 220 0
0.349615 0.172603 0.031276 255 220 0
0.329916 0.262394 0.089066 255 220 0
0.278980 0.229394 0.066929 255 220 0
0.314522 0.107960 0.033340 255 220 0
0.363145 0.204236 0.080227 255 220 0
0.358439 0.192444 0.040258 255 220 0
0.342824 0.245225 0.044446 255 220 0
0.286625 0.129281 0.058630 255 220 0
0.285107 0.131634 0.053320 255 220 0
0.307224 0.201740 0.023397 255 220 0
0.355947 0.238341 0.067366 255 220 0
0.284068 0.230027 0.043125 255 220 0
0.358405 0.216845 0.085821 255 220 0
0.366411 0.196523 0.061762 255 220 0
0.301848 0.132076 0.073601 255 220 0
0.349047 0.248767 0.081078 255 220 0
0.338874 0.114440 0.044014 255 220 0
0.353027 0.145368 0.041668 255 220 0
0.324230 0.116995 0.031774 255 220 0
0.364276 0.213490 0.068256 255 220 0
0.279742 0.223777 0.072395 255 220 0
0.331305 0.201364 0.101469 255 220 0
0.333135 0.263325 0.085990 255 220 0
0.304578 0.229558 0.029783 255 220 0
0.317372 0.199648 0.100409 255 220 0
0.282423 0.179444 0.038356 255 220 0
0.318904 0.161303 0.022699 255 220 0
0.333773 0.248275 0.041050 255 220 0
0.297326 0.143611 0.073690 255 220 0
0.278261 0.205708 0.044263 255 220 0
0.356023 0.225941 0.047640 255 220 0
0.359388 0.188153 0.087275 255 220 0
0.335632 0.108742 0.062644 255 220 0
0.280527 0.223561 0.044856 255 220 0
0.311295 0.140416 0.025620 255 220 0
0.353940 0.143087 0.044838 255 220 0
0.363708 0.201398 0.051513 255 220 0
0.349826 0.249758 0.064193 255 220 0
0.363705 0.213016 0.058692 255 220 0
0.283655 0.158870 0.043746 255 220 0
0.327519 0.264371 0.087898 255 220 0
0.326438 0.116075 0.033081 255 220 0
0.331667 0.129050 0.078956 255 220 0
0.321245 0.245416 0.035665 255 220 0
0.306306 0.093498 0.046019 255 220 0
0.341847 0.249091 0.091875 255 220 0
0.326638 0.120011 0.074994 255 220 0
0.323852 0.193388 0.100055 255 220 0
0.309001 0.106892 0.033455 255 220 0
0.285779 0.248907 0.064941 255 220 0
0.323497 0.272394 0.069768 255 220 0
0.327710 0.133404 0.027650 255 220 0
0.330472 0.106780 0.064473 255 220 0
0.308410 0.164378 0.087099 255 220 0
0.350655 0.150688 0.083373 255 220 0
0.362639 0.219496 0.070348 255 220 0
0.276309 0.193857 0.059135 255 220 0
0.304428 0.122336 0.029625 255 220 0
0.279330 0.231069 0.066837 255 220 0
0.311594 0.245020 0.035860 255 220 0
0.349571 0.168762 0.031588 255 220 0
0.285652 0.132629 0.046162 255 220 0
0.292470 0.172619 0.078852 255 220 0
0.351432 0.236844 0.086508 255 220 0
0.302195 0.165275 0.084132 255 220 0
0.324638 0.096732 0.052848 255 220 0
0.315056 0.195382 0.098842 255 220 0
0.366484 0.192582 0.070639 255 220 0
0.315829 0.120377 0.074769 255 220 0
0.350457 0.236214 0.046077 255 220 0
0.331500 0.135011 0.081956 255 220 0
0.277527 0.216134 0.048319 255 220 0
0.277130 0.220063 0.051295 255 220 0
0.317003 0.221580 0.103346 255 220 0
0.331880 0.210540 0.102608 255 220 0
0.363448 0.162221 0.075945 255 220 0
0.279137 0.176468 0.059854 255 220 0
0.342839 0.113041 0.058185 255 220 0
0.329707 0.249990 0.040654 255 220 0
0.296833 0.261744 0.071304 255 220 0
0.283408 0.153354 0.056284 255 220 0
0.335637 0.141858 0.084573 255 220 0
0.363066 0.170358 0.051751 255 220 0
0.345404 0.213125 0.030606 255 220 0
0.311650 0.095022 0.060083 255 220 0
0.305898 0.093011 0.057048 255 220 0
0.293781 0.239106 0.089352 255 220 0
0.313800 0.158924 0.023402 255 220 0
0.334241 0.223609 0.102661 255 220 0
0.285119 0.129541 0.052935 255 220 0
0.362672 0.187962 0.047835 255 220 0
0.347137 0.229986 0.038038 255 220 0
0.347355 0.238318 0.091439 255 220 0
0.326141 0.126756 0.028964 255 220 0
0.284349 0.190133 0.075498 255 220 0
0.329824 0.185813 0.021829 255 220 0
0.326878 0.126687 0.029221 255 220 0
0.341201 0.158581 0.089978 255 220 0
0.313409 0.146055 0.082839 255 220 0
0.329597 0.130815 0.080125 255 220 0
0.349186 0.150492 0.084037 255 220 0
0.359283 0.154790 0.078507 255 220 0
0.317786 0.264974 0.087951 255 220 0
0.364131 0.191494 0.079137 255 220 0
0.342219 0.261025 0.066976 255 220 0
0.292325 0.213060 0.089517 255 220 0
0.317141 0.105431 0.068767 255 220 0
0.352659 0.186609 0.033207 255 220 0
0.356464 0.173659 0.088213 255 220 0
0.298305 0.129548 0.070847 255 220 0
0.309939 0.184836 0.022578 255 220 0
0.337916 0.249547 0.044241 255 220 0
0.300868 0.219899 0.096633 255 220 0
0.349308 0.179648 0.030512 255 220 0
0.279590 0.170006 0.050105 255 220 0
0.351315 0.177717 0.092042 255 220 0
0.279442 0.179104 0.043857 255 220 0
0.343988 0.202409 0.027560 255 220 0
0.355449 0.141386 0.073577 255 220 0
0.347899 0.249914 0.082372 255 220 0
0.356994 0.234723 0.061972 255 220 0
0.323534 0.186445 0.021252 255 220 0
0.316590 0.128955 0.026927 255 220 0
0.285129 0.121544 0.050025 255 220 0
0.309851 0.265347 0.053913 255 220 0
0.366749 0.187685 0.062849 255 220 0
0.353189 0.192128 0.033734 255 220 0
0.318945 0.105461 0.035978 255 220 0
0.353125 0.220478 0.091506 255 220 0
0.292685 0.102731 0.040023 255 220 0
0.291839 0.142231 0.068240 255 220 0
0.283112 0.208556 0.037289 255 220 0
0.345660 0.206867 0.098626 255 220 0
0.320498 0.145356 0.084948 255 220 0
0.315373 0.163826 0.022818 255 220 0
0.282002 0.206506 0.076443 255 220 0
0.298902 0.261998 0.077029 255 220 0
0.316547 0.202924 0.100832 255 220 0
0.284800 0.143114 0.047472 255 220 0
0.284016 0.154984 0.059865 255 220 0
0.323758 0.206601 0.022311 255 220 0
0.300249 0.109067 0.067787 255 220 0
0.340335 0.120567 0.040484 255 220 0
0.362263 0.172080 0.049097 255 220 0
0.335210 0.179868 0.023208 255 220 0
0.336034 0.246841 0.097341 255 220 0
0.361982 0.221757 0.063756 255 220 0
0.299305 0.251509 0.044512 255 220 0
0.316686 0.245630 0.035652 255 220 0
0.366296 0.200801 0.066728 255 220 0
0.332323 0.252785 0.095839 255 220 0
0.351947 0.209715 0.035079 255 220 0
0.281220 0.197474 0.038467 255 220 0
0.324649 0.166112 0.022297 255 220 0
0.363674 0.200730 0.079388 255 220 0
0.285544 0.138060 0.045749 255 220 0
0.314598 0.100255 0.038302 255 220 0
0.318390 0.101484 0.038871 255 220 0
0.306605 0.115459 0.071113 255 220 0
0.309829 0.249718 0.096626 255 220 0
0.317424 0.262673 0.090071 255 220 0
0.315798 0.208108 0.022541 255 220 0
0.298147 0.241616 0.092610 255 220 0
0.331823 0.246782 0.099072 255 220 0
0.291771 0.251890 0.079034 255 220 0
0.358788 0.230713 0.063097 255 220 0
0.290787 0.240687 0.085357 255 220 0
0.285154 0.247504 0.060633 255 220 0
0.345071 0.119170 0.064352 255 220 0
0.312591 0.185195 0.022098 255 220 0
0.312486 0.191537 0.096924 255 220 0
0.295096 0.243415 0.041492 255 220 0
0.319682 0.162943 0.022540 255 220 0
0.285117 0.121368 0.050911 255 220 0
0.297507 0.178629 0.026498 255 220 0
0.355936 0.230995 0.081885 255 220 0
0.288985 0.224496 0.035992 255 220 0
0.322754 0.203751 0.021950 255 220 0
0.306320 0.242569 0.097943 255 220 0
0.286580 0.238155 0.080554 255 220 0
0.364291 0.185099 0.052172 255 220 0
0.316041 0.219210 0.103021 255 220 0
0.329976 0.113171 0.069953 255 220 0
0.285743 0.112544 0.046968 255 220 0
0.327419 0.195822 0.100641 255 220 0
0.306229 0.114908 0.030848 255 220 0
0.340489 0.245528 0.042760 255 220 0
0.280925 0.172148 0.043509 255 220 0
0.279000 0.228814 0.067538 255 220 0
0.299441 0.207306 0.026182 255 220 0
0.358249 0.196434 0.040180 255 220 0
0.359369 0.193629 0.041746 255 220 0
0.321501 0.233725 0.103479 255 220 0
0.282725 0.154946 0.051326 255 220 0
0.327323 0.258546 0.046646 255 220 0
0.320246 0.231169 0.103638 255 220 0
0.300437 0.220503 0.096434 255 220 0
0.280736 0.228540 0.073360 255 220 0
0.329305 0.267901 0.081868 255 220 0
0.352327 0.212776 0.036385 255 220 0
0.349338 0.250455 0.063888 255 220 0
0.295265 0.219244 0.092679 255 220 0
0.313833 0.148504 0.083839 255 220 0
0.324762 0.107690 0.068107 255 220 0
0.300863 0.185331 0.024865 255 220 0
0.279557 0.175284 0.045396 255 220 0
0.356982 0.140208 0.056135 255 220 0
0.279723 0.212447 0.042768 255 220 0
0.360174 0.199393 0.086285 255 220 0
0.325356 0.169148 0.094215 255 220 0
0.281755 0.160504 0.049392 255 220 0
0.346294 0.152854 0.086301 255 220 0
0.354227 0.142454 0.045919 255 220 0
0.358137 0.180116 0.040180 255 220 0
0.354622 0.192699 0.092393 255 220 0
0.303042 0.245486 0.094894 255 220 0
0.360420 0.184414 0.043565 255 220 0
0.332458 0.230302 0.102842 255 220 0
0.299682 0.218839 0.095777 255 220 0
0.362043 0.217848 0.056661 255 220 0
0.353643 0.206967 0.036104 255 220 0
0.342634 0.112496 0.054880 255 220 0
0.297469 0.093632 0.050379 255 220 0
0.277482 0.188549 0.046238 255 220 0
0.332520 0.127184 0.077771 255 220 0
0.308293 0.256084 0.091957 255 220 0
0.288468 0.217749 0.086220 255 220 0
0.332363 0.155873 0.090385 255 220 0
0.355545 0.156702 0.040520 255 220 0
0.312547 0.233922 0.102130 255 220 0
0.363770 0.171919 0.053369 255 220 0
0.292377 0.164241 0.031184 255 220 0
0.329855 0.147368 0.025296 255 220 0
0.302424 0.186579 0.090686 255 220 0
0.311283 0.235120 0.101611 255 220 0
0.351842 0.193301 0.032449 255 220 0
0.311348 0.163101 0.087954 255 220 0
0.281101 0.175066 0.041874 255 220 0
0.279862 0.225289 0.046941 255 220 0
0.321841 0.129040 0.079089 255 220 0
0.332896 0.220194 0.026442 255 220 0
0.292056 0.179803 0.080855 255 220 0
0.278640 0.226811 0.051056 255 220 0
0.298139 0.142015 0.073883 255 220 0
0.366503 0.198070 0.066992 255 220 0
0.309841 0.106318 0.033731 255 220 0
0.334177 0.261043 0.053180 255 220 0
0.330115 0.265781 0.056069 255 220 0
0.324876 0.155077 0.089598 255 220 0
0.280862 0.237483 0.065168 255 220 0
0.315676 0.269923 0.080691 255 220 0
0.354536 0.145667 0.044219 255 220 0
0.279628 0.220403 0.072765 255 220 0
0.309694 0.181064 0.022760 255 220 0
0.340767 0.214224 0.028066 255 220 0
0.345579 0.119540 0.049585 255 220 0
0.327770 0.148586 0.024665 255 220 0
0.294008 0.181729 0.083264 255 220 0
0.320744 0.120167 0.075301 255 220 0
0.339350 0.264331 0.071884 255 220 0
0.311283 0.178744 0.022558 255 220 0
0.365548 0.172284 0.060198 255 220 0
0.330312 0.171699 0.022486 255 220 0
0.284772 0.159999 0.064309 255 220 0
0.320361 0.268448 0.055871 255 220 0
0.338519 0.265017 0.072504 255 220 0
0.357162 0.229618 0.053799 255 220 0
0.311546 0.143343 0.025239 255 220 0
0.307994 0.254546 0.043262 255 220 0
0.278456 0.227461 0.066254 255 220 0
0.334844 0.236884 0.101214 255 220 0
0.288554 0.147387 0.037711 255 220 0
0.346261 0.121404 0.065345 255 220 0
0.276887 0.223588 0.056793 255 220 0
0.354729 0.192316 0.035416 255 220 0
0.359699 0.184293 0.086814 255 220 0
0.286540 0.115266 0.044080 255 220 0
0.314324 0.180929 0.021988 255 220 0
0.286141 0.237200 0.080294 255 220 0
0.346201 0.188845 0.096409 255 220 0
0.282292 0.204168 0.037630 255 220 0
0.311858 0.098150 0.039388 255 220 0
0.279936 0.175709 0.044140 255 220 0
0.315493 0.098203 0.063233 255 220 0
0.329091 0.211519 0.023640 255 220 0
0.352820 0.236299 0.050538 255 220 0
0.281697 0.175665 0.065960 255 220 0
0.365645 0.194482 0.056706 255 220 0
0.318401 0.117755 0.029957 255 220 0
0.296243 0.143547 0.072774 255 220 0
0.329417 0.112651 0.069811 255 220 0
0.301971 0.218692 0.097134 255 220 0
0.296980 0.215756 0.093581 255 220 0
0.326107 0.116684 0.073290 255 220 0
0.326441 0.218533 0.024676 255 220 0
0.338920 0.218756 0.028277 255 220 0
0.278587 0.230350 0.056478 255 220 0
0.324426 0.208937 0.022659 255 220 0
0.278267 0.224244 0.067602 255 220 0
0.283068 0.243513 0.064013 255 220 0
0.329865 0.219595 0.103451 255 220 0
0.321113 0.149878 0.023800 255 220 0
0.299366 0.128846 0.071339 255 220 0
0.339867 0.262233 0.062994 255 220 0
0.319227 0.181193 0.096525 255 220 0
0.337364 0.148843 0.087265 255 220 0
0.359074 0.150680 0.051218 255 220 0
0.292687 0.114109 0.064346 255 220 0
0.285258 0.134226 0.054927 255 220 0
0.296721 0.224308 0.094087 255 220 0
0.362988 0.153608 0.067293 255 220 0
0.295678 0.136311 0.070465 255 220 0
0.329881 0.249077 0.098571 255 220 0
0.282991 0.221717 0.040694 255 220 0
0.324757 0.112131 0.071003 255 220 0
0.366383 0.196856 0.061670 255 220 0
0.361847 0.203821 0.083162 255 220 0
0.285873 0.111029 0.053436 255 220 0
0.297631 0.203629 0.091959 255 220 0
0.345939 0.187387 0.027743 255 220 0
0.315107 0.232628 0.028719 255 220 0
0.311124 0.179377 0.093011 255 220 0
0.346990 0.120306 0.062474 255 220 0
0.295618 0.191677 0.087560 255 220 0
0.319522 0.182095 0.096840 255 220 0
0.327166 0.270201 0.078323 255 220 0
0.295653 0.195263 0.026783 255 220 0
0.288482 0.130452 0.039783 255 220 0
0.284497 0.239313 0.076003 255 220 0
0.293619 0.258648 0.070631 255 220 0
0.356002 0.138859 0.054414 255 220 0
0.306957 0.093440 0.058027 255 220 0
0.308804 0.103307 0.067903 255 220 0
0.298411 0.104287 0.065997 255 220 0
0.329327 0.099732 0.053025 255 220 0
0.346788 0.129852 0.041925 255 220 0
0.331279 0.168371 0.094223 255 220 0
0.280827 0.179219 0.065850 255 220 0
0.344117 0.142985 0.032864 255 220 0
0.341823 0.187272 0.097306 255 220 0
0.303665 0.171941 0.087146 255 220 0
0.284920 0.139566 0.048394 255 220 0
0.282805 0.180023 0.037691 255 220 0
0.305551 0.150546 0.081084 255 220 0
0.339887 0.149417 0.086944 255 220 0
0.288797 0.252039 0.057242 255 220 0
0.276905 0.191818 0.060959 255 220 0
0.349680 0.137815 0.076513 255 220 0
0.359994 0.177748 0.043406 255 220 0
0.304907 0.126651 0.073555 255 220 0
0.304428 0.245512 0.095784 255 220 0
0.319496 0.253320 0.097127 255 220 0
0.355366 0.198400 0.092125 255 220 0
0.290964 0.126411 0.036843 255 220 0
0.326863 0.145516 0.024992 255 220 0
0.318316 0.242022 0.101712 255 220 0
0.295495 0.219374 0.092873 255 220 0
0.293838 0.122604 0.066380 255 220 0
0.279918 0.231172 0.051570 255 220 0
0.306255 0.163932 0.024572 255 220 0
0.309764 0.125988 0.027883 255 220 0
0.315905 0.270517 0.079408 255 220 0
0.314818 0.128704 0.077437 255 220 0
0.284602 0.241480 0.074496 255 220 0
0.363076 0.168617 0.052392 255 220 0
0.306607 0.132312 0.075946 255 220 0
0.354460 0.141484 0.074892 255 220 0
0.296878 0.150754 0.075440 255 220 0
0.330598 0.145597 0.025802 255 220 0
0.281612 0.236391 0.052976 255 220 0
0.351143 0.170233 0.090273 255 220 0
0.296564 0.150298 0.029863 255 220 0
0.360706 0.174780 0.045114 255 220 0
0.341938 0.133249 0.034851 255 220 0
0.282024 0.158461 0.053751 255 220 0
0.302321 0.157578 0.081628 255 220 0
0.354817 0.192334 0.092197 255 220 0
0.359873 0.209153 0.045493 255 220 0
0.349242 0.122889 0.060287 255 220 0
0.275834 0.214157 0.055614 255 220 0
0.307013 0.092778 0.048385 255 220 0
0.284747 0.209420 0.080852 255 220 0
0.278846 0.219040 0.070999 255 220 0
0.282066 0.198103 0.074589 255 220 0
0.311961 0.250634 0.096963 255 220 0
0.341853 0.218814 0.100019 255 220 0
0.325781 0.202075 0.101748 255 220 0
0.345848 0.147052 0.032902 255 220 0
0.307626 0.162067 0.024330 255 220 0
0.291345 0.116500 0.037314 255 220 0
0.305715 0.202987 0.023835 255 220 0
0.351823 0.138436 0.044077 255 220 0
0.354492 0.240632 0.062999 255 220 0
0.317729 0.255453 0.042459 255 220 0
0.342771 0.130031 0.037111 255 220 0
0.337524 0.165030 0.092669 255 220 0
0.290845 0.185931 0.081639 255 220 0
0.359772 0.156614 0.049025 255 220 0
0.334855 0.266492 0.062691 255 220 0
0.276631 0.208217 0.064503 255 220 0
0.302985 0.204260 0.024689 255 220 0
0.287754 0.241601 0.046783 255 220 0
0.278821 0.175151 0.048193 255 220 0
0.340450 0.262747 0.066275 255 220 0
0.302729 0.180577 0.024511 255 220 0
0.335875 0.250262 0.043576 255 220 0
0.293005 0.113531 0.036352 255 220 0
0.276803 0.188333 0.058427 255 220 0
0.351909 0.228609 0.089917 255 220 0
0.323353 0.145059 0.085575 255 220 0
0.284174 0.148308 0.055583 255 220 0
0.279366 0.232517 0.064955 255 220 0
0.301879 0.128532 0.072677 255 220 0
0.333226 0.227445 0.029155 255 220 0
0.294593 0.165937 0.029384 255 220 0
0.293890 0.248394 0.045874 255 220 0
0.336769 0.222941 0.101907 255 220 0
0.314028 0.093663 0.056505 255 220 0
0.292316 0.176267 0.079939 255 220 0
0.314391 0.271367 0.064083 255 220 0
0.304067 0.092834 0.056399 255 220 0
0.354717 0.185372 0.035468 255 220 0
0.282074 0.218267 0.077753 255 220 0
0.364433 0.209496 0.073765 255 220 0
0.320670 0.104675 0.067374 255 220 0
0.290591 0.201042 0.029821 255 220 0
0.284781 0.163880 0.066099 255 220 0
0.285821 0.220087 0.083197 255 220 0
0.330874 0.227509 0.103307 255 220 0
0.286994 0.250908 0.062603 255 220 0
0.346835 0.216928 0.097487 255 220 0
0.346091 0.224379 0.096875 255 220 0
0.317766 0.225761 0.103540 255 220 0
0.331075 0.213061 0.102931 255 220 0
0.339237 0.245164 0.096158 255 220 0
0.315257 0.144292 0.082896 255 220 0
0.320152 0.098664 0.061657 255 220 0
0.310621 0.152644 0.084019 255 220 0
0.289683 0.254653 0.062439 255 220 0
0.297239 0.096953 0.060831 255 220 0
0.365073 0.172561 0.057872 255 220 0
0.322593 0.270879 0.060882 255 220 0
0.285733 0.211644 0.035113 255 220 0
0.276519 0.192132 0.049012 255 220 0
0.325761 0.179145 0.021538 255 220 0
0.282179 0.157590 0.052843 255 220 0
0.286033 0.137146 0.044280 255 220 0
0.301622 0.138038 0.075138 255 220 0
0.331572 0.129980 0.029973 255 220 0
0.309952 0.179200 0.092410 255 220 0
0.323332 0.227843 0.103901 255 220 0
0.305040 0.171603 0.087783 255 220 0
0.364613 0.172419 0.077798 255 220 0
0.293318 0.147361 0.071116 255 220 0
0.307352 0.142104 0.079253 255 220 0
0.340358 0.167991 0.092947 255 220 0
0.320597 0.136438 0.025768 255 220 0
0.327218 0.240227 0.033864 255 220 0
0.275592 0.205241 0.053699 255 220 0
0.309169 0.185427 0.093768 255 220 0
0.353481 0.136229 0.049852 255 220 0
0.356214 0.136419 0.061094 255 220 0
0.320610 0.183984 0.097549 255 220 0
0.296292 0.208957 0.027696 255 220 0
0.362119 0.216203 0.077681 255 220 0
0.366806 0.190928 0.067860 255 220 0
0.361698 0.221599 0.060738 255 220 0
0.324536 0.149534 0.087505 255 220 0
0.284007 0.243487 0.070337 255 220 0
0.322529 0.139894 0.083446 255 220 0
0.323661 0.248997 0.038336 255 220 0
0.278262 0.191859 0.065354 255 220 0
0.362892 0.194350 0.048393 255 220 0
0.357469 0.228746 0.080098 255 220 0
0.348310 0.135901 0.076150 255 220 0
0.357282 0.158496 0.042828 255 220 0
0.302745 0.150633 0.079591 255 220 0
0.294868 0.194842 0.027125 255 220 0
0.284873 0.136337 0.052037 255 220 0
0.313722 0.223766 0.102741 255 220 0
0.321342 0.112541 0.032780 255 220 0
0.285088 0.232749 0.043574 255 220 0
0.287811 0.167366 0.071821 255 220 0
0.341135 0.142807 0.083593 255 220 0
0.318835 0.095051 0.047647 255 220 0
0.317891 0.104218 0.036442 255 220 0
0.326136 0.271878 0.070262 255 220 0
0.312101 0.223923 0.025917 255 220 0
0.357859 0.210577 0.088584 255 220 0
0.288274 0.166374 0.072016 255 220 0
0.310077 0.211907 0.100138 255 220 0
0.309250 0.223650 0.101257 255 220 0
0.280017 0.207348 0.073141 255 220 0
0.300436 0.248319 0.091585 255 220 0
0.285602 0.148850 0.042708 255 220 0
0.304840 0.215625 0.025651 255 220 0
0.359949 0.190328 0.042602 255 220 0
0.301473 0.259787 0.083947 255 220 0
0.343505 0.207292 0.028092 255 220 0
0.280216 0.166876 0.050922 255 220 0
0.294621 0.224497 0.032313 255 220 0
0.329120 0.121707 0.031824 255 220 0
0.307157 0.106086 0.068783 255 220 0
0.288330 0.183608 0.078202 255 220 0
0.358933 0.196314 0.041211 255 220 0
0.312313 0.101190 0.036981 255 220 0
0.357480 0.156875 0.043842 255 220 0
0.285797 0.181890 0.033911 255 220 0
0.353421 0.184839 0.092290 255 220 0
0.364459 0.212694 0.067985 255 220 0
0.300921 0.138192 0.028802 255 220 0
0.324878 0.236862 0.031524 255 220 0
0.336445 0.266217 0.065617 255 220 0
0.364672 0.170992 0.056856 255 220 0
0.329258 0.217838 0.024955 255 220 0
0.312524 0.178236 0.093311 255 220 0
0.277580 0.217989 0.048858 255 220 0
0.285989 0.180175 0.033984 255 220 0
0.366504 0.198336 0.064909 255 220 0
0.340667 0.123585 0.072242 255 220 0
0.349695 0.191960 0.095498 255 220 0
0.320722 0.204045 0.021944 255 220 0
0.357806 0.156041 0.044865 255 220 0
0.354044 0.133799 0.067326 255 220 0
0.310840 0.185826 0.094674 255 220 0
0.348931 0.252374 0.070114 255 220 0
0.318557 0.239362 0.031987 255 220 0
0.364733 0.210991 0.063520 255 220 0
0.357433 0.161623 0.042030 255 220 0
0.360015 0.197353 0.043044 255 220 0
0.329551 0.260518 0.091058 255 220 0
0.306936 0.092177 0.052536 255 220 0
0.339333 0.109306 0.051640 255 220 0
0.315199 0.097636 0.041153 255 220 0
0.309086 0.175553 0.090942 255 220 0
0.279685 0.209918 0.072850 255 220 0
0.281304 0.230997 0.073640 255 220 0
0.320326 0.271168 0.061238 255 220 0
0.319441 0.257885 0.094174 255 220 0
0.295776 0.095360 0.057044 255 220 0
0.318663 0.228528 0.027073 255 220 0
0.353158 0.197061 0.093921 255 220 0
0.345870 0.146992 0.032936 255 220 0
0.279704 0.203120 0.041246 255 220 0
0.325606 0.264276 0.088562 255 220 0
0.306714 0.141357 0.026458 255 220 0
0.364528 0.212107 0.069153 255 220 0
0.282501 0.156092 0.052991 255 220 0
0.350826 0.151496 0.036116 255 220 0
0.291463 0.216963 0.031889 255 220 0
0.344045 0.208605 0.028658 255 220 0
0.315405 0.246701 0.036404 255 220 0
0.361560 0.151678 0.071868 255 220 0
0.279876 0.235139 0.060354 255 220 0
0.275846 0.202541 0.051416 255 220 0
0.319284 0.268802 0.056402 255 220 0
0.286154 0.193370 0.078782 255 220 0
0.310032 0.099415 0.065509 255 220 0
0.355991 0.187365 0.036936 255 220 0
0.289639 0.191279 0.082085 255 220 0
0.337611 0.215832 0.026960 255 220 0
0.309197 0.152430 0.024744 255 220 0
0.280361 0.206150 0.073587 255 220 0
0.357503 0.141768 0.055816 255 220 0
0.299190 0.216126 0.095128 255 220 0
0.294295 0.243775 0.088042 255 220 0
0.311537 0.130887 0.077224 255 220 0
0.347143 0.158933 0.088288 255 220 0
0.341606 0.118276 0.067215 255 220 0
0.290034 0.152337 0.069025 255 220 0
0.346316 0.210205 0.030497 255 220 0
0.341059 0.131469 0.034932 255 220 0
0.326199 0.260022 0.092405 255 220 0
0.291890 0.217077 0.089584 255 220 0
0.337704 0.220992 0.101639 255 220 0
0.304119 0.186617 0.023883 255 220 0
0.366177 0.189393 0.058886 255 220 0
0.300651 0.106655 0.034570 255 220 0
0.290049 0.235737 0.086285 255 220 0
0.304110 0.171288 0.024688 255 220 0
0.283339 0.172177 0.067374 255 220 0
0.366659 0.181019 0.063566 255 220 0
0.282440 0.156538 0.050863 255 220 0
0.290503 0.169714 0.031827 255 220 0
0.275970 0.193494 0.056124 255 220 0
0.324052 0.232952 0.103591 255 220 0
0.352644 0.136378 0.047586 255 220 0
0.303144 0.180554 0.089393 255 220 0
0.353150 0.204153 0.094167 255 220 0
0.302226 0.205217 0.095037 255 220 0
0.307935 0.143675 0.079988 255 220 0
0.299251 0.255473 0.085733 255 220 0
0.296104 0.260078 0.074687 255 220 0
0.297532 0.221261 0.094540 255 220 0
0.302480 0.196804 0.024402 255 220 0
0.287117 0.155717 0.066328 255 220 0
0.280698 0.235797 0.055468 255 220 0
0.320976 0.259450 0.045996 255 220 0
0.328202 0.266703 0.056056 255 220 0
0.282182 0.163190 0.045329 255 220 0
0.287005 0.201875 0.032526 255 220 0
0.360203 0.223306 0.077390 255 220 0
0.279878 0.168104 0.052319 255 220 0
0.362615 0.193620 0.082146 255 220 0
0.348147 0.247658 0.054895 255 220 0
0.364590 0.190434 0.052702 255 220 0
0.318045 0.216071 0.103088 255 220 0
0.329382 0.165392 0.022864 255 220 0
0.347101 0.237755 0.091986 255 220 0
0.343588 0.171987 0.027250 255 220 0
0.312973 0.192881 0.022012 255 220 0
0.364003 0.200345 0.052081 255 220 0
0.277697 0.210550 0.068203 255 220 0
0.366826 0.183290 0.069738 255 220 0
0.324228 0.115732 0.032326 255 220 0
0.300744 0.094185 0.058522 255 220 0
0.354245 0.233482 0.050651 255 220 0
0.280393 0.191407 0.039736 255 220 0
0.286643 0.176679 0.073830 255 220 0
0.303637 0.210388 0.096756 255 220 0
0.296302 0.095787 0.058479 255 220 0
0.350459 0.190851 0.031127 255 220 0
0.297519 0.093605 0.053203 255 220 0
0.361240 0.177499 0.084434 255 220 0
0.327961 0.118397 0.032696 255 220 0
0.350149 0.140314 0.077871 255 220 0
0.281698 0.160431 0.049951 255 220 0
0.296154 0.109560 0.066141 255 220 0
0.294602 0.117689 0.066206 255 220 0
0.322641 0.248835 0.038047 255 220 0
0.286983 0.175130 0.033949 255 220 0
