ply
format ascii 1.0
element vertex 1024
property float x
property float y
property float z
property uchar red
property uchar green
property uchar blue
end_header
0.500940 0.143983 0.084587 255 220 0
0.516219 0.094958 0.066610 255 220 0
0.531021 0.102616 0.062064 255 220 0
0.501934 0.209019 0.092808 255 220 0
0.545080 0.144140 0.038103 255 220 0
0.517615 0.132275 0.018749 255 220 0
0.502632 0.162485 0.089433 255 220 0
0.484440 0.143952 0.074663 255 220 0
0.502140 0.101826 0.022598 255 220 0
0.468295 0.125483 0.049466 255 220 0
0.533637 0.119643 0.033216 255 220 0
0.474544 0.074747 0.049809 255 220 0
0.522265 0.149164 0.089000 255 220 0
0.474149 0.193702 0.028199 255 220 0
0.526217 0.209098 0.093351 255 220 0
0.545116 0.207754 0.039834 255 220 0
0.509340 0.147486 0.015174 255 220 0
0.469921 0.079132 0.050619 255 220 0
0.515847 0.234026 0.034252 255 220 0
0.492467 0.119736 0.073879 255 220 0
0.532733 0.231791 0.080249 255 220 0
0.475948 0.217282 0.039798 255 220 0
0.484030 0.074179 0.054508 255 220 0
0.533403 0.125429 0.029914 255 220 0
0.495446 0.123230 0.018373 255 220 0
0.492984 0.223464 0.029531 255 220 0
0.506694 0.248907 0.064489 255 220 0
0.543211 0.159829 0.083856 255 220 0
0.536503 0.234173 0.051321 255 220 0
0.511150 0.114014 0.021247 255 220 0
0.507319 0.206909 0.018500 255 220 0
0.537112 0.149666 0.086000 255 220 0
0.472247 0.127343 0.030280 255 220 0
0.530818 0.100734 0.058397 255 220 0
0.492626 0.140600 0.017089 255 220 0
0.487053 0.110047 0.068939 255 220 0
0.523852 0.182053 0.094378 255 220 0
0.475141 0.221067 0.051747 255 220 0
0.485753 0.157480 0.078515 255 220 0
0.528632 0.244847 0.064497 255 220 0
0.553080 0.159928 0.064221 255 220 0
0.492313 0.078409 0.032610 255 220 0
0.496480 0.180707 0.089277 255 220 0
0.484762 0.104458 0.066536 255 220 0
0.547751 0.180442 0.080408 255 220 0
0.537483 0.152634 0.025596 255 220 0
0.521362 0.226453 0.030640 255 220 0
0.546661 0.200888 0.077144 255 220 0
0.541219 0.127014 0.040841 255 220 0
0.531652 0.242636 0.058785 255 220 0
0.473053 0.080429 0.033767 255 220 0
0.526626 0.214647 0.092189 255 220 0
0.506296 0.133326 0.083737 255 220 0
0.481605 0.076642 0.056894 255 220 0
0.491819 0.215163 0.086180 255 220 0
0.477737 0.114657 0.025244 255 220 0
0.499943 0.199084 0.092533 255 220 0
0.468235 0.195960 0.039060 255 220 0
0.479593 0.211592 0.030387 255 220 0
0.537230 0.140040 0.083193 255 220 0
0.540744 0.213719 0.036627 255 220 0
0.518484 0.248684 0.066954 255 220 0
0.534772 0.151425 0.023548 255 220 0
0.470862 0.210900 0.049057 255 220 0
0.480665 0.140204 0.070518 255 220 0
0.527878 0.191258 0.018925 255 220 0
0.477774 0.111426 0.063047 255 220 0
0.520904 0.141363 0.018056 255 220 0
0.465977 0.178621 0.038417 255 220 0
0.491963 0.160867 0.083376 255 220 0
0.520764 0.120806 0.022889 255 220 0
0.534198 0.188033 0.021933 255 220 0
0.552216 0.169499 0.045607 255 220 0
0.547908 0.194738 0.038759 255 220 0
0.540830 0.201922 0.030817 255 220 0
0.496247 0.204907 0.090591 255 220 0
0.523076 0.243726 0.074753 255 220 0
0.544988 0.193160 0.082297 255 220 0
0.465374 0.159319 0.041290 255 220 0
0.473205 0.212828 0.040517 255 220 0
0.493765 0.230190 0.033748 255 220 0
0.493397 0.114744 0.019746 255 220 0
0.517901 0.192981 0.016167 255 220 0
0.549086 0.146276 0.047452 255 220 0
0.503916 0.090180 0.028203 255 220 0
0.548419 0.179736 0.079396 255 220 0
0.511089 0.227651 0.029146 255 220 0
0.466793 0.108309 0.039845 255 220 0
0.547889 0.166486 0.078890 255 220 0
0.501939 0.098489 0.070536 255 220 0
0.494905 0.073435 0.040640 255 220 0
0.544392 0.160520 0.031801 255 220 0
0.549220 0.188038 0.039202 255 220 0
0.544978 0.212773 0.043693 255 220 0
0.494793 0.155126 0.084008 255 220 0
0.474080 0.137709 0.062309 255 220 0
0.514601 0.185750 0.094964 255 220 0
0.542391 0.121432 0.053279 255 220 0
0.492715 0.186241 0.087539 255 220 0
0.474384 0.183150 0.070461 255 220 0
0.480730 0.206479 0.077430 255 220 0
0.478078 0.150456 0.022500 255 220 0
0.500936 0.188138 0.014871 255 220 0
0.489687 0.081730 0.029623 255 220 0
0.493455 0.191113 0.016682 255 220 0
0.465581 0.158152 0.040250 255 220 0
0.499285 0.132833 0.080759 255 220 0
0.475254 0.105091 0.060390 255 220 0
0.491772 0.149746 0.080992 255 220 0
0.548261 0.177131 0.079526 255 220 0
0.509852 0.196327 0.015648 255 220 0
0.526077 0.229247 0.086684 255 220 0
0.502485 0.127331 0.017423 255 220 0
0.482641 0.232643 0.057383 255 220 0
0.483558 0.227879 0.069491 255 220 0
0.475239 0.166248 0.069404 255 220 0
0.477573 0.208568 0.072624 255 220 0
0.518613 0.232688 0.086621 255 220 0
0.545487 0.165108 0.032449 255 220 0
0.539595 0.230205 0.052793 255 220 0
0.509879 0.231377 0.087253 255 220 0
0.545337 0.204838 0.038420 255 220 0
0.477273 0.126342 0.025039 255 220 0
0.468592 0.118475 0.051275 255 220 0
0.485207 0.133027 0.019971 255 220 0
0.514168 0.139220 0.086719 255 220 0
0.546872 0.132205 0.054911 255 220 0
0.529883 0.181645 0.018845 255 220 0
0.522750 0.214105 0.024569 255 220 0
0.541092 0.149739 0.030125 255 220 0
0.537701 0.234219 0.054883 255 220 0
0.508979 0.101469 0.072095 255 220 0
0.533957 0.124917 0.030714 255 220 0
0.475073 0.212682 0.036493 255 220 0
0.538526 0.229622 0.074146 255 220 0
0.488309 0.153982 0.017131 255 220 0
0.552824 0.156399 0.058542 255 220 0
0.494080 0.169174 0.086160 255 220 0
0.483413 0.101709 0.023687 255 220 0
0.507831 0.240513 0.039485 255 220 0
0.481879 0.130394 0.069572 255 220 0
0.520835 0.123294 0.022162 255 220 0
0.482070 0.090903 0.062984 255 220 0
0.510800 0.165496 0.091863 255 220 0
0.508234 0.172635 0.092586 255 220 0
0.526754 0.118166 0.077708 255 220 0
0.542590 0.137341 0.078556 255 220 0
0.501245 0.204466 0.018260 255 220 0
0.529914 0.238518 0.075966 255 220 0
0.523233 0.123937 0.023162 255 220 0
0.490030 0.150276 0.080027 255 220 0
0.515904 0.102040 0.027890 255 220 0
0.546885 0.148024 0.040173 255 220 0
0.550640 0.177028 0.040604 255 220 0
0.539992 0.157555 0.027024 255 220 0
0.492726 0.156690 0.015819 255 220 0
0.541112 0.118531 0.053775 255 220 0
0.549442 0.140560 0.067228 255 220 0
0.523636 0.221849 0.028891 255 220 0
0.469859 0.162677 0.029202 255 220 0
0.484626 0.168722 0.079606 255 220 0
0.467146 0.081242 0.044354 255 220 0
0.545889 0.191249 0.034340 255 220 0
0.538335 0.132926 0.032187 255 220 0
0.495547 0.209220 0.089857 255 220 0
0.517498 0.242055 0.041880 255 220 0
0.540321 0.148126 0.083954 255 220 0
0.538356 0.118922 0.042398 255 220 0
0.525022 0.163047 0.091672 255 220 0
0.517683 0.089437 0.039626 255 220 0
0.487968 0.196022 0.019486 255 220 0
0.479452 0.123184 0.023666 255 220 0
0.502896 0.246310 0.068781 255 220 0
0.547435 0.166313 0.079535 255 220 0
0.543398 0.203283 0.034536 255 220 0
0.545654 0.149348 0.037087 255 220 0
0.497941 0.243083 0.047933 255 220 0
0.505665 0.219385 0.091885 255 220 0
0.545429 0.219444 0.065674 255 220 0
0.543017 0.225869 0.064572 255 220 0
0.500817 0.246272 0.066031 255 220 0
0.542689 0.121262 0.055768 255 220 0
0.531854 0.106013 0.043251 255 220 0
0.534750 0.239499 0.061785 255 220 0
0.549219 0.208390 0.056207 255 220 0
0.547720 0.199533 0.040466 255 220 0
0.513533 0.111785 0.022712 255 220 0
0.543957 0.190487 0.031551 255 220 0
0.548489 0.141205 0.071632 255 220 0
0.468957 0.151302 0.056573 255 220 0
0.503556 0.238731 0.038237 255 220 0
0.536066 0.158205 0.023309 255 220 0
0.554230 0.179595 0.061734 255 220 0
0.534664 0.116878 0.072935 255 220 0
0.481257 0.120013 0.067165 255 220 0
0.495880 0.090794 0.066738 255 220 0
0.480747 0.189886 0.021716 255 220 0
0.490682 0.116506 0.019926 255 220 0
0.537512 0.231254 0.074195 255 220 0
0.481857 0.131636 0.069801 255 220 0
0.499495 0.189982 0.091865 255 220 0
0.494231 0.232223 0.078882 255 220 0
0.500999 0.163173 0.088918 255 220 0
0.472297 0.080032 0.054772 255 220 0
0.539581 0.153720 0.027435 255 220 0
0.488111 0.234500 0.069014 255 220 0
0.482068 0.076137 0.056505 255 220 0
0.483494 0.200298 0.081198 255 220 0
0.520556 0.126312 0.021194 255 220 0
0.482165 0.229059 0.043374 255 220 0
0.488133 0.219538 0.081267 255 220 0
0.477914 0.225918 0.055999 255 220 0
0.493477 0.169965 0.015147 255 220 0
0.520038 0.101605 0.031026 255 220 0
0.483147 0.127033 0.069946 255 220 0
0.504767 0.195830 0.094125 255 220 0
0.466794 0.108377 0.039879 255 220 0
0.509355 0.087756 0.063477 255 220 0
0.466897 0.191348 0.040999 255 220 0
0.521068 0.237732 0.038978 255 220 0
0.506443 0.100213 0.071554 255 220 0
0.466912 0.142477 0.046872 255 220 0
0.477270 0.164008 0.021760 255 220 0
0.468898 0.125329 0.051449 255 220 0
0.471174 0.184948 0.029528 255 220 0
0.547421 0.213059 0.053262 255 220 0
0.506879 0.238036 0.037019 255 220 0
0.500112 0.237450 0.037792 255 220 0
0.499011 0.165583 0.088436 255 220 0
0.498643 0.160810 0.014629 255 220 0
0.534333 0.171564 0.091012 255 220 0
0.479906 0.164172 0.020044 255 220 0
0.473386 0.209183 0.064636 255 220 0
0.513191 0.110387 0.023052 255 220 0
0.491412 0.156874 0.082271 255 220 0
0.502694 0.229573 0.086267 255 220 0
0.531062 0.124731 0.079542 255 220 0
0.512313 0.248109 0.050414 255 220 0
0.515904 0.199032 0.017025 255 220 0
0.482604 0.227678 0.067920 255 220 0
0.538258 0.129180 0.033896 255 220 0
0.487574 0.195365 0.084741 255 220 0
0.513590 0.234291 0.034066 255 220 0
0.541847 0.219455 0.043285 255 220 0
0.552881 0.157923 0.064054 255 220 0
0.508523 0.126223 0.082121 255 220 0
0.519854 0.137020 0.086143 255 220 0
0.500683 0.112384 0.019876 255 220 0
0.515849 0.231784 0.087416 255 220 0
0.479985 0.228052 0.046904 255 220 0
0.490144 0.232659 0.038095 255 220 0
0.532629 0.145197 0.023303 255 220 0
0.536658 0.225321 0.040594 255 220 0
0.499602 0.190347 0.091942 255 220 0
0.467676 0.085821 0.051799 255 220 0
0.519919 0.190003 0.095234 255 220 0
0.485737 0.217481 0.029498 255 220 0
0.483115 0.155566 0.075979 255 220 0
0.548258 0.142269 0.047829 255 220 0
0.497261 0.088942 0.066062 255 220 0
0.549608 0.179682 0.038488 255 220 0
0.494155 0.136685 0.079120 255 220 0
0.546091 0.128525 0.062809 255 220 0
0.501779 0.237319 0.037163 255 220 0
0.466928 0.169682 0.034263 255 220 0
0.550754 0.203053 0.057698 255 220 0
0.537040 0.223428 0.081240 255 220 0
0.489307 0.154317 0.016817 255 220 0
0.533693 0.146123 0.023877 255 220 0
0.538566 0.209226 0.084997 255 220 0
0.544064 0.140115 0.078301 255 220 0
0.485996 0.236263 0.058624 255 220 0
0.553994 0.168066 0.055338 255 220 0
0.533648 0.130821 0.027999 255 220 0
0.505866 0.231718 0.031961 255 220 0
0.535173 0.112367 0.042694 255 220 0
0.471083 0.114681 0.031679 255 220 0
0.517255 0.121863 0.081184 255 220 0
0.475862 0.122359 0.062331 255 220 0
0.524392 0.186995 0.017015 255 220 0
0.499347 0.087594 0.028037 255 220 0
0.484248 0.112966 0.067979 255 220 0
0.492721 0.121910 0.018917 255 220 0
0.551652 0.175757 0.072963 255 220 0
0.525991 0.187111 0.094293 255 220 0
0.542197 0.216516 0.041066 255 220 0
0.483083 0.208469 0.079700 255 220 0
0.531773 0.136267 0.024814 255 220 0
0.548678 0.144489 0.047405 255 220 0
0.534619 0.218825 0.033579 255 220 0
0.482214 0.178537 0.078973 255 220 0
0.552922 0.156762 0.060955 255 220 0
0.476122 0.131502 0.063836 255 220 0
0.465300 0.159101 0.042916 255 220 0
0.480047 0.147062 0.071357 255 220 0
0.534734 0.131237 0.080972 255 220 0
0.510027 0.211668 0.020418 255 220 0
0.541676 0.138307 0.079787 255 220 0
0.489882 0.190135 0.086072 255 220 0
0.544216 0.192133 0.032258 255 220 0
0.505572 0.199513 0.016368 255 220 0
0.532572 0.189974 0.021162 255 220 0
0.468277 0.202147 0.046931 255 220 0
0.543453 0.210618 0.038664 255 220 0
0.539463 0.126999 0.075880 255 220 0
0.466370 0.147298 0.045782 255 220 0
0.534617 0.191524 0.091168 255 220 0
0.527360 0.199489 0.093729 255 220 0
0.465766 0.168782 0.051216 255 220 0
0.488782 0.238801 0.059393 255 220 0
0.488216 0.192441 0.018581 255 220 0
0.470197 0.117619 0.054661 255 220 0
0.499787 0.097625 0.069904 255 220 0
0.529089 0.225076 0.033678 255 220 0
0.528921 0.172209 0.018069 255 220 0
0.517638 0.090904 0.062572 255 220 0
0.526098 0.217498 0.091668 255 220 0
0.526211 0.185227 0.017502 255 220 0
0.487064 0.224887 0.033607 255 220 0
0.468095 0.140869 0.051676 255 220 0
0.468560 0.079066 0.043175 255 220 0
0.494854 0.177882 0.015045 255 220 0
0.479369 0.073236 0.040415 255 220 0
0.479915 0.112090 0.064839 255 220 0
0.518282 0.205352 0.095281 255 220 0
0.491061 0.154425 0.016345 255 220 0
0.529038 0.158511 0.090212 255 220 0
0.541576 0.151973 0.084012 255 220 0
0.506189 0.085729 0.062835 255 220 0
0.478953 0.104473 0.063106 255 220 0
0.538889 0.141718 0.082910 255 220 0
0.525512 0.181835 0.094143 255 220 0
0.515020 0.247975 0.070437 255 220 0
0.475191 0.073904 0.042946 255 220 0
0.484790 0.213984 0.079978 255 220 0
0.466906 0.108052 0.039275 255 220 0
0.518569 0.206578 0.019978 255 220 0
0.478902 0.186401 0.022262 255 220 0
0.544643 0.188900 0.032073 255 220 0
0.466592 0.144513 0.044950 255 220 0
0.465577 0.092718 0.047651 255 220 0
0.475103 0.152282 0.024663 255 220 0
0.486993 0.117524 0.020702 255 220 0
0.515580 0.139234 0.086794 255 220 0
0.496383 0.212473 0.089837 255 220 0
0.496522 0.187406 0.090015 255 220 0
0.468379 0.160895 0.031665 255 220 0
0.534300 0.178721 0.091622 255 220 0
0.489987 0.210651 0.085812 255 220 0
0.474167 0.123468 0.028020 255 220 0
0.545968 0.137914 0.043976 255 220 0
0.499339 0.180740 0.090857 255 220 0
0.540659 0.145959 0.083155 255 220 0
0.466155 0.182341 0.052664 255 220 0
0.553205 0.160977 0.064039 255 220 0
0.484802 0.185431 0.018749 255 220 0
0.494836 0.131750 0.078175 255 220 0
0.528491 0.215246 0.091164 255 220 0
0.547231 0.212977 0.051967 255 220 0
0.465713 0.159250 0.048609 255 220 0
0.489385 0.105788 0.069021 255 220 0
0.510386 0.079154 0.052647 255 220 0
0.550344 0.143181 0.059295 255 220 0
0.533593 0.216040 0.031203 255 220 0
0.513995 0.189649 0.015002 255 220 0
0.486440 0.185893 0.018124 255 220 0
0.547782 0.156439 0.078196 255 220 0
0.469488 0.189253 0.033299 255 220 0
0.482996 0.085849 0.027656 255 220 0
0.552179 0.170847 0.045193 255 220 0
0.469717 0.179685 0.030482 255 220 0
0.527602 0.224360 0.088482 255 220 0
0.498203 0.114399 0.075077 255 220 0
0.531871 0.240359 0.052107 255 220 0
0.548456 0.158663 0.077382 255 220 0
0.517292 0.180210 0.014665 255 220 0
0.533878 0.204394 0.025835 255 220 0
0.521296 0.244624 0.046573 255 220 0
0.491933 0.236369 0.041007 255 220 0
0.531649 0.109896 0.037981 255 220 0
0.526474 0.110670 0.031005 255 220 0
0.486433 0.177465 0.017239 255 220 0
0.468734 0.182745 0.060493 255 220 0
0.481934 0.116371 0.067056 255 220 0
0.546637 0.158048 0.036011 255 220 0
0.514576 0.128580 0.083649 255 220 0
0.494419 0.241194 0.047531 255 220 0
0.468782 0.081301 0.051084 255 220 0
0.470395 0.177109 0.029084 255 220 0
0.520069 0.109325 0.026885 255 220 0
0.507229 0.140790 0.086015 255 220 0
0.528458 0.183956 0.018334 255 220 0
0.537032 0.178464 0.022989 255 220 0
0.537674 0.145336 0.027483 255 220 0
0.523454 0.239432 0.079772 255 220 0
0.471305 0.211629 0.053677 255 220 0
0.494960 0.085423 0.028180 255 220 0
0.550083 0.177428 0.076433 255 220 0
0.547918 0.164405 0.036627 255 220 0
0.538492 0.218791 0.037342 255 220 0
0.467516 0.111032 0.049707 255 220 0
0.466822 0.113295 0.044190 255 220 0
0.500110 0.178841 0.014274 255 220 0
0.548372 0.211500 0.061717 255 220 0
0.478739 0.210542 0.030515 255 220 0
0.546384 0.190754 0.081066 255 220 0
0.554181 0.168527 0.058682 255 220 0
0.481426 0.112722 0.066058 255 220 0
0.541480 0.223295 0.074274 255 220 0
0.518755 0.089496 0.041070 255 220 0
0.536719 0.118407 0.039115 255 220 0
0.505800 0.093174 0.027307 255 220 0
0.553496 0.185913 0.064326 255 220 0
0.470840 0.206224 0.059385 255 220 0
0.516203 0.179310 0.094373 255 220 0
0.527048 0.239833 0.077012 255 220 0
0.500248 0.207046 0.019378 255 220 0
0.502336 0.179191 0.091946 255 220 0
0.471441 0.160333 0.027370 255 220 0
0.506807 0.137325 0.016192 255 220 0
0.530254 0.222719 0.032929 255 220 0
0.478350 0.124699 0.065278 255 220 0
0.469940 0.187152 0.031897 255 220 0
0.548875 0.198264 0.042548 255 220 0
0.543728 0.162245 0.083613 255 220 0
0.513036 0.085099 0.059456 255 220 0
0.474287 0.204625 0.032097 255 220 0
0.496469 0.117634 0.019042 255 220 0
0.537034 0.116186 0.042440 255 220 0
0.553107 0.173198 0.048046 255 220 0
0.544024 0.223394 0.057535 255 220 0
0.553811 0.185060 0.054777 255 220 0
0.469633 0.140033 0.033573 255 220 0
0.521441 0.241618 0.078295 255 220 0
0.507741 0.092063 0.028866 255 220 0
0.509988 0.106475 0.074554 255 220 0
0.518060 0.221098 0.026387 255 220 0
0.483848 0.072635 0.040443 255 220 0
0.533349 0.224968 0.084255 255 220 0
0.504311 0.097913 0.070414 255 220 0
0.508011 0.172205 0.092480 255 220 0
0.489366 0.085016 0.027764 255 220 0
0.480584 0.230095 0.051719 255 220 0
0.520218 0.249198 0.059579 255 220 0
0.511633 0.108849 0.022993 255 220 0
0.507522 0.083843 0.060811 255 220 0
0.490506 0.144630 0.079024 255 220 0
0.530938 0.125921 0.080143 255 220 0
0.552403 0.192161 0.066027 255 220 0
0.465116 0.176323 0.046894 255 220 0
0.487099 0.100693 0.022948 255 220 0
0.471862 0.213245 0.053563 255 220 0
0.508460 0.221846 0.025602 255 220 0
0.537133 0.141546 0.027923 255 220 0
0.468183 0.113881 0.037095 255 220 0
0.476569 0.154287 0.068898 255 220 0
0.541856 0.211443 0.080333 255 220 0
0.484767 0.146109 0.075403 255 220 0
0.501679 0.074014 0.049005 255 220 0
0.499683 0.175157 0.090299 255 220 0
0.552905 0.165025 0.067651 255 220 0
0.493700 0.099532 0.069065 255 220 0
0.544777 0.209034 0.040064 255 220 0
0.510253 0.112549 0.077312 255 220 0
0.470083 0.197771 0.035490 255 220 0
0.469876 0.201855 0.038271 255 220 0
0.504347 0.201129 0.094063 255 220 0
0.517773 0.188398 0.095245 255 220 0
0.545702 0.135513 0.073673 255 220 0
0.465728 0.158776 0.048506 255 220 0
0.521114 0.088309 0.055614 255 220 0
0.526485 0.224878 0.032057 255 220 0
0.492438 0.241831 0.058733 255 220 0
0.467491 0.135179 0.046204 255 220 0
0.514914 0.118979 0.080100 255 220 0
0.548681 0.142493 0.049300 255 220 0
0.538499 0.185996 0.024970 255 220 0
0.487934 0.074181 0.054921 255 220 0
0.482305 0.072718 0.051382 255 220 0
0.484907 0.220580 0.077151 255 220 0
0.501408 0.135597 0.016449 255 220 0
0.521686 0.201088 0.095085 255 220 0
0.466618 0.111198 0.043882 255 220 0
0.550813 0.159819 0.044752 255 220 0
0.541530 0.202867 0.031948 255 220 0
0.537525 0.213614 0.084765 255 220 0
0.509148 0.102500 0.024370 255 220 0
0.471003 0.172455 0.064118 255 220 0
0.520654 0.160317 0.015595 255 220 0
0.509842 0.102357 0.024703 255 220 0
0.521910 0.135169 0.085462 255 220 0
0.493637 0.125667 0.075943 255 220 0
0.508043 0.108524 0.075441 255 220 0
0.529398 0.125929 0.080660 255 220 0
0.540434 0.128750 0.076051 255 220 0
0.511895 0.243360 0.077325 255 220 0
0.549617 0.164621 0.075895 255 220 0
0.537605 0.235593 0.059126 255 220 0
0.480290 0.194921 0.078074 255 220 0
0.493770 0.084270 0.063755 255 220 0
0.542191 0.158964 0.029227 255 220 0
0.538989 0.148254 0.084751 255 220 0
0.477889 0.110500 0.063044 255 220 0
0.500820 0.161715 0.014329 255 220 0
0.534188 0.223645 0.036483 255 220 0
0.488863 0.201038 0.085788 255 220 0
0.538300 0.152324 0.026446 255 220 0
0.466345 0.151855 0.039088 255 220 0
0.534021 0.153063 0.087886 255 220 0
0.467916 0.160604 0.032544 255 220 0
0.536098 0.175388 0.022170 255 220 0
0.535503 0.115671 0.071223 255 220 0
0.540358 0.224628 0.075403 255 220 0
0.549497 0.207535 0.056589 255 220 0
0.514574 0.161654 0.014353 255 220 0
0.500180 0.105706 0.021285 255 220 0
0.465942 0.103127 0.041269 255 220 0
0.507437 0.243063 0.042659 255 220 0
0.553335 0.159770 0.060106 255 220 0
0.543333 0.164401 0.029613 255 220 0
0.498768 0.082549 0.031345 255 220 0
0.541052 0.195244 0.086047 255 220 0
0.472101 0.083110 0.032759 255 220 0
0.473296 0.123718 0.059345 255 220 0
0.475759 0.189081 0.025364 255 220 0
0.531329 0.182952 0.092832 255 220 0
0.500348 0.124242 0.078793 255 220 0
0.503614 0.140247 0.015859 255 220 0
0.470579 0.189016 0.064244 255 220 0
0.493951 0.242110 0.064629 255 220 0
0.501878 0.182557 0.092167 255 220 0
0.468486 0.124443 0.037945 255 220 0
0.467938 0.136893 0.049770 255 220 0
0.517138 0.181672 0.014725 255 220 0
0.477623 0.089811 0.060917 255 220 0
0.521288 0.095237 0.037498 255 220 0
0.548357 0.144171 0.046518 255 220 0
0.525117 0.153853 0.017728 255 220 0
0.526799 0.223674 0.089170 255 220 0
0.552674 0.194172 0.059328 255 220 0
0.496261 0.230131 0.032711 255 220 0
0.513584 0.221845 0.025898 255 220 0
0.554101 0.173017 0.063457 255 220 0
0.524002 0.229935 0.087087 255 220 0
0.544109 0.182056 0.030209 255 220 0
0.472430 0.178365 0.026727 255 220 0
0.513104 0.141403 0.016216 255 220 0
0.550262 0.173848 0.075775 255 220 0
0.468776 0.119262 0.036485 255 220 0
0.493615 0.078003 0.033390 255 220 0
0.497454 0.078804 0.034302 255 220 0
0.484350 0.095563 0.064653 255 220 0
0.501334 0.229567 0.085663 255 220 0
0.511051 0.241220 0.079476 255 220 0
0.509436 0.184112 0.014082 255 220 0
0.489204 0.222711 0.080751 255 220 0
0.522463 0.224190 0.090459 255 220 0
0.485484 0.233013 0.066241 255 220 0
0.550671 0.203400 0.058031 255 220 0
0.482533 0.222312 0.072817 255 220 0
0.480218 0.228574 0.047421 255 220 0
0.523458 0.094417 0.061760 255 220 0
0.503530 0.161737 0.014112 255 220 0
0.496867 0.171555 0.088262 255 220 0
0.491417 0.222453 0.029559 255 220 0
0.507790 0.138853 0.016056 255 220 0
0.465822 0.102997 0.042155 255 220 0
0.487403 0.157199 0.017162 255 220 0
0.546048 0.204896 0.076406 255 220 0
0.483623 0.204144 0.024123 255 220 0
0.515836 0.178946 0.014362 255 220 0
0.496871 0.222949 0.086860 255 220 0
0.478541 0.220068 0.067698 255 220 0
0.551640 0.156992 0.049329 255 220 0
0.503140 0.198875 0.093723 255 220 0
0.507272 0.090499 0.065985 255 220 0
0.465756 0.093984 0.038607 255 220 0
0.511773 0.174229 0.093344 255 220 0
0.487857 0.093170 0.024607 255 220 0
0.536387 0.219286 0.035416 255 220 0
0.468571 0.153513 0.032593 255 220 0
0.471195 0.211080 0.054304 255 220 0
0.492826 0.185405 0.016047 255 220 0
0.548222 0.168382 0.036391 255 220 0
0.548835 0.165541 0.038161 255 220 0
0.510250 0.212655 0.094234 255 220 0
0.467495 0.136605 0.041150 255 220 0
0.524582 0.233927 0.037470 255 220 0
0.508684 0.210274 0.094352 255 220 0
0.488529 0.201679 0.085525 255 220 0
0.472305 0.210877 0.060281 255 220 0
0.524225 0.244627 0.072361 255 220 0
0.544729 0.185109 0.031439 255 220 0
0.543656 0.224129 0.057157 255 220 0
0.483636 0.200860 0.081304 255 220 0
0.494255 0.128094 0.076894 255 220 0
0.501637 0.085586 0.063804 255 220 0
0.491691 0.163377 0.015651 255 220 0
0.467415 0.156874 0.034219 255 220 0
0.538583 0.113504 0.054084 255 220 0
0.472348 0.193595 0.030327 255 220 0
0.545967 0.173256 0.082319 255 220 0
0.507126 0.147709 0.087675 255 220 0
0.467401 0.142142 0.038933 255 220 0
0.526606 0.128718 0.082530 255 220 0
0.537134 0.115575 0.043566 255 220 0
0.546131 0.152208 0.036949 255 220 0
0.539072 0.167554 0.088052 255 220 0
0.494286 0.226084 0.083390 255 220 0
0.548576 0.156362 0.040399 255 220 0
0.520720 0.207945 0.094847 255 220 0
0.487646 0.200085 0.084853 255 220 0
0.552955 0.189953 0.052417 255 220 0
0.545350 0.179179 0.031498 255 220 0
0.521170 0.087638 0.052327 255 220 0
0.474708 0.074009 0.043864 255 220 0
0.466893 0.170315 0.034380 255 220 0
0.510720 0.104468 0.073530 255 220 0
0.501047 0.235843 0.080641 255 220 0
0.477373 0.199871 0.074236 255 220 0
0.512811 0.133539 0.085052 255 220 0
0.540695 0.129301 0.037837 255 220 0
0.501562 0.213838 0.091965 255 220 0
0.549408 0.144036 0.050925 255 220 0
0.480130 0.143748 0.021795 255 220 0
0.515678 0.122339 0.020387 255 220 0
0.486937 0.167523 0.081199 255 220 0
0.500510 0.215149 0.091277 255 220 0
0.542271 0.165662 0.028156 255 220 0
0.493169 0.143058 0.080221 255 220 0
0.469259 0.156311 0.030885 255 220 0
0.473636 0.206515 0.034042 255 220 0
0.500268 0.107624 0.073676 255 220 0
0.527410 0.194280 0.019298 255 220 0
0.476837 0.161556 0.070596 255 220 0
0.472210 0.208361 0.037953 255 220 0
0.478940 0.123029 0.065609 255 220 0
0.553948 0.170295 0.063837 255 220 0
0.490100 0.084361 0.028145 255 220 0
0.531015 0.235906 0.044583 255 220 0
0.527294 0.241218 0.046872 255 220 0
0.505396 0.133590 0.083527 255 220 0
0.474318 0.219349 0.051838 255 220 0
0.511123 0.248177 0.069718 255 220 0
0.537996 0.118646 0.041796 255 220 0
0.470282 0.202908 0.059859 255 220 0
0.500102 0.158010 0.014616 255 220 0
0.534301 0.187510 0.021930 255 220 0
0.525452 0.094031 0.047120 255 220 0
0.513828 0.123763 0.019502 255 220 0
0.478762 0.163351 0.073124 255 220 0
0.498478 0.098773 0.070107 255 220 0
0.534691 0.239440 0.063594 255 220 0
0.501410 0.155513 0.014659 255 220 0
0.550539 0.144509 0.057885 255 220 0
0.519358 0.146290 0.016791 255 220 0
0.468858 0.141987 0.054090 255 220 0
0.518003 0.244998 0.045579 255 220 0
0.533893 0.240246 0.064101 255 220 0
0.549843 0.202067 0.048660 255 220 0
0.497110 0.120491 0.018587 255 220 0
0.505335 0.232066 0.032257 255 220 0
0.470618 0.209741 0.053020 255 220 0
0.524036 0.214119 0.093245 255 220 0
0.473668 0.127784 0.028479 255 220 0
0.524808 0.096540 0.062792 255 220 0
0.469525 0.205638 0.043588 255 220 0
0.544712 0.164486 0.031437 255 220 0
0.543613 0.158358 0.083322 255 220 0
0.467156 0.096455 0.035723 255 220 0
0.504735 0.157298 0.014329 255 220 0
0.478017 0.219160 0.067427 255 220 0
0.529892 0.164907 0.091313 255 220 0
0.474383 0.184841 0.025773 255 220 0
0.490546 0.076288 0.034261 255 220 0
0.467964 0.157192 0.032995 255 220 0
0.491807 0.077034 0.058337 255 220 0
0.522873 0.185988 0.016424 255 220 0
0.546685 0.209051 0.044738 255 220 0
0.467561 0.157966 0.054868 255 220 0
0.553672 0.166354 0.053648 255 220 0
0.500312 0.094525 0.024875 255 220 0
0.477362 0.124719 0.064259 255 220 0
0.506670 0.090042 0.065805 255 220 0
0.489756 0.199734 0.086442 255 220 0
0.484818 0.197241 0.082499 255 220 0
0.503550 0.094594 0.068781 255 220 0
0.521005 0.193305 0.016936 255 220 0
0.533005 0.192233 0.021791 255 220 0
0.472056 0.212132 0.043214 255 220 0
0.518048 0.183928 0.015058 255 220 0
0.469909 0.206635 0.054452 255 220 0
0.477342 0.225018 0.050706 255 220 0
0.516800 0.197657 0.095559 255 220 0
0.507494 0.125784 0.017912 255 220 0
0.478803 0.109702 0.063666 255 220 0
0.535818 0.236880 0.054883 255 220 0
0.502308 0.160484 0.088920 255 220 0
0.517204 0.125831 0.082710 255 220 0
0.542402 0.123415 0.049045 255 220 0
0.471102 0.095538 0.056542 255 220 0
0.467129 0.115924 0.045712 255 220 0
0.485550 0.205779 0.082677 255 220 0
0.545048 0.126616 0.065325 255 220 0
0.476152 0.117499 0.062158 255 220 0
0.520872 0.226671 0.089682 255 220 0
0.476905 0.202311 0.028278 255 220 0
0.501887 0.090128 0.066528 255 220 0
0.554202 0.168855 0.058576 255 220 0
0.548463 0.177306 0.079231 255 220 0
0.465067 0.092770 0.045103 255 220 0
0.484148 0.185058 0.081376 255 220 0
0.536184 0.160267 0.023078 255 220 0
0.511124 0.208807 0.019297 255 220 0
0.494429 0.159468 0.084656 255 220 0
0.525676 0.095230 0.060051 255 220 0
0.481140 0.173232 0.077214 255 220 0
0.502678 0.161360 0.089232 255 220 0
0.522738 0.246994 0.068537 255 220 0
0.487563 0.173931 0.016674 255 220 0
0.471338 0.111090 0.031122 255 220 0
0.477069 0.221247 0.062919 255 220 0
0.488953 0.239106 0.057843 255 220 0
0.537620 0.112200 0.052319 255 220 0
0.483307 0.073065 0.052450 255 220 0
0.485362 0.083100 0.062113 255 220 0
0.475402 0.085202 0.059115 255 220 0
0.506657 0.076449 0.049559 255 220 0
0.528648 0.103759 0.039270 255 220 0
0.512882 0.146244 0.088319 255 220 0
0.467144 0.161588 0.054545 255 220 0
0.528492 0.116675 0.029530 255 220 0
0.525289 0.163901 0.091808 255 220 0
0.486733 0.152691 0.078318 255 220 0
0.468083 0.120953 0.038998 255 220 0
0.471954 0.160832 0.026728 255 220 0
0.486592 0.130961 0.073233 255 220 0
0.519797 0.126090 0.082630 255 220 0
0.484699 0.232486 0.044267 255 220 0
0.465278 0.174317 0.048840 255 220 0
0.529083 0.112943 0.073673 255 220 0
0.547362 0.149792 0.040430 255 220 0
0.483793 0.106979 0.066516 255 220 0
0.495571 0.225988 0.084416 255 220 0
0.511270 0.232031 0.087029 255 220 0
0.540525 0.173110 0.087664 255 220 0
0.473587 0.106653 0.028595 255 220 0
0.512527 0.120839 0.019841 255 220 0
0.508285 0.221177 0.091860 255 220 0
0.483860 0.200971 0.081516 255 220 0
0.473071 0.103926 0.058386 255 220 0
0.473951 0.212562 0.038443 255 220 0
0.494448 0.141504 0.016660 255 220 0
0.492983 0.103608 0.021637 255 220 0
0.511547 0.248678 0.068445 255 220 0
0.493451 0.108036 0.071323 255 220 0
0.477584 0.223314 0.061356 255 220 0
0.548418 0.140795 0.049998 255 220 0
0.485925 0.112508 0.068870 255 220 0
0.534409 0.115946 0.072425 255 220 0
0.478603 0.131920 0.066722 255 220 0
0.516147 0.120519 0.021028 255 220 0
0.476121 0.217606 0.039833 255 220 0
0.533116 0.145576 0.086371 255 220 0
0.482702 0.129364 0.021399 255 220 0
0.547537 0.146845 0.042305 255 220 0
0.524963 0.107365 0.031621 255 220 0
0.466992 0.140288 0.043365 255 220 0
0.484202 0.138341 0.073196 255 220 0
0.539239 0.167159 0.087891 255 220 0
0.550850 0.181058 0.041396 255 220 0
0.528428 0.097426 0.058019 255 220 0
0.467456 0.196351 0.042637 255 220 0
0.484226 0.071949 0.042894 255 220 0
0.473213 0.191792 0.068808 255 220 0
0.469516 0.201564 0.058071 255 220 0
0.469804 0.180586 0.062701 255 220 0
0.503518 0.230242 0.086185 255 220 0
0.528882 0.195315 0.093409 255 220 0
0.510806 0.180675 0.094058 255 220 0
0.530691 0.120508 0.029604 255 220 0
0.495600 0.139482 0.016626 255 220 0
0.472715 0.096798 0.029448 255 220 0
0.498728 0.180275 0.014510 255 220 0
0.534452 0.111784 0.041628 255 220 0
0.547641 0.213738 0.057146 255 220 0
0.515140 0.231786 0.032429 255 220 0
0.525174 0.104181 0.034065 255 220 0
0.518797 0.142125 0.087533 255 220 0
0.476308 0.167813 0.071037 255 220 0
0.544027 0.129118 0.046730 255 220 0
0.531414 0.241679 0.053917 255 220 0
0.466652 0.190782 0.051763 255 220 0
0.496103 0.181898 0.015034 255 220 0
0.483426 0.221764 0.034127 255 220 0
0.466398 0.156959 0.036929 255 220 0
0.536135 0.237476 0.058187 255 220 0
0.492992 0.158426 0.015656 255 220 0
0.532324 0.224562 0.035587 255 220 0
0.474088 0.093613 0.028767 255 220 0
0.465003 0.170753 0.046434 255 220 0
0.540994 0.203378 0.084059 255 220 0
0.503070 0.123641 0.079721 255 220 0
0.467703 0.130051 0.045762 255 220 0
0.472258 0.214588 0.051645 255 220 0
0.481116 0.109159 0.065266 255 220 0
0.528350 0.201561 0.021775 255 220 0
0.482701 0.145087 0.020175 255 220 0
0.490401 0.227740 0.033617 255 220 0
0.524176 0.200093 0.094618 255 220 0
0.490468 0.072386 0.051656 255 220 0
0.476754 0.157974 0.069836 255 220 0
0.511656 0.248979 0.053026 255 220 0
0.480539 0.072726 0.050555 255 220 0
0.543852 0.157601 0.031729 255 220 0
0.471950 0.200737 0.065143 255 220 0
0.552627 0.182191 0.069957 255 220 0
0.497301 0.083041 0.062761 255 220 0
0.482966 0.180400 0.018973 255 220 0
0.469163 0.145920 0.055735 255 220 0
0.475339 0.202358 0.070877 255 220 0
0.518771 0.205382 0.095243 255 220 0
0.482256 0.231827 0.049450 255 220 0
0.533822 0.192741 0.091470 255 220 0
0.534052 0.200191 0.090524 255 220 0
0.505588 0.205196 0.094188 255 220 0
0.517253 0.191009 0.095395 255 220 0
0.529875 0.221579 0.088381 255 220 0
0.495242 0.123705 0.076251 255 220 0
0.496620 0.076871 0.057234 255 220 0
0.491567 0.132586 0.076599 255 220 0
0.485383 0.235219 0.049433 255 220 0
0.473860 0.077821 0.054115 255 220 0
0.550332 0.144731 0.055514 255 220 0
0.520012 0.247384 0.050705 255 220 0
0.478936 0.191735 0.023363 255 220 0
0.466106 0.174112 0.036913 255 220 0
0.515859 0.154165 0.015120 255 220 0
0.467128 0.139363 0.042509 255 220 0
0.469292 0.118229 0.035106 255 220 0
0.481776 0.118735 0.067355 255 220 0
0.514805 0.105109 0.025820 255 220 0
0.493308 0.159401 0.083945 255 220 0
0.511303 0.206626 0.095047 255 220 0
0.487988 0.152224 0.079105 255 220 0
0.547909 0.145579 0.075279 255 220 0
0.475098 0.128768 0.062177 255 220 0
0.487525 0.122290 0.071892 255 220 0
0.521929 0.144742 0.087998 255 220 0
0.505160 0.112604 0.020284 255 220 0
0.523506 0.215166 0.025392 255 220 0
0.466322 0.187445 0.041019 255 220 0
0.493158 0.165734 0.084997 255 220 0
0.535257 0.109672 0.047617 255 220 0
0.536878 0.110068 0.059066 255 220 0
0.503912 0.163139 0.089983 255 220 0
0.489767 0.187483 0.017170 255 220 0
0.550772 0.189299 0.073378 255 220 0
0.553295 0.163217 0.064980 255 220 0
0.552670 0.193906 0.056304 255 220 0
0.504592 0.128033 0.081605 255 220 0
0.477647 0.225180 0.057090 255 220 0
0.501838 0.118515 0.077699 255 220 0
0.520619 0.224493 0.029166 255 220 0
0.466193 0.174404 0.053348 255 220 0
0.551751 0.166156 0.045106 255 220 0
0.547464 0.202400 0.074865 255 220 0
0.527533 0.111188 0.073239 255 220 0
0.542403 0.130986 0.040248 255 220 0
0.483978 0.131306 0.071458 255 220 0
0.486703 0.173622 0.016949 255 220 0
0.467288 0.117927 0.042726 255 220 0
0.501430 0.203654 0.093047 255 220 0
0.502308 0.089141 0.028165 255 220 0
0.480033 0.213144 0.030971 255 220 0
0.472018 0.149292 0.061613 255 220 0
0.520555 0.119230 0.079658 255 220 0
0.496253 0.072783 0.043297 255 220 0
0.497531 0.081461 0.031742 255 220 0
0.522715 0.248400 0.060358 255 220 0
0.507374 0.200392 0.016506 255 220 0
0.544813 0.184730 0.083975 255 220 0
0.472336 0.148262 0.061889 255 220 0
0.496645 0.192195 0.090498 255 220 0
0.497144 0.203994 0.091117 255 220 0
0.469044 0.189930 0.060728 255 220 0
0.492380 0.229044 0.079734 255 220 0
0.470441 0.129816 0.033091 255 220 0
0.499220 0.193000 0.015784 255 220 0
0.548923 0.162239 0.039187 255 220 0
0.495545 0.239940 0.071848 255 220 0
0.536161 0.180314 0.022479 255 220 0
0.466505 0.148715 0.040073 255 220 0
0.489550 0.203312 0.021046 255 220 0
0.511197 0.097277 0.027696 255 220 0
0.483986 0.086091 0.062721 255 220 0
0.473878 0.165643 0.067442 255 220 0
0.548783 0.168230 0.037490 255 220 0
0.491601 0.079136 0.031809 255 220 0
0.542302 0.129402 0.041332 255 220 0
0.475506 0.162155 0.023213 255 220 0
0.536942 0.159893 0.088101 255 220 0
0.553606 0.185089 0.064103 255 220 0
0.485641 0.116794 0.021216 255 220 0
0.521015 0.211992 0.022943 255 220 0
0.532664 0.241357 0.057000 255 220 0
0.549845 0.143174 0.054517 255 220 0
0.523676 0.192299 0.017527 255 220 0
0.495644 0.158186 0.085139 255 220 0
0.470307 0.199631 0.035967 255 220 0
0.475480 0.160435 0.023365 255 220 0
0.554185 0.170462 0.061757 255 220 0
0.518871 0.099683 0.068997 255 220 0
0.533811 0.167545 0.090658 255 220 0
0.513865 0.179476 0.014137 255 220 0
0.542422 0.128584 0.042412 255 220 0
0.533807 0.108016 0.065130 255 220 0
0.494768 0.165977 0.086055 255 220 0
0.542877 0.226372 0.063237 255 220 0
0.515030 0.215236 0.022666 255 220 0
0.554107 0.183158 0.059752 255 220 0
0.543010 0.134032 0.039361 255 220 0
0.549798 0.169221 0.039388 255 220 0
0.522671 0.237707 0.081779 255 220 0
0.483671 0.071557 0.047033 255 220 0
0.517839 0.084708 0.048877 255 220 0
0.493611 0.075469 0.036377 255 220 0
0.492154 0.155816 0.082524 255 220 0
0.469056 0.192504 0.060315 255 220 0
0.473137 0.213262 0.060531 255 220 0
0.517773 0.247953 0.050816 255 220 0
0.512060 0.236426 0.083929 255 220 0
0.472593 0.076234 0.050255 255 220 0
0.514301 0.204245 0.018169 255 220 0
0.538005 0.172124 0.089269 255 220 0
0.530702 0.120448 0.029642 255 220 0
0.471346 0.184274 0.029138 255 220 0
0.519475 0.241780 0.078762 255 220 0
0.491977 0.119145 0.019370 255 220 0
0.553489 0.184553 0.065292 255 220 0
0.467250 0.137846 0.042741 255 220 0
0.535834 0.124483 0.033156 255 220 0
0.485559 0.196188 0.020562 255 220 0
0.536798 0.181579 0.023052 255 220 0
0.512375 0.223093 0.026476 255 220 0
0.542956 0.125084 0.069794 255 220 0
0.473531 0.216913 0.047033 255 220 0
0.466469 0.184630 0.038871 255 220 0
0.516931 0.245501 0.045983 255 220 0
0.472856 0.175609 0.067455 255 220 0
0.486337 0.078983 0.059995 255 220 0
0.545209 0.159498 0.033251 255 220 0
0.475722 0.173280 0.071170 255 220 0
0.531487 0.189424 0.020450 255 220 0
0.495941 0.129757 0.017535 255 220 0
0.469195 0.188722 0.061248 255 220 0
0.539318 0.114975 0.053765 255 220 0
0.486894 0.197421 0.084251 255 220 0
0.486109 0.225090 0.075739 255 220 0
0.490497 0.110576 0.070697 255 220 0
0.527988 0.134743 0.084381 255 220 0
0.519647 0.094071 0.064282 255 220 0
0.472664 0.133991 0.059586 255 220 0
0.539055 0.182987 0.025058 255 220 0
0.523870 0.105706 0.031673 255 220 0
0.519168 0.237671 0.082791 255 220 0
0.480342 0.198960 0.077955 255 220 0
0.524889 0.198038 0.094515 255 220 0
0.495159 0.164225 0.014965 255 220 0
0.553366 0.161346 0.056048 255 220 0
0.480980 0.085813 0.028021 255 220 0
0.481112 0.217532 0.073836 255 220 0
0.493212 0.149057 0.016299 255 220 0
0.468620 0.154380 0.056564 255 220 0
0.552367 0.153203 0.061042 255 220 0
0.467452 0.138196 0.040604 255 220 0
0.478881 0.149427 0.022051 255 220 0
0.465032 0.175862 0.043878 255 220 0
0.512666 0.211595 0.094634 255 220 0
0.534670 0.109812 0.045273 255 220 0
0.487043 0.161401 0.080198 255 220 0
0.538834 0.179172 0.089264 255 220 0
0.488577 0.186240 0.084853 255 220 0
0.488220 0.123814 0.072628 255 220 0
0.492651 0.236005 0.073545 255 220 0
0.491184 0.240423 0.062080 255 220 0
0.485937 0.202682 0.083317 255 220 0
0.494726 0.174547 0.014956 255 220 0
0.470457 0.137559 0.056488 255 220 0
0.474901 0.217241 0.042237 255 220 0
0.518486 0.235536 0.036139 255 220 0
0.525518 0.242357 0.046630 255 220 0
0.468546 0.144565 0.034845 255 220 0
0.479261 0.181774 0.021263 255 220 0
0.549770 0.196557 0.072644 255 220 0
0.466182 0.150038 0.041385 255 220 0
0.548083 0.167049 0.078656 255 220 0
0.543021 0.221071 0.048192 255 220 0
0.552531 0.162274 0.049701 255 220 0
0.504732 0.195529 0.094106 255 220 0
0.517636 0.140160 0.017291 255 220 0
0.537152 0.213111 0.085302 255 220 0
0.532040 0.145242 0.022883 255 220 0
0.504850 0.169313 0.013797 255 220 0
0.553215 0.172145 0.048677 255 220 0
0.467625 0.193146 0.055469 255 220 0
0.552204 0.155726 0.067115 255 220 0
0.505590 0.091947 0.027900 255 220 0
0.477213 0.074555 0.052277 255 220 0
0.547739 0.206094 0.045095 255 220 0
0.470753 0.172504 0.028116 255 220 0
0.471799 0.158761 0.063165 255 220 0
0.490431 0.191284 0.086528 255 220 0
0.473024 0.076664 0.051721 255 220 0
0.540737 0.163332 0.026785 255 220 0
0.474477 0.074109 0.046678 255 220 0
0.544543 0.151326 0.081352 255 220 0
0.509565 0.094169 0.028559 255 220 0
0.529717 0.115431 0.074985 255 220 0
0.467281 0.142102 0.039486 255 220 0
0.473798 0.090704 0.058842 255 220 0
0.473246 0.098952 0.058463 255 220 0
0.519620 0.224438 0.028779 255 220 0
0.475853 0.155313 0.023609 255 220 0
