ply
format ascii 1.0
element vertex 1024
property float x
property float y
property float z
property uchar red
property uchar green
property uchar blue
end_header
0.039033 0.128251 0.096989 255 220 0
0.052700 0.080097 0.075673 255 220 0
0.068140 0.087225 0.072638 255 220 0
0.043035 0.192195 0.110898 255 220 0
0.085833 0.129716 0.053208 255 220 0
0.058982 0.121156 0.031403 255 220 0
0.041425 0.146149 0.103518 255 220 0
0.023182 0.130026 0.086204 255 220 0
0.041684 0.091456 0.031718 255 220 0
0.007609 0.114723 0.058636 255 220 0
0.073400 0.106432 0.045576 255 220 0
0.011082 0.063858 0.054893 255 220 0
0.060302 0.131779 0.103009 255 220 0
0.018401 0.184024 0.043763 255 220 0
0.067211 0.190799 0.112788 255 220 0
0.089193 0.192846 0.060485 255 220 0
0.051769 0.137075 0.028718 255 220 0
0.006662 0.068424 0.055826 255 220 0
0.061772 0.221171 0.055608 255 220 0
0.029924 0.105531 0.083753 255 220 0
0.075717 0.214089 0.102098 255 220 0
0.020767 0.206400 0.057457 255 220 0
0.020224 0.062339 0.060042 255 220 0
0.073677 0.112479 0.042784 255 220 0
0.036420 0.113497 0.029014 255 220 0
0.038698 0.212408 0.048727 255 220 0
0.051634 0.233972 0.086477 255 220 0
0.082065 0.141587 0.099982 255 220 0
0.081342 0.218667 0.073741 255 220 0
0.051403 0.103162 0.031936 255 220 0
0.052758 0.196024 0.037102 255 220 0
0.075308 0.131656 0.100890 255 220 0
0.012802 0.117952 0.039934 255 220 0
0.068057 0.085673 0.068816 255 220 0
0.034623 0.131049 0.029098 255 220 0
0.024303 0.096627 0.077694 255 220 0
0.063334 0.163949 0.111318 255 220 0
0.019449 0.209208 0.069629 255 220 0
0.024988 0.143082 0.091288 255 220 0
0.073280 0.228642 0.087344 255 220 0
0.093087 0.142754 0.081007 255 220 0
0.030024 0.067900 0.039088 255 220 0
0.036285 0.164651 0.104614 255 220 0
0.021863 0.091405 0.074689 255 220 0
0.087908 0.162114 0.098603 255 220 0
0.079470 0.139663 0.041089 255 220 0
0.067079 0.213617 0.051660 255 220 0
0.088120 0.182790 0.097081 255 220 0
0.080896 0.112678 0.054223 255 220 0
0.076515 0.226744 0.081636 255 220 0
0.010867 0.070945 0.039350 255 220 0
0.067988 0.196392 0.112140 255 220 0
0.043848 0.117407 0.095509 255 220 0
0.017796 0.064732 0.062496 255 220 0
0.033684 0.199459 0.104284 255 220 0
0.017893 0.105434 0.034121 255 220 0
0.040532 0.182452 0.109648 255 220 0
0.011975 0.185706 0.054435 255 220 0
0.024660 0.201315 0.047801 255 220 0
0.075076 0.122310 0.097265 255 220 0
0.085351 0.199307 0.057575 255 220 0
0.063225 0.232849 0.089561 255 220 0
0.076826 0.138793 0.038797 255 220 0
0.014797 0.199572 0.065828 255 220 0
0.019467 0.126869 0.081544 255 220 0
0.072380 0.179209 0.037296 255 220 0
0.015483 0.099041 0.071441 255 220 0
0.062791 0.130061 0.031689 255 220 0
0.008828 0.168645 0.052157 255 220 0
0.031069 0.145677 0.096763 255 220 0
0.061253 0.109215 0.034694 255 220 0
0.078325 0.175376 0.040355 255 220 0
0.093861 0.153890 0.063280 255 220 0
0.091340 0.179825 0.058434 255 220 0
0.085150 0.188056 0.050770 255 220 0
0.037279 0.188625 0.108020 255 220 0
0.067066 0.226991 0.097140 255 220 0
0.085726 0.174769 0.101440 255 220 0
0.007014 0.149239 0.053297 255 220 0
0.017750 0.202069 0.057632 255 220 0
0.039586 0.218698 0.053552 255 220 0
0.033837 0.105060 0.029525 255 220 0
0.062695 0.181743 0.034151 255 220 0
0.089379 0.130819 0.062915 255 220 0
0.042489 0.079296 0.036374 255 220 0
0.088596 0.161457 0.097572 255 220 0
0.056993 0.215539 0.049711 255 220 0
0.005765 0.098536 0.047485 255 220 0
0.087385 0.148351 0.095883 255 220 0
0.038421 0.084120 0.079096 255 220 0
0.031857 0.062124 0.046784 255 220 0
0.086409 0.146580 0.048331 255 220 0
0.092260 0.173046 0.058363 255 220 0
0.089095 0.197523 0.064755 255 220 0
0.033541 0.139747 0.097047 255 220 0
0.013262 0.125465 0.072797 255 220 0
0.054277 0.168122 0.111712 255 220 0
0.081016 0.106010 0.066171 255 220 0
0.032935 0.170523 0.103160 255 220 0
0.015525 0.169963 0.084890 255 220 0
0.022688 0.192209 0.094210 255 220 0
0.020328 0.141254 0.034535 255 220 0
0.045602 0.178033 0.031501 255 220 0
0.027766 0.071609 0.036262 255 220 0
0.038196 0.181280 0.033148 255 220 0
0.007220 0.148154 0.052172 255 220 0
0.037013 0.117579 0.092117 255 220 0
0.012789 0.093111 0.068106 255 220 0
0.030422 0.134826 0.093410 255 220 0
0.088291 0.158864 0.097465 255 220 0
0.054883 0.185588 0.033481 255 220 0
0.068559 0.211409 0.107909 255 220 0
0.043714 0.117241 0.028816 255 220 0
0.027209 0.219807 0.076660 255 220 0
0.027139 0.213996 0.088338 255 220 0
0.015530 0.153188 0.082410 255 220 0
0.019944 0.194877 0.089437 255 220 0
0.061308 0.215277 0.107734 255 220 0
0.087709 0.151024 0.049438 255 220 0
0.084122 0.214414 0.075030 255 220 0
0.052494 0.214434 0.107765 255 220 0
0.089342 0.190051 0.058837 255 220 0
0.018073 0.117101 0.034912 255 220 0
0.007418 0.107583 0.059840 255 220 0
0.026646 0.123710 0.030893 255 220 0
0.051832 0.122555 0.099425 255 220 0
0.085964 0.116325 0.068983 255 220 0
0.073865 0.169536 0.036488 255 220 0
0.068161 0.201763 0.044620 255 220 0
0.082639 0.136190 0.045541 255 220 0
0.082325 0.218343 0.077354 255 220 0
0.045505 0.086539 0.081297 255 220 0
0.074154 0.111870 0.043566 255 220 0
0.019846 0.202152 0.053720 255 220 0
0.081741 0.212103 0.096159 255 220 0
0.031039 0.144610 0.030069 255 220 0
0.092983 0.139736 0.075036 255 220 0
0.033459 0.153581 0.100373 255 220 0
0.022946 0.092351 0.031756 255 220 0
0.053817 0.227657 0.060937 255 220 0
0.020205 0.117118 0.079814 255 220 0
0.061501 0.111747 0.034192 255 220 0
0.018663 0.078378 0.069824 255 220 0
0.049584 0.148459 0.106650 255 220 0
0.047367 0.155651 0.107850 255 220 0
0.063784 0.101629 0.089320 255 220 0
0.080551 0.119700 0.092713 255 220 0
0.046586 0.193971 0.036314 255 220 0
0.073527 0.221307 0.098269 255 220 0
0.063866 0.112161 0.035376 255 220 0
0.028772 0.135537 0.092400 255 220 0
0.055096 0.090414 0.037761 255 220 0
0.087717 0.133299 0.055706 255 220 0
0.092998 0.161893 0.058875 255 220 0
0.082151 0.144290 0.043078 255 220 0
0.035666 0.147155 0.029245 255 220 0
0.079554 0.103158 0.066341 255 220 0
0.088236 0.123450 0.082106 255 220 0
0.069202 0.209051 0.049644 255 220 0
0.012392 0.153332 0.041814 255 220 0
0.024406 0.154239 0.093293 255 220 0
0.004387 0.071212 0.049626 255 220 0
0.089405 0.176844 0.053623 255 220 0
0.078861 0.119455 0.045971 255 220 0
0.036858 0.193018 0.107628 255 220 0
0.063392 0.228420 0.063989 255 220 0
0.078547 0.130108 0.098898 255 220 0
0.077513 0.104666 0.054906 255 220 0
0.063639 0.145202 0.107032 255 220 0
0.055485 0.076786 0.048432 255 220 0
0.032824 0.186250 0.036062 255 220 0
0.020157 0.113947 0.033391 255 220 0
0.047449 0.231251 0.090310 255 220 0
0.086884 0.148151 0.096485 255 220 0
0.087559 0.188945 0.054730 255 220 0
0.086746 0.134948 0.052684 255 220 0
0.043591 0.230085 0.069017 255 220 0
0.047369 0.202364 0.111092 255 220 0
0.088582 0.202284 0.087225 255 220 0
0.086591 0.208910 0.086557 255 220 0
0.045540 0.231567 0.087456 255 220 0
0.081153 0.105614 0.068649 255 220 0
0.070284 0.092136 0.054268 255 220 0
0.079253 0.223189 0.084517 255 220 0
0.092333 0.191862 0.077053 255 220 0
0.091308 0.184462 0.060541 255 220 0
0.053570 0.100683 0.033331 255 220 0
0.087606 0.176435 0.050676 255 220 0
0.087056 0.123778 0.086490 255 220 0
0.009234 0.139769 0.067996 255 220 0
0.049536 0.226241 0.059304 255 220 0
0.078496 0.145480 0.039222 255 220 0
0.095443 0.162459 0.080314 255 220 0
0.071886 0.100284 0.084898 255 220 0
0.019170 0.107031 0.076479 255 220 0
0.032195 0.077141 0.074312 255 220 0
0.025161 0.180385 0.037346 255 220 0
0.031216 0.106958 0.029709 255 220 0
0.080815 0.213782 0.096294 255 220 0
0.020236 0.118336 0.080149 255 220 0
0.039635 0.173481 0.108164 255 220 0
0.037446 0.216900 0.098648 255 220 0
0.039866 0.146973 0.102975 255 220 0
0.008829 0.068830 0.060167 255 220 0
0.081509 0.140466 0.043129 255 220 0
0.032062 0.220355 0.088693 255 220 0
0.018254 0.064235 0.062091 255 220 0
0.024884 0.185581 0.097570 255 220 0
0.061445 0.114847 0.033477 255 220 0
0.027384 0.217447 0.062387 255 220 0
0.030540 0.204441 0.099575 255 220 0
0.022219 0.213512 0.074435 255 220 0
0.037171 0.160371 0.029777 255 220 0
0.059005 0.089474 0.041071 255 220 0
0.021265 0.113669 0.079962 255 220 0
0.045069 0.178798 0.111214 255 220 0
0.005768 0.098601 0.047524 255 220 0
0.045659 0.073600 0.071549 255 220 0
0.010276 0.181034 0.055888 255 220 0
0.066892 0.224153 0.060922 255 220 0
0.042942 0.085484 0.080508 255 220 0
0.007303 0.131927 0.057463 255 220 0
0.020298 0.154845 0.034938 255 220 0
0.008082 0.114367 0.060629 255 220 0
0.014884 0.175380 0.044156 255 220 0
0.090970 0.196859 0.074432 255 220 0
0.052884 0.225456 0.058216 255 220 0
0.046061 0.225207 0.058559 255 220 0
0.038044 0.149528 0.102596 255 220 0
0.041857 0.151004 0.028748 255 220 0
0.073417 0.153181 0.107634 255 220 0
0.023037 0.154996 0.033391 255 220 0
0.016284 0.196407 0.081314 255 220 0
0.053133 0.099283 0.033528 255 220 0
0.030370 0.141830 0.095284 255 220 0
0.045294 0.213145 0.106229 255 220 0
0.068322 0.107752 0.091955 255 220 0
0.058037 0.234030 0.072719 255 220 0
0.060979 0.187807 0.035422 255 220 0
0.026272 0.213985 0.086704 255 220 0
0.078479 0.115590 0.047340 255 220 0
0.028472 0.180137 0.100890 255 220 0
0.059548 0.221583 0.055322 255 220 0
0.086358 0.204388 0.064759 255 220 0
0.092791 0.140785 0.080655 255 220 0
0.045782 0.110347 0.093405 255 220 0
0.057417 0.120081 0.098974 255 220 0
0.040964 0.102273 0.029851 255 220 0
0.058457 0.214473 0.108293 255 220 0
0.024945 0.216277 0.065689 255 220 0
0.035849 0.221002 0.057891 255 220 0
0.074369 0.132744 0.037891 255 220 0
0.081665 0.210755 0.062308 255 220 0
0.039757 0.173831 0.108279 255 220 0
0.004714 0.075110 0.057459 255 220 0
0.059790 0.172017 0.112646 255 220 0
0.031155 0.206886 0.047771 255 220 0
0.022408 0.141547 0.088453 255 220 0
0.088315 0.126850 0.062894 255 220 0
0.033513 0.075275 0.073555 255 220 0
0.092239 0.164771 0.056944 255 220 0
0.032205 0.121852 0.090539 255 220 0
0.084513 0.112047 0.076474 255 220 0
0.047753 0.225031 0.058014 255 220 0
0.009544 0.160047 0.047298 255 220 0
0.093486 0.186337 0.078155 255 220 0
0.079500 0.205433 0.102591 255 220 0
0.032070 0.144912 0.029841 255 220 0
0.075445 0.133554 0.038601 255 220 0
0.080028 0.190900 0.105173 255 220 0
0.082186 0.122393 0.092783 255 220 0
0.030674 0.223106 0.078395 255 220 0
0.094971 0.151542 0.072932 255 220 0
0.074328 0.117989 0.041363 255 220 0
0.051837 0.219656 0.052576 255 220 0
0.073969 0.098308 0.054453 255 220 0
0.010876 0.105309 0.040155 255 220 0
0.054307 0.105574 0.092575 255 220 0
0.014210 0.110089 0.071577 255 220 0
0.068791 0.175334 0.034830 255 220 0
0.037806 0.077007 0.035731 255 220 0
0.021722 0.099777 0.076840 255 220 0
0.033600 0.112298 0.029289 255 220 0
0.091991 0.157850 0.091005 255 220 0
0.065744 0.168861 0.111793 255 220 0
0.086683 0.201631 0.062314 255 220 0
0.025004 0.193859 0.096771 255 220 0
0.072944 0.123785 0.038567 255 220 0
0.088878 0.129069 0.062690 255 220 0
0.079704 0.205002 0.054650 255 220 0
0.022568 0.164198 0.093386 255 220 0
0.092955 0.139889 0.077473 255 220 0
0.014871 0.119041 0.073887 255 220 0
0.006830 0.148890 0.054891 255 220 0
0.019170 0.133656 0.082944 255 220 0
0.072247 0.113887 0.094149 255 220 0
0.055598 0.200437 0.039575 255 220 0
0.079619 0.120611 0.093971 255 220 0
0.030410 0.174686 0.101884 255 220 0
0.087910 0.177998 0.051536 255 220 0
0.050746 0.188949 0.034239 255 220 0
0.076855 0.177468 0.039668 255 220 0
0.011877 0.191196 0.062807 255 220 0
0.087761 0.195891 0.059480 255 220 0
0.077038 0.109821 0.088976 255 220 0
0.007089 0.136845 0.056770 255 220 0
0.074767 0.173005 0.109547 255 220 0
0.067810 0.181141 0.112389 255 220 0
0.007318 0.157794 0.064017 255 220 0
0.033542 0.225402 0.079536 255 220 0
0.032932 0.182750 0.034864 255 220 0
0.008769 0.106352 0.063222 255 220 0
0.036268 0.083440 0.078274 255 220 0
0.074523 0.211538 0.054989 255 220 0
0.072444 0.160271 0.034838 255 220 0
0.054139 0.076320 0.071381 255 220 0
0.067646 0.199302 0.111841 255 220 0
0.070479 0.173428 0.035261 255 220 0
0.032629 0.213830 0.052579 255 220 0
0.008107 0.129853 0.062166 255 220 0
0.005750 0.069064 0.048341 255 220 0
0.038976 0.168175 0.030442 255 220 0
0.016374 0.062860 0.045684 255 220 0
0.017545 0.099424 0.073400 255 220 0
0.058984 0.187376 0.113942 255 220 0
0.033852 0.144955 0.029478 255 220 0
0.067485 0.140576 0.105405 255 220 0
0.080002 0.133855 0.099362 255 220 0
0.042432 0.071824 0.070558 255 220 0
0.016279 0.092049 0.070958 255 220 0
0.076837 0.123905 0.097221 255 220 0
0.064991 0.163654 0.111157 255 220 0
0.059524 0.232054 0.092773 255 220 0
0.012095 0.063558 0.048030 255 220 0
0.026987 0.199221 0.097624 255 220 0
0.005898 0.098322 0.046901 255 220 0
0.063865 0.194908 0.039166 255 220 0
0.023101 0.176981 0.037483 255 220 0
0.088172 0.174772 0.051093 255 220 0
0.007210 0.134132 0.055712 255 220 0
0.003243 0.082443 0.053821 255 220 0
0.017331 0.143063 0.036682 255 220 0
0.027547 0.108122 0.030365 255 220 0
0.053237 0.122480 0.099579 255 220 0
0.037868 0.196207 0.107938 255 220 0
0.036644 0.171249 0.105934 255 220 0
0.010672 0.151439 0.044027 255 220 0
0.073734 0.160251 0.108864 255 220 0
0.031637 0.195109 0.103422 255 220 0
0.014643 0.114175 0.037454 255 220 0
0.086029 0.122977 0.058555 255 220 0
0.039042 0.164381 0.106346 255 220 0
0.078815 0.127999 0.097933 255 220 0
0.008350 0.171137 0.066663 255 220 0
0.093279 0.143806 0.080925 255 220 0
0.029141 0.175964 0.034230 255 220 0
0.032675 0.116981 0.089206 255 220 0
0.069941 0.196963 0.111275 255 220 0
0.090854 0.196898 0.073126 255 220 0
0.006908 0.148535 0.060589 255 220 0
0.026393 0.092246 0.077533 255 220 0
0.046874 0.065893 0.060082 255 220 0
0.089753 0.126671 0.074494 255 220 0
0.078674 0.202492 0.051987 255 220 0
0.058692 0.178755 0.032485 255 220 0
0.030836 0.176379 0.033740 255 220 0
0.086778 0.138421 0.094309 255 220 0
0.013208 0.179445 0.048189 255 220 0
0.021437 0.076265 0.034295 255 220 0
0.093922 0.155268 0.062984 255 220 0
0.013091 0.170150 0.044564 255 220 0
0.069707 0.206307 0.109354 255 220 0
0.035282 0.099784 0.084796 255 220 0
0.077011 0.225028 0.074807 255 220 0
0.087619 0.140662 0.093731 255 220 0
0.061489 0.169201 0.031508 255 220 0
0.078653 0.191342 0.045647 255 220 0
0.067034 0.230357 0.069090 255 220 0
0.037656 0.224343 0.061211 255 220 0
0.070607 0.096453 0.049355 255 220 0
0.065910 0.098114 0.042197 255 220 0
0.030428 0.168071 0.032122 255 220 0
0.010471 0.170729 0.074627 255 220 0
0.019655 0.103378 0.076091 255 220 0
0.088260 0.143635 0.052428 255 220 0
0.051851 0.112206 0.095465 255 220 0
0.040002 0.228447 0.068258 255 220 0
0.005616 0.070610 0.056415 255 220 0
0.013711 0.167666 0.042987 255 220 0
0.059701 0.097500 0.037628 255 220 0
0.045043 0.124585 0.098478 255 220 0
0.072600 0.171962 0.036102 255 220 0
0.080570 0.165602 0.040727 255 220 0
0.079153 0.132234 0.042340 255 220 0
0.066909 0.222276 0.101777 255 220 0
0.015000 0.199882 0.070512 255 220 0
0.033308 0.075093 0.035441 255 220 0
0.090309 0.159312 0.094515 255 220 0
0.089843 0.149831 0.053666 255 220 0
0.083336 0.204425 0.058604 255 220 0
0.006039 0.100373 0.057571 255 220 0
0.005802 0.103129 0.052243 255 220 0
0.044313 0.168883 0.030049 255 220 0
0.091326 0.194542 0.082758 255 220 0
0.023744 0.200310 0.047790 255 220 0
0.087061 0.172396 0.100083 255 220 0
0.094981 0.151708 0.076309 255 220 0
0.019011 0.099862 0.074751 255 220 0
0.084336 0.205625 0.095897 255 220 0
0.056470 0.076661 0.049933 255 220 0
0.076051 0.104526 0.051505 255 220 0
0.044583 0.082238 0.035849 255 220 0
0.094896 0.168569 0.083403 255 220 0
0.013902 0.194054 0.075692 255 220 0
0.055562 0.161671 0.110651 255 220 0
0.070679 0.222695 0.099266 255 220 0
0.045664 0.196503 0.037597 255 220 0
0.041880 0.162573 0.107460 255 220 0
0.013953 0.151061 0.039875 255 220 0
0.048635 0.127031 0.028703 255 220 0
0.075602 0.209187 0.054102 255 220 0
0.016639 0.112022 0.074851 255 220 0
0.013630 0.177446 0.046636 255 220 0
0.092265 0.182957 0.062565 255 220 0
0.082725 0.143980 0.099981 255 220 0
0.049427 0.071078 0.067520 255 220 0
0.018893 0.194553 0.048601 255 220 0
0.037098 0.107814 0.029247 255 220 0
0.076045 0.102018 0.054637 255 220 0
0.094802 0.157312 0.066078 255 220 0
0.087884 0.206981 0.079397 255 220 0
0.095739 0.168504 0.073848 255 220 0
0.010683 0.130453 0.044172 255 220 0
0.065109 0.224693 0.100388 255 220 0
0.046363 0.080888 0.037409 255 220 0
0.046632 0.091252 0.084235 255 220 0
0.063754 0.208843 0.046780 255 220 0
0.020805 0.061996 0.045908 255 220 0
0.075722 0.206928 0.105521 255 220 0
0.040762 0.083417 0.079056 255 220 0
0.047128 0.155245 0.107694 255 220 0
0.027735 0.075052 0.034683 255 220 0
0.025363 0.217869 0.070690 255 220 0
0.065424 0.233878 0.082366 255 220 0
0.051501 0.097850 0.033249 255 220 0
0.043781 0.070040 0.068454 255 220 0
0.029002 0.129977 0.090935 255 220 0
0.068226 0.108892 0.092650 255 220 0
0.094041 0.174705 0.085580 255 220 0
0.007336 0.165698 0.060341 255 220 0
0.026611 0.091185 0.031135 255 220 0
0.015650 0.201467 0.070570 255 220 0
0.054273 0.210218 0.045534 255 220 0
0.078384 0.128459 0.042417 255 220 0
0.007616 0.104229 0.045313 255 220 0
0.016241 0.141254 0.080936 255 220 0
0.083708 0.193304 0.100910 255 220 0
0.023580 0.132090 0.087146 255 220 0
0.038137 0.061599 0.055530 255 220 0
0.039118 0.158855 0.105323 255 220 0
0.092981 0.147546 0.084854 255 220 0
0.030354 0.085766 0.077270 255 220 0
0.088912 0.194120 0.060807 255 220 0
0.047058 0.097046 0.087523 255 220 0
0.014129 0.187698 0.051145 255 220 0
0.013976 0.191539 0.054256 255 220 0
0.044940 0.184099 0.111591 255 220 0
0.057565 0.170545 0.112398 255 220 0
0.083848 0.118108 0.087868 255 220 0
0.006903 0.148072 0.060446 255 220 0
0.057882 0.074119 0.064426 255 220 0
0.072015 0.211630 0.053215 255 220 0
0.037388 0.228256 0.079347 255 220 0
0.007527 0.124689 0.056193 255 220 0
0.051883 0.102934 0.091115 255 220 0
0.088660 0.126924 0.064400 255 220 0
0.082319 0.172842 0.043436 255 220 0
0.024090 0.062077 0.060669 255 220 0
0.018614 0.061250 0.056710 255 220 0
0.027629 0.206013 0.095394 255 220 0
0.043144 0.125608 0.028509 255 220 0
0.062159 0.182952 0.113563 255 220 0
0.005503 0.101081 0.051742 255 220 0
0.091992 0.144415 0.061507 255 220 0
0.085830 0.188859 0.052017 255 220 0
0.079241 0.195347 0.105267 255 220 0
0.048599 0.091565 0.033926 255 220 0
0.011959 0.160056 0.077460 255 220 0
0.063712 0.149137 0.030883 255 220 0
0.049263 0.091354 0.034284 255 220 0
0.059407 0.118176 0.098249 255 220 0
0.031286 0.111189 0.086388 255 220 0
0.044751 0.093330 0.085189 255 220 0
0.066661 0.108948 0.093080 255 220 0
0.078090 0.111492 0.089352 255 220 0
0.055747 0.227069 0.099048 255 220 0
0.089186 0.146645 0.092837 255 220 0
0.082048 0.219359 0.081689 255 220 0
0.021588 0.180684 0.093816 255 220 0
0.029920 0.071027 0.070659 255 220 0
0.084286 0.145377 0.045514 255 220 0
0.077178 0.130247 0.099628 255 220 0
0.015548 0.098113 0.071363 255 220 0
0.044095 0.151801 0.028648 255 220 0
0.079360 0.209578 0.057936 255 220 0
0.029999 0.185616 0.102497 255 220 0
0.080217 0.139235 0.041953 255 220 0
0.007712 0.141942 0.050508 255 220 0
0.072297 0.135059 0.102892 255 220 0
0.010143 0.151103 0.044850 255 220 0
0.079522 0.162667 0.039592 255 220 0
0.072761 0.099177 0.083136 255 220 0
0.083223 0.206922 0.097074 255 220 0
0.092541 0.190962 0.077374 255 220 0
0.057799 0.150929 0.029428 255 220 0
0.040019 0.095541 0.030642 255 220 0
0.004552 0.093313 0.048401 255 220 0
0.053372 0.229949 0.064295 255 220 0
0.093581 0.142928 0.076914 255 220 0
0.085694 0.150686 0.046436 255 220 0
0.036758 0.071744 0.038548 255 220 0
0.081690 0.176757 0.105134 255 220 0
0.010124 0.073754 0.038530 255 220 0
0.011905 0.111842 0.068585 255 220 0
0.019927 0.179571 0.040628 255 220 0
0.070928 0.164533 0.110272 255 220 0
0.037727 0.109136 0.089470 255 220 0
0.045630 0.130154 0.028450 255 220 0
0.012423 0.176544 0.079008 255 220 0
0.038557 0.227949 0.085319 255 220 0
0.041591 0.165930 0.107948 255 220 0
0.008436 0.114645 0.047096 255 220 0
0.007851 0.126068 0.059915 255 220 0
0.061411 0.170660 0.031687 255 220 0
0.014295 0.077728 0.067427 255 220 0
0.059518 0.082522 0.047021 255 220 0
0.088595 0.128846 0.061761 255 220 0
0.067683 0.142265 0.032686 255 220 0
0.068828 0.205615 0.109935 255 220 0
0.094823 0.177252 0.079107 255 220 0
0.042133 0.218580 0.052654 255 220 0
0.059362 0.209890 0.046111 255 220 0
0.094856 0.155778 0.081446 255 220 0
0.066504 0.212182 0.108255 255 220 0
0.087384 0.168152 0.048613 255 220 0
0.015949 0.168993 0.040865 255 220 0
0.055130 0.130715 0.029431 255 220 0
0.090333 0.155796 0.093559 255 220 0
0.008534 0.109597 0.045208 255 220 0
0.031253 0.067354 0.039900 255 220 0
0.035068 0.067848 0.041091 255 220 0
0.021086 0.082739 0.072018 255 220 0
0.043975 0.213271 0.105553 255 220 0
0.054660 0.224809 0.100953 255 220 0
0.053905 0.173593 0.030834 255 220 0
0.031811 0.207577 0.099398 255 220 0
0.064456 0.206275 0.111022 255 220 0
0.029530 0.219263 0.085660 255 220 0
0.093402 0.186658 0.078512 255 220 0
0.025616 0.208240 0.091102 255 220 0
0.025174 0.216740 0.066262 255 220 0
0.060178 0.079539 0.071202 255 220 0
0.046810 0.151682 0.028584 255 220 0
0.036239 0.155609 0.102827 255 220 0
0.037081 0.211493 0.048580 255 220 0
0.049705 0.128505 0.028756 255 220 0
0.004372 0.093115 0.049264 255 220 0
0.030307 0.147861 0.030331 255 220 0
0.087769 0.186875 0.096663 255 220 0
0.028652 0.194195 0.041144 255 220 0
0.059988 0.168055 0.031016 255 220 0
0.039098 0.206849 0.105919 255 220 0
0.021824 0.206673 0.085594 255 220 0
0.092389 0.141171 0.065859 255 220 0
0.043636 0.181956 0.110990 255 220 0
0.043579 0.076241 0.074167 255 220 0
0.004033 0.084452 0.044945 255 220 0
0.050935 0.156964 0.108938 255 220 0
0.026860 0.083518 0.032171 255 220 0
0.081381 0.205203 0.056615 255 220 0
0.010410 0.144007 0.044316 255 220 0
0.014823 0.199290 0.071082 255 220 0
0.037300 0.175693 0.031983 255 220 0
0.090374 0.153788 0.053796 255 220 0
0.090725 0.150778 0.055342 255 220 0
0.051435 0.195202 0.113095 255 220 0
0.007911 0.126532 0.051291 255 220 0
0.070280 0.220288 0.059284 255 220 0
0.049739 0.192916 0.112917 255 220 0
0.029717 0.186295 0.102273 255 220 0
0.015560 0.198521 0.077070 255 220 0
0.068403 0.228021 0.094903 255 220 0
0.088092 0.171050 0.050137 255 220 0
0.087579 0.207764 0.079065 255 220 0
0.025049 0.186123 0.097732 255 220 0
0.031976 0.113487 0.087581 255 220 0
0.037830 0.071868 0.071258 255 220 0
0.035005 0.153881 0.029604 255 220 0
0.009342 0.147281 0.046163 255 220 0
0.076744 0.098281 0.066069 255 220 0
0.016472 0.183845 0.045770 255 220 0
0.085628 0.154910 0.099778 255 220 0
0.045214 0.131334 0.100728 255 220 0
0.008250 0.132232 0.049564 255 220 0
0.063916 0.111729 0.095029 255 220 0
0.076045 0.101310 0.055709 255 220 0
0.087385 0.137776 0.052823 255 220 0
0.078103 0.149162 0.104602 255 220 0
0.036899 0.210411 0.102599 255 220 0
0.089838 0.141475 0.056752 255 220 0
0.061580 0.189849 0.113872 255 220 0
0.028791 0.184818 0.101416 255 220 0
0.095291 0.173620 0.071881 255 220 0
0.088388 0.165109 0.049712 255 220 0
0.058099 0.073724 0.061101 255 220 0
0.011564 0.063614 0.048925 255 220 0
0.009536 0.160668 0.047467 255 220 0
0.047316 0.089299 0.083082 255 220 0
0.044329 0.219952 0.101090 255 220 0
0.019178 0.186101 0.090270 255 220 0
0.050275 0.117125 0.097196 255 220 0
0.080678 0.115236 0.051406 255 220 0
0.042975 0.197081 0.110460 255 220 0
0.089369 0.128279 0.066192 255 220 0
0.022055 0.134520 0.033363 255 220 0
0.056417 0.111249 0.032058 255 220 0
0.026548 0.152776 0.094900 255 220 0
0.042039 0.198505 0.109833 255 220 0
0.084791 0.152125 0.045038 255 220 0
0.031500 0.128156 0.092136 255 220 0
0.011350 0.146893 0.042899 255 220 0
0.018229 0.196308 0.050664 255 220 0
0.037059 0.093041 0.082925 255 220 0
0.072054 0.182211 0.037904 255 220 0
0.016797 0.148326 0.083275 255 220 0
0.016672 0.197900 0.054637 255 220 0
0.017117 0.110298 0.075067 255 220 0
0.094534 0.153048 0.081578 255 220 0
0.028408 0.074326 0.035044 255 220 0
0.076370 0.221281 0.066887 255 220 0
0.072811 0.226591 0.069422 255 220 0
0.042978 0.117740 0.095274 255 220 0
0.018530 0.207540 0.069523 255 220 0
0.055694 0.232545 0.091859 255 220 0
0.077176 0.104463 0.054264 255 220 0
0.013139 0.190748 0.075843 255 220 0
0.043162 0.148134 0.028571 255 220 0
0.078399 0.174851 0.040312 255 220 0
0.063025 0.080269 0.056716 255 220 0
0.054703 0.112849 0.031200 255 220 0
0.018661 0.149786 0.086052 255 220 0
0.035013 0.084642 0.078503 255 220 0
0.079082 0.222982 0.086309 255 220 0
0.044328 0.145570 0.028468 255 220 0
0.090104 0.128099 0.073218 255 220 0
0.061592 0.135159 0.030776 255 220 0
0.008782 0.130718 0.064707 255 220 0
0.063832 0.231007 0.067952 255 220 0
0.078300 0.223788 0.086839 255 220 0
0.093068 0.186169 0.069029 255 220 0
0.037917 0.110656 0.029080 255 220 0
0.051309 0.220008 0.052872 255 220 0
0.014254 0.198100 0.069656 255 220 0
0.065314 0.195930 0.113001 255 220 0
0.014351 0.118459 0.038259 255 220 0
0.061576 0.081486 0.072489 255 220 0
0.013510 0.194876 0.059856 255 220 0
0.086963 0.150536 0.048334 255 220 0
0.082417 0.140144 0.099345 255 220 0
0.005735 0.087070 0.042370 255 220 0
0.047758 0.147177 0.028479 255 220 0
0.021270 0.205824 0.085217 255 220 0
0.068614 0.146795 0.107107 255 220 0
0.018303 0.175400 0.040589 255 220 0
0.028050 0.065755 0.040448 255 220 0
0.009980 0.147668 0.045003 255 220 0
0.027899 0.064400 0.064530 255 220 0
0.067258 0.174472 0.034070 255 220 0
0.090533 0.193632 0.065563 255 220 0
0.008304 0.146624 0.066805 255 220 0
0.094659 0.150000 0.071084 255 220 0
0.039332 0.084110 0.033244 255 220 0
0.015716 0.112186 0.073785 255 220 0
0.042966 0.075837 0.073915 255 220 0
0.030780 0.184211 0.103083 255 220 0
0.025960 0.182353 0.098671 255 220 0
0.039922 0.080298 0.077100 255 220 0
0.065760 0.181818 0.035115 255 220 0
0.077371 0.179637 0.040515 255 220 0
0.016405 0.201218 0.060190 255 220 0
0.062419 0.172822 0.032265 255 220 0
0.013293 0.194932 0.070770 255 220 0
0.021918 0.213095 0.069060 255 220 0
0.057075 0.179786 0.113465 255 220 0
0.048594 0.115366 0.029445 255 220 0
0.016378 0.097213 0.071964 255 220 0
0.080591 0.221102 0.077483 255 220 0
0.041026 0.144221 0.102816 255 220 0
0.054378 0.109396 0.094436 255 220 0
0.081388 0.108339 0.062134 255 220 0
0.008367 0.084176 0.063215 255 220 0
0.006157 0.105598 0.054004 255 220 0
0.027140 0.190787 0.099634 255 220 0
0.083219 0.109998 0.078753 255 220 0
0.014247 0.105252 0.070997 255 220 0
0.063051 0.208902 0.110377 255 220 0
0.021607 0.192419 0.044745 255 220 0
0.038160 0.076143 0.074377 255 220 0
0.095027 0.152043 0.076234 255 220 0
0.088519 0.159051 0.097198 255 220 0
0.002890 0.082739 0.051262 255 220 0
0.024703 0.170368 0.096453 255 220 0
0.078738 0.147544 0.039179 255 220 0
0.056605 0.197620 0.038271 255 220 0
0.033374 0.144032 0.098050 255 220 0
0.062535 0.080362 0.069696 255 220 0
0.021318 0.159131 0.091114 255 220 0
0.041423 0.145044 0.103222 255 220 0
0.067279 0.230784 0.091224 255 220 0
0.031398 0.164536 0.031315 255 220 0
0.010970 0.101769 0.039302 255 220 0
0.020709 0.208334 0.080863 255 220 0
0.033822 0.225825 0.078030 255 220 0
0.075820 0.097189 0.064147 255 220 0
0.019567 0.061447 0.057858 255 220 0
0.021575 0.070496 0.068459 255 220 0
0.011941 0.073425 0.065110 255 220 0
0.043197 0.063681 0.056569 255 220 0
0.067207 0.090417 0.049935 255 220 0
0.050834 0.129484 0.101558 255 220 0
0.008103 0.150278 0.066776 255 220 0
0.068333 0.104092 0.041366 255 220 0
0.063942 0.146025 0.107257 255 220 0
0.025719 0.138277 0.090729 255 220 0
0.007783 0.111109 0.047816 255 220 0
0.014529 0.151580 0.039308 255 220 0
0.024713 0.117098 0.083765 255 220 0
0.056982 0.109507 0.094523 255 220 0
0.030041 0.220632 0.063714 255 220 0
0.007273 0.163529 0.062110 255 220 0
0.066067 0.096636 0.084979 255 220 0
0.088272 0.135008 0.056142 255 220 0
0.021034 0.093971 0.074836 255 220 0
0.038113 0.210154 0.103682 255 220 0
0.053930 0.215021 0.107676 255 220 0
0.079874 0.154635 0.104781 255 220 0
0.013124 0.097435 0.036526 255 220 0
0.053228 0.109989 0.031209 255 220 0
0.050078 0.203994 0.111369 255 220 0
0.025266 0.186202 0.097966 255 220 0
0.010671 0.092249 0.065890 255 220 0
0.018605 0.201935 0.055588 255 220 0
0.036514 0.131876 0.028851 255 220 0
0.032711 0.093848 0.030412 255 220 0
0.056221 0.233126 0.090661 255 220 0
0.030429 0.094050 0.080244 255 220 0
0.021427 0.210491 0.079517 255 220 0
0.088264 0.125192 0.064931 255 220 0
0.023315 0.099148 0.077778 255 220 0
0.071612 0.099414 0.084295 255 220 0
0.017193 0.119069 0.076932 255 220 0
0.056747 0.109357 0.032562 255 220 0
0.020955 0.206708 0.057531 255 220 0
0.071083 0.127792 0.100681 255 220 0
0.023867 0.120094 0.031855 255 220 0
0.088175 0.131908 0.057759 255 220 0
0.064189 0.094864 0.042438 255 220 0
0.007475 0.130039 0.053788 255 220 0
0.022730 0.124582 0.084241 255 220 0
0.078258 0.148773 0.104416 255 220 0
0.093376 0.165822 0.060026 255 220 0
0.065519 0.082555 0.068018 255 220 0
0.011004 0.185840 0.057985 255 220 0
0.020998 0.061086 0.048306 255 220 0
0.014923 0.178767 0.083936 255 220 0
0.012411 0.189607 0.073905 255 220 0
0.011288 0.168334 0.076695 255 220 0
0.046157 0.213769 0.106252 255 220 0
0.069121 0.176926 0.111790 255 220 0
0.050275 0.163373 0.110158 255 220 0
0.070728 0.107769 0.041896 255 220 0
0.037554 0.129800 0.028704 255 220 0
0.011672 0.087611 0.036466 255 220 0
0.042999 0.170371 0.030333 255 220 0
0.073283 0.097860 0.053302 255 220 0
0.090993 0.197195 0.078367 255 220 0
0.061056 0.219139 0.053561 255 220 0
0.064080 0.091479 0.044602 255 220 0
0.056554 0.125104 0.100744 255 220 0
0.016581 0.154545 0.084231 255 220 0
0.083454 0.114110 0.060419 255 220 0
0.076519 0.226215 0.076698 255 220 0
0.009353 0.179581 0.066531 255 220 0
0.040438 0.172096 0.030851 255 220 0
0.028804 0.210893 0.052622 255 220 0
0.008170 0.147197 0.048809 255 220 0
0.080741 0.221398 0.080838 255 220 0
0.036034 0.148879 0.029249 255 220 0
0.077605 0.210675 0.057021 255 220 0
0.012911 0.084420 0.035586 255 220 0
0.006951 0.160202 0.059391 255 220 0
0.082190 0.185019 0.103864 255 220 0
0.040353 0.108301 0.090491 255 220 0
0.007488 0.119612 0.055318 255 220 0
0.016232 0.202941 0.068802 255 220 0
0.018558 0.096403 0.073635 255 220 0
0.073235 0.189191 0.041055 255 220 0
0.024786 0.135836 0.032010 255 220 0
0.036108 0.216470 0.053022 255 220 0
0.064615 0.181855 0.113150 255 220 0
0.026716 0.060416 0.057405 255 220 0
0.016567 0.144832 0.082201 255 220 0
0.057272 0.234715 0.075357 255 220 0
0.016904 0.061432 0.055790 255 220 0
0.085718 0.143714 0.047976 255 220 0
0.014366 0.188046 0.081002 255 220 0
0.093491 0.164444 0.088631 255 220 0
0.033433 0.069680 0.069758 255 220 0
0.027027 0.171048 0.033912 255 220 0
0.009199 0.134474 0.066704 255 220 0
0.017487 0.188977 0.087033 255 220 0
0.059475 0.187381 0.113935 255 220 0
0.027259 0.219685 0.068677 255 220 0
0.074022 0.174238 0.109909 255 220 0
0.074710 0.181714 0.109632 255 220 0
0.046389 0.188061 0.112140 255 220 0
0.057178 0.173160 0.112747 255 220 0
0.071828 0.203416 0.109137 255 220 0
0.032762 0.109116 0.086612 255 220 0
0.032754 0.064047 0.063684 255 220 0
0.029557 0.118138 0.087531 255 220 0
0.030559 0.222877 0.069128 255 220 0
0.010307 0.066594 0.059407 255 220 0
0.090052 0.128531 0.070867 255 220 0
0.065654 0.232831 0.073370 255 220 0
0.023357 0.182193 0.039046 255 220 0
0.008804 0.164279 0.050274 255 220 0
0.058630 0.143340 0.029608 255 220 0
0.007612 0.129183 0.052864 255 220 0
0.009075 0.108655 0.043775 255 220 0
0.019607 0.105714 0.076585 255 220 0
0.054291 0.093706 0.035909 255 220 0
0.032296 0.144091 0.097275 255 220 0
0.052111 0.189074 0.113435 255 220 0
0.026897 0.137673 0.091540 255 220 0
0.086494 0.127856 0.090467 255 220 0
0.013803 0.116522 0.071942 255 220 0
0.025256 0.108529 0.081727 255 220 0
0.059789 0.127485 0.101608 255 220 0
0.045415 0.102194 0.030525 255 220 0
0.068923 0.202705 0.045573 255 220 0
0.009491 0.177184 0.055535 255 220 0
0.032424 0.150312 0.098866 255 220 0
0.073611 0.095209 0.059118 255 220 0
0.074560 0.094544 0.070631 255 220 0
0.042704 0.146678 0.104193 255 220 0
0.034296 0.177845 0.033113 255 220 0
0.091819 0.171337 0.092552 255 220 0
0.093433 0.145949 0.082060 255 220 0
0.094986 0.177242 0.076076 255 220 0
0.041993 0.112421 0.092832 255 220 0
0.021847 0.212702 0.075440 255 220 0
0.038969 0.103444 0.087964 255 220 0
0.066321 0.211836 0.049982 255 220 0
0.007918 0.163183 0.066652 255 220 0
0.093247 0.150634 0.062464 255 220 0
0.089139 0.184439 0.094991 255 220 0
0.064454 0.095018 0.084308 255 220 0
0.082326 0.116608 0.054045 255 220 0
0.022232 0.117744 0.081885 255 220 0
0.030508 0.164257 0.031513 255 220 0
0.006603 0.107832 0.051217 255 220 0
0.042230 0.186867 0.110641 255 220 0
0.040833 0.078360 0.036157 255 220 0
0.025147 0.202784 0.048543 255 220 0
0.011874 0.137166 0.073002 255 220 0
0.057546 0.102888 0.091009 255 220 0
0.033005 0.061173 0.049445 255 220 0
0.035442 0.070702 0.038780 255 220 0
0.067823 0.232872 0.083210 255 220 0
0.052581 0.189705 0.034553 255 220 0
0.084996 0.166252 0.102363 255 220 0
0.012118 0.136100 0.073205 255 220 0
0.036996 0.175965 0.106840 255 220 0
0.038092 0.187620 0.108513 255 220 0
0.011153 0.177839 0.075506 255 220 0
0.035379 0.213776 0.099115 255 220 0
0.010966 0.120282 0.042845 255 220 0
0.044099 0.182893 0.032739 255 220 0
0.090574 0.147402 0.056078 255 220 0
0.039594 0.225090 0.092397 255 220 0
0.079833 0.167537 0.040332 255 220 0
0.007642 0.138727 0.051223 255 220 0
0.034700 0.193277 0.038338 255 220 0
0.050160 0.085969 0.036892 255 220 0
0.020328 0.073501 0.069249 255 220 0
0.014258 0.152831 0.080331 255 220 0
0.090859 0.153512 0.054907 255 220 0
0.029402 0.068733 0.038315 255 220 0
0.082075 0.114947 0.054980 255 220 0
0.018352 0.152983 0.036124 255 220 0
0.075564 0.141663 0.103863 255 220 0
0.094975 0.167761 0.083115 255 220 0
0.026129 0.107433 0.030737 255 220 0
0.066416 0.199900 0.042722 255 220 0
0.077562 0.225562 0.079805 255 220 0
0.089543 0.127095 0.069713 255 220 0
0.068332 0.180610 0.035763 255 220 0
0.034486 0.142645 0.098485 255 220 0
0.014424 0.189495 0.051794 255 220 0
0.018224 0.151261 0.036124 255 220 0
0.094905 0.153374 0.079536 255 220 0
0.055455 0.084440 0.078606 255 220 0
0.072702 0.149243 0.106902 255 220 0
0.058066 0.168717 0.030729 255 220 0
0.082086 0.114036 0.055989 255 220 0
0.071023 0.092174 0.076313 255 220 0
0.033978 0.150370 0.100028 255 220 0
0.086558 0.209531 0.085265 255 220 0
0.060642 0.203503 0.042399 255 220 0
0.095632 0.166177 0.078647 255 220 0
0.083149 0.119677 0.053462 255 220 0
0.091810 0.154279 0.056937 255 220 0
0.065915 0.220437 0.103580 255 220 0
0.020174 0.060380 0.052358 255 220 0
0.054828 0.071296 0.057230 255 220 0
0.030933 0.064582 0.042650 255 220 0
0.031038 0.140713 0.095485 255 220 0
0.011329 0.180433 0.075320 255 220 0
0.016502 0.200823 0.077574 255 220 0
0.063446 0.233519 0.073406 255 220 0
0.055140 0.219607 0.105020 255 220 0
0.009191 0.065415 0.055359 255 220 0
0.059593 0.192991 0.036927 255 220 0
0.077212 0.153668 0.106152 255 220 0
0.070734 0.107706 0.041929 255 220 0
0.015043 0.174732 0.043718 255 220 0
0.063130 0.224930 0.100758 255 220 0
0.032682 0.109553 0.029457 255 220 0
0.094758 0.167136 0.084245 255 220 0
0.007639 0.127647 0.052969 255 220 0
0.075854 0.111123 0.046060 255 220 0
0.030366 0.186468 0.037015 255 220 0
0.080501 0.168710 0.041048 255 220 0
0.058190 0.211154 0.046728 255 220 0
0.080783 0.108222 0.082948 255 220 0
0.017904 0.205567 0.064488 255 220 0
0.009615 0.174556 0.053160 255 220 0
0.062766 0.231536 0.068339 255 220 0
0.013777 0.162804 0.081157 255 220 0
0.022453 0.066521 0.066047 255 220 0
0.087081 0.145392 0.049730 255 220 0
0.016283 0.160006 0.084807 255 220 0
0.075786 0.177044 0.038851 255 220 0
0.037316 0.120030 0.028778 255 220 0
0.011207 0.176585 0.075926 255 220 0
0.077575 0.099728 0.065922 255 220 0
0.027934 0.182263 0.100544 255 220 0
0.029156 0.210547 0.094449 255 220 0
0.027658 0.096803 0.079680 255 220 0
0.065507 0.117485 0.097473 255 220 0
0.056209 0.079208 0.073469 255 220 0
0.011814 0.122078 0.069687 255 220 0
0.082706 0.169808 0.043291 255 220 0
0.063007 0.093274 0.042284 255 220 0
0.062360 0.220523 0.104390 255 220 0
0.021865 0.184709 0.094054 255 220 0
0.065221 0.179777 0.112908 255 220 0
0.038549 0.154578 0.029187 255 220 0
0.093940 0.144835 0.073017 255 220 0
0.019404 0.076317 0.034544 255 220 0
0.023881 0.203483 0.091620 255 220 0
0.035710 0.139493 0.029082 255 220 0
0.009065 0.142851 0.068237 255 220 0
0.092205 0.136374 0.077218 255 220 0
0.007987 0.128163 0.050885 255 220 0
0.021100 0.140221 0.034043 255 220 0
0.007408 0.165497 0.057296 255 220 0
0.053761 0.193972 0.113534 255 220 0
0.073175 0.095579 0.056767 255 220 0
0.026385 0.146765 0.093376 255 220 0
0.078419 0.160631 0.106809 255 220 0
0.028973 0.170991 0.100260 255 220 0
0.025987 0.109943 0.082630 255 220 0
0.036396 0.221204 0.093582 255 220 0
0.035862 0.226648 0.082482 255 220 0
0.027320 0.187631 0.100021 255 220 0
0.038675 0.164872 0.030056 255 220 0
0.009993 0.126018 0.066794 255 220 0
0.019575 0.206215 0.059822 255 220 0
0.064371 0.222360 0.057764 255 220 0
0.071117 0.227849 0.069183 255 220 0
0.009768 0.134918 0.045773 255 220 0
0.023270 0.172441 0.036105 255 220 0
0.091256 0.178677 0.092400 255 220 0
0.007313 0.139952 0.052625 255 220 0
0.087622 0.148919 0.095710 255 220 0
0.087321 0.205514 0.069845 255 220 0
0.093539 0.146341 0.066739 255 220 0
0.045019 0.178503 0.111167 255 220 0
0.059516 0.129122 0.030642 255 220 0
0.078811 0.194823 0.105737 255 220 0
0.073810 0.132859 0.037445 255 220 0
0.048552 0.159167 0.029005 255 220 0
0.094815 0.156206 0.066620 255 220 0
0.010229 0.181563 0.070478 255 220 0
0.091813 0.138383 0.083470 255 220 0
0.044272 0.080981 0.036319 255 220 0
0.013583 0.063303 0.057479 255 220 0
0.091403 0.190599 0.065719 255 220 0
0.013878 0.163145 0.041642 255 220 0
0.012072 0.146467 0.075361 255 220 0
0.030991 0.175759 0.102468 255 220 0
0.009555 0.065694 0.056879 255 220 0
0.083219 0.150013 0.043386 255 220 0
0.011170 0.063490 0.051719 255 220 0
0.083084 0.133260 0.096823 255 220 0
0.048313 0.082902 0.037389 255 220 0
0.066755 0.098963 0.086536 255 220 0
0.008095 0.132152 0.050104 255 220 0
0.010656 0.079016 0.065229 255 220 0
0.010573 0.087284 0.065542 255 220 0
0.065345 0.211872 0.049537 255 220 0
0.018306 0.146123 0.035939 255 220 0
