ply
format ascii 1.0
element vertex 1024
property float x
property float y
property float z
property uchar red
property uchar green
property uchar blue
end_header
0.094040 0.163001 0.051530 255 220 0
0.132909 0.127687 0.065746 255 220 0
0.131086 0.134021 0.081714 255 220 0
0.053266 0.214113 0.056373 255 220 0
0.128260 0.178974 0.103329 255 220 0
0.153980 0.183052 0.079007 255 220 0
0.080152 0.176061 0.053827 255 220 0
0.104371 0.170645 0.037192 255 220 0
0.168278 0.157774 0.060622 255 220 0
0.137158 0.170137 0.024487 255 220 0
0.146413 0.162444 0.090993 255 220 0
0.162430 0.125739 0.026347 255 220 0
0.085154 0.161687 0.072033 255 220 0
0.119166 0.237834 0.039779 255 220 0
0.049962 0.209892 0.080063 255 220 0
0.093834 0.232264 0.108308 255 220 0
0.150085 0.199150 0.072819 255 220 0
0.160004 0.129834 0.022032 255 220 0
0.088334 0.262251 0.082842 255 220 0
0.116654 0.149092 0.043195 255 220 0
0.048558 0.234656 0.090734 255 220 0
0.096912 0.251837 0.041357 255 220 0
0.157646 0.121346 0.034725 255 220 0
0.146241 0.169053 0.091849 255 220 0
0.161543 0.179207 0.056614 255 220 0
0.100445 0.259393 0.060444 255 220 0
0.056054 0.261381 0.069546 255 220 0
0.081571 0.169862 0.094379 255 220 0
0.071406 0.250461 0.099945 255 220 0
0.162069 0.167331 0.070704 255 220 0
0.116716 0.248418 0.075144 255 220 0
0.085723 0.161152 0.087169 255 220 0
0.151999 0.180618 0.032042 255 220 0
0.135192 0.134277 0.082034 255 220 0
0.153958 0.195100 0.055526 255 220 0
0.126485 0.144198 0.037999 255 220 0
0.063375 0.186747 0.075321 255 220 0
0.084917 0.249244 0.038682 255 220 0
0.093947 0.180028 0.038889 255 220 0
0.055617 0.254291 0.090695 255 220 0
0.097021 0.178089 0.107665 255 220 0
0.173058 0.134479 0.047217 255 220 0
0.071554 0.192669 0.049338 255 220 0
0.131681 0.141016 0.035736 255 220 0
0.073291 0.188377 0.101165 255 220 0
0.135337 0.193688 0.098891 255 220 0
0.094681 0.256690 0.088282 255 220 0
0.065591 0.207588 0.102390 255 220 0
0.135257 0.163670 0.097625 255 220 0
0.061256 0.254753 0.094522 255 220 0
0.173255 0.138809 0.028307 255 220 0
0.048025 0.215127 0.081137 255 220 0
0.099662 0.153466 0.056051 255 220 0
0.154628 0.122657 0.032116 255 220 0
0.056868 0.224316 0.048194 255 220 0
0.162205 0.171417 0.037295 255 220 0
0.058876 0.206120 0.053651 255 220 0
0.109474 0.235328 0.032175 255 220 0
0.107416 0.251074 0.046189 255 220 0
0.093075 0.154334 0.087005 255 220 0
0.093966 0.239661 0.105110 255 220 0
0.052719 0.258013 0.080622 255 220 0
0.138011 0.194128 0.096512 255 220 0
0.092959 0.242635 0.034145 255 220 0
0.110262 0.170143 0.033948 255 220 0
0.122090 0.231481 0.093907 255 220 0
0.131835 0.149841 0.030109 255 220 0
0.149479 0.190590 0.083107 255 220 0
0.119262 0.221260 0.028647 255 220 0
0.087355 0.179463 0.044358 255 220 0
0.156049 0.170706 0.080380 255 220 0
0.120482 0.226192 0.099277 255 220 0
0.107939 0.195647 0.111035 255 220 0
0.101165 0.221256 0.110164 255 220 0
0.104992 0.232497 0.105287 255 220 0
0.057932 0.212656 0.050870 255 220 0
0.048148 0.249150 0.083274 255 220 0
0.065420 0.198720 0.099164 255 220 0
0.126896 0.203497 0.025930 255 220 0
0.098927 0.248140 0.038170 255 220 0
0.093296 0.262890 0.060990 255 220 0
0.165013 0.171638 0.053652 255 220 0
0.124686 0.235972 0.084786 255 220 0
0.118767 0.175475 0.105708 255 220 0
0.169356 0.144775 0.060366 255 220 0
0.074437 0.188168 0.101946 255 220 0
0.096512 0.260152 0.078594 255 220 0
0.154382 0.160554 0.023365 255 220 0
0.081791 0.177228 0.100425 255 220 0
0.129401 0.131101 0.051329 255 220 0
0.168530 0.125818 0.047867 255 220 0
0.125195 0.196171 0.105169 255 220 0
0.104109 0.215114 0.110814 255 220 0
0.087979 0.234638 0.107879 255 220 0
0.089467 0.173793 0.046538 255 220 0
0.119272 0.173195 0.028802 255 220 0
0.062030 0.191133 0.066457 255 220 0
0.127472 0.152531 0.096024 255 220 0
0.070596 0.198869 0.046428 255 220 0
0.088787 0.207772 0.031361 255 220 0
0.070062 0.223113 0.038224 255 220 0
0.145946 0.203204 0.041097 255 220 0
0.130252 0.235301 0.068007 255 220 0
0.174172 0.139228 0.045469 255 220 0
0.128040 0.238170 0.060592 255 220 0
0.128358 0.202987 0.026228 255 220 0
0.103251 0.155688 0.049691 255 220 0
0.137660 0.146187 0.027606 255 220 0
0.095159 0.171215 0.043689 255 220 0
0.075695 0.185912 0.101553 255 220 0
0.124323 0.240410 0.077274 255 220 0
0.045190 0.230387 0.082820 255 220 0
0.159412 0.182006 0.064022 255 220 0
0.073278 0.255051 0.045949 255 220 0
0.065378 0.244816 0.044226 255 220 0
0.098340 0.193767 0.030994 255 220 0
0.073418 0.227807 0.036189 255 220 0
0.044322 0.234583 0.075805 255 220 0
0.122142 0.199572 0.106502 255 220 0
0.071857 0.245838 0.102375 255 220 0
0.045475 0.234597 0.067027 255 220 0
0.096517 0.230448 0.108544 255 220 0
0.156379 0.181544 0.037846 255 220 0
0.139221 0.163222 0.023865 255 220 0
0.156295 0.188446 0.047102 255 220 0
0.093173 0.155696 0.063700 255 220 0
0.119990 0.160149 0.101003 255 220 0
0.126906 0.223005 0.095090 255 220 0
0.106063 0.248970 0.089737 255 220 0
0.132581 0.188372 0.101353 255 220 0
0.068225 0.248529 0.100468 255 220 0
0.125723 0.131697 0.058185 255 220 0
0.145764 0.168127 0.092202 255 220 0
0.102198 0.249710 0.040728 255 220 0
0.054185 0.234889 0.097351 255 220 0
0.147489 0.207186 0.052397 255 220 0
0.103692 0.177953 0.108167 255 220 0
0.080448 0.184800 0.046607 255 220 0
0.169577 0.160230 0.042070 255 220 0
0.081463 0.266495 0.074565 255 220 0
0.116005 0.162061 0.034499 255 220 0
0.155368 0.173174 0.080789 255 220 0
0.142025 0.131689 0.032631 255 220 0
0.075589 0.176063 0.061630 255 220 0
0.071575 0.182205 0.059574 255 220 0
0.110264 0.140176 0.075943 255 220 0
0.097784 0.153459 0.092884 255 220 0
0.118886 0.247463 0.069037 255 220 0
0.049028 0.242982 0.089317 255 220 0
0.153910 0.172827 0.083007 255 220 0
0.095904 0.172434 0.042204 255 220 0
0.162093 0.153044 0.073147 255 220 0
0.124285 0.180951 0.105037 255 220 0
0.108460 0.204808 0.111036 255 220 0
0.131287 0.196752 0.101493 255 220 0
0.146688 0.209414 0.057189 255 220 0
0.128702 0.150026 0.094439 255 220 0
0.104926 0.160705 0.101946 255 220 0
0.098286 0.253265 0.090450 255 220 0
0.134883 0.211632 0.032825 255 220 0
0.087328 0.189242 0.038515 255 220 0
0.164542 0.135208 0.020642 255 220 0
0.106951 0.220819 0.108711 255 220 0
0.139862 0.173488 0.096883 255 220 0
0.056401 0.216809 0.050677 255 220 0
0.077518 0.265015 0.083720 255 220 0
0.087884 0.160329 0.090561 255 220 0
0.138460 0.156479 0.093866 255 220 0
0.075379 0.171720 0.075392 255 220 0
0.158470 0.136177 0.071688 255 220 0
0.123754 0.241860 0.055109 255 220 0
0.158927 0.179178 0.039971 255 220 0
0.054200 0.257662 0.064821 255 220 0
0.081386 0.176834 0.099847 255 220 0
0.100838 0.231378 0.107231 255 220 0
0.126356 0.183819 0.104508 255 220 0
0.074113 0.266113 0.063537 255 220 0
0.048248 0.222779 0.061055 255 220 0
0.065841 0.229299 0.104829 255 220 0
0.063725 0.235717 0.103201 255 220 0
0.056790 0.259342 0.063288 255 220 0
0.125416 0.151098 0.095843 255 220 0
0.145175 0.146140 0.086272 255 220 0
0.059981 0.250076 0.096744 255 220 0
0.079154 0.223975 0.109367 255 220 0
0.097256 0.224519 0.110062 255 220 0
0.161707 0.164311 0.072584 255 220 0
0.109932 0.221879 0.107269 255 220 0
0.100970 0.159219 0.100256 255 220 0
0.117683 0.188470 0.025965 255 220 0
0.083937 0.266306 0.070461 255 220 0
0.134552 0.199804 0.098385 255 220 0
0.088808 0.195880 0.110876 255 220 0
0.114064 0.140147 0.084462 255 220 0
0.123495 0.154525 0.033474 255 220 0
0.137306 0.127443 0.045457 255 220 0
0.125876 0.236721 0.047118 255 220 0
0.164260 0.173497 0.051106 255 220 0
0.053415 0.236421 0.096484 255 220 0
0.115170 0.163009 0.034539 255 220 0
0.064208 0.198778 0.052582 255 220 0
0.053937 0.242073 0.053311 255 220 0
0.080421 0.177173 0.052380 255 220 0
0.155744 0.128139 0.023670 255 220 0
0.132973 0.193351 0.100697 255 220 0
0.061827 0.249938 0.049320 255 220 0
0.155166 0.122344 0.032599 255 220 0
0.069753 0.215518 0.039727 255 220 0
0.154657 0.176271 0.080944 255 220 0
0.087063 0.259054 0.047763 255 220 0
0.059191 0.231096 0.045849 255 220 0
0.078480 0.250798 0.041017 255 220 0
0.140294 0.220925 0.059146 255 220 0
0.159183 0.150428 0.076583 255 220 0
0.117283 0.158804 0.035395 255 220 0
0.058655 0.201759 0.057814 255 220 0
0.154319 0.160595 0.023366 255 220 0
0.140088 0.124250 0.059003 255 220 0
0.110374 0.230657 0.030126 255 220 0
0.081805 0.262189 0.087393 255 220 0
0.127125 0.131317 0.055696 255 220 0
0.130712 0.186125 0.025017 255 220 0
0.139646 0.215244 0.041563 255 220 0
0.135487 0.168919 0.024700 255 220 0
0.122918 0.230212 0.035896 255 220 0
0.079439 0.229713 0.108535 255 220 0
0.084945 0.265771 0.073882 255 220 0
0.085375 0.266008 0.067063 255 220 0
0.079811 0.179794 0.050721 255 220 0
0.144879 0.212535 0.063544 255 220 0
0.070451 0.177759 0.085337 255 220 0
0.140711 0.215801 0.044474 255 220 0
0.080353 0.233000 0.033609 255 220 0
0.162182 0.163007 0.072070 255 220 0
0.090425 0.176705 0.043691 255 220 0
0.048074 0.234741 0.060021 255 220 0
0.104812 0.144139 0.080368 255 220 0
0.067747 0.266779 0.077573 255 220 0
0.121055 0.241026 0.083172 255 220 0
0.066925 0.245586 0.043564 255 220 0
0.140362 0.169461 0.096182 255 220 0
0.068833 0.208880 0.042663 255 220 0
0.088614 0.262942 0.080688 255 220 0
0.085224 0.241048 0.105440 255 220 0
0.098225 0.176497 0.107335 255 220 0
0.104454 0.147855 0.057942 255 220 0
0.094145 0.153170 0.069193 255 220 0
0.165284 0.168358 0.060569 255 220 0
0.044436 0.233875 0.072878 255 220 0
0.084844 0.256800 0.044896 255 220 0
0.088751 0.263426 0.056848 255 220 0
0.141693 0.189301 0.093943 255 220 0
0.085065 0.248240 0.101338 255 220 0
0.063942 0.199033 0.052703 255 220 0
0.155799 0.135312 0.020170 255 220 0
0.058984 0.193740 0.071968 255 220 0
0.104409 0.255514 0.052857 255 220 0
0.097392 0.180097 0.036614 255 220 0
0.120619 0.172013 0.104497 255 220 0
0.138678 0.125974 0.046781 255 220 0
0.108999 0.208291 0.110634 255 220 0
0.103237 0.160633 0.045287 255 220 0
0.115293 0.153213 0.098481 255 220 0
0.085784 0.265933 0.068800 255 220 0
0.127304 0.215561 0.029603 255 220 0
0.080478 0.218435 0.110155 255 220 0
0.051553 0.226330 0.094078 255 220 0
0.147466 0.207463 0.053460 255 220 0
0.140604 0.189629 0.094957 255 220 0
0.055550 0.212116 0.093706 255 220 0
0.096393 0.155703 0.094605 255 220 0
0.069964 0.256961 0.049306 255 220 0
0.100229 0.189288 0.110868 255 220 0
0.145043 0.174556 0.092888 255 220 0
0.092623 0.263078 0.073297 255 220 0
0.141972 0.151278 0.090151 255 220 0
0.157507 0.169335 0.029597 255 220 0
0.106499 0.143165 0.066306 255 220 0
0.127000 0.159821 0.029273 255 220 0
0.126320 0.229379 0.090492 255 220 0
0.171363 0.143412 0.055708 255 220 0
0.126110 0.147625 0.035671 255 220 0
0.162081 0.178263 0.053736 255 220 0
0.081577 0.187449 0.105967 255 220 0
0.060580 0.190741 0.077849 255 220 0
0.088587 0.239593 0.105949 255 220 0
0.066836 0.223288 0.040275 255 220 0
0.145137 0.181089 0.092088 255 220 0
0.119780 0.174044 0.105169 255 220 0
0.094612 0.246539 0.100094 255 220 0
0.083059 0.198312 0.037081 255 220 0
0.101448 0.177046 0.107849 255 220 0
0.120957 0.166812 0.030008 255 220 0
0.125639 0.202514 0.025540 255 220 0
0.106069 0.175666 0.033755 255 220 0
0.099805 0.148359 0.084240 255 220 0
0.112313 0.251067 0.077837 255 220 0
0.096346 0.153819 0.091843 255 220 0
0.070149 0.203382 0.044245 255 220 0
0.108451 0.222886 0.107528 255 220 0
0.122556 0.243472 0.073213 255 220 0
0.120317 0.228498 0.097987 255 220 0
0.099593 0.236669 0.031280 255 220 0
0.093534 0.235559 0.107132 255 220 0
0.105771 0.146503 0.089458 255 220 0
0.129201 0.190861 0.025085 255 220 0
0.059946 0.194627 0.087238 255 220 0
0.054487 0.201334 0.080319 255 220 0
0.113536 0.206546 0.025272 255 220 0
0.067676 0.258278 0.052104 255 220 0
0.126347 0.239221 0.055222 255 220 0
0.136609 0.160541 0.024744 255 220 0
0.130632 0.131036 0.049267 255 220 0
0.091927 0.252727 0.095177 255 220 0
0.132564 0.215517 0.093509 255 220 0
0.138267 0.126011 0.067543 255 220 0
0.047051 0.217900 0.080951 255 220 0
0.126613 0.227331 0.092037 255 220 0
0.096936 0.259554 0.054013 255 220 0
0.127337 0.182169 0.025158 255 220 0
0.166505 0.133709 0.022063 255 220 0
0.136120 0.227489 0.061169 255 220 0
0.170617 0.128331 0.032675 255 220 0
0.129726 0.149159 0.031932 255 220 0
0.051183 0.207054 0.071627 255 220 0
0.147608 0.207499 0.055273 255 220 0
0.078503 0.167921 0.079219 255 220 0
0.085697 0.163367 0.092098 255 220 0
0.142047 0.123368 0.055853 255 220 0
0.135251 0.143696 0.030678 255 220 0
0.092254 0.155629 0.088821 255 220 0
0.063495 0.186404 0.076971 255 220 0
0.050534 0.256249 0.076529 255 220 0
0.168607 0.128331 0.028173 255 220 0
0.063546 0.227562 0.042352 255 220 0
0.154985 0.160601 0.023559 255 220 0
0.114335 0.245540 0.085864 255 220 0
0.127431 0.233787 0.044922 255 220 0
0.110233 0.220154 0.107713 255 220 0
0.131323 0.188868 0.025225 255 220 0
0.155983 0.143596 0.019448 255 220 0
0.143511 0.204174 0.037936 255 220 0
0.163501 0.174587 0.047434 255 220 0
0.092939 0.155437 0.065071 255 220 0
0.054636 0.219451 0.051769 255 220 0
0.067454 0.197998 0.049798 255 220 0
0.133890 0.209133 0.030775 255 220 0
0.066230 0.183553 0.085785 255 220 0
0.059729 0.220961 0.046094 255 220 0
0.155700 0.178127 0.034017 255 220 0
0.126405 0.170603 0.102602 255 220 0
0.069869 0.191437 0.051850 255 220 0
0.089645 0.158825 0.090859 255 220 0
0.105240 0.217304 0.026508 255 220 0
0.096618 0.179052 0.107907 255 220 0
0.130230 0.233735 0.051266 255 220 0
0.106516 0.156788 0.045720 255 220 0
0.048368 0.215838 0.083202 255 220 0
0.080600 0.230320 0.108580 255 220 0
0.120689 0.199738 0.024910 255 220 0
0.128353 0.140145 0.039917 255 220 0
0.153603 0.122148 0.061294 255 220 0
0.110188 0.166736 0.104505 255 220 0
0.098186 0.245520 0.099296 255 220 0
0.127851 0.234361 0.080899 255 220 0
0.130331 0.234168 0.053024 255 220 0
0.087597 0.169037 0.099616 255 220 0
0.117687 0.232279 0.033907 255 220 0
0.174478 0.144821 0.039619 255 220 0
0.107596 0.197007 0.111187 255 220 0
0.125004 0.225497 0.033858 255 220 0
0.046022 0.225079 0.083579 255 220 0
0.117742 0.143002 0.048151 255 220 0
0.068070 0.256103 0.095776 255 220 0
0.087056 0.171225 0.100610 255 220 0
0.132645 0.225948 0.083408 255 220 0
0.108736 0.238231 0.099600 255 220 0
0.071772 0.264238 0.086789 255 220 0
0.084154 0.264840 0.058371 255 220 0
0.147653 0.152103 0.087362 255 220 0
0.153762 0.157091 0.083641 255 220 0
0.135449 0.227435 0.052483 255 220 0
0.098098 0.213324 0.027627 255 220 0
0.125396 0.151366 0.033855 255 220 0
0.122648 0.191598 0.106389 255 220 0
0.101240 0.148099 0.063784 255 220 0
0.075839 0.265288 0.060004 255 220 0
0.158618 0.131638 0.021011 255 220 0
0.127445 0.223888 0.034566 255 220 0
0.158690 0.159057 0.078014 255 220 0
0.093758 0.158531 0.057163 255 220 0
0.126306 0.225463 0.093979 255 220 0
0.124217 0.217051 0.101066 255 220 0
0.137495 0.186505 0.098127 255 220 0
0.046075 0.242933 0.082366 255 220 0
0.088614 0.240882 0.033789 255 220 0
0.172873 0.142218 0.051206 255 220 0
0.077952 0.187403 0.103930 255 220 0
0.118685 0.196491 0.108056 255 220 0
0.090992 0.243996 0.103192 255 220 0
0.144530 0.157843 0.022484 255 220 0
0.148114 0.162631 0.023007 255 220 0
0.135670 0.227819 0.066538 255 220 0
0.072971 0.224020 0.107782 255 220 0
0.107950 0.250258 0.045241 255 220 0
0.067549 0.197054 0.100558 255 220 0
0.097134 0.187984 0.110474 255 220 0
0.128191 0.148841 0.033239 255 220 0
0.057013 0.228950 0.099697 255 220 0
0.157091 0.135332 0.072477 255 220 0
0.141698 0.157946 0.092824 255 220 0
0.168346 0.147457 0.062625 255 220 0
0.083423 0.200090 0.110203 255 220 0
0.086630 0.233516 0.031836 255 220 0
0.065683 0.185679 0.067602 255 220 0
0.047791 0.244054 0.086427 255 220 0
0.116717 0.249268 0.068068 255 220 0
0.069402 0.189081 0.054457 255 220 0
0.137467 0.210286 0.034518 255 220 0
0.154779 0.190412 0.069309 255 220 0
0.093649 0.250900 0.096261 255 220 0
0.123002 0.159935 0.031362 255 220 0
0.119911 0.231113 0.034433 255 220 0
0.096016 0.222211 0.110706 255 220 0
0.080465 0.171954 0.095129 255 220 0
0.144447 0.123381 0.063129 255 220 0
0.110188 0.245169 0.040100 255 220 0
0.163757 0.173940 0.057030 255 220 0
0.139994 0.154347 0.092336 255 220 0
0.103853 0.197434 0.111766 255 220 0
0.070855 0.236947 0.105277 255 220 0
0.091922 0.204065 0.112198 255 220 0
0.142936 0.190215 0.029925 255 220 0
0.046426 0.245863 0.080846 255 220 0
0.167377 0.145415 0.064147 255 220 0
0.120929 0.134567 0.059134 255 220 0
0.101441 0.254794 0.085387 255 220 0
0.170387 0.127064 0.037007 255 220 0
0.048626 0.226750 0.090036 255 220 0
0.129529 0.130278 0.053627 255 220 0
0.071914 0.181929 0.059340 255 220 0
0.174082 0.143004 0.045769 255 220 0
0.079636 0.256043 0.044766 255 220 0
0.058503 0.261836 0.083720 255 220 0
0.163209 0.161985 0.070428 255 220 0
0.144586 0.122550 0.057375 255 220 0
0.099624 0.168048 0.042388 255 220 0
0.103700 0.144874 0.080234 255 220 0
0.078871 0.204743 0.109336 255 220 0
0.113367 0.215226 0.026053 255 220 0
0.170305 0.159123 0.045733 255 220 0
0.087809 0.242223 0.034490 255 220 0
0.102826 0.257411 0.076190 255 220 0
0.139149 0.183148 0.097203 255 220 0
0.153665 0.166437 0.025693 255 220 0
0.104812 0.183616 0.031400 255 220 0
0.057974 0.215781 0.097970 255 220 0
0.102589 0.172059 0.037555 255 220 0
0.160358 0.121026 0.053011 255 220 0
0.073194 0.186905 0.051828 255 220 0
0.091494 0.180749 0.107284 255 220 0
0.131058 0.134083 0.043617 255 220 0
0.093015 0.233295 0.108041 255 220 0
0.115415 0.138321 0.059389 255 220 0
0.111348 0.238341 0.034791 255 220 0
0.106900 0.240468 0.034415 255 220 0
0.056011 0.206371 0.057852 255 220 0
0.060055 0.192723 0.069732 255 220 0
0.102511 0.153818 0.096679 255 220 0
0.121020 0.199384 0.024904 255 220 0
0.145108 0.126690 0.072013 255 220 0
0.093704 0.253796 0.092909 255 220 0
0.066243 0.260581 0.056056 255 220 0
0.134993 0.180149 0.025102 255 220 0
0.109183 0.141636 0.063973 255 220 0
0.119208 0.171402 0.104659 255 220 0
0.118467 0.222234 0.102762 255 220 0
0.156844 0.120497 0.038473 255 220 0
0.161251 0.121944 0.033490 255 220 0
0.062512 0.234566 0.043534 255 220 0
0.156079 0.189706 0.063830 255 220 0
0.053165 0.202959 0.074644 255 220 0
0.149485 0.161033 0.022690 255 220 0
0.113841 0.188063 0.109017 255 220 0
0.103463 0.232622 0.105843 255 220 0
0.053594 0.216140 0.093092 255 220 0
0.165618 0.156306 0.067216 255 220 0
0.100094 0.202384 0.028330 255 220 0
0.141775 0.207992 0.084884 255 220 0
0.165329 0.155903 0.067823 255 220 0
0.095444 0.151593 0.071179 255 220 0
0.111697 0.152920 0.044452 255 220 0
0.119340 0.136192 0.057235 255 220 0
0.103436 0.144879 0.078632 255 220 0
0.104607 0.147749 0.090522 255 220 0
0.047448 0.249408 0.071820 255 220 0
0.085096 0.176845 0.102513 255 220 0
0.063928 0.247603 0.099707 255 220 0
0.075555 0.213026 0.036718 255 220 0
0.143457 0.123722 0.043399 255 220 0
0.128436 0.196491 0.103358 255 220 0
0.087296 0.160261 0.089120 255 220 0
0.132305 0.149035 0.030146 255 220 0
0.144414 0.213095 0.065807 255 220 0
0.089703 0.249268 0.099537 255 220 0
0.064859 0.212975 0.044202 255 220 0
0.134682 0.192866 0.099510 255 220 0
0.132517 0.198078 0.026669 255 220 0
0.082721 0.163616 0.084075 255 220 0
0.133349 0.208525 0.030136 255 220 0
0.126612 0.214995 0.100047 255 220 0
0.116043 0.139833 0.085499 255 220 0
0.055496 0.229709 0.098501 255 220 0
0.079241 0.223011 0.109499 255 220 0
0.142837 0.210755 0.079268 255 220 0
0.167607 0.162055 0.059265 255 220 0
0.155958 0.155575 0.021841 255 220 0
0.077497 0.267150 0.073807 255 220 0
0.100562 0.179961 0.108659 255 220 0
0.125160 0.200739 0.104855 255 220 0
0.171240 0.137565 0.054115 255 220 0
0.061617 0.199279 0.094791 255 220 0
0.172829 0.141751 0.027783 255 220 0
0.129122 0.162889 0.027422 255 220 0
0.123777 0.235045 0.041495 255 220 0
0.063356 0.187045 0.083002 255 220 0
0.109246 0.149177 0.050383 255 220 0
0.153916 0.193594 0.066485 255 220 0
0.091456 0.216490 0.029263 255 220 0
0.060927 0.257633 0.056477 255 220 0
0.067524 0.191912 0.054246 255 220 0
0.147439 0.174956 0.026708 255 220 0
0.131031 0.179759 0.025026 255 220 0
0.131855 0.227188 0.083367 255 220 0
0.144856 0.132525 0.028565 255 220 0
0.156853 0.141578 0.076090 255 220 0
0.120734 0.174269 0.104992 255 220 0
0.142801 0.200689 0.088328 255 220 0
0.045887 0.224286 0.082609 255 220 0
0.083476 0.209745 0.111001 255 220 0
0.093918 0.262942 0.063620 255 220 0
0.101985 0.256414 0.081155 255 220 0
0.090771 0.189443 0.109888 255 220 0
0.044732 0.231116 0.080771 255 220 0
0.115420 0.215343 0.106967 255 220 0
0.128557 0.225794 0.037097 255 220 0
0.151919 0.192830 0.075810 255 220 0
0.080343 0.184653 0.103930 255 220 0
0.151327 0.171224 0.026832 255 220 0
0.172457 0.133530 0.048315 255 220 0
0.170825 0.133122 0.051974 255 220 0
0.137933 0.134448 0.034943 255 220 0
0.048746 0.235262 0.058800 255 220 0
0.046832 0.246655 0.070420 255 220 0
0.132026 0.230859 0.076144 255 220 0
0.057861 0.233877 0.047256 255 220 0
0.045027 0.224801 0.078167 255 220 0
0.065251 0.250487 0.047134 255 220 0
0.080025 0.218578 0.110042 255 220 0
0.065562 0.238591 0.042149 255 220 0
0.084109 0.256948 0.045072 255 220 0
0.136464 0.128442 0.073684 255 220 0
0.144273 0.212773 0.068503 255 220 0
0.077112 0.185319 0.049147 255 220 0
0.101126 0.258777 0.058820 255 220 0
0.153988 0.191618 0.070423 255 220 0
0.155289 0.155043 0.021549 255 220 0
0.145900 0.210059 0.051770 255 220 0
0.064211 0.211469 0.102256 255 220 0
0.116117 0.247185 0.050672 255 220 0
0.133726 0.225263 0.081933 255 220 0
0.051675 0.229770 0.053661 255 220 0
0.071524 0.239890 0.038995 255 220 0
0.111330 0.183242 0.108751 255 220 0
0.057606 0.204821 0.056547 255 220 0
0.136782 0.125682 0.056729 255 220 0
0.162972 0.149147 0.021391 255 220 0
0.069699 0.182599 0.063032 255 220 0
0.172708 0.151767 0.045546 255 220 0
0.092611 0.245725 0.101527 255 220 0
0.136905 0.202355 0.030181 255 220 0
0.088380 0.240121 0.033520 255 220 0
0.131608 0.233730 0.059621 255 220 0
0.116789 0.199944 0.108727 255 220 0
0.116690 0.196544 0.108766 255 220 0
0.049214 0.215122 0.064557 255 220 0
0.138537 0.183878 0.026154 255 220 0
0.084649 0.259119 0.090798 255 220 0
0.050528 0.213295 0.062805 255 220 0
0.064789 0.213707 0.043976 255 220 0
0.083291 0.236789 0.033492 255 220 0
0.049575 0.250918 0.084914 255 220 0
0.112724 0.217228 0.107600 255 220 0
0.070838 0.237821 0.105046 255 220 0
0.069355 0.215920 0.039893 255 220 0
0.109562 0.154410 0.045083 255 220 0
0.141825 0.123517 0.051205 255 220 0
0.143486 0.215362 0.056759 255 220 0
0.133920 0.204598 0.029028 255 220 0
0.131337 0.146011 0.091489 255 220 0
0.117626 0.236982 0.037614 255 220 0
0.075600 0.181603 0.098471 255 220 0
0.088778 0.163613 0.057330 255 220 0
0.137558 0.189712 0.026928 255 220 0
0.100728 0.146784 0.075784 255 220 0
0.139344 0.153250 0.092177 255 220 0
0.124937 0.186243 0.105238 255 220 0
0.074490 0.175034 0.090192 255 220 0
0.053290 0.234594 0.052027 255 220 0
0.119578 0.187657 0.107341 255 220 0
0.049925 0.209074 0.074309 255 220 0
0.066286 0.212831 0.043103 255 220 0
0.091486 0.209547 0.112199 255 220 0
0.115675 0.212048 0.107708 255 220 0
0.148235 0.127746 0.072617 255 220 0
0.167831 0.128043 0.027540 255 220 0
0.126881 0.216047 0.029600 255 220 0
0.122753 0.133247 0.059874 255 220 0
0.049784 0.243152 0.059962 255 220 0
0.076580 0.219633 0.034977 255 220 0
0.097686 0.151914 0.062208 255 220 0
0.136678 0.167199 0.097854 255 220 0
0.051527 0.218696 0.056563 255 220 0
0.116947 0.171786 0.105199 255 220 0
0.149781 0.197504 0.042681 255 220 0
0.157963 0.174098 0.075986 255 220 0
0.086333 0.187045 0.040386 255 220 0
0.051552 0.220329 0.055767 255 220 0
0.125865 0.202713 0.104187 255 220 0
0.099116 0.165674 0.044646 255 220 0
0.136825 0.205473 0.031401 255 220 0
0.107636 0.245918 0.039261 255 220 0
0.122200 0.137590 0.049871 255 220 0
0.120263 0.233945 0.093630 255 220 0
0.099576 0.188915 0.031951 255 220 0
0.103529 0.245778 0.037298 255 220 0
0.123518 0.158250 0.031740 255 220 0
0.091876 0.186963 0.109444 255 220 0
0.174014 0.142135 0.046363 255 220 0
0.076852 0.256199 0.095953 255 220 0
0.072590 0.260198 0.092328 255 220 0
0.099808 0.153944 0.055230 255 220 0
0.085826 0.247872 0.037717 255 220 0
0.051489 0.257423 0.072862 255 220 0
0.139154 0.156603 0.093601 255 220 0
0.088011 0.230549 0.030928 255 220 0
0.146172 0.209916 0.064744 255 220 0
0.120744 0.225732 0.099335 255 220 0
0.148842 0.135073 0.078298 255 220 0
0.158189 0.176057 0.074455 255 220 0
0.096281 0.188866 0.033520 255 220 0
0.130017 0.132128 0.048042 255 220 0
0.058485 0.249135 0.096348 255 220 0
0.147278 0.207553 0.065810 255 220 0
0.110673 0.168537 0.105066 255 220 0
0.148178 0.195669 0.082234 255 220 0
0.124624 0.181793 0.025554 255 220 0
0.072801 0.265596 0.083779 255 220 0
0.057730 0.249701 0.095541 255 220 0
0.088754 0.222246 0.110845 255 220 0
0.162589 0.176493 0.057977 255 220 0
0.092253 0.263315 0.072751 255 220 0
0.090228 0.239715 0.033081 255 220 0
0.047702 0.214579 0.078362 255 220 0
0.153133 0.181656 0.033802 255 220 0
0.134334 0.129513 0.074992 255 220 0
0.100474 0.241099 0.033406 255 220 0
0.123412 0.199674 0.105878 255 220 0
0.082739 0.168809 0.094748 255 220 0
0.163975 0.152455 0.023498 255 220 0
0.146250 0.208686 0.069275 255 220 0
0.072284 0.239339 0.038456 255 220 0
0.074157 0.172676 0.080381 255 220 0
0.125786 0.231459 0.039721 255 220 0
0.172961 0.132144 0.045007 255 220 0
0.134729 0.205387 0.029818 255 220 0
0.152024 0.120584 0.041874 255 220 0
0.127518 0.229068 0.089029 255 220 0
0.088824 0.230666 0.109051 255 220 0
0.115836 0.195224 0.025463 255 220 0
0.102585 0.188725 0.110722 255 220 0
0.170341 0.150727 0.057809 255 220 0
0.123969 0.160622 0.030583 255 220 0
0.137241 0.125482 0.056135 255 220 0
0.064877 0.211392 0.044848 255 220 0
0.070080 0.212049 0.040530 255 220 0
0.132720 0.128392 0.052908 255 220 0
0.123509 0.235351 0.087711 255 220 0
0.118564 0.230036 0.098482 255 220 0
0.097135 0.246395 0.036491 255 220 0
0.130300 0.228792 0.084384 255 220 0
0.090705 0.236475 0.031866 255 220 0
0.083499 0.252761 0.041357 255 220 0
0.055104 0.200610 0.069487 255 220 0
0.159220 0.179617 0.068711 255 220 0
0.132085 0.147895 0.030861 255 220 0
0.067064 0.251106 0.098843 255 220 0
0.081661 0.174666 0.053439 255 220 0
0.103156 0.145792 0.066303 255 220 0
0.130031 0.156326 0.096977 255 220 0
0.146350 0.140657 0.023457 255 220 0
0.145426 0.164061 0.023245 255 220 0
0.065422 0.219108 0.041922 255 220 0
0.114270 0.150508 0.096839 255 220 0
0.129630 0.155722 0.029187 255 220 0
0.044585 0.227563 0.076958 255 220 0
0.114321 0.244668 0.043175 255 220 0
0.137135 0.125987 0.051324 255 220 0
0.097051 0.188313 0.110541 255 220 0
0.075830 0.186174 0.101819 255 220 0
0.158175 0.144994 0.019421 255 220 0
0.077421 0.202347 0.039073 255 220 0
0.133667 0.201655 0.098713 255 220 0
0.114618 0.249007 0.078882 255 220 0
0.086710 0.177227 0.046422 255 220 0
0.137235 0.129619 0.076238 255 220 0
0.087422 0.194849 0.035914 255 220 0
0.080900 0.175195 0.053816 255 220 0
0.051762 0.255083 0.084357 255 220 0
0.137627 0.224520 0.053401 255 220 0
0.159810 0.166513 0.029652 255 220 0
0.075133 0.243516 0.038530 255 220 0
0.068812 0.259281 0.052581 255 220 0
0.133619 0.145939 0.090763 255 220 0
0.160051 0.121543 0.034304 255 220 0
0.146425 0.124935 0.035369 255 220 0
0.149027 0.129865 0.026339 255 220 0
0.158052 0.121999 0.057986 255 220 0
0.150087 0.146734 0.083678 255 220 0
0.088327 0.161093 0.062727 255 220 0
0.114282 0.198537 0.025413 255 220 0
0.151669 0.162604 0.086385 255 220 0
0.074790 0.172335 0.075698 255 220 0
0.096481 0.175886 0.039489 255 220 0
0.148401 0.171527 0.025830 255 220 0
0.137694 0.210946 0.035179 255 220 0
0.112065 0.159942 0.038489 255 220 0
0.102791 0.145623 0.068879 255 220 0
0.084238 0.261108 0.050365 255 220 0
0.112738 0.212522 0.025688 255 220 0
0.116121 0.137353 0.078534 255 220 0
0.123096 0.182250 0.105603 255 220 0
0.130504 0.143332 0.034999 255 220 0
0.052322 0.233789 0.053089 255 220 0
0.045165 0.235035 0.068485 255 220 0
0.071774 0.179717 0.092145 255 220 0
0.163990 0.163621 0.031952 255 220 0
0.159566 0.173614 0.072876 255 220 0
0.047038 0.223883 0.063774 255 220 0
0.069091 0.215872 0.040082 255 220 0
0.140214 0.146554 0.025740 255 220 0
0.100736 0.248823 0.039261 255 220 0
0.153643 0.195781 0.057464 255 220 0
0.169226 0.161283 0.051978 255 220 0
0.052259 0.258414 0.073553 255 220 0
0.124767 0.140240 0.043661 255 220 0
0.075328 0.245969 0.039493 255 220 0
0.119526 0.169652 0.104132 255 220 0
0.125399 0.146514 0.037111 255 220 0
0.115008 0.139650 0.084228 255 220 0
0.118008 0.165321 0.031941 255 220 0
0.158308 0.172152 0.076176 255 220 0
0.096695 0.252066 0.041547 255 220 0
0.087988 0.158146 0.082849 255 220 0
0.157272 0.185030 0.044083 255 220 0
0.123014 0.178778 0.105185 255 220 0
0.155127 0.154222 0.081775 255 220 0
0.134810 0.185994 0.025558 255 220 0
0.108549 0.166638 0.036765 255 220 0
0.074812 0.174751 0.090352 255 220 0
0.105677 0.207809 0.111428 255 220 0
0.137502 0.132045 0.079489 255 220 0
0.106329 0.234009 0.030786 255 220 0
0.168622 0.125197 0.036870 255 220 0
0.085846 0.216146 0.031232 255 220 0
0.090311 0.230422 0.030396 255 220 0
0.097221 0.210210 0.028089 255 220 0
0.047702 0.235215 0.060899 255 220 0
0.056745 0.197687 0.081523 255 220 0
0.065865 0.187892 0.062487 255 220 0
0.149366 0.165466 0.088843 255 220 0
0.154587 0.193887 0.058431 255 220 0
0.168473 0.154951 0.030126 255 220 0
0.134887 0.229151 0.065260 255 220 0
0.143260 0.151432 0.089593 255 220 0
0.075769 0.228321 0.108092 255 220 0
0.091120 0.261369 0.082300 255 220 0
0.154680 0.150259 0.081268 255 220 0
0.090444 0.156998 0.068324 255 220 0
0.096022 0.194110 0.031869 255 220 0
0.128852 0.162064 0.099466 255 220 0
0.065904 0.256401 0.095105 255 220 0
0.101573 0.224858 0.027858 255 220 0
0.133905 0.230706 0.062726 255 220 0
0.098534 0.257238 0.050096 255 220 0
0.131697 0.203489 0.027541 255 220 0
0.063919 0.249916 0.098595 255 220 0
0.145896 0.210929 0.057623 255 220 0
0.090203 0.250803 0.097952 255 220 0
0.170542 0.152352 0.031333 255 220 0
0.116656 0.210732 0.025566 255 220 0
0.059094 0.207203 0.095773 255 220 0
0.108456 0.147754 0.052829 255 220 0
0.137999 0.175968 0.024967 255 220 0
0.088693 0.244256 0.035342 255 220 0
0.130743 0.146253 0.032787 255 220 0
0.114283 0.238755 0.094698 255 220 0
0.150164 0.199025 0.045608 255 220 0
0.095065 0.261425 0.057516 255 220 0
0.053788 0.201932 0.077087 255 220 0
0.160249 0.120174 0.041408 255 220 0
0.102086 0.186258 0.031713 255 220 0
0.065158 0.266328 0.076521 255 220 0
0.162152 0.122655 0.031914 255 220 0
0.126829 0.193810 0.104412 255 220 0
0.084464 0.225794 0.031410 255 220 0
0.080679 0.194261 0.108008 255 220 0
0.144529 0.122587 0.046939 255 220 0
0.132859 0.229643 0.049011 255 220 0
0.121157 0.184272 0.025875 255 220 0
0.078374 0.223759 0.033808 255 220 0
0.051142 0.207018 0.072115 255 220 0
0.080469 0.258370 0.046964 255 220 0
0.059152 0.195644 0.086505 255 220 0
0.056067 0.202419 0.087520 255 220 0
0.053655 0.209566 0.059382 255 220 0
0.058635 0.194957 0.069411 255 220 0
0.047285 0.222386 0.085593 255 220 0
0.112268 0.150830 0.045805 255 220 0
0.152488 0.120198 0.046778 255 220 0
0.107796 0.158826 0.042877 255 220 0
0.078365 0.260750 0.050311 255 220 0
0.157267 0.126325 0.025138 255 220 0
0.112591 0.169940 0.105318 255 220 0
0.066988 0.264743 0.085000 255 220 0
0.123731 0.237775 0.045195 255 220 0
0.122858 0.218149 0.028676 255 220 0
0.145918 0.203785 0.079766 255 220 0
0.135998 0.185611 0.025772 255 220 0
0.152971 0.170946 0.027505 255 220 0
0.123936 0.153257 0.033841 255 220 0
0.162385 0.156869 0.072706 255 220 0
0.087477 0.177710 0.045450 255 220 0
0.051526 0.209410 0.064940 255 220 0
0.095911 0.174890 0.040535 255 220 0
0.095680 0.161223 0.099378 255 220 0
0.123898 0.165480 0.029084 255 220 0
0.117585 0.153072 0.038932 255 220 0
0.088333 0.158478 0.071523 255 220 0
0.164306 0.167602 0.064898 255 220 0
0.104729 0.249339 0.090414 255 220 0
0.112446 0.227420 0.029236 255 220 0
0.083322 0.182603 0.045633 255 220 0
0.139186 0.146519 0.089104 255 220 0
0.129090 0.140888 0.088619 255 220 0
0.079200 0.176131 0.055034 255 220 0
0.129932 0.235446 0.056590 255 220 0
0.074311 0.198917 0.106150 255 220 0
0.094650 0.180475 0.108008 255 220 0
0.086177 0.211025 0.111531 255 220 0
0.104408 0.150303 0.054337 255 220 0
0.077970 0.249670 0.040494 255 220 0
0.112967 0.144600 0.051570 255 220 0
0.097031 0.255878 0.087663 255 220 0
0.108767 0.210201 0.025763 255 220 0
0.110149 0.193127 0.110395 255 220 0
0.066646 0.209877 0.103721 255 220 0
0.117577 0.136332 0.076951 255 220 0
0.133565 0.167150 0.099223 255 220 0
0.113692 0.161552 0.036283 255 220 0
0.137654 0.224263 0.052483 255 220 0
0.146901 0.167226 0.024116 255 220 0
0.055901 0.209509 0.055391 255 220 0
0.170112 0.144175 0.058713 255 220 0
0.106066 0.252032 0.046641 255 220 0
0.114100 0.183743 0.027869 255 220 0
0.108777 0.141137 0.069601 255 220 0
0.166460 0.123717 0.048644 255 220 0
0.171610 0.136647 0.052740 255 220 0
0.057968 0.260355 0.085955 255 220 0
0.121776 0.243854 0.075025 255 220 0
0.068385 0.190737 0.097986 255 220 0
0.114362 0.182677 0.028045 255 220 0
0.064550 0.201814 0.050226 255 220 0
0.057856 0.211468 0.051577 255 220 0
0.094141 0.219273 0.028481 255 220 0
0.055076 0.239250 0.051078 255 220 0
0.148544 0.181623 0.029960 255 220 0
0.127158 0.239269 0.066560 255 220 0
0.117521 0.193207 0.108391 255 220 0
0.055749 0.251928 0.056530 255 220 0
0.123791 0.219025 0.100461 255 220 0
0.133290 0.194888 0.026384 255 220 0
0.118472 0.247028 0.056974 255 220 0
0.165269 0.149864 0.068179 255 220 0
0.144519 0.127407 0.034157 255 220 0
0.100473 0.194454 0.029971 255 220 0
0.115872 0.199175 0.109061 255 220 0
0.173442 0.135615 0.046727 255 220 0
0.133479 0.165278 0.098793 255 220 0
0.139578 0.213234 0.039414 255 220 0
0.078664 0.168841 0.087462 255 220 0
0.084027 0.199481 0.110284 255 220 0
0.163600 0.173935 0.045955 255 220 0
0.108736 0.248268 0.088162 255 220 0
0.063314 0.254385 0.095736 255 220 0
0.114299 0.169191 0.104895 255 220 0
0.123221 0.233758 0.090135 255 220 0
0.086825 0.175694 0.047417 255 220 0
0.109955 0.239650 0.035077 255 220 0
0.140343 0.211698 0.039219 255 220 0
0.093526 0.188100 0.110072 255 220 0
0.128132 0.130082 0.068296 255 220 0
0.072894 0.174600 0.084558 255 220 0
0.133869 0.226153 0.080089 255 220 0
0.132973 0.164025 0.098645 255 220 0
0.125369 0.136630 0.084325 255 220 0
0.082114 0.182016 0.047035 255 220 0
0.064612 0.236833 0.103350 255 220 0
0.107981 0.252158 0.082619 255 220 0
0.088656 0.199920 0.111416 255 220 0
0.132669 0.170085 0.100233 255 220 0
0.113633 0.198906 0.109788 255 220 0
0.045358 0.240595 0.081087 255 220 0
0.165381 0.122895 0.035533 255 220 0
0.153061 0.127520 0.069747 255 220 0
0.171239 0.129886 0.047552 255 220 0
0.090672 0.175556 0.044284 255 220 0
0.093155 0.221668 0.028783 255 220 0
0.081747 0.238557 0.034457 255 220 0
0.066858 0.265543 0.082833 255 220 0
0.045424 0.240190 0.070192 255 220 0
0.161506 0.127106 0.024476 255 220 0
0.117570 0.245160 0.081822 255 220 0
0.071215 0.178496 0.089301 255 220 0
0.149364 0.165395 0.088842 255 220 0
0.123578 0.229804 0.036081 255 220 0
0.046174 0.246093 0.078848 255 220 0
0.163215 0.175806 0.052695 255 220 0
0.083309 0.198452 0.109906 255 220 0
0.136573 0.184183 0.025724 255 220 0
0.143703 0.166232 0.093555 255 220 0
0.123033 0.241865 0.052564 255 220 0
0.122577 0.219711 0.101083 255 220 0
0.100988 0.257389 0.079967 255 220 0
0.111518 0.147325 0.093841 255 220 0
0.091251 0.248321 0.037629 255 220 0
0.115708 0.226068 0.029543 255 220 0
0.072321 0.266001 0.082695 255 220 0
0.095418 0.203101 0.029793 255 220 0
0.150241 0.122323 0.036374 255 220 0
0.124401 0.194443 0.105618 255 220 0
0.093145 0.198795 0.031723 255 220 0
0.121332 0.228563 0.097009 255 220 0
0.158815 0.185098 0.057793 255 220 0
0.094307 0.217961 0.028434 255 220 0
0.130759 0.147301 0.092389 255 220 0
0.068262 0.210986 0.042257 255 220 0
0.061234 0.238910 0.045344 255 220 0
0.124323 0.143204 0.041093 255 220 0
0.095879 0.150762 0.077295 255 220 0
0.134946 0.127523 0.069458 255 220 0
0.123669 0.171619 0.027608 255 220 0
0.119887 0.219537 0.103042 255 220 0
0.156068 0.152964 0.080557 255 220 0
0.044923 0.240640 0.077466 255 220 0
0.073557 0.216515 0.037125 255 220 0
0.054858 0.200115 0.077634 255 220 0
0.143228 0.215851 0.060353 255 220 0
0.103181 0.183317 0.109566 255 220 0
0.174419 0.144942 0.037574 255 220 0
0.067339 0.234249 0.040174 255 220 0
0.150179 0.202597 0.056944 255 220 0
0.116135 0.191150 0.025891 255 220 0
0.103283 0.174064 0.106995 255 220 0
0.138180 0.185512 0.026344 255 220 0
0.146767 0.202419 0.041881 255 220 0
0.116172 0.216348 0.026488 255 220 0
0.049145 0.213620 0.066761 255 220 0
0.141168 0.147902 0.088972 255 220 0
0.090340 0.182314 0.040168 255 220 0
0.067472 0.184361 0.090697 255 220 0
0.073350 0.200889 0.042870 255 220 0
0.116092 0.153889 0.039603 255 220 0
0.056683 0.248212 0.053058 255 220 0
0.064281 0.257924 0.054096 255 220 0
0.066439 0.216089 0.041927 255 220 0
0.137938 0.224715 0.060784 255 220 0
0.124701 0.176565 0.026312 255 220 0
0.094987 0.250761 0.039880 255 220 0
0.085647 0.262161 0.085205 255 220 0
0.072410 0.261581 0.090727 255 220 0
0.139636 0.193620 0.029003 255 220 0
0.130634 0.230287 0.045074 255 220 0
0.071289 0.205626 0.105904 255 220 0
0.131530 0.195415 0.025936 255 220 0
0.081675 0.177791 0.100704 255 220 0
0.080093 0.239786 0.105821 255 220 0
0.108176 0.187406 0.109993 255 220 0
0.058831 0.201519 0.057758 255 220 0
0.151128 0.190488 0.079948 255 220 0
0.053442 0.215506 0.092587 255 220 0
0.142094 0.189647 0.093448 255 220 0
0.140463 0.219162 0.070480 255 220 0
0.103851 0.196206 0.111667 255 220 0
0.097095 0.224863 0.028326 255 220 0
0.096847 0.173215 0.105927 255 220 0
0.168504 0.146153 0.062208 255 220 0
0.160129 0.123906 0.028490 255 220 0
0.089932 0.227797 0.109773 255 220 0
0.130610 0.220390 0.034714 255 220 0
0.107903 0.191068 0.028152 255 220 0
0.069104 0.204043 0.044794 255 220 0
0.159991 0.126671 0.024664 255 220 0
0.128411 0.201666 0.102745 255 220 0
0.165421 0.126766 0.026804 255 220 0
0.087944 0.163649 0.095440 255 220 0
0.166335 0.147059 0.066164 255 220 0
0.113647 0.138713 0.079120 255 220 0
0.137124 0.189422 0.026705 255 220 0
0.146594 0.134951 0.025275 255 220 0
0.142705 0.142252 0.025486 255 220 0
0.097503 0.256189 0.086751 255 220 0
0.142747 0.207155 0.039116 255 220 0
