ply
format ascii 1.0
element vertex 1024
property float x
property float y
property float z
property uchar red
property uchar green
property uchar blue
end_header
0.086281 0.224700 0.201000 255 220 0
0.066654 0.180243 0.176540 255 220 0
0.051505 0.184543 0.183641 255 220 0
0.088625 0.275809 0.241997 255 220 0
0.034603 0.198587 0.228509 255 220 0
0.057840 0.172667 0.236122 255 220 0
0.086008 0.241213 0.210794 255 220 0
0.100747 0.215258 0.209505 255 220 0
0.072875 0.151947 0.213188 255 220 0
0.111620 0.182307 0.215220 255 220 0
0.044290 0.176443 0.215441 255 220 0
0.104083 0.148229 0.177868 255 220 0
0.066238 0.234550 0.199488 255 220 0
0.104032 0.215579 0.278273 255 220 0
0.064838 0.279827 0.239171 255 220 0
0.036696 0.243996 0.273042 255 220 0
0.065779 0.179495 0.250369 255 220 0
0.108900 0.151164 0.180941 255 220 0
0.065246 0.253998 0.298789 255 220 0
0.092019 0.199069 0.191808 255 220 0
0.056748 0.287324 0.263817 255 220 0
0.105000 0.240390 0.287064 255 220 0
0.095571 0.152542 0.173248 255 220 0
0.044099 0.178102 0.221894 255 220 0
0.079322 0.162851 0.232170 255 220 0
0.086594 0.239966 0.296805 255 220 0
0.080050 0.284276 0.289645 255 220 0
0.045024 0.241425 0.208526 255 220 0
0.047966 0.269165 0.285026 255 220 0
0.064121 0.160789 0.221946 255 220 0
0.070058 0.222813 0.291007 255 220 0
0.051114 0.234976 0.200377 255 220 0
0.104375 0.170671 0.229337 255 220 0
0.050999 0.180625 0.184829 255 220 0
0.082364 0.173597 0.245830 255 220 0
0.096189 0.188062 0.188799 255 220 0
0.066573 0.261416 0.219269 255 220 0
0.108026 0.251314 0.281653 255 220 0
0.100527 0.227560 0.216447 255 220 0
0.058356 0.284697 0.284454 255 220 0
0.031829 0.229123 0.221075 255 220 0
0.083652 0.141282 0.190488 255 220 0
0.092553 0.252854 0.224636 255 220 0
0.097855 0.182151 0.186670 255 220 0
0.040535 0.253984 0.225245 255 220 0
0.040097 0.194559 0.243997 255 220 0
0.058962 0.247008 0.295259 255 220 0
0.041612 0.265726 0.242298 255 220 0
0.038399 0.188050 0.214715 255 220 0
0.054306 0.279584 0.286479 255 220 0
0.102861 0.140659 0.193134 255 220 0
0.064388 0.282923 0.243916 255 220 0
0.080556 0.217489 0.193371 255 220 0
0.098451 0.155575 0.173630 255 220 0
0.097572 0.273918 0.252014 255 220 0
0.097717 0.159123 0.223114 255 220 0
0.090251 0.268420 0.235249 255 220 0
0.111845 0.223923 0.273041 255 220 0
0.099578 0.230348 0.289066 255 220 0
0.050223 0.226331 0.195375 255 220 0
0.040597 0.245237 0.279986 255 220 0
0.068884 0.287595 0.286572 255 220 0
0.042365 0.191878 0.244816 255 220 0
0.111466 0.241727 0.276636 255 220 0
0.103615 0.209179 0.210052 255 220 0
0.049463 0.215274 0.277339 255 220 0
0.104309 0.183504 0.194800 255 220 0
0.054742 0.178977 0.242792 255 220 0
0.113456 0.211094 0.261252 255 220 0
0.095379 0.234252 0.214897 255 220 0
0.055151 0.168080 0.224707 255 220 0
0.043689 0.216083 0.272300 255 220 0
0.029644 0.222537 0.240841 255 220 0
0.033386 0.234610 0.264137 255 220 0
0.039142 0.232964 0.275492 255 220 0
0.093708 0.270553 0.241152 255 220 0
0.065612 0.290320 0.277172 255 220 0
0.043953 0.263741 0.233373 255 220 0
0.114008 0.199621 0.245464 255 220 0
0.107698 0.237398 0.283651 255 220 0
0.086767 0.247723 0.298660 255 220 0
0.081338 0.157621 0.225338 255 220 0
0.058836 0.213058 0.281505 255 220 0
0.032386 0.207244 0.223203 255 220 0
0.071792 0.148065 0.200780 255 220 0
0.039679 0.252880 0.225363 255 220 0
0.068836 0.245273 0.298208 255 220 0
0.110896 0.163382 0.209643 255 220 0
0.039730 0.243242 0.216242 255 220 0
0.081500 0.183354 0.177855 255 220 0
0.082387 0.143863 0.181124 255 220 0
0.034628 0.205425 0.244687 255 220 0
0.031982 0.230462 0.258880 255 220 0
0.037661 0.250180 0.274012 255 220 0
0.092544 0.231126 0.210044 255 220 0
0.108562 0.200695 0.214582 255 220 0
0.075883 0.263033 0.222479 255 220 0
0.039296 0.193103 0.202030 255 220 0
0.096106 0.254918 0.230198 255 220 0
0.111012 0.238043 0.241610 255 220 0
0.106677 0.260090 0.252933 255 220 0
0.097918 0.182107 0.250698 255 220 0
0.075155 0.206279 0.280668 255 220 0
0.085799 0.141098 0.195199 255 220 0
0.082921 0.208517 0.282335 255 220 0
0.113586 0.198109 0.245319 255 220 0
0.086909 0.214016 0.195788 255 220 0
0.106133 0.176861 0.192333 255 220 0
0.094825 0.224820 0.208562 255 220 0
0.039782 0.251138 0.223418 255 220 0
0.066757 0.213829 0.285099 255 220 0
0.064367 0.289106 0.258252 255 220 0
0.072346 0.166068 0.235043 255 220 0
0.101981 0.264429 0.285324 255 220 0
0.103095 0.269781 0.273481 255 220 0
0.109500 0.225685 0.230099 255 220 0
0.108987 0.257691 0.258065 255 220 0
0.071797 0.290352 0.261540 255 220 0
0.033798 0.209230 0.247425 255 220 0
0.045073 0.267901 0.280842 255 220 0
0.080462 0.288598 0.261066 255 220 0
0.036143 0.241008 0.271895 255 220 0
0.098471 0.167027 0.231702 255 220 0
0.111449 0.178756 0.208908 255 220 0
0.089957 0.169272 0.239172 255 220 0
0.073513 0.224844 0.194744 255 220 0
0.035488 0.202396 0.208189 255 220 0
0.047202 0.208836 0.270277 255 220 0
0.056164 0.234361 0.290412 255 220 0
0.037269 0.196270 0.238429 255 220 0
0.047421 0.271882 0.282487 255 220 0
0.074937 0.187560 0.178198 255 220 0
0.043682 0.178392 0.220919 255 220 0
0.105141 0.234738 0.286119 255 220 0
0.049904 0.282374 0.265855 255 220 0
0.087001 0.182284 0.255866 255 220 0
0.030970 0.222635 0.222469 255 220 0
0.094029 0.242294 0.218736 255 220 0
0.091487 0.149871 0.214290 255 220 0
0.074247 0.261007 0.300683 255 220 0
0.101973 0.201878 0.203524 255 220 0
0.055023 0.169307 0.226987 255 220 0
0.099484 0.169837 0.179646 255 220 0
0.078491 0.246221 0.210444 255 220 0
0.081348 0.251310 0.215344 255 220 0
0.058928 0.205731 0.184504 255 220 0
0.044050 0.221982 0.196069 255 220 0
0.075921 0.220052 0.290043 255 220 0
0.058953 0.288565 0.271888 255 220 0
0.052860 0.170812 0.226514 255 220 0
0.096382 0.224252 0.209786 255 220 0
0.060283 0.157851 0.208281 255 220 0
0.033307 0.203008 0.229690 255 220 0
0.030520 0.224012 0.249855 255 220 0
0.038023 0.199353 0.246293 255 220 0
0.082500 0.183893 0.258259 255 220 0
0.040561 0.191249 0.199736 255 220 0
0.035388 0.217252 0.205462 255 220 0
0.056283 0.242914 0.292917 255 220 0
0.107544 0.194103 0.255725 255 220 0
0.102151 0.235971 0.223894 255 220 0
0.110576 0.147808 0.187050 255 220 0
0.034486 0.228778 0.264875 255 220 0
0.039866 0.185637 0.225211 255 220 0
0.094389 0.272928 0.244829 255 220 0
0.065208 0.265190 0.299145 255 220 0
0.047549 0.232939 0.200345 255 220 0
0.041260 0.183103 0.208123 255 220 0
0.064397 0.246481 0.207346 255 220 0
0.060259 0.157623 0.190970 255 220 0
0.088957 0.213092 0.284502 255 220 0
0.095994 0.164188 0.230150 255 220 0
0.084475 0.284934 0.285220 255 220 0
0.040287 0.243509 0.215721 255 220 0
0.037316 0.236907 0.273648 255 220 0
0.034008 0.201573 0.232891 255 220 0
0.085550 0.267282 0.297745 255 220 0
0.085087 0.282909 0.249697 255 220 0
0.041316 0.270357 0.263649 255 220 0
0.043676 0.273689 0.269274 255 220 0
0.086030 0.282665 0.287298 255 220 0
0.039442 0.194782 0.200166 255 220 0
0.047439 0.173778 0.198929 255 220 0
0.051702 0.279974 0.281842 255 220 0
0.035589 0.256572 0.261820 255 220 0
0.034012 0.239115 0.266429 255 220 0
0.061974 0.160624 0.219091 255 220 0
0.035869 0.226000 0.266444 255 220 0
0.037127 0.220660 0.202997 255 220 0
0.112971 0.205342 0.228825 255 220 0
0.078179 0.258260 0.300702 255 220 0
0.041243 0.196610 0.249720 255 220 0
0.030818 0.241202 0.236804 255 220 0
0.050262 0.202642 0.186042 255 220 0
0.101860 0.192881 0.197781 255 220 0
0.086564 0.174441 0.175560 255 220 0
0.096281 0.209336 0.279305 255 220 0
0.084091 0.158572 0.226761 255 220 0
0.050956 0.283393 0.267098 255 220 0
0.102070 0.202899 0.204262 255 220 0
0.090312 0.261562 0.229212 255 220 0
0.094390 0.280984 0.269045 255 220 0
0.087542 0.241088 0.211812 255 220 0
0.107326 0.155063 0.178487 255 220 0
0.038391 0.196918 0.243297 255 220 0
0.098721 0.274715 0.278098 255 220 0
0.097912 0.155019 0.173486 255 220 0
0.104450 0.258857 0.245614 255 220 0
0.055211 0.170681 0.229851 255 220 0
0.099857 0.252005 0.292428 255 220 0
0.100450 0.272954 0.258917 255 220 0
0.106193 0.258087 0.281930 255 220 0
0.082021 0.192751 0.268185 255 220 0
0.056762 0.160367 0.205385 255 220 0
0.100695 0.199994 0.200721 255 220 0
0.085696 0.267993 0.231317 255 220 0
0.110903 0.163453 0.209669 255 220 0
0.072643 0.172022 0.174226 255 220 0
0.113374 0.221888 0.268530 255 220 0
0.061056 0.260669 0.297664 255 220 0
0.077299 0.185933 0.177929 255 220 0
0.113005 0.192080 0.229362 255 220 0
0.098969 0.190880 0.261032 255 220 0
0.111375 0.183685 0.213683 255 220 0
0.106945 0.209996 0.271374 255 220 0
0.036967 0.257476 0.267386 255 220 0
0.074674 0.257410 0.300696 255 220 0
0.081451 0.256549 0.300443 255 220 0
0.089480 0.242129 0.214081 255 220 0
0.076586 0.186789 0.261427 255 220 0
0.055365 0.253306 0.212960 255 220 0
0.096075 0.190174 0.262057 255 220 0
0.111703 0.251876 0.264431 255 220 0
0.062331 0.159842 0.217887 255 220 0
0.095610 0.230618 0.212844 255 220 0
0.087303 0.285591 0.261189 255 220 0
0.055204 0.212217 0.187517 255 220 0
0.071998 0.274639 0.298167 255 220 0
0.061126 0.217570 0.285471 255 220 0
0.103748 0.268394 0.274516 255 220 0
0.040139 0.184228 0.221352 255 220 0
0.100926 0.258528 0.239211 255 220 0
0.067440 0.253718 0.299340 255 220 0
0.040860 0.254072 0.279419 255 220 0
0.031938 0.227583 0.219769 255 220 0
0.077875 0.211746 0.189146 255 220 0
0.067753 0.223748 0.192972 255 220 0
0.074127 0.157148 0.222799 255 220 0
0.074630 0.289876 0.260629 255 220 0
0.102600 0.253470 0.289503 255 220 0
0.091172 0.251965 0.297820 255 220 0
0.044251 0.187064 0.240729 255 220 0
0.045653 0.255486 0.286021 255 220 0
0.090231 0.261886 0.229410 255 220 0
0.111509 0.156309 0.185169 255 220 0
0.070822 0.266961 0.224801 255 220 0
0.093545 0.234719 0.293276 255 220 0
0.102617 0.224056 0.217087 255 220 0
0.033153 0.204604 0.220149 255 220 0
0.085032 0.172883 0.174551 255 220 0
0.031235 0.224212 0.253324 255 220 0
0.091775 0.214781 0.200215 255 220 0
0.037555 0.205286 0.200195 255 220 0
0.079696 0.256261 0.300609 255 220 0
0.111526 0.202100 0.257584 255 220 0
0.034191 0.254141 0.256800 255 220 0
0.052448 0.282848 0.256679 255 220 0
0.085973 0.182443 0.256220 255 220 0
0.043332 0.188268 0.240890 255 220 0
0.051210 0.275854 0.243729 255 220 0
0.042633 0.223946 0.198086 255 220 0
0.099005 0.268311 0.286727 255 220 0
0.029584 0.228655 0.232937 255 220 0
0.043671 0.180535 0.227061 255 220 0
0.074590 0.249310 0.299737 255 220 0
0.044256 0.178289 0.203536 255 220 0
0.105407 0.162690 0.219395 255 220 0
0.068995 0.209346 0.185754 255 220 0
0.106374 0.190311 0.203348 255 220 0
0.052431 0.210453 0.275948 255 220 0
0.076183 0.145479 0.199507 255 220 0
0.098861 0.189001 0.191847 255 220 0
0.082060 0.161916 0.231129 255 220 0
0.035241 0.246063 0.226592 255 220 0
0.064599 0.265184 0.222741 255 220 0
0.040036 0.250519 0.278796 255 220 0
0.104823 0.263417 0.252560 255 220 0
0.045105 0.181799 0.233360 255 220 0
0.032728 0.205909 0.221992 255 220 0
0.046226 0.245734 0.286385 255 220 0
0.104692 0.241987 0.231634 255 220 0
0.031313 0.224601 0.221062 255 220 0
0.106647 0.197760 0.208859 255 220 0
0.114364 0.200604 0.244197 255 220 0
0.104569 0.214443 0.214468 255 220 0
0.052032 0.218285 0.190832 255 220 0
0.067872 0.227869 0.292829 255 220 0
0.045195 0.223385 0.196011 255 220 0
0.098743 0.256172 0.234297 255 220 0
0.035788 0.227679 0.267115 255 220 0
0.071187 0.215918 0.287336 255 220 0
0.045207 0.216649 0.274394 255 220 0
0.113380 0.233769 0.272072 255 220 0
0.038206 0.244916 0.276077 255 220 0
0.046354 0.212453 0.190797 255 220 0
0.113483 0.194581 0.233632 255 220 0
0.055684 0.267321 0.227170 255 220 0
0.063506 0.273587 0.231885 255 220 0
0.115657 0.213240 0.245402 255 220 0
0.096474 0.271026 0.287735 255 220 0
0.088450 0.210005 0.282525 255 220 0
0.110447 0.180783 0.205799 255 220 0
0.083479 0.181992 0.177890 255 220 0
0.051862 0.249330 0.291382 255 220 0
0.047741 0.201593 0.264127 255 220 0
0.064425 0.174793 0.176255 255 220 0
0.064896 0.284458 0.246378 255 220 0
0.050678 0.209837 0.274155 255 220 0
0.093183 0.242953 0.295637 255 220 0
0.112650 0.194520 0.224781 255 220 0
0.108913 0.145675 0.186152 255 220 0
0.080875 0.198381 0.273805 255 220 0
0.097624 0.141276 0.182741 255 220 0
0.102540 0.185542 0.193823 255 220 0
0.072879 0.277413 0.235971 255 220 0
0.084167 0.182444 0.256441 255 220 0
0.060057 0.242895 0.204674 255 220 0
0.046436 0.235837 0.202940 255 220 0
0.075585 0.169695 0.173537 255 220 0
0.102960 0.178889 0.189638 255 220 0
0.048589 0.227541 0.196604 255 220 0
0.064892 0.261344 0.219101 255 220 0
0.072891 0.289044 0.284025 255 220 0
0.102202 0.142907 0.181913 255 220 0
0.103351 0.267695 0.256156 255 220 0
0.110677 0.162819 0.209839 255 220 0
0.059245 0.225284 0.288590 255 220 0
0.098094 0.207028 0.276615 255 220 0
0.035242 0.225366 0.264874 255 220 0
0.113037 0.192094 0.232179 255 220 0
0.113034 0.157870 0.193196 255 220 0
0.101281 0.184459 0.250831 255 220 0
0.087887 0.159281 0.227340 255 220 0
0.072137 0.225115 0.194557 255 220 0
0.093656 0.275297 0.247096 255 220 0
0.092834 0.258032 0.228940 255 220 0
0.109386 0.194381 0.252903 255 220 0
0.055711 0.258702 0.217688 255 220 0
0.099180 0.270254 0.249213 255 220 0
0.101974 0.166672 0.227907 255 220 0
0.034596 0.198529 0.219904 255 220 0
0.090022 0.254410 0.223277 255 220 0
0.047014 0.230921 0.199301 255 220 0
0.115920 0.223736 0.254113 255 220 0
0.031704 0.229742 0.221942 255 220 0
0.091638 0.204751 0.277723 255 220 0
0.090795 0.210788 0.197245 255 220 0
0.062388 0.282892 0.244858 255 220 0
0.036922 0.256480 0.268238 255 220 0
0.114974 0.204777 0.240348 255 220 0
0.093787 0.185506 0.185440 255 220 0
0.069457 0.158574 0.175381 255 220 0
0.033166 0.213619 0.212706 255 220 0
0.046733 0.241975 0.286122 255 220 0
0.062375 0.209346 0.280314 255 220 0
0.089928 0.204873 0.278315 255 220 0
0.039425 0.235758 0.209508 255 220 0
0.109397 0.215392 0.272051 255 220 0
0.092149 0.141588 0.200204 255 220 0
0.029645 0.223176 0.242099 255 220 0
0.108397 0.206797 0.267086 255 220 0
0.063046 0.287203 0.253345 255 220 0
0.086437 0.197051 0.186555 255 220 0
0.052839 0.273332 0.289411 255 220 0
0.038681 0.236830 0.211596 255 220 0
0.058803 0.203040 0.273420 255 220 0
0.045165 0.230148 0.281412 255 220 0
0.062380 0.270838 0.297374 255 220 0
0.090037 0.256856 0.298301 255 220 0
0.046814 0.172735 0.205364 255 220 0
0.050686 0.167597 0.211251 255 220 0
0.089537 0.198394 0.272866 255 220 0
0.114786 0.229909 0.248755 255 220 0
0.101071 0.190375 0.195168 255 220 0
0.033098 0.207004 0.239783 255 220 0
0.072260 0.215352 0.189164 255 220 0
0.088890 0.265168 0.297027 255 220 0
0.110165 0.152830 0.182298 255 220 0
0.107408 0.204124 0.266125 255 220 0
0.056216 0.162818 0.213779 255 220 0
0.080257 0.224415 0.197074 255 220 0
0.048579 0.209872 0.272437 255 220 0
0.040815 0.210598 0.264403 255 220 0
0.040036 0.190848 0.237434 255 220 0
0.066009 0.290927 0.270596 255 220 0
0.111872 0.245551 0.273938 255 220 0
0.080461 0.143425 0.198301 255 220 0
0.037449 0.249435 0.225570 255 220 0
0.032129 0.212042 0.243797 255 220 0
0.043085 0.248931 0.283374 255 220 0
0.112016 0.172324 0.204746 255 220 0
0.111782 0.169908 0.210238 255 220 0
0.075595 0.199279 0.274481 255 220 0
0.037490 0.262487 0.260355 255 220 0
0.100412 0.229583 0.288311 255 220 0
0.042292 0.261408 0.232346 255 220 0
0.030007 0.231358 0.230950 255 220 0
0.101289 0.187062 0.193284 255 220 0
0.046840 0.278505 0.260913 255 220 0
0.059462 0.158839 0.189909 255 220 0
0.042272 0.180192 0.210179 255 220 0
0.069864 0.149792 0.203352 255 220 0
0.032182 0.247308 0.239639 255 220 0
0.113190 0.245748 0.266177 255 220 0
0.074018 0.258379 0.218090 255 220 0
0.061995 0.289792 0.272410 255 220 0
0.077174 0.222485 0.291232 255 220 0
0.087223 0.254543 0.221106 255 220 0
0.105595 0.191419 0.255136 255 220 0
0.068161 0.172781 0.242627 255 220 0
0.050516 0.247337 0.290082 255 220 0
0.104518 0.194379 0.202747 255 220 0
0.108643 0.213013 0.271457 255 220 0
0.033210 0.239870 0.263966 255 220 0
0.044541 0.243009 0.210376 255 220 0
0.068231 0.167888 0.174699 255 220 0
0.104902 0.225931 0.283430 255 220 0
0.078273 0.159586 0.227582 255 220 0
0.042490 0.181038 0.206264 255 220 0
0.029306 0.226954 0.241731 255 220 0
0.041364 0.267163 0.272229 255 220 0
0.030150 0.240037 0.245558 255 220 0
0.107895 0.181419 0.236466 255 220 0
0.067790 0.291109 0.273391 255 220 0
0.068201 0.150404 0.201282 255 220 0
0.074525 0.192917 0.180001 255 220 0
0.061301 0.239807 0.294674 255 220 0
0.093206 0.141539 0.181826 255 220 0
0.056659 0.285497 0.256094 255 220 0
0.079128 0.183217 0.177279 255 220 0
0.081536 0.250903 0.215131 255 220 0
0.085878 0.142024 0.198872 255 220 0
0.102925 0.258367 0.287599 255 220 0
0.065882 0.283015 0.291833 255 220 0
0.063809 0.158502 0.216983 255 220 0
0.073860 0.167157 0.173436 255 220 0
0.095574 0.219694 0.206368 255 220 0
0.055467 0.213449 0.187972 255 220 0
0.033738 0.252683 0.243074 255 220 0
0.115745 0.215340 0.253862 255 220 0
0.087700 0.149188 0.213687 255 220 0
0.111350 0.246676 0.275121 255 220 0
0.070626 0.238358 0.296744 255 220 0
0.040537 0.188445 0.234463 255 220 0
0.109199 0.165521 0.215396 255 220 0
0.107759 0.217216 0.221711 255 220 0
0.047207 0.274595 0.248189 255 220 0
0.100618 0.217325 0.210513 255 220 0
0.077228 0.151155 0.175090 255 220 0
0.089424 0.250190 0.219613 255 220 0
0.032756 0.235053 0.222399 255 220 0
0.089372 0.181828 0.180466 255 220 0
0.037106 0.244997 0.273839 255 220 0
0.074928 0.199117 0.182444 255 220 0
0.109445 0.222940 0.276605 255 220 0
0.110259 0.227704 0.277651 255 220 0
0.086249 0.271568 0.235213 255 220 0
0.072888 0.265537 0.223861 255 220 0
0.040069 0.217732 0.197790 255 220 0
0.114927 0.204378 0.240077 255 220 0
0.059694 0.168603 0.178814 255 220 0
0.054130 0.247667 0.292623 255 220 0
0.092847 0.273206 0.289989 255 220 0
0.112109 0.186625 0.224515 255 220 0
0.071023 0.206234 0.184668 255 220 0
0.033005 0.205857 0.219255 255 220 0
0.039940 0.217441 0.268304 255 220 0
0.091805 0.153410 0.172563 255 220 0
0.096671 0.149072 0.174526 255 220 0
0.102921 0.270304 0.262830 255 220 0
0.073469 0.170965 0.241766 255 220 0
0.069374 0.274816 0.232689 255 220 0
0.111869 0.168205 0.208963 255 220 0
0.030595 0.215004 0.234615 255 220 0
0.038682 0.234520 0.275321 255 220 0
0.052318 0.278585 0.247151 255 220 0
0.066316 0.154696 0.211730 255 220 0
0.112905 0.225649 0.238632 255 220 0
0.055093 0.190373 0.258134 255 220 0
0.065689 0.154934 0.211326 255 220 0
0.065557 0.222286 0.191897 255 220 0
0.091404 0.204814 0.194532 255 220 0
0.076654 0.194678 0.181065 255 220 0
0.057074 0.213591 0.187782 255 220 0
0.045480 0.213932 0.191838 255 220 0
0.077056 0.290228 0.276296 255 220 0
0.037445 0.240092 0.216781 255 220 0
0.048310 0.275810 0.280568 255 220 0
0.106893 0.252450 0.244228 255 220 0
0.087923 0.167499 0.173139 255 220 0
0.036291 0.202208 0.245564 255 220 0
0.049005 0.233393 0.200027 255 220 0
0.104168 0.182875 0.194124 255 220 0
0.074417 0.187527 0.262059 255 220 0
0.047304 0.251063 0.287897 255 220 0
0.100007 0.263395 0.242436 255 220 0
0.039435 0.195064 0.243105 255 220 0
0.112447 0.193029 0.241513 255 220 0
0.054587 0.238208 0.201842 255 220 0
0.109989 0.194730 0.252138 255 220 0
0.041501 0.207748 0.262851 255 220 0
0.049097 0.200722 0.186265 255 220 0
0.048181 0.280061 0.261212 255 220 0
0.035359 0.256288 0.260914 255 220 0
0.060890 0.189530 0.260577 255 220 0
0.074681 0.153428 0.217082 255 220 0
0.111838 0.160660 0.205028 255 220 0
0.075271 0.264954 0.300374 255 220 0
0.030842 0.226153 0.223765 255 220 0
0.035393 0.206424 0.249090 255 220 0
0.077196 0.144218 0.193666 255 220 0
0.048550 0.267248 0.232700 255 220 0
0.103694 0.141672 0.195853 255 220 0
0.108406 0.188774 0.206643 255 220 0
0.101812 0.210610 0.276733 255 220 0
0.058969 0.262054 0.220205 255 220 0
0.085269 0.206821 0.190854 255 220 0
0.071326 0.174105 0.245286 255 220 0
0.113818 0.237179 0.250494 255 220 0
0.092415 0.277774 0.285980 255 220 0
0.087810 0.256969 0.223421 255 220 0
0.109354 0.173500 0.222373 255 220 0
0.112351 0.190393 0.223250 255 220 0
0.059007 0.204075 0.274446 255 220 0
0.103460 0.166968 0.180742 255 220 0
0.056501 0.160685 0.196230 255 220 0
0.032877 0.205016 0.222407 255 220 0
0.050897 0.188042 0.251560 255 220 0
0.063939 0.287093 0.252463 255 220 0
0.032338 0.249403 0.249096 255 220 0
0.084126 0.247320 0.299072 255 220 0
0.065638 0.239321 0.296010 255 220 0
0.031064 0.237827 0.230904 255 220 0
0.066499 0.289563 0.258684 255 220 0
0.035240 0.219221 0.261290 255 220 0
0.105023 0.203637 0.268438 255 220 0
0.062088 0.176559 0.244891 255 220 0
0.037053 0.246512 0.223430 255 220 0
0.108662 0.168916 0.219622 255 220 0
0.082498 0.141741 0.189525 255 220 0
0.078907 0.143506 0.189077 255 220 0
0.097671 0.174586 0.181613 255 220 0
0.088533 0.284962 0.261741 255 220 0
0.078209 0.290131 0.273367 255 220 0
0.066538 0.204180 0.277438 255 220 0
0.099395 0.274952 0.261442 255 220 0
0.068449 0.287720 0.252395 255 220 0
0.100770 0.271342 0.279207 255 220 0
0.034342 0.254604 0.256828 255 220 0
0.104536 0.268104 0.267300 255 220 0
0.102478 0.254231 0.289498 255 220 0
0.058655 0.177519 0.178736 255 220 0
0.071713 0.187789 0.261944 255 220 0
0.091730 0.245838 0.218714 255 220 0
0.088111 0.239053 0.296221 255 220 0
0.067214 0.173892 0.243717 255 220 0
0.112110 0.161175 0.204338 255 220 0
0.087989 0.184407 0.258251 255 220 0
0.042199 0.267900 0.245750 255 220 0
0.094287 0.221359 0.287601 255 220 0
0.060145 0.201733 0.272871 255 220 0
0.092947 0.280549 0.256622 255 220 0
0.107488 0.262353 0.269618 255 220 0
0.030515 0.216386 0.229352 255 220 0
0.087311 0.269585 0.233951 255 220 0
0.075216 0.175386 0.174689 255 220 0
0.111287 0.152407 0.200304 255 220 0
0.078047 0.253472 0.215603 255 220 0
0.087035 0.145243 0.207060 255 220 0
0.044826 0.247608 0.285271 255 220 0
0.109151 0.189936 0.246940 255 220 0
0.112077 0.245595 0.273123 255 220 0
0.083264 0.204013 0.278733 255 220 0
0.031902 0.214683 0.246786 255 220 0
0.031533 0.214046 0.243464 255 220 0
0.080802 0.280565 0.242770 255 220 0
0.111247 0.184058 0.229014 255 220 0
0.057223 0.257483 0.295603 255 220 0
0.082295 0.278763 0.241140 255 220 0
0.100306 0.263605 0.243112 255 220 0
0.112041 0.249827 0.268755 255 220 0
0.064082 0.289431 0.279346 255 220 0
0.034937 0.222300 0.262576 255 220 0
0.041680 0.267352 0.273055 255 220 0
0.104346 0.259343 0.245931 255 220 0
0.091035 0.207262 0.195558 255 220 0
0.080230 0.169607 0.173238 255 220 0
0.083679 0.188267 0.263288 255 220 0
0.110673 0.193245 0.248357 255 220 0
0.042959 0.187601 0.196171 255 220 0
0.106180 0.216737 0.276920 255 220 0
0.042424 0.250075 0.218950 255 220 0
0.080851 0.230375 0.200917 255 220 0
0.111104 0.186329 0.234528 255 220 0
0.060233 0.216433 0.188790 255 220 0
0.042573 0.181421 0.205040 255 220 0
0.033595 0.203533 0.234992 255 220 0
0.050062 0.249135 0.211622 255 220 0
0.094962 0.279902 0.261527 255 220 0
0.031922 0.209208 0.235354 255 220 0
0.070478 0.279269 0.237881 255 220 0
0.101010 0.261895 0.242520 255 220 0
0.030712 0.241648 0.250786 255 220 0
0.034166 0.218313 0.258208 255 220 0
0.059036 0.165831 0.180585 255 220 0
0.102843 0.143555 0.181407 255 220 0
0.111599 0.202617 0.257962 255 220 0
0.073565 0.190910 0.179187 255 220 0
0.088103 0.285743 0.269734 255 220 0
0.109222 0.252756 0.250725 255 220 0
0.074388 0.219524 0.191947 255 220 0
0.038446 0.187446 0.218477 255 220 0
0.088979 0.278507 0.246078 255 220 0
0.032623 0.208181 0.219171 255 220 0
0.095582 0.177254 0.246148 255 220 0
0.059752 0.166634 0.228054 255 220 0
0.100127 0.236600 0.221698 255 220 0
0.089929 0.278779 0.247603 255 220 0
0.036215 0.206117 0.251107 255 220 0
0.093123 0.219838 0.204141 255 220 0
0.108251 0.190777 0.250054 255 220 0
0.105943 0.228517 0.283519 255 220 0
0.083963 0.191664 0.182435 255 220 0
0.050076 0.217566 0.279304 255 220 0
0.108006 0.223500 0.225741 255 220 0
0.108093 0.232343 0.282305 255 220 0
0.103948 0.193539 0.201258 255 220 0
0.031203 0.236181 0.228702 255 220 0
0.085205 0.141946 0.198064 255 220 0
0.052216 0.264815 0.291471 255 220 0
0.056435 0.269568 0.294101 255 220 0
0.081412 0.217392 0.193798 255 220 0
0.108802 0.250063 0.280441 255 220 0
0.076602 0.288104 0.285068 255 220 0
0.041499 0.182435 0.208375 255 220 0
0.113728 0.243696 0.263525 255 220 0
0.075068 0.185050 0.259272 255 220 0
0.043572 0.215733 0.271917 255 220 0
0.054081 0.167237 0.188318 255 220 0
0.061455 0.166727 0.229877 255 220 0
0.106613 0.226811 0.225095 255 220 0
0.084835 0.182739 0.178711 255 220 0
0.052081 0.281198 0.280562 255 220 0
0.073718 0.183539 0.257313 255 220 0
0.032761 0.213577 0.214610 255 220 0
0.056178 0.181280 0.247362 255 220 0
0.112360 0.197109 0.223846 255 220 0
0.065452 0.269913 0.298667 255 220 0
0.052978 0.281997 0.280876 255 220 0
0.033452 0.246957 0.262398 255 220 0
0.077645 0.161345 0.229882 255 220 0
0.075176 0.249682 0.299838 255 220 0
0.112377 0.243676 0.273103 255 220 0
0.067108 0.282918 0.243078 255 220 0
0.102670 0.169919 0.230746 255 220 0
0.057571 0.179920 0.179414 255 220 0
0.111658 0.234024 0.276751 255 220 0
0.034363 0.207970 0.247754 255 220 0
0.044492 0.240087 0.207794 255 220 0
0.109467 0.152299 0.203919 255 220 0
0.070440 0.185036 0.258479 255 220 0
0.107930 0.261454 0.269206 255 220 0
0.059596 0.248239 0.208426 255 220 0
0.103117 0.207750 0.273547 255 220 0
0.085623 0.140711 0.188010 255 220 0
0.109924 0.192684 0.249370 255 220 0
0.088684 0.158368 0.171865 255 220 0
0.053791 0.209114 0.275788 255 220 0
0.036061 0.248581 0.270441 255 220 0
0.114231 0.208565 0.234932 255 220 0
0.029551 0.226229 0.232902 255 220 0
0.074869 0.148209 0.206563 255 220 0
0.105309 0.193530 0.203564 255 220 0
0.075763 0.174853 0.174547 255 220 0
0.099207 0.263082 0.240957 255 220 0
0.103292 0.257845 0.242385 255 220 0
0.079491 0.179651 0.176095 255 220 0
0.055929 0.214282 0.280889 255 220 0
0.044957 0.218725 0.275540 255 220 0
0.109288 0.238644 0.281415 255 220 0
0.058236 0.206010 0.275745 255 220 0
0.113240 0.242423 0.269959 255 220 0
0.105788 0.253650 0.284981 255 220 0
0.074166 0.272046 0.230401 255 220 0
0.067461 0.166077 0.233077 255 220 0
0.103357 0.182894 0.193028 255 220 0
0.049350 0.273453 0.284594 255 220 0
0.086178 0.239415 0.209742 255 220 0
0.069430 0.213169 0.187563 255 220 0
0.038591 0.191502 0.206365 255 220 0
0.109260 0.166903 0.188540 255 220 0
0.111826 0.172852 0.211049 255 220 0
0.102848 0.264009 0.248324 255 220 0
0.038973 0.205578 0.197201 255 220 0
0.105919 0.186856 0.199944 255 220 0
0.069946 0.288661 0.254878 255 220 0
0.101583 0.222020 0.284122 255 220 0
0.080599 0.174717 0.174605 255 220 0
0.029977 0.231515 0.231257 255 220 0
0.039536 0.251082 0.223726 255 220 0
0.113084 0.156037 0.195037 255 220 0
0.103403 0.248493 0.234469 255 220 0
0.041145 0.197896 0.251349 255 220 0
0.066511 0.225254 0.291429 255 220 0
0.093141 0.234545 0.212757 255 220 0
0.056193 0.177208 0.180267 255 220 0
0.105284 0.236905 0.229140 255 220 0
0.085894 0.240297 0.210119 255 220 0
0.064933 0.288163 0.283829 255 220 0
0.088224 0.195709 0.270597 255 220 0
0.104954 0.159841 0.217170 255 220 0
0.108120 0.259590 0.273903 255 220 0
0.096039 0.270172 0.289002 255 220 0
0.043555 0.185311 0.196547 255 220 0
0.095885 0.150212 0.173938 255 220 0
0.095868 0.164290 0.174295 255 220 0
0.105193 0.162170 0.178897 255 220 0
0.072499 0.153970 0.175944 255 220 0
0.049820 0.168937 0.200377 255 220 0
0.075262 0.230659 0.198827 255 220 0
0.114688 0.210791 0.237801 255 220 0
0.048611 0.171027 0.216373 255 220 0
0.064184 0.247211 0.207838 255 220 0
0.099391 0.224240 0.213038 255 220 0
0.109838 0.171757 0.219182 255 220 0
0.104990 0.191388 0.255883 255 220 0
0.098004 0.205545 0.200929 255 220 0
0.066873 0.213675 0.187535 255 220 0
0.097621 0.255388 0.294016 255 220 0
0.115873 0.215341 0.251065 255 220 0
0.055770 0.199605 0.183283 255 220 0
0.032934 0.204487 0.230736 255 220 0
0.098877 0.183745 0.188596 255 220 0
0.093878 0.280748 0.260620 255 220 0
0.079072 0.289100 0.261546 255 220 0
0.048724 0.252935 0.215732 255 220 0
0.102166 0.155312 0.215485 255 220 0
0.062712 0.164743 0.227677 255 220 0
0.082557 0.284523 0.250731 255 220 0
0.104166 0.259603 0.245841 255 220 0
0.107891 0.174318 0.193098 255 220 0
0.106588 0.235863 0.284808 255 220 0
0.080521 0.174191 0.246586 255 220 0
0.081762 0.151158 0.216075 255 220 0
0.075973 0.287618 0.286259 255 220 0
0.090261 0.189288 0.185053 255 220 0
0.107395 0.260001 0.276410 255 220 0
0.033340 0.205131 0.217582 255 220 0
0.097357 0.189557 0.190732 255 220 0
0.050396 0.201597 0.185749 255 220 0
0.104732 0.200449 0.206919 255 220 0
0.059353 0.165890 0.226257 255 220 0
0.104845 0.240665 0.287254 255 220 0
0.054994 0.231807 0.197595 255 220 0
0.092570 0.167364 0.235815 255 220 0
0.033011 0.203786 0.227310 255 220 0
0.052187 0.165513 0.208608 255 220 0
0.112241 0.188102 0.230191 255 220 0
0.100559 0.210293 0.206505 255 220 0
0.049858 0.248772 0.211432 255 220 0
0.030570 0.227399 0.252185 255 220 0
0.053188 0.177708 0.182959 255 220 0
0.113259 0.226599 0.270943 255 220 0
0.093249 0.142844 0.179610 255 220 0
0.112118 0.242709 0.249080 255 220 0
0.114125 0.241391 0.263868 255 220 0
0.114065 0.230123 0.245575 255 220 0
0.086497 0.286120 0.261641 255 220 0
0.061832 0.270687 0.228947 255 220 0
0.079310 0.258310 0.219846 255 220 0
0.046571 0.174066 0.218850 255 220 0
0.079324 0.172932 0.245037 255 220 0
0.102893 0.148939 0.207905 255 220 0
0.077038 0.200238 0.275492 255 220 0
0.044759 0.177028 0.203925 255 220 0
0.037460 0.260715 0.265182 255 220 0
0.065553 0.251054 0.298505 255 220 0
0.052324 0.165053 0.204617 255 220 0
0.069187 0.228117 0.195794 255 220 0
0.108784 0.228079 0.229991 255 220 0
0.036744 0.194072 0.211888 255 220 0
0.053648 0.275456 0.289163 255 220 0
0.115513 0.229038 0.260750 255 220 0
0.079760 0.201347 0.276569 255 220 0
0.096764 0.240612 0.293410 255 220 0
0.112158 0.195061 0.246660 255 220 0
0.049643 0.276239 0.282719 255 220 0
0.082259 0.185023 0.259591 255 220 0
0.049004 0.250794 0.289365 255 220 0
0.101330 0.146449 0.205942 255 220 0
0.115615 0.211130 0.250186 255 220 0
0.048487 0.271490 0.239920 255 220 0
0.082739 0.207459 0.189504 255 220 0
0.111675 0.182784 0.221111 255 220 0
0.110658 0.246317 0.277364 255 220 0
0.101351 0.183984 0.191299 255 220 0
0.049800 0.224506 0.282738 255 220 0
0.092804 0.177422 0.247959 255 220 0
0.089984 0.245433 0.297336 255 220 0
0.066813 0.274163 0.232038 255 220 0
0.088680 0.150238 0.173255 255 220 0
0.107850 0.220465 0.223698 255 220 0
0.073133 0.276986 0.297064 255 220 0
0.098261 0.148234 0.175283 255 220 0
0.035063 0.203268 0.242693 255 220 0
0.112965 0.246155 0.258159 255 220 0
0.033931 0.248559 0.233182 255 220 0
0.084238 0.166465 0.172575 255 220 0
0.093339 0.201143 0.274142 255 220 0
0.112466 0.201044 0.225511 255 220 0
0.110697 0.251818 0.255033 255 220 0
0.072393 0.277480 0.235968 255 220 0
0.100927 0.258219 0.290231 255 220 0
0.056555 0.268262 0.227920 255 220 0
0.056374 0.272804 0.233901 255 220 0
0.085167 0.274664 0.237922 255 220 0
0.073501 0.267380 0.225688 255 220 0
0.060713 0.285536 0.251181 255 220 0
0.089824 0.203905 0.192744 255 220 0
0.083749 0.158187 0.172009 255 220 0
0.093755 0.209777 0.199268 255 220 0
0.097945 0.261025 0.292359 255 220 0
0.105609 0.153295 0.177188 255 220 0
0.032550 0.212031 0.216421 255 220 0
0.064456 0.275476 0.296650 255 220 0
0.098408 0.211514 0.279689 255 220 0
0.112933 0.206922 0.259032 255 220 0
0.059548 0.185058 0.254534 255 220 0
0.111929 0.186877 0.230100 255 220 0
0.107880 0.167304 0.219774 255 220 0
0.101347 0.192204 0.196678 255 220 0
0.061084 0.158363 0.212024 255 220 0
0.094115 0.233832 0.213314 255 220 0
0.079738 0.277105 0.237768 255 220 0
0.098283 0.224655 0.212032 255 220 0
0.038471 0.226180 0.203693 255 220 0
0.107281 0.194542 0.208140 255 220 0
0.096599 0.198716 0.195520 255 220 0
0.066263 0.230724 0.197033 255 220 0
0.069802 0.158249 0.222214 255 220 0
0.055597 0.235789 0.290532 255 220 0
0.113832 0.219106 0.265770 255 220 0
0.094631 0.238950 0.217159 255 220 0
0.044972 0.179896 0.198207 255 220 0
0.045423 0.188472 0.190452 255 220 0
0.084864 0.242244 0.210754 255 220 0
0.086532 0.205796 0.279770 255 220 0
0.036568 0.255632 0.236132 255 220 0
0.031847 0.231973 0.222896 255 220 0
0.031797 0.247088 0.250985 255 220 0
0.081702 0.212060 0.191208 255 220 0
0.106628 0.258302 0.280677 255 220 0
0.083445 0.202293 0.187336 255 220 0
0.059375 0.244499 0.294940 255 220 0
0.115777 0.218710 0.247935 255 220 0
0.029917 0.219793 0.238830 255 220 0
0.040460 0.265291 0.244869 255 220 0
0.057167 0.197852 0.182481 255 220 0
0.037242 0.190565 0.217854 255 220 0
0.100270 0.204149 0.202667 255 220 0
0.089110 0.195561 0.270276 255 220 0
0.111197 0.172164 0.214525 255 220 0
0.089010 0.272176 0.238027 255 220 0
0.073337 0.147080 0.200225 255 220 0
0.099294 0.231903 0.289734 255 220 0
0.110798 0.207946 0.223599 255 220 0
0.065402 0.206928 0.184569 255 220 0
0.081515 0.145481 0.178689 255 220 0
0.078452 0.143560 0.192739 255 220 0
0.063542 0.283377 0.290465 255 220 0
0.069464 0.216891 0.287687 255 220 0
0.044182 0.259041 0.226178 255 220 0
0.110505 0.207472 0.222637 255 220 0
0.092936 0.261717 0.232037 255 220 0
0.092893 0.270421 0.240042 255 220 0
0.114729 0.235111 0.253726 255 220 0
0.096272 0.279103 0.266366 255 220 0
0.106722 0.174102 0.229370 255 220 0
0.077144 0.210046 0.283712 255 220 0
0.031534 0.212488 0.240377 255 220 0
0.092069 0.281585 0.279292 255 220 0
0.041634 0.211396 0.266174 255 220 0
0.112376 0.191565 0.238562 255 220 0
0.087886 0.219488 0.288506 255 220 0
0.064742 0.153711 0.205477 255 220 0
0.097415 0.166593 0.176170 255 220 0
0.110473 0.223682 0.231153 255 220 0
0.031542 0.215434 0.245864 255 220 0
0.084231 0.141118 0.191635 255 220 0
0.037489 0.190214 0.215981 255 220 0
0.100909 0.190356 0.258883 255 220 0
0.051948 0.243534 0.206302 255 220 0
0.032010 0.246594 0.239189 255 220 0
0.089288 0.158937 0.226603 255 220 0
0.057521 0.231492 0.290191 255 220 0
0.052957 0.277588 0.286683 255 220 0
0.032807 0.210176 0.216037 255 220 0
0.053378 0.214393 0.279483 255 220 0
0.091995 0.234173 0.211378 255 220 0
0.109362 0.224600 0.277592 255 220 0
0.100913 0.189265 0.257545 255 220 0
0.030605 0.234867 0.230227 255 220 0
0.064604 0.185597 0.178021 255 220 0
0.055701 0.250188 0.210367 255 220 0
0.062059 0.201652 0.273610 255 220 0
0.037539 0.190424 0.214639 255 220 0
0.049464 0.190863 0.185126 255 220 0
0.093243 0.240101 0.216439 255 220 0
0.043591 0.273077 0.270568 255 220 0
0.063452 0.232668 0.293332 255 220 0
0.030689 0.242264 0.240740 255 220 0
0.036575 0.192146 0.220591 255 220 0
0.030909 0.217608 0.245166 255 220 0
0.067087 0.291027 0.268057 255 220 0
0.094520 0.145404 0.176540 255 220 0
0.061615 0.160876 0.181195 255 220 0
0.082960 0.142083 0.185650 255 220 0
0.094895 0.230171 0.211833 255 220 0
0.114717 0.236610 0.255860 255 220 0
0.111335 0.251782 0.270210 255 220 0
0.066694 0.275618 0.297214 255 220 0
0.077870 0.290086 0.266755 255 220 0
0.106124 0.149288 0.178832 255 220 0
0.063056 0.221760 0.288598 255 220 0
0.051459 0.253008 0.214181 255 220 0
0.046565 0.174052 0.218780 255 220 0
0.106687 0.209278 0.271140 255 220 0
0.069811 0.291260 0.273389 255 220 0
0.082794 0.160204 0.228906 255 220 0
0.032322 0.247042 0.237998 255 220 0
0.111806 0.186005 0.228837 255 220 0
0.042257 0.180086 0.218735 255 220 0
0.091523 0.213611 0.284131 255 220 0
0.041146 0.212772 0.266624 255 220 0
0.066966 0.240417 0.296634 255 220 0
0.041781 0.207352 0.193244 255 220 0
0.108652 0.244872 0.282074 255 220 0
0.113225 0.215660 0.265209 255 220 0
0.066593 0.270389 0.298861 255 220 0
0.111765 0.230463 0.238414 255 220 0
0.094414 0.160082 0.172691 255 220 0
0.034054 0.205856 0.242870 255 220 0
0.109540 0.231884 0.233890 255 220 0
0.046132 0.215605 0.274600 255 220 0
0.078872 0.166868 0.237386 255 220 0
0.114638 0.234661 0.252485 255 220 0
0.042222 0.188508 0.197372 255 220 0
0.101567 0.259510 0.241096 255 220 0
0.101617 0.272619 0.266918 255 220 0
0.093129 0.190176 0.187615 255 220 0
0.059375 0.222125 0.191705 255 220 0
0.062843 0.178492 0.177149 255 220 0
0.109365 0.195986 0.213927 255 220 0
0.039322 0.215495 0.266023 255 220 0
0.053224 0.164236 0.207493 255 220 0
0.070712 0.291198 0.267698 255 220 0
0.106936 0.255180 0.247207 255 220 0
0.066035 0.272768 0.230557 255 220 0
0.080170 0.188884 0.264011 255 220 0
0.030135 0.224395 0.227684 255 220 0
0.094195 0.141523 0.200135 255 220 0
0.105978 0.265292 0.263310 255 220 0
0.081889 0.179001 0.252392 255 220 0
0.113388 0.207424 0.231078 255 220 0
0.031773 0.222108 0.218501 255 220 0
0.111238 0.184773 0.230538 255 220 0
0.097019 0.181194 0.250184 255 220 0
0.115278 0.212883 0.255612 255 220 0
0.078467 0.280466 0.241483 255 220 0
0.045136 0.178256 0.199979 255 220 0
0.099669 0.231659 0.217974 255 220 0
0.050844 0.258023 0.219165 255 220 0
0.099698 0.252416 0.232470 255 220 0
0.096090 0.200395 0.196038 255 220 0
0.095104 0.279621 0.275596 255 220 0
0.094635 0.274399 0.286806 255 220 0
0.102492 0.262365 0.245619 255 220 0
0.080889 0.195983 0.271481 255 220 0
0.111087 0.195958 0.218850 255 220 0
0.106462 0.241924 0.285465 255 220 0
0.063028 0.256765 0.298305 255 220 0
0.058172 0.269927 0.295269 255 220 0
0.109320 0.185302 0.238962 255 220 0
0.097430 0.203164 0.273939 255 220 0
0.037630 0.260008 0.241957 255 220 0
0.112964 0.193361 0.238645 255 220 0
0.039514 0.243497 0.216787 255 220 0
0.040624 0.258822 0.277086 255 220 0
0.029855 0.220448 0.232801 255 220 0
0.085718 0.267766 0.231118 255 220 0
0.057785 0.177121 0.242791 255 220 0
0.052766 0.278559 0.246459 255 220 0
0.044756 0.186712 0.241111 255 220 0
0.070576 0.193024 0.267470 255 220 0
0.029283 0.226684 0.240530 255 220 0
0.115282 0.233433 0.259800 255 220 0
0.033085 0.228113 0.216156 255 220 0
0.070141 0.149326 0.202085 255 220 0
0.101891 0.150227 0.175758 255 220 0
0.035003 0.246935 0.267961 255 220 0
0.106752 0.200296 0.263443 255 220 0
0.111561 0.215584 0.229361 255 220 0
0.098317 0.257372 0.234754 255 220 0
0.105973 0.150683 0.178088 255 220 0
0.037412 0.203307 0.250533 255 220 0
0.103574 0.145571 0.179568 255 220 0
0.043025 0.233952 0.203997 255 220 0
0.066413 0.151920 0.202819 255 220 0
0.055450 0.202350 0.184104 255 220 0
0.111319 0.186673 0.234131 255 220 0
0.106878 0.165563 0.183206 255 220 0
0.107590 0.170944 0.189452 255 220 0
0.060287 0.244041 0.295269 255 220 0
0.100442 0.185933 0.253657 255 220 0
