ply
format ascii 1.0
element vertex 1024
property float x
property float y
property float z
property uchar red
property uchar green
property uchar blue
end_header
0.092602 0.234880 0.217742 255 220 0
0.070227 0.193616 0.190235 255 220 0
0.055208 0.198963 0.196885 255 220 0
0.097597 0.283588 0.261340 255 220 0
0.037528 0.212405 0.241637 255 220 0
0.057941 0.184122 0.248920 255 220 0
0.093354 0.250874 0.228340 255 220 0
0.105735 0.223755 0.226373 255 220 0
0.072118 0.163190 0.225634 255 220 0
0.113305 0.189709 0.230872 255 220 0
0.045787 0.190093 0.227892 255 220 0
0.104508 0.158251 0.191549 255 220 0
0.073624 0.246602 0.215868 255 220 0
0.105761 0.220569 0.295145 255 220 0
0.074431 0.289916 0.257699 255 220 0
0.041590 0.255303 0.288465 255 220 0
0.065778 0.189516 0.263824 255 220 0
0.109419 0.160581 0.194972 255 220 0
0.069669 0.261412 0.315893 255 220 0
0.096433 0.209285 0.207517 255 220 0
0.065888 0.296973 0.282322 255 220 0
0.108545 0.244747 0.305217 255 220 0
0.096650 0.163543 0.186792 255 220 0
0.045440 0.191460 0.234407 255 220 0
0.078613 0.172556 0.245405 255 220 0
0.089733 0.245574 0.314122 255 220 0
0.087564 0.290584 0.308943 255 220 0
0.052711 0.254980 0.224320 255 220 0
0.054503 0.278737 0.302184 255 220 0
0.063792 0.172386 0.234444 255 220 0
0.072011 0.230313 0.306753 255 220 0
0.058575 0.248382 0.216125 255 220 0
0.104376 0.178149 0.244056 255 220 0
0.054294 0.195057 0.197850 255 220 0
0.081959 0.182326 0.259711 255 220 0
0.099731 0.198091 0.204136 255 220 0
0.075441 0.272371 0.236982 255 220 0
0.112799 0.255584 0.300503 255 220 0
0.106297 0.235688 0.233913 255 220 0
0.066268 0.293251 0.302850 255 220 0
0.037878 0.243381 0.235649 255 220 0
0.082956 0.152643 0.202908 255 220 0
0.100258 0.261202 0.243023 255 220 0
0.100956 0.192156 0.201784 255 220 0
0.048585 0.267108 0.241445 255 220 0
0.041892 0.207170 0.257123 255 220 0
0.062955 0.255205 0.311745 255 220 0
0.049904 0.277894 0.259103 255 220 0
0.041008 0.202217 0.227502 255 220 0
0.061682 0.288446 0.304436 255 220 0
0.101883 0.150124 0.206345 255 220 0
0.074037 0.292816 0.262572 255 220 0
0.086619 0.228593 0.209517 255 220 0
0.099770 0.166275 0.187451 255 220 0
0.105850 0.280414 0.271625 255 220 0
0.097007 0.167568 0.236973 255 220 0
0.098868 0.276403 0.254303 255 220 0
0.114535 0.228389 0.290685 255 220 0
0.102150 0.235167 0.306472 255 220 0
0.057147 0.240099 0.210657 255 220 0
0.045252 0.255854 0.295624 255 220 0
0.076902 0.295061 0.305563 255 220 0
0.043867 0.204256 0.257903 255 220 0
0.115594 0.245964 0.295159 255 220 0
0.108014 0.217418 0.226733 255 220 0
0.051494 0.225355 0.291846 255 220 0
0.107111 0.192526 0.210242 255 220 0
0.055112 0.190374 0.255761 255 220 0
0.115540 0.216028 0.278341 255 220 0
0.101853 0.242892 0.232485 255 220 0
0.055395 0.180340 0.237181 255 220 0
0.046062 0.226929 0.286610 255 220 0
0.034169 0.236111 0.254943 255 220 0
0.037874 0.246689 0.278960 255 220 0
0.042911 0.243991 0.290455 255 220 0
0.102218 0.277930 0.260450 255 220 0
0.074340 0.298512 0.296181 255 220 0
0.052478 0.276118 0.250198 255 220 0
0.115805 0.205301 0.262031 255 220 0
0.111121 0.241680 0.301776 255 220 0
0.090518 0.253187 0.316373 255 220 0
0.080472 0.167486 0.238410 255 220 0
0.060419 0.222090 0.296294 255 220 0
0.036356 0.221468 0.236686 255 220 0
0.071281 0.160008 0.213010 255 220 0
0.047627 0.266084 0.241471 255 220 0
0.072480 0.252429 0.315025 255 220 0
0.111141 0.171213 0.224317 255 220 0
0.047242 0.256918 0.231883 255 220 0
0.085214 0.195276 0.192345 255 220 0
0.082377 0.155763 0.193641 255 220 0
0.037400 0.218451 0.258127 255 220 0
0.036353 0.242938 0.273445 255 220 0
0.043062 0.261319 0.289787 255 220 0
0.098982 0.240272 0.227361 255 220 0
0.111953 0.208311 0.231036 255 220 0
0.084696 0.272968 0.240668 255 220 0
0.042961 0.207750 0.215141 255 220 0
0.103714 0.262667 0.248831 255 220 0
0.116476 0.243973 0.260004 255 220 0
0.113615 0.265775 0.272233 255 220 0
0.097969 0.189126 0.265671 255 220 0
0.076081 0.213878 0.295819 255 220 0
0.084852 0.152042 0.207692 255 220 0
0.083929 0.215308 0.297930 255 220 0
0.115255 0.203843 0.261791 255 220 0
0.092510 0.224438 0.212026 255 220 0
0.108444 0.185865 0.207523 255 220 0
0.100752 0.233857 0.225661 255 220 0
0.047665 0.264432 0.239446 255 220 0
0.068198 0.221957 0.300261 255 220 0
0.073892 0.298301 0.277188 255 220 0
0.071827 0.176267 0.248135 255 220 0
0.107795 0.269017 0.304570 255 220 0
0.109949 0.274788 0.293073 255 220 0
0.114404 0.232357 0.247826 255 220 0
0.115453 0.262937 0.277332 255 220 0
0.081239 0.298700 0.280852 255 220 0
0.036787 0.222185 0.261016 255 220 0
0.051710 0.277942 0.297821 255 220 0
0.089724 0.296176 0.280664 255 220 0
0.040825 0.252436 0.287145 255 220 0
0.098062 0.174960 0.245975 255 220 0
0.113115 0.186487 0.224387 255 220 0
0.089439 0.177632 0.253175 255 220 0
0.080210 0.236495 0.210956 255 220 0
0.039718 0.217059 0.221593 255 220 0
0.048999 0.219490 0.284375 255 220 0
0.059261 0.243111 0.306147 255 220 0
0.039498 0.209392 0.251533 255 220 0
0.054327 0.281607 0.299765 255 220 0
0.079048 0.200050 0.192617 255 220 0
0.045097 0.191833 0.233431 255 220 0
0.108220 0.239157 0.303994 255 220 0
0.058535 0.292589 0.283809 255 220 0
0.086879 0.190071 0.270365 255 220 0
0.036372 0.236942 0.236673 255 220 0
0.101053 0.250836 0.236665 255 220 0
0.090393 0.159353 0.227431 255 220 0
0.079166 0.267463 0.318526 255 220 0
0.106031 0.210612 0.219779 255 220 0
0.055270 0.181466 0.239514 255 220 0
0.101799 0.180085 0.194222 255 220 0
0.086345 0.256566 0.227920 255 220 0
0.089414 0.261135 0.233190 255 220 0
0.064464 0.219311 0.199141 255 220 0
0.050580 0.236312 0.210863 255 220 0
0.077640 0.227069 0.305904 255 220 0
0.067809 0.297629 0.290533 255 220 0
0.053277 0.183184 0.239025 255 220 0
0.102192 0.233091 0.226921 255 220 0
0.060359 0.170455 0.220495 255 220 0
0.036581 0.216868 0.242984 255 220 0
0.034745 0.237077 0.264049 255 220 0
0.040153 0.212023 0.259568 255 220 0
0.082433 0.191976 0.272640 255 220 0
0.044160 0.205896 0.212812 255 220 0
0.041090 0.231971 0.219621 255 220 0
0.060031 0.251490 0.309085 255 220 0
0.108388 0.199933 0.271710 255 220 0
0.108317 0.243557 0.241841 255 220 0
0.110492 0.156804 0.200970 255 220 0
0.038407 0.240751 0.279448 255 220 0
0.041751 0.199192 0.237917 255 220 0
0.102936 0.280058 0.264269 255 220 0
0.070624 0.272531 0.316814 255 220 0
0.054847 0.246687 0.215836 255 220 0
0.043722 0.197339 0.220798 255 220 0
0.072496 0.258273 0.224234 255 220 0
0.061137 0.171037 0.203209 255 220 0
0.090243 0.219199 0.300585 255 220 0
0.095415 0.172438 0.244177 255 220 0
0.092236 0.291036 0.304752 255 220 0
0.047845 0.257156 0.231400 255 220 0
0.041538 0.248167 0.288736 255 220 0
0.036996 0.215227 0.246135 255 220 0
0.091116 0.272796 0.316399 255 220 0
0.094352 0.290619 0.269231 255 220 0
0.049012 0.281533 0.280628 255 220 0
0.051393 0.284366 0.286512 255 220 0
0.093479 0.288538 0.306777 255 220 0
0.043346 0.209493 0.213372 255 220 0
0.049464 0.187921 0.211418 255 220 0
0.059347 0.289290 0.299717 255 220 0
0.042158 0.268437 0.277858 255 220 0
0.038794 0.251005 0.281503 255 220 0
0.061777 0.172554 0.231494 255 220 0
0.039457 0.237788 0.280933 255 220 0
0.043244 0.235314 0.217410 255 220 0
0.116081 0.211862 0.245674 255 220 0
0.082828 0.264367 0.318575 255 220 0
0.042945 0.208837 0.262987 255 220 0
0.037215 0.254755 0.251911 255 220 0
0.055491 0.216968 0.200145 255 220 0
0.105380 0.201941 0.213587 255 220 0
0.089557 0.186050 0.189821 255 220 0
0.097437 0.215028 0.295524 255 220 0
0.083228 0.168111 0.239997 255 220 0
0.059615 0.293446 0.285147 255 220 0
0.106185 0.211584 0.220571 255 220 0
0.098597 0.269858 0.247934 255 220 0
0.102512 0.286943 0.288839 255 220 0
0.094820 0.250560 0.229415 255 220 0
0.108322 0.164719 0.192654 255 220 0
0.040441 0.209707 0.256471 255 220 0
0.105824 0.279886 0.297742 255 220 0
0.099191 0.165779 0.187256 255 220 0
0.111637 0.265095 0.264772 255 220 0
0.055445 0.182681 0.242449 255 220 0
0.104222 0.256526 0.310936 255 220 0
0.108298 0.278867 0.278589 255 220 0
0.111573 0.262477 0.301044 255 220 0
0.082284 0.200368 0.282973 255 220 0
0.057220 0.173418 0.217581 255 220 0
0.104724 0.208987 0.216831 255 220 0
0.094485 0.276583 0.250162 255 220 0
0.111154 0.171281 0.224347 255 220 0
0.075553 0.184993 0.187767 255 220 0
0.116087 0.226433 0.286147 255 220 0
0.066157 0.268488 0.314928 255 220 0
0.081264 0.198226 0.192368 255 220 0
0.114893 0.198644 0.245538 255 220 0
0.099315 0.197273 0.276472 255 220 0
0.113259 0.191174 0.229398 255 220 0
0.108483 0.215067 0.288104 255 220 0
0.043345 0.268949 0.283516 255 220 0
0.079265 0.263845 0.318375 255 220 0
0.085941 0.262374 0.318371 255 220 0
0.096735 0.251310 0.231815 255 220 0
0.076660 0.195256 0.275693 255 220 0
0.063861 0.265634 0.229792 255 220 0
0.096324 0.196791 0.277334 255 220 0
0.117327 0.256606 0.283506 255 220 0
0.062118 0.171799 0.230269 255 220 0
0.101853 0.239352 0.230261 255 220 0
0.096252 0.292547 0.280929 255 220 0
0.061201 0.225966 0.202316 255 220 0
0.078279 0.281348 0.316610 255 220 0
0.062916 0.226181 0.300579 255 220 0
0.110425 0.273300 0.294063 255 220 0
0.042079 0.197945 0.234006 255 220 0
0.108406 0.265392 0.258215 255 220 0
0.071801 0.260905 0.316523 255 220 0
0.046338 0.264643 0.295518 255 220 0
0.037909 0.241900 0.234272 255 220 0
0.083634 0.223325 0.204894 255 220 0
0.074467 0.236021 0.208884 255 220 0
0.073376 0.167800 0.235542 255 220 0
0.084058 0.298006 0.280042 255 220 0
0.107222 0.257865 0.308210 255 220 0
0.095323 0.257038 0.315940 255 220 0
0.045503 0.199483 0.253661 255 220 0
0.050921 0.265299 0.302384 255 220 0
0.098536 0.270178 0.248145 255 220 0
0.112278 0.165260 0.199565 255 220 0
0.079906 0.277235 0.242967 255 220 0
0.096343 0.239876 0.310634 255 220 0
0.108028 0.231980 0.234464 255 220 0
0.037026 0.218914 0.233538 255 220 0
0.087940 0.184688 0.188669 255 220 0
0.035309 0.237049 0.267552 255 220 0
0.097209 0.224543 0.216692 255 220 0
0.042415 0.220114 0.213853 255 220 0
0.084161 0.262242 0.318446 255 220 0
0.112983 0.207432 0.274142 255 220 0
0.040786 0.266382 0.272665 255 220 0
0.061546 0.293252 0.274788 255 220 0
0.085853 0.190308 0.270683 255 220 0
0.044691 0.200758 0.253844 255 220 0
0.060298 0.287013 0.261458 255 220 0
0.049252 0.238302 0.212914 255 220 0
0.105118 0.273089 0.306038 255 220 0
0.035038 0.242570 0.247364 255 220 0
0.044988 0.193679 0.239667 255 220 0
0.078496 0.255841 0.317003 255 220 0
0.046486 0.192487 0.216106 255 220 0
0.105155 0.170578 0.233775 255 220 0
0.074745 0.221917 0.201005 255 220 0
0.109374 0.198708 0.219207 255 220 0
0.054076 0.220350 0.290341 255 220 0
0.075476 0.157089 0.211798 255 220 0
0.102329 0.198635 0.207340 255 220 0
0.081302 0.171420 0.244437 255 220 0
0.042539 0.259657 0.242159 255 220 0
0.073653 0.276140 0.240553 255 220 0
0.045228 0.261215 0.294680 255 220 0
0.112089 0.269273 0.271950 255 220 0
0.046229 0.194510 0.246078 255 220 0
0.036634 0.220166 0.235425 255 220 0
0.050592 0.255529 0.302277 255 220 0
0.111020 0.248945 0.249978 255 220 0
0.036957 0.238930 0.235384 255 220 0
0.110056 0.205835 0.225094 255 220 0
0.116308 0.206305 0.260832 255 220 0
0.109228 0.222359 0.231448 255 220 0
0.058436 0.232140 0.205794 255 220 0
0.070206 0.235458 0.308734 255 220 0
0.051849 0.237604 0.210926 255 220 0
0.106255 0.263480 0.253098 255 220 0
0.039496 0.239434 0.281684 255 220 0
0.072686 0.223521 0.302790 255 220 0
0.047524 0.227254 0.288793 255 220 0
0.116997 0.238085 0.290284 255 220 0
0.043031 0.255938 0.291604 255 220 0
0.052263 0.226866 0.205218 255 220 0
0.115390 0.200888 0.249946 255 220 0
0.064767 0.278883 0.244696 255 220 0
0.072889 0.284173 0.250056 255 220 0
0.118677 0.218698 0.262731 255 220 0
0.102797 0.275976 0.307073 255 220 0
0.089554 0.216267 0.298433 255 220 0
0.112449 0.188740 0.221344 255 220 0
0.087058 0.193737 0.192396 255 220 0
0.056286 0.258353 0.307688 255 220 0
0.049174 0.212522 0.277895 255 220 0
0.067531 0.188415 0.189578 255 220 0
0.074564 0.294182 0.265128 255 220 0
0.052362 0.219983 0.288446 255 220 0
0.096613 0.247990 0.313392 255 220 0
0.114977 0.201316 0.241076 255 220 0
0.108689 0.154878 0.199894 255 220 0
0.081385 0.205812 0.288817 255 220 0
0.097224 0.151706 0.195781 255 220 0
0.105582 0.194763 0.209295 255 220 0
0.082364 0.286921 0.254730 255 220 0
0.084047 0.190466 0.270825 255 220 0
0.067982 0.255231 0.221199 255 220 0
0.053877 0.249552 0.218524 255 220 0
0.078303 0.182439 0.187088 255 220 0
0.105599 0.188302 0.204801 255 220 0
0.055572 0.241397 0.211874 255 220 0
0.073771 0.272462 0.236739 255 220 0
0.081140 0.296251 0.303269 255 220 0
0.101964 0.152943 0.195234 255 220 0
0.110839 0.273497 0.275692 255 220 0
0.110863 0.170664 0.224474 255 220 0
0.061593 0.233883 0.304001 255 220 0
0.099160 0.212690 0.292801 255 220 0
0.038851 0.237288 0.279307 255 220 0
0.114791 0.198523 0.248351 255 220 0
0.113554 0.166298 0.207718 255 220 0
0.101520 0.191148 0.266068 255 220 0
0.087040 0.168438 0.240774 255 220 0
0.078875 0.236900 0.210724 255 220 0
0.102313 0.282377 0.266619 255 220 0
0.100800 0.266126 0.247592 255 220 0
0.110380 0.200171 0.268988 255 220 0
0.064466 0.270749 0.234798 255 220 0
0.107251 0.276751 0.268714 255 220 0
0.101695 0.174459 0.242322 255 220 0
0.037925 0.212749 0.233048 255 220 0
0.097945 0.263047 0.241637 255 220 0
0.054181 0.244778 0.214669 255 220 0
0.119472 0.228707 0.271966 255 220 0
0.037768 0.243967 0.236539 255 220 0
0.092480 0.210970 0.293513 255 220 0
0.096015 0.220800 0.213484 255 220 0
0.072000 0.292927 0.263424 255 220 0
0.043170 0.267923 0.284314 255 220 0
0.117474 0.210578 0.257229 255 220 0
0.097271 0.195927 0.200551 255 220 0
0.071115 0.171858 0.188100 255 220 0
0.038207 0.228226 0.226570 255 220 0
0.050770 0.251756 0.301846 255 220 0
0.063662 0.218126 0.295070 255 220 0
0.090762 0.211222 0.294037 255 220 0
0.046583 0.249816 0.224771 255 220 0
0.111377 0.220176 0.289159 255 220 0
0.090974 0.151709 0.212985 255 220 0
0.034168 0.236688 0.256230 255 220 0
0.109842 0.211951 0.283726 255 220 0
0.072640 0.296758 0.272139 255 220 0
0.090948 0.208038 0.201933 255 220 0
0.059518 0.282227 0.306982 255 220 0
0.045841 0.250853 0.226877 255 220 0
0.059867 0.212505 0.287718 255 220 0
0.048367 0.240357 0.296479 255 220 0
0.068405 0.278493 0.315211 255 220 0
0.094612 0.261986 0.316619 255 220 0
0.048442 0.186641 0.217758 255 220 0
0.051550 0.180898 0.223539 255 220 0
0.090047 0.205068 0.288255 255 220 0
0.119156 0.235201 0.266884 255 220 0
0.104493 0.199643 0.210819 255 220 0
0.036254 0.220391 0.253248 255 220 0
0.078373 0.227430 0.204853 255 220 0
0.094281 0.270418 0.315720 255 220 0
0.110763 0.162058 0.196465 255 220 0
0.108663 0.209428 0.282589 255 220 0
0.056500 0.175516 0.226057 255 220 0
0.086770 0.235336 0.213550 255 220 0
0.050360 0.220292 0.286642 255 220 0
0.043084 0.222107 0.278328 255 220 0
0.041809 0.203790 0.250384 255 220 0
0.075103 0.299385 0.289668 255 220 0
0.116472 0.249856 0.292678 255 220 0
0.079603 0.154706 0.210675 255 220 0
0.045088 0.262854 0.241406 255 220 0
0.035554 0.225305 0.257466 255 220 0
0.047899 0.259140 0.299299 255 220 0
0.113296 0.180231 0.219932 255 220 0
0.112584 0.177594 0.225279 255 220 0
0.076181 0.207162 0.289309 255 220 0
0.044652 0.274212 0.276778 255 220 0
0.102946 0.234365 0.305716 255 220 0
0.050665 0.274000 0.248983 255 220 0
0.035798 0.245312 0.245537 255 220 0
0.104500 0.196416 0.208780 255 220 0
0.055373 0.289254 0.278550 255 220 0
0.060505 0.172370 0.202178 255 220 0
0.044367 0.194254 0.222745 255 220 0
0.069397 0.161784 0.215581 255 220 0
0.038987 0.260570 0.255109 255 220 0
0.118169 0.250292 0.285001 255 220 0
0.082630 0.268716 0.235973 255 220 0
0.070921 0.298543 0.291248 255 220 0
0.079050 0.229317 0.307268 255 220 0
0.095276 0.263539 0.239357 255 220 0
0.106235 0.197471 0.270902 255 220 0
0.067909 0.182977 0.255861 255 220 0
0.054829 0.256555 0.306232 255 220 0
0.107923 0.202954 0.218733 255 220 0
0.110440 0.217907 0.288414 255 220 0
0.038181 0.251945 0.279049 255 220 0
0.052286 0.256514 0.226226 255 220 0
0.070768 0.181267 0.187840 255 220 0
0.107315 0.230544 0.300854 255 220 0
0.077494 0.169619 0.240617 255 220 0
0.044847 0.195257 0.218891 255 220 0
0.034190 0.240495 0.256040 255 220 0
0.048364 0.277952 0.289030 255 220 0
0.036028 0.253251 0.260559 255 220 0
0.108509 0.188181 0.251866 255 220 0
0.076758 0.299271 0.292543 255 220 0
0.067896 0.162643 0.213475 255 220 0
0.079037 0.205333 0.194670 255 220 0
0.064659 0.247854 0.310897 255 220 0
0.092895 0.152418 0.194691 255 220 0
0.066001 0.295524 0.274520 255 220 0
0.082870 0.195386 0.191661 255 220 0
0.089574 0.260723 0.232965 255 220 0
0.084839 0.152785 0.211408 255 220 0
0.108078 0.262794 0.306573 255 220 0
0.073252 0.290538 0.310451 255 220 0
0.063511 0.170372 0.229363 255 220 0
0.076362 0.180078 0.186784 255 220 0
0.101139 0.228791 0.223244 255 220 0
0.061553 0.227145 0.202843 255 220 0
0.040858 0.265613 0.258876 255 220 0
0.118552 0.220384 0.271282 255 220 0
0.086593 0.159052 0.226631 255 220 0
0.115997 0.250968 0.293893 255 220 0
0.073707 0.245454 0.313291 255 220 0
0.042232 0.201492 0.247319 255 220 0
0.109373 0.173229 0.230092 255 220 0
0.112307 0.224486 0.238953 255 220 0
0.055991 0.285923 0.265672 255 220 0
0.105746 0.225776 0.227477 255 220 0
0.078189 0.163774 0.187768 255 220 0
0.097144 0.259076 0.237741 255 220 0
0.039273 0.249131 0.237311 255 220 0
0.092783 0.192909 0.195212 255 220 0
0.042051 0.256224 0.289329 255 220 0
0.079881 0.211348 0.197439 255 220 0
0.111889 0.227466 0.294088 255 220 0
0.113079 0.232081 0.295409 255 220 0
0.095173 0.279906 0.254254 255 220 0
0.081877 0.275671 0.242046 255 220 0
0.046154 0.232373 0.212193 255 220 0
0.117405 0.210198 0.256936 255 220 0
0.062145 0.182577 0.191613 255 220 0
0.058333 0.256431 0.308940 255 220 0
0.099279 0.278374 0.309276 255 220 0
0.113739 0.193526 0.240387 255 220 0
0.076533 0.218684 0.199851 255 220 0
0.037034 0.220216 0.232703 255 220 0
0.042646 0.228812 0.282530 255 220 0
0.093014 0.164786 0.185990 255 220 0
0.097370 0.159930 0.187938 255 220 0
0.110330 0.275820 0.282464 255 220 0
0.073066 0.180721 0.255139 255 220 0
0.078799 0.284814 0.251173 255 220 0
0.112577 0.175951 0.223925 255 220 0
0.034732 0.228820 0.248390 255 220 0
0.042602 0.245589 0.290344 255 220 0
0.061484 0.289467 0.265059 255 220 0
0.065911 0.166599 0.224037 255 220 0
0.117382 0.231609 0.256486 255 220 0
0.055759 0.200961 0.271663 255 220 0
0.065328 0.166912 0.223619 255 220 0
0.072201 0.234820 0.207642 255 220 0
0.096211 0.214929 0.210500 255 220 0
0.081264 0.206838 0.195913 255 220 0
0.063173 0.227147 0.202731 255 220 0
0.051477 0.228370 0.206295 255 220 0
0.085758 0.297403 0.295797 255 220 0
0.044660 0.253971 0.232163 255 220 0
0.055657 0.285521 0.298088 255 220 0
0.113554 0.258562 0.263169 255 220 0
0.090397 0.179131 0.187112 255 220 0
0.038723 0.215056 0.258911 255 220 0
0.056351 0.247019 0.215604 255 220 0
0.106947 0.191946 0.209531 255 220 0
0.074539 0.196161 0.276268 255 220 0
0.052074 0.260660 0.304103 255 220 0
0.107777 0.270168 0.261640 255 220 0
0.041321 0.207775 0.256230 255 220 0
0.113845 0.199073 0.257686 255 220 0
0.062253 0.251207 0.217900 255 220 0
0.111048 0.200497 0.268268 255 220 0
0.043583 0.219280 0.276665 255 220 0
0.054148 0.215155 0.200220 255 220 0
0.056834 0.290663 0.278985 255 220 0
0.041946 0.268218 0.276929 255 220 0
0.061334 0.199473 0.274308 255 220 0
0.073863 0.164315 0.229672 255 220 0
0.112053 0.168633 0.219614 255 220 0
0.080555 0.271309 0.318462 255 220 0
0.036500 0.240393 0.238139 255 220 0
0.038042 0.219169 0.262603 255 220 0
0.076648 0.156013 0.205950 255 220 0
0.057400 0.279213 0.249902 255 220 0
0.102674 0.150928 0.209145 255 220 0
0.111100 0.196838 0.222503 255 220 0
0.103177 0.215903 0.293262 255 220 0
0.067891 0.273665 0.237621 255 220 0
0.090463 0.217663 0.206668 255 220 0
0.071051 0.183878 0.258719 255 220 0
0.118766 0.242440 0.268945 255 220 0
0.099452 0.283145 0.305489 255 220 0
0.095969 0.265791 0.241815 255 220 0
0.109916 0.180826 0.237465 255 220 0
0.114381 0.197310 0.239325 255 220 0
0.060114 0.213468 0.288803 255 220 0
0.105443 0.176812 0.195341 255 220 0
0.057425 0.174185 0.208451 255 220 0
0.036681 0.219244 0.235800 255 220 0
0.051688 0.199337 0.264805 255 220 0
0.073560 0.296607 0.271291 255 220 0
0.038882 0.262200 0.264658 255 220 0
0.087834 0.253011 0.316650 255 220 0
0.068867 0.246908 0.312392 255 220 0
0.037435 0.251650 0.245864 255 220 0
0.076033 0.298537 0.277735 255 220 0
0.038464 0.231343 0.275419 255 220 0
0.106136 0.209056 0.284769 255 220 0
0.062101 0.187191 0.258050 255 220 0
0.044533 0.260083 0.239105 255 220 0
0.108944 0.176459 0.234458 255 220 0
0.081896 0.153251 0.201921 255 220 0
0.078504 0.155360 0.201409 255 220 0
0.100331 0.184885 0.196347 255 220 0
0.097392 0.291781 0.281501 255 220 0
0.087035 0.297337 0.292918 255 220 0
0.067473 0.212737 0.292118 255 220 0
0.107308 0.280835 0.281164 255 220 0
0.078106 0.296817 0.271450 255 220 0
0.107505 0.276290 0.298765 255 220 0
0.040977 0.266827 0.272723 255 220 0
0.111525 0.273275 0.286882 255 220 0
0.107169 0.258633 0.308239 255 220 0
0.061920 0.191544 0.191943 255 220 0
0.071878 0.196677 0.276050 255 220 0
0.099087 0.254576 0.236723 255 220 0
0.091188 0.244553 0.313558 255 220 0
0.067016 0.184119 0.256965 255 220 0
0.112402 0.169152 0.218963 255 220 0
0.087940 0.191980 0.272895 255 220 0
0.050520 0.279841 0.262683 255 220 0
0.096145 0.226784 0.304326 255 220 0
0.061110 0.211107 0.287161 255 220 0
0.101628 0.287223 0.276360 255 220 0
0.113833 0.267174 0.289031 255 220 0
0.035027 0.230447 0.243204 255 220 0
0.096111 0.277894 0.252940 255 220 0
0.078395 0.188079 0.188510 255 220 0
0.110984 0.160696 0.214459 255 220 0
0.086313 0.263579 0.233416 255 220 0
0.085891 0.155498 0.219791 255 220 0
0.049422 0.257575 0.301200 255 220 0
0.110029 0.196048 0.262802 255 220 0
0.116718 0.249919 0.291877 255 220 0
0.084035 0.210964 0.294123 255 220 0
0.035424 0.227814 0.260573 255 220 0
0.035158 0.227370 0.257211 255 220 0
0.090207 0.289006 0.262016 255 220 0
0.112436 0.190843 0.244708 255 220 0
0.062154 0.265769 0.312544 255 220 0
0.091607 0.287152 0.260362 255 220 0
0.108062 0.270318 0.262338 255 220 0
0.117272 0.254335 0.287731 255 220 0
0.072635 0.297668 0.298239 255 220 0
0.038379 0.234374 0.276845 255 220 0
0.048656 0.278073 0.289877 255 220 0
0.111562 0.265574 0.265108 255 220 0
0.096016 0.217349 0.211632 255 220 0
0.082930 0.181935 0.186986 255 220 0
0.083762 0.195983 0.277931 255 220 0
0.111774 0.199133 0.264449 255 220 0
0.046387 0.202212 0.209174 255 220 0
0.108066 0.221585 0.293947 255 220 0
0.050410 0.263339 0.235048 255 220 0
0.087716 0.241030 0.217712 255 220 0
0.112236 0.192858 0.250319 255 220 0
0.066524 0.229635 0.204016 255 220 0
0.045023 0.195688 0.217693 255 220 0
0.036663 0.217116 0.248313 255 220 0
0.058272 0.262039 0.228017 255 220 0
0.103341 0.286164 0.281308 255 220 0
0.035494 0.222899 0.248890 255 220 0
0.080052 0.288900 0.256627 255 220 0
0.108636 0.268580 0.261691 255 220 0
0.036484 0.254558 0.265881 255 220 0
0.037460 0.230683 0.272252 255 220 0
0.061156 0.179798 0.193211 255 220 0
0.102685 0.153551 0.194790 255 220 0
0.113085 0.207921 0.274549 255 220 0
0.077940 0.203463 0.193715 255 220 0
0.096654 0.292226 0.289498 255 220 0
0.115590 0.258348 0.269768 255 220 0
0.080734 0.231253 0.207933 255 220 0
0.040822 0.201436 0.231228 255 220 0
0.097998 0.286049 0.265565 255 220 0
0.036868 0.222566 0.232721 255 220 0
0.095423 0.184727 0.260784 255 220 0
0.059683 0.178319 0.240647 255 220 0
0.106464 0.244472 0.239594 255 220 0
0.098895 0.286161 0.267141 255 220 0
0.038735 0.218694 0.264636 255 220 0
0.098819 0.229265 0.220923 255 220 0
0.109061 0.196824 0.265913 255 220 0
0.108580 0.233015 0.301119 255 220 0
0.088196 0.203100 0.197442 255 220 0
0.052217 0.227486 0.293949 255 220 0
0.112928 0.230526 0.243304 255 220 0
0.111122 0.236679 0.300194 255 220 0
0.107352 0.202241 0.217180 255 220 0
0.037530 0.250103 0.243590 255 220 0
0.084201 0.152807 0.210568 255 220 0
0.058032 0.273717 0.308578 255 220 0
0.062532 0.277932 0.311624 255 220 0
0.087441 0.228397 0.209975 255 220 0
0.113516 0.254325 0.299263 255 220 0
0.084697 0.294923 0.304421 255 220 0
0.043887 0.196640 0.221026 255 220 0
0.118646 0.248324 0.282274 255 220 0
0.075096 0.193767 0.273390 255 220 0
0.045933 0.226609 0.286205 255 220 0
0.055985 0.181294 0.200785 255 220 0
0.061298 0.178170 0.242544 255 220 0
0.111872 0.233978 0.242766 255 220 0
0.088436 0.194316 0.193311 255 220 0
0.059895 0.290533 0.298518 255 220 0
0.073710 0.192480 0.271300 255 220 0
0.037709 0.228133 0.228450 255 220 0
0.056531 0.192319 0.260501 255 220 0
0.114967 0.203962 0.240262 255 220 0
0.071316 0.277228 0.316586 255 220 0
0.060845 0.291230 0.298911 255 220 0
0.039137 0.259044 0.277855 255 220 0
0.076917 0.171319 0.242973 255 220 0
0.079107 0.256152 0.317148 255 220 0
0.116844 0.247983 0.291772 255 220 0
0.076782 0.292598 0.261852 255 220 0
0.102545 0.177493 0.245350 255 220 0
0.061026 0.194001 0.192694 255 220 0
0.115085 0.238280 0.294892 255 220 0
0.037220 0.220865 0.261305 255 220 0
0.052097 0.253732 0.223499 255 220 0
0.108993 0.160588 0.217981 255 220 0
0.070528 0.194218 0.272398 255 220 0
0.114210 0.266259 0.288594 255 220 0
0.067828 0.260414 0.225194 255 220 0
0.104369 0.213086 0.289994 255 220 0
0.084983 0.152008 0.200492 255 220 0
0.110931 0.198598 0.265400 255 220 0
0.090390 0.170039 0.185410 255 220 0
0.055317 0.218900 0.290172 255 220 0
0.041496 0.260044 0.286074 255 220 0
0.117335 0.214666 0.251985 255 220 0
0.034788 0.240162 0.247204 255 220 0
0.074080 0.159597 0.218921 255 220 0
0.108594 0.201998 0.219539 255 220 0
0.078897 0.187505 0.188365 255 220 0
0.107024 0.269999 0.260114 255 220 0
0.110547 0.264347 0.261449 255 220 0
0.082966 0.191860 0.190314 255 220 0
0.057667 0.223605 0.295616 255 220 0
0.047408 0.229288 0.290032 255 220 0
0.112922 0.242877 0.299677 255 220 0
0.059460 0.215404 0.290163 255 220 0
0.117739 0.246803 0.288609 255 220 0
0.110625 0.257960 0.303845 255 220 0
0.083425 0.281723 0.248957 255 220 0
0.067062 0.176819 0.245963 255 220 0
0.106194 0.192091 0.208403 255 220 0
0.056288 0.282894 0.302031 255 220 0
0.093411 0.249118 0.227206 255 220 0
0.075437 0.225595 0.203022 255 220 0
0.041908 0.206021 0.219355 255 220 0
0.110836 0.175849 0.203368 255 220 0
0.112855 0.180480 0.226240 255 220 0
0.110379 0.270241 0.267669 255 220 0
0.043995 0.220413 0.210941 255 220 0
0.108771 0.195473 0.215615 255 220 0
0.079562 0.297499 0.274039 255 220 0
0.103627 0.226929 0.301203 255 220 0
0.083693 0.186920 0.188625 255 220 0
0.035767 0.245456 0.245850 255 220 0
0.047401 0.264385 0.239739 255 220 0
0.113350 0.164385 0.209465 255 220 0
0.110190 0.255403 0.253081 255 220 0
0.042886 0.210050 0.264673 255 220 0
0.068683 0.233049 0.307146 255 220 0
0.099755 0.243490 0.230267 255 220 0
0.059370 0.191391 0.193348 255 220 0
0.111268 0.243951 0.247258 255 220 0
0.093191 0.250004 0.227614 255 220 0
0.073153 0.296120 0.302685 255 220 0
0.088606 0.202625 0.285798 255 220 0
0.104553 0.167890 0.231391 255 220 0
0.114008 0.264168 0.293194 255 220 0
0.102227 0.275107 0.308275 255 220 0
0.046755 0.199862 0.209458 255 220 0
0.096719 0.161165 0.187375 255 220 0
0.097956 0.175151 0.188445 255 220 0
0.106821 0.171966 0.193331 255 220 0
0.073698 0.166972 0.188559 255 220 0
0.051326 0.182818 0.212720 255 220 0
0.082282 0.241927 0.215400 255 220 0
0.117854 0.216705 0.254979 255 220 0
0.049552 0.184263 0.228734 255 220 0
0.072326 0.258995 0.224754 255 220 0
0.105029 0.232649 0.230294 255 220 0
0.110392 0.179197 0.234213 255 220 0
0.105595 0.197461 0.271619 255 220 0
0.102537 0.214747 0.217204 255 220 0
0.072940 0.226336 0.202911 255 220 0
0.102227 0.260023 0.312596 255 220 0
0.118813 0.220503 0.268496 255 220 0
0.060827 0.213566 0.197475 255 220 0
0.036294 0.218325 0.244086 255 220 0
0.102025 0.193558 0.203831 255 220 0
0.102382 0.287148 0.280400 255 220 0
0.088364 0.296781 0.281108 255 220 0
0.057088 0.265750 0.232254 255 220 0
0.101451 0.163721 0.229360 255 220 0
0.062474 0.176183 0.240302 255 220 0
0.091932 0.292410 0.270235 255 220 0
0.111411 0.265853 0.265025 255 220 0
0.109927 0.183139 0.208233 255 220 0
0.109823 0.240202 0.302805 255 220 0
0.080143 0.183053 0.260416 255 220 0
0.080751 0.161449 0.228858 255 220 0
0.083971 0.294443 0.305558 255 220 0
0.094123 0.200033 0.200205 255 220 0
0.113205 0.264527 0.295685 255 220 0
0.037381 0.219540 0.231012 255 220 0
0.100936 0.199380 0.206191 255 220 0
0.055543 0.215930 0.199806 255 220 0
0.108486 0.208777 0.223212 255 220 0
0.059304 0.177700 0.238798 255 220 0
0.108407 0.245026 0.305414 255 220 0
0.062281 0.245001 0.213355 255 220 0
0.092026 0.175649 0.249843 255 220 0
0.036470 0.217780 0.240636 255 220 0
0.052981 0.178810 0.220861 255 220 0
0.113734 0.194718 0.246130 255 220 0
0.105243 0.218973 0.223119 255 220 0
0.058045 0.261705 0.227801 255 220 0
0.034990 0.240333 0.266548 255 220 0
0.056297 0.192041 0.195930 255 220 0
0.116283 0.231017 0.288789 255 220 0
0.093162 0.153815 0.192547 255 220 0
0.117642 0.248164 0.267742 255 220 0
0.118816 0.245979 0.282516 255 220 0
0.118610 0.235628 0.263690 255 220 0
0.095476 0.293126 0.281372 255 220 0
0.071102 0.281579 0.246905 255 220 0
0.087804 0.268077 0.237950 255 220 0
0.047679 0.187359 0.231272 255 220 0
0.078913 0.181983 0.258755 255 220 0
0.101960 0.157668 0.221504 255 220 0
0.077655 0.207935 0.290429 255 220 0
0.046854 0.191168 0.216452 255 220 0
0.044234 0.272228 0.281502 255 220 0
0.069722 0.258469 0.315474 255 220 0
0.053265 0.178525 0.216861 255 220 0
0.076153 0.240102 0.211984 255 220 0
0.113913 0.234810 0.247809 255 220 0
0.040040 0.208491 0.224916 255 220 0
0.060527 0.284276 0.306876 255 220 0
0.119230 0.233709 0.278839 255 220 0
0.080412 0.208737 0.291678 255 220 0
0.100070 0.245434 0.311206 255 220 0
0.113496 0.200881 0.262913 255 220 0
0.056919 0.285726 0.300313 255 220 0
0.082232 0.193060 0.274016 255 220 0
0.053671 0.260166 0.305627 255 220 0
0.100273 0.155428 0.219352 255 220 0
0.118217 0.216380 0.267394 255 220 0
0.057377 0.283101 0.257319 255 220 0
0.088068 0.218594 0.205243 255 220 0
0.113122 0.189904 0.236776 255 220 0
0.115170 0.250571 0.296083 255 220 0
0.104379 0.193441 0.206647 255 220 0
0.052405 0.234255 0.297715 255 220 0
0.092588 0.185067 0.262480 255 220 0
0.093574 0.250673 0.315075 255 220 0
0.076223 0.284433 0.250379 255 220 0
0.089586 0.161888 0.186384 255 220 0
0.112596 0.227616 0.241104 255 220 0
0.079672 0.283628 0.315678 255 220 0
0.098840 0.158915 0.188719 255 220 0
0.037733 0.216358 0.256047 255 220 0
0.118364 0.251090 0.277012 255 220 0
0.041148 0.261954 0.248805 255 220 0
0.086664 0.178471 0.186337 255 220 0
0.094017 0.207391 0.289831 255 220 0
0.115348 0.207788 0.242127 255 220 0
0.116767 0.257078 0.274082 255 220 0
0.081887 0.287032 0.254710 255 220 0
0.105952 0.262710 0.309106 255 220 0
0.065682 0.279703 0.245530 255 220 0
0.065628 0.283960 0.251720 255 220 0
0.094247 0.282959 0.257067 255 220 0
0.082567 0.277363 0.243989 255 220 0
0.070272 0.295417 0.269794 255 220 0
0.094641 0.214253 0.208601 255 220 0
0.085457 0.170309 0.185332 255 220 0
0.098772 0.219427 0.215579 255 220 0
0.103137 0.265677 0.311242 255 220 0
0.106516 0.163180 0.191194 255 220 0
0.037274 0.226530 0.230169 255 220 0
0.070924 0.282948 0.314814 255 220 0
0.099731 0.216979 0.296110 255 220 0
0.114749 0.212030 0.275892 255 220 0
0.059883 0.195431 0.267993 255 220 0
0.113317 0.193533 0.245964 255 220 0
0.108013 0.174920 0.234494 255 220 0
0.104861 0.201366 0.212431 255 220 0
0.061023 0.170716 0.224290 255 220 0
0.100633 0.242665 0.230829 255 220 0
0.089074 0.285896 0.256804 255 220 0
0.104012 0.233211 0.229264 255 220 0
0.045047 0.240648 0.218443 255 220 0
0.110430 0.202609 0.224241 255 220 0
0.100781 0.208336 0.211400 255 220 0
0.073421 0.242908 0.213226 255 220 0
0.069201 0.169323 0.234827 255 220 0
0.058819 0.244578 0.306314 255 220 0
0.116422 0.223752 0.283272 255 220 0
0.101426 0.247528 0.234947 255 220 0
0.047597 0.194267 0.210901 255 220 0
0.049189 0.203116 0.203618 255 220 0
0.092312 0.252006 0.228302 255 220 0
0.087397 0.212387 0.295389 255 220 0
0.044268 0.268607 0.252221 255 220 0
0.038066 0.246129 0.237611 255 220 0
0.038045 0.259859 0.266402 255 220 0
0.087371 0.223187 0.207133 255 220 0
0.112085 0.262709 0.299823 255 220 0
0.088408 0.213492 0.202849 255 220 0
0.063154 0.252687 0.311317 255 220 0
0.119170 0.224009 0.265540 255 220 0
0.034289 0.233451 0.252809 255 220 0
0.048597 0.277447 0.261596 255 220 0
0.062097 0.211731 0.196646 255 220 0
0.039936 0.204679 0.230713 255 220 0
0.104583 0.213068 0.218965 255 220 0
0.089490 0.202410 0.285507 255 220 0
0.112001 0.179692 0.229646 255 220 0
0.097841 0.280125 0.257212 255 220 0
0.072755 0.158911 0.212473 255 220 0
0.101975 0.236709 0.307205 255 220 0
0.114403 0.214896 0.240497 255 220 0
0.071009 0.219900 0.199545 255 220 0
0.081771 0.157566 0.191256 255 220 0
0.077882 0.155285 0.205046 255 220 0
0.071022 0.291179 0.309003 255 220 0
0.071043 0.224632 0.303115 255 220 0
0.052624 0.271757 0.242790 255 220 0
0.114115 0.214497 0.239500 255 220 0
0.101087 0.269637 0.250874 255 220 0
0.101449 0.277926 0.259300 255 220 0
0.119333 0.240149 0.272105 255 220 0
0.104341 0.285023 0.286153 255 220 0
0.107019 0.181342 0.244363 255 220 0
0.078255 0.217298 0.299133 255 220 0
0.035164 0.225963 0.254051 255 220 0
0.099770 0.287278 0.298995 255 220 0
0.043886 0.222742 0.280171 255 220 0
0.113783 0.197761 0.254665 255 220 0
0.089565 0.225473 0.304858 255 220 0
0.064554 0.166056 0.217680 255 220 0
0.099613 0.177212 0.190499 255 220 0
0.115141 0.230226 0.248819 255 220 0
0.035177 0.228637 0.259676 255 220 0
0.083463 0.152373 0.204069 255 220 0
0.040238 0.204394 0.228836 255 220 0
0.101300 0.196673 0.274385 255 220 0
0.059895 0.256541 0.222506 255 220 0
0.038774 0.259897 0.254616 255 220 0
0.088438 0.168000 0.240081 255 220 0
0.060362 0.240143 0.305839 255 220 0
0.060149 0.286576 0.304480 255 220 0
0.037380 0.224679 0.229703 255 220 0
0.055206 0.224017 0.294109 255 220 0
0.098648 0.243291 0.228823 255 220 0
0.111910 0.229080 0.295153 255 220 0
0.101268 0.195649 0.272994 255 220 0
0.036744 0.248781 0.245019 255 220 0
0.068601 0.199061 0.191896 255 220 0
0.064036 0.262623 0.227062 255 220 0
0.062971 0.210815 0.287977 255 220 0
0.040371 0.204661 0.227510 255 220 0
0.053677 0.205369 0.198599 255 220 0
0.100183 0.248835 0.234228 255 220 0
0.051192 0.283706 0.287768 255 220 0
0.066219 0.240617 0.309288 255 220 0
0.036994 0.255640 0.255887 255 220 0
0.039284 0.206186 0.233495 255 220 0
0.034778 0.230890 0.259063 255 220 0
0.076305 0.299503 0.287186 255 220 0
0.094803 0.156387 0.189669 255 220 0
0.063245 0.174602 0.193680 255 220 0
0.082571 0.153729 0.198092 255 220 0
0.101150 0.239021 0.229199 255 220 0
0.119354 0.241542 0.274309 255 220 0
0.116677 0.256277 0.289252 255 220 0
0.073136 0.282856 0.315480 255 220 0
0.087009 0.297631 0.286304 255 220 0
0.106588 0.159071 0.192653 255 220 0
0.065065 0.230025 0.303994 255 220 0
0.059890 0.265643 0.230828 255 220 0
0.047675 0.187350 0.231201 255 220 0
0.108172 0.214388 0.287823 255 220 0
0.078782 0.299234 0.292636 255 220 0
0.081983 0.169754 0.242164 255 220 0
0.039181 0.260370 0.253464 255 220 0
0.113176 0.192736 0.244655 255 220 0
0.043937 0.193752 0.231276 255 220 0
0.092861 0.219495 0.300352 255 220 0
0.043504 0.224135 0.280669 255 220 0
0.070257 0.247845 0.313128 255 220 0
0.047137 0.222102 0.207204 255 220 0
0.112820 0.249099 0.300623 255 220 0
0.115534 0.220407 0.282511 255 220 0
0.072486 0.277587 0.316854 255 220 0
0.116693 0.236513 0.256463 255 220 0
0.096206 0.171176 0.186569 255 220 0
0.036954 0.219018 0.256311 255 220 0
0.114823 0.238342 0.251926 255 220 0
0.048340 0.226120 0.288986 255 220 0
0.078280 0.176350 0.250794 255 220 0
0.119261 0.239767 0.270840 255 220 0
0.045678 0.203126 0.210386 255 220 0
0.109042 0.266222 0.260173 255 220 0
0.109047 0.278054 0.286605 255 220 0
0.096934 0.200532 0.202930 255 220 0
0.066045 0.235240 0.207177 255 220 0
0.066249 0.192199 0.190589 255 220 0
0.112358 0.203584 0.230178 255 220 0
0.041964 0.227039 0.280129 255 220 0
0.053951 0.177495 0.219728 255 220 0
0.079944 0.299355 0.286993 255 220 0
0.113702 0.261134 0.266283 255 220 0
0.075394 0.283186 0.248798 255 220 0
0.080292 0.196887 0.278532 255 220 0
0.035452 0.238526 0.241930 255 220 0
0.093007 0.151458 0.213001 255 220 0
0.112896 0.270531 0.282821 255 220 0
0.081663 0.187440 0.266512 255 220 0
0.116577 0.213789 0.248045 255 220 0
0.037311 0.236528 0.232722 255 220 0
0.112419 0.191484 0.246264 255 220 0
0.097016 0.188325 0.265073 255 220 0
0.117783 0.217902 0.272883 255 220 0
0.087937 0.289184 0.260627 255 220 0
0.047528 0.192539 0.212593 255 220 0
0.105740 0.239773 0.235608 255 220 0
0.059494 0.270456 0.236028 255 220 0
0.106953 0.259741 0.251126 255 220 0
0.100401 0.210029 0.211981 255 220 0
0.102787 0.285216 0.295338 255 220 0
0.101317 0.279544 0.306238 255 220 0
0.110005 0.268766 0.264870 255 220 0
0.081293 0.203535 0.286377 255 220 0
0.113835 0.203167 0.235164 255 220 0
0.110214 0.246213 0.303763 255 220 0
0.067736 0.264392 0.315454 255 220 0
0.064237 0.278074 0.312883 255 220 0
0.110158 0.191796 0.254614 255 220 0
0.098279 0.209032 0.289907 255 220 0
0.045444 0.272590 0.258300 255 220 0
0.114526 0.199488 0.254863 255 220 0
0.047025 0.257166 0.232431 255 220 0
0.046643 0.269499 0.293420 255 220 0
0.034573 0.234388 0.246823 255 220 0
0.094496 0.276364 0.249953 255 220 0
0.057972 0.188246 0.255798 255 220 0
0.061960 0.289432 0.264386 255 220 0
0.045956 0.199069 0.254046 255 220 0
0.070957 0.201732 0.281780 255 220 0
0.034200 0.240284 0.254827 255 220 0
0.119442 0.238146 0.278104 255 220 0
0.039270 0.242488 0.230743 255 220 0
0.069691 0.161354 0.214305 255 220 0
0.102608 0.160539 0.189451 255 220 0
0.040413 0.258620 0.283471 255 220 0
0.107792 0.205806 0.279690 255 220 0
0.115577 0.222154 0.246667 255 220 0
0.105918 0.264691 0.253596 255 220 0
0.106599 0.160506 0.191975 255 220 0
0.039701 0.215815 0.263973 255 220 0
0.103681 0.155575 0.193089 255 220 0
0.050264 0.247943 0.219336 255 220 0
0.066181 0.164244 0.215008 255 220 0
0.060718 0.216288 0.198420 255 220 0
0.112500 0.193199 0.249950 255 220 0
0.108600 0.174984 0.197875 255 220 0
0.109496 0.179980 0.204411 255 220 0
0.064005 0.252132 0.311662 255 220 0
0.100684 0.192560 0.268926 255 220 0
