ply
format ascii 1.0
element vertex 1024
property float x
property float y
property float z
property uchar red
property uchar green
property uchar blue
end_header
0.555009 0.186817 0.222390 255 220 0
0.559487 0.142428 0.191253 255 220 0
0.564900 0.153184 0.178867 255 220 0
0.551867 0.250443 0.237888 255 220 0
0.550558 0.196828 0.159230 255 220 0
0.519900 0.179197 0.163576 255 220 0
0.556884 0.205227 0.227514 255 220 0
0.536763 0.183144 0.227322 255 220 0
0.516963 0.146069 0.172257 255 220 0
0.510395 0.161593 0.218549 255 220 0
0.543047 0.170410 0.160035 255 220 0
0.522462 0.113504 0.206089 255 220 0
0.571681 0.196591 0.211096 255 220 0
0.488519 0.229444 0.210930 255 220 0
0.568462 0.255904 0.221014 255 220 0
0.542259 0.258863 0.170737 255 220 0
0.509477 0.192200 0.169486 255 220 0
0.519305 0.116755 0.210643 255 220 0
0.514692 0.278000 0.191994 255 220 0
0.545198 0.161312 0.217141 255 220 0
0.559840 0.279496 0.211106 255 220 0
0.494623 0.252819 0.221425 255 220 0
0.532306 0.115046 0.202471 255 220 0
0.539611 0.176005 0.158883 255 220 0
0.506188 0.165463 0.177606 255 220 0
0.497578 0.262639 0.203295 255 220 0
0.528387 0.290436 0.221613 255 220 0
0.580308 0.211643 0.194422 255 220 0
0.540905 0.282697 0.189017 255 220 0
0.520156 0.159953 0.166911 255 220 0
0.501600 0.249691 0.182864 255 220 0
0.579330 0.200377 0.198572 255 220 0
0.498764 0.164311 0.202912 255 220 0
0.562375 0.151309 0.176196 255 220 0
0.500753 0.181777 0.181557 255 220 0
0.539442 0.150671 0.216032 255 220 0
0.571707 0.229006 0.218998 255 220 0
0.502227 0.256312 0.230792 255 220 0
0.538409 0.196621 0.231225 255 220 0
0.543650 0.291342 0.205366 255 220 0
0.572564 0.213957 0.173987 255 220 0
0.521231 0.121041 0.182285 255 220 0
0.549918 0.221632 0.234744 255 220 0
0.537002 0.144717 0.215107 255 220 0
0.577718 0.232755 0.192189 255 220 0
0.535087 0.203444 0.157453 255 220 0
0.516882 0.271844 0.184370 255 220 0
0.571530 0.252455 0.194055 255 220 0
0.552557 0.179268 0.161063 255 220 0
0.541835 0.289863 0.198950 255 220 0
0.508913 0.118738 0.197095 255 220 0
0.567052 0.261407 0.220830 255 220 0
0.559571 0.177615 0.216268 255 220 0
0.532055 0.116908 0.206227 255 220 0
0.539357 0.254201 0.241541 255 220 0
0.500668 0.153166 0.193500 255 220 0
0.551835 0.240314 0.237499 255 220 0
0.492149 0.230318 0.222933 255 220 0
0.491052 0.248092 0.211468 255 220 0
0.578813 0.191021 0.195001 255 220 0
0.536105 0.263715 0.172620 255 220 0
0.538089 0.292829 0.214884 255 220 0
0.531966 0.201667 0.157781 255 220 0
0.498941 0.245454 0.230338 255 220 0
0.531785 0.178659 0.226558 255 220 0
0.517992 0.238987 0.165997 255 220 0
0.528743 0.149967 0.218819 255 220 0
0.520220 0.188789 0.162243 255 220 0
0.492786 0.212911 0.221278 255 220 0
0.545590 0.201293 0.230688 255 220 0
0.526748 0.168705 0.162306 255 220 0
0.524890 0.237239 0.163039 255 220 0
0.556973 0.223126 0.163419 255 220 0
0.545301 0.246792 0.165900 255 220 0
0.533702 0.252240 0.166664 255 220 0
0.547074 0.245176 0.239745 255 220 0
0.547588 0.289001 0.216151 255 220 0
0.575335 0.244541 0.197514 255 220 0
0.497386 0.193951 0.220533 255 220 0
0.493988 0.247866 0.223142 255 220 0
0.500162 0.269364 0.206720 255 220 0
0.507100 0.156731 0.178621 255 220 0
0.509062 0.238460 0.171481 255 220 0
0.559728 0.199784 0.163129 255 220 0
0.523989 0.135098 0.172936 255 220 0
0.577533 0.232216 0.190907 255 220 0
0.508754 0.270736 0.190844 255 220 0
0.504966 0.144528 0.210238 255 220 0
0.578807 0.219179 0.188782 255 220 0
0.552285 0.142699 0.204664 255 220 0
0.529566 0.116753 0.185129 255 220 0
0.543036 0.212657 0.158071 255 220 0
0.547510 0.240549 0.164180 255 220 0
0.544225 0.263721 0.174293 255 220 0
0.548805 0.196322 0.228176 255 220 0
0.521779 0.174778 0.225214 255 220 0
0.565402 0.230559 0.226576 255 220 0
0.563250 0.174065 0.167833 255 220 0
0.545303 0.226196 0.237130 255 220 0
0.521080 0.219143 0.237969 255 220 0
0.526883 0.243288 0.242023 255 220 0
0.493501 0.188154 0.197203 255 220 0
0.497521 0.229977 0.181864 255 220 0
0.516800 0.123701 0.182648 255 220 0
0.493398 0.231217 0.188905 255 220 0
0.496942 0.192861 0.219485 255 220 0
0.552793 0.175584 0.219133 255 220 0
0.526079 0.143235 0.217761 255 220 0
0.545399 0.190410 0.227384 255 220 0
0.577915 0.229640 0.190684 255 220 0
0.502805 0.239938 0.177391 255 220 0
0.560472 0.275529 0.219828 255 220 0
0.509577 0.171023 0.172619 255 220 0
0.509600 0.269254 0.231201 255 220 0
0.519758 0.264794 0.238060 255 220 0
0.523427 0.202853 0.233889 255 220 0
0.520956 0.244633 0.241318 255 220 0
0.554925 0.277231 0.225650 255 220 0
0.543549 0.217372 0.158483 255 220 0
0.544641 0.279512 0.187182 255 220 0
0.549753 0.274014 0.232077 255 220 0
0.541816 0.256071 0.169138 255 220 0
0.498449 0.164457 0.195591 255 220 0
0.512968 0.154823 0.218436 255 220 0
0.499043 0.172743 0.187570 255 220 0
0.566112 0.185103 0.213673 255 220 0
0.565808 0.185561 0.167519 255 220 0
0.520721 0.230058 0.162954 255 220 0
0.515242 0.260120 0.177220 255 220 0
0.541235 0.201414 0.157516 255 220 0
0.544295 0.283003 0.190611 255 220 0
0.557673 0.147163 0.201212 255 220 0
0.540642 0.175627 0.158953 255 220 0
0.492323 0.248143 0.219036 255 220 0
0.559584 0.278675 0.202460 255 220 0
0.495886 0.193868 0.186830 255 220 0
0.568784 0.210467 0.169708 255 220 0
0.547781 0.209859 0.232440 255 220 0
0.505273 0.141801 0.186295 255 220 0
0.512179 0.282541 0.202328 255 220 0
0.533384 0.169363 0.223452 255 220 0
0.525890 0.171148 0.162163 255 220 0
0.534658 0.130907 0.212384 255 220 0
0.563656 0.209971 0.223861 255 220 0
0.561394 0.216362 0.227341 255 220 0
0.571115 0.167377 0.195136 255 220 0
0.579416 0.189585 0.187579 255 220 0
0.497738 0.245962 0.186620 255 220 0
0.553822 0.285437 0.211274 255 220 0
0.528124 0.172305 0.161248 255 220 0
0.543453 0.190542 0.228048 255 220 0
0.529977 0.149321 0.166131 255 220 0
0.552688 0.201012 0.159996 255 220 0
0.551139 0.230126 0.162340 255 220 0
0.537062 0.208797 0.157447 255 220 0
0.497469 0.197491 0.183234 255 220 0
0.563195 0.170952 0.168611 255 220 0
0.575246 0.194260 0.175480 255 220 0
0.517817 0.267861 0.180808 255 220 0
0.491060 0.198238 0.209619 255 220 0
0.536759 0.207332 0.234601 255 220 0
0.512567 0.118206 0.208671 255 220 0
0.541257 0.242949 0.163743 255 220 0
0.543431 0.184405 0.158151 255 220 0
0.545422 0.249227 0.240441 255 220 0
0.520147 0.286183 0.197347 255 220 0
0.580213 0.199591 0.194640 255 220 0
0.553001 0.170740 0.162847 255 220 0
0.573379 0.210736 0.213223 255 220 0
0.541622 0.137409 0.170848 255 220 0
0.491041 0.234783 0.195522 255 220 0
0.499378 0.161863 0.192589 255 220 0
0.529372 0.287055 0.226828 255 220 0
0.579000 0.218908 0.189518 255 220 0
0.537924 0.254130 0.167605 255 220 0
0.549416 0.202034 0.158975 255 220 0
0.511350 0.282841 0.215557 255 220 0
0.552124 0.261380 0.236291 255 220 0
0.559549 0.270293 0.190100 255 220 0
0.556167 0.276025 0.192105 255 220 0
0.525985 0.286561 0.226417 255 220 0
0.565289 0.173962 0.169298 255 220 0
0.551227 0.156709 0.165953 255 220 0
0.546562 0.287487 0.198291 255 220 0
0.556841 0.260369 0.179129 255 220 0
0.545698 0.251423 0.167982 255 220 0
0.523151 0.158306 0.165858 255 220 0
0.538049 0.241782 0.163084 255 220 0
0.577724 0.194671 0.179276 255 220 0
0.512129 0.186905 0.227141 255 220 0
0.508684 0.279857 0.204222 255 220 0
0.531635 0.208566 0.157800 255 220 0
0.568555 0.233393 0.174666 255 220 0
0.573110 0.167882 0.186038 255 220 0
0.532778 0.159106 0.220558 255 220 0
0.546630 0.133857 0.205120 255 220 0
0.488771 0.227195 0.201183 255 220 0
0.505154 0.157847 0.180961 255 220 0
0.558697 0.280041 0.203480 255 220 0
0.533349 0.170570 0.223826 255 220 0
0.552421 0.231340 0.235881 255 220 0
0.533076 0.271382 0.237608 255 220 0
0.555315 0.205537 0.228433 255 220 0
0.523784 0.118153 0.211942 255 220 0
0.537665 0.204966 0.157397 255 220 0
0.521452 0.272261 0.235575 255 220 0
0.532157 0.116518 0.205550 255 220 0
0.532407 0.237868 0.241631 255 220 0
0.524544 0.174031 0.162190 255 220 0
0.499607 0.265675 0.221369 255 220 0
0.532655 0.257658 0.241511 255 220 0
0.506448 0.261651 0.232520 255 220 0
0.495481 0.210602 0.184399 255 220 0
0.535090 0.149809 0.165268 255 220 0
0.535009 0.166367 0.222260 255 220 0
0.556707 0.238208 0.234632 255 220 0
0.504980 0.144594 0.210272 255 220 0
0.553706 0.133888 0.192817 255 220 0
0.493365 0.225521 0.224462 255 220 0
0.521065 0.282764 0.192120 255 220 0
0.555774 0.145377 0.202440 255 220 0
0.505021 0.177862 0.220521 255 220 0
0.490380 0.201190 0.199475 255 220 0
0.512267 0.161573 0.219453 255 220 0
0.488820 0.220246 0.212530 255 220 0
0.552791 0.264527 0.179151 255 220 0
0.510119 0.279918 0.200914 255 220 0
0.506253 0.277845 0.206157 255 220 0
0.553273 0.207447 0.229908 255 220 0
0.499931 0.202822 0.178884 255 220 0
0.577830 0.221107 0.207539 255 220 0
0.490865 0.201937 0.196454 255 220 0
0.512244 0.244316 0.238926 255 220 0
0.523382 0.156866 0.166106 255 220 0
0.545017 0.197278 0.229674 255 220 0
0.544509 0.270663 0.236215 255 220 0
0.574339 0.174731 0.194396 255 220 0
0.521996 0.290925 0.207857 255 220 0
0.507442 0.243916 0.174472 255 220 0
0.518006 0.264389 0.237630 255 220 0
0.545191 0.180734 0.158767 255 220 0
0.538457 0.233957 0.240354 255 220 0
0.513010 0.277758 0.193514 255 220 0
0.540831 0.269543 0.177326 255 220 0
0.572611 0.211958 0.173688 255 220 0
0.560949 0.171185 0.212424 255 220 0
0.569819 0.184220 0.208879 255 220 0
0.512414 0.156045 0.173147 255 220 0
0.553796 0.275735 0.228011 255 220 0
0.500878 0.264205 0.225170 255 220 0
0.500543 0.270963 0.212670 255 220 0
0.531296 0.195119 0.158124 255 220 0
0.534521 0.274117 0.180127 255 220 0
0.552493 0.231720 0.235916 255 220 0
0.517659 0.122777 0.214134 255 220 0
0.568508 0.235885 0.223673 255 220 0
0.493618 0.255198 0.207450 255 220 0
0.535088 0.194174 0.231053 255 220 0
0.560054 0.195693 0.163323 255 220 0
0.547339 0.132359 0.203374 255 220 0
0.548507 0.232488 0.162056 255 220 0
0.547592 0.178206 0.222284 255 220 0
0.571600 0.181788 0.172880 255 220 0
0.506928 0.278088 0.204521 255 220 0
0.491738 0.204411 0.216305 255 220 0
0.559757 0.255503 0.178190 255 220 0
0.564698 0.272295 0.207363 255 220 0
0.496272 0.194417 0.185961 255 220 0
0.532285 0.196258 0.157911 255 220 0
0.570596 0.258778 0.206540 255 220 0
0.579797 0.192617 0.186807 255 220 0
0.512199 0.273526 0.230254 255 220 0
0.565471 0.222108 0.168581 255 220 0
0.537567 0.181320 0.158275 255 220 0
0.506706 0.273540 0.197144 255 220 0
0.552079 0.163641 0.164246 255 220 0
0.500915 0.151705 0.202637 255 220 0
0.566752 0.168871 0.204867 255 220 0
0.525298 0.160205 0.221466 255 220 0
0.514915 0.234060 0.166473 255 220 0
0.521208 0.131564 0.175650 255 220 0
0.536430 0.152897 0.217844 255 220 0
0.504965 0.163570 0.179699 255 220 0
0.575600 0.229063 0.183559 255 220 0
0.572311 0.234412 0.218242 255 220 0
0.539889 0.266759 0.175080 255 220 0
0.529809 0.245746 0.242228 255 220 0
0.533172 0.186220 0.158313 255 220 0
0.559690 0.197951 0.163096 255 220 0
0.529023 0.267341 0.175718 255 220 0
0.533208 0.216369 0.237479 255 220 0
0.570554 0.210839 0.171349 255 220 0
0.525192 0.169176 0.223799 255 220 0
0.498555 0.193720 0.221664 255 220 0
0.530951 0.185208 0.228688 255 220 0
0.576853 0.181887 0.193823 255 220 0
0.504089 0.254929 0.183026 255 220 0
0.579559 0.190322 0.189228 255 220 0
0.541756 0.229367 0.238774 255 220 0
0.538488 0.243443 0.163651 255 220 0
0.499993 0.242094 0.181444 255 220 0
0.522951 0.238773 0.163983 255 220 0
0.496984 0.236348 0.229297 255 220 0
0.539865 0.261289 0.171584 255 220 0
0.576936 0.178811 0.186288 255 220 0
0.503138 0.182443 0.220944 255 220 0
0.575126 0.240632 0.210691 255 220 0
0.570949 0.246787 0.218897 255 220 0
0.503459 0.203250 0.228586 255 220 0
0.514237 0.276617 0.229213 255 220 0
0.491086 0.231347 0.194144 255 220 0
0.516638 0.154338 0.219473 255 220 0
0.550518 0.141380 0.205621 255 220 0
0.524462 0.272210 0.180734 255 220 0
0.520934 0.220645 0.161571 255 220 0
0.558101 0.138795 0.186822 255 220 0
0.565890 0.264070 0.221312 255 220 0
0.516750 0.232739 0.165227 255 220 0
0.496385 0.262708 0.210525 255 220 0
0.509555 0.176548 0.222706 255 220 0
0.512979 0.116400 0.206505 255 220 0
0.495132 0.218628 0.184638 255 220 0
0.519060 0.113115 0.195985 255 220 0
0.531379 0.151086 0.218631 255 220 0
0.565137 0.250488 0.227364 255 220 0
0.497083 0.194912 0.184409 255 220 0
0.575679 0.207205 0.208631 255 220 0
0.580513 0.203620 0.194414 255 220 0
0.551430 0.131210 0.194298 255 220 0
0.530622 0.143448 0.216891 255 220 0
0.579461 0.193025 0.193901 255 220 0
0.572677 0.229161 0.217622 255 220 0
0.538423 0.291364 0.219614 255 220 0
0.518017 0.112837 0.200795 255 220 0
0.530320 0.251502 0.242102 255 220 0
0.504663 0.144303 0.209727 255 220 0
0.510238 0.251861 0.175826 255 220 0
0.488462 0.223387 0.202302 255 220 0
0.539126 0.240385 0.162695 255 220 0
0.503099 0.179778 0.219764 255 220 0
0.512194 0.129044 0.213909 255 220 0
0.492817 0.189271 0.201094 255 220 0
0.503104 0.158020 0.184279 255 220 0
0.567107 0.185430 0.212722 255 220 0
0.545475 0.252585 0.240362 255 220 0
0.549475 0.228172 0.236308 255 220 0
0.492137 0.196169 0.212067 255 220 0
0.577175 0.228077 0.209144 255 220 0
0.538545 0.249396 0.241857 255 220 0
0.498982 0.160961 0.199371 255 220 0
0.556371 0.190945 0.161606 255 220 0
0.552974 0.222295 0.233798 255 220 0
0.580182 0.197553 0.193501 255 220 0
0.502732 0.216556 0.231506 255 220 0
0.572357 0.215008 0.173944 255 220 0
0.489986 0.223755 0.195546 255 220 0
0.548103 0.173545 0.220351 255 220 0
0.567460 0.262406 0.218900 255 220 0
0.551732 0.264407 0.178387 255 220 0
0.502959 0.193948 0.225290 255 220 0
0.541701 0.147035 0.213737 255 220 0
0.547794 0.125745 0.183273 255 220 0
0.569669 0.197028 0.169837 255 220 0
0.527026 0.264401 0.174368 255 220 0
0.506107 0.234346 0.172917 255 220 0
0.490554 0.224569 0.194029 255 220 0
0.579743 0.209359 0.186748 255 220 0
0.489795 0.224064 0.217009 255 220 0
0.510278 0.126237 0.186727 255 220 0
0.556443 0.224433 0.163381 255 220 0
0.489336 0.214790 0.213362 255 220 0
0.563537 0.271100 0.219179 255 220 0
0.550705 0.157377 0.213015 255 220 0
0.537454 0.287702 0.193854 255 220 0
0.579264 0.211678 0.186074 255 220 0
0.509484 0.225874 0.168809 255 220 0
0.525057 0.253116 0.168598 255 220 0
0.525717 0.289524 0.198277 255 220 0
0.503301 0.274973 0.213996 255 220 0
0.546663 0.160458 0.163123 255 220 0
0.538005 0.160075 0.162153 255 220 0
0.491173 0.216350 0.192057 255 220 0
0.510101 0.217510 0.235097 255 220 0
0.533699 0.155705 0.219411 255 220 0
0.547977 0.210738 0.158955 255 220 0
0.565749 0.174823 0.209551 255 220 0
0.508990 0.280219 0.217478 255 220 0
0.518557 0.118616 0.212124 255 220 0
0.489157 0.212430 0.211505 255 220 0
0.530928 0.157350 0.163668 255 220 0
0.560729 0.185096 0.218378 255 220 0
0.519049 0.231997 0.163993 255 220 0
0.528994 0.228535 0.160191 255 220 0
0.537691 0.196368 0.157422 255 220 0
0.552147 0.284890 0.218618 255 220 0
0.502496 0.246255 0.233304 255 220 0
0.518712 0.128474 0.178512 255 220 0
0.576830 0.230338 0.187321 255 220 0
0.548324 0.217219 0.159500 255 220 0
0.534358 0.268161 0.175535 255 220 0
0.512229 0.147328 0.216917 255 220 0
0.507402 0.149389 0.214002 255 220 0
0.497935 0.220729 0.180530 255 220 0
0.559825 0.263205 0.184007 255 220 0
0.490734 0.246878 0.211992 255 220 0
0.575732 0.242506 0.195288 255 220 0
0.567965 0.222594 0.170812 255 220 0
0.533181 0.152036 0.218495 255 220 0
0.562603 0.273160 0.199419 255 220 0
0.543382 0.137702 0.171084 255 220 0
0.549592 0.169879 0.161680 255 220 0
0.524144 0.138436 0.171471 255 220 0
0.569003 0.239387 0.177990 255 220 0
0.507162 0.240874 0.236662 255 220 0
0.567011 0.224634 0.223986 255 220 0
0.552473 0.286082 0.214240 255 220 0
0.497498 0.248255 0.188514 255 220 0
0.556002 0.221448 0.232161 255 220 0
0.491134 0.196306 0.206860 255 220 0
0.510059 0.181729 0.170330 255 220 0
0.525049 0.270171 0.179009 255 220 0
0.528755 0.163035 0.222095 255 220 0
0.489392 0.222118 0.215387 255 220 0
0.548178 0.250439 0.168379 255 220 0
0.580112 0.214114 0.194282 255 220 0
0.553632 0.132119 0.187016 255 220 0
0.489807 0.240119 0.215276 255 220 0
0.508202 0.160232 0.176425 255 220 0
0.552561 0.167778 0.163371 255 220 0
0.558789 0.226927 0.165056 255 220 0
0.552081 0.273846 0.186171 255 220 0
0.562379 0.238640 0.171092 255 220 0
0.497508 0.176101 0.209088 255 220 0
0.549397 0.286578 0.219394 255 220 0
0.526743 0.137781 0.170978 255 220 0
0.559385 0.152264 0.202992 255 220 0
0.512383 0.265896 0.182935 255 220 0
0.522162 0.113522 0.192723 255 220 0
0.564201 0.272973 0.212301 255 220 0
0.553866 0.142663 0.202801 255 220 0
0.561232 0.215893 0.227356 255 220 0
0.514735 0.126837 0.182138 255 220 0
0.504480 0.266322 0.228372 255 220 0
0.533791 0.293726 0.208687 255 220 0
0.522530 0.155021 0.166923 255 220 0
0.551128 0.129670 0.191658 255 220 0
0.543890 0.185143 0.226105 255 220 0
0.574516 0.175863 0.195090 255 220 0
0.568572 0.245234 0.180947 255 220 0
0.498737 0.210467 0.227318 255 220 0
0.507348 0.141628 0.183003 255 220 0
0.502541 0.247955 0.233092 255 220 0
0.505289 0.264499 0.189344 255 220 0
0.538221 0.192551 0.157490 255 220 0
0.503049 0.150274 0.208275 255 220 0
0.525748 0.191485 0.230651 255 220 0
0.569058 0.261677 0.201370 255 220 0
0.537196 0.185318 0.227946 255 220 0
0.540100 0.118808 0.186133 255 220 0
0.553638 0.216929 0.232263 255 220 0
0.574180 0.218883 0.177287 255 220 0
0.545556 0.141891 0.209683 255 220 0
0.542009 0.260036 0.171343 255 220 0
0.560657 0.158241 0.205679 255 220 0
0.490507 0.232499 0.219472 255 220 0
0.491781 0.236431 0.222186 255 220 0
0.555582 0.243283 0.235749 255 220 0
0.567325 0.233843 0.224944 255 220 0
0.578209 0.188499 0.181728 255 220 0
0.502966 0.193490 0.225132 255 220 0
0.555739 0.137046 0.179167 255 220 0
0.521572 0.271442 0.181442 255 220 0
0.515740 0.280384 0.226656 255 220 0
0.506019 0.170874 0.218465 255 220 0
0.564833 0.165541 0.205320 255 220 0
0.561374 0.196003 0.164066 255 220 0
0.530283 0.236202 0.161729 255 220 0
0.535213 0.115914 0.199979 255 220 0
0.529095 0.113244 0.201320 255 220 0
0.527343 0.257965 0.241156 255 220 0
0.506902 0.178846 0.174063 255 220 0
0.567909 0.247086 0.224117 255 220 0
0.507356 0.147300 0.213596 255 220 0
0.556871 0.213377 0.162256 255 220 0
0.534852 0.253315 0.167094 255 220 0
0.569070 0.262827 0.207835 255 220 0
0.522831 0.148278 0.168598 255 220 0
0.515809 0.207974 0.234292 255 220 0
0.515404 0.207219 0.163820 255 220 0
0.523560 0.148292 0.168310 255 220 0
0.570974 0.182871 0.206650 255 220 0
0.546590 0.167351 0.218686 255 220 0
0.558425 0.153830 0.205315 255 220 0
0.573863 0.175529 0.196539 255 220 0
0.577445 0.180734 0.186000 255 220 0
0.542054 0.286161 0.225798 255 220 0
0.578057 0.217747 0.185201 255 220 0
0.547118 0.284315 0.193806 255 220 0
0.528800 0.231919 0.240896 255 220 0
0.544030 0.127032 0.203517 255 220 0
0.539925 0.210655 0.157621 255 220 0
0.579885 0.199419 0.196153 255 220 0
0.528958 0.149090 0.218584 255 220 0
0.501029 0.204187 0.177277 255 220 0
0.530128 0.271941 0.178796 255 220 0
0.539226 0.239773 0.241077 255 220 0
0.536300 0.203322 0.157403 255 220 0
0.497553 0.186892 0.217122 255 220 0
0.578130 0.203001 0.202612 255 220 0
0.492512 0.195781 0.212950 255 220 0
0.528237 0.225330 0.159794 255 220 0
0.572604 0.166894 0.184073 255 220 0
0.562476 0.274209 0.201205 255 220 0
0.557434 0.259596 0.179054 255 220 0
0.510238 0.207177 0.167508 255 220 0
0.514113 0.149420 0.173383 255 220 0
0.506216 0.139284 0.210975 255 220 0
0.513847 0.284935 0.205194 255 220 0
0.569757 0.213866 0.170963 255 220 0
0.540149 0.216210 0.157958 255 220 0
0.523994 0.126511 0.177504 255 220 0
0.575128 0.245694 0.203217 255 220 0
0.507139 0.121144 0.197518 255 220 0
0.521203 0.160966 0.221467 255 220 0
0.488223 0.225299 0.207094 255 220 0
0.575436 0.231542 0.212772 255 220 0
0.553364 0.167445 0.215635 255 220 0
0.507244 0.183870 0.172847 255 220 0
0.513123 0.224029 0.237373 255 220 0
0.521007 0.280983 0.229660 255 220 0
0.555350 0.224629 0.233186 255 220 0
0.502279 0.160638 0.210359 255 220 0
0.508660 0.172639 0.220866 255 220 0
0.509204 0.227265 0.169197 255 220 0
0.530346 0.128860 0.213953 255 220 0
0.541602 0.143867 0.167773 255 220 0
0.558877 0.197571 0.162665 255 220 0
0.520912 0.201902 0.161055 255 220 0
0.563606 0.270252 0.220109 255 220 0
0.563566 0.247265 0.176497 255 220 0
0.501081 0.269862 0.204227 255 220 0
0.508926 0.265633 0.185904 255 220 0
0.570716 0.226947 0.174867 255 220 0
0.559277 0.275740 0.221690 255 220 0
0.538442 0.233596 0.160686 255 220 0
0.488609 0.214110 0.208650 255 220 0
0.513666 0.187101 0.166534 255 220 0
0.577010 0.226888 0.186161 255 220 0
0.502188 0.155653 0.208311 255 220 0
0.522730 0.120933 0.181827 255 220 0
0.525837 0.122563 0.179853 255 220 0
0.536695 0.135955 0.212664 255 220 0
0.543162 0.270358 0.236768 255 220 0
0.543381 0.283884 0.227522 255 220 0
0.503226 0.227937 0.174628 255 220 0
0.532516 0.260990 0.240912 255 220 0
0.561574 0.269792 0.224158 255 220 0
0.517900 0.270232 0.235303 255 220 0
0.559893 0.255822 0.178534 255 220 0
0.522337 0.259133 0.240159 255 220 0
0.501331 0.264765 0.225444 255 220 0
0.560866 0.143512 0.182701 255 220 0
0.502677 0.204810 0.175206 255 220 0
0.550816 0.212795 0.232285 255 220 0
0.496706 0.261306 0.204264 255 220 0
0.510386 0.183437 0.169787 255 220 0
0.506801 0.139129 0.211645 255 220 0
0.494819 0.196804 0.188019 255 220 0
0.569978 0.256228 0.194638 255 220 0
0.490298 0.241732 0.203105 255 220 0
0.508481 0.224319 0.169430 255 220 0
0.542052 0.262912 0.239682 255 220 0
0.516278 0.256068 0.239129 255 220 0
0.561186 0.210797 0.164341 255 220 0
0.554869 0.240818 0.236008 255 220 0
0.553730 0.136097 0.196459 255 220 0
0.505529 0.130331 0.207799 255 220 0
0.564068 0.218700 0.225603 255 220 0
0.510197 0.134459 0.182377 255 220 0
0.531474 0.268180 0.175793 255 220 0
0.494053 0.189012 0.211365 255 220 0
0.502962 0.245695 0.233722 255 220 0
0.493376 0.225512 0.187989 255 220 0
0.547756 0.221165 0.159769 255 220 0
0.549883 0.218528 0.160083 255 220 0
0.557912 0.255830 0.233545 255 220 0
0.502122 0.172273 0.215235 255 220 0
0.522885 0.279835 0.187971 255 220 0
0.557311 0.253162 0.234351 255 220 0
0.538715 0.240324 0.241238 255 220 0
0.508092 0.245735 0.236990 255 220 0
0.546475 0.290138 0.213844 255 220 0
0.539292 0.236709 0.161584 255 220 0
0.551449 0.274481 0.186294 255 220 0
0.532494 0.238447 0.241694 255 220 0
0.547331 0.169854 0.219293 255 220 0
0.549119 0.130060 0.198173 255 220 0
0.495648 0.203782 0.184942 255 220 0
0.493961 0.192030 0.213846 255 220 0
0.562489 0.165489 0.169802 255 220 0
0.488883 0.228937 0.213649 255 220 0
0.579003 0.225349 0.193595 255 220 0
0.560829 0.191818 0.220712 255 220 0
0.499608 0.177655 0.214685 255 220 0
0.572942 0.177626 0.200257 255 220 0
0.553541 0.167204 0.163970 255 220 0
0.549203 0.204929 0.159006 255 220 0
0.579440 0.218252 0.201493 255 220 0
0.537324 0.265401 0.239655 255 220 0
0.552725 0.209517 0.160305 255 220 0
0.566058 0.253558 0.225757 255 220 0
0.537875 0.238576 0.241147 255 220 0
0.559350 0.243225 0.170881 255 220 0
0.540643 0.231064 0.160217 255 220 0
0.553481 0.136408 0.176769 255 220 0
0.518348 0.112830 0.201784 255 220 0
0.491705 0.205021 0.216513 255 220 0
0.559429 0.150471 0.201444 255 220 0
0.538363 0.276421 0.234556 255 220 0
0.523309 0.236104 0.241148 255 220 0
0.564846 0.179265 0.212572 255 220 0
0.549673 0.181386 0.159752 255 220 0
0.550279 0.255061 0.238360 255 220 0
0.562812 0.197666 0.164913 255 220 0
0.495369 0.182068 0.194171 255 220 0
0.521298 0.169076 0.164458 255 220 0
0.539644 0.206672 0.233854 255 220 0
0.548877 0.256108 0.238850 255 220 0
0.538188 0.217205 0.157921 255 220 0
0.546777 0.184200 0.224775 255 220 0
0.492846 0.191895 0.210162 255 220 0
0.490505 0.241815 0.217377 255 220 0
0.552083 0.151231 0.209487 255 220 0
0.517496 0.241829 0.167076 255 220 0
0.526069 0.198630 0.232806 255 220 0
0.492128 0.243293 0.221368 255 220 0
0.529642 0.161536 0.221631 255 220 0
0.571301 0.224259 0.174793 255 220 0
0.515601 0.126361 0.181770 255 220 0
0.532067 0.283181 0.188589 255 220 0
0.530452 0.287532 0.193664 255 220 0
0.558777 0.177673 0.216807 255 220 0
0.502003 0.254455 0.231159 255 220 0
0.535267 0.290698 0.221925 255 220 0
0.552364 0.170392 0.162646 255 220 0
0.507634 0.237515 0.236843 255 220 0
0.501317 0.200415 0.177382 255 220 0
0.525035 0.236752 0.162878 255 220 0
0.551579 0.143600 0.171202 255 220 0
0.519203 0.170056 0.165399 255 220 0
0.528928 0.200803 0.233459 255 220 0
0.549619 0.142209 0.206877 255 220 0
0.547851 0.287413 0.199562 255 220 0
0.502598 0.198270 0.176076 255 220 0
0.568571 0.198368 0.168948 255 220 0
0.517524 0.193252 0.163277 255 220 0
0.511656 0.177804 0.223997 255 220 0
0.522738 0.289160 0.199997 255 220 0
0.547566 0.288022 0.200606 255 220 0
0.552708 0.254352 0.172492 255 220 0
0.507868 0.163160 0.176124 255 220 0
0.506515 0.273761 0.197782 255 220 0
0.501843 0.244263 0.233035 255 220 0
0.566173 0.260316 0.223308 255 220 0
0.498333 0.165059 0.200741 255 220 0
0.562199 0.145880 0.182793 255 220 0
0.494854 0.240034 0.226690 255 220 0
0.542387 0.216595 0.158240 255 220 0
0.580408 0.210298 0.193532 255 220 0
0.503988 0.133055 0.205232 255 220 0
0.504308 0.200747 0.173777 255 220 0
0.515867 0.255067 0.239168 255 220 0
0.576088 0.213630 0.209819 255 220 0
0.488241 0.220859 0.207662 255 220 0
0.521575 0.118578 0.184326 255 220 0
0.493387 0.192464 0.212669 255 220 0
0.539859 0.119549 0.200028 255 220 0
0.513621 0.232742 0.166985 255 220 0
0.546688 0.260468 0.173189 255 220 0
0.508950 0.193097 0.228051 255 220 0
0.564282 0.220370 0.167376 255 220 0
0.518503 0.138541 0.173927 255 220 0
0.527350 0.162836 0.222104 255 220 0
0.553266 0.135518 0.196690 255 220 0
0.540496 0.238699 0.240678 255 220 0
0.534700 0.235179 0.241084 255 220 0
0.552668 0.139261 0.201685 255 220 0
0.511645 0.239462 0.169853 255 220 0
0.523358 0.241070 0.164472 255 220 0
0.495292 0.246928 0.225691 255 220 0
0.509715 0.229666 0.169145 255 220 0
0.502882 0.241075 0.234014 255 220 0
0.502343 0.260655 0.229157 255 220 0
0.565510 0.242656 0.227357 255 220 0
0.513511 0.170625 0.169142 255 220 0
0.530142 0.148514 0.218231 255 220 0
0.542637 0.285181 0.192383 255 220 0
0.556596 0.203205 0.227067 255 220 0
0.567232 0.172727 0.206594 255 220 0
0.559872 0.176008 0.165252 255 220 0
0.521940 0.133005 0.216525 255 220 0
0.508320 0.152018 0.215254 255 220 0
0.534032 0.243666 0.242073 255 220 0
0.573026 0.179692 0.175032 255 220 0
0.526097 0.155531 0.220351 255 220 0
0.559571 0.271860 0.225160 255 220 0
0.489118 0.238449 0.210426 255 220 0
0.550588 0.134541 0.200598 255 220 0
0.567852 0.222919 0.170778 255 220 0
0.577808 0.229856 0.190367 255 220 0
0.509988 0.128985 0.212537 255 220 0
0.535269 0.223152 0.238810 255 220 0
0.531234 0.210602 0.157894 255 220 0
0.504435 0.252384 0.181014 255 220 0
0.548380 0.200474 0.229585 255 220 0
0.560977 0.144800 0.180087 255 220 0
0.532008 0.210960 0.236175 255 220 0
0.556938 0.204140 0.227160 255 220 0
0.542338 0.292122 0.212669 255 220 0
0.492049 0.213156 0.190293 255 220 0
0.501220 0.148261 0.201490 255 220 0
0.511633 0.256899 0.237096 255 220 0
0.513174 0.276955 0.228080 255 220 0
0.560756 0.164007 0.169066 255 220 0
0.530490 0.113804 0.201395 255 220 0
0.537396 0.124030 0.208180 255 220 0
0.528244 0.123876 0.213549 255 220 0
0.543461 0.122284 0.183370 255 220 0
0.546524 0.153806 0.165140 255 220 0
0.565361 0.191665 0.216824 255 220 0
0.507890 0.196536 0.228716 255 220 0
0.537372 0.166380 0.160687 255 220 0
0.573528 0.211628 0.213266 255 220 0
0.539642 0.192168 0.229615 255 220 0
0.503303 0.157144 0.210799 255 220 0
0.490933 0.196907 0.206137 255 220 0
0.539114 0.170956 0.222700 255 220 0
0.568866 0.173554 0.204738 255 220 0
0.501433 0.269578 0.220736 255 220 0
0.500567 0.208543 0.228208 255 220 0
0.570515 0.162806 0.189869 255 220 0
0.552927 0.202841 0.160120 255 220 0
0.535961 0.146960 0.216192 255 220 0
0.538945 0.265592 0.239428 255 220 0
0.550420 0.274961 0.231041 255 220 0
0.579289 0.223991 0.201098 255 220 0
0.501548 0.144436 0.197441 255 220 0
0.519022 0.166916 0.166080 255 220 0
0.553585 0.263708 0.234704 255 220 0
0.532782 0.238605 0.241699 255 220 0
0.523336 0.141618 0.217752 255 220 0
0.493014 0.247775 0.221149 255 220 0
0.501521 0.183063 0.180115 255 220 0
0.509882 0.145778 0.178398 255 220 0
0.534546 0.291283 0.220834 255 220 0
0.545755 0.150125 0.212789 255 220 0
0.510526 0.259030 0.235997 255 220 0
0.561963 0.194288 0.164455 255 220 0
0.538268 0.152821 0.217187 255 220 0
0.572708 0.166918 0.185718 255 220 0
0.528889 0.170129 0.224079 255 220 0
0.522352 0.167404 0.164268 255 220 0
0.494716 0.253172 0.221379 255 220 0
0.577549 0.195502 0.201000 255 220 0
0.498964 0.168614 0.189732 255 220 0
0.554855 0.200003 0.160800 255 220 0
0.537943 0.156517 0.163111 255 220 0
0.502846 0.175749 0.217708 255 220 0
0.536380 0.177622 0.225574 255 220 0
0.579493 0.217904 0.201199 255 220 0
0.551249 0.234100 0.163388 255 220 0
0.561002 0.147555 0.177097 255 220 0
0.494179 0.230521 0.225999 255 220 0
0.524304 0.112933 0.194020 255 220 0
0.517791 0.227313 0.239076 255 220 0
0.506022 0.236038 0.235945 255 220 0
0.512751 0.215639 0.235497 255 220 0
0.544899 0.271499 0.235683 255 220 0
0.572361 0.243054 0.216917 255 220 0
0.562973 0.224770 0.227828 255 220 0
0.538316 0.170605 0.159797 255 220 0
0.502569 0.181347 0.178944 255 220 0
0.503072 0.134632 0.197042 255 220 0
0.496968 0.221821 0.181908 255 220 0
0.550909 0.162915 0.163934 255 220 0
0.555667 0.265232 0.181763 255 220 0
0.513228 0.275662 0.190884 255 220 0
0.540346 0.153455 0.164116 255 220 0
0.569358 0.188960 0.211412 255 220 0
0.525095 0.204614 0.234502 255 220 0
0.558409 0.181932 0.163440 255 220 0
0.538270 0.288885 0.195632 255 220 0
0.501135 0.224899 0.231910 255 220 0
0.495353 0.222820 0.184396 255 220 0
0.494806 0.258855 0.212958 255 220 0
0.495245 0.191883 0.216437 255 220 0
0.545168 0.285827 0.194515 255 220 0
0.497267 0.199242 0.183215 255 220 0
0.528091 0.272423 0.179657 255 220 0
0.503972 0.131832 0.195081 255 220 0
0.499166 0.205011 0.226177 255 220 0
0.572414 0.253616 0.203221 255 220 0
0.555948 0.167462 0.214237 255 220 0
0.506611 0.165921 0.217177 255 220 0
0.501205 0.249356 0.231717 255 220 0
0.532934 0.148494 0.217594 255 220 0
0.518833 0.249134 0.169287 255 220 0
0.495701 0.183946 0.191453 255 220 0
0.498190 0.266229 0.208624 255 220 0
0.569381 0.246668 0.221866 255 220 0
0.534795 0.114730 0.195651 255 220 0
0.525999 0.195120 0.231762 255 220 0
0.523331 0.291624 0.210253 255 220 0
0.527312 0.112862 0.202010 255 220 0
0.543063 0.209691 0.157931 255 220 0
0.512928 0.235760 0.238921 255 220 0
0.573090 0.235557 0.181856 255 220 0
0.545847 0.126619 0.200127 255 220 0
0.489682 0.218441 0.196185 255 220 0
0.512466 0.181704 0.225546 255 220 0
0.519127 0.238084 0.240699 255 220 0
0.565431 0.250626 0.226997 255 220 0
0.503681 0.268385 0.225913 255 220 0
0.574632 0.241642 0.211660 255 220 0
0.572974 0.248959 0.212061 255 220 0
0.555890 0.247523 0.235614 255 220 0
0.566695 0.236274 0.225842 255 220 0
0.565400 0.268893 0.217043 255 220 0
0.548182 0.165793 0.217437 255 220 0
0.542292 0.120459 0.195825 255 220 0
0.544645 0.173639 0.221732 255 220 0
0.505245 0.272387 0.224230 255 220 0
0.524681 0.116344 0.210022 255 220 0
0.566670 0.198542 0.167509 255 220 0
0.527457 0.291924 0.202466 255 220 0
0.488485 0.228595 0.203898 255 220 0
0.492454 0.208545 0.219424 255 220 0
0.512783 0.200159 0.165902 255 220 0
0.502452 0.174879 0.216875 255 220 0
0.501683 0.154762 0.206833 255 220 0
0.533455 0.157975 0.220112 255 220 0
0.527272 0.152074 0.165994 255 220 0
0.547123 0.200161 0.229883 255 220 0
0.560116 0.250183 0.232372 255 220 0
0.541124 0.191990 0.229185 255 220 0
0.579337 0.198802 0.182896 255 220 0
0.523710 0.166285 0.222946 255 220 0
0.540066 0.162709 0.219709 255 220 0
0.571393 0.192207 0.209930 255 220 0
0.515668 0.157252 0.170281 255 220 0
0.516187 0.261321 0.177418 255 220 0
0.493584 0.221588 0.224249 255 220 0
0.546835 0.206302 0.231740 255 220 0
0.556131 0.161025 0.167117 255 220 0
0.565502 0.161753 0.173864 255 220 0
0.558042 0.206148 0.227086 255 220 0
0.491840 0.226859 0.191270 255 220 0
0.573275 0.242072 0.186672 255 220 0
0.572765 0.217210 0.174888 255 220 0
0.561398 0.247010 0.174387 255 220 0
0.557676 0.172079 0.215159 255 220 0
0.507176 0.260870 0.233336 255 220 0
0.554423 0.162193 0.212896 255 220 0
0.515606 0.269770 0.183571 255 220 0
0.504452 0.208825 0.230657 255 220 0
0.556801 0.219763 0.162863 255 220 0
0.570177 0.254111 0.192171 255 220 0
0.569428 0.160753 0.190388 255 220 0
0.552317 0.183404 0.160462 255 220 0
0.536022 0.170715 0.223399 255 220 0
0.491721 0.212664 0.191041 255 220 0
0.505947 0.154011 0.213423 255 220 0
0.552514 0.245099 0.237538 255 220 0
0.523046 0.133729 0.173885 255 220 0
0.491539 0.249702 0.211807 255 220 0
0.518150 0.185616 0.228088 255 220 0
0.568239 0.167037 0.201048 255 220 0
0.532501 0.116412 0.185884 255 220 0
0.523621 0.125176 0.178478 255 220 0
0.536147 0.293500 0.207317 255 220 0
0.501164 0.243351 0.180401 255 220 0
0.577712 0.236279 0.197416 255 220 0
0.518719 0.184683 0.227883 255 220 0
0.549188 0.232868 0.237331 255 220 0
0.548194 0.244483 0.239318 255 220 0
0.509397 0.224584 0.236207 255 220 0
0.532940 0.267871 0.238989 255 220 0
0.499235 0.166318 0.206522 255 220 0
0.496309 0.234336 0.184500 255 220 0
0.551187 0.215327 0.160184 255 220 0
0.527661 0.279209 0.233115 255 220 0
0.527762 0.230147 0.160761 255 220 0
0.498851 0.183864 0.217172 255 220 0
0.492136 0.242239 0.196651 255 220 0
0.527411 0.143633 0.168568 255 220 0
0.536470 0.126641 0.210060 255 220 0
0.521179 0.201964 0.233415 255 220 0
0.548954 0.221140 0.160098 255 220 0
0.520062 0.121594 0.182361 255 220 0
0.553279 0.181835 0.161018 255 220 0
0.490542 0.198990 0.201422 255 220 0
0.579208 0.210309 0.201794 255 220 0
0.569038 0.238608 0.177624 255 220 0
0.502685 0.157008 0.185473 255 220 0
0.513216 0.257678 0.176997 255 220 0
0.541401 0.288844 0.196801 255 220 0
0.565853 0.196917 0.166920 255 220 0
0.514011 0.239073 0.168196 255 220 0
0.549736 0.199492 0.228843 255 220 0
0.490724 0.234361 0.219941 255 220 0
0.490894 0.197307 0.201265 255 220 0
0.569918 0.224477 0.173228 255 220 0
0.562287 0.147620 0.191770 255 220 0
0.577829 0.217072 0.207014 255 220 0
0.506922 0.224399 0.170763 255 220 0
0.554270 0.181063 0.161538 255 220 0
0.568182 0.159062 0.179863 255 220 0
0.548645 0.206894 0.231360 255 220 0
0.555024 0.276486 0.191373 255 220 0
0.508530 0.259514 0.181589 255 220 0
0.566491 0.236844 0.173977 255 220 0
0.551617 0.186510 0.159919 255 220 0
0.550866 0.222328 0.160837 255 220 0
0.553348 0.283032 0.220268 255 220 0
0.527011 0.112422 0.197183 255 220 0
0.549183 0.132819 0.176299 255 220 0
0.525287 0.118456 0.183462 255 220 0
0.545857 0.196412 0.229148 255 220 0
0.508716 0.227098 0.236334 255 220 0
0.508471 0.248244 0.236958 255 220 0
0.525957 0.291982 0.204226 255 220 0
0.548024 0.279426 0.229073 255 220 0
0.521260 0.114522 0.208023 255 220 0
0.506421 0.248642 0.177242 255 220 0
0.578926 0.222469 0.203827 255 220 0
0.538361 0.170549 0.159805 255 220 0
0.488752 0.219627 0.212031 255 220 0
0.548400 0.286299 0.221137 255 220 0
0.505216 0.160708 0.180089 255 220 0
0.569908 0.238058 0.178435 255 220 0
0.502932 0.173426 0.216700 255 220 0
0.543740 0.175617 0.159220 255 220 0
0.490192 0.234409 0.197999 255 220 0
0.528414 0.231521 0.160907 255 220 0
0.508352 0.266581 0.187362 255 220 0
0.575119 0.177727 0.179328 255 220 0
0.498341 0.251912 0.228034 255 220 0
0.492539 0.218879 0.222216 255 220 0
0.522241 0.289412 0.201119 255 220 0
0.519005 0.211456 0.235771 255 220 0
0.537123 0.120235 0.205367 255 220 0
0.544793 0.211839 0.158316 255 220 0
0.523977 0.209815 0.235898 255 220 0
0.521789 0.237996 0.164177 255 220 0
0.504925 0.171938 0.177742 255 220 0
0.510059 0.223440 0.236259 255 220 0
0.562526 0.167087 0.169301 255 220 0
0.537336 0.235812 0.240836 255 220 0
0.526437 0.262631 0.240069 255 220 0
0.542943 0.151948 0.214873 255 220 0
0.574307 0.183805 0.201522 255 220 0
0.560212 0.142326 0.187079 255 220 0
0.519409 0.170842 0.223753 255 220 0
0.531171 0.233391 0.160904 255 220 0
0.537501 0.154657 0.163653 255 220 0
0.551752 0.282218 0.223445 255 220 0
0.528140 0.235870 0.241435 255 220 0
0.570092 0.244822 0.220955 255 220 0
0.497336 0.205379 0.182145 255 220 0
0.566581 0.215415 0.168420 255 220 0
0.509205 0.125755 0.188404 255 220 0
0.522852 0.254156 0.241089 255 220 0
0.499293 0.190155 0.181975 255 220 0
0.511434 0.189832 0.227875 255 220 0
0.570783 0.207246 0.171223 255 220 0
0.501455 0.173816 0.215151 255 220 0
0.493865 0.187329 0.196157 255 220 0
0.496552 0.210002 0.225239 255 220 0
0.559976 0.255331 0.231930 255 220 0
0.554009 0.161035 0.165953 255 220 0
0.539908 0.200728 0.232097 255 220 0
0.578415 0.229526 0.204381 255 220 0
0.540584 0.225281 0.238233 255 220 0
0.540837 0.164348 0.219966 255 220 0
0.527560 0.274728 0.235693 255 220 0
0.517555 0.278728 0.229608 255 220 0
0.535223 0.240731 0.241732 255 220 0
0.495485 0.215348 0.184126 255 220 0
0.515139 0.173837 0.223782 255 220 0
0.495709 0.252543 0.223831 255 220 0
0.517603 0.280055 0.191655 255 220 0
0.528919 0.288250 0.194946 255 220 0
0.497027 0.180278 0.211468 255 220 0
0.488670 0.218956 0.200610 255 220 0
0.570977 0.248927 0.188062 255 220 0
0.499393 0.185080 0.218514 255 220 0
0.578680 0.219771 0.188576 255 220 0
0.544949 0.271372 0.180112 255 220 0
0.561256 0.216145 0.164822 255 220 0
0.556715 0.237908 0.234594 255 220 0
0.517662 0.186893 0.163846 255 220 0
0.569289 0.262253 0.208385 255 220 0
0.530590 0.195033 0.158262 255 220 0
0.502186 0.212490 0.175285 255 220 0
0.559479 0.225923 0.165240 255 220 0
0.504131 0.227414 0.234139 255 220 0
0.574722 0.209661 0.175906 255 220 0
0.524620 0.137193 0.171826 255 220 0
0.526071 0.113906 0.205850 255 220 0
0.548097 0.257819 0.172203 255 220 0
0.489385 0.208020 0.209839 255 220 0
0.517709 0.194799 0.230846 255 220 0
0.542281 0.230608 0.238882 255 220 0
0.522552 0.115034 0.208790 255 220 0
0.536515 0.214595 0.157693 255 220 0
0.520230 0.112872 0.203890 255 220 0
0.580652 0.203650 0.190379 255 220 0
0.527419 0.140240 0.169814 255 220 0
0.571520 0.165371 0.190720 255 220 0
0.499938 0.177588 0.215143 255 220 0
0.526146 0.128886 0.215396 255 220 0
0.524258 0.136807 0.216871 255 220 0
0.514665 0.269496 0.184007 255 220 0
0.492093 0.192394 0.200333 255 220 0
