ply
format ascii 1.0
element vertex 1024
property float x
property float y
property float z
property uchar red
property uchar green
property uchar blue
end_header
0.554157 0.149371 0.107432 255 220 0
0.561630 0.100347 0.085055 255 220 0
0.567176 0.108927 0.071126 255 220 0
0.547987 0.214545 0.110995 255 220 0
0.552096 0.147646 0.043385 255 220 0
0.521951 0.129743 0.049749 255 220 0
0.555124 0.168467 0.109192 255 220 0
0.535862 0.145840 0.112285 255 220 0
0.519869 0.098621 0.064189 255 220 0
0.510719 0.121914 0.106624 255 220 0
0.545541 0.121498 0.048701 255 220 0
0.525091 0.072952 0.103547 255 220 0
0.570932 0.157683 0.095161 255 220 0
0.486695 0.186249 0.086025 255 220 0
0.565088 0.217610 0.094021 255 220 0
0.541009 0.210309 0.043129 255 220 0
0.510806 0.143122 0.052818 255 220 0
0.521621 0.076825 0.107319 255 220 0
0.511851 0.231717 0.059547 255 220 0
0.545537 0.122928 0.106550 255 220 0
0.556037 0.238629 0.079690 255 220 0
0.491466 0.211378 0.092316 255 220 0
0.535020 0.074253 0.100068 255 220 0
0.541954 0.126636 0.046429 255 220 0
0.508160 0.118163 0.065534 255 220 0
0.494843 0.217897 0.072823 255 220 0
0.523772 0.249875 0.086891 255 220 0
0.579713 0.169856 0.076354 255 220 0
0.537977 0.236960 0.056716 255 220 0
0.522775 0.111444 0.056530 255 220 0
0.500228 0.201675 0.055241 255 220 0
0.578974 0.159489 0.082442 255 220 0
0.499688 0.121256 0.090343 255 220 0
0.564840 0.106493 0.068750 255 220 0
0.501957 0.134665 0.066258 255 220 0
0.540233 0.112016 0.107184 255 220 0
0.569412 0.190959 0.097041 255 220 0
0.498520 0.216834 0.101161 255 220 0
0.536836 0.159858 0.113733 255 220 0
0.539684 0.248518 0.071312 255 220 0
0.572787 0.168110 0.055572 255 220 0
0.524620 0.076020 0.078742 255 220 0
0.547246 0.185580 0.113066 255 220 0
0.538058 0.105891 0.107267 255 220 0
0.576442 0.190085 0.070232 255 220 0
0.536482 0.153142 0.039878 255 220 0
0.514598 0.224393 0.053251 255 220 0
0.569453 0.209506 0.068266 255 220 0
0.554662 0.130809 0.048447 255 220 0
0.538206 0.245831 0.065210 255 220 0
0.511762 0.075876 0.093268 255 220 0
0.563484 0.222922 0.092790 255 220 0
0.559319 0.139429 0.103251 255 220 0
0.534537 0.076746 0.103412 255 220 0
0.535199 0.218340 0.113451 255 220 0
0.502412 0.108695 0.083187 255 220 0
0.548347 0.204520 0.112451 255 220 0
0.489765 0.189429 0.097794 255 220 0
0.488510 0.204783 0.083259 255 220 0
0.578960 0.149630 0.080613 255 220 0
0.534603 0.215144 0.043876 255 220 0
0.533662 0.251446 0.080194 255 220 0
0.533418 0.151317 0.040410 255 220 0
0.495661 0.205936 0.102568 255 220 0
0.531092 0.141075 0.112169 255 220 0
0.517725 0.188849 0.041202 255 220 0
0.529456 0.111352 0.109664 255 220 0
0.521974 0.138943 0.046709 255 220 0
0.491117 0.172054 0.099351 255 220 0
0.543855 0.164672 0.112618 255 220 0
0.529233 0.119508 0.050654 255 220 0
0.524806 0.186904 0.038862 255 220 0
0.557342 0.174527 0.042958 255 220 0
0.544704 0.197712 0.040677 255 220 0
0.532889 0.202689 0.040019 255 220 0
0.543316 0.209490 0.113603 255 220 0
0.543233 0.248333 0.082478 255 220 0
0.573395 0.202520 0.073240 255 220 0
0.496445 0.153493 0.102228 255 220 0
0.490940 0.206792 0.094879 255 220 0
0.497023 0.225237 0.075061 255 220 0
0.509350 0.109806 0.068150 255 220 0
0.508590 0.188921 0.046364 255 220 0
0.560970 0.151660 0.047011 255 220 0
0.527261 0.088274 0.067102 255 220 0
0.576333 0.189317 0.069064 255 220 0
0.506242 0.224109 0.059521 255 220 0
0.506293 0.103409 0.101359 255 220 0
0.578181 0.176180 0.069389 255 220 0
0.553845 0.102707 0.097925 255 220 0
0.532977 0.072688 0.082617 255 220 0
0.544049 0.162659 0.039100 255 220 0
0.547216 0.191366 0.040201 255 220 0
0.542637 0.215810 0.045812 255 220 0
0.547359 0.159477 0.111168 255 220 0
0.521305 0.136576 0.111192 255 220 0
0.562730 0.193569 0.103979 255 220 0
0.565235 0.127389 0.056432 255 220 0
0.542365 0.190290 0.114416 255 220 0
0.518407 0.182436 0.115645 255 220 0
0.523128 0.207149 0.115454 255 220 0
0.493798 0.143425 0.080213 255 220 0
0.496930 0.181943 0.057691 255 220 0
0.520082 0.078503 0.078455 255 220 0
0.492461 0.184245 0.064236 255 220 0
0.496088 0.152213 0.101379 255 220 0
0.552503 0.137648 0.106191 255 220 0
0.527091 0.104428 0.109750 255 220 0
0.544212 0.153375 0.111339 255 220 0
0.576820 0.186763 0.069326 255 220 0
0.502031 0.191160 0.051677 255 220 0
0.556435 0.236328 0.089003 255 220 0
0.511554 0.122880 0.059746 255 220 0
0.505383 0.229952 0.099480 255 220 0
0.515391 0.227254 0.107398 255 220 0
0.521531 0.165798 0.114678 255 220 0
0.517193 0.208081 0.114303 255 220 0
0.550580 0.238801 0.094215 255 220 0
0.544369 0.167389 0.038667 255 220 0
0.541905 0.233665 0.055626 255 220 0
0.545255 0.236568 0.100928 255 220 0
0.540740 0.207258 0.042048 255 220 0
0.499687 0.120069 0.083110 255 220 0
0.513543 0.115355 0.107835 255 220 0
0.500322 0.126794 0.073746 255 220 0
0.565685 0.146610 0.099578 255 220 0
0.567377 0.138742 0.054128 255 220 0
0.520913 0.179648 0.039932 255 220 0
0.513707 0.211513 0.048295 255 220 0
0.542693 0.151431 0.040531 255 220 0
0.541281 0.237697 0.058349 255 220 0
0.559209 0.106712 0.093916 255 220 0
0.542993 0.126323 0.046604 255 220 0
0.489447 0.206252 0.090734 255 220 0
0.556189 0.236254 0.071333 255 220 0
0.496419 0.147280 0.069069 255 220 0
0.569329 0.163743 0.051865 255 220 0
0.545649 0.173501 0.112862 255 220 0
0.507744 0.096435 0.078336 255 220 0
0.508724 0.237928 0.068787 255 220 0
0.533168 0.131452 0.110862 255 220 0
0.528292 0.121845 0.050038 255 220 0
0.536348 0.091727 0.107014 255 220 0
0.561867 0.172772 0.104985 255 220 0
0.559221 0.179578 0.107163 255 220 0
0.572146 0.126078 0.084761 255 220 0
0.579939 0.146910 0.073603 255 220 0
0.496347 0.198516 0.059470 255 220 0
0.549801 0.244230 0.078558 255 220 0
0.530519 0.122917 0.049010 255 220 0
0.542236 0.153537 0.111897 255 220 0
0.533009 0.101291 0.058048 255 220 0
0.554033 0.151990 0.043455 255 220 0
0.551306 0.180953 0.040416 255 220 0
0.538256 0.158488 0.038971 255 220 0
0.498023 0.150263 0.064934 255 220 0
0.565262 0.124467 0.057759 255 220 0
0.576130 0.149142 0.060713 255 220 0
0.515835 0.219880 0.050508 255 220 0
0.490446 0.155461 0.090496 255 220 0
0.534644 0.170918 0.115047 255 220 0
0.514926 0.077598 0.104873 255 220 0
0.540904 0.193368 0.039109 255 220 0
0.545488 0.134929 0.044323 255 220 0
0.541486 0.213523 0.113492 255 220 0
0.516761 0.240964 0.063519 255 220 0
0.580056 0.158047 0.078753 255 220 0
0.555344 0.122769 0.051765 255 220 0
0.572010 0.172041 0.094744 255 220 0
0.544870 0.090951 0.065268 255 220 0
0.489687 0.188835 0.070006 255 220 0
0.500841 0.117020 0.080665 255 220 0
0.524654 0.247534 0.092665 255 220 0
0.578352 0.176055 0.070168 255 220 0
0.536993 0.204903 0.040754 255 220 0
0.550773 0.152666 0.042147 255 220 0
0.507308 0.240566 0.081702 255 220 0
0.547907 0.225015 0.107449 255 220 0
0.557003 0.225792 0.060707 255 220 0
0.553327 0.231636 0.061514 255 220 0
0.521308 0.246825 0.092229 255 220 0
0.567211 0.127641 0.057964 255 220 0
0.553957 0.109461 0.057300 255 220 0
0.543043 0.243586 0.065164 255 220 0
0.555145 0.213946 0.051630 255 220 0
0.544838 0.202655 0.041897 255 220 0
0.525872 0.109769 0.055902 255 220 0
0.537772 0.191960 0.038557 255 220 0
0.578423 0.150338 0.064458 255 220 0
0.511137 0.148411 0.110535 255 220 0
0.505252 0.235477 0.071009 255 220 0
0.532830 0.158084 0.039164 255 220 0
0.568035 0.187154 0.052566 255 220 0
0.574515 0.125026 0.075800 255 220 0
0.533069 0.120825 0.109859 255 220 0
0.548508 0.093850 0.099774 255 220 0
0.487455 0.182297 0.076864 255 220 0
0.507264 0.111238 0.070176 255 220 0
0.555208 0.237741 0.072054 255 220 0
0.533072 0.132703 0.111010 255 220 0
0.549335 0.195436 0.112511 255 220 0
0.528463 0.234237 0.106238 255 220 0
0.553506 0.168868 0.109983 255 220 0
0.525984 0.078631 0.108503 255 220 0
0.539002 0.154741 0.039640 255 220 0
0.516914 0.234219 0.103660 255 220 0
0.534683 0.076246 0.102821 255 220 0
0.528861 0.201997 0.116253 255 220 0
0.526840 0.124623 0.049492 255 220 0
0.495968 0.224223 0.090106 255 220 0
0.528381 0.221434 0.112551 255 220 0
0.502461 0.222579 0.102042 255 220 0
0.495501 0.163268 0.063626 255 220 0
0.538132 0.101842 0.057297 255 220 0
0.534954 0.128365 0.110294 255 220 0
0.553414 0.202150 0.110192 255 220 0
0.506304 0.103480 0.101381 255 220 0
0.556107 0.091979 0.087933 255 220 0
0.491090 0.185044 0.100211 255 220 0
0.518032 0.236704 0.059036 255 220 0
0.557327 0.105093 0.095378 255 220 0
0.504664 0.138018 0.105413 255 220 0
0.490100 0.156506 0.079966 255 220 0
0.512549 0.122140 0.107583 255 220 0
0.487268 0.177512 0.089279 255 220 0
0.550947 0.217856 0.050750 255 220 0
0.506826 0.235005 0.067799 255 220 0
0.502815 0.233740 0.073188 255 220 0
0.551332 0.170919 0.111011 255 220 0
0.500472 0.154828 0.059780 255 220 0
0.576317 0.181406 0.087437 255 220 0
0.490688 0.156718 0.076879 255 220 0
0.508611 0.206953 0.111695 255 220 0
0.526145 0.108409 0.056416 255 220 0
0.543477 0.160519 0.112329 255 220 0
0.539964 0.233787 0.105414 255 220 0
0.575124 0.133314 0.082816 255 220 0
0.517973 0.247597 0.073053 255 220 0
0.506640 0.194749 0.048254 255 220 0
0.513675 0.226701 0.106985 255 220 0
0.547353 0.131509 0.045658 255 220 0
0.535102 0.198193 0.115927 255 220 0
0.510115 0.231679 0.061023 255 220 0
0.538900 0.221927 0.047613 255 220 0
0.572922 0.166093 0.055643 255 220 0
0.561101 0.132480 0.100691 255 220 0
0.569628 0.145044 0.095161 255 220 0
0.514919 0.108383 0.063088 255 220 0
0.549405 0.237706 0.096766 255 220 0
0.497125 0.223519 0.094155 255 220 0
0.497085 0.227895 0.080632 255 220 0
0.532977 0.144914 0.041912 255 220 0
0.532309 0.226645 0.049307 255 220 0
0.549392 0.195819 0.112480 255 220 0
0.519602 0.083298 0.109596 255 220 0
0.565760 0.198418 0.100271 255 220 0
0.490984 0.211157 0.078114 255 220 0
0.533618 0.157276 0.113889 255 220 0
0.561439 0.147689 0.047957 255 220 0
0.549347 0.092094 0.098356 255 220 0
0.548602 0.183106 0.039613 255 220 0
0.547077 0.140561 0.108623 255 220 0
0.573065 0.136256 0.060291 255 220 0
0.503550 0.233714 0.071560 255 220 0
0.490603 0.162760 0.095969 255 220 0
0.558278 0.209124 0.051696 255 220 0
0.561317 0.231094 0.077494 255 220 0
0.496823 0.147680 0.068128 255 220 0
0.533931 0.146038 0.041531 255 220 0
0.567742 0.217925 0.079353 255 220 0
0.580240 0.149767 0.072307 255 220 0
0.507860 0.234095 0.097867 255 220 0
0.565639 0.174832 0.048523 255 220 0
0.539742 0.131659 0.044792 255 220 0
0.503820 0.227908 0.065129 255 220 0
0.554626 0.116004 0.054395 255 220 0
0.502314 0.108914 0.092440 255 220 0
0.567310 0.129104 0.093895 255 220 0
0.525521 0.121736 0.110281 255 220 0
0.514814 0.183956 0.042454 255 220 0
0.524497 0.085166 0.070310 255 220 0
0.537064 0.114396 0.108451 255 220 0
0.506918 0.116626 0.067890 255 220 0
0.574841 0.184811 0.062346 255 220 0
0.569848 0.196162 0.095339 255 220 0
0.538161 0.218745 0.045877 255 220 0
0.525949 0.209732 0.115315 255 220 0
0.535171 0.136286 0.043782 255 220 0
0.561002 0.149850 0.047311 255 220 0
0.527264 0.218949 0.046006 255 220 0
0.530639 0.180159 0.116105 255 220 0
0.571011 0.164482 0.053473 255 220 0
0.524981 0.130967 0.110941 255 220 0
0.497572 0.153520 0.103423 255 220 0
0.529924 0.147856 0.113043 255 220 0
0.577394 0.140355 0.081044 255 220 0
0.502511 0.206962 0.054540 255 220 0
0.579982 0.147937 0.075094 255 220 0
0.538635 0.193544 0.115327 255 220 0
0.538125 0.193714 0.038829 255 220 0
0.498967 0.193884 0.055167 255 220 0
0.522771 0.188495 0.039441 255 220 0
0.494091 0.196714 0.103128 255 220 0
0.538492 0.212739 0.043434 255 220 0
0.577919 0.135979 0.074201 255 220 0
0.502596 0.142513 0.104929 255 220 0
0.572757 0.201041 0.086890 255 220 0
0.568001 0.208380 0.093686 255 220 0
0.501813 0.164349 0.108673 255 220 0
0.509826 0.237036 0.096356 255 220 0
0.489920 0.185213 0.069277 255 220 0
0.517180 0.115229 0.109075 255 220 0
0.552089 0.101505 0.099040 255 220 0
0.522311 0.224435 0.049886 255 220 0
0.521535 0.170158 0.040290 255 220 0
0.560575 0.095918 0.081310 255 220 0
0.562204 0.225575 0.092739 255 220 0
0.516750 0.182515 0.041535 255 220 0
0.493333 0.219213 0.079872 255 220 0
0.509145 0.137321 0.107963 255 220 0
0.515498 0.075451 0.103087 255 220 0
0.494845 0.171183 0.062391 255 220 0
0.522150 0.070601 0.093566 255 220 0
0.532055 0.112535 0.109371 255 220 0
0.561692 0.213283 0.101125 255 220 0
0.497681 0.147922 0.066543 255 220 0
0.574637 0.167847 0.090956 255 220 0
0.580216 0.161979 0.077810 255 220 0
0.553869 0.089514 0.089793 255 220 0
0.531657 0.104682 0.109021 255 220 0
0.579581 0.151430 0.079192 255 220 0
0.570435 0.190907 0.095696 255 220 0
0.533844 0.250872 0.085121 255 220 0
0.520909 0.071146 0.098306 255 220 0
0.526252 0.215388 0.114164 255 220 0
0.506022 0.103083 0.100886 255 220 0
0.509078 0.202924 0.048243 255 220 0
0.487240 0.178742 0.078644 255 220 0
0.538916 0.190566 0.038468 255 220 0
0.502708 0.139680 0.104252 255 220 0
0.513924 0.089174 0.108040 255 220 0
0.492905 0.145193 0.083810 255 220 0
0.505066 0.111914 0.073331 255 220 0
0.566709 0.146805 0.098621 255 220 0
0.541418 0.216811 0.112807 255 220 0
0.546493 0.192269 0.113400 255 220 0
0.491491 0.153915 0.093316 255 220 0
0.575335 0.188516 0.087724 255 220 0
0.534553 0.213639 0.114604 255 220 0
0.500183 0.117337 0.087479 255 220 0
0.558014 0.142550 0.046998 255 220 0
0.550313 0.186197 0.112127 255 220 0
0.580150 0.155839 0.078003 255 220 0
0.500467 0.177917 0.109100 255 220 0
0.572543 0.169125 0.055332 255 220 0
0.489041 0.177956 0.071994 255 220 0
0.547843 0.135656 0.107588 255 220 0
0.563938 0.223575 0.090727 255 220 0
0.549927 0.217554 0.049982 255 220 0
0.501802 0.154593 0.107105 255 220 0
0.542723 0.108131 0.105671 255 220 0
0.550923 0.081998 0.079819 255 220 0
0.570705 0.150598 0.054463 255 220 0
0.525438 0.215729 0.045141 255 220 0
0.505729 0.185006 0.048416 255 220 0
0.489645 0.178508 0.070376 255 220 0
0.579568 0.166206 0.069207 255 220 0
0.487904 0.182113 0.093023 255 220 0
0.513299 0.081440 0.081768 255 220 0
0.556767 0.175781 0.042664 255 220 0
0.487949 0.172323 0.091106 255 220 0
0.559688 0.231994 0.089281 255 220 0
0.551360 0.118563 0.103409 255 220 0
0.534135 0.242595 0.060436 255 220 0
0.579034 0.168343 0.068107 255 220 0
0.509594 0.176091 0.046039 255 220 0
0.524141 0.203514 0.041448 255 220 0
0.522157 0.244661 0.064027 255 220 0
0.499632 0.232197 0.081306 255 220 0
0.549385 0.112434 0.053674 255 220 0
0.540798 0.111500 0.052477 255 220 0
0.490653 0.170104 0.069952 255 220 0
0.507632 0.179828 0.112722 255 220 0
0.534165 0.117317 0.109382 255 220 0
0.549015 0.161151 0.040495 255 220 0
0.565884 0.135751 0.097380 255 220 0
0.504966 0.238230 0.083981 255 220 0
0.520741 0.078888 0.108408 255 220 0
0.487939 0.169662 0.089703 255 220 0
0.533767 0.108780 0.054204 255 220 0
0.560107 0.147212 0.104008 255 220 0
0.519126 0.181666 0.040540 255 220 0
0.529350 0.178021 0.037792 255 220 0
0.539345 0.146298 0.041226 255 220 0
0.547829 0.244940 0.085814 255 220 0
0.499051 0.207415 0.105465 255 220 0
0.521994 0.082534 0.073594 255 220 0
0.575858 0.186796 0.065855 255 220 0
0.549097 0.167634 0.039867 255 220 0
0.532567 0.219959 0.045870 255 220 0
0.513149 0.107684 0.107676 255 220 0
0.508381 0.108971 0.104263 255 220 0
0.497744 0.172633 0.058074 255 220 0
0.557807 0.217743 0.056016 255 220 0
0.488214 0.203671 0.083984 255 220 0
0.573963 0.200137 0.071436 255 220 0
0.568014 0.175822 0.050718 255 220 0
0.533825 0.113524 0.109130 255 220 0
0.559539 0.230421 0.069455 255 220 0
0.546606 0.091360 0.065510 255 220 0
0.552023 0.121562 0.050651 255 220 0
0.527355 0.091297 0.065062 255 220 0
0.568115 0.193662 0.054759 255 220 0
0.503763 0.202938 0.109911 255 220 0
0.564668 0.187353 0.102567 255 220 0
0.548302 0.245338 0.081307 255 220 0
0.495940 0.201099 0.060906 255 220 0
0.553439 0.185204 0.110782 255 220 0
0.490712 0.153069 0.088137 255 220 0
0.511739 0.133010 0.055570 255 220 0
0.523047 0.222147 0.048583 255 220 0
0.528841 0.124783 0.110511 255 220 0
0.487644 0.179891 0.091768 255 220 0
0.547333 0.201869 0.042556 255 220 0
0.579432 0.172250 0.075761 255 220 0
0.556352 0.089194 0.082551 255 220 0
0.487396 0.197579 0.088405 255 220 0
0.510416 0.112900 0.065397 255 220 0
0.554991 0.119934 0.052801 255 220 0
0.558943 0.178637 0.043942 255 220 0
0.549587 0.228245 0.055931 255 220 0
0.561830 0.191392 0.047877 255 220 0
0.497727 0.133898 0.094226 255 220 0
0.544987 0.246616 0.086171 255 220 0
0.529996 0.090680 0.064790 255 220 0
0.560652 0.112120 0.094802 255 220 0
0.510390 0.218091 0.052759 255 220 0
0.525374 0.070551 0.090399 255 220 0
0.560580 0.232627 0.082205 255 220 0
0.555507 0.102406 0.096157 255 220 0
0.559076 0.179113 0.107257 255 220 0
0.517927 0.081401 0.077310 255 220 0
0.500504 0.226335 0.097047 255 220 0
0.529609 0.251022 0.073787 255 220 0
0.525328 0.106705 0.057522 255 220 0
0.553740 0.087512 0.087467 255 220 0
0.542956 0.147902 0.110984 255 220 0
0.575228 0.134559 0.083298 255 220 0
0.567339 0.199921 0.056588 255 220 0
0.496887 0.171003 0.105945 255 220 0
0.509966 0.095765 0.075207 255 220 0
0.499043 0.209050 0.104950 255 220 0
0.503079 0.217556 0.059054 255 220 0
0.540013 0.142583 0.042006 255 220 0
0.504252 0.108617 0.098318 255 220 0
0.524411 0.154147 0.113644 255 220 0
0.566324 0.219775 0.073691 255 220 0
0.536187 0.148108 0.112520 255 220 0
0.543374 0.075355 0.083611 255 220 0
0.551242 0.180677 0.111617 255 220 0
0.574075 0.173616 0.057980 255 220 0
0.546939 0.102518 0.102760 255 220 0
0.540689 0.211560 0.043502 255 220 0
0.561584 0.118534 0.096403 255 220 0
0.488195 0.190876 0.093937 255 220 0
0.489203 0.195286 0.095936 255 220 0
0.552054 0.207288 0.110328 255 220 0
0.564599 0.196588 0.101848 255 220 0
0.579029 0.144736 0.068006 255 220 0
0.501832 0.154114 0.107033 255 220 0
0.558615 0.092717 0.074020 255 220 0
0.519423 0.223679 0.050617 255 220 0
0.511298 0.240344 0.093214 255 220 0
0.506009 0.130825 0.104698 255 220 0
0.565498 0.125828 0.094875 255 220 0
0.562714 0.148185 0.048678 255 220 0
0.530285 0.185889 0.037958 255 220 0
0.537998 0.074785 0.097566 255 220 0
0.531931 0.072132 0.099148 255 220 0
0.523082 0.221437 0.111954 255 220 0
0.508531 0.130709 0.059648 255 220 0
0.564727 0.209479 0.098652 255 220 0
0.508431 0.106843 0.104242 255 220 0
0.557653 0.164733 0.043582 255 220 0
0.533978 0.203873 0.040289 255 220 0
0.566012 0.222069 0.079835 255 220 0
0.525805 0.100393 0.060404 255 220 0
0.513719 0.170565 0.113869 255 220 0
0.516413 0.157125 0.044738 255 220 0
0.526545 0.100387 0.060145 255 220 0
0.570928 0.143370 0.093258 255 220 0
0.546635 0.129203 0.107022 255 220 0
0.559534 0.114034 0.096765 255 220 0
0.574525 0.134463 0.084759 255 220 0
0.578368 0.137840 0.073586 255 220 0
0.537393 0.247034 0.092274 255 220 0
0.577642 0.174096 0.066103 255 220 0
0.543911 0.239687 0.061353 255 220 0
0.525513 0.195860 0.116480 255 220 0
0.546235 0.086739 0.099344 255 220 0
0.541037 0.160473 0.038908 255 220 0
0.579669 0.158137 0.080260 255 220 0
0.529713 0.110458 0.109600 255 220 0
0.501588 0.155929 0.057993 255 220 0
0.528062 0.224073 0.048235 255 220 0
0.535623 0.204073 0.115609 255 220 0
0.537700 0.153067 0.039895 255 220 0
0.497023 0.145949 0.100163 255 220 0
0.577502 0.162741 0.085893 255 220 0
0.491842 0.153710 0.094267 255 220 0
0.528729 0.174766 0.037957 255 220 0
0.574132 0.123678 0.074031 255 220 0
0.559296 0.231769 0.071015 255 220 0
0.555769 0.213199 0.051718 255 220 0
0.511097 0.157518 0.048183 255 220 0
0.516850 0.101990 0.064584 255 220 0
0.507704 0.098444 0.103081 255 220 0
0.510175 0.240870 0.071229 255 220 0
0.570120 0.167351 0.052516 255 220 0
0.541040 0.166002 0.038239 255 220 0
0.527385 0.080657 0.073151 255 220 0
0.572896 0.204670 0.078627 255 220 0
0.509884 0.078237 0.093183 255 220 0
0.521405 0.122302 0.109997 255 220 0
0.486721 0.181472 0.082997 255 220 0
0.573312 0.192497 0.090597 255 220 0
0.553527 0.129046 0.104251 255 220 0
0.508739 0.135443 0.057553 255 220 0
0.510308 0.186777 0.113884 255 220 0
0.516403 0.241706 0.096249 255 220 0
0.552626 0.188485 0.111188 255 220 0
0.503008 0.119143 0.098456 255 220 0
0.508476 0.133109 0.106832 255 220 0
0.509247 0.177516 0.046158 255 220 0
0.532051 0.089806 0.108772 255 220 0
0.544745 0.096743 0.061073 255 220 0
0.560223 0.149363 0.046926 255 220 0
0.522230 0.151647 0.043185 255 220 0
0.559747 0.231332 0.090351 255 220 0
0.562460 0.200894 0.051665 255 220 0
0.498031 0.225318 0.072554 255 220 0
0.506818 0.218213 0.055599 255 220 0
0.570422 0.180951 0.054012 255 220 0
0.555153 0.236817 0.090752 255 220 0
0.538573 0.183502 0.037701 255 220 0
0.487453 0.170774 0.086572 255 220 0
0.515306 0.137766 0.050995 255 220 0
0.576216 0.183205 0.065349 255 220 0
0.503192 0.113871 0.097345 255 220 0
0.526141 0.075898 0.078366 255 220 0
0.529269 0.077283 0.076243 255 220 0
0.538183 0.096828 0.106447 255 220 0
0.538606 0.233527 0.105963 255 220 0
0.538727 0.245165 0.094430 255 220 0
0.503017 0.178888 0.051156 255 220 0
0.528145 0.224595 0.111352 255 220 0
0.557559 0.231518 0.094340 255 220 0
0.513455 0.232020 0.103633 255 220 0
0.558387 0.209505 0.051981 255 220 0
0.518084 0.222184 0.110581 255 220 0
0.497545 0.224138 0.094338 255 220 0
0.563339 0.099934 0.076504 255 220 0
0.503300 0.156242 0.055904 255 220 0
0.548577 0.176493 0.112287 255 220 0
0.493978 0.216723 0.073985 255 220 0
0.512025 0.134606 0.054739 255 220 0
0.508265 0.098438 0.103789 255 220 0
0.495193 0.150332 0.069665 255 220 0
0.567739 0.213250 0.068098 255 220 0
0.488357 0.196995 0.076169 255 220 0
0.508624 0.174630 0.046896 255 220 0
0.537647 0.226685 0.110139 255 220 0
0.512193 0.218717 0.109906 255 220 0
0.561966 0.162764 0.046256 255 220 0
0.551422 0.204881 0.111004 255 220 0
0.555891 0.094807 0.091113 255 220 0
0.507488 0.089044 0.101560 255 220 0
0.561880 0.181681 0.105128 255 220 0
0.513103 0.088732 0.075997 255 220 0
0.529676 0.219896 0.046016 255 220 0
0.493701 0.146841 0.093995 255 220 0
0.499519 0.206960 0.105995 255 220 0
0.492690 0.178473 0.064371 255 220 0
0.548372 0.171534 0.039394 255 220 0
0.550580 0.169094 0.040258 255 220 0
0.554011 0.219325 0.105968 255 220 0
0.502208 0.131446 0.101129 255 220 0
0.520138 0.233160 0.055557 255 220 0
0.553475 0.216821 0.107223 255 220 0
0.535085 0.204621 0.115649 255 220 0
0.504497 0.207815 0.109384 255 220 0
0.542180 0.248986 0.079964 255 220 0
0.539267 0.186761 0.038049 255 220 0
0.548927 0.228863 0.055913 255 220 0
0.528924 0.202582 0.116213 255 220 0
0.547256 0.131804 0.107191 255 220 0
0.551437 0.088978 0.093726 255 220 0
0.495897 0.156671 0.065404 255 220 0
0.493389 0.150249 0.095881 255 220 0
0.564708 0.119281 0.059896 255 220 0
0.486960 0.186257 0.088803 255 220 0
0.577939 0.183118 0.073006 255 220 0
0.559855 0.154242 0.105085 255 220 0
0.499523 0.136525 0.099521 255 220 0
0.573367 0.137152 0.087999 255 220 0
0.555965 0.119520 0.053530 255 220 0
0.550452 0.155506 0.041645 255 220 0
0.578294 0.177584 0.082071 255 220 0
0.532836 0.228917 0.109490 255 220 0
0.553742 0.160405 0.042216 255 220 0
0.562567 0.216052 0.099021 255 220 0
0.534315 0.202849 0.115846 255 220 0
0.558646 0.195726 0.046728 255 220 0
0.540885 0.181027 0.037780 255 220 0
0.556489 0.091559 0.071697 255 220 0
0.521196 0.071332 0.099290 255 220 0
0.490538 0.163395 0.096062 255 220 0
0.560830 0.110082 0.093608 255 220 0
0.533687 0.238874 0.102516 255 220 0
0.519865 0.199775 0.115770 255 220 0
0.564687 0.140619 0.099510 255 220 0
0.551761 0.132526 0.046670 255 220 0
0.546209 0.219097 0.110563 255 220 0
0.564051 0.150035 0.049260 255 220 0
0.496021 0.136983 0.078406 255 220 0
0.523684 0.120018 0.052504 255 220 0
0.537582 0.170264 0.114536 255 220 0
0.544750 0.220151 0.110804 255 220 0
0.539047 0.166887 0.037951 255 220 0
0.545932 0.146863 0.109953 255 220 0
0.492441 0.149404 0.092245 255 220 0
0.487939 0.199654 0.090187 255 220 0
0.553117 0.111950 0.101107 255 220 0
0.517078 0.191814 0.041729 255 220 0
0.524373 0.161570 0.114476 255 220 0
0.489330 0.201897 0.093899 255 220 0
0.529802 0.123267 0.110359 255 220 0
0.571109 0.178322 0.054448 255 220 0
0.518825 0.080905 0.077067 255 220 0
0.529155 0.236967 0.055888 255 220 0
0.527160 0.242084 0.060027 255 220 0
0.558501 0.139548 0.103742 255 220 0
0.498348 0.215065 0.101851 255 220 0
0.530617 0.250494 0.087398 255 220 0
0.554729 0.122362 0.051607 255 220 0
0.504351 0.199691 0.110716 255 220 0
0.502011 0.152254 0.058791 255 220 0
0.524975 0.186404 0.038798 255 220 0
0.554566 0.097540 0.064852 255 220 0
0.521515 0.121057 0.053175 255 220 0
0.527118 0.163951 0.114827 255 220 0
0.551106 0.102505 0.100091 255 220 0
0.544277 0.243800 0.066473 255 220 0
0.503426 0.149968 0.057943 255 220 0
0.569598 0.151707 0.053307 255 220 0
0.519072 0.143396 0.046817 255 220 0
0.511140 0.138881 0.109080 255 220 0
0.519121 0.244481 0.065676 255 220 0
0.543925 0.244574 0.067379 255 220 0
0.551531 0.206656 0.046050 255 220 0
0.509987 0.115708 0.064556 255 220 0
0.503593 0.228230 0.065708 255 220 0
0.498485 0.205380 0.105539 255 220 0
0.562538 0.222257 0.095392 255 220 0
0.499324 0.121582 0.088058 255 220 0
0.564579 0.102337 0.076212 255 220 0
0.491941 0.199773 0.099819 255 220 0
0.543248 0.166530 0.038527 255 220 0
0.579902 0.168379 0.075728 255 220 0
0.505961 0.091191 0.098487 255 220 0
0.505142 0.152065 0.055296 255 220 0
0.511818 0.217723 0.110112 255 220 0
0.574756 0.174392 0.090971 255 220 0
0.486879 0.177212 0.084362 255 220 0
0.524966 0.073982 0.081207 255 220 0
0.492851 0.150438 0.094625 255 220 0
0.542500 0.078573 0.097122 255 220 0
0.513550 0.182696 0.043149 255 220 0
0.545264 0.212524 0.045407 255 220 0
0.507694 0.154518 0.110189 255 220 0
0.564569 0.172855 0.047611 255 220 0
0.521613 0.091592 0.067252 255 220 0
0.527445 0.124528 0.110504 255 220 0
0.555439 0.094259 0.091427 255 220 0
0.536947 0.203002 0.115458 255 220 0
0.531274 0.199358 0.116287 255 220 0
0.554485 0.098809 0.095635 255 220 0
0.511203 0.189728 0.044676 255 220 0
0.523071 0.190860 0.039520 255 220 0
0.492166 0.206387 0.097601 255 220 0
0.509669 0.179888 0.045689 255 220 0
0.499598 0.202469 0.107118 255 220 0
0.498545 0.220812 0.098770 255 220 0
0.562355 0.205602 0.102554 255 220 0
0.515648 0.122038 0.056544 255 220 0
0.530932 0.109880 0.109400 255 220 0
0.539468 0.240083 0.059635 255 220 0
0.554930 0.166387 0.109110 255 220 0
0.567571 0.133224 0.094909 255 220 0
0.561903 0.128684 0.053420 255 220 0
0.523393 0.093970 0.110243 255 220 0
0.509146 0.111821 0.105049 255 220 0
0.530250 0.207847 0.115694 255 220 0
0.574473 0.134647 0.062838 255 220 0
0.526542 0.116978 0.110063 255 220 0
0.555439 0.233641 0.094877 255 220 0
0.486982 0.195034 0.083917 255 220 0
0.552631 0.093883 0.095349 255 220 0
0.567891 0.176131 0.050621 255 220 0
0.576719 0.186913 0.068972 255 220 0
0.511783 0.088771 0.106622 255 220 0
0.532387 0.187156 0.116256 255 220 0
0.532351 0.160085 0.038872 255 220 0
0.503040 0.204114 0.053037 255 220 0
0.546719 0.163792 0.111782 255 220 0
0.563517 0.100734 0.073706 255 220 0
0.529698 0.174556 0.115763 255 220 0
0.555233 0.167338 0.109043 255 220 0
0.538027 0.250541 0.078299 255 220 0
0.491723 0.166687 0.068830 255 220 0
0.502796 0.105337 0.091949 255 220 0
0.507614 0.218962 0.107590 255 220 0
0.508802 0.237117 0.095144 255 220 0
0.563064 0.117616 0.059380 255 220 0
0.533300 0.072757 0.099170 255 220 0
0.539520 0.084333 0.104231 255 220 0
0.530155 0.084742 0.109204 255 220 0
0.546721 0.078423 0.080386 255 220 0
0.549405 0.106254 0.056859 255 220 0
0.564556 0.153592 0.101456 255 220 0
0.506480 0.157971 0.110179 255 220 0
0.539996 0.117403 0.049868 255 220 0
0.572124 0.172932 0.094630 255 220 0
0.538302 0.155248 0.113004 255 220 0
0.504141 0.115834 0.099559 255 220 0
0.490520 0.153520 0.087311 255 220 0
0.538863 0.133136 0.110041 255 220 0
0.569253 0.133776 0.092994 255 220 0
0.497674 0.228025 0.088842 255 220 0
0.498746 0.169354 0.107236 255 220 0
0.571945 0.120612 0.080393 255 220 0
0.554198 0.153820 0.043254 255 220 0
0.536888 0.108245 0.107889 255 220 0
0.534457 0.229135 0.109291 255 220 0
0.545932 0.237341 0.099762 255 220 0
0.577948 0.183147 0.080636 255 220 0
0.503442 0.100864 0.088676 255 220 0
0.521421 0.118086 0.054407 255 220 0
0.549349 0.227082 0.105519 255 220 0
0.529205 0.202751 0.116199 255 220 0
0.524413 0.102716 0.109936 255 220 0
0.490059 0.206301 0.092902 255 220 0
0.502738 0.135703 0.064635 255 220 0
0.512542 0.099126 0.070020 255 220 0
0.529924 0.250840 0.086194 255 220 0
0.546697 0.111177 0.104324 255 220 0
0.506477 0.220810 0.106082 255 220 0
0.563348 0.146596 0.049393 255 220 0
0.538930 0.114285 0.107886 255 220 0
0.574163 0.124002 0.075647 255 220 0
0.528625 0.132118 0.111177 255 220 0
0.524807 0.118388 0.052658 255 220 0
0.491548 0.211722 0.092209 255 220 0
0.577271 0.155057 0.085650 255 220 0
0.500302 0.123121 0.076617 255 220 0
0.556199 0.151239 0.044506 255 220 0
0.540826 0.108173 0.054062 255 220 0
0.502694 0.135340 0.102954 255 220 0
0.535761 0.140082 0.111557 255 220 0
0.578373 0.177192 0.081847 255 220 0
0.551223 0.185052 0.040729 255 220 0
0.563570 0.102904 0.070268 255 220 0
0.491649 0.190271 0.100843 255 220 0
0.527478 0.070300 0.091857 255 220 0
0.514772 0.190518 0.115130 255 220 0
0.502835 0.198007 0.110043 255 220 0
0.510328 0.178179 0.113551 255 220 0
0.540346 0.234529 0.104753 255 220 0
0.569635 0.204418 0.092469 255 220 0
0.560464 0.187998 0.106172 255 220 0
0.540821 0.121437 0.048261 255 220 0
0.503899 0.133852 0.063834 255 220 0
0.505345 0.091226 0.090119 255 220 0
0.496678 0.173911 0.059195 255 220 0
0.553498 0.115183 0.054178 255 220 0
0.553678 0.219147 0.053293 255 220 0
0.510525 0.229155 0.058828 255 220 0
0.543295 0.105451 0.055693 255 220 0
0.568882 0.150138 0.096773 255 220 0
0.523105 0.167713 0.115021 255 220 0
0.560302 0.134114 0.050511 255 220 0
0.534829 0.244114 0.061998 255 220 0
0.498545 0.186118 0.107925 255 220 0
0.494920 0.175269 0.061400 255 220 0
0.491794 0.215794 0.082905 255 220 0
0.494563 0.150628 0.098500 255 220 0
0.541878 0.241214 0.061705 255 220 0
0.497756 0.151972 0.064590 255 220 0
0.525973 0.224611 0.048920 255 220 0
0.506432 0.088161 0.088734 255 220 0
0.497566 0.165455 0.105831 255 220 0
0.569893 0.212335 0.077094 255 220 0
0.556167 0.128926 0.102968 255 220 0
0.506841 0.125753 0.104353 255 220 0
0.497717 0.210119 0.103296 255 220 0
0.533748 0.109870 0.108879 255 220 0
0.518045 0.199449 0.042624 255 220 0
0.496402 0.138354 0.075406 255 220 0
0.495087 0.222411 0.077429 255 220 0
0.566310 0.208729 0.096569 255 220 0
0.537814 0.072825 0.093513 255 220 0
0.524479 0.157930 0.114085 255 220 0
0.519175 0.248774 0.075329 255 220 0
0.530135 0.071802 0.099831 255 220 0
0.544193 0.159720 0.039502 255 220 0
0.509610 0.198575 0.113268 255 220 0
0.572168 0.190775 0.059402 255 220 0
0.548212 0.085803 0.096153 255 220 0
0.488907 0.172835 0.073575 255 220 0
0.511736 0.143028 0.109924 255 220 0
0.515635 0.201453 0.114818 255 220 0
0.561997 0.213366 0.100749 255 220 0
0.499736 0.227885 0.094227 255 220 0
0.572184 0.202186 0.087642 255 220 0
0.570239 0.209375 0.086648 255 220 0
0.552210 0.211444 0.109436 255 220 0
0.563840 0.199111 0.102266 255 220 0
0.561722 0.229523 0.087650 255 220 0
0.548337 0.127517 0.106134 255 220 0
0.545079 0.078818 0.092915 255 220 0
0.544327 0.135843 0.108803 255 220 0
0.501223 0.231583 0.091903 255 220 0
0.527030 0.076548 0.106977 255 220 0
0.567757 0.151535 0.051792 255 220 0
0.523623 0.247851 0.067771 255 220 0
0.486999 0.184148 0.079268 255 220 0
0.491028 0.167415 0.098309 255 220 0
0.513968 0.150445 0.047971 255 220 0
0.502370 0.134317 0.102280 255 220 0
0.502785 0.112707 0.096036 255 220 0
0.533807 0.119663 0.109651 255 220 0
0.530212 0.103852 0.057316 255 220 0
0.545463 0.163482 0.112087 255 220 0
0.556472 0.213662 0.105920 255 220 0
0.539807 0.155062 0.112668 255 220 0
0.579722 0.155120 0.067324 255 220 0
0.523647 0.127907 0.110575 255 220 0
0.540249 0.124536 0.108634 255 220 0
0.570858 0.153152 0.094800 255 220 0
0.518248 0.109197 0.060169 255 220 0
0.514597 0.212771 0.048306 255 220 0
0.491463 0.181150 0.100724 255 220 0
0.544867 0.169838 0.112787 255 220 0
0.558642 0.114130 0.057838 255 220 0
0.567677 0.116475 0.064675 255 220 0
0.556264 0.169346 0.108647 255 220 0
0.490964 0.180318 0.067295 255 220 0
0.571902 0.198052 0.062958 255 220 0
0.572828 0.171478 0.055874 255 220 0
0.560397 0.200167 0.049560 255 220 0
0.557681 0.133705 0.103098 255 220 0
0.503181 0.221990 0.103012 255 220 0
0.554899 0.123439 0.102551 255 220 0
0.513436 0.222155 0.052796 255 220 0
0.502507 0.170243 0.109731 255 220 0
0.557319 0.171115 0.043016 255 220 0
0.568123 0.210734 0.066065 255 220 0
0.570914 0.118639 0.081237 255 220 0
0.554296 0.134754 0.047097 255 220 0
0.535755 0.132888 0.110661 255 220 0
0.491381 0.166323 0.069644 255 220 0
0.506783 0.113345 0.102803 255 220 0
0.548846 0.209259 0.111645 255 220 0
0.526328 0.087057 0.068249 255 220 0
0.488921 0.206448 0.083319 255 220 0
0.517155 0.147582 0.111916 255 220 0
0.569029 0.126680 0.090529 255 220 0
0.535887 0.072619 0.083526 255 220 0
0.527020 0.079504 0.074337 255 220 0
0.532028 0.250657 0.072566 255 220 0
0.500135 0.194983 0.053956 255 220 0
0.576078 0.194489 0.074729 255 220 0
0.517766 0.146653 0.111905 255 220 0
0.545988 0.197055 0.113542 255 220 0
0.544478 0.208782 0.113350 255 220 0
0.506618 0.186948 0.112502 255 220 0
0.528397 0.231030 0.108228 255 220 0
0.499926 0.123899 0.093543 255 220 0
0.495443 0.186646 0.059446 255 220 0
0.551996 0.166024 0.040987 255 220 0
0.522962 0.240880 0.100206 255 220 0
0.528035 0.179653 0.038015 255 220 0
0.498428 0.143040 0.100809 255 220 0
0.490455 0.196414 0.069801 255 220 0
0.530551 0.096027 0.061384 255 220 0
0.538417 0.087196 0.105571 255 220 0
0.519340 0.164739 0.114293 255 220 0
0.549555 0.171622 0.039765 255 220 0
0.523430 0.076525 0.078674 255 220 0
0.555290 0.133355 0.047963 255 220 0
0.490259 0.154702 0.082285 255 220 0
0.578343 0.169823 0.083801 255 220 0
0.568195 0.192832 0.054543 255 220 0
0.504633 0.111116 0.074674 255 220 0
0.511785 0.208983 0.048445 255 220 0
0.537905 0.244422 0.063267 255 220 0
0.567027 0.149796 0.051479 255 220 0
0.513651 0.189152 0.043204 255 220 0
0.548142 0.162754 0.111281 255 220 0
0.488322 0.192801 0.094068 255 220 0
0.490680 0.153035 0.082449 255 220 0
0.569788 0.178194 0.052820 255 220 0
0.564210 0.105666 0.084722 255 220 0
0.576489 0.177347 0.087653 255 220 0
0.507006 0.174880 0.048135 255 220 0
0.556285 0.132734 0.048650 255 220 0
0.570191 0.115029 0.071156 255 220 0
0.546669 0.170432 0.112371 255 220 0
0.552201 0.231907 0.060670 255 220 0
0.506838 0.211406 0.052455 255 220 0
0.565876 0.190329 0.051187 255 220 0
0.553505 0.137678 0.045974 255 220 0
0.551387 0.173007 0.040345 255 220 0
0.549025 0.243463 0.087816 255 220 0
0.530061 0.070487 0.095157 255 220 0
0.552352 0.087756 0.071732 255 220 0
0.528715 0.073871 0.080515 255 220 0
0.544370 0.159610 0.112000 255 220 0
0.505839 0.189411 0.112146 255 220 0
0.504783 0.210292 0.108911 255 220 0
0.522046 0.248158 0.069436 255 220 0
0.543460 0.241269 0.096931 255 220 0
0.523770 0.074246 0.105220 255 220 0
0.505324 0.199847 0.050082 255 220 0
0.577523 0.182126 0.083581 255 220 0
0.540867 0.121386 0.048281 255 220 0
0.487245 0.176811 0.088898 255 220 0
0.543926 0.246611 0.087898 255 220 0
0.507257 0.113895 0.068802 255 220 0
0.569048 0.192476 0.055471 255 220 0
0.502910 0.132879 0.102389 255 220 0
0.546075 0.126498 0.046980 255 220 0
0.488746 0.188876 0.072477 255 220 0
0.528629 0.181058 0.037932 255 220 0
0.506147 0.219382 0.056839 255 220 0
0.576448 0.133581 0.067492 255 220 0
0.494923 0.211841 0.099109 255 220 0
0.490609 0.178076 0.099180 255 220 0
0.518567 0.244909 0.066714 255 220 0
0.516715 0.174394 0.114806 255 220 0
0.539510 0.080086 0.102146 255 220 0
0.545823 0.161977 0.039553 255 220 0
0.521735 0.173025 0.115408 255 220 0
0.521632 0.187716 0.039731 255 220 0
0.506653 0.124495 0.064446 255 220 0
0.507319 0.185862 0.112786 255 220 0
0.564707 0.120763 0.059115 255 220 0
0.533893 0.200053 0.116024 255 220 0
0.522051 0.225786 0.110006 255 220 0
0.543731 0.113218 0.105940 255 220 0
0.574445 0.143512 0.088169 255 220 0
0.562540 0.099528 0.080998 255 220 0
0.519149 0.132340 0.110385 255 220 0
0.531312 0.183017 0.037690 255 220 0
0.540430 0.106423 0.054917 255 220 0
0.547323 0.243165 0.091028 255 220 0
0.524684 0.199810 0.116269 255 220 0
0.567128 0.206782 0.096034 255 220 0
0.497644 0.157812 0.062426 255 220 0
0.567003 0.168275 0.049621 255 220 0
0.512173 0.081220 0.083464 255 220 0
0.518742 0.217482 0.112418 255 220 0
0.500171 0.142908 0.065095 255 220 0
0.510303 0.151388 0.110699 255 220 0
0.571378 0.160938 0.054011 255 220 0
0.501489 0.132918 0.100742 255 220 0
0.494238 0.142443 0.079349 255 220 0
0.494813 0.170075 0.103908 255 220 0
0.556160 0.218635 0.104545 255 220 0
0.556574 0.113836 0.056615 255 220 0
0.538142 0.164118 0.113899 255 220 0
0.576726 0.189138 0.082825 255 220 0
0.537639 0.189380 0.115495 255 220 0
0.540947 0.126227 0.108617 255 220 0
0.522915 0.236936 0.103550 255 220 0
0.513043 0.239328 0.096482 255 220 0
0.531563 0.204955 0.115935 255 220 0
0.495341 0.167883 0.062496 255 220 0
0.514773 0.135099 0.109715 255 220 0
0.492456 0.211588 0.094769 255 220 0
0.514696 0.233805 0.058946 255 220 0
0.525546 0.242952 0.061101 255 220 0
0.496989 0.138409 0.095789 255 220 0
0.487685 0.174093 0.077794 255 220 0
0.569293 0.204936 0.062997 255 220 0
0.498866 0.144501 0.101927 255 220 0
0.578042 0.176719 0.069074 255 220 0
0.542822 0.224408 0.050168 255 220 0
0.561817 0.168109 0.045759 255 220 0
0.553434 0.201848 0.110210 255 220 0
0.519421 0.137255 0.048536 255 220 0
0.566228 0.221614 0.080488 255 220 0
0.532268 0.144823 0.042038 255 220 0
0.502522 0.163782 0.054570 255 220 0
0.559661 0.177715 0.044331 255 220 0
0.501346 0.189123 0.109767 255 220 0
0.575018 0.164329 0.058317 255 220 0
0.527862 0.090160 0.065654 255 220 0
0.528690 0.073463 0.103370 255 220 0
0.546812 0.209806 0.044970 255 220 0
0.488402 0.165038 0.088875 255 220 0
0.516254 0.157082 0.112944 255 220 0
0.539109 0.194807 0.115227 255 220 0
0.525007 0.074945 0.105927 255 220 0
0.537484 0.164207 0.038141 255 220 0
0.522982 0.071836 0.101420 255 220 0
0.580529 0.161290 0.073844 255 220 0
0.530631 0.092917 0.063224 255 220 0
0.572817 0.123330 0.080801 255 220 0
0.499834 0.136556 0.099994 255 220 0
0.527793 0.089905 0.110034 255 220 0
0.525551 0.097870 0.109977 255 220 0
0.512488 0.221922 0.053241 255 220 0
0.492099 0.148093 0.082468 255 220 0
