ply
format ascii 1.0
element vertex 1024
property float x
property float y
property float z
property uchar red
property uchar green
property uchar blue
end_header
0.159605 0.165924 0.069887 255 220 0
0.204831 0.135914 0.073627 255 220 0
0.210248 0.147744 0.084990 255 220 0
0.119958 0.217689 0.076731 255 220 0
0.212324 0.197570 0.088010 255 220 0
0.221943 0.190878 0.054359 255 220 0
0.147011 0.179752 0.074229 255 220 0
0.160407 0.167146 0.050688 255 220 0
0.228646 0.159798 0.041304 255 220 0
0.182437 0.160002 0.024224 255 220 0
0.224126 0.176586 0.074769 255 220 0
0.211130 0.117881 0.028210 255 220 0
0.162216 0.172746 0.091046 255 220 0
0.165266 0.229579 0.022081 255 220 0
0.129331 0.222630 0.098587 255 220 0
0.177908 0.251015 0.090999 255 220 0
0.213362 0.203810 0.045888 255 220 0
0.206366 0.120258 0.024615 255 220 0
0.156583 0.269901 0.063312 255 220 0
0.176854 0.148560 0.056647 255 220 0
0.129999 0.249616 0.099196 255 220 0
0.144994 0.244539 0.029765 255 220 0
0.211729 0.117159 0.038770 255 220 0
0.223501 0.183048 0.073255 255 220 0
0.217968 0.178656 0.034154 255 220 0
0.156384 0.258312 0.040461 255 220 0
0.122400 0.266232 0.069439 255 220 0
0.169002 0.188725 0.107707 255 220 0
0.152030 0.266248 0.089465 255 220 0
0.226960 0.172743 0.049120 255 220 0
0.179098 0.252484 0.047631 255 220 0
0.170215 0.177744 0.102908 255 220 0
0.197491 0.171579 0.019072 255 220 0
0.213903 0.147846 0.083076 255 220 0
0.208746 0.193490 0.031653 255 220 0
0.183424 0.141508 0.049251 255 220 0
0.141687 0.198570 0.096029 255 220 0
0.133713 0.241895 0.034614 255 220 0
0.150998 0.177125 0.054070 255 220 0
0.133381 0.267403 0.088823 255 220 0
0.187703 0.200265 0.107554 255 220 0
0.229340 0.132968 0.036317 255 220 0
0.135149 0.194070 0.069306 255 220 0
0.187215 0.137404 0.045928 255 220 0
0.162696 0.208914 0.110879 255 220 0
0.214230 0.209177 0.075847 255 220 0
0.165474 0.266331 0.066318 255 220 0
0.154061 0.227681 0.109122 255 220 0
0.217622 0.180839 0.085237 255 220 0
0.140049 0.268880 0.088836 255 220 0
0.219627 0.130067 0.019776 255 220 0
0.127480 0.228004 0.098612 255 220 0
0.167961 0.158372 0.073902 255 220 0
0.207673 0.117610 0.037782 255 220 0
0.117649 0.223953 0.064925 255 220 0
0.210104 0.164321 0.021232 255 220 0
0.124533 0.208924 0.074496 255 220 0
0.153533 0.225073 0.021839 255 220 0
0.156507 0.244946 0.028531 255 220 0
0.177387 0.170897 0.101408 255 220 0
0.175444 0.256709 0.085854 255 220 0
0.125432 0.267358 0.081043 255 220 0
0.215302 0.208550 0.072462 255 220 0
0.139300 0.233602 0.029236 255 220 0
0.163948 0.165129 0.045315 255 220 0
0.195244 0.243277 0.065583 255 220 0
0.183382 0.143535 0.038360 255 220 0
0.219061 0.199656 0.057280 255 220 0
0.162133 0.210111 0.018946 255 220 0
0.148091 0.179007 0.061925 255 220 0
0.226077 0.179785 0.058654 255 220 0
0.197220 0.240426 0.072465 255 220 0
0.196363 0.217129 0.098640 255 220 0
0.186624 0.241015 0.092551 255 220 0
0.185991 0.249437 0.082883 255 220 0
0.121465 0.214036 0.070522 255 220 0
0.124008 0.260378 0.088510 255 220 0
0.153534 0.218277 0.109715 255 220 0
0.169781 0.192148 0.019059 255 220 0
0.145664 0.239816 0.027499 255 220 0
0.150027 0.262202 0.043305 255 220 0
0.220527 0.170329 0.032666 255 220 0
0.192385 0.243954 0.055510 255 220 0
0.205803 0.195777 0.095903 255 220 0
0.231216 0.147564 0.045037 255 220 0
0.164094 0.208935 0.110989 255 220 0
0.161817 0.265894 0.056538 255 220 0
0.198006 0.149626 0.017924 255 220 0
0.171160 0.197763 0.109836 255 220 0
0.194265 0.134034 0.062828 255 220 0
0.226942 0.125441 0.042109 255 220 0
0.208253 0.214404 0.085088 255 220 0
0.190311 0.235366 0.093692 255 220 0
0.172337 0.253425 0.092805 255 220 0
0.151750 0.174407 0.064534 255 220 0
0.168755 0.165526 0.035634 255 220 0
0.135578 0.199488 0.088190 255 220 0
0.211654 0.170390 0.091750 255 220 0
0.132052 0.198824 0.065353 255 220 0
0.139085 0.200462 0.041166 255 220 0
0.124263 0.218377 0.050779 255 220 0
0.193661 0.196240 0.021507 255 220 0
0.189019 0.236855 0.039659 255 220 0
0.228793 0.136670 0.032735 255 220 0
0.183082 0.236947 0.033928 255 220 0
0.171254 0.191693 0.018730 255 220 0
0.167620 0.157890 0.066292 255 220 0
0.187659 0.138866 0.034693 255 220 0
0.155598 0.170618 0.060290 255 220 0
0.165289 0.206618 0.110819 255 220 0
0.187777 0.245354 0.048225 255 220 0
0.123793 0.242968 0.096116 255 220 0
0.219394 0.184095 0.040125 255 220 0
0.126482 0.250665 0.044248 255 220 0
0.120231 0.241017 0.050413 255 220 0
0.149028 0.186729 0.040869 255 220 0
0.125511 0.221785 0.045854 255 220 0
0.119029 0.244356 0.089563 255 220 0
0.205819 0.218239 0.086515 255 220 0
0.154241 0.262814 0.092751 255 220 0
0.115704 0.241090 0.082035 255 220 0
0.180579 0.249249 0.090454 255 220 0
0.203985 0.174288 0.021125 255 220 0
0.184847 0.153224 0.025073 255 220 0
0.207523 0.184086 0.026105 255 220 0
0.165833 0.163640 0.082464 255 220 0
0.206628 0.179747 0.096847 255 220 0
0.201122 0.235538 0.067002 255 220 0
0.177029 0.258988 0.064368 255 220 0
0.213792 0.205309 0.081021 255 220 0
0.149813 0.264841 0.092155 255 220 0
0.194388 0.137320 0.069904 255 220 0
0.223390 0.182347 0.074094 255 220 0
0.149521 0.242007 0.027326 255 220 0
0.138059 0.251903 0.101499 255 220 0
0.200000 0.203972 0.028288 255 220 0
0.193707 0.199910 0.104621 255 220 0
0.142529 0.185212 0.065359 255 220 0
0.220313 0.155219 0.025132 255 220 0
0.146028 0.271244 0.058783 255 220 0
0.170259 0.157469 0.045630 255 220 0
0.225357 0.182269 0.058471 255 220 0
0.195856 0.126967 0.041454 255 220 0
0.146920 0.182888 0.082706 255 220 0
0.141621 0.188090 0.080995 255 220 0
0.188663 0.152641 0.088844 255 220 0
0.184445 0.171941 0.103974 255 220 0
0.178093 0.249231 0.042033 255 220 0
0.128574 0.256802 0.094968 255 220 0
0.225240 0.182847 0.061082 255 220 0
0.155343 0.171162 0.058319 255 220 0
0.230125 0.160364 0.055965 255 220 0
0.209475 0.200276 0.090691 255 220 0
0.195565 0.225606 0.095218 255 220 0
0.211608 0.213224 0.078898 255 220 0
0.201362 0.207842 0.031713 255 220 0
0.212273 0.167407 0.090739 255 220 0
0.194057 0.181540 0.105025 255 220 0
0.170106 0.263719 0.067388 255 220 0
0.178933 0.201729 0.017662 255 220 0
0.143867 0.185956 0.053948 255 220 0
0.208855 0.124460 0.019367 255 220 0
0.190947 0.239721 0.088625 255 220 0
0.219884 0.189401 0.078934 255 220 0
0.119488 0.217918 0.069712 255 220 0
0.147335 0.273459 0.068528 255 220 0
0.173854 0.178085 0.104780 255 220 0
0.219508 0.172588 0.083122 255 220 0
0.154093 0.183896 0.095190 255 220 0
0.228585 0.144389 0.062461 255 220 0
0.176198 0.238636 0.030490 255 220 0
0.207543 0.172710 0.022331 255 220 0
0.118989 0.261166 0.067924 255 220 0
0.170582 0.197211 0.109719 255 220 0
0.183525 0.249365 0.086907 255 220 0
0.210607 0.202618 0.088236 255 220 0
0.134338 0.267314 0.053916 255 220 0
0.116763 0.227760 0.079985 255 220 0
0.152521 0.248722 0.103438 255 220 0
0.149028 0.254219 0.101009 255 220 0
0.120235 0.262006 0.064821 255 220 0
0.209991 0.169119 0.093142 255 220 0
0.222959 0.159795 0.077284 255 220 0
0.140681 0.265428 0.092850 255 220 0
0.166928 0.244612 0.102124 255 220 0
0.182767 0.244251 0.093324 255 220 0
0.227983 0.170646 0.051832 255 220 0
0.192658 0.239993 0.085610 255 220 0
0.190025 0.179788 0.106204 255 220 0
0.163916 0.178775 0.028929 255 220 0
0.146165 0.269415 0.054351 255 220 0
0.212475 0.214721 0.073736 255 220 0
0.179796 0.218471 0.108116 255 220 0
0.196122 0.155492 0.093665 255 220 0
0.177224 0.149631 0.043627 255 220 0
0.198676 0.128001 0.055446 255 220 0
0.174796 0.230812 0.024871 255 220 0
0.218375 0.171172 0.030393 255 220 0
0.136762 0.253057 0.100675 255 220 0
0.169432 0.158415 0.045757 255 220 0
0.129594 0.201383 0.073483 255 220 0
0.115227 0.242498 0.064331 255 220 0
0.146379 0.180240 0.072566 255 220 0
0.203737 0.119546 0.028650 255 220 0
0.213130 0.209670 0.078588 255 220 0
0.118983 0.247856 0.054472 255 220 0
0.208415 0.117462 0.038000 255 220 0
0.125769 0.211891 0.054743 255 220 0
0.224400 0.185247 0.057886 255 220 0
0.138687 0.254192 0.037326 255 220 0
0.117572 0.229251 0.059558 255 220 0
0.129112 0.244590 0.039183 255 220 0
0.195258 0.219644 0.032528 255 220 0
0.229665 0.159370 0.061057 255 220 0
0.172242 0.154692 0.046814 255 220 0
0.126981 0.206408 0.079402 255 220 0
0.197946 0.149668 0.017942 255 220 0
0.208160 0.129814 0.065848 255 220 0
0.153935 0.219930 0.021374 255 220 0
0.153213 0.271911 0.070236 255 220 0
0.194424 0.135971 0.067359 255 220 0
0.174977 0.175444 0.022393 255 220 0
0.186833 0.207982 0.020914 255 220 0
0.181270 0.159051 0.025658 255 220 0
0.167622 0.220848 0.019740 255 220 0
0.165984 0.249619 0.099344 255 220 0
0.148787 0.270106 0.056730 255 220 0
0.145774 0.267807 0.051040 255 220 0
0.144683 0.182105 0.070659 255 220 0
0.202505 0.213175 0.036577 255 220 0
0.153919 0.193444 0.103464 255 220 0
0.189104 0.209497 0.022484 255 220 0
0.129503 0.225237 0.038514 255 220 0
0.228317 0.169219 0.051635 255 220 0
0.150779 0.176012 0.060795 255 220 0
0.114478 0.238502 0.075132 255 220 0
0.185609 0.158277 0.093735 255 220 0
0.135669 0.273455 0.068005 255 220 0
0.187781 0.248284 0.054329 255 220 0
0.121132 0.241395 0.048841 255 220 0
0.220517 0.185374 0.079515 255 220 0
0.127324 0.206855 0.059817 255 220 0
0.155672 0.269739 0.061229 255 220 0
0.167898 0.258658 0.090061 255 220 0
0.188793 0.198592 0.107233 255 220 0
0.173775 0.153555 0.074906 255 220 0
0.169713 0.163241 0.087187 255 220 0
0.224605 0.169794 0.039128 255 220 0
0.117784 0.242621 0.087435 255 220 0
0.135676 0.251188 0.036959 255 220 0
0.144009 0.261468 0.042146 255 220 0
0.217863 0.202901 0.070232 255 220 0
0.164767 0.263849 0.084419 255 220 0
0.129389 0.201681 0.073626 255 220 0
0.201088 0.124926 0.023382 255 220 0
0.135311 0.204112 0.093189 255 220 0
0.156594 0.251692 0.033794 255 220 0
0.152833 0.176145 0.050504 255 220 0
0.207272 0.192005 0.095201 255 220 0
0.200708 0.127036 0.056305 255 220 0
0.195357 0.228661 0.093427 255 220 0
0.164771 0.160874 0.061112 255 220 0
0.202292 0.172674 0.099622 255 220 0
0.146989 0.268348 0.052233 255 220 0
0.170296 0.204670 0.017597 255 220 0
0.169208 0.239672 0.103987 255 220 0
0.135351 0.242920 0.103195 255 220 0
0.200465 0.204619 0.029044 255 220 0
0.217380 0.203643 0.071471 255 220 0
0.140540 0.229335 0.105777 255 220 0
0.183790 0.174740 0.105265 255 220 0
0.125021 0.253870 0.047921 255 220 0
0.190513 0.211639 0.104602 255 220 0
0.222232 0.188613 0.072786 255 220 0
0.155470 0.266916 0.053311 255 220 0
0.221412 0.166182 0.080201 255 220 0
0.202562 0.159865 0.018241 255 220 0
0.180283 0.152129 0.082101 255 220 0
0.177454 0.152798 0.036706 255 220 0
0.197491 0.239815 0.061466 255 220 0
0.230839 0.144472 0.040808 255 220 0
0.181491 0.143863 0.046418 255 220 0
0.217145 0.176695 0.031932 255 220 0
0.172310 0.209294 0.110802 255 220 0
0.139982 0.203377 0.098065 255 220 0
0.171239 0.257284 0.089262 255 220 0
0.122473 0.219489 0.053973 255 220 0
0.221032 0.194382 0.069853 255 220 0
0.206604 0.194189 0.095457 255 220 0
0.172599 0.261224 0.079191 255 220 0
0.138255 0.194120 0.051848 255 220 0
0.191744 0.199090 0.105819 255 220 0
0.171666 0.159934 0.037935 255 220 0
0.168642 0.191171 0.019725 255 220 0
0.159496 0.170448 0.045381 255 220 0
0.182630 0.163920 0.097876 255 220 0
0.176273 0.256201 0.051075 255 220 0
0.182648 0.171984 0.103755 255 220 0
0.129980 0.202246 0.062298 255 220 0
0.191375 0.241115 0.086218 255 220 0
0.183845 0.246823 0.044853 255 220 0
0.196130 0.242106 0.070734 255 220 0
0.144410 0.226603 0.025670 255 220 0
0.176624 0.253664 0.089085 255 220 0
0.190579 0.163734 0.099621 255 220 0
0.173067 0.179961 0.021579 255 220 0
0.143522 0.210455 0.104469 255 220 0
0.134513 0.214494 0.099449 255 220 0
0.157550 0.195567 0.024248 255 220 0
0.124248 0.256257 0.050837 255 220 0
0.178844 0.236066 0.030177 255 220 0
0.183396 0.151217 0.028013 255 220 0
0.194319 0.133143 0.060597 255 220 0
0.167032 0.265340 0.074528 255 220 0
0.206231 0.227657 0.065471 255 220 0
0.210552 0.134682 0.072914 255 220 0
0.126174 0.230573 0.098002 255 220 0
0.198781 0.238459 0.063246 255 220 0
0.150184 0.256330 0.037097 255 220 0
0.172682 0.172030 0.025577 255 220 0
0.211446 0.123466 0.020014 255 220 0
0.191769 0.226738 0.033977 255 220 0
0.220930 0.122095 0.028176 255 220 0
0.182556 0.143698 0.041104 255 220 0
0.126622 0.216836 0.092278 255 220 0
0.201473 0.205306 0.030393 255 220 0
0.159177 0.181572 0.097944 255 220 0
0.172314 0.181604 0.106055 255 220 0
0.208418 0.127722 0.062670 255 220 0
0.187436 0.137824 0.039199 255 220 0
0.177397 0.172814 0.102812 255 220 0
0.142648 0.198847 0.097391 255 220 0
0.121781 0.264358 0.079522 255 220 0
0.216989 0.120573 0.025634 255 220 0
0.120082 0.224421 0.055807 255 220 0
0.198614 0.149703 0.017755 255 220 0
0.182709 0.253875 0.058302 255 220 0
0.175454 0.227189 0.023358 255 220 0
0.193370 0.238535 0.086403 255 220 0
0.175233 0.178029 0.021303 255 220 0
0.199765 0.132345 0.019863 255 220 0
0.189881 0.196136 0.019907 255 220 0
0.215770 0.170890 0.027499 255 220 0
0.166341 0.163915 0.083756 255 220 0
0.118147 0.220879 0.070558 255 220 0
0.131124 0.199441 0.069908 255 220 0
0.177411 0.198721 0.017405 255 220 0
0.149720 0.199251 0.103957 255 220 0
0.119535 0.219893 0.062973 255 220 0
0.201984 0.169757 0.019619 255 220 0
0.211510 0.189645 0.091261 255 220 0
0.135101 0.193948 0.072570 255 220 0
0.175719 0.176689 0.104643 255 220 0
0.149557 0.206524 0.025716 255 220 0
0.187344 0.201273 0.107618 255 220 0
0.180986 0.229285 0.026976 255 220 0
0.168327 0.157259 0.061121 255 220 0
0.128693 0.229398 0.099825 255 220 0
0.166922 0.250128 0.098582 255 220 0
0.164452 0.188669 0.022689 255 220 0
0.186524 0.138329 0.051219 255 220 0
0.221199 0.127863 0.061544 255 220 0
0.199021 0.187752 0.102306 255 220 0
0.175421 0.259765 0.077102 255 220 0
0.193417 0.240841 0.051390 255 220 0
0.181878 0.230323 0.028165 255 220 0
0.176872 0.189501 0.109082 255 220 0
0.161864 0.222365 0.020103 255 220 0
0.225420 0.139708 0.026026 255 220 0
0.195957 0.218469 0.098465 255 220 0
0.169057 0.215596 0.018699 255 220 0
0.125604 0.238264 0.098125 255 220 0
0.181054 0.144648 0.062114 255 220 0
0.146344 0.270171 0.085913 255 220 0
0.176598 0.191929 0.109387 255 220 0
0.199918 0.233648 0.053848 255 220 0
0.185636 0.252453 0.074515 255 220 0
0.144006 0.274214 0.074130 255 220 0
0.140610 0.263622 0.045189 255 220 0
0.224816 0.165578 0.074837 255 220 0
0.227564 0.168473 0.067083 255 220 0
0.186931 0.223555 0.027468 255 220 0
0.144505 0.203678 0.031587 255 220 0
0.179476 0.146719 0.044055 255 220 0
0.207283 0.210761 0.088918 255 220 0
0.173848 0.156116 0.081068 255 220 0
0.134199 0.265150 0.050535 255 220 0
0.204426 0.121646 0.023887 255 220 0
0.171723 0.214209 0.018577 255 220 0
0.228771 0.167938 0.059463 255 220 0
0.162739 0.163849 0.076024 255 220 0
0.199726 0.237453 0.065581 255 220 0
0.202555 0.232359 0.075141 255 220 0
0.216688 0.202092 0.076627 255 220 0
0.122625 0.254400 0.090984 255 220 0
0.135626 0.232112 0.031758 255 220 0
0.230088 0.141624 0.036896 255 220 0
0.168197 0.208732 0.111042 255 220 0
0.204028 0.216160 0.090555 255 220 0
0.171354 0.260218 0.084348 255 220 0
0.189467 0.147395 0.023148 255 220 0
0.192155 0.151812 0.020097 255 220 0
0.193976 0.229035 0.038335 255 220 0
0.160824 0.244457 0.103985 255 220 0
0.156612 0.243809 0.027793 255 220 0
0.156277 0.217107 0.110314 255 220 0
0.187835 0.210476 0.106307 255 220 0
0.181921 0.143975 0.043024 255 220 0
0.142453 0.247069 0.103970 255 220 0
0.227902 0.143978 0.064074 255 220 0
0.221583 0.173369 0.080154 255 220 0
0.231093 0.150943 0.046408 255 220 0
0.174260 0.222469 0.108858 255 220 0
0.133961 0.224680 0.033758 255 220 0
0.140025 0.194615 0.089126 255 220 0
0.125944 0.256819 0.092939 255 220 0
0.175505 0.250687 0.041743 255 220 0
0.136302 0.192741 0.075680 255 220 0
0.182171 0.200938 0.018156 255 220 0
0.216863 0.194121 0.043751 255 220 0
0.169294 0.263933 0.075144 255 220 0
0.175025 0.153914 0.040341 255 220 0
0.164194 0.221338 0.019795 255 220 0
0.182331 0.242419 0.095256 255 220 0
0.168135 0.191012 0.108139 255 220 0
0.214057 0.130244 0.067203 255 220 0
0.156703 0.237065 0.024351 255 220 0
0.220793 0.173780 0.035178 255 220 0
0.220366 0.169954 0.081871 255 220 0
0.192964 0.219309 0.100669 255 220 0
0.156014 0.255679 0.098618 255 220 0
0.182011 0.226364 0.104763 255 220 0
0.187349 0.180280 0.018678 255 220 0
0.121782 0.256544 0.088595 255 220 0
0.231284 0.149662 0.048806 255 220 0
0.190341 0.140630 0.072091 255 220 0
0.170124 0.263095 0.061261 255 220 0
0.223033 0.122515 0.032154 255 220 0
0.130789 0.242014 0.101335 255 220 0
0.195616 0.134102 0.064864 255 220 0
0.141835 0.187727 0.080734 255 220 0
0.228350 0.140292 0.031715 255 220 0
0.131235 0.250759 0.039753 255 220 0
0.131410 0.271682 0.079247 255 220 0
0.228532 0.167606 0.050169 255 220 0
0.211461 0.127362 0.062871 255 220 0
0.159230 0.166925 0.058093 255 220 0
0.184487 0.158979 0.093939 255 220 0
0.169285 0.226755 0.108873 255 220 0
0.156608 0.203925 0.021959 255 220 0
0.222890 0.155484 0.028041 255 220 0
0.135096 0.233663 0.032257 255 220 0
0.166440 0.262078 0.052387 255 220 0
0.218113 0.198535 0.076217 255 220 0
0.197734 0.155985 0.018099 255 220 0
0.156175 0.177049 0.041413 255 220 0
0.144222 0.234147 0.106658 255 220 0
0.158860 0.168701 0.051389 255 220 0
0.223092 0.123375 0.051963 255 220 0
0.138568 0.189525 0.072432 255 220 0
0.182399 0.202939 0.109134 255 220 0
0.191494 0.133883 0.054865 255 220 0
0.176932 0.251925 0.090847 255 220 0
0.185212 0.144551 0.073790 255 220 0
0.156021 0.228711 0.021920 255 220 0
0.151720 0.230825 0.023141 255 220 0
0.124099 0.210869 0.079180 255 220 0
0.135272 0.202283 0.091230 255 220 0
0.190328 0.173369 0.104458 255 220 0
0.164781 0.188317 0.022639 255 220 0
0.218541 0.136524 0.072752 255 220 0
0.167301 0.265394 0.071467 255 220 0
0.124645 0.259929 0.053893 255 220 0
0.179515 0.169659 0.022355 255 220 0
0.181652 0.149691 0.079425 255 220 0
0.206221 0.191583 0.096254 255 220 0
0.197737 0.238149 0.077605 255 220 0
0.212997 0.117789 0.042431 255 220 0
0.214142 0.117040 0.035762 255 220 0
0.118820 0.231422 0.054850 255 220 0
0.215386 0.191383 0.039005 255 220 0
0.130366 0.214012 0.095072 255 220 0
0.193396 0.150127 0.019703 255 220 0
0.201480 0.208983 0.096672 255 220 0
0.184931 0.249851 0.084053 255 220 0
0.138008 0.232969 0.104895 255 220 0
0.229798 0.161008 0.048368 255 220 0
0.148056 0.193650 0.034905 255 220 0
0.210939 0.216945 0.056584 255 220 0
0.229903 0.160874 0.049133 255 220 0
0.172020 0.162421 0.088643 255 220 0
0.172688 0.152882 0.058830 255 220 0
0.187820 0.141543 0.070835 255 220 0
0.183471 0.158414 0.092804 255 220 0
0.189931 0.165352 0.100622 255 220 0
0.117743 0.256475 0.079719 255 220 0
0.175082 0.197965 0.109946 255 220 0
0.145869 0.263969 0.094047 255 220 0
0.129621 0.208118 0.050287 255 220 0
0.203462 0.123413 0.051989 255 220 0
0.210108 0.213839 0.081906 255 220 0
0.172649 0.177533 0.103962 255 220 0
0.183913 0.142771 0.038430 255 220 0
0.203141 0.214550 0.038408 255 220 0
0.167731 0.263859 0.080294 255 220 0
0.124104 0.211467 0.061634 255 220 0
0.214082 0.208680 0.076952 255 220 0
0.175716 0.187038 0.018666 255 220 0
0.165778 0.179088 0.101132 255 220 0
0.176715 0.197956 0.017384 255 220 0
0.204395 0.229928 0.073832 255 220 0
0.198377 0.155457 0.093592 255 220 0
0.140457 0.247430 0.103531 255 220 0
0.167199 0.243759 0.102516 255 220 0
0.208718 0.217394 0.050655 255 220 0
0.226820 0.163319 0.039094 255 220 0
0.199290 0.144346 0.017638 255 220 0
0.142155 0.271821 0.059965 255 220 0
0.190982 0.202148 0.105903 255 220 0
0.207448 0.218535 0.083283 255 220 0
0.230746 0.138467 0.041626 255 220 0
0.148038 0.217433 0.107991 255 220 0
0.218603 0.132634 0.018562 255 220 0
0.177953 0.154840 0.033111 255 220 0
0.170455 0.227330 0.022066 255 220 0
0.145405 0.201655 0.102008 255 220 0
0.174002 0.151725 0.066050 255 220 0
0.214300 0.196098 0.040858 255 220 0
0.139165 0.207628 0.035150 255 220 0
0.120679 0.257674 0.057932 255 220 0
0.134197 0.195410 0.075487 255 220 0
0.191717 0.164653 0.019115 255 220 0
0.176122 0.169515 0.024435 255 220 0
0.199049 0.234834 0.053788 255 220 0
0.196179 0.126081 0.036519 255 220 0
0.228622 0.151114 0.064897 255 220 0
0.207308 0.194273 0.094757 255 220 0
0.214508 0.211357 0.061305 255 220 0
0.125119 0.237181 0.097700 255 220 0
0.173384 0.231724 0.106134 255 220 0
0.151847 0.263174 0.045052 255 220 0
0.168292 0.263019 0.057081 255 220 0
0.181874 0.212010 0.108561 255 220 0
0.122293 0.242925 0.094477 255 220 0
0.198120 0.233473 0.084847 255 220 0
0.173664 0.216836 0.019359 255 220 0
0.217269 0.198920 0.049504 255 220 0
0.170628 0.206030 0.110780 255 220 0
0.195630 0.160991 0.018532 255 220 0
0.229491 0.132525 0.037817 255 220 0
0.229941 0.133584 0.041675 255 220 0
0.193096 0.130627 0.044402 255 220 0
0.114385 0.238499 0.073647 255 220 0
0.116899 0.253445 0.079874 255 220 0
0.195148 0.235594 0.046726 255 220 0
0.116742 0.232430 0.060385 255 220 0
0.122126 0.236090 0.094446 255 220 0
0.120780 0.247355 0.050822 255 220 0
0.168743 0.239791 0.104077 255 220 0
0.120216 0.234465 0.050823 255 220 0
0.135109 0.251436 0.037419 255 220 0
0.211688 0.139296 0.077843 255 220 0
0.204388 0.215246 0.040721 255 220 0
0.140836 0.186829 0.068876 255 220 0
0.156256 0.257105 0.039045 255 220 0
0.216567 0.195698 0.044616 255 220 0
0.198644 0.143787 0.017929 255 220 0
0.197934 0.206510 0.027605 255 220 0
0.152280 0.231322 0.108376 255 220 0
0.166725 0.242433 0.029012 255 220 0
0.200216 0.232407 0.052371 255 220 0
0.115127 0.231338 0.069994 255 220 0
0.123618 0.234150 0.044865 255 220 0
0.199845 0.204563 0.099394 255 220 0
0.125040 0.208854 0.077875 255 220 0
0.204004 0.130517 0.065230 255 220 0
0.205977 0.137778 0.015949 255 220 0
0.141653 0.189836 0.084543 255 220 0
0.225866 0.148436 0.029213 255 220 0
0.171693 0.261115 0.081616 255 220 0
0.180636 0.192022 0.017746 255 220 0
0.135396 0.231321 0.031926 255 220 0
0.186278 0.232248 0.032885 255 220 0
0.202257 0.219729 0.090854 255 220 0
0.202654 0.216591 0.092107 255 220 0
0.120356 0.221867 0.084904 255 220 0
0.182573 0.173288 0.020107 255 220 0
0.157749 0.270128 0.072546 255 220 0
0.120874 0.219449 0.083483 255 220 0
0.123833 0.212069 0.061239 255 220 0
0.131458 0.228532 0.035628 255 220 0
0.125802 0.262531 0.088474 255 220 0
0.195855 0.235622 0.086062 255 220 0
0.155767 0.256408 0.098144 255 220 0
0.125453 0.212350 0.054936 255 220 0
0.170958 0.154629 0.059895 255 220 0
0.205923 0.126176 0.059056 255 220 0
0.197588 0.213407 0.030944 255 220 0
0.177196 0.193868 0.017573 255 220 0
0.213637 0.162438 0.088458 255 220 0
0.162994 0.228092 0.021443 255 220 0
0.164280 0.201495 0.109917 255 220 0
0.157846 0.168937 0.076924 255 220 0
0.181318 0.179050 0.019203 255 220 0
0.179483 0.159310 0.091266 255 220 0
0.219879 0.168917 0.082453 255 220 0
0.209415 0.205224 0.088695 255 220 0
0.160150 0.192438 0.106197 255 220 0
0.115057 0.235122 0.066222 255 220 0
0.205647 0.207639 0.092583 255 220 0
0.126583 0.219770 0.094338 255 220 0
0.124811 0.210844 0.060093 255 220 0
0.180890 0.231483 0.103095 255 220 0
0.199152 0.230667 0.086439 255 220 0
0.221384 0.137531 0.071282 255 220 0
0.216049 0.120123 0.025625 255 220 0
0.169864 0.205147 0.017640 255 220 0
0.192452 0.139561 0.072208 255 220 0
0.114776 0.246188 0.071319 255 220 0
0.128748 0.213555 0.046113 255 220 0
0.169497 0.159303 0.080305 255 220 0
0.218477 0.184112 0.083481 255 220 0
0.117931 0.222122 0.076181 255 220 0
0.204489 0.192277 0.097693 255 220 0
0.198515 0.191287 0.022784 255 220 0
0.225102 0.181212 0.053042 255 220 0
0.144228 0.184661 0.056688 255 220 0
0.117340 0.223347 0.074977 255 220 0
0.207457 0.220081 0.081717 255 220 0
0.160225 0.165577 0.060954 255 220 0
0.180742 0.195369 0.017677 255 220 0
0.153994 0.237612 0.024720 255 220 0
0.186471 0.139974 0.063083 255 220 0
0.193202 0.245577 0.065439 255 220 0
0.151221 0.182495 0.042672 255 220 0
0.149515 0.237019 0.025295 255 220 0
0.175885 0.152456 0.040960 255 220 0
0.182944 0.209476 0.108505 255 220 0
0.228702 0.139707 0.032519 255 220 0
0.153973 0.269782 0.081575 255 220 0
0.147981 0.272434 0.079487 255 220 0
0.167617 0.158507 0.073015 255 220 0
0.134207 0.240212 0.033865 255 220 0
0.120641 0.264050 0.075735 255 220 0
0.219959 0.172563 0.082519 255 220 0
0.135106 0.221507 0.033364 255 220 0
0.204564 0.211101 0.037774 255 220 0
0.197536 0.240004 0.072537 255 220 0
0.223701 0.146375 0.072940 255 220 0
0.224278 0.182457 0.051042 255 220 0
0.149165 0.183227 0.045597 255 220 0
0.193039 0.133749 0.059564 255 220 0
0.139328 0.264501 0.093619 255 220 0
0.206360 0.209227 0.038871 255 220 0
0.199469 0.189599 0.101883 255 220 0
0.216821 0.204136 0.055497 255 220 0
0.170594 0.171993 0.027393 255 220 0
0.143226 0.274312 0.070761 255 220 0
0.138204 0.264779 0.093167 255 220 0
0.176148 0.242951 0.099029 255 220 0
0.219907 0.176569 0.035638 255 220 0
0.154851 0.266959 0.052984 255 220 0
0.136826 0.230670 0.030783 255 220 0
0.125914 0.226502 0.096770 255 220 0
0.199190 0.173115 0.019532 255 220 0
0.210352 0.140900 0.079586 255 220 0
0.145610 0.231440 0.025378 255 220 0
0.206591 0.218028 0.085343 255 220 0
0.170331 0.187810 0.107771 255 220 0
0.207425 0.141558 0.015966 255 220 0
0.207024 0.211609 0.041740 255 220 0
0.124082 0.233395 0.044245 255 220 0
0.155363 0.186683 0.099423 255 220 0
0.171800 0.223228 0.020883 255 220 0
0.228488 0.129997 0.035424 255 220 0
0.178173 0.194840 0.017515 255 220 0
0.210510 0.119411 0.047530 255 220 0
0.197845 0.238917 0.059811 255 220 0
0.174181 0.250112 0.094672 255 220 0
0.161163 0.184978 0.027138 255 220 0
0.192544 0.210917 0.103488 255 220 0
0.229997 0.152097 0.040464 255 220 0
0.175382 0.154208 0.038999 255 220 0
0.204134 0.130086 0.064597 255 220 0
0.124652 0.210232 0.062682 255 220 0
0.126917 0.208942 0.056408 255 220 0
0.198264 0.131889 0.063331 255 220 0
0.192894 0.244519 0.058632 255 220 0
0.194656 0.243825 0.071483 255 220 0
0.143534 0.237693 0.027681 255 220 0
0.197993 0.236792 0.054826 255 220 0
0.137079 0.227187 0.030698 255 220 0
0.133329 0.246227 0.036234 255 220 0
0.129820 0.209826 0.090823 255 220 0
0.221858 0.183601 0.044752 255 220 0
0.184231 0.141986 0.039499 255 220 0
0.147665 0.266713 0.090570 255 220 0
0.148307 0.178222 0.073640 255 220 0
0.177048 0.154774 0.082884 255 220 0
0.213807 0.174104 0.089900 255 220 0
0.193848 0.131676 0.028921 255 220 0
0.189766 0.153392 0.021152 255 220 0
0.122634 0.216295 0.057432 255 220 0
0.200972 0.169625 0.099774 255 220 0
0.180232 0.148797 0.036720 255 220 0
0.120776 0.238241 0.092761 255 220 0
0.161838 0.237467 0.024862 255 220 0
0.201611 0.128804 0.060673 255 220 0
0.187752 0.210811 0.106288 255 220 0
0.165501 0.206950 0.110870 255 220 0
0.201447 0.133497 0.018251 255 220 0
0.133835 0.198944 0.054885 255 220 0
0.211622 0.216615 0.073806 255 220 0
0.179049 0.254527 0.051444 255 220 0
0.148855 0.177724 0.064653 255 220 0
0.213446 0.141274 0.079066 255 220 0
0.141906 0.190207 0.049911 255 220 0
0.147767 0.178898 0.074141 255 220 0
0.126843 0.266060 0.085491 255 220 0
0.189652 0.221049 0.028097 255 220 0
0.204954 0.157122 0.018092 255 220 0
0.126001 0.237125 0.041421 255 220 0
0.125324 0.257293 0.050294 255 220 0
0.215253 0.161964 0.086753 255 220 0
0.213564 0.117038 0.037152 255 220 0
0.201905 0.121421 0.043721 255 220 0
0.199035 0.122540 0.033566 255 220 0
0.223421 0.126240 0.056728 255 220 0
0.225829 0.159094 0.072543 255 220 0
0.160453 0.168597 0.082288 255 220 0
0.159350 0.188133 0.026744 255 220 0
0.226362 0.174726 0.068411 255 220 0
0.153652 0.184616 0.095518 255 220 0
0.154036 0.173341 0.054690 255 220 0
0.192580 0.161088 0.019117 255 220 0
0.182602 0.201778 0.018337 255 220 0
0.169119 0.157202 0.051509 255 220 0
0.178022 0.155581 0.085164 255 220 0
0.137256 0.257225 0.040104 255 220 0
0.156255 0.201319 0.022921 255 220 0
0.195359 0.150604 0.088901 255 220 0
0.208554 0.201763 0.091292 255 220 0
0.185525 0.139358 0.045143 255 220 0
0.114855 0.234822 0.067830 255 220 0
0.116094 0.242048 0.083194 255 220 0
0.158136 0.197669 0.107502 255 220 0
0.210074 0.155017 0.018792 255 220 0
0.225020 0.179527 0.049939 255 220 0
0.116908 0.229853 0.082366 255 220 0
0.125326 0.212391 0.055236 255 220 0
0.188890 0.138367 0.031798 255 220 0
0.147663 0.240736 0.027211 255 220 0
0.209335 0.194850 0.033111 255 220 0
0.224737 0.159840 0.032780 255 220 0
0.121508 0.265175 0.075550 255 220 0
0.185267 0.140008 0.055961 255 220 0
0.126308 0.239743 0.041238 255 220 0
0.206474 0.189746 0.096279 255 220 0
0.181738 0.143402 0.048300 255 220 0
0.196887 0.154887 0.093175 255 220 0
0.170282 0.159437 0.041470 255 220 0
0.225758 0.179452 0.053689 255 220 0
0.144868 0.244834 0.029946 255 220 0
0.170450 0.173233 0.099383 255 220 0
0.207344 0.179751 0.024402 255 220 0
0.208751 0.198391 0.092201 255 220 0
0.228211 0.165041 0.065906 255 220 0
0.178786 0.175267 0.020793 255 220 0
0.164336 0.163009 0.049617 255 220 0
0.160545 0.192213 0.106259 255 220 0
0.192956 0.228709 0.095902 255 220 0
0.214943 0.144699 0.080665 255 220 0
0.150325 0.223535 0.022788 255 220 0
0.221702 0.120840 0.033582 255 220 0
0.135353 0.208375 0.039665 255 220 0
0.136841 0.221052 0.031823 255 220 0
0.144401 0.201009 0.033470 255 220 0
0.114525 0.239286 0.075851 255 220 0
0.137544 0.211408 0.100515 255 220 0
0.137367 0.194790 0.084228 255 220 0
0.225200 0.178425 0.070533 255 220 0
0.210880 0.193385 0.034050 255 220 0
0.214212 0.146020 0.018068 255 220 0
0.192492 0.229853 0.037262 255 220 0
0.222225 0.166041 0.079055 255 220 0
0.162799 0.248392 0.101330 255 220 0
0.158834 0.268711 0.061777 255 220 0
0.228117 0.161203 0.067097 255 220 0
0.165581 0.166708 0.087053 255 220 0
0.147417 0.187511 0.042616 255 220 0
0.213235 0.180416 0.090487 255 220 0
0.144111 0.270336 0.086375 255 220 0
0.146039 0.214260 0.026035 255 220 0
0.190191 0.230432 0.035220 255 220 0
0.149948 0.252648 0.033991 255 220 0
0.174703 0.192433 0.017904 255 220 0
0.145000 0.265712 0.092376 255 220 0
0.200688 0.209456 0.031935 255 220 0
0.167174 0.264674 0.078258 255 220 0
0.216939 0.143919 0.018871 255 220 0
0.159809 0.199369 0.021459 255 220 0
0.145273 0.225308 0.107311 255 220 0
0.174719 0.151345 0.068874 255 220 0
0.182603 0.165541 0.022168 255 220 0
0.135998 0.235808 0.031782 255 220 0
0.184246 0.141249 0.042267 255 220 0
0.187928 0.250805 0.067652 255 220 0
0.200075 0.193746 0.024380 255 220 0
0.150040 0.259463 0.040168 255 220 0
0.132243 0.213912 0.097041 255 220 0
0.217412 0.118351 0.043139 255 220 0
0.153625 0.179785 0.042130 255 220 0
0.132986 0.272812 0.068639 255 220 0
0.214046 0.117068 0.033815 255 220 0
0.209608 0.211834 0.084476 255 220 0
0.132939 0.217486 0.037179 255 220 0
0.171613 0.216423 0.110521 255 220 0
0.206279 0.123586 0.054636 255 220 0
0.182696 0.224498 0.025273 255 220 0
0.167432 0.174627 0.028547 255 220 0
0.129156 0.216849 0.042859 255 220 0
0.126831 0.216982 0.092697 255 220 0
0.132715 0.253673 0.040267 255 220 0
0.142340 0.211182 0.103940 255 220 0
0.139264 0.218036 0.103968 255 220 0
0.122389 0.214541 0.080481 255 220 0
0.133588 0.204329 0.090925 255 220 0
0.128047 0.236421 0.100006 255 220 0
0.174128 0.151400 0.060331 255 220 0
0.213371 0.120816 0.051304 255 220 0
0.167754 0.158033 0.057523 255 220 0
0.132226 0.257236 0.043157 255 220 0
0.206015 0.118304 0.029666 255 220 0
0.201051 0.190876 0.100627 255 220 0
0.138942 0.274326 0.074963 255 220 0
0.171862 0.231221 0.024073 255 220 0
0.165664 0.207011 0.018222 255 220 0
0.212560 0.210911 0.051892 255 220 0
0.179966 0.174915 0.020493 255 220 0
0.197413 0.160877 0.018328 255 220 0
0.177956 0.148560 0.044131 255 220 0
0.229638 0.163738 0.054150 255 220 0
0.148971 0.177769 0.063330 255 220 0
0.123311 0.216559 0.086006 255 220 0
0.154195 0.172832 0.056149 255 220 0
0.184771 0.181656 0.107496 255 220 0
0.173923 0.158177 0.036175 255 220 0
0.175019 0.150642 0.051433 255 220 0
0.165136 0.169382 0.090140 255 220 0
0.225994 0.170734 0.043305 255 220 0
0.176164 0.259661 0.065452 255 220 0
0.155721 0.216470 0.020738 255 220 0
0.144821 0.182638 0.063891 255 220 0
0.219148 0.161552 0.082424 255 220 0
0.210991 0.156769 0.089091 255 220 0
0.146775 0.180318 0.075641 255 220 0
0.183114 0.232838 0.030746 255 220 0
0.164589 0.220462 0.110670 255 220 0
0.185507 0.202754 0.108202 255 220 0
0.175794 0.232940 0.104745 255 220 0
0.171631 0.154514 0.071235 255 220 0
0.128569 0.243383 0.039416 255 220 0
0.178410 0.147677 0.066682 255 220 0
0.167301 0.265206 0.064919 255 220 0
0.153192 0.199436 0.025790 255 220 0
0.198292 0.214418 0.097884 255 220 0
0.155311 0.230229 0.108850 255 220 0
0.195972 0.148987 0.087265 255 220 0
0.216479 0.184759 0.086156 255 220 0
0.169216 0.157791 0.048386 255 220 0
0.189259 0.220472 0.027445 255 220 0
0.191031 0.156560 0.020003 255 220 0
0.122368 0.212891 0.076209 255 220 0
0.231135 0.146356 0.043554 255 220 0
0.155437 0.246084 0.029241 255 220 0
0.162413 0.175302 0.033878 255 220 0
0.184137 0.151308 0.084252 255 220 0
0.225829 0.123901 0.044495 255 220 0
0.230513 0.137089 0.040669 255 220 0
0.132249 0.271157 0.081796 255 220 0
0.184013 0.247888 0.046549 255 220 0
0.156592 0.210248 0.110035 255 220 0
0.162869 0.174360 0.034251 255 220 0
0.128316 0.203321 0.070401 255 220 0
0.121908 0.213196 0.071528 255 220 0
0.140711 0.209760 0.032215 255 220 0
0.115493 0.238989 0.062963 255 220 0
0.193359 0.171965 0.018829 255 220 0
0.185107 0.240203 0.038714 255 220 0
0.203638 0.213304 0.092540 255 220 0
0.117027 0.252715 0.062561 255 220 0
0.201623 0.233997 0.074197 255 220 0
0.176675 0.183923 0.019149 255 220 0
0.171869 0.244445 0.032857 255 220 0
0.230847 0.155399 0.051527 255 220 0
0.199334 0.123392 0.042875 255 220 0
0.150267 0.186861 0.038743 255 220 0
0.201736 0.219194 0.091848 255 220 0
0.229275 0.133820 0.035344 255 220 0
0.216448 0.182869 0.086505 255 220 0
0.185992 0.205335 0.019943 255 220 0
0.163241 0.185429 0.104062 255 220 0
0.174902 0.221895 0.108827 255 220 0
0.215216 0.169737 0.026504 255 220 0
0.178650 0.257595 0.062013 255 220 0
0.142467 0.268855 0.088880 255 220 0
0.202415 0.189920 0.099688 255 220 0
0.194054 0.243944 0.061243 255 220 0
0.149651 0.176657 0.065910 255 220 0
0.154785 0.230118 0.022400 255 220 0
0.186763 0.203790 0.019930 255 220 0
0.184517 0.210660 0.107775 255 220 0
0.201649 0.139366 0.077235 255 220 0
0.156067 0.190074 0.102701 255 220 0
0.199312 0.232549 0.050534 255 220 0
0.216110 0.181682 0.087076 255 220 0
0.206259 0.151476 0.089048 255 220 0
0.144550 0.182680 0.065813 255 220 0
0.149713 0.255255 0.100294 255 220 0
0.174748 0.259229 0.056672 255 220 0
0.179380 0.222431 0.107227 255 220 0
0.215805 0.187909 0.086396 255 220 0
0.200204 0.219348 0.093648 255 220 0
0.121697 0.251805 0.091142 255 220 0
0.218570 0.118414 0.034959 255 220 0
0.224155 0.135974 0.066648 255 220 0
0.228564 0.128937 0.039086 255 220 0
0.151439 0.175146 0.061534 255 220 0
0.139686 0.212156 0.032126 255 220 0
0.130364 0.230622 0.036563 255 220 0
0.137657 0.274284 0.073040 255 220 0
0.116456 0.247444 0.082635 255 220 0
0.209230 0.118524 0.026728 255 220 0
0.183557 0.251846 0.053601 255 220 0
0.156424 0.195530 0.105957 255 220 0
0.225207 0.178358 0.070558 255 220 0
0.168337 0.220496 0.019693 255 220 0
0.120552 0.256044 0.087063 255 220 0
0.217943 0.173962 0.031382 255 220 0
0.174239 0.220846 0.109245 255 220 0
0.180631 0.173536 0.020656 255 220 0
0.222539 0.181208 0.076861 255 220 0
0.174328 0.237756 0.028842 255 220 0
0.200791 0.234937 0.075068 255 220 0
0.166718 0.263552 0.056311 255 220 0
0.197565 0.165744 0.099894 255 220 0
0.138769 0.240261 0.030895 255 220 0
0.158861 0.215125 0.019795 255 220 0
0.142226 0.274321 0.070008 255 220 0
0.144654 0.195140 0.038180 255 220 0
0.206036 0.119127 0.043484 255 220 0
0.208026 0.213013 0.086440 255 220 0
0.144233 0.191987 0.042341 255 220 0
0.196514 0.241747 0.069425 255 220 0
0.215399 0.184728 0.034436 255 220 0
0.141010 0.208514 0.032545 255 220 0
0.213407 0.164000 0.089017 255 220 0
0.126346 0.208699 0.059059 255 220 0
0.118019 0.236197 0.055431 255 220 0
0.183220 0.141849 0.053134 255 220 0
0.175513 0.163858 0.093544 255 220 0
0.208430 0.136993 0.075587 255 220 0
0.172165 0.163354 0.033008 255 220 0
0.199463 0.235658 0.078037 255 220 0
0.228594 0.163370 0.064901 255 220 0
0.119538 0.250551 0.088484 255 220 0
0.127627 0.211631 0.050417 255 220 0
0.133678 0.212359 0.097559 255 220 0
0.199065 0.215191 0.033746 255 220 0
0.193225 0.205435 0.104137 255 220 0
0.224349 0.139077 0.024398 255 220 0
0.121364 0.229601 0.049860 255 220 0
0.205173 0.201205 0.032103 255 220 0
0.162184 0.181333 0.028730 255 220 0
0.193307 0.195895 0.105243 255 220 0
0.182137 0.174897 0.019874 255 220 0
0.194860 0.195746 0.021982 255 220 0
0.159081 0.204952 0.020496 255 220 0
0.121584 0.221282 0.087199 255 220 0
0.220600 0.162666 0.080840 255 220 0
0.148212 0.179939 0.056119 255 220 0
0.153092 0.201720 0.106933 255 220 0
0.132398 0.199230 0.060450 255 220 0
0.173954 0.151738 0.052439 255 220 0
0.116630 0.247937 0.060626 255 220 0
0.122355 0.256867 0.054252 255 220 0
0.123922 0.213430 0.057962 255 220 0
0.193521 0.223908 0.033709 255 220 0
0.171744 0.167410 0.029756 255 220 0
0.142758 0.243119 0.029942 255 220 0
0.155445 0.270847 0.066571 255 220 0
0.146851 0.273146 0.077836 255 220 0
0.183593 0.183310 0.018444 255 220 0
0.178760 0.223795 0.023065 255 220 0
0.160956 0.226791 0.109692 255 220 0
0.174870 0.184357 0.019504 255 220 0
0.171121 0.198395 0.109921 255 220 0
0.163842 0.257943 0.093394 255 220 0
0.197175 0.209079 0.100537 255 220 0
0.127138 0.206153 0.079352 255 220 0
0.218941 0.198305 0.053984 255 220 0
0.137715 0.232205 0.104791 255 220 0
0.217917 0.203016 0.069518 255 220 0
0.201213 0.222137 0.042010 255 220 0
0.193081 0.218132 0.101016 255 220 0
0.142416 0.214713 0.028669 255 220 0
0.187362 0.195115 0.107948 255 220 0
0.231201 0.149570 0.046449 255 220 0
0.210453 0.117104 0.031701 255 220 0
0.175879 0.247643 0.095672 255 220 0
0.174994 0.210818 0.018298 255 220 0
0.156225 0.182592 0.034712 255 220 0
0.129262 0.203125 0.063033 255 220 0
0.208078 0.118283 0.027793 255 220 0
0.209081 0.218423 0.079650 255 220 0
0.213789 0.118817 0.026704 255 220 0
0.175851 0.182949 0.107462 255 220 0
0.231156 0.151991 0.050361 255 220 0
0.193334 0.152234 0.090148 255 220 0
0.180875 0.178726 0.019347 255 220 0
0.195727 0.127025 0.032202 255 220 0
0.191493 0.134124 0.031820 255 220 0
0.167217 0.265132 0.063852 255 220 0
0.189399 0.199383 0.020199 255 220 0
