ply
format ascii 1.0
element vertex 1024
property float x
property float y
property float z
property uchar red
property uchar green
property uchar blue
end_header
0.563458 0.223644 0.419572 255 220 0
0.566578 0.186251 0.380177 255 220 0
0.570677 0.199393 0.369742 255 220 0
0.559884 0.282948 0.447297 255 220 0
0.553627 0.245344 0.360060 255 220 0
0.523905 0.225939 0.363179 255 220 0
0.565249 0.240798 0.428012 255 220 0
0.545777 0.218335 0.425044 255 220 0
0.522570 0.191670 0.365470 255 220 0
0.519370 0.197772 0.414251 255 220 0
0.546915 0.218969 0.356287 255 220 0
0.531666 0.153500 0.391843 255 220 0
0.578890 0.236086 0.409176 255 220 0
0.495140 0.264851 0.421577 255 220 0
0.574902 0.292222 0.430612 255 220 0
0.544633 0.303634 0.383957 255 220 0
0.513652 0.237125 0.372257 255 220 0
0.528804 0.155684 0.397164 255 220 0
0.518381 0.317184 0.410513 255 220 0
0.553939 0.199224 0.410225 255 220 0
0.564876 0.316891 0.426135 255 220 0
0.501449 0.286024 0.435919 255 220 0
0.541140 0.156116 0.387869 255 220 0
0.543248 0.224532 0.356500 255 220 0
0.511750 0.209215 0.375263 255 220 0
0.502659 0.299243 0.419867 255 220 0
0.534099 0.324294 0.440877 255 220 0
0.585728 0.254395 0.395139 255 220 0
0.544131 0.323458 0.406559 255 220 0
0.524946 0.206441 0.362693 255 220 0
0.505352 0.290618 0.397072 255 220 0
0.585393 0.242513 0.397088 255 220 0
0.506439 0.202938 0.400348 255 220 0
0.567995 0.197959 0.366954 255 220 0
0.506219 0.224231 0.382695 255 220 0
0.548398 0.188759 0.407507 255 220 0
0.578691 0.266366 0.423185 255 220 0
0.509693 0.287979 0.445192 255 220 0
0.547374 0.230874 0.431351 255 220 0
0.547962 0.328926 0.424022 255 220 0
0.576292 0.260245 0.376174 255 220 0
0.528305 0.165388 0.370111 255 220 0
0.558457 0.255212 0.438783 255 220 0
0.546051 0.182995 0.405630 255 220 0
0.582402 0.275417 0.397239 255 220 0
0.537891 0.251524 0.360756 255 220 0
0.520108 0.312696 0.401699 255 220 0
0.575862 0.294120 0.403343 255 220 0
0.556237 0.227857 0.358301 255 220 0
0.545672 0.328627 0.417594 255 220 0
0.517297 0.159783 0.385069 255 220 0
0.573335 0.297595 0.431603 255 220 0
0.567751 0.215981 0.411460 255 220 0
0.541145 0.157213 0.391923 255 220 0
0.547616 0.285411 0.452531 255 220 0
0.507870 0.193887 0.388840 255 220 0
0.560091 0.273087 0.444956 255 220 0
0.499709 0.263567 0.433218 255 220 0
0.497209 0.283142 0.425528 255 220 0
0.584838 0.233999 0.391820 255 220 0
0.538524 0.307775 0.387198 255 220 0
0.543154 0.328333 0.434035 255 220 0
0.534856 0.249589 0.360966 255 220 0
0.506672 0.277279 0.442888 255 220 0
0.540875 0.213874 0.423798 255 220 0
0.520602 0.284032 0.377277 255 220 0
0.537984 0.187088 0.410895 255 220 0
0.523859 0.235614 0.363711 255 220 0
0.500674 0.246839 0.428178 255 220 0
0.554360 0.235860 0.431197 255 220 0
0.530905 0.216180 0.359393 255 220 0
0.527281 0.283171 0.373530 255 220 0
0.559654 0.270603 0.368776 255 220 0
0.547594 0.292848 0.376659 255 220 0
0.535954 0.297559 0.379326 255 220 0
0.555401 0.277226 0.448449 255 220 0
0.552824 0.324735 0.433824 255 220 0
0.580145 0.285858 0.404910 255 220 0
0.505704 0.228581 0.423432 255 220 0
0.501088 0.280812 0.436686 255 220 0
0.505331 0.305293 0.424328 255 220 0
0.512975 0.200496 0.374496 255 220 0
0.512163 0.282092 0.383204 255 220 0
0.563000 0.247883 0.363763 255 220 0
0.529919 0.181075 0.363485 255 220 0
0.582128 0.275125 0.395894 255 220 0
0.512566 0.310032 0.408424 255 220 0
0.513742 0.182397 0.403219 255 220 0
0.583573 0.262801 0.391194 255 220 0
0.560484 0.183652 0.393885 255 220 0
0.536956 0.160988 0.371441 255 220 0
0.545614 0.260774 0.362554 255 220 0
0.549822 0.287148 0.373603 255 220 0
0.546751 0.307802 0.388230 255 220 0
0.557491 0.231599 0.427536 255 220 0
0.530901 0.209906 0.422478 255 220 0
0.572983 0.266176 0.431369 255 220 0
0.567579 0.221910 0.363118 255 220 0
0.553931 0.259039 0.442346 255 220 0
0.530054 0.250947 0.443604 255 220 0
0.535518 0.274093 0.451817 255 220 0
0.500094 0.227191 0.399776 255 220 0
0.501735 0.271306 0.392578 255 220 0
0.523849 0.167742 0.371311 255 220 0
0.498166 0.271003 0.400012 255 220 0
0.505206 0.227693 0.422228 255 220 0
0.561286 0.213158 0.414374 255 220 0
0.535423 0.180577 0.408754 255 220 0
0.554192 0.225811 0.425869 255 220 0
0.582559 0.272659 0.395148 255 220 0
0.506370 0.282150 0.389738 255 220 0
0.566320 0.311361 0.433850 255 220 0
0.514573 0.215763 0.371210 255 220 0
0.516725 0.300902 0.447551 255 220 0
0.527523 0.295643 0.452639 255 220 0
0.532496 0.235849 0.436281 255 220 0
0.529520 0.275299 0.451829 255 220 0
0.561220 0.311684 0.440289 255 220 0
0.546032 0.265341 0.363832 255 220 0
0.547789 0.320841 0.403868 255 220 0
0.556675 0.307085 0.446338 255 220 0
0.544136 0.301183 0.381884 255 220 0
0.505526 0.204468 0.393238 255 220 0
0.522105 0.191262 0.412636 255 220 0
0.505245 0.214151 0.386954 255 220 0
0.573857 0.224094 0.409885 255 220 0
0.569795 0.233351 0.364848 255 220 0
0.523312 0.275971 0.372366 255 220 0
0.518208 0.302496 0.392556 255 220 0
0.544076 0.249779 0.359967 255 220 0
0.547630 0.323595 0.407924 255 220 0
0.565452 0.188915 0.390972 255 220 0
0.544291 0.224191 0.356420 255 220 0
0.499089 0.281800 0.432848 255 220 0
0.563941 0.317727 0.417537 255 220 0
0.501474 0.234877 0.390560 255 220 0
0.572272 0.257482 0.371595 255 220 0
0.556456 0.244017 0.434406 255 220 0
0.512176 0.184312 0.379245 255 220 0
0.516595 0.319557 0.421690 255 220 0
0.542464 0.205419 0.418840 255 220 0
0.529974 0.218567 0.359791 255 220 0
0.543863 0.169874 0.400465 255 220 0
0.571573 0.246432 0.424853 255 220 0
0.569431 0.251939 0.429665 255 220 0
0.577812 0.210463 0.387944 255 220 0
0.584875 0.234034 0.384237 255 220 0
0.501910 0.286082 0.400311 255 220 0
0.558734 0.322433 0.427899 255 220 0
0.532094 0.219970 0.358953 255 220 0
0.552304 0.225732 0.426689 255 220 0
0.534952 0.196575 0.359137 255 220 0
0.555699 0.249391 0.361461 255 220 0
0.553567 0.277430 0.369512 255 220 0
0.539715 0.256857 0.361641 255 220 0
0.502664 0.239183 0.387625 255 220 0
0.567671 0.218706 0.363280 255 220 0
0.579612 0.240756 0.373618 255 220 0
0.520858 0.309510 0.397374 255 220 0
0.498400 0.234606 0.414059 255 220 0
0.545717 0.240664 0.436852 255 220 0
0.521892 0.157202 0.396018 255 220 0
0.543492 0.289322 0.374105 255 220 0
0.546770 0.233070 0.357128 255 220 0
0.553702 0.280997 0.450039 255 220 0
0.524032 0.324415 0.416929 255 220 0
0.585974 0.242530 0.393023 255 220 0
0.557052 0.219172 0.358360 255 220 0
0.580376 0.249623 0.413870 255 220 0
0.547255 0.184479 0.360575 255 220 0
0.496259 0.273137 0.407352 255 220 0
0.506278 0.202536 0.389730 255 220 0
0.535594 0.320023 0.445249 255 220 0
0.583833 0.262402 0.391847 255 220 0
0.540186 0.299410 0.380299 255 220 0
0.552328 0.250452 0.360904 255 220 0
0.516835 0.317289 0.434750 255 220 0
0.559718 0.293988 0.447834 255 220 0
0.563126 0.311868 0.403825 255 220 0
0.559766 0.316964 0.407149 255 220 0
0.532199 0.319475 0.445004 255 220 0
0.569733 0.221614 0.364379 255 220 0
0.555911 0.204744 0.358811 255 220 0
0.550392 0.326620 0.416136 255 220 0
0.559803 0.304118 0.391371 255 220 0
0.548034 0.297009 0.379564 255 220 0
0.527888 0.205153 0.361120 255 220 0
0.540273 0.288170 0.373474 255 220 0
0.582378 0.240537 0.377226 255 220 0
0.521118 0.221026 0.427432 255 220 0
0.513339 0.316417 0.423283 255 220 0
0.534342 0.256336 0.362346 255 220 0
0.571833 0.279008 0.380905 255 220 0
0.579046 0.212781 0.378993 255 220 0
0.541900 0.195887 0.414066 255 220 0
0.555124 0.174657 0.393039 255 220 0
0.494660 0.264519 0.411588 255 220 0
0.511196 0.201062 0.377146 255 220 0
0.563103 0.318835 0.418865 255 220 0
0.542428 0.206529 0.419442 255 220 0
0.560783 0.264621 0.441590 255 220 0
0.540579 0.302748 0.452481 255 220 0
0.563753 0.240860 0.429089 255 220 0
0.533335 0.156995 0.398372 255 220 0
0.540414 0.253135 0.360804 255 220 0
0.528809 0.303511 0.451529 255 220 0
0.541202 0.156964 0.391178 255 220 0
0.541135 0.269084 0.449971 255 220 0
0.528558 0.221333 0.360476 255 220 0
0.506067 0.298852 0.437984 255 220 0
0.540844 0.288525 0.453671 255 220 0
0.513896 0.293062 0.447602 255 220 0
0.500426 0.251735 0.391454 255 220 0
0.539963 0.197433 0.358007 255 220 0
0.544067 0.202776 0.416971 255 220 0
0.564769 0.271774 0.441379 255 220 0
0.513757 0.182457 0.403263 255 220 0
0.561173 0.177334 0.380482 255 220 0
0.501173 0.258622 0.433693 255 220 0
0.524614 0.322099 0.411085 255 220 0
0.563708 0.186850 0.391968 255 220 0
0.513740 0.213124 0.419733 255 220 0
0.496820 0.239411 0.404758 255 220 0
0.521309 0.197658 0.414991 255 220 0
0.495817 0.255538 0.421338 255 220 0
0.555658 0.308022 0.392500 255 220 0
0.514498 0.317169 0.419952 255 220 0
0.511128 0.313972 0.424967 255 220 0
0.561787 0.242366 0.431054 255 220 0
0.504620 0.245346 0.384220 255 220 0
0.584072 0.261065 0.409989 255 220 0
0.497038 0.240740 0.401911 255 220 0
0.520654 0.275080 0.450078 255 220 0
0.528176 0.203702 0.361067 255 220 0
0.553814 0.232093 0.429469 255 220 0
0.551876 0.302788 0.450128 255 220 0
0.580767 0.217951 0.388405 255 220 0
0.526601 0.327134 0.427992 255 220 0
0.510646 0.286803 0.387308 255 220 0
0.525752 0.295254 0.452270 255 220 0
0.548671 0.229425 0.356888 255 220 0
0.547164 0.265747 0.447513 255 220 0
0.516835 0.316586 0.412079 255 220 0
0.543459 0.312789 0.392578 255 220 0
0.576368 0.258343 0.375491 255 220 0
0.568985 0.210468 0.406351 255 220 0
0.577186 0.224299 0.404748 255 220 0
0.517843 0.201092 0.368613 255 220 0
0.560327 0.309718 0.442393 255 220 0
0.507681 0.296737 0.441323 255 220 0
0.506151 0.305739 0.430430 255 220 0
0.534391 0.243073 0.360082 255 220 0
0.537278 0.316475 0.396675 255 220 0
0.560849 0.264989 0.441693 255 220 0
0.527286 0.160854 0.401868 255 220 0
0.575699 0.272084 0.429330 255 220 0
0.499250 0.290986 0.422785 255 220 0
0.544116 0.228368 0.430957 255 220 0
0.563450 0.243847 0.363136 255 220 0
0.555728 0.173551 0.390988 255 220 0
0.550858 0.279689 0.369888 255 220 0
0.556290 0.214909 0.418352 255 220 0
0.576102 0.228869 0.368929 255 220 0
0.511660 0.314551 0.423363 255 220 0
0.499454 0.239410 0.421744 255 220 0
0.562762 0.299648 0.389292 255 220 0
0.569605 0.310748 0.420715 255 220 0
0.501774 0.235598 0.389786 255 220 0
0.535328 0.244272 0.360020 255 220 0
0.575776 0.297897 0.416851 255 220 0
0.585110 0.237170 0.384041 255 220 0
0.519123 0.305381 0.447259 255 220 0
0.568568 0.268974 0.372995 255 220 0
0.541020 0.229774 0.357088 255 220 0
0.510962 0.311492 0.415283 255 220 0
0.556437 0.211905 0.358422 255 220 0
0.508896 0.190719 0.397476 255 220 0
0.574215 0.209886 0.398077 255 220 0
0.534492 0.196478 0.415725 255 220 0
0.517706 0.278979 0.377017 255 220 0
0.527463 0.176975 0.365661 255 220 0
0.545484 0.190470 0.409935 255 220 0
0.510752 0.206908 0.377035 255 220 0
0.579690 0.273356 0.388240 255 220 0
0.579087 0.271837 0.423449 255 220 0
0.542413 0.310448 0.389911 255 220 0
0.538384 0.276588 0.452275 255 220 0
0.536513 0.234388 0.358403 255 220 0
0.563009 0.246090 0.363379 255 220 0
0.531623 0.310442 0.391458 255 220 0
0.542171 0.248828 0.441683 255 220 0
0.574158 0.257607 0.373140 255 220 0
0.534335 0.204825 0.419753 255 220 0
0.506967 0.228187 0.424406 255 220 0
0.540042 0.219855 0.427213 255 220 0
0.583034 0.225184 0.389044 255 220 0
0.507705 0.295828 0.398060 255 220 0
0.585131 0.234448 0.385982 255 220 0
0.550446 0.261685 0.444832 255 220 0
0.540713 0.289709 0.374318 255 220 0
0.503839 0.283373 0.394331 255 220 0
0.525384 0.284414 0.374895 255 220 0
0.504882 0.268467 0.440252 255 220 0
0.542252 0.305751 0.385434 255 220 0
0.582587 0.223610 0.381071 255 220 0
0.511776 0.217458 0.421175 255 220 0
0.581112 0.279498 0.417057 255 220 0
0.577452 0.283790 0.426588 255 220 0
0.512160 0.236416 0.432659 255 220 0
0.520987 0.308697 0.446687 255 220 0
0.496284 0.270033 0.405335 255 220 0
0.525859 0.190743 0.413283 255 220 0
0.558837 0.182102 0.394697 255 220 0
0.527356 0.314068 0.397649 255 220 0
0.523664 0.267012 0.369173 255 220 0
0.564934 0.183477 0.375242 255 220 0
0.572145 0.300066 0.432678 255 220 0
0.519469 0.277999 0.375405 255 220 0
0.502055 0.297880 0.427041 255 220 0
0.518470 0.211609 0.421278 255 220 0
0.522175 0.155862 0.393518 255 220 0
0.499884 0.259546 0.393270 255 220 0
0.527467 0.154906 0.382138 255 220 0
0.540565 0.188332 0.410731 255 220 0
0.572250 0.285559 0.436022 255 220 0
0.502443 0.236413 0.388304 255 220 0
0.582389 0.247134 0.408523 255 220 0
0.586147 0.246537 0.393561 255 220 0
0.559097 0.174330 0.381582 255 220 0
0.539873 0.181142 0.407605 255 220 0
0.585341 0.236201 0.391084 255 220 0
0.579541 0.266822 0.421797 255 220 0
0.543911 0.326006 0.438354 255 220 0
0.526826 0.153670 0.386867 255 220 0
0.538730 0.282278 0.453230 255 220 0
0.513405 0.182262 0.402697 255 220 0
0.513329 0.294453 0.389964 255 220 0
0.494545 0.260558 0.411968 255 220 0
0.541352 0.286919 0.372743 255 220 0
0.511713 0.215068 0.419507 255 220 0
0.521656 0.166814 0.403270 255 220 0
0.499699 0.227514 0.403850 255 220 0
0.509418 0.200512 0.380578 255 220 0
0.574764 0.224638 0.408944 255 220 0
0.553659 0.284307 0.450609 255 220 0
0.557968 0.261309 0.441613 255 220 0
0.499727 0.232153 0.415971 255 220 0
0.583363 0.267567 0.412959 255 220 0
0.546961 0.280603 0.451969 255 220 0
0.506458 0.200340 0.396219 255 220 0
0.559768 0.239365 0.360810 255 220 0
0.561408 0.256171 0.437759 255 220 0
0.585905 0.240748 0.391517 255 220 0
0.511317 0.248876 0.438149 255 220 0
0.576054 0.261275 0.376352 255 220 0
0.495504 0.262273 0.405317 255 220 0
0.556766 0.210729 0.415519 255 220 0
0.573558 0.298961 0.429879 255 220 0
0.554544 0.308007 0.391808 255 220 0
0.511643 0.227902 0.427670 255 220 0
0.550559 0.185726 0.404390 255 220 0
0.554726 0.170925 0.370009 255 220 0
0.573523 0.244314 0.369050 255 220 0
0.529603 0.307733 0.389717 255 220 0
0.509446 0.277659 0.384032 255 220 0
0.495926 0.263386 0.403948 255 220 0
0.584603 0.253598 0.387232 255 220 0
0.497049 0.258467 0.426387 255 220 0
0.517615 0.169176 0.376279 255 220 0
0.559088 0.271870 0.369031 255 220 0
0.496544 0.250050 0.421056 255 220 0
0.569440 0.307269 0.432129 255 220 0
0.559195 0.196384 0.405017 255 220 0
0.540951 0.327297 0.412517 255 220 0
0.584010 0.255981 0.387058 255 220 0
0.512703 0.270278 0.378120 255 220 0
0.527474 0.297687 0.382032 255 220 0
0.529568 0.327747 0.418071 255 220 0
0.508899 0.309534 0.432298 255 220 0
0.551035 0.208770 0.357110 255 220 0
0.542340 0.208218 0.356732 255 220 0
0.496602 0.255729 0.400381 255 220 0
0.518925 0.249434 0.441296 255 220 0
0.542816 0.192810 0.412216 255 220 0
0.550660 0.258930 0.362679 255 220 0
0.573436 0.214786 0.403887 255 220 0
0.514710 0.314251 0.436298 255 220 0
0.528130 0.157196 0.399028 255 220 0
0.496278 0.248083 0.418795 255 220 0
0.535484 0.204960 0.358213 255 220 0
0.568877 0.222963 0.414887 255 220 0
0.521678 0.277603 0.373883 255 220 0
0.531371 0.275352 0.368751 255 220 0
0.540671 0.244700 0.359161 255 220 0
0.557676 0.320423 0.435102 255 220 0
0.510433 0.277648 0.445680 255 220 0
0.525290 0.173292 0.368048 255 220 0
0.581187 0.273940 0.392075 255 220 0
0.550877 0.265197 0.364442 255 220 0
0.536902 0.311504 0.391041 255 220 0
0.521445 0.184172 0.409753 255 220 0
0.516344 0.186548 0.407661 255 220 0
0.502286 0.262509 0.389450 255 220 0
0.563096 0.306093 0.396470 255 220 0
0.496967 0.281839 0.425830 255 220 0
0.580414 0.284304 0.402309 255 220 0
0.571221 0.269129 0.375086 255 220 0
0.542324 0.189365 0.410648 255 220 0
0.566849 0.313026 0.413268 255 220 0
0.549020 0.184796 0.360732 255 220 0
0.553583 0.218408 0.357306 255 220 0
0.529865 0.184636 0.362686 255 220 0
0.572389 0.284270 0.385284 255 220 0
0.515499 0.271924 0.447574 255 220 0
0.574534 0.260929 0.427567 255 220 0
0.557614 0.322442 0.431026 255 220 0
0.501764 0.287959 0.402626 255 220 0
0.564314 0.255780 0.435767 255 220 0
0.498302 0.233241 0.410979 255 220 0
0.514581 0.226719 0.371010 255 220 0
0.527855 0.312422 0.395523 255 220 0
0.537912 0.199277 0.416631 255 220 0
0.496568 0.256852 0.424453 255 220 0
0.550564 0.296071 0.379577 255 220 0
0.585456 0.256837 0.395495 255 220 0
0.560676 0.176705 0.374471 255 220 0
0.496491 0.274544 0.427802 255 220 0
0.513801 0.204395 0.372945 255 220 0
0.556735 0.216149 0.358332 255 220 0
0.561495 0.274094 0.370978 255 220 0
0.555271 0.315789 0.401226 255 220 0
0.565249 0.284577 0.378885 255 220 0
0.505373 0.213268 0.408768 255 220 0
0.554954 0.321814 0.436393 255 220 0
0.532432 0.184196 0.361883 255 220 0
0.567166 0.193649 0.393574 255 220 0
0.515669 0.306949 0.399479 255 220 0
0.530282 0.156058 0.378795 255 220 0
0.569492 0.310448 0.425714 255 220 0
0.561909 0.184039 0.391938 255 220 0
0.569284 0.251470 0.429601 255 220 0
0.521667 0.170828 0.371574 255 220 0
0.511473 0.298352 0.444597 255 220 0
0.538346 0.330217 0.428467 255 220 0
0.527444 0.201701 0.361572 255 220 0
0.558624 0.173312 0.378724 255 220 0
0.552725 0.220827 0.423710 255 220 0
0.580969 0.218936 0.389290 255 220 0
0.572043 0.289421 0.389342 255 220 0
0.507160 0.243537 0.433169 255 220 0
0.513981 0.184859 0.375837 255 220 0
0.510416 0.279357 0.445799 255 220 0
0.509158 0.304056 0.406006 255 220 0
0.541308 0.240966 0.358449 255 220 0
0.511519 0.188327 0.402555 255 220 0
0.534849 0.225417 0.430738 255 220 0
0.573746 0.301663 0.412471 255 220 0
0.546201 0.220366 0.426044 255 220 0
0.547478 0.163253 0.372036 255 220 0
0.562088 0.251230 0.435168 255 220 0
0.578039 0.264513 0.380238 255 220 0
0.554209 0.181619 0.399140 255 220 0
0.544401 0.304658 0.384796 255 220 0
0.568492 0.199051 0.397266 255 220 0
0.497733 0.266298 0.430377 255 220 0
0.499118 0.269689 0.433699 255 220 0
0.563603 0.276490 0.443540 255 220 0
0.574678 0.269790 0.430266 255 220 0
0.583225 0.234036 0.378393 255 220 0
0.511649 0.227483 0.427426 255 220 0
0.562007 0.183125 0.367591 255 220 0
0.524554 0.313057 0.398408 255 220 0
0.522176 0.312942 0.444804 255 220 0
0.514754 0.206706 0.416293 255 220 0
0.572428 0.206453 0.398019 255 220 0
0.564818 0.244065 0.363824 255 220 0
0.532575 0.282631 0.371646 255 220 0
0.543810 0.157564 0.385383 255 220 0
0.537895 0.154434 0.386634 255 220 0
0.535514 0.288672 0.453779 255 220 0
0.511816 0.223047 0.374338 255 220 0
0.574838 0.282959 0.431980 255 220 0
0.516322 0.184574 0.406862 255 220 0
0.559719 0.261260 0.365756 255 220 0
0.537106 0.298579 0.379870 255 220 0
0.574252 0.301556 0.419016 255 220 0
0.528060 0.194781 0.361881 255 220 0
0.524802 0.240475 0.438236 255 220 0
0.518695 0.253185 0.369184 255 220 0
0.528762 0.194880 0.361548 255 220 0
0.578191 0.223452 0.402221 255 220 0
0.555289 0.204910 0.412804 255 220 0
0.566356 0.194700 0.396222 255 220 0
0.580445 0.218304 0.390692 255 220 0
0.583019 0.225572 0.381123 255 220 0
0.548170 0.319875 0.443124 255 220 0
0.582574 0.262049 0.387470 255 220 0
0.550666 0.324390 0.411094 255 220 0
0.537641 0.263240 0.448368 255 220 0
0.552585 0.168161 0.390343 255 220 0
0.542532 0.258767 0.361958 255 220 0
0.585775 0.242059 0.394495 255 220 0
0.538201 0.186282 0.410479 255 220 0
0.505547 0.247037 0.382831 255 220 0
0.532851 0.314411 0.395278 255 220 0
0.547833 0.271345 0.449290 255 220 0
0.539098 0.251465 0.360594 255 220 0
0.505783 0.222317 0.418715 255 220 0
0.584455 0.244264 0.401638 255 220 0
0.500183 0.231620 0.416732 255 220 0
0.530670 0.272253 0.367799 255 220 0
0.578409 0.212166 0.376917 255 220 0
0.566840 0.313709 0.415228 255 220 0
0.560408 0.303399 0.391104 255 220 0
0.513849 0.252223 0.373168 255 220 0
0.519732 0.194621 0.367433 255 220 0
0.515188 0.177167 0.402830 255 220 0
0.518425 0.321427 0.424833 255 220 0
0.573252 0.260616 0.373408 255 220 0
0.542634 0.264159 0.363347 255 220 0
0.530524 0.171781 0.366288 255 220 0
0.580371 0.285890 0.410727 255 220 0
0.515500 0.161987 0.386081 255 220 0
0.530392 0.197052 0.416179 255 220 0
0.494644 0.261507 0.417043 255 220 0
0.581833 0.270199 0.417308 255 220 0
0.561788 0.205869 0.409332 255 220 0
0.511923 0.228221 0.374097 255 220 0
0.521947 0.255519 0.444561 255 220 0
0.527652 0.313176 0.447467 255 220 0
0.563663 0.258676 0.437435 255 220 0
0.510644 0.198061 0.406659 255 220 0
0.517533 0.208089 0.418787 255 220 0
0.512419 0.271556 0.378790 255 220 0
0.539750 0.167386 0.401925 255 220 0
0.546814 0.191399 0.358820 255 220 0
0.562174 0.245766 0.362944 255 220 0
0.524101 0.248730 0.365038 255 220 0
0.569607 0.306263 0.432870 255 220 0
0.566640 0.292053 0.385756 255 220 0
0.506031 0.306295 0.421917 255 220 0
0.512472 0.305979 0.402589 255 220 0
0.574175 0.272738 0.379691 255 220 0
0.565275 0.311162 0.435802 255 220 0
0.540689 0.280616 0.369512 255 220 0
0.495455 0.250253 0.416369 255 220 0
0.517722 0.232864 0.368069 255 220 0
0.581364 0.270786 0.390259 255 220 0
0.510521 0.193559 0.403696 255 220 0
0.529765 0.165432 0.369530 255 220 0
0.532657 0.167539 0.367684 255 220 0
0.545781 0.174856 0.401565 255 220 0
0.550587 0.302327 0.450709 255 220 0
0.549693 0.317367 0.444270 255 220 0
0.506886 0.270927 0.384678 255 220 0
0.540567 0.291902 0.453741 255 220 0
0.567923 0.304953 0.436892 255 220 0
0.525302 0.301425 0.451134 255 220 0
0.562917 0.299901 0.389680 255 220 0
0.530414 0.289798 0.453403 255 220 0
0.508140 0.297253 0.441665 255 220 0
0.567228 0.189006 0.371918 255 220 0
0.507004 0.248113 0.380803 255 220 0
0.559388 0.247053 0.434598 255 220 0
0.501903 0.297714 0.420621 255 220 0
0.514817 0.228512 0.370786 255 220 0
0.515829 0.176911 0.403412 255 220 0
0.500429 0.237485 0.392371 255 220 0
0.574262 0.297644 0.404761 255 220 0
0.495949 0.278472 0.416172 255 220 0
0.511796 0.268592 0.378501 255 220 0
0.549917 0.294422 0.452200 255 220 0
0.524375 0.286736 0.452253 255 220 0
0.564257 0.258513 0.366975 255 220 0
0.562979 0.273993 0.443368 255 220 0
0.561434 0.178806 0.384472 255 220 0
0.514484 0.168965 0.398039 255 220 0
0.571892 0.254676 0.428218 255 220 0
0.516961 0.178066 0.373623 255 220 0
0.534049 0.311353 0.391512 255 220 0
0.501771 0.225349 0.413755 255 220 0
0.510947 0.277038 0.445946 255 220 0
0.498221 0.265583 0.398013 255 220 0
0.550227 0.268991 0.365512 255 220 0
0.552442 0.266434 0.365150 255 220 0
0.565410 0.289314 0.443642 255 220 0
0.510572 0.208532 0.413696 255 220 0
0.526169 0.320096 0.406324 255 220 0
0.564948 0.286517 0.443958 255 220 0
0.547322 0.271833 0.449593 255 220 0
0.516322 0.276667 0.448768 255 220 0
0.551498 0.326244 0.431871 255 220 0
0.541526 0.283533 0.370931 255 220 0
0.554635 0.316362 0.401516 255 220 0
0.541212 0.269644 0.450139 255 220 0
0.556010 0.207279 0.413827 255 220 0
0.557141 0.172365 0.385322 255 220 0
0.500819 0.244950 0.390651 255 220 0
0.501800 0.227831 0.416773 255 220 0
0.567210 0.213091 0.363439 255 220 0
0.495738 0.263850 0.424112 255 220 0
0.583995 0.267940 0.397084 255 220 0
0.568986 0.229113 0.418466 255 220 0
0.507879 0.213810 0.414388 255 220 0
0.579774 0.219612 0.394803 255 220 0
0.557776 0.215512 0.358734 255 220 0
0.552041 0.253275 0.361512 255 220 0
0.585262 0.259488 0.403401 255 220 0
0.545138 0.296670 0.453008 255 220 0
0.555533 0.257674 0.363409 255 220 0
0.572954 0.288915 0.434976 255 220 0
0.546525 0.270100 0.449227 255 220 0
0.562092 0.288987 0.379793 255 220 0
0.542912 0.278315 0.368399 255 220 0
0.559579 0.182864 0.365290 255 220 0
0.527236 0.153489 0.387808 255 220 0
0.499421 0.239967 0.422068 255 220 0
0.567133 0.192189 0.391710 255 220 0
0.545464 0.308494 0.450078 255 220 0
0.532078 0.267066 0.449835 255 220 0
0.572664 0.218527 0.407771 255 220 0
0.553200 0.230064 0.357644 255 220 0
0.558216 0.287319 0.448771 255 220 0
0.566275 0.245594 0.364868 255 220 0
0.501871 0.221881 0.395492 255 220 0
0.525640 0.215904 0.361976 255 220 0
0.548549 0.240281 0.435779 255 220 0
0.556832 0.288193 0.449558 255 220 0
0.540650 0.265060 0.363650 255 220 0
0.555519 0.220277 0.422011 255 220 0
0.500393 0.228356 0.413226 255 220 0
0.497312 0.275834 0.430134 255 220 0
0.560446 0.191089 0.400271 255 220 0
0.520119 0.286592 0.378920 255 220 0
0.535154 0.232026 0.434206 255 220 0
0.499213 0.276590 0.434203 255 220 0
0.538798 0.197934 0.415821 255 220 0
0.574823 0.270141 0.379054 255 220 0
0.522512 0.170467 0.371058 255 220 0
0.535278 0.323644 0.406892 255 220 0
0.533964 0.326874 0.412820 255 220 0
0.567003 0.215901 0.412057 255 220 0
0.509548 0.286078 0.445208 255 220 0
0.540972 0.324780 0.440719 255 220 0
0.556410 0.218842 0.358144 255 220 0
0.516074 0.268616 0.447065 255 220 0
0.505944 0.243330 0.382181 255 220 0
0.527425 0.282731 0.373268 255 220 0
0.557040 0.190901 0.361379 255 220 0
0.523603 0.216597 0.363243 255 220 0
0.537996 0.234152 0.435054 255 220 0
0.558021 0.182637 0.396153 255 220 0
0.551782 0.326359 0.417269 255 220 0
0.507171 0.241530 0.380392 255 220 0
0.572321 0.245753 0.368522 255 220 0
0.521138 0.239681 0.365788 255 220 0
0.520635 0.212682 0.422628 255 220 0
0.526749 0.326936 0.419906 255 220 0
0.551566 0.326745 0.418431 255 220 0
0.555306 0.299313 0.384020 255 220 0
0.513365 0.207310 0.373242 255 220 0
0.510818 0.311578 0.415963 255 220 0
0.509814 0.275718 0.445080 255 220 0
0.572689 0.296015 0.433881 255 220 0
0.505813 0.204069 0.398402 255 220 0
0.568501 0.191367 0.372368 255 220 0
0.502448 0.272491 0.438574 255 220 0
0.544876 0.264577 0.363531 255 220 0
0.585792 0.253250 0.394001 255 220 0
0.512668 0.172062 0.396171 255 220 0
0.508622 0.244471 0.378496 255 220 0
0.523996 0.285729 0.452128 255 220 0
0.582722 0.253225 0.410900 255 220 0
0.494827 0.257045 0.416737 255 220 0
0.528880 0.162597 0.371604 255 220 0
0.501121 0.228457 0.415749 255 220 0
0.548346 0.161315 0.385789 255 220 0
0.516494 0.277535 0.377359 255 220 0
0.549201 0.304926 0.386336 255 220 0
0.517859 0.226791 0.429759 255 220 0
0.567332 0.267450 0.371567 255 220 0
0.524441 0.184033 0.365530 255 220 0
0.536518 0.199023 0.416705 255 220 0
0.561006 0.178175 0.384620 255 220 0
0.549095 0.270421 0.448597 255 220 0
0.543447 0.266648 0.448744 255 220 0
0.560716 0.180865 0.390276 255 220 0
0.514578 0.283495 0.381614 255 220 0
0.525768 0.286591 0.375789 255 220 0
0.502620 0.279461 0.438900 255 220 0
0.512859 0.273942 0.379166 255 220 0
0.511014 0.272448 0.445342 255 220 0
0.509559 0.292555 0.444426 255 220 0
0.572830 0.277895 0.434469 255 220 0
0.518221 0.216201 0.367439 255 220 0
0.539368 0.185834 0.409934 255 220 0
0.546064 0.325323 0.410203 255 220 0
0.564980 0.238888 0.427205 255 220 0
0.574730 0.213357 0.400478 255 220 0
0.563951 0.224167 0.361221 255 220 0
0.531473 0.170607 0.405870 255 220 0
0.517291 0.188925 0.409327 255 220 0
0.542635 0.274754 0.451407 255 220 0
0.577754 0.226461 0.370523 255 220 0
0.535323 0.192141 0.413669 255 220 0
0.565953 0.306705 0.438422 255 220 0
0.495456 0.273804 0.422785 255 220 0
0.558681 0.176357 0.388453 255 220 0
0.571097 0.269450 0.375124 255 220 0
0.582421 0.272926 0.394889 255 220 0
0.519348 0.166926 0.402080 255 220 0
0.544151 0.255312 0.444146 255 220 0
0.533896 0.258299 0.362863 255 220 0
0.507956 0.293732 0.395573 255 220 0
0.557072 0.235384 0.429750 255 220 0
0.567093 0.190773 0.369603 255 220 0
0.541015 0.243722 0.439449 255 220 0
0.565304 0.239802 0.427451 255 220 0
0.547227 0.328241 0.431414 255 220 0
0.497417 0.252970 0.397970 255 220 0
0.509199 0.187573 0.395664 255 220 0
0.519561 0.287744 0.450771 255 220 0
0.519827 0.309200 0.445724 255 220 0
0.565463 0.211706 0.362561 255 220 0
0.539276 0.155026 0.386711 255 220 0
0.546434 0.164048 0.394815 255 220 0
0.537756 0.162487 0.400720 255 220 0
0.550509 0.167331 0.369756 255 220 0
0.551237 0.201856 0.357804 255 220 0
0.573190 0.229896 0.414295 255 220 0
0.516765 0.229993 0.431154 255 220 0
0.541421 0.214655 0.356567 255 220 0
0.580504 0.250496 0.414075 255 220 0
0.548590 0.226868 0.428821 255 220 0
0.511793 0.194593 0.406336 255 220 0
0.498026 0.233960 0.410403 255 220 0
0.548070 0.207364 0.417985 255 220 0
0.576185 0.214591 0.398701 255 220 0
0.507730 0.302877 0.437985 255 220 0
0.509107 0.241557 0.433531 255 220 0
0.576908 0.206962 0.381951 255 220 0
0.555898 0.251171 0.361920 255 220 0
0.545042 0.184944 0.407204 255 220 0
0.546729 0.296967 0.452702 255 220 0
0.557231 0.308239 0.445458 255 220 0
0.584926 0.265186 0.404139 255 220 0
0.509300 0.184610 0.390937 255 220 0
0.523562 0.213380 0.363314 255 220 0
0.560982 0.296636 0.446624 255 220 0
0.541494 0.269810 0.450152 255 220 0
0.532732 0.178877 0.408636 255 220 0
0.499959 0.281063 0.434791 255 220 0
0.506833 0.225800 0.381476 255 220 0
0.516021 0.189914 0.371948 255 220 0
0.540150 0.325531 0.439820 255 220 0
0.554439 0.189108 0.403759 255 220 0
0.518311 0.289998 0.450192 255 220 0
0.565482 0.242333 0.363828 255 220 0
0.547264 0.190598 0.409142 255 220 0
0.578646 0.211879 0.378524 255 220 0
0.538017 0.205862 0.419936 255 220 0
0.526720 0.214345 0.361387 255 220 0
0.501529 0.286384 0.435935 255 220 0
0.583946 0.237194 0.398652 255 220 0
0.505453 0.209685 0.388274 255 220 0
0.557950 0.248339 0.361890 255 220 0
0.542451 0.204543 0.356984 255 220 0
0.511402 0.211499 0.416734 255 220 0
0.545401 0.213238 0.422293 255 220 0
0.585300 0.259206 0.403042 255 220 0
0.553656 0.281131 0.371299 255 220 0
0.566800 0.194047 0.367210 255 220 0
0.501974 0.263265 0.436105 255 220 0
0.532538 0.155323 0.379789 255 220 0
0.526647 0.258609 0.446516 255 220 0
0.514434 0.267271 0.446021 255 220 0
0.521647 0.247634 0.441128 255 220 0
0.552199 0.303725 0.449739 255 220 0
0.578797 0.280567 0.423823 255 220 0
0.570819 0.260158 0.431653 255 220 0
0.542177 0.219008 0.356445 255 220 0
0.507828 0.224385 0.379920 255 220 0
0.511048 0.175135 0.388533 255 220 0
0.501406 0.263276 0.391081 255 220 0
0.555265 0.211203 0.358063 255 220 0
0.558717 0.308335 0.394978 255 220 0
0.516895 0.315042 0.409084 255 220 0
0.545008 0.201449 0.357195 255 220 0
0.576805 0.228445 0.408179 255 220 0
0.534161 0.237529 0.437098 255 220 0
0.562189 0.230262 0.360706 255 220 0
0.541877 0.328151 0.414425 255 220 0
0.509535 0.256913 0.440280 255 220 0
0.499972 0.263713 0.393829 255 220 0
0.500782 0.293570 0.428792 255 220 0
0.503294 0.227246 0.419184 255 220 0
0.548741 0.325655 0.412225 255 220 0
0.502413 0.240896 0.387962 255 220 0
0.530879 0.314634 0.396366 255 220 0
0.511860 0.172802 0.386005 255 220 0
0.507640 0.238422 0.430964 255 220 0
0.577455 0.293545 0.412469 255 220 0
0.564248 0.206260 0.407775 255 220 0
0.515373 0.202120 0.414030 255 220 0
0.508935 0.280938 0.444825 255 220 0
0.542099 0.186054 0.409098 255 220 0
0.521435 0.293389 0.382399 255 220 0
0.501932 0.224256 0.393172 255 220 0
0.503604 0.301772 0.425730 255 220 0
0.576134 0.283041 0.429587 255 220 0
0.543074 0.157213 0.380951 255 220 0
0.535093 0.228780 0.432510 255 220 0
0.528107 0.327418 0.430372 255 220 0
0.536185 0.153852 0.387367 255 220 0
0.545710 0.257893 0.361840 255 220 0
0.521564 0.266719 0.448363 255 220 0
0.576877 0.279946 0.388019 255 220 0
0.554131 0.168479 0.386810 255 220 0
0.495396 0.256927 0.404935 255 220 0
0.521464 0.216244 0.424839 255 220 0
0.527822 0.268918 0.450091 255 220 0
0.572509 0.285776 0.435667 255 220 0
0.510422 0.300812 0.442650 255 220 0
0.580671 0.280283 0.418238 255 220 0
0.578856 0.287312 0.420172 255 220 0
0.563785 0.280687 0.444207 255 220 0
0.574058 0.271975 0.431662 255 220 0
0.571181 0.305591 0.429473 255 220 0
0.556816 0.203687 0.411161 255 220 0
0.550405 0.163112 0.381673 255 220 0
0.553430 0.210412 0.417146 255 220 0
0.511737 0.305123 0.441663 255 220 0
0.534121 0.155625 0.396076 255 220 0
0.570306 0.246119 0.367290 255 220 0
0.531577 0.329373 0.422505 255 220 0
0.494558 0.265361 0.414537 255 220 0
0.500309 0.242898 0.425543 255 220 0
0.516443 0.245753 0.370047 255 220 0
0.510965 0.210789 0.415780 255 220 0
0.509921 0.192947 0.402116 255 220 0
0.542569 0.194892 0.413360 255 220 0
0.532172 0.199187 0.359739 255 220 0
0.555852 0.234968 0.430075 255 220 0
0.567662 0.284092 0.441236 255 220 0
0.550036 0.226837 0.428256 255 220 0
0.584168 0.243964 0.381448 255 220 0
0.532868 0.202092 0.418469 255 220 0
0.548996 0.199888 0.413390 255 220 0
0.578625 0.231997 0.407206 255 220 0
0.520820 0.202960 0.365800 255 220 0
0.519133 0.303676 0.392912 255 220 0
0.501478 0.254814 0.432706 255 220 0
0.555552 0.240623 0.433103 255 220 0
0.560776 0.208960 0.360421 255 220 0
0.570642 0.208777 0.366464 255 220 0
0.566344 0.241831 0.427686 255 220 0
0.496922 0.266212 0.401597 255 220 0
0.577278 0.285422 0.393979 255 220 0
0.576478 0.263271 0.377672 255 220 0
0.564315 0.292115 0.383803 255 220 0
0.565922 0.210685 0.409443 255 220 0
0.514708 0.292170 0.448195 255 220 0
0.562762 0.201286 0.405556 255 220 0
0.518828 0.310762 0.400611 255 220 0
0.513168 0.241528 0.435691 255 220 0
0.559528 0.267404 0.367593 255 220 0
0.574316 0.296048 0.401922 255 220 0
0.575922 0.204803 0.382141 255 220 0
0.555838 0.232018 0.358532 255 220 0
0.545053 0.206865 0.418854 255 220 0
0.497164 0.252330 0.398632 255 220 0
0.514725 0.191130 0.408099 255 220 0
0.560643 0.277801 0.445870 255 220 0
0.529092 0.179512 0.364217 255 220 0
0.497678 0.284677 0.426137 255 220 0
0.527229 0.219833 0.427659 255 220 0
0.575435 0.208879 0.393876 255 220 0
0.539951 0.160633 0.371894 255 220 0
0.530268 0.170270 0.367010 255 220 0
0.540587 0.330356 0.426908 255 220 0
0.504888 0.284853 0.393466 255 220 0
0.582726 0.277874 0.403035 255 220 0
0.527804 0.218981 0.427236 255 220 0
0.557639 0.265707 0.443545 255 220 0
0.556500 0.276676 0.447815 255 220 0
0.518124 0.256130 0.443806 255 220 0
0.540649 0.299035 0.453162 255 220 0
0.507148 0.204237 0.404233 255 220 0
0.500624 0.275026 0.396091 255 220 0
0.553836 0.263330 0.364532 255 220 0
0.534610 0.311055 0.450007 255 220 0
0.530147 0.276772 0.369714 255 220 0
0.507160 0.219392 0.418080 255 220 0
0.497243 0.280280 0.409820 255 220 0
0.532745 0.190424 0.360611 255 220 0
0.545595 0.166210 0.397230 255 220 0
0.530241 0.234974 0.435813 255 220 0
0.551448 0.268954 0.365740 255 220 0
0.527132 0.165866 0.370379 255 220 0
0.556883 0.230414 0.358700 255 220 0
0.497198 0.236888 0.406224 255 220 0
0.585267 0.251632 0.402174 255 220 0
0.572415 0.283577 0.384773 255 220 0
0.509125 0.199274 0.381582 255 220 0
0.516237 0.300059 0.392015 255 220 0
0.545093 0.328019 0.415327 255 220 0
0.569488 0.244604 0.366459 255 220 0
0.516811 0.283529 0.379741 255 220 0
0.558389 0.234620 0.428733 255 220 0
0.497938 0.268044 0.431181 255 220 0
0.497582 0.235282 0.405718 255 220 0
0.573312 0.270596 0.377668 255 220 0
0.569270 0.191361 0.381481 255 220 0
0.584137 0.257209 0.408693 255 220 0
0.510349 0.268350 0.379937 255 220 0
0.557934 0.229599 0.358986 255 220 0
0.573871 0.205104 0.371611 255 220 0
0.557308 0.241352 0.432711 255 220 0
0.558556 0.317508 0.406608 255 220 0
0.511891 0.300786 0.397212 255 220 0
0.569628 0.282437 0.381053 255 220 0
0.555013 0.235139 0.358655 255 220 0
0.553381 0.270058 0.366550 255 220 0
0.559057 0.318335 0.436266 255 220 0
0.535505 0.154330 0.382583 255 220 0
0.555355 0.179253 0.364455 255 220 0
0.532512 0.162798 0.370459 255 220 0
0.554631 0.231378 0.428724 255 220 0
0.517389 0.258543 0.444468 255 220 0
0.516630 0.279150 0.449195 255 220 0
0.530224 0.329031 0.424349 255 220 0
0.554564 0.312894 0.444577 255 220 0
0.530599 0.154077 0.394022 255 220 0
0.509727 0.290866 0.391010 255 220 0
0.584826 0.263157 0.406540 255 220 0
0.542223 0.218953 0.356439 255 220 0
0.495725 0.255024 0.420734 255 220 0
0.554110 0.321166 0.438118 255 220 0
0.511110 0.204037 0.376843 255 220 0
0.573362 0.282919 0.385394 255 220 0
0.511467 0.209417 0.415292 255 220 0
0.547400 0.224260 0.356447 255 220 0
0.495624 0.272262 0.409765 255 220 0
0.530772 0.278119 0.370074 255 220 0
0.511994 0.306605 0.404242 255 220 0
0.580240 0.223801 0.374188 255 220 0
0.505714 0.284028 0.441931 255 220 0
0.500345 0.252502 0.430271 255 220 0
0.526338 0.326949 0.421088 255 220 0
0.528013 0.243741 0.440119 255 220 0
0.546035 0.160852 0.391349 255 220 0
0.547406 0.259998 0.362505 255 220 0
0.533021 0.242316 0.439555 255 220 0
0.524263 0.283567 0.375021 255 220 0
0.510330 0.215486 0.376745 255 220 0
0.518819 0.255025 0.443586 255 220 0
0.567164 0.214756 0.363256 255 220 0
0.546037 0.267427 0.448428 255 220 0
0.534398 0.293417 0.453687 255 220 0
0.551758 0.190380 0.406361 255 220 0
0.581071 0.225487 0.397136 255 220 0
0.566964 0.186979 0.376021 255 220 0
0.528526 0.206226 0.420462 255 220 0
0.533469 0.280069 0.370228 255 220 0
0.542105 0.202596 0.357187 255 220 0
0.557747 0.316864 0.439335 255 220 0
0.536921 0.266984 0.449710 255 220 0
0.576817 0.281435 0.428285 255 220 0
0.502231 0.247121 0.388099 255 220 0
0.569840 0.262488 0.371458 255 220 0
0.516694 0.168337 0.377906 255 220 0
0.531135 0.284761 0.453310 255 220 0
0.504575 0.232306 0.384836 255 220 0
0.520407 0.223726 0.428769 255 220 0
0.574472 0.254117 0.372304 255 220 0
0.509860 0.210033 0.413962 255 220 0
0.500393 0.226597 0.398567 255 220 0
0.504826 0.243387 0.431208 255 220 0
0.567348 0.289220 0.441811 255 220 0
0.558567 0.209103 0.359442 255 220 0
0.548828 0.234798 0.432889 255 220 0
0.584173 0.269950 0.408488 255 220 0
0.549343 0.257733 0.443599 255 220 0
0.549742 0.201479 0.413903 255 220 0
0.534838 0.306164 0.451668 255 220 0
0.524268 0.310830 0.447236 255 220 0
0.543873 0.271991 0.450415 255 220 0
0.500282 0.256441 0.392106 255 220 0
0.524193 0.208979 0.421389 255 220 0
0.502734 0.285340 0.438138 255 220 0
0.521199 0.319386 0.410364 255 220 0
0.532521 0.327268 0.414328 255 220 0
0.504976 0.216889 0.411941 255 220 0
0.494734 0.256545 0.409438 255 220 0
0.574919 0.291783 0.396839 255 220 0
0.507777 0.220351 0.419588 255 220 0
0.583415 0.263415 0.391117 255 220 0
0.547740 0.314222 0.395351 255 220 0
0.564223 0.263668 0.368476 255 220 0
0.564782 0.271487 0.441284 255 220 0
0.521492 0.233341 0.365102 255 220 0
0.574530 0.300897 0.419427 255 220 0
0.533700 0.242933 0.360253 255 220 0
0.506316 0.255610 0.382406 255 220 0
0.562225 0.273103 0.370913 255 220 0
0.512634 0.259080 0.442724 255 220 0
0.578713 0.255755 0.377059 255 220 0
0.530401 0.183368 0.362758 255 220 0
0.535232 0.154090 0.391419 255 220 0
0.550597 0.302575 0.384753 255 220 0
0.496487 0.244086 0.416294 255 220 0
0.526768 0.228293 0.432170 255 220 0
0.550945 0.262904 0.445140 255 220 0
0.531935 0.154487 0.394776 255 220 0
0.539035 0.262474 0.363046 255 220 0
0.529281 0.153206 0.389736 255 220 0
0.585957 0.247344 0.389609 255 220 0
0.532945 0.186859 0.361171 255 220 0
0.577910 0.209357 0.383206 255 220 0
0.508246 0.213671 0.414798 255 220 0
0.535681 0.166959 0.403654 255 220 0
0.533709 0.174366 0.406773 255 220 0
0.517933 0.310370 0.401055 255 220 0
0.498832 0.230693 0.403765 255 220 0
