ply
format ascii 1.0
element vertex 1024
property float x
property float y
property float z
property uchar red
property uchar green
property uchar blue
end_header
0.553696 0.146474 0.100152 255 220 0
0.561685 0.097112 0.078715 255 220 0
0.568492 0.105449 0.065203 255 220 0
0.548844 0.211801 0.102835 255 220 0
0.556532 0.144293 0.036148 255 220 0
0.525563 0.127157 0.040275 255 220 0
0.554984 0.165555 0.101866 255 220 0
0.535002 0.143413 0.103600 255 220 0
0.521625 0.096208 0.054698 255 220 0
0.509799 0.120044 0.096159 255 220 0
0.548958 0.118349 0.041100 255 220 0
0.523180 0.070733 0.094496 255 220 0
0.571562 0.154291 0.089162 255 220 0
0.488993 0.184763 0.073380 255 220 0
0.567270 0.214328 0.087213 255 220 0
0.547013 0.207197 0.034659 255 220 0
0.514541 0.140819 0.042394 255 220 0
0.519524 0.074717 0.097965 255 220 0
0.517203 0.229415 0.048648 255 220 0
0.544533 0.120235 0.098766 255 220 0
0.559860 0.235441 0.072099 255 220 0
0.493870 0.209822 0.079868 255 220 0
0.533375 0.071772 0.091786 255 220 0
0.545681 0.123553 0.038527 255 220 0
0.510322 0.116031 0.055017 255 220 0
0.498894 0.216105 0.060655 255 220 0
0.527417 0.247502 0.076720 255 220 0
0.582056 0.166104 0.071016 255 220 0
0.543588 0.234018 0.047811 255 220 0
0.525421 0.108898 0.047209 255 220 0
0.505224 0.199623 0.043640 255 220 0
0.580600 0.155806 0.077091 255 220 0
0.500042 0.119518 0.079080 255 220 0
0.566288 0.103052 0.062669 255 220 0
0.504482 0.132679 0.055161 255 220 0
0.538934 0.109457 0.099055 255 220 0
0.570705 0.187607 0.090719 255 220 0
0.500351 0.215179 0.089198 255 220 0
0.536199 0.157416 0.105034 255 220 0
0.544445 0.245647 0.062425 255 220 0
0.576711 0.164358 0.049772 255 220 0
0.524695 0.073616 0.069711 255 220 0
0.547247 0.182879 0.105017 255 220 0
0.536613 0.103386 0.099007 255 220 0
0.579756 0.186356 0.064538 255 220 0
0.541372 0.150128 0.031413 255 220 0
0.520248 0.221979 0.042628 255 220 0
0.573409 0.205920 0.061921 255 220 0
0.558294 0.127440 0.041495 255 220 0
0.543377 0.242947 0.056243 255 220 0
0.510757 0.073890 0.083202 255 220 0
0.565895 0.219667 0.085830 255 220 0
0.558923 0.136380 0.096442 255 220 0
0.532697 0.074302 0.095068 255 220 0
0.536000 0.215916 0.104273 255 220 0
0.503005 0.106840 0.072231 255 220 0
0.548849 0.201782 0.104375 255 220 0
0.491222 0.187963 0.085331 255 220 0
0.491462 0.203227 0.070651 255 220 0
0.580490 0.145935 0.075326 255 220 0
0.540687 0.212187 0.034880 255 220 0
0.537829 0.248786 0.070798 255 220 0
0.538233 0.148380 0.031719 255 220 0
0.497130 0.204363 0.090446 255 220 0
0.530141 0.138761 0.103144 255 220 0
0.523436 0.186277 0.031071 255 220 0
0.527986 0.109067 0.100700 255 220 0
0.526042 0.136330 0.037190 255 220 0
0.492031 0.170573 0.087093 255 220 0
0.543398 0.162054 0.104434 255 220 0
0.532505 0.116761 0.041800 255 220 0
0.530627 0.184148 0.029296 255 220 0
0.562443 0.171039 0.035965 255 220 0
0.550581 0.194497 0.032576 255 220 0
0.538976 0.199745 0.030978 255 220 0
0.543866 0.206878 0.105105 255 220 0
0.547117 0.245466 0.073832 255 220 0
0.576786 0.198883 0.067226 255 220 0
0.496672 0.151915 0.090485 255 220 0
0.493038 0.205269 0.082411 255 220 0
0.501072 0.223409 0.063011 255 220 0
0.511105 0.107669 0.057768 255 220 0
0.513935 0.186606 0.035512 255 220 0
0.565195 0.148125 0.040424 255 220 0
0.528519 0.085712 0.058236 255 220 0
0.579718 0.185582 0.063370 255 220 0
0.511430 0.221942 0.048236 255 220 0
0.505347 0.101607 0.090681 255 220 0
0.581218 0.172408 0.063915 255 220 0
0.552991 0.099756 0.090930 255 220 0
0.532645 0.070118 0.074239 255 220 0
0.549204 0.159457 0.031164 255 220 0
0.552968 0.188090 0.032333 255 220 0
0.548562 0.212679 0.037427 255 220 0
0.546876 0.156766 0.103290 255 220 0
0.520353 0.134487 0.101442 255 220 0
0.563573 0.190428 0.097104 255 220 0
0.568135 0.123835 0.050292 255 220 0
0.542392 0.187713 0.105958 255 220 0
0.518228 0.180437 0.105381 255 220 0
0.523545 0.205029 0.105407 255 220 0
0.495487 0.141739 0.068392 255 220 0
0.501272 0.179994 0.045947 255 220 0
0.520254 0.076203 0.069060 255 220 0
0.496369 0.182452 0.052113 255 220 0
0.496351 0.150637 0.089618 255 220 0
0.551860 0.134784 0.098857 255 220 0
0.525455 0.102201 0.100646 255 220 0
0.543579 0.150741 0.103255 255 220 0
0.580122 0.183019 0.063684 255 220 0
0.507042 0.189040 0.040289 255 220 0
0.559484 0.233205 0.081429 255 220 0
0.514265 0.120620 0.049481 255 220 0
0.507638 0.228118 0.087973 255 220 0
0.516938 0.225247 0.096656 255 220 0
0.521015 0.163722 0.104759 255 220 0
0.517739 0.206092 0.103795 255 220 0
0.553306 0.235856 0.086159 255 220 0
0.549670 0.164175 0.030729 255 220 0
0.547507 0.230622 0.047047 255 220 0
0.547428 0.233802 0.092454 255 220 0
0.546754 0.204144 0.033579 255 220 0
0.500569 0.118274 0.071876 255 220 0
0.512363 0.113430 0.097624 255 220 0
0.502086 0.124908 0.062548 255 220 0
0.565725 0.143380 0.093228 255 220 0
0.570721 0.135116 0.048092 255 220 0
0.526489 0.176993 0.030106 255 220 0
0.519431 0.209085 0.037695 255 220 0
0.547470 0.148277 0.032554 255 220 0
0.546773 0.234690 0.049690 255 220 0
0.558743 0.103602 0.087324 255 220 0
0.546696 0.123217 0.038784 255 220 0
0.491855 0.204732 0.078166 255 220 0
0.560597 0.232998 0.063793 255 220 0
0.499050 0.145443 0.057460 255 220 0
0.573445 0.160045 0.045835 255 220 0
0.545380 0.170840 0.104764 255 220 0
0.508398 0.094419 0.067880 255 220 0
0.513524 0.235770 0.057582 255 220 0
0.532079 0.129082 0.102060 255 220 0
0.531671 0.119114 0.041100 255 220 0
0.534586 0.089264 0.098709 255 220 0
0.562134 0.169666 0.098166 255 220 0
0.559493 0.176550 0.100092 255 220 0
0.572810 0.122585 0.079078 255 220 0
0.581940 0.143138 0.068429 255 220 0
0.500953 0.196589 0.047575 255 220 0
0.553866 0.241179 0.070455 255 220 0
0.533996 0.120125 0.040240 255 220 0
0.541570 0.150955 0.103658 255 220 0
0.535259 0.098519 0.049574 255 220 0
0.558562 0.148590 0.036341 255 220 0
0.556777 0.177585 0.032926 255 220 0
0.543339 0.155424 0.030614 255 220 0
0.501039 0.148355 0.053443 255 220 0
0.567989 0.120924 0.051635 255 220 0
0.579189 0.145358 0.055270 255 220 0
0.521584 0.217417 0.040016 255 220 0
0.491644 0.153932 0.078312 255 220 0
0.534180 0.168535 0.106108 255 220 0
0.513058 0.075628 0.095006 255 220 0
0.546809 0.190231 0.030745 255 220 0
0.549567 0.131743 0.036650 255 220 0
0.542147 0.210952 0.104829 255 220 0
0.522014 0.238575 0.052931 255 220 0
0.581928 0.154310 0.073506 255 220 0
0.558523 0.119413 0.044904 255 220 0
0.573015 0.168615 0.088743 255 220 0
0.546276 0.087958 0.057750 255 220 0
0.493270 0.187151 0.057624 255 220 0
0.501835 0.115180 0.069545 255 220 0
0.527795 0.245186 0.082560 255 220 0
0.581325 0.172285 0.064706 255 220 0
0.543062 0.201868 0.032014 255 220 0
0.555430 0.149333 0.034782 255 220 0
0.511182 0.238543 0.070333 255 220 0
0.549291 0.222242 0.099230 255 220 0
0.561975 0.222436 0.053325 255 220 0
0.558389 0.228371 0.053812 255 220 0
0.524477 0.244553 0.081871 255 220 0
0.569993 0.124052 0.051971 255 220 0
0.556394 0.106186 0.050396 255 220 0
0.548147 0.240589 0.056585 255 220 0
0.560536 0.210566 0.044204 255 220 0
0.550740 0.199445 0.033772 255 220 0
0.528516 0.107145 0.046832 255 220 0
0.543696 0.188894 0.029962 255 220 0
0.581215 0.146529 0.059174 255 220 0
0.510554 0.146554 0.099931 255 220 0
0.509833 0.233419 0.059544 255 220 0
0.537906 0.155150 0.030391 255 220 0
0.572665 0.183485 0.046293 255 220 0
0.575835 0.121406 0.070333 255 220 0
0.531801 0.118453 0.101116 255 220 0
0.547315 0.091042 0.092415 255 220 0
0.490360 0.180722 0.064329 255 220 0
0.508904 0.109165 0.059619 255 220 0
0.559600 0.234512 0.064428 255 220 0
0.532002 0.130336 0.102192 255 220 0
0.549610 0.192678 0.104565 255 220 0
0.530225 0.231910 0.096466 255 220 0
0.553321 0.166000 0.102527 255 220 0
0.523825 0.076429 0.099472 255 220 0
0.543941 0.151666 0.031361 255 220 0
0.518912 0.232145 0.093005 255 220 0
0.532875 0.073794 0.094493 255 220 0
0.529073 0.199750 0.106676 255 220 0
0.530333 0.121921 0.040427 255 220 0
0.498837 0.222539 0.077936 255 220 0
0.529348 0.219163 0.102831 255 220 0
0.504350 0.220836 0.090347 255 220 0
0.498940 0.161406 0.051867 255 220 0
0.540437 0.098943 0.049217 255 220 0
0.533828 0.125949 0.101649 255 220 0
0.554016 0.199276 0.102527 255 220 0
0.505357 0.101679 0.090702 255 220 0
0.555756 0.088900 0.081208 255 220 0
0.492251 0.183567 0.087869 255 220 0
0.523523 0.234251 0.048586 255 220 0
0.556715 0.102040 0.088646 255 220 0
0.504246 0.136276 0.094388 255 220 0
0.492135 0.154902 0.067782 255 220 0
0.511555 0.120234 0.097256 255 220 0
0.489102 0.176041 0.076721 255 220 0
0.556514 0.214567 0.042978 255 220 0
0.511638 0.232885 0.056468 255 220 0
0.507194 0.231758 0.061539 255 220 0
0.551124 0.168110 0.103372 255 220 0
0.503988 0.152820 0.048466 255 220 0
0.578097 0.177819 0.081733 255 220 0
0.492964 0.155075 0.064748 255 220 0
0.509359 0.205146 0.100540 255 220 0
0.528715 0.105783 0.047374 255 220 0
0.542942 0.157909 0.104142 255 220 0
0.541742 0.231183 0.096535 255 220 0
0.576103 0.129733 0.077324 255 220 0
0.522648 0.245252 0.062491 255 220 0
0.511986 0.192493 0.037210 255 220 0
0.515246 0.224731 0.096115 255 220 0
0.551241 0.128291 0.038146 255 220 0
0.535227 0.195797 0.106856 255 220 0
0.515357 0.229429 0.049987 255 220 0
0.544846 0.218896 0.038897 255 220 0
0.576791 0.162340 0.049865 255 220 0
0.560729 0.129371 0.094069 255 220 0
0.569957 0.141686 0.089138 255 220 0
0.517012 0.106074 0.053159 255 220 0
0.551912 0.234809 0.088618 255 220 0
0.499662 0.221839 0.082066 255 220 0
0.500768 0.226109 0.068553 255 220 0
0.537523 0.142001 0.033220 255 220 0
0.538260 0.223782 0.040048 255 220 0
0.549678 0.193059 0.104536 255 220 0
0.517492 0.081253 0.100041 255 220 0
0.566996 0.195175 0.093612 255 220 0
0.494477 0.209500 0.065674 255 220 0
0.532918 0.154911 0.104957 255 220 0
0.565494 0.144151 0.041427 255 220 0
0.548218 0.089256 0.091077 255 220 0
0.554196 0.179795 0.031904 255 220 0
0.546334 0.137843 0.100846 255 220 0
0.575856 0.132545 0.054690 255 220 0
0.508052 0.231702 0.059973 255 220 0
0.491555 0.161268 0.083738 255 220 0
0.563538 0.205672 0.044541 255 220 0
0.565110 0.227766 0.070363 255 220 0
0.499534 0.145826 0.056551 255 220 0
0.538530 0.143100 0.032908 255 220 0
0.571053 0.214465 0.072792 255 220 0
0.582408 0.145977 0.067143 255 220 0
0.510331 0.232188 0.086532 255 220 0
0.570291 0.171192 0.042153 255 220 0
0.543724 0.128613 0.036694 255 220 0
0.508676 0.225840 0.053617 255 220 0
0.557442 0.112688 0.047512 255 220 0
0.502200 0.107134 0.081447 255 220 0
0.567359 0.125795 0.087792 255 220 0
0.524267 0.119545 0.100949 255 220 0
0.520320 0.181464 0.032124 255 220 0
0.525442 0.082696 0.061240 255 220 0
0.535736 0.111921 0.100060 255 220 0
0.508866 0.114542 0.057281 255 220 0
0.578640 0.181059 0.056584 255 220 0
0.571396 0.192785 0.089024 255 220 0
0.544167 0.215718 0.037128 255 220 0
0.526430 0.207543 0.105470 255 220 0
0.539357 0.133339 0.035306 255 220 0
0.565160 0.146318 0.040736 255 220 0
0.533300 0.216181 0.036414 255 220 0
0.530329 0.177875 0.106798 255 220 0
0.575014 0.160757 0.047564 255 220 0
0.523901 0.128791 0.101509 255 220 0
0.497704 0.151925 0.091763 255 220 0
0.529073 0.145575 0.103884 255 220 0
0.578671 0.136704 0.075691 255 220 0
0.507681 0.204848 0.043085 255 220 0
0.581892 0.144176 0.069913 255 220 0
0.538682 0.191061 0.106558 255 220 0
0.544069 0.190641 0.030250 255 220 0
0.503785 0.191863 0.043516 255 220 0
0.528592 0.185791 0.029706 255 220 0
0.495299 0.195186 0.090939 255 220 0
0.544539 0.209688 0.034755 255 220 0
0.579616 0.132264 0.068935 255 220 0
0.502330 0.140814 0.093718 255 220 0
0.575064 0.197527 0.080795 255 220 0
0.569977 0.205029 0.087159 255 220 0
0.501788 0.162692 0.097259 255 220 0
0.512477 0.235070 0.085159 255 220 0
0.493471 0.183520 0.056937 255 220 0
0.515889 0.113227 0.099142 255 220 0
0.551126 0.098605 0.091914 255 220 0
0.528197 0.221812 0.039867 255 220 0
0.526852 0.167495 0.030568 255 220 0
0.560814 0.092680 0.074926 255 220 0
0.564687 0.222348 0.085664 255 220 0
0.522286 0.179971 0.031365 255 220 0
0.496878 0.217512 0.067558 255 220 0
0.508499 0.135494 0.097280 255 220 0
0.513714 0.073455 0.093283 255 220 0
0.498572 0.169323 0.050537 255 220 0
0.520960 0.068373 0.084333 255 220 0
0.530627 0.110186 0.100602 255 220 0
0.563234 0.210139 0.094059 255 220 0
0.500518 0.146036 0.055035 255 220 0
0.575824 0.164331 0.085194 255 220 0
0.582256 0.158230 0.072554 255 220 0
0.553323 0.086502 0.082904 255 220 0
0.530068 0.102342 0.100269 255 220 0
0.581261 0.147709 0.073946 255 220 0
0.571827 0.187521 0.089457 255 220 0
0.537617 0.248247 0.075728 255 220 0
0.519371 0.068985 0.088959 255 220 0
0.526957 0.213182 0.104312 255 220 0
0.505105 0.101284 0.090190 255 220 0
0.514614 0.200608 0.037338 255 220 0
0.489922 0.177188 0.066108 255 220 0
0.544810 0.187472 0.029970 255 220 0
0.502425 0.137974 0.093069 255 220 0
0.512094 0.087249 0.098016 255 220 0
0.494362 0.143556 0.071898 255 220 0
0.506487 0.109918 0.062591 255 220 0
0.566823 0.143542 0.092351 255 220 0
0.542212 0.214236 0.104120 255 220 0
0.546632 0.189586 0.105251 255 220 0
0.492431 0.152384 0.081214 255 220 0
0.577267 0.184951 0.081902 255 220 0
0.535154 0.211240 0.105402 255 220 0
0.500662 0.115566 0.076286 255 220 0
0.562029 0.139088 0.040238 255 220 0
0.550392 0.183416 0.104314 255 220 0
0.582027 0.152094 0.072778 255 220 0
0.500741 0.176291 0.097499 255 220 0
0.576511 0.165378 0.049508 255 220 0
0.492211 0.176306 0.059622 255 220 0
0.547059 0.132913 0.099902 255 220 0
0.566522 0.220292 0.083804 255 220 0
0.555549 0.214283 0.042136 255 220 0
0.501663 0.152926 0.095753 255 220 0
0.541439 0.105502 0.097762 255 220 0
0.550973 0.078980 0.072778 255 220 0
0.574299 0.146893 0.048611 255 220 0
0.531468 0.212998 0.035431 255 220 0
0.510831 0.182775 0.037360 255 220 0
0.492951 0.176832 0.058052 255 220 0
0.582374 0.162402 0.063901 255 220 0
0.489559 0.180656 0.080475 255 220 0
0.513309 0.079325 0.071821 255 220 0
0.561922 0.172304 0.035620 255 220 0
0.489514 0.170852 0.078627 255 220 0
0.562600 0.228797 0.081983 255 220 0
0.550474 0.115710 0.096111 255 220 0
0.539608 0.239771 0.051189 255 220 0
0.581978 0.164543 0.062750 255 220 0
0.514651 0.173753 0.035342 255 220 0
0.530166 0.200789 0.031722 255 220 0
0.527442 0.242147 0.053833 255 220 0
0.503359 0.230354 0.069396 255 220 0
0.552188 0.109237 0.046410 255 220 0
0.543698 0.108496 0.044559 255 220 0
0.493786 0.168404 0.057758 255 220 0
0.507650 0.178060 0.101651 255 220 0
0.532845 0.114917 0.100747 255 220 0
0.554009 0.157844 0.032948 255 220 0
0.565830 0.132502 0.091118 255 220 0
0.508615 0.236281 0.072439 255 220 0
0.518612 0.076809 0.098971 255 220 0
0.489548 0.168181 0.077243 255 220 0
0.536492 0.105957 0.045755 255 220 0
0.559838 0.144147 0.097211 255 220 0
0.524710 0.179058 0.030562 255 220 0
0.535024 0.175151 0.028633 255 220 0
0.543956 0.143229 0.033020 255 220 0
0.551359 0.241991 0.077533 255 220 0
0.500322 0.205784 0.093588 255 220 0
0.522631 0.080149 0.064336 255 220 0
0.579431 0.183047 0.060149 255 220 0
0.554296 0.164318 0.032288 255 220 0
0.538620 0.217064 0.036683 255 220 0
0.511797 0.105769 0.097482 255 220 0
0.507338 0.107141 0.093703 255 220 0
0.501829 0.170670 0.046448 255 220 0
0.562943 0.214333 0.048760 255 220 0
0.491084 0.202128 0.071357 255 220 0
0.577434 0.196473 0.065486 255 220 0
0.572514 0.172142 0.044517 255 220 0
0.532434 0.111130 0.100492 255 220 0
0.563941 0.227073 0.062215 255 220 0
0.547997 0.088328 0.058123 255 220 0
0.555270 0.118276 0.043544 255 220 0
0.528843 0.088717 0.056191 255 220 0
0.572733 0.190007 0.048447 255 220 0
0.504568 0.201232 0.098411 255 220 0
0.565464 0.184157 0.095883 255 220 0
0.552187 0.242343 0.073074 255 220 0
0.500500 0.199193 0.048960 255 220 0
0.553587 0.182339 0.103220 255 220 0
0.492033 0.151515 0.075996 255 220 0
0.515015 0.130710 0.045271 255 220 0
0.528976 0.219497 0.038639 255 220 0
0.527632 0.122515 0.101416 255 220 0
0.489343 0.178430 0.079217 255 220 0
0.553158 0.198605 0.034627 255 220 0
0.581880 0.168500 0.070388 255 220 0
0.556347 0.086067 0.075878 255 220 0
0.489782 0.196092 0.075738 255 220 0
0.512455 0.110715 0.055087 255 220 0
0.558024 0.116595 0.045927 255 220 0
0.564061 0.175117 0.037045 255 220 0
0.555010 0.225025 0.047977 255 220 0
0.566944 0.187831 0.041114 255 220 0
0.498094 0.132232 0.082724 255 220 0
0.548539 0.243737 0.077660 255 220 0
0.531481 0.088035 0.056127 255 220 0
0.560243 0.108982 0.088285 255 220 0
0.515940 0.215774 0.041850 255 220 0
0.524416 0.068223 0.081424 255 220 0
0.564050 0.229353 0.074994 255 220 0
0.554776 0.099402 0.089299 255 220 0
0.559330 0.176089 0.100178 255 220 0
0.518264 0.079142 0.067734 255 220 0
0.502874 0.224598 0.085192 255 220 0
0.534272 0.248407 0.064099 255 220 0
0.527774 0.104108 0.048424 255 220 0
0.553325 0.084486 0.080588 255 220 0
0.542223 0.145297 0.102837 255 220 0
0.576199 0.130979 0.077805 255 220 0
0.571970 0.196296 0.050173 255 220 0
0.497249 0.169438 0.094119 255 220 0
0.510837 0.093672 0.064936 255 220 0
0.500392 0.207415 0.093064 255 220 0
0.508156 0.215462 0.047565 255 220 0
0.544473 0.139506 0.033871 255 220 0
0.503672 0.106838 0.087459 255 220 0
0.523683 0.151999 0.104021 255 220 0
0.570121 0.216303 0.067026 255 220 0
0.535362 0.145675 0.103845 255 220 0
0.542996 0.072547 0.076017 255 220 0
0.551224 0.177872 0.103910 255 220 0
0.577942 0.169851 0.052239 255 220 0
0.545730 0.099768 0.095220 255 220 0
0.546696 0.208457 0.034999 255 220 0
0.561204 0.115384 0.089915 255 220 0
0.489990 0.189416 0.081356 255 220 0
0.490947 0.193816 0.083400 255 220 0
0.552774 0.204445 0.102527 255 220 0
0.565673 0.193386 0.095105 255 220 0
0.581411 0.140943 0.062792 255 220 0
0.501687 0.152446 0.095687 255 220 0
0.559345 0.089469 0.067526 255 220 0
0.525243 0.221131 0.040378 255 220 0
0.514267 0.238318 0.082120 255 220 0
0.505468 0.129048 0.093822 255 220 0
0.565398 0.122571 0.088650 255 220 0
0.566721 0.144623 0.042241 255 220 0
0.536133 0.182996 0.028824 255 220 0
0.536550 0.072215 0.089519 255 220 0
0.530317 0.069718 0.090643 255 220 0
0.524113 0.219286 0.101827 255 220 0
0.511448 0.128517 0.049102 255 220 0
0.566358 0.206244 0.091851 255 220 0
0.507338 0.105012 0.093698 255 220 0
0.562468 0.161245 0.036670 255 220 0
0.540069 0.200906 0.031324 255 220 0
0.569392 0.218652 0.073114 255 220 0
0.527876 0.097809 0.051373 255 220 0
0.513405 0.168666 0.103320 255 220 0
0.521090 0.154622 0.034686 255 220 0
0.528633 0.097784 0.051171 255 220 0
0.571359 0.139966 0.087351 255 220 0
0.545743 0.126486 0.099284 255 220 0
0.559024 0.110937 0.090145 255 220 0
0.575384 0.130911 0.079209 255 220 0
0.580156 0.134108 0.068346 255 220 0
0.540511 0.244382 0.083156 255 220 0
0.580884 0.170311 0.060610 255 220 0
0.549211 0.236641 0.052876 255 220 0
0.525570 0.193695 0.106682 255 220 0
0.544911 0.083984 0.091854 255 220 0
0.546164 0.157342 0.030754 255 220 0
0.581429 0.154420 0.074977 255 220 0
0.528225 0.108166 0.100662 255 220 0
0.505264 0.153880 0.046765 255 220 0
0.534047 0.221301 0.038668 255 220 0
0.535912 0.201660 0.106544 255 220 0
0.542582 0.150024 0.031525 255 220 0
0.497225 0.144343 0.088516 255 220 0
0.578946 0.159119 0.080398 255 220 0
0.492702 0.152178 0.082191 255 220 0
0.534314 0.171913 0.028769 255 220 0
0.575558 0.120055 0.068548 255 220 0
0.563611 0.228437 0.063743 255 220 0
0.561134 0.209805 0.044344 255 220 0
0.515535 0.155167 0.037708 255 220 0
0.518667 0.099650 0.054838 255 220 0
0.506500 0.096624 0.092536 255 220 0
0.514853 0.238697 0.060111 255 220 0
0.574270 0.163639 0.046524 255 220 0
0.546352 0.162863 0.030054 255 220 0
0.527993 0.078143 0.064322 255 220 0
0.575927 0.201087 0.072545 255 220 0
0.508948 0.076294 0.082958 255 220 0
0.520200 0.120206 0.100344 255 220 0
0.489136 0.179964 0.070392 255 220 0
0.575126 0.189001 0.084586 255 220 0
0.552822 0.126145 0.097054 255 220 0
0.511931 0.133228 0.047001 255 220 0
0.510395 0.184953 0.102975 255 220 0
0.519155 0.239583 0.085531 255 220 0
0.552824 0.185642 0.103542 255 220 0
0.502676 0.117391 0.087437 255 220 0
0.507817 0.131290 0.096126 255 220 0
0.514330 0.175187 0.035426 255 220 0
0.530121 0.087459 0.100141 255 220 0
0.546615 0.093718 0.053523 255 220 0
0.564402 0.145846 0.040296 255 220 0
0.526875 0.148996 0.033620 255 220 0
0.562561 0.228143 0.083059 255 220 0
0.567509 0.197345 0.044882 255 220 0
0.502272 0.223446 0.060588 255 220 0
0.512164 0.216003 0.044405 255 220 0
0.574784 0.177239 0.047957 255 220 0
0.558083 0.233738 0.083071 255 220 0
0.544356 0.180412 0.029221 255 220 0
0.489332 0.169280 0.074077 255 220 0
0.519038 0.135344 0.040955 255 220 0
0.579740 0.179445 0.059693 255 220 0
0.502817 0.112107 0.086376 255 220 0
0.526236 0.073455 0.069454 255 220 0
0.529551 0.074749 0.067570 255 220 0
0.536581 0.094316 0.098254 255 220 0
0.540340 0.230958 0.096979 255 220 0
0.541629 0.242499 0.085420 255 220 0
0.507769 0.176745 0.039920 255 220 0
0.529282 0.222319 0.101599 255 220 0
0.560077 0.228412 0.086866 255 220 0
0.515413 0.230027 0.092724 255 220 0
0.563633 0.206053 0.044830 255 220 0
0.519255 0.220139 0.100068 255 220 0
0.500081 0.222450 0.082277 255 220 0
0.564037 0.096592 0.070323 255 220 0
0.507139 0.154136 0.044812 255 220 0
0.548414 0.173757 0.104398 255 220 0
0.497914 0.214961 0.061755 255 220 0
0.515403 0.132292 0.044454 255 220 0
0.507004 0.096610 0.093285 255 220 0
0.497856 0.148528 0.057942 255 220 0
0.571804 0.209702 0.061598 255 220 0
0.491668 0.195389 0.063617 255 220 0
0.513582 0.172323 0.036131 255 220 0
0.538897 0.224175 0.101110 255 220 0
0.513351 0.216808 0.098961 255 220 0
0.566513 0.159197 0.039681 255 220 0
0.552034 0.202058 0.103167 255 220 0
0.555364 0.091757 0.084344 255 220 0
0.506175 0.087220 0.091060 255 220 0
0.562351 0.178573 0.098255 255 220 0
0.513734 0.086575 0.066008 255 220 0
0.535726 0.217071 0.036605 255 220 0
0.494410 0.145265 0.082104 255 220 0
0.500737 0.205323 0.094155 255 220 0
0.496447 0.176678 0.052300 255 220 0
0.553704 0.168231 0.031738 255 220 0
0.555779 0.165746 0.032785 255 220 0
0.555351 0.216398 0.098258 255 220 0
0.501969 0.129730 0.089967 255 220 0
0.525805 0.230631 0.045301 255 220 0
0.554660 0.213917 0.099483 255 220 0
0.535386 0.202221 0.106539 255 220 0
0.505458 0.206086 0.097913 255 220 0
0.546277 0.246124 0.071241 255 220 0
0.545100 0.183656 0.029603 255 220 0
0.554368 0.225659 0.047904 255 220 0
0.529153 0.200333 0.106638 255 220 0
0.546412 0.129073 0.099485 255 220 0
0.550582 0.086056 0.086641 255 220 0
0.499039 0.154815 0.053709 255 220 0
0.494036 0.148694 0.083940 255 220 0
0.567147 0.115770 0.053754 255 220 0
0.489042 0.184786 0.076170 255 220 0
0.580866 0.179378 0.067461 255 220 0
0.559674 0.151190 0.098223 255 220 0
0.499539 0.134858 0.088125 255 220 0
0.574044 0.133652 0.082333 255 220 0
0.558929 0.116165 0.046731 255 220 0
0.555217 0.152176 0.034239 255 220 0
0.580388 0.173909 0.076560 255 220 0
0.534206 0.226514 0.100078 255 220 0
0.558571 0.157000 0.035033 255 220 0
0.564335 0.212869 0.092013 255 220 0
0.534561 0.200469 0.106687 255 220 0
0.563963 0.192230 0.039697 255 220 0
0.546595 0.177884 0.029494 255 220 0
0.557377 0.088343 0.065053 255 220 0
0.519586 0.069173 0.089962 255 220 0
0.491499 0.161905 0.083821 255 220 0
0.560464 0.106930 0.087121 255 220 0
0.535831 0.236393 0.093130 255 220 0
0.520089 0.197736 0.105514 255 220 0
0.564590 0.137414 0.093119 255 220 0
0.555581 0.129212 0.039489 255 220 0
0.547215 0.216390 0.102239 255 220 0
0.568053 0.146446 0.042914 255 220 0
0.497685 0.135232 0.066801 255 220 0
0.526843 0.117416 0.043214 255 220 0
0.537132 0.167807 0.105829 255 220 0
0.545768 0.217480 0.102360 255 220 0
0.544408 0.163793 0.029608 255 220 0
0.545243 0.144180 0.102046 255 220 0
0.493351 0.147843 0.080247 255 220 0
0.490235 0.198168 0.077545 255 220 0
0.552244 0.109038 0.093992 255 220 0
0.522821 0.189260 0.031528 255 220 0
0.523761 0.159427 0.104802 255 220 0
0.491390 0.200406 0.081339 255 220 0
0.528565 0.120975 0.101348 255 220 0
0.575372 0.174599 0.048460 255 220 0
0.519165 0.078623 0.067564 255 220 0
0.534858 0.234226 0.046305 255 220 0
0.532674 0.239421 0.050246 255 220 0
0.558073 0.136522 0.096867 255 220 0
0.500084 0.213420 0.089884 255 220 0
0.534216 0.247963 0.077751 255 220 0
0.557913 0.119020 0.044702 255 220 0
0.505014 0.197979 0.099278 255 220 0
0.505535 0.150202 0.047615 255 220 0
0.530789 0.183643 0.029248 255 220 0
0.556132 0.094313 0.058043 255 220 0
0.524656 0.118511 0.043709 255 220 0
0.526527 0.161745 0.105350 255 220 0
0.550089 0.099636 0.092880 255 220 0
0.549281 0.240783 0.057984 255 220 0
0.506956 0.147877 0.046893 255 220 0
0.573311 0.148018 0.047366 255 220 0
0.523249 0.140851 0.037047 255 220 0
0.510439 0.137015 0.098538 255 220 0
0.524285 0.242052 0.055243 255 220 0
0.548879 0.241572 0.058855 255 220 0
0.557188 0.203319 0.038406 255 220 0
0.512159 0.113526 0.054199 255 220 0
0.508413 0.226173 0.054175 255 220 0
0.499703 0.203764 0.093630 255 220 0
0.564736 0.219044 0.088355 255 220 0
0.499863 0.119834 0.076772 255 220 0
0.565353 0.098962 0.070114 255 220 0
0.493485 0.198268 0.087456 255 220 0
0.548543 0.163342 0.030508 255 220 0
0.582257 0.164618 0.070415 255 220 0
0.504941 0.089378 0.087865 255 220 0
0.508920 0.149912 0.044373 255 220 0
0.512938 0.215824 0.099143 255 220 0
0.576099 0.170871 0.085179 255 220 0
0.489085 0.175712 0.071791 255 220 0
0.524801 0.071590 0.072207 255 220 0
0.493602 0.148886 0.082646 255 220 0
0.541163 0.075891 0.089401 255 220 0
0.518975 0.180240 0.032727 255 220 0
0.551132 0.209328 0.037245 255 220 0
0.507297 0.152737 0.099284 255 220 0
0.569247 0.169233 0.041172 255 220 0
0.522958 0.089164 0.057930 255 220 0
0.526235 0.122292 0.101303 255 220 0
0.554876 0.091222 0.084626 255 220 0
0.537218 0.200557 0.106502 255 220 0
0.531412 0.197055 0.106912 255 220 0
0.553711 0.095826 0.088720 255 220 0
0.516689 0.187338 0.034026 255 220 0
0.528943 0.188148 0.029794 255 220 0
0.494040 0.204857 0.085222 255 220 0
0.514845 0.177545 0.034977 255 220 0
0.500620 0.200840 0.095307 255 220 0
0.500656 0.219136 0.086793 255 220 0
0.563599 0.202455 0.095581 255 220 0
0.518572 0.119656 0.046609 255 220 0
0.529442 0.107558 0.100560 255 220 0
0.544924 0.237127 0.050817 255 220 0
0.554748 0.163479 0.101782 255 220 0
0.567641 0.129917 0.088799 255 220 0
0.565077 0.125184 0.047024 255 220 0
0.521479 0.091837 0.100915 255 220 0
0.508109 0.109978 0.094529 255 220 0
0.530641 0.205561 0.106191 255 220 0
0.577025 0.130923 0.057349 255 220 0
0.525186 0.114763 0.100839 255 220 0
0.557974 0.230589 0.087225 255 220 0
0.489653 0.193522 0.071247 255 220 0
0.551766 0.090943 0.088322 255 220 0
0.572406 0.172453 0.044410 255 220 0
0.580052 0.183169 0.063322 255 220 0
0.510060 0.086886 0.096439 255 220 0
0.532229 0.184830 0.107041 255 220 0
0.537499 0.157158 0.030050 255 220 0
0.508255 0.201978 0.041644 255 220 0
0.546295 0.161100 0.103828 255 220 0
0.564449 0.097365 0.067542 255 220 0
0.529283 0.172293 0.106418 255 220 0
0.555078 0.164422 0.101733 255 220 0
0.542304 0.247763 0.069251 255 220 0
0.494856 0.164953 0.056743 255 220 0
0.502632 0.103543 0.081017 255 220 0
0.508972 0.217142 0.096297 255 220 0
0.511553 0.235165 0.083871 255 220 0
0.565508 0.114139 0.053123 255 220 0
0.531694 0.070310 0.090767 255 220 0
0.537783 0.081776 0.096223 255 220 0
0.528076 0.082445 0.100456 255 220 0
0.546654 0.075510 0.073041 255 220 0
0.551813 0.103084 0.049624 255 220 0
0.564623 0.150401 0.094971 255 220 0
0.506170 0.156217 0.099159 255 220 0
0.543242 0.114396 0.041860 255 220 0
0.573158 0.169502 0.088632 255 220 0
0.537605 0.152767 0.104448 255 220 0
0.503640 0.114065 0.088644 255 220 0
0.491916 0.151965 0.075154 255 220 0
0.537858 0.130625 0.101671 255 220 0
0.569478 0.130413 0.087016 255 220 0
0.500726 0.226289 0.076784 255 220 0
0.498963 0.167756 0.095559 255 220 0
0.572814 0.117091 0.074741 255 220 0
0.558787 0.150415 0.036142 255 220 0
0.535456 0.105771 0.099523 255 220 0
0.535842 0.226692 0.100003 255 220 0
0.548211 0.234550 0.091339 255 220 0
0.580288 0.179467 0.075068 255 220 0
0.503420 0.099031 0.077831 255 220 0
0.524395 0.115553 0.044949 255 220 0
0.550926 0.224259 0.097405 255 220 0
0.529438 0.200495 0.106645 255 220 0
0.522730 0.100554 0.100634 255 220 0
0.492299 0.204783 0.080375 255 220 0
0.505411 0.133686 0.053597 255 220 0
0.513885 0.096931 0.059944 255 220 0
0.533626 0.248316 0.076495 255 220 0
0.545577 0.108442 0.096708 255 220 0
0.507999 0.219004 0.094695 255 220 0
0.567260 0.143025 0.043013 255 220 0
0.537637 0.111761 0.099641 255 220 0
0.575472 0.120390 0.070159 255 220 0
0.527543 0.129858 0.102019 255 220 0
0.527912 0.115761 0.043464 255 220 0
0.493967 0.210162 0.079767 255 220 0
0.578549 0.151440 0.080185 255 220 0
0.501756 0.121260 0.065431 255 220 0
0.560622 0.147797 0.037561 255 220 0
0.543524 0.105182 0.046162 255 220 0
0.502407 0.133625 0.091800 255 220 0
0.534818 0.137654 0.102900 255 220 0
0.580474 0.173513 0.076345 255 220 0
0.556769 0.181687 0.033207 255 220 0
0.564818 0.099506 0.064106 255 220 0
0.492886 0.188783 0.088512 255 220 0
0.526395 0.067934 0.083042 255 220 0
0.514839 0.188597 0.104539 255 220 0
0.503514 0.196326 0.098501 255 220 0
0.510234 0.176355 0.102696 255 220 0
0.542191 0.231910 0.095901 255 220 0
0.571604 0.201021 0.086096 255 220 0
0.561011 0.184930 0.099149 255 220 0
0.544286 0.118397 0.040298 255 220 0
0.506585 0.131802 0.052899 255 220 0
0.504973 0.089361 0.079475 255 220 0
0.500712 0.171982 0.047475 255 220 0
0.556315 0.111892 0.047213 255 220 0
0.559072 0.215813 0.045717 255 220 0
0.515875 0.226880 0.047845 255 220 0
0.545793 0.102416 0.047994 255 220 0
0.569212 0.146809 0.090657 255 220 0
0.522603 0.165602 0.105210 255 220 0
0.563836 0.130628 0.043967 255 220 0
0.540216 0.241285 0.052791 255 220 0
0.499114 0.184525 0.096129 255 220 0
0.498822 0.173399 0.049530 255 220 0
0.495028 0.214154 0.070485 255 220 0
0.495014 0.149066 0.086640 255 220 0
0.547194 0.238217 0.053060 255 220 0
0.500841 0.150067 0.053070 255 220 0
0.531926 0.221894 0.039186 255 220 0
0.506089 0.086262 0.078195 255 220 0
0.497801 0.163875 0.094091 255 220 0
0.573236 0.208808 0.070740 255 220 0
0.555550 0.125952 0.095979 255 220 0
0.506201 0.123955 0.093573 255 220 0
0.499224 0.208502 0.091306 255 220 0
0.532289 0.107478 0.100257 255 220 0
0.523901 0.196878 0.032449 255 220 0
0.498329 0.136570 0.063831 255 220 0
0.498892 0.220649 0.065240 255 220 0
0.568078 0.205440 0.089901 255 220 0
0.536630 0.070227 0.085475 255 220 0
0.523809 0.155783 0.104442 255 220 0
0.523699 0.246418 0.064845 255 220 0
0.528466 0.069435 0.091187 255 220 0
0.549245 0.156520 0.031594 255 220 0
0.510032 0.196760 0.102235 255 220 0
0.576346 0.187061 0.053406 255 220 0
0.547105 0.082977 0.088831 255 220 0
0.491832 0.171203 0.061219 255 220 0
0.511069 0.141153 0.099400 255 220 0
0.515988 0.199507 0.104228 255 220 0
0.563569 0.210211 0.093708 255 220 0
0.502364 0.226143 0.082312 255 220 0
0.574462 0.198691 0.081493 255 220 0
0.572774 0.205915 0.080309 255 220 0
0.553099 0.208589 0.101625 255 220 0
0.564945 0.195928 0.095448 255 220 0
0.564694 0.226267 0.080529 255 220 0
0.547467 0.124754 0.098541 255 220 0
0.544063 0.076042 0.085404 255 220 0
0.543466 0.133192 0.100841 255 220 0
0.504114 0.229787 0.080088 255 220 0
0.524935 0.074310 0.098044 255 220 0
0.571588 0.147877 0.045716 255 220 0
0.528692 0.245331 0.057659 255 220 0
0.489765 0.182602 0.066679 255 220 0
0.491911 0.165930 0.086076 255 220 0
0.518243 0.148027 0.037761 255 220 0
0.502111 0.132606 0.091109 255 220 0
0.502484 0.110943 0.085046 255 220 0
0.532524 0.117272 0.100972 255 220 0
0.532589 0.101138 0.048613 255 220 0
0.545012 0.160822 0.104037 255 220 0
0.557671 0.210679 0.098435 255 220 0
0.539126 0.152543 0.104230 255 220 0
0.582405 0.151302 0.062102 255 220 0
0.522525 0.125761 0.101060 255 220 0
0.539142 0.121983 0.100426 255 220 0
0.571406 0.149760 0.088824 255 220 0
0.520574 0.106787 0.050501 255 220 0
0.520348 0.210322 0.037767 255 220 0
0.492489 0.179669 0.088433 255 220 0
0.544518 0.167196 0.104650 255 220 0
0.561135 0.110747 0.051265 255 220 0
0.569670 0.112932 0.058765 255 220 0
0.556184 0.166403 0.101405 255 220 0
0.494546 0.178586 0.055071 255 220 0
0.575982 0.194370 0.056887 255 220 0
0.576809 0.167727 0.050056 255 220 0
0.565598 0.196650 0.042628 255 220 0
0.557164 0.130695 0.096197 255 220 0
0.504979 0.220238 0.091373 255 220 0
0.554185 0.120494 0.095499 255 220 0
0.519071 0.219766 0.042098 255 220 0
0.502541 0.168576 0.098332 255 220 0
0.562333 0.167629 0.036042 255 220 0
0.572282 0.207163 0.059616 255 220 0
0.571673 0.115149 0.075514 255 220 0
0.558128 0.131382 0.040096 255 220 0
0.534707 0.130455 0.102050 255 220 0
0.494444 0.164604 0.057530 255 220 0
0.505963 0.111540 0.092097 255 220 0
0.549523 0.206501 0.103581 255 220 0
0.527471 0.084526 0.059314 255 220 0
0.491907 0.204882 0.070731 255 220 0
0.516426 0.145593 0.101778 255 220 0
0.569273 0.123305 0.084584 255 220 0
0.535474 0.069988 0.075371 255 220 0
0.527510 0.077008 0.065483 255 220 0
0.536769 0.247976 0.063071 255 220 0
0.505069 0.192924 0.042392 255 220 0
0.579152 0.190803 0.068966 255 220 0
0.517014 0.144650 0.101820 255 220 0
0.546233 0.194384 0.105325 255 220 0
0.545026 0.206141 0.104947 255 220 0
0.506828 0.185200 0.101311 255 220 0
0.529929 0.228721 0.098465 255 220 0
0.500097 0.122179 0.082273 255 220 0
0.499768 0.184745 0.047553 255 220 0
0.557061 0.162649 0.033639 255 220 0
0.525367 0.238633 0.089988 255 220 0
0.533735 0.176816 0.028745 255 220 0
0.498506 0.141407 0.089286 255 220 0
0.494235 0.194709 0.057434 255 220 0
0.532426 0.093340 0.052742 255 220 0
0.536650 0.084675 0.097457 255 220 0
0.518835 0.162713 0.104212 255 220 0
0.554857 0.168293 0.032199 255 220 0
0.523525 0.074148 0.069548 255 220 0
0.559018 0.129967 0.041045 255 220 0
0.492071 0.153112 0.070117 255 220 0
0.580116 0.166162 0.078335 255 220 0
0.572809 0.189173 0.048243 255 220 0
0.505933 0.109141 0.063900 255 220 0
0.517443 0.206602 0.037712 255 220 0
0.543192 0.241531 0.054292 255 220 0
0.570843 0.146154 0.045357 255 220 0
0.519229 0.186692 0.032750 255 220 0
0.547727 0.160025 0.103444 255 220 0
0.490153 0.191338 0.081485 255 220 0
0.492438 0.151437 0.070322 255 220 0
0.574177 0.174488 0.046737 255 220 0
0.564411 0.102366 0.078549 255 220 0
0.578153 0.173758 0.081987 255 220 0
0.511880 0.172620 0.037239 255 220 0
0.559942 0.129329 0.041811 255 220 0
0.571642 0.111478 0.065429 255 220 0
0.546360 0.167743 0.104371 255 220 0
0.557339 0.228661 0.052881 255 220 0
0.512262 0.209173 0.041314 255 220 0
0.570697 0.186699 0.044733 255 220 0
0.557496 0.134315 0.038898 255 220 0
0.556672 0.169639 0.032909 255 220 0
0.552362 0.240503 0.079631 255 220 0
0.528720 0.068086 0.086529 255 220 0
0.553159 0.084639 0.064791 255 220 0
0.528587 0.071386 0.071807 255 220 0
0.543836 0.156976 0.103889 255 220 0
0.506139 0.187678 0.100881 255 220 0
0.505839 0.208552 0.097449 255 220 0
0.527000 0.245688 0.059195 255 220 0
0.546060 0.238513 0.088302 255 220 0
0.521765 0.072071 0.096054 255 220 0
0.510657 0.197634 0.038900 255 220 0
0.579612 0.178479 0.077978 255 220 0
0.544329 0.118344 0.040321 255 220 0
0.489091 0.175338 0.076344 255 220 0
0.547349 0.243771 0.079300 255 220 0
0.509068 0.111811 0.058232 255 220 0
0.573580 0.188805 0.049236 255 220 0
0.502606 0.131156 0.091268 255 220 0
0.549744 0.123323 0.039395 255 220 0
0.492143 0.187234 0.060015 255 220 0
0.534368 0.178206 0.028699 255 220 0
0.511428 0.217197 0.045583 255 220 0
0.578609 0.129848 0.062147 255 220 0
0.496804 0.210257 0.086905 255 220 0
0.491683 0.176604 0.086847 255 220 0
0.523663 0.242501 0.056233 255 220 0
0.516412 0.172430 0.104462 255 220 0
0.537832 0.077513 0.094169 255 220 0
0.550920 0.158737 0.031757 255 220 0
0.521336 0.170948 0.105459 255 220 0
0.527416 0.185041 0.029912 255 220 0
0.509057 0.122387 0.053779 255 220 0
0.507479 0.184100 0.101654 255 220 0
0.567242 0.117245 0.052966 255 220 0
0.534060 0.197686 0.106848 255 220 0
0.523340 0.223642 0.099779 255 220 0
0.542547 0.110566 0.098078 255 220 0
0.575260 0.139986 0.082547 255 220 0
0.562884 0.096240 0.074745 255 220 0
0.518163 0.130297 0.100497 255 220 0
0.537108 0.180099 0.028653 255 220 0
0.543022 0.103449 0.046994 255 220 0
0.550411 0.240271 0.082704 255 220 0
0.524855 0.197662 0.106383 255 220 0
0.568887 0.203471 0.089443 255 220 0
0.501037 0.155891 0.050869 255 220 0
0.571408 0.164614 0.043392 255 220 0
0.512049 0.079145 0.073427 255 220 0
0.519655 0.215438 0.101978 255 220 0
0.502990 0.140953 0.053814 255 220 0
0.509782 0.149551 0.100012 255 220 0
0.575254 0.157210 0.048150 255 220 0
0.501317 0.131215 0.089517 255 220 0
0.495967 0.140740 0.067570 255 220 0
0.495316 0.168544 0.091933 255 220 0
0.557586 0.215647 0.097011 255 220 0
0.559161 0.110492 0.049889 255 220 0
0.537591 0.161645 0.105274 255 220 0
0.579046 0.185501 0.077121 255 220 0
0.537576 0.186924 0.106674 255 220 0
0.539879 0.123658 0.100453 255 220 0
0.524968 0.234718 0.093342 255 220 0
0.515730 0.237287 0.085518 255 220 0
0.531862 0.202640 0.106550 255 220 0
0.498979 0.166013 0.050700 255 220 0
0.513920 0.133153 0.099474 255 220 0
0.494672 0.210028 0.082390 255 220 0
0.520135 0.231431 0.048256 255 220 0
0.531004 0.240335 0.051187 255 220 0
0.497346 0.136772 0.084198 255 220 0
0.490320 0.172523 0.065323 255 220 0
0.573545 0.201315 0.056683 255 220 0
0.498891 0.142866 0.090425 255 220 0
0.581117 0.172948 0.063588 255 220 0
0.548618 0.221303 0.041732 255 220 0
0.566532 0.164539 0.039142 255 220 0
0.554028 0.198974 0.102549 255 220 0
0.523316 0.134717 0.038825 255 220 0
0.569546 0.218197 0.073784 255 220 0
0.536805 0.141928 0.033292 255 220 0
0.506648 0.161681 0.043376 255 220 0
0.564726 0.174181 0.037494 255 220 0
0.501836 0.187478 0.098164 255 220 0
0.578632 0.160548 0.052703 255 220 0
0.529275 0.087573 0.056827 255 220 0
0.526793 0.071158 0.094595 255 220 0
0.552644 0.206571 0.036946 255 220 0
0.489962 0.163541 0.076481 255 220 0
0.515678 0.155120 0.102675 255 220 0
0.539193 0.192312 0.106488 255 220 0
0.522961 0.072747 0.096851 255 220 0
0.542771 0.161152 0.029692 255 220 0
0.521215 0.069651 0.092220 255 220 0
0.582856 0.157502 0.068628 255 220 0
0.532288 0.090244 0.054602 255 220 0
0.573717 0.119791 0.075197 255 220 0
0.499814 0.134885 0.088621 255 220 0
0.525783 0.087668 0.101070 255 220 0
0.523744 0.095684 0.100792 255 220 0
0.518087 0.219559 0.042470 255 220 0
0.493732 0.146464 0.070481 255 220 0
