ply
format ascii 1.0
element vertex 1024
property float x
property float y
property float z
property uchar red
property uchar green
property uchar blue
end_header
0.552104 0.180914 0.207602 255 220 0
0.556386 0.135954 0.177266 255 220 0
0.561637 0.146488 0.164622 255 220 0
0.548937 0.244813 0.221924 255 220 0
0.546960 0.189711 0.144314 255 220 0
0.516401 0.172081 0.149317 255 220 0
0.553978 0.199423 0.212356 255 220 0
0.533922 0.177284 0.212795 255 220 0
0.513655 0.139117 0.158655 255 220 0
0.507528 0.155497 0.204711 255 220 0
0.539537 0.163293 0.145699 255 220 0
0.519605 0.107215 0.193037 255 220 0
0.568628 0.190518 0.195949 255 220 0
0.485371 0.223131 0.196039 255 220 0
0.565337 0.249998 0.204775 255 220 0
0.538599 0.251931 0.154731 255 220 0
0.506003 0.185165 0.155089 255 220 0
0.516487 0.110542 0.197562 255 220 0
0.511200 0.271391 0.175911 255 220 0
0.542315 0.155286 0.202941 255 220 0
0.556541 0.273375 0.194514 255 220 0
0.491516 0.246717 0.206024 255 220 0
0.529406 0.108715 0.189287 255 220 0
0.536072 0.168855 0.144477 255 220 0
0.502879 0.158578 0.163748 255 220 0
0.494251 0.256200 0.187682 255 220 0
0.525168 0.284425 0.205143 255 220 0
0.577034 0.205274 0.178903 255 220 0
0.537366 0.276104 0.172570 255 220 0
0.516750 0.152905 0.153013 255 220 0
0.498096 0.242878 0.167458 255 220 0
0.576133 0.194086 0.183275 255 220 0
0.495725 0.157886 0.189149 255 220 0
0.559089 0.144556 0.162014 255 220 0
0.497437 0.174949 0.167447 255 220 0
0.536578 0.144610 0.202095 255 220 0
0.568641 0.223077 0.203235 255 220 0
0.499208 0.250409 0.215243 255 220 0
0.535569 0.190837 0.216424 255 220 0
0.540257 0.285064 0.188721 255 220 0
0.569069 0.207178 0.158510 255 220 0
0.518101 0.114295 0.169109 255 220 0
0.547040 0.215942 0.219347 255 220 0
0.534147 0.138633 0.201308 255 220 0
0.574358 0.226332 0.176298 255 220 0
0.531452 0.196250 0.142575 255 220 0
0.513327 0.265097 0.168382 255 220 0
0.568132 0.246047 0.177856 255 220 0
0.549031 0.172195 0.146458 255 220 0
0.538379 0.283460 0.182354 255 220 0
0.505947 0.112239 0.184089 255 220 0
0.563909 0.255493 0.204502 255 220 0
0.556628 0.171609 0.201608 255 220 0
0.529190 0.110646 0.193010 255 220 0
0.536455 0.248605 0.225638 255 220 0
0.497563 0.146570 0.179930 255 220 0
0.548931 0.234678 0.221728 255 220 0
0.489125 0.224243 0.207985 255 220 0
0.487855 0.241792 0.196197 255 220 0
0.575606 0.184663 0.179888 255 220 0
0.532450 0.256801 0.156587 255 220 0
0.534792 0.286716 0.198268 255 220 0
0.528340 0.194471 0.142971 255 220 0
0.495949 0.239535 0.215029 255 220 0
0.528949 0.172772 0.212169 255 220 0
0.514342 0.231901 0.150625 255 220 0
0.525912 0.143930 0.205008 255 220 0
0.516680 0.181647 0.147800 255 220 0
0.489796 0.206809 0.206653 255 220 0
0.542730 0.195518 0.215724 255 220 0
0.523267 0.161586 0.148174 255 220 0
0.521214 0.230116 0.147628 255 220 0
0.553340 0.216102 0.147936 255 220 0
0.541625 0.239778 0.150091 255 220 0
0.530019 0.245208 0.150874 255 220 0
0.544179 0.239568 0.223931 255 220 0
0.544315 0.282939 0.199506 255 220 0
0.571996 0.238211 0.181424 255 220 0
0.494444 0.187852 0.206219 255 220 0
0.490913 0.241796 0.207842 255 220 0
0.496851 0.262996 0.190951 255 220 0
0.503828 0.149870 0.164919 255 220 0
0.505471 0.231453 0.156212 255 220 0
0.556161 0.192767 0.148059 255 220 0
0.520720 0.128180 0.159467 255 220 0
0.574161 0.225768 0.175028 255 220 0
0.505271 0.264090 0.174962 255 220 0
0.502062 0.138263 0.196783 255 220 0
0.575451 0.212698 0.173137 255 220 0
0.549325 0.136459 0.190745 255 220 0
0.526479 0.110085 0.171946 255 220 0
0.539379 0.205495 0.142935 255 220 0
0.543834 0.233510 0.148467 255 220 0
0.540587 0.256861 0.158173 255 220 0
0.545933 0.190509 0.213272 255 220 0
0.518942 0.168839 0.211005 255 220 0
0.562411 0.224755 0.210849 255 220 0
0.559809 0.167151 0.153213 255 220 0
0.542437 0.220538 0.221695 255 220 0
0.518245 0.213436 0.222923 255 220 0
0.524019 0.237668 0.226458 255 220 0
0.490331 0.181602 0.183045 255 220 0
0.494065 0.223138 0.166875 255 220 0
0.513667 0.116949 0.169468 255 220 0
0.490014 0.224499 0.173934 255 220 0
0.493992 0.186740 0.205196 255 220 0
0.549888 0.169614 0.204582 255 220 0
0.523256 0.137171 0.204106 255 220 0
0.542537 0.184574 0.212628 255 220 0
0.574548 0.223190 0.174850 255 220 0
0.499273 0.233026 0.162158 255 220 0
0.557277 0.269576 0.203302 255 220 0
0.506199 0.164052 0.158622 255 220 0
0.506546 0.263377 0.215329 255 220 0
0.516789 0.259076 0.222163 255 220 0
0.520597 0.197077 0.219128 255 220 0
0.518081 0.238983 0.225789 255 220 0
0.551786 0.271372 0.209149 255 220 0
0.539882 0.210218 0.143252 255 220 0
0.541092 0.272894 0.170756 255 220 0
0.546691 0.268264 0.215690 255 220 0
0.538147 0.249107 0.153190 255 220 0
0.495332 0.157893 0.181830 255 220 0
0.510119 0.148733 0.204699 255 220 0
0.495817 0.166026 0.173648 255 220 0
0.563120 0.179065 0.198802 255 220 0
0.562330 0.178646 0.152653 255 220 0
0.517065 0.222924 0.147723 255 220 0
0.511647 0.253235 0.161474 255 220 0
0.537606 0.194239 0.142613 255 220 0
0.540772 0.276449 0.174121 255 220 0
0.554663 0.140872 0.187152 255 220 0
0.537104 0.168482 0.144544 255 220 0
0.489205 0.241991 0.203749 255 220 0
0.556197 0.272388 0.185888 255 220 0
0.492590 0.187125 0.172542 255 220 0
0.565255 0.203598 0.154339 255 220 0
0.544914 0.204121 0.217289 255 220 0
0.502125 0.135083 0.172893 255 220 0
0.508782 0.276120 0.186184 255 220 0
0.530543 0.163423 0.209223 255 220 0
0.522401 0.164024 0.147994 255 220 0
0.531815 0.124768 0.198872 255 220 0
0.560697 0.204115 0.208542 255 220 0
0.558453 0.210564 0.211924 255 220 0
0.567981 0.161005 0.180552 255 220 0
0.576136 0.183088 0.172489 255 220 0
0.494285 0.239210 0.171325 255 220 0
0.550507 0.279301 0.194632 255 220 0
0.524621 0.165170 0.147033 255 220 0
0.540597 0.184713 0.213310 255 220 0
0.526594 0.142288 0.152330 255 220 0
0.549085 0.193915 0.144978 255 220 0
0.547475 0.223064 0.146786 255 220 0
0.533411 0.201607 0.142447 255 220 0
0.494125 0.190683 0.168860 255 220 0
0.559772 0.164053 0.154050 255 220 0
0.571825 0.187521 0.160348 255 220 0
0.514237 0.261051 0.164887 255 220 0
0.487991 0.191913 0.195293 255 220 0
0.533923 0.201605 0.219614 255 220 0
0.509724 0.111937 0.195634 255 220 0
0.537570 0.235884 0.148050 255 220 0
0.539859 0.177251 0.143546 255 220 0
0.542522 0.243628 0.224568 255 220 0
0.516686 0.279690 0.181051 255 220 0
0.576977 0.193228 0.179350 255 220 0
0.549518 0.163703 0.148399 255 220 0
0.570306 0.204705 0.197789 255 220 0
0.538323 0.130499 0.157149 255 220 0
0.487715 0.228183 0.180507 255 220 0
0.496237 0.155244 0.178868 255 220 0
0.526218 0.281146 0.210410 255 220 0
0.575653 0.212441 0.173876 255 220 0
0.534244 0.247127 0.151735 255 220 0
0.545800 0.194909 0.143972 255 220 0
0.508091 0.276669 0.199412 255 220 0
0.549144 0.255718 0.220117 255 220 0
0.556057 0.263774 0.173690 255 220 0
0.552679 0.269534 0.175622 255 220 0
0.522829 0.280635 0.210045 255 220 0
0.561864 0.167081 0.154658 255 220 0
0.547818 0.149729 0.151788 255 220 0
0.543106 0.281084 0.181690 255 220 0
0.553263 0.253636 0.162939 255 220 0
0.542030 0.244450 0.152081 255 220 0
0.519739 0.151247 0.151959 255 220 0
0.534359 0.234696 0.147447 255 220 0
0.574341 0.188011 0.164109 255 220 0
0.509276 0.180973 0.212804 255 220 0
0.505315 0.273463 0.188165 255 220 0
0.527988 0.201368 0.142862 255 220 0
0.565010 0.226613 0.158864 255 220 0
0.569878 0.161342 0.171425 255 220 0
0.529937 0.153111 0.206530 255 220 0
0.543702 0.127613 0.191428 255 220 0
0.485527 0.220698 0.186334 255 220 0
0.501903 0.151025 0.167258 255 220 0
0.555317 0.273771 0.186891 255 220 0
0.530509 0.164636 0.209574 255 220 0
0.549526 0.225677 0.220273 255 220 0
0.530082 0.265691 0.221446 255 220 0
0.552418 0.199746 0.213286 255 220 0
0.520975 0.111977 0.198787 255 220 0
0.534025 0.197777 0.142463 255 220 0
0.518434 0.266499 0.219519 255 220 0
0.529285 0.110244 0.192339 255 220 0
0.529554 0.232257 0.226109 255 220 0
0.521047 0.166903 0.147980 255 220 0
0.496461 0.259584 0.205673 255 220 0
0.529742 0.252042 0.225613 255 220 0
0.503431 0.255792 0.216824 255 220 0
0.492110 0.203808 0.169798 255 220 0
0.531696 0.142773 0.151405 255 220 0
0.532165 0.160409 0.208070 255 220 0
0.553778 0.232532 0.218849 255 220 0
0.502076 0.138330 0.196815 255 220 0
0.550648 0.127429 0.179052 255 220 0
0.490371 0.219479 0.209591 255 220 0
0.517560 0.276174 0.175880 255 220 0
0.552783 0.139105 0.188433 255 220 0
0.502126 0.171786 0.206431 255 220 0
0.487196 0.194670 0.185103 255 220 0
0.509409 0.155500 0.205595 255 220 0
0.485717 0.213966 0.197810 255 220 0
0.549201 0.257782 0.162924 255 220 0
0.506715 0.273466 0.184841 255 220 0
0.502911 0.271482 0.190163 255 220 0
0.550386 0.201677 0.214746 255 220 0
0.496525 0.195937 0.164384 255 220 0
0.574666 0.214978 0.191864 255 220 0
0.487646 0.195361 0.182063 255 220 0
0.509345 0.238597 0.223497 255 220 0
0.519976 0.149812 0.152233 255 220 0
0.542158 0.191483 0.214791 255 220 0
0.541501 0.264977 0.219947 255 220 0
0.571175 0.168352 0.179640 255 220 0
0.518632 0.284635 0.191449 255 220 0
0.503867 0.236961 0.159115 255 220 0
0.515033 0.258658 0.221759 255 220 0
0.541636 0.173596 0.144213 255 220 0
0.535602 0.228340 0.224843 255 220 0
0.509535 0.271173 0.177453 255 220 0
0.537208 0.262730 0.161131 255 220 0
0.569119 0.205174 0.158249 255 220 0
0.557986 0.165112 0.197872 255 220 0
0.566779 0.178101 0.193987 255 220 0
0.509086 0.149095 0.159404 255 220 0
0.550686 0.269918 0.211550 255 220 0
0.497776 0.258190 0.209487 255 220 0
0.497289 0.264708 0.196866 255 220 0
0.527693 0.187929 0.143444 255 220 0
0.530914 0.267338 0.163911 255 220 0
0.549598 0.226058 0.220301 255 220 0
0.514859 0.116625 0.200955 255 220 0
0.565470 0.230034 0.207812 255 220 0
0.490357 0.248828 0.192019 255 220 0
0.532253 0.188378 0.216334 255 220 0
0.556501 0.188681 0.148328 255 220 0
0.544396 0.126083 0.189704 255 220 0
0.544833 0.225413 0.146486 255 220 0
0.544712 0.172281 0.207738 255 220 0
0.568189 0.174991 0.158024 255 220 0
0.503567 0.271695 0.188516 255 220 0
0.488721 0.198214 0.201853 255 220 0
0.556184 0.248761 0.162061 255 220 0
0.561381 0.266117 0.190857 255 220 0
0.492966 0.187658 0.171657 255 220 0
0.528676 0.189066 0.143199 255 220 0
0.567310 0.252604 0.190228 255 220 0
0.576499 0.186106 0.171656 255 220 0
0.509122 0.267637 0.214273 255 220 0
0.561895 0.215206 0.153027 255 220 0
0.534006 0.174152 0.143790 255 220 0
0.503282 0.267008 0.181229 255 220 0
0.548632 0.156631 0.149942 255 220 0
0.497910 0.145283 0.189090 255 220 0
0.563716 0.162671 0.190299 255 220 0
0.522464 0.154206 0.207496 255 220 0
0.511284 0.226975 0.151227 255 220 0
0.517978 0.124690 0.162277 255 220 0
0.533579 0.146862 0.203895 255 220 0
0.501684 0.156722 0.165890 255 220 0
0.572160 0.222471 0.167763 255 220 0
0.569221 0.228468 0.202371 255 220 0
0.536251 0.259901 0.158948 255 220 0
0.526939 0.240138 0.226585 255 220 0
0.529597 0.179040 0.143782 255 220 0
0.556129 0.190933 0.148062 255 220 0
0.525391 0.260465 0.159690 255 220 0
0.530375 0.210685 0.222358 255 220 0
0.567040 0.204006 0.155953 255 220 0
0.522356 0.163219 0.209659 255 220 0
0.495626 0.187645 0.207341 255 220 0
0.528119 0.179357 0.214183 255 220 0
0.573662 0.175503 0.178905 255 220 0
0.500571 0.248124 0.167495 255 220 0
0.576293 0.183857 0.174122 255 220 0
0.538898 0.223729 0.223316 255 220 0
0.534799 0.236369 0.147979 255 220 0
0.496497 0.235251 0.166199 255 220 0
0.519280 0.231662 0.148563 255 220 0
0.494009 0.230406 0.214182 255 220 0
0.536206 0.254365 0.155557 255 220 0
0.573674 0.172284 0.171429 255 220 0
0.500234 0.176369 0.206787 255 220 0
0.571938 0.234552 0.194673 255 220 0
0.567829 0.240850 0.202805 255 220 0
0.500574 0.197319 0.214030 255 220 0
0.511140 0.270714 0.213152 255 220 0
0.487756 0.224723 0.179194 255 220 0
0.513801 0.148279 0.205706 255 220 0
0.547572 0.135154 0.191745 255 220 0
0.520868 0.265416 0.164660 255 220 0
0.517292 0.213486 0.146517 255 220 0
0.554965 0.132234 0.172920 255 220 0
0.562744 0.258162 0.204946 255 220 0
0.513111 0.225636 0.149986 255 220 0
0.493133 0.256403 0.194921 255 220 0
0.506687 0.170527 0.208592 255 220 0
0.510118 0.110091 0.193499 255 220 0
0.491740 0.211836 0.169889 255 220 0
0.516099 0.106624 0.182980 255 220 0
0.528543 0.145052 0.204771 255 220 0
0.562095 0.244695 0.211262 255 220 0
0.493758 0.188125 0.170088 255 220 0
0.572568 0.201094 0.193242 255 220 0
0.577263 0.197253 0.179045 255 220 0
0.548395 0.124774 0.180608 255 220 0
0.527789 0.137380 0.203183 255 220 0
0.576237 0.186648 0.178743 255 220 0
0.569596 0.223208 0.201846 255 220 0
0.535180 0.285343 0.203021 255 220 0
0.515107 0.106434 0.187805 255 220 0
0.527432 0.245893 0.226344 255 220 0
0.501755 0.138028 0.196279 255 220 0
0.506653 0.244938 0.160289 255 220 0
0.485242 0.216911 0.187528 255 220 0
0.535435 0.233295 0.147074 255 220 0
0.500191 0.173682 0.205658 255 220 0
0.509374 0.122871 0.200670 255 220 0
0.489685 0.182791 0.186922 255 220 0
0.499887 0.151255 0.170593 255 220 0
0.564104 0.179376 0.197835 255 220 0
0.542565 0.246984 0.224425 255 220 0
0.546594 0.222510 0.220791 255 220 0
0.489099 0.189893 0.197768 255 220 0
0.574007 0.221976 0.193343 255 220 0
0.535661 0.243804 0.226053 255 220 0
0.495915 0.154471 0.185670 255 220 0
0.552815 0.183891 0.146739 255 220 0
0.550084 0.216596 0.218357 255 220 0
0.576940 0.191169 0.178250 255 220 0
0.499838 0.210675 0.216705 255 220 0
0.568858 0.208228 0.158450 255 220 0
0.486693 0.217155 0.180751 255 220 0
0.545216 0.167586 0.205887 255 220 0
0.564293 0.256456 0.202549 255 220 0
0.548134 0.257645 0.162174 255 220 0
0.500067 0.187954 0.210916 255 220 0
0.538824 0.140937 0.199846 255 220 0
0.544660 0.119090 0.169727 255 220 0
0.566181 0.190165 0.154713 255 220 0
0.523388 0.257494 0.158417 255 220 0
0.502544 0.227359 0.157757 255 220 0
0.487243 0.217942 0.179213 255 220 0
0.576395 0.202843 0.171280 255 220 0
0.486727 0.217871 0.202206 255 220 0
0.507181 0.119544 0.173568 255 220 0
0.552806 0.217407 0.147879 255 220 0
0.486257 0.208528 0.198740 255 220 0
0.560348 0.265143 0.202705 255 220 0
0.547789 0.151289 0.198833 255 220 0
0.533951 0.281189 0.177347 255 220 0
0.575902 0.205148 0.170567 255 220 0
0.505903 0.218820 0.153774 255 220 0
0.521392 0.246097 0.152882 255 220 0
0.522256 0.283062 0.181858 255 220 0
0.500049 0.268751 0.198086 255 220 0
0.543214 0.153411 0.148937 255 220 0
0.534548 0.152986 0.148066 255 220 0
0.487866 0.209689 0.177391 255 220 0
0.507242 0.211717 0.220199 255 220 0
0.530856 0.149692 0.205438 255 220 0
0.544335 0.203606 0.143803 255 220 0
0.562744 0.168708 0.194879 255 220 0
0.505759 0.274077 0.201408 255 220 0
0.515749 0.112430 0.199015 255 220 0
0.486066 0.206133 0.196930 255 220 0
0.527495 0.150271 0.149706 255 220 0
0.557787 0.179132 0.203563 255 220 0
0.515398 0.224877 0.148742 255 220 0
0.525313 0.221371 0.144901 255 220 0
0.534076 0.189181 0.142651 255 220 0
0.548911 0.278889 0.202003 255 220 0
0.499533 0.240402 0.217942 255 220 0
0.515521 0.121648 0.165223 255 220 0
0.573427 0.223822 0.171486 255 220 0
0.544668 0.210098 0.144221 255 220 0
0.530721 0.261296 0.159435 255 220 0
0.509386 0.141209 0.203330 255 220 0
0.504523 0.143201 0.200428 255 220 0
0.494493 0.213867 0.165712 255 220 0
0.556290 0.256573 0.167730 255 220 0
0.487545 0.240589 0.196747 255 220 0
0.572376 0.236135 0.179233 255 220 0
0.564411 0.215741 0.155221 255 220 0
0.530340 0.146004 0.204597 255 220 0
0.559200 0.266825 0.182920 255 220 0
0.540084 0.130802 0.157361 255 220 0
0.546100 0.162812 0.147284 255 220 0
0.520849 0.131490 0.157938 255 220 0
0.565475 0.232670 0.162068 255 220 0
0.504249 0.235098 0.221351 255 220 0
0.564010 0.218787 0.208354 255 220 0
0.549189 0.279999 0.197600 255 220 0
0.494059 0.241538 0.173177 255 220 0
0.553097 0.215726 0.216704 255 220 0
0.488042 0.189929 0.192570 255 220 0
0.506625 0.174713 0.156125 255 220 0
0.521443 0.263346 0.162969 255 220 0
0.525919 0.157057 0.208035 255 220 0
0.486312 0.215894 0.200625 255 220 0
0.544518 0.243479 0.152471 255 220 0
0.576829 0.207741 0.178718 255 220 0
0.550518 0.125550 0.173287 255 220 0
0.486673 0.233890 0.200169 255 220 0
0.504896 0.153331 0.162646 255 220 0
0.549093 0.160751 0.148983 255 220 0
0.555162 0.219938 0.149481 255 220 0
0.548537 0.267230 0.169774 255 220 0
0.558781 0.231773 0.155256 255 220 0
0.494499 0.169788 0.195113 255 220 0
0.546165 0.280583 0.202776 255 220 0
0.523445 0.130833 0.157429 255 220 0
0.556378 0.146011 0.188817 255 220 0
0.508832 0.259112 0.167109 255 220 0
0.519165 0.106978 0.179678 255 220 0
0.560934 0.266887 0.195786 255 220 0
0.550887 0.136392 0.188866 255 220 0
0.558293 0.210096 0.211950 255 220 0
0.511588 0.120069 0.168921 255 220 0
0.501406 0.260377 0.212610 255 220 0
0.530427 0.287484 0.192101 255 220 0
0.519139 0.147981 0.153093 255 220 0
0.548070 0.123183 0.178001 255 220 0
0.541030 0.179279 0.211465 255 220 0
0.571355 0.169497 0.180310 255 220 0
0.565058 0.238571 0.164919 255 220 0
0.495818 0.204496 0.212675 255 220 0
0.504166 0.134854 0.169583 255 220 0
0.499571 0.242098 0.217698 255 220 0
0.501809 0.257816 0.173617 255 220 0
0.534618 0.185368 0.142786 255 220 0
0.500107 0.143965 0.194732 255 220 0
0.522918 0.185656 0.216082 255 220 0
0.565709 0.255399 0.185020 255 220 0
0.534355 0.179471 0.213373 255 220 0
0.537017 0.112187 0.172800 255 220 0
0.550748 0.211203 0.216917 255 220 0
0.570705 0.212171 0.161700 255 220 0
0.542651 0.135728 0.195849 255 220 0
0.538351 0.253114 0.155317 255 220 0
0.557661 0.152041 0.191377 255 220 0
0.487440 0.226353 0.204500 255 220 0
0.488731 0.230340 0.207125 255 220 0
0.552650 0.237624 0.219882 255 220 0
0.564307 0.228013 0.209134 255 220 0
0.574870 0.181888 0.166673 255 220 0
0.500073 0.187493 0.210767 255 220 0
0.552528 0.130333 0.165324 255 220 0
0.517988 0.264653 0.165414 255 220 0
0.512605 0.274436 0.210509 255 220 0
0.503123 0.164763 0.204497 255 220 0
0.561811 0.159344 0.190835 255 220 0
0.557829 0.189008 0.149050 255 220 0
0.526595 0.229069 0.146281 255 220 0
0.532284 0.109543 0.186748 255 220 0
0.526189 0.106883 0.188204 255 220 0
0.524426 0.252328 0.225308 255 220 0
0.503516 0.171894 0.159945 255 220 0
0.564843 0.241239 0.208051 255 220 0
0.504479 0.141105 0.200062 255 220 0
0.553256 0.206332 0.146959 255 220 0
0.531170 0.246294 0.151272 255 220 0
0.565786 0.256672 0.191461 255 220 0
0.519478 0.141271 0.154893 255 220 0
0.512969 0.202184 0.219514 255 220 0
0.511825 0.200091 0.149078 255 220 0
0.520203 0.141282 0.154597 255 220 0
0.567914 0.176714 0.191772 255 220 0
0.543705 0.161358 0.204357 255 220 0
0.555438 0.147618 0.191120 255 220 0
0.570719 0.169189 0.181772 255 220 0
0.574174 0.174202 0.171098 255 220 0
0.538891 0.280268 0.209264 255 220 0
0.574668 0.211196 0.169592 255 220 0
0.543624 0.277829 0.177261 255 220 0
0.525958 0.226286 0.225526 255 220 0
0.541105 0.120751 0.189982 255 220 0
0.536270 0.203476 0.142556 255 220 0
0.576666 0.193084 0.180870 255 220 0
0.526126 0.143049 0.204787 255 220 0
0.497602 0.197275 0.162741 255 220 0
0.526514 0.265125 0.162668 255 220 0
0.536361 0.234171 0.225448 255 220 0
0.532664 0.196130 0.142515 255 220 0
0.494596 0.180729 0.202940 255 220 0
0.574968 0.196783 0.187278 255 220 0
0.489485 0.189524 0.198654 255 220 0
0.524561 0.218157 0.144574 255 220 0
0.569355 0.160316 0.169486 255 220 0
0.559089 0.267908 0.184687 255 220 0
0.553858 0.252863 0.162872 255 220 0
0.506698 0.200105 0.152820 255 220 0
0.510806 0.142480 0.159747 255 220 0
0.503335 0.133038 0.197606 255 220 0
0.510473 0.278573 0.188986 255 220 0
0.566231 0.207022 0.155519 255 220 0
0.536481 0.209037 0.142785 255 220 0
0.520798 0.119680 0.164197 255 220 0
0.571846 0.239472 0.187105 255 220 0
0.504171 0.114648 0.184485 255 220 0
0.518367 0.154956 0.207526 255 220 0
0.485047 0.218913 0.192285 255 220 0
0.572296 0.225505 0.196923 255 220 0
0.550445 0.161412 0.201232 255 220 0
0.503831 0.176895 0.158631 255 220 0
0.510268 0.218287 0.222319 255 220 0
0.517901 0.275106 0.213446 255 220 0
0.552447 0.218924 0.217675 255 220 0
0.499328 0.154365 0.196627 255 220 0
0.505784 0.166581 0.206836 255 220 0
0.505623 0.220218 0.154139 255 220 0
0.527526 0.122738 0.200525 255 220 0
0.538252 0.136898 0.153953 255 220 0
0.555312 0.190543 0.147646 255 220 0
0.517319 0.194738 0.146356 255 220 0
0.560430 0.264314 0.203650 255 220 0
0.559999 0.240503 0.160484 255 220 0
0.497742 0.263449 0.188439 255 220 0
0.505406 0.258895 0.170118 255 220 0
0.567192 0.220178 0.159164 255 220 0
0.556101 0.269819 0.205172 255 220 0
0.534751 0.226467 0.145201 255 220 0
0.485482 0.207757 0.194049 255 220 0
0.510176 0.180023 0.152190 255 220 0
0.573604 0.220351 0.170390 255 220 0
0.499231 0.149341 0.194675 255 220 0
0.519596 0.114182 0.168638 255 220 0
0.522678 0.115784 0.166601 255 220 0
0.533840 0.129825 0.199035 255 220 0
0.540161 0.264679 0.220518 255 220 0
0.540243 0.278028 0.211017 255 220 0
0.499701 0.220976 0.159619 255 220 0
0.529587 0.255362 0.224952 255 220 0
0.558441 0.263925 0.207728 255 220 0
0.514886 0.264456 0.219323 255 220 0
0.556322 0.249087 0.162397 255 220 0
0.519406 0.253463 0.224342 255 220 0
0.498231 0.258756 0.209745 255 220 0
0.557672 0.136879 0.168681 255 220 0
0.499226 0.197863 0.160641 255 220 0
0.547938 0.207062 0.217047 255 220 0
0.493393 0.254883 0.188685 255 220 0
0.506941 0.176413 0.155547 255 220 0
0.503928 0.132896 0.198272 255 220 0
0.491527 0.190080 0.173686 255 220 0
0.566575 0.249826 0.178383 255 220 0
0.487032 0.235273 0.187965 255 220 0
0.504911 0.217274 0.154436 255 220 0
0.539104 0.257287 0.223585 255 220 0
0.513346 0.250362 0.223434 255 220 0
0.557600 0.203805 0.149047 255 220 0
0.551947 0.235162 0.220195 255 220 0
0.550704 0.129707 0.182652 255 220 0
0.502641 0.124024 0.194607 255 220 0
0.561102 0.212876 0.210114 255 220 0
0.507030 0.127681 0.169063 255 220 0
0.527839 0.261312 0.159723 255 220 0
0.491030 0.182730 0.197182 255 220 0
0.500005 0.239851 0.218366 255 220 0
0.489998 0.218778 0.173127 255 220 0
0.544091 0.214047 0.144421 255 220 0
0.546229 0.211422 0.144763 255 220 0
0.554919 0.250134 0.217416 255 220 0
0.499188 0.166090 0.201283 255 220 0
0.519345 0.273172 0.171768 255 220 0
0.554335 0.247479 0.218279 255 220 0
0.535850 0.234723 0.225604 255 220 0
0.505169 0.239967 0.221577 255 220 0
0.543174 0.284030 0.197191 255 220 0
0.535601 0.229599 0.146031 255 220 0
0.547905 0.267866 0.169891 255 220 0
0.529640 0.232838 0.226161 255 220 0
0.544444 0.163873 0.204908 255 220 0
0.546129 0.123691 0.184528 255 220 0
0.492303 0.197000 0.170468 255 220 0
0.490955 0.185794 0.199606 255 220 0
0.559095 0.158612 0.155351 255 220 0
0.485766 0.222677 0.198763 255 220 0
0.575680 0.218958 0.177831 255 220 0
0.557891 0.185898 0.205768 255 220 0
0.496653 0.171453 0.200658 255 220 0
0.569831 0.171354 0.185459 255 220 0
0.550081 0.160191 0.149583 255 220 0
0.545579 0.197803 0.143951 255 220 0
0.576221 0.212013 0.185856 255 220 0
0.534369 0.259762 0.223561 255 220 0
0.549101 0.202425 0.145126 255 220 0
0.562990 0.247736 0.209587 255 220 0
0.535015 0.232971 0.225554 255 220 0
0.555737 0.236345 0.154990 255 220 0
0.536955 0.223932 0.144757 255 220 0
0.550247 0.129644 0.162963 255 220 0
0.515448 0.106448 0.188790 255 220 0
0.488688 0.198827 0.202050 255 220 0
0.556412 0.144189 0.187303 255 220 0
0.535321 0.270686 0.218243 255 220 0
0.520457 0.230460 0.225756 255 220 0
0.561860 0.173204 0.197825 255 220 0
0.546126 0.174280 0.145138 255 220 0
0.547340 0.249435 0.222325 255 220 0
0.559271 0.190691 0.149850 255 220 0
0.492185 0.175465 0.180109 255 220 0
0.517839 0.161983 0.150376 255 220 0
0.536802 0.200940 0.218849 255 220 0
0.545940 0.250487 0.222810 255 220 0
0.534516 0.210026 0.142750 255 220 0
0.543905 0.178319 0.210123 255 220 0
0.489801 0.185586 0.195937 255 220 0
0.487388 0.235627 0.202230 255 220 0
0.549148 0.145081 0.195407 255 220 0
0.513849 0.234762 0.151655 255 220 0
0.523241 0.192842 0.218097 255 220 0
0.489048 0.237186 0.206174 255 220 0
0.526806 0.155553 0.207590 255 220 0
0.567784 0.217491 0.159135 255 220 0
0.512451 0.119588 0.168553 255 220 0
0.528523 0.276555 0.172226 255 220 0
0.526948 0.280997 0.177234 255 220 0
0.555840 0.171675 0.202154 255 220 0
0.498992 0.248558 0.215647 255 220 0
0.532050 0.284712 0.205377 255 220 0
0.548880 0.163350 0.148211 255 220 0
0.504734 0.231746 0.221591 255 220 0
0.497902 0.193506 0.162914 255 220 0
0.521359 0.229627 0.147475 255 220 0
0.548265 0.136724 0.157281 255 220 0
0.515751 0.162975 0.151320 255 220 0
0.526099 0.195035 0.218679 255 220 0
0.546684 0.136004 0.192994 255 220 0
0.544408 0.281038 0.182949 255 220 0
0.499176 0.191340 0.161635 255 220 0
0.565069 0.191485 0.153810 255 220 0
0.513981 0.186122 0.148777 255 220 0
0.508798 0.171812 0.209838 255 220 0
0.519296 0.282723 0.183616 255 220 0
0.544133 0.281666 0.183984 255 220 0
0.549078 0.247483 0.156460 255 220 0
0.504550 0.156252 0.162293 255 220 0
0.503097 0.267240 0.181864 255 220 0
0.498883 0.238404 0.217717 255 220 0
0.563059 0.254447 0.207009 255 220 0
0.495268 0.158592 0.186969 255 220 0
0.558999 0.139253 0.168714 255 220 0
0.491840 0.234036 0.211528 255 220 0
0.538720 0.209433 0.143036 255 220 0
0.577129 0.203913 0.178038 255 220 0
0.501065 0.126695 0.192005 255 220 0
0.500854 0.193778 0.159272 255 220 0
0.512938 0.249361 0.223496 255 220 0
0.572971 0.207541 0.194303 255 220 0
0.485084 0.214484 0.192937 255 220 0
0.518474 0.111872 0.171193 255 220 0
0.490367 0.186204 0.198427 255 220 0
0.536920 0.113192 0.186679 255 220 0
0.510000 0.225664 0.151777 255 220 0
0.543048 0.253594 0.157105 255 220 0
0.506089 0.187172 0.213629 255 220 0
0.560699 0.213442 0.151867 255 220 0
0.515234 0.131626 0.160451 255 220 0
0.524515 0.156855 0.208062 255 220 0
0.550244 0.129132 0.182898 255 220 0
0.537630 0.233093 0.225055 255 220 0
0.531849 0.229564 0.225590 255 220 0
0.549687 0.132966 0.187827 255 220 0
0.508035 0.232432 0.154538 255 220 0
0.519686 0.233970 0.149004 255 220 0
0.492247 0.240911 0.210394 255 220 0
0.506126 0.222619 0.154036 255 220 0
0.499941 0.235238 0.218746 255 220 0
0.499293 0.254720 0.213525 255 220 0
0.562491 0.236865 0.211399 255 220 0
0.510097 0.163599 0.155112 255 220 0
0.527308 0.142469 0.204432 255 220 0
0.539126 0.278655 0.175869 255 220 0
0.553692 0.197392 0.211951 255 220 0
0.564202 0.166560 0.191947 255 220 0
0.556398 0.169036 0.150630 255 220 0
0.519135 0.126908 0.203107 255 220 0
0.505446 0.145856 0.201620 255 220 0
0.531167 0.238067 0.226425 255 220 0
0.569644 0.172941 0.160200 255 220 0
0.523266 0.149514 0.206462 255 220 0
0.556443 0.266006 0.208712 255 220 0
0.485939 0.232126 0.195358 255 220 0
0.547609 0.128221 0.186852 255 220 0
0.564297 0.216065 0.155182 255 220 0
0.574437 0.223400 0.174531 255 220 0
0.507154 0.122780 0.199322 255 220 0
0.532430 0.217499 0.223538 255 220 0
0.527582 0.203405 0.142922 255 220 0
0.500904 0.245543 0.165527 255 220 0
0.545510 0.194686 0.214606 255 220 0
0.557752 0.138117 0.166042 255 220 0
0.529178 0.205249 0.221170 255 220 0
0.554032 0.198329 0.212022 255 220 0
0.539019 0.285979 0.196021 255 220 0
0.488732 0.206464 0.175678 255 220 0
0.498213 0.141818 0.188006 255 220 0
0.508678 0.251141 0.221435 255 220 0
0.510065 0.271027 0.212025 255 220 0
0.557358 0.157111 0.154662 255 220 0
0.527583 0.107447 0.188254 255 220 0
0.534529 0.117819 0.194770 255 220 0
0.525435 0.117742 0.200238 255 220 0
0.540338 0.115620 0.169936 255 220 0
0.543116 0.146799 0.151081 255 220 0
0.562383 0.185683 0.201836 255 220 0
0.505026 0.190621 0.214240 255 220 0
0.533880 0.159261 0.146486 255 220 0
0.570452 0.205598 0.197814 255 220 0
0.536798 0.186358 0.214886 255 220 0
0.500368 0.150883 0.197122 255 220 0
0.487831 0.190516 0.191838 255 220 0
0.536260 0.165017 0.208380 255 220 0
0.565815 0.167356 0.190059 255 220 0
0.498269 0.263479 0.204946 255 220 0
0.497663 0.202595 0.213582 255 220 0
0.567339 0.156333 0.175380 255 220 0
0.549320 0.195747 0.145065 255 220 0
0.533111 0.140894 0.202361 255 220 0
0.535987 0.259952 0.223314 255 220 0
0.547345 0.269192 0.214629 255 220 0
0.576049 0.217744 0.185354 255 220 0
0.498510 0.137919 0.184027 255 220 0
0.515587 0.159848 0.152062 255 220 0
0.550582 0.258020 0.218471 255 220 0
0.529927 0.232997 0.226159 255 220 0
0.520518 0.135547 0.204156 255 220 0
0.489919 0.241665 0.205861 255 220 0
0.498186 0.176210 0.165973 255 220 0
0.506639 0.138922 0.164874 255 220 0
0.531317 0.285274 0.204283 255 220 0
0.542858 0.144020 0.198796 255 220 0
0.507552 0.253249 0.220307 255 220 0
0.558427 0.187303 0.149465 255 220 0
0.535410 0.146778 0.203221 255 220 0
0.569476 0.160371 0.171129 255 220 0
0.526053 0.164188 0.209882 255 220 0
0.518896 0.160311 0.150206 255 220 0
0.491607 0.247070 0.205971 255 220 0
0.574393 0.189254 0.185815 255 220 0
0.495773 0.161939 0.175888 255 220 0
0.551264 0.192928 0.145778 255 220 0
0.534507 0.149447 0.149091 255 220 0
0.499928 0.169614 0.203682 255 220 0
0.533537 0.171729 0.211156 255 220 0
0.576272 0.211660 0.185568 255 220 0
0.547584 0.227058 0.147758 255 220 0
0.557737 0.140815 0.163000 255 220 0
0.491186 0.224510 0.211025 255 220 0
0.521323 0.106420 0.180962 255 220 0
0.514943 0.221615 0.223910 255 220 0
0.503116 0.230247 0.220738 255 220 0
0.509901 0.209862 0.220606 255 220 0
0.541883 0.265803 0.219394 255 220 0
0.569231 0.237084 0.200881 255 220 0
0.560012 0.218985 0.212235 255 220 0
0.534803 0.163471 0.145507 255 220 0
0.499227 0.174474 0.164824 255 220 0
0.500059 0.128113 0.183797 255 220 0
0.493537 0.214982 0.167079 255 220 0
0.547461 0.155895 0.149656 255 220 0
0.552103 0.258545 0.165492 255 220 0
0.509731 0.269028 0.174862 255 220 0
0.536929 0.146411 0.150129 255 220 0
0.566330 0.182888 0.196434 255 220 0
0.522267 0.198854 0.219689 255 220 0
0.554899 0.174920 0.148722 255 220 0
0.534783 0.282408 0.179094 255 220 0
0.498220 0.219020 0.216968 255 220 0
0.491946 0.216024 0.169565 255 220 0
0.491592 0.252592 0.197443 255 220 0
0.492267 0.185700 0.202185 255 220 0
0.541677 0.279349 0.177961 255 220 0
0.493917 0.192433 0.168811 255 220 0
0.524485 0.265618 0.163541 255 220 0
0.500946 0.125279 0.181880 255 220 0
0.496250 0.199021 0.211634 255 220 0
0.569108 0.247384 0.186988 255 220 0
0.553015 0.161410 0.199807 255 220 0
0.503717 0.159788 0.203298 255 220 0
0.498216 0.243469 0.216310 255 220 0
0.530094 0.142446 0.203766 255 220 0
0.515188 0.242111 0.153713 255 220 0
0.492484 0.177292 0.177353 255 220 0
0.494908 0.259893 0.192934 255 220 0
0.566292 0.240783 0.205792 255 220 0
0.531824 0.108276 0.182448 255 220 0
0.523170 0.189312 0.217120 255 220 0
0.519990 0.285383 0.193817 255 220 0
0.524414 0.106509 0.188920 255 220 0
0.539414 0.202527 0.142851 255 220 0
0.510054 0.230045 0.223646 255 220 0
0.569613 0.228925 0.165963 255 220 0
0.542887 0.120278 0.186581 255 220 0
0.486411 0.211853 0.181494 255 220 0
0.509613 0.175743 0.211304 255 220 0
0.516264 0.232419 0.225315 255 220 0
0.562385 0.244827 0.210889 255 220 0
0.500574 0.262392 0.210121 255 220 0
0.571451 0.235579 0.195628 255 220 0
0.569775 0.242898 0.195909 255 220 0
0.552944 0.241862 0.219664 255 220 0
0.563679 0.230459 0.209992 255 220 0
0.562195 0.262901 0.200591 255 220 0
0.545288 0.159780 0.203120 255 220 0
0.539306 0.114028 0.182435 255 220 0
0.541773 0.167696 0.207303 255 220 0
0.502109 0.266364 0.208346 255 220 0
0.521857 0.110134 0.196893 255 220 0
0.563153 0.191627 0.152389 255 220 0
0.524032 0.285547 0.185983 255 220 0
0.485265 0.222148 0.189025 255 220 0
0.489457 0.202408 0.204885 255 220 0
0.509248 0.193064 0.151320 255 220 0
0.499528 0.168728 0.202870 255 220 0
0.498713 0.148421 0.193219 255 220 0
0.530613 0.151974 0.206098 255 220 0
0.523879 0.145029 0.152170 255 220 0
0.544258 0.194375 0.214924 255 220 0
0.557128 0.244472 0.216327 255 220 0
0.538276 0.186176 0.214444 255 220 0
0.575980 0.192214 0.167633 255 220 0
0.520874 0.160309 0.208878 255 220 0
0.537206 0.156718 0.205536 255 220 0
0.568340 0.186111 0.194869 255 220 0
0.512306 0.150256 0.156480 255 220 0
0.512591 0.254443 0.161639 255 220 0
0.490599 0.215543 0.209450 255 220 0
0.543972 0.200549 0.216667 255 220 0
0.552721 0.154080 0.152819 255 220 0
0.562161 0.154962 0.159452 255 220 0
0.555129 0.200338 0.211899 255 220 0
0.488493 0.220182 0.176398 255 220 0
0.569829 0.235531 0.170652 255 220 0
0.569270 0.210449 0.159348 255 220 0
0.557810 0.240202 0.158402 255 220 0
0.554739 0.166048 0.200624 255 220 0
0.504169 0.255028 0.217647 255 220 0
0.551492 0.156112 0.198582 255 220 0
0.512049 0.263006 0.167636 255 220 0
0.501571 0.202934 0.215984 255 220 0
0.553172 0.212729 0.147446 255 220 0
0.566754 0.247664 0.175955 255 220 0
0.566263 0.154286 0.175949 255 220 0
0.548772 0.176318 0.145781 255 220 0
0.533177 0.164781 0.209117 255 220 0
0.488414 0.205985 0.176440 255 220 0
0.503049 0.147808 0.199777 255 220 0
0.549596 0.239465 0.221668 255 220 0
0.519790 0.126826 0.160451 255 220 0
0.488340 0.243410 0.196501 255 220 0
0.515311 0.179719 0.213710 255 220 0
0.565168 0.160769 0.186500 255 220 0
0.529423 0.109767 0.172676 255 220 0
0.520440 0.118363 0.165200 255 220 0
0.532768 0.287238 0.190710 255 220 0
0.497654 0.236491 0.165120 255 220 0
0.574396 0.229955 0.181457 255 220 0
0.515880 0.178783 0.213518 255 220 0
0.546304 0.227224 0.221728 255 220 0
0.545296 0.238871 0.223506 255 220 0
0.506528 0.218810 0.221181 255 220 0
0.529970 0.262207 0.222894 255 220 0
0.496228 0.159962 0.192715 255 220 0
0.492868 0.227542 0.169440 255 220 0
0.547544 0.208227 0.144911 255 220 0
0.524596 0.273416 0.216863 255 220 0
0.524082 0.222991 0.145454 255 220 0
0.495903 0.177706 0.203034 255 220 0
0.488801 0.235663 0.181483 255 220 0
0.524071 0.136640 0.154903 255 220 0
0.533615 0.120463 0.196611 255 220 0
0.518347 0.196173 0.218695 255 220 0
0.545293 0.214031 0.144738 255 220 0
0.516932 0.114846 0.169187 255 220 0
0.549744 0.174763 0.146357 255 220 0
0.487385 0.192508 0.187089 255 220 0
0.576015 0.204077 0.186310 255 220 0
0.565508 0.231885 0.161717 255 220 0
0.499484 0.150265 0.171811 255 220 0
0.509627 0.250784 0.161318 255 220 0
0.537925 0.282398 0.180230 255 220 0
0.562335 0.189989 0.151839 255 220 0
0.510384 0.232018 0.152864 255 220 0
0.546862 0.193694 0.213869 255 220 0
0.487656 0.228225 0.204932 255 220 0
0.487740 0.190823 0.186960 255 220 0
0.566384 0.217675 0.157580 255 220 0
0.559176 0.141162 0.177655 255 220 0
0.574672 0.210934 0.191415 255 220 0
0.503366 0.217375 0.155783 255 220 0
0.550743 0.174004 0.146881 255 220 0
0.564911 0.152393 0.165472 255 220 0
0.545776 0.201139 0.216256 255 220 0
0.551528 0.269978 0.174894 255 220 0
0.504984 0.252694 0.165924 255 220 0
0.562929 0.230044 0.158131 255 220 0
0.548056 0.179411 0.145187 255 220 0
0.547209 0.215238 0.145434 255 220 0
0.550135 0.277065 0.203675 255 220 0
0.524064 0.105976 0.184106 255 220 0
0.545955 0.126034 0.162607 255 220 0
0.522178 0.111744 0.170292 255 220 0
0.542995 0.190609 0.214273 255 220 0
0.505841 0.221324 0.221268 255 220 0
0.505539 0.242476 0.221494 255 220 0
0.522551 0.285634 0.187757 255 220 0
0.544915 0.273613 0.212603 255 220 0
0.518421 0.108265 0.194964 255 220 0
0.502861 0.241736 0.161807 255 220 0
0.575719 0.216273 0.188115 255 220 0
0.534847 0.163415 0.145516 255 220 0
0.485645 0.213338 0.197323 255 220 0
0.545187 0.280334 0.204534 255 220 0
0.501947 0.153869 0.166331 255 220 0
0.566388 0.231352 0.162529 255 220 0
0.500010 0.167273 0.202717 255 220 0
0.540205 0.168485 0.144778 255 220 0
0.486894 0.227855 0.182999 255 220 0
0.524732 0.224369 0.145567 255 220 0
0.504845 0.259869 0.171564 255 220 0
0.571787 0.171063 0.164510 255 220 0
0.495306 0.245947 0.212610 255 220 0
0.489541 0.212793 0.207481 255 220 0
0.518810 0.282995 0.184738 255 220 0
0.516169 0.205702 0.220893 255 220 0
0.534238 0.113971 0.192033 255 220 0
0.541141 0.204686 0.143177 255 220 0
0.521148 0.204077 0.220999 255 220 0
0.518123 0.230887 0.148784 255 220 0
0.501598 0.165051 0.163775 255 220 0
0.507194 0.217668 0.221248 255 220 0
0.559121 0.160201 0.154820 255 220 0
0.534481 0.230200 0.225302 255 220 0
0.523495 0.256970 0.224142 255 220 0
0.540064 0.145875 0.200875 255 220 0
0.571191 0.177559 0.186592 255 220 0
0.557067 0.135775 0.173087 255 220 0
0.516568 0.164869 0.209644 255 220 0
0.527484 0.226246 0.145500 255 220 0
0.534076 0.147596 0.149673 255 220 0
0.548575 0.276308 0.206884 255 220 0
0.525291 0.230244 0.225997 255 220 0
0.566999 0.238923 0.204909 255 220 0
0.493956 0.198548 0.167624 255 220 0
0.563024 0.208514 0.152981 255 220 0
0.506126 0.119090 0.175264 255 220 0
0.519946 0.248505 0.225361 255 220 0
0.495957 0.183329 0.167722 255 220 0
0.508581 0.183911 0.213489 255 220 0
0.567279 0.200411 0.155894 255 220 0
0.498516 0.167629 0.201177 255 220 0
0.490686 0.180758 0.182012 255 220 0
0.493612 0.203987 0.210628 255 220 0
0.556967 0.249610 0.215789 255 220 0
0.550587 0.154062 0.151677 255 220 0
0.537065 0.194964 0.217203 255 220 0
0.575192 0.223338 0.188541 255 220 0
0.537732 0.219631 0.222865 255 220 0
0.537974 0.158364 0.205754 255 220 0
0.524536 0.268985 0.219527 255 220 0
0.514455 0.272841 0.213473 255 220 0
0.532363 0.235130 0.226127 255 220 0
0.492097 0.208548 0.169435 255 220 0
0.512289 0.167852 0.209660 255 220 0
0.492628 0.246490 0.208424 255 220 0
0.514100 0.273448 0.175503 255 220 0
0.525426 0.281734 0.178518 255 220 0
0.494030 0.174008 0.197418 255 220 0
0.485445 0.212450 0.185919 255 220 0
0.567526 0.242405 0.171937 255 220 0
0.496456 0.178950 0.204347 255 220 0
0.575321 0.213285 0.172921 255 220 0
0.541350 0.264622 0.163838 255 220 0
0.557659 0.209161 0.149425 255 220 0
0.553786 0.232231 0.218817 255 220 0
0.514144 0.179775 0.149465 255 220 0
0.566012 0.256109 0.192021 255 220 0
0.526988 0.187844 0.143591 255 220 0
0.498713 0.205542 0.160580 255 220 0
0.555858 0.218940 0.149678 255 220 0
0.501232 0.221585 0.219117 255 220 0
0.571260 0.202925 0.160488 255 220 0
0.521333 0.130255 0.158311 255 220 0
0.523211 0.107622 0.192753 255 220 0
0.544455 0.250930 0.156155 255 220 0
0.486289 0.201693 0.195345 255 220 0
0.514872 0.188951 0.216299 255 220 0
0.539421 0.224974 0.223395 255 220 0
0.519719 0.108796 0.195708 255 220 0
0.532849 0.207408 0.142589 255 220 0
0.517352 0.106535 0.190874 255 220 0
0.577359 0.197207 0.175008 255 220 0
0.524102 0.133271 0.156212 255 220 0
0.568345 0.158916 0.176172 255 220 0
0.496987 0.171396 0.201113 255 220 0
0.523341 0.122780 0.202012 255 220 0
0.521446 0.130722 0.203357 255 220 0
0.511114 0.262737 0.168088 255 220 0
0.488944 0.185897 0.186109 255 220 0
