ply
format ascii 1.0
element vertex 1024
property float x
property float y
property float z
end_header
0.460200 0.038446 0.074553
0.464500 -0.054874 0.101882
0.449063 -0.039358 0.072020
0.496507 -0.009717 0.112100
0.460163 -0.088047 0.076326
0.494170 0.010146 0.114836
0.502052 -0.078295 0.040507
0.453799 -0.023185 0.089717
0.514933 -0.031693 0.052402
0.477519 0.012877 0.115024
0.460867 -0.036815 0.102067
0.504170 -0.088178 0.048078
0.473427 -0.032628 0.110348
0.449434 -0.069264 0.074172
0.492206 -0.112845 0.039322
0.505566 -0.104860 0.049305
0.499667 -0.097629 0.048267
0.505125 -0.099623 0.071797
0.493422 -0.055814 0.108103
0.454526 0.007428 0.091296
0.453195 0.003165 0.084972
0.454473 0.022642 0.083566
0.483707 -0.013232 0.044387
0.489938 -0.097369 0.087743
0.457393 -0.081732 0.057223
0.517120 0.014227 0.080610
0.487803 -0.129469 0.061124
0.482071 -0.003127 0.114246
0.471746 0.026036 0.114062
0.501868 -0.053899 0.037295
0.463889 -0.076181 0.097568
0.519202 -0.035444 0.091390
0.510661 -0.077892 0.047734
0.489998 -0.083137 0.038950
0.489311 0.033540 0.102556
0.481095 -0.039388 0.036703
0.498012 -0.056967 0.106625
0.505371 -0.114802 0.072723
0.509151 0.037197 0.080187
0.490531 0.035911 0.088491
0.484763 -0.129615 0.061602
0.470315 0.034751 0.096465
0.472126 0.008704 0.052937
0.497991 -0.130590 0.067686
0.454374 0.011296 0.090253
0.450626 -0.055820 0.060156
0.477232 -0.115161 0.081210
0.449468 -0.042336 0.067564
0.522761 -0.052735 0.066748
0.517169 -0.046361 0.093191
0.454718 0.013166 0.091455
0.517533 -0.011760 0.067793
0.453028 -0.004538 0.074270
0.497218 -0.103381 0.042220
0.456680 -0.058435 0.093479
0.459408 -0.075207 0.093689
0.522962 -0.055050 0.067928
0.458459 -0.012670 0.058647
0.514470 -0.068165 0.044770
0.456073 -0.075050 0.089634
0.454387 -0.080208 0.064932
0.470092 0.040148 0.065035
0.468091 -0.100302 0.071866
0.480504 -0.046766 0.110076
0.512787 -0.088491 0.066670
0.510313 -0.017668 0.102537
0.508214 0.004855 0.058474
0.482037 -0.092117 0.092486
0.451562 -0.051907 0.085425
0.470265 -0.078855 0.041541
0.468376 -0.065027 0.036362
0.473745 -0.031505 0.110009
0.451249 -0.075869 0.066667
0.494521 -0.085066 0.040835
0.475195 -0.110575 0.080529
0.519094 -0.006869 0.078809
0.473009 -0.091455 0.089571
0.459366 0.007545 0.101522
0.505332 -0.002749 0.108232
0.495084 0.010927 0.114657
0.459987 0.011276 0.102616
0.491049 -0.047733 0.109974
0.468580 -0.114392 0.048763
0.481427 0.018684 0.052949
0.451547 -0.066838 0.055521
0.483142 -0.031860 0.037894
0.514192 -0.078159 0.052305
0.459512 -0.056959 0.097102
0.458803 0.034939 0.073197
0.476943 -0.053628 0.034932
0.464867 -0.020734 0.047234
0.508477 0.026010 0.107525
0.494723 0.031551 0.114382
0.513487 -0.082004 0.085855
0.456975 -0.028660 0.052678
0.468697 -0.099049 0.075386
0.496431 -0.127862 0.077124
0.490491 -0.096286 0.088924
0.452863 -0.057893 0.054024
0.501270 0.018494 0.057157
0.496632 0.032098 0.110867
0.458583 -0.011494 0.099124
0.504373 -0.098147 0.053966
0.518086 -0.018545 0.089751
0.473535 0.039847 0.066475
0.461588 0.023508 0.065305
0.510154 -0.069786 0.097217
0.519556 -0.074712 0.059738
0.508727 -0.112406 0.056459
0.488124 -0.106529 0.039530
0.475920 -0.023498 0.040757
0.465084 -0.049011 0.041285
0.523138 -0.069586 0.067587
0.512116 0.036497 0.084230
0.482670 -0.132469 0.075692
0.515066 -0.030926 0.098771
0.452225 -0.017255 0.083927
0.515911 -0.074923 0.050949
0.456414 -0.005436 0.064087
0.499877 -0.073503 0.037518
0.455835 -0.042443 0.095209
0.515772 -0.030500 0.097797
0.454018 -0.071320 0.052620
0.473663 -0.057475 0.106361
0.485913 0.025310 0.117505
0.455520 0.015592 0.073760
0.457591 0.034007 0.095582
0.467881 -0.107597 0.071718
0.503439 0.025496 0.111995
0.522941 -0.072175 0.067025
0.523146 -0.068869 0.069105
0.478840 0.001292 0.048727
0.480506 -0.107460 0.081688
0.466686 -0.109761 0.052358
0.501356 -0.031563 0.108966
0.476474 -0.067410 0.033314
0.472884 0.020303 0.114063
0.456397 -0.080853 0.058797
0.500951 0.012385 0.112340
0.522187 -0.069768 0.060212
0.512116 0.035084 0.092592
0.463554 -0.092901 0.076263
0.495120 0.034244 0.098113
0.484685 0.004266 0.115267
0.480282 -0.052027 0.109096
0.456857 -0.013873 0.060729
0.507388 -0.119716 0.052311
0.504964 -0.086247 0.047343
0.484836 -0.128951 0.058191
0.467018 -0.108132 0.070521
0.509726 -0.036703 0.103478
0.468257 -0.008789 0.050447
0.472651 0.024100 0.056919
0.515245 0.027020 0.094478
0.497127 -0.065478 0.033370
0.456095 -0.030092 0.096970
0.491075 -0.060968 0.032738
0.492858 -0.012549 0.112763
0.509064 -0.036153 0.045352
0.491903 -0.131277 0.070721
0.490435 0.025416 0.055057
0.470912 0.002741 0.111358
0.449575 -0.029205 0.082224
0.499250 -0.110318 0.080236
0.518233 -0.058850 0.051807
0.460090 -0.017769 0.055068
0.517770 0.000143 0.074287
0.452911 -0.034585 0.091595
0.453249 -0.037250 0.091809
0.511389 -0.091510 0.065763
0.454264 -0.049399 0.091494
0.469321 0.036741 0.084801
0.498229 0.034316 0.060047
0.449250 -0.057096 0.074957
0.486152 0.033064 0.105534
0.484494 -0.068630 0.032433
0.496579 -0.100904 0.081648
0.458925 0.036803 0.075758
0.509285 0.031245 0.068465
0.486661 0.035917 0.088671
0.514871 -0.082932 0.080757
0.495320 -0.041016 0.110295
0.519781 -0.039535 0.058944
0.473582 -0.008378 0.111450
0.495361 0.004770 0.050536
0.459297 0.024656 0.068896
0.458287 -0.086350 0.065706
0.467479 -0.114778 0.071972
0.481510 -0.098423 0.044552
0.462622 0.007693 0.059447
0.504427 -0.024594 0.044498
0.492997 0.000919 0.114190
0.505897 -0.013279 0.106843
0.510860 -0.063412 0.097735
0.497312 -0.130182 0.075659
0.508297 -0.122682 0.060333
0.452961 -0.015620 0.087087
0.497132 -0.091315 0.091044
0.486923 0.032723 0.056671
0.453564 -0.078561 0.064000
0.508846 -0.116208 0.063078
0.513242 -0.014605 0.099233
0.451978 -0.015055 0.081415
0.487984 -0.065084 0.107164
0.503022 -0.078443 0.041155
0.512712 0.008253 0.065203
0.512281 0.028878 0.102491
0.513671 -0.081517 0.085855
0.487162 -0.132419 0.076623
0.512955 -0.002572 0.061875
0.471108 0.033236 0.060243
0.489711 -0.026252 0.039103
0.451959 -0.025562 0.085528
0.467875 -0.040408 0.041055
0.490496 0.033030 0.105539
0.462640 -0.066462 0.098325
0.522538 -0.042795 0.067632
0.461374 -0.063094 0.097816
0.449040 -0.050474 0.072182
0.482783 -0.115116 0.082973
0.512991 -0.017992 0.099348
0.481811 -0.129611 0.061288
0.505347 -0.085555 0.091368
0.477879 0.010258 0.114855
0.483278 -0.067854 0.106612
0.503999 -0.096366 0.053346
0.474228 -0.076994 0.038522
0.489503 0.040693 0.060760
0.479834 -0.130501 0.077408
0.466656 -0.079248 0.098350
0.488259 0.035133 0.057319
0.515944 0.019774 0.092992
0.482136 -0.018975 0.041434
0.466278 -0.088322 0.050038
0.495317 0.037763 0.077456
0.468287 -0.120830 0.049514
0.478542 0.030713 0.056790
0.458833 -0.013776 0.099293
0.475956 -0.035210 0.111090
0.456882 -0.042475 0.050298
0.467029 -0.097770 0.058910
0.457472 -0.049683 0.096091
0.464222 -0.047972 0.102930
0.456812 0.021560 0.097352
0.487425 -0.069660 0.032909
0.477432 -0.089868 0.043253
0.469234 -0.051132 0.105537
0.463340 -0.082744 0.049125
0.465250 0.023058 0.061395
0.504975 0.010456 0.109610
0.504874 -0.079233 0.042692
0.517275 -0.073645 0.088196
0.449703 -0.026874 0.068981
0.478958 -0.118466 0.081038
0.469555 -0.112055 0.075935
0.519177 -0.079628 0.069734
0.514543 0.034747 0.090186
0.497670 0.031621 0.113838
0.487779 0.012524 0.051125
0.482366 -0.053521 0.109123
0.503098 -0.074914 0.101141
0.457942 -0.055752 0.046594
0.452120 -0.010352 0.079583
0.462339 -0.064812 0.098366
0.449042 -0.045689 0.071569
0.498140 -0.127095 0.049739
0.500909 0.032722 0.061194
0.519927 -0.062782 0.085213
0.494960 -0.001182 0.048817
0.469756 -0.061109 0.036330
0.479240 -0.045822 0.110024
0.513473 -0.063831 0.095001
0.471218 -0.088810 0.045854
0.503598 -0.052196 0.104965
0.473950 0.008250 0.113328
0.462077 -0.016878 0.102784
0.474538 -0.062845 0.033995
0.457863 -0.082058 0.083802
0.515635 -0.009625 0.064128
0.493022 0.034909 0.094271
0.477584 0.032173 0.111434
0.515872 -0.072464 0.090477
0.457680 -0.009110 0.060819
0.479757 -0.126606 0.045652
0.516190 -0.041356 0.052042
0.513491 0.027689 0.099781
0.470446 -0.092580 0.049430
0.519231 -0.028097 0.060423
0.507202 -0.123871 0.051976
0.502667 -0.063921 0.035796
0.506510 0.002025 0.056052
0.519106 -0.070652 0.052698
0.482427 -0.128687 0.056597
0.520304 -0.076186 0.077287
0.518763 -0.067856 0.086694
0.486640 -0.129572 0.061552
0.475127 -0.130264 0.074957
0.463109 -0.019030 0.103559
0.495379 -0.019238 0.042465
0.479840 0.039346 0.068978
0.459131 -0.038296 0.048376
0.453242 0.005895 0.083574
0.485792 -0.125544 0.080276
0.451801 -0.015790 0.079118
0.483066 0.032870 0.106853
0.472682 -0.127386 0.049029
0.449784 -0.025993 0.076646
0.519792 -0.016174 0.079902
0.480082 0.027171 0.055497
0.461774 0.038720 0.071810
0.501333 -0.023577 0.108544
0.475705 -0.028130 0.109993
0.478797 0.030269 0.115988
0.461277 0.019223 0.104814
0.521364 -0.062116 0.058519
0.457947 0.025766 0.071708
0.459939 -0.085502 0.057602
0.487848 0.028952 0.055703
0.454887 0.025009 0.081550
0.469716 -0.005037 0.050554
0.471768 0.018967 0.113400
0.517645 -0.081327 0.074166
0.502069 -0.089634 0.047332
0.473479 -0.110599 0.079547
0.493691 -0.022651 0.111404
0.456011 -0.027374 0.094989
0.469805 0.013991 0.111845
0.459757 0.028415 0.069392
0.510735 -0.091266 0.061643
0.500233 -0.129379 0.061670
0.494454 -0.008262 0.046807
0.504104 0.033636 0.101352
0.514189 0.014581 0.070374
0.520443 -0.035021 0.061665
0.490593 -0.114841 0.082930
0.476226 -0.124868 0.041402
0.459057 0.000986 0.100675
0.504817 -0.024227 0.044818
0.502071 -0.104015 0.045453
0.475642 -0.123293 0.041580
0.514842 0.030651 0.079483
0.475275 -0.127420 0.049445
0.486681 -0.072790 0.034755
0.483888 -0.042135 0.035916
0.514797 -0.028664 0.097613
0.487980 -0.130328 0.065534
0.518993 -0.044039 0.090414
0.521924 -0.042951 0.082685
0.465492 -0.095476 0.059541
0.518210 -0.044022 0.091858
0.499252 0.008697 0.053203
0.516169 0.011425 0.074153
0.497382 -0.127488 0.051741
0.501549 0.035047 0.093115
0.491721 -0.071413 0.105610
0.462668 -0.078678 0.047294
0.505968 -0.102547 0.054614
0.493263 -0.120866 0.038773
0.495415 0.039582 0.066855
0.508803 0.036630 0.083509
0.516240 0.014577 0.076127
0.462181 -0.092176 0.063773
0.512856 -0.023472 0.051752
0.504331 -0.120495 0.046476
0.465201 -0.114479 0.057095
0.489178 -0.126163 0.044181
0.468502 -0.111925 0.049131
0.450384 -0.075148 0.070196
0.466361 -0.070532 0.100341
0.497332 0.019499 0.055427
0.476758 -0.027627 0.039753
0.498861 0.000712 0.112265
0.479620 -0.082167 0.101160
0.514621 -0.019901 0.058048
0.484139 -0.097634 0.087698
0.493080 -0.069501 0.105715
0.492377 -0.077511 0.036773
0.513799 -0.061990 0.094956
0.480880 0.031470 0.115755
0.474194 -0.130289 0.063908
0.490654 -0.043635 0.110764
0.469396 -0.040625 0.040189
0.516979 0.016636 0.087817
0.480731 0.009323 0.115378
0.515151 -0.057066 0.094178
0.472139 -0.010821 0.110557
0.502109 -0.037472 0.108353
0.466022 -0.080534 0.044985
0.514863 0.012895 0.097046
0.484696 0.000586 0.114883
0.483598 -0.015244 0.043825
0.498473 -0.118683 0.078803
0.456197 -0.064660 0.091694
0.471850 -0.117022 0.076948
0.460808 -0.063315 0.042192
0.467109 -0.031191 0.043190
0.508037 0.024867 0.064791
0.477698 -0.104066 0.041920
0.488226 -0.026671 0.111713
0.499190 0.000661 0.050945
0.509318 -0.069162 0.040990
0.462579 -0.093126 0.069794
0.473828 -0.062210 0.034358
0.515455 -0.042475 0.050773
0.522516 -0.046514 0.066585
0.475584 -0.018157 0.043870
0.460599 -0.072275 0.095419
0.502646 0.025590 0.112550
0.484034 -0.074497 0.105459
0.455460 0.028590 0.092310
0.516661 0.007905 0.074005
0.478385 -0.096875 0.046010
0.494527 -0.040901 0.110514
0.481799 -0.035680 0.112226
0.461625 0.013584 0.062258
0.481035 0.013448 0.051571
0.472662 -0.104450 0.076896
0.471019 0.029795 0.113036
0.450189 -0.056449 0.061611
0.468890 -0.048785 0.105777
0.509238 -0.107130 0.064305
0.469282 -0.000392 0.110108
0.488420 -0.099652 0.043058
0.492050 -0.072693 0.035050
0.454037 -0.073546 0.054552
0.519587 -0.020701 0.071057
0.469365 -0.065340 0.103026
0.466536 0.020307 0.059536
0.519157 -0.075219 0.084183
0.506241 -0.104372 0.068004
0.457141 -0.027448 0.052684
0.449071 -0.032595 0.073293
0.517155 -0.008672 0.092110
0.467437 0.025284 0.060297
0.516091 0.026712 0.085133
0.508825 -0.006474 0.104972
0.469138 -0.045643 0.106470
0.473028 -0.118229 0.043710
0.471510 0.002464 0.051570
0.465809 -0.115387 0.067578
0.489082 -0.020147 0.112429
0.487933 0.017329 0.052457
0.459742 -0.064331 0.096007
0.502965 0.032188 0.110194
0.468273 -0.076478 0.041177
0.499225 -0.036251 0.109850
0.490234 -0.004513 0.046895
0.514131 0.026089 0.098068
0.514295 -0.082307 0.084090
0.483857 -0.057092 0.108606
0.469773 -0.068663 0.036508
0.470101 -0.125333 0.047067
0.464290 0.033728 0.065322
0.508121 -0.096247 0.066162
0.478494 0.035008 0.094456
0.482728 -0.088231 0.096042
0.491475 0.022083 0.116655
0.500512 -0.126568 0.047137
0.502022 -0.086137 0.093359
0.450110 -0.062599 0.060848
0.487542 -0.084423 0.100424
0.501773 -0.074224 0.038766
0.514655 -0.084666 0.061091
0.506662 0.013813 0.108485
0.458084 0.011773 0.066653
0.485859 -0.128872 0.057867
0.466998 -0.120750 0.052331
0.480040 0.014363 0.051973
0.472697 -0.027735 0.041046
0.514395 -0.080437 0.055446
0.486177 -0.056200 0.108827
0.450683 -0.062404 0.080936
0.502557 -0.103282 0.047207
0.484124 -0.025518 0.111864
0.505362 -0.114591 0.072805
0.464600 -0.047970 0.103214
0.473180 -0.115145 0.043830
0.501705 -0.058949 0.104721
0.510852 -0.049284 0.044275
0.511848 -0.007095 0.101576
0.449367 -0.054040 0.076545
0.465604 0.039693 0.067942
0.510178 -0.091705 0.061112
0.501049 -0.053457 0.037002
0.470723 -0.005910 0.110376
0.490913 -0.096275 0.088851
0.495749 0.031896 0.112141
0.467831 -0.102483 0.056867
0.493706 -0.008229 0.113058
0.484861 -0.023144 0.112195
0.468500 -0.027752 0.043016
0.509935 -0.067769 0.097770
0.450263 -0.064372 0.079138
0.503440 0.033362 0.063099
0.458119 -0.081017 0.086255
0.461313 0.034153 0.068814
0.467596 -0.110601 0.073504
0.492260 -0.056962 0.033667
0.484851 -0.037474 0.036741
0.454970 -0.018571 0.092520
0.472905 0.018656 0.113912
0.459728 -0.028685 0.100119
0.506490 -0.063814 0.101117
0.456789 0.036251 0.087584
0.453902 -0.059279 0.089065
0.479762 -0.094354 0.044940
0.470295 0.022561 0.057686
0.516855 -0.048085 0.051648
0.476454 -0.115752 0.041480
0.467433 -0.102309 0.067347
0.502727 -0.109471 0.045438
0.461605 0.021394 0.105365
0.465276 -0.040096 0.105088
0.455131 0.003894 0.093323
0.494666 -0.030165 0.110714
0.450285 -0.072324 0.062406
0.519939 -0.046212 0.088041
0.513863 -0.004976 0.098862
0.481840 -0.131602 0.077582
0.490570 -0.029574 0.111367
0.473572 -0.111746 0.043564
0.499927 0.027205 0.058987
0.449169 -0.054578 0.074612
0.486111 -0.043186 0.111164
0.509617 -0.077039 0.045988
0.483847 0.008468 0.115660
0.514571 -0.086567 0.071135
0.522167 -0.057069 0.079464
0.495170 -0.043676 0.109861
0.471435 -0.102339 0.076184
0.502559 -0.042298 0.107282
0.481905 -0.002437 0.047279
0.517451 -0.075513 0.087298
0.483970 -0.039096 0.111833
0.489884 -0.059407 0.108035
0.467132 -0.091447 0.084310
0.458818 -0.011646 0.058445
0.470262 0.037048 0.082934
0.451873 -0.018826 0.073401
0.460255 0.001338 0.060291
0.508769 -0.058585 0.100390
0.449314 -0.046996 0.067920
0.451260 -0.075491 0.065018
0.492352 -0.112916 0.039358
0.476737 -0.083507 0.040574
0.464494 0.023053 0.108612
0.517260 -0.081191 0.078061
0.481072 -0.099155 0.085489
0.483244 -0.101461 0.042182
0.502746 -0.087642 0.090840
0.474145 -0.016465 0.045457
0.452594 -0.062267 0.085965
0.518555 -0.003852 0.076026
0.451510 -0.033622 0.061515
0.519096 -0.015820 0.085715
0.498424 -0.128569 0.057399
0.474254 -0.100156 0.048035
0.507944 -0.095970 0.062745
0.453889 0.009906 0.087940
0.503903 -0.066621 0.036215
0.499852 -0.125180 0.075682
0.492442 -0.058690 0.107780
0.457477 -0.085357 0.070412
0.505128 -0.116289 0.047877
0.463128 0.034249 0.100024
0.515974 0.024541 0.081577
0.483770 -0.095063 0.090257
0.471076 0.037722 0.078937
0.481980 0.035329 0.092385
0.481946 -0.035855 0.112214
0.462371 -0.005183 0.056093
0.514735 -0.025227 0.053614
0.454923 -0.058198 0.090977
0.472439 0.036640 0.060207
0.518321 -0.001243 0.076350
0.465165 -0.000201 0.107194
0.520583 -0.029002 0.088899
0.480867 -0.078104 0.037270
0.489059 0.030203 0.056200
0.506578 -0.101692 0.060912
0.499059 0.039298 0.068350
0.457120 -0.080138 0.085822
0.516820 -0.049360 0.093210
0.489369 -0.011869 0.044893
0.466783 0.013943 0.109788
0.518562 -0.037225 0.056887
0.478408 -0.045010 0.109995
0.522917 -0.039861 0.072100
0.466035 0.024124 0.110075
0.496173 -0.088278 0.094126
0.508659 -0.056387 0.041042
0.500376 0.032372 0.109063
0.517118 -0.003612 0.092004
0.503746 -0.017913 0.107817
0.522651 -0.028513 0.079798
0.474997 -0.004722 0.112382
0.449124 -0.029209 0.073092
0.506275 0.023660 0.062579
0.521269 -0.037403 0.085794
0.523050 -0.069403 0.065836
0.500819 0.012203 0.055026
0.459636 -0.046499 0.099136
0.498806 -0.017819 0.045203
0.507952 -0.069455 0.099059
0.454324 0.009123 0.075095
0.460428 0.004474 0.102744
0.494963 0.007608 0.114368
0.450825 -0.075090 0.065899
0.493263 -0.052018 0.108816
0.509331 -0.106334 0.059839
0.514825 0.029329 0.096339
0.465093 -0.112269 0.057247
0.479960 0.030652 0.116183
0.508004 -0.087494 0.085690
0.518075 0.004208 0.079017
0.471997 -0.095214 0.085121
0.478309 -0.029501 0.039033
0.465607 -0.000849 0.054385
0.519766 -0.077827 0.065951
0.455260 0.012401 0.093419
0.461417 -0.088908 0.078266
0.493171 0.021050 0.054421
0.514631 -0.019644 0.096871
0.481393 0.000158 0.048006
0.509337 0.035860 0.088040
0.522598 -0.061724 0.076506
0.476449 0.003373 0.113722
0.496713 -0.129292 0.060936
0.514137 -0.030627 0.051632
0.516072 0.027272 0.087802
0.463255 -0.056623 0.100607
0.473873 -0.096349 0.085081
0.464768 0.011348 0.107882
0.484215 -0.023542 0.039422
0.505083 -0.127633 0.052895
0.522639 -0.065500 0.075572
0.456136 -0.021770 0.057469
0.464993 -0.056219 0.040050
0.468060 -0.080970 0.098016
0.454361 -0.058639 0.051118
0.476717 -0.131307 0.069314
0.516237 -0.023480 0.093942
0.512841 -0.088540 0.071419
0.454878 -0.029676 0.095068
0.482660 -0.116388 0.038965
0.477963 -0.129092 0.058232
0.456007 0.002221 0.067453
0.466312 0.035076 0.094817
0.461760 -0.086192 0.085322
0.461736 -0.082782 0.051194
0.484266 -0.114518 0.083300
0.467610 -0.007794 0.051115
0.501051 -0.075220 0.039091
0.515360 -0.075294 0.050376
0.496274 -0.006095 0.112554
0.518877 -0.015079 0.071062
0.450303 -0.066697 0.059354
0.513608 -0.034432 0.100021
0.451459 -0.064389 0.056176
0.517662 -0.019776 0.090919
0.487324 0.029291 0.116954
0.516871 0.013708 0.078527
0.498067 -0.114012 0.080189
0.514393 0.002241 0.065930
0.480894 -0.026894 0.039070
0.498072 -0.099587 0.081861
0.449494 -0.052883 0.065639
0.470293 0.000939 0.051792
0.490986 -0.125300 0.039675
0.450435 -0.048048 0.062167
0.478586 0.016029 0.115632
0.467124 0.037521 0.064494
0.514969 -0.085813 0.066599
0.499148 0.031748 0.059910
0.451626 -0.021277 0.073480
0.518122 -0.002734 0.074298
0.499285 -0.098561 0.081979
0.469538 -0.085976 0.045944
0.507694 -0.088874 0.052245
0.485181 -0.127523 0.050840
0.487637 0.036693 0.084066
0.482176 -0.130766 0.067219
0.487403 -0.128996 0.058640
0.511009 -0.035246 0.047260
0.480892 0.039669 0.067048
0.510542 -0.083744 0.051866
0.491101 0.023764 0.054720
0.456657 0.005277 0.096846
0.468763 -0.130161 0.064496
0.504755 -0.044463 0.040654
0.477109 -0.099026 0.083951
0.502997 -0.127722 0.071756
0.497250 0.033697 0.101271
0.518352 -0.047705 0.090980
0.479449 0.036596 0.085049
0.482982 -0.043515 0.035729
0.523121 -0.060384 0.069342
0.501038 -0.067963 0.035675
0.523038 -0.068741 0.065778
0.484453 -0.016694 0.112949
0.480751 0.031717 0.114096
0.509733 0.033611 0.101383
0.463442 -0.045123 0.043187
0.479885 -0.014202 0.044587
0.509338 -0.094194 0.064588
0.507355 -0.092202 0.054911
0.460232 -0.042283 0.046514
0.522882 -0.034460 0.074384
0.519563 -0.014744 0.075616
0.457529 0.017462 0.069596
0.454605 0.020982 0.089298
0.475122 -0.051034 0.108034
0.479109 0.035484 0.091628
0.496779 -0.031323 0.039619
0.519388 -0.063514 0.086247
0.502439 -0.092159 0.048753
0.452071 -0.048647 0.057425
0.467237 -0.000569 0.108747
0.471345 0.019817 0.113270
0.509582 0.033470 0.102241
0.520011 -0.074400 0.082670
0.467528 0.002366 0.109238
0.521824 -0.049421 0.062760
0.502049 -0.101480 0.075794
0.507612 -0.073926 0.041794
0.475806 0.015682 0.053355
0.488550 -0.058353 0.108347
0.512427 -0.072781 0.045340
0.460761 0.017692 0.104062
0.504218 -0.054547 0.104192
0.452626 -0.006066 0.075946
0.449063 -0.047121 0.070831
0.514551 -0.002408 0.097775
0.467465 -0.129079 0.063940
0.485580 -0.050389 0.034341
0.498810 -0.131094 0.070310
0.508402 -0.121513 0.057810
0.484580 0.000596 0.114881
0.451514 -0.066614 0.055648
0.485224 0.018635 0.052690
0.495353 -0.113735 0.040229
0.502121 -0.071723 0.037124
0.458600 -0.080523 0.088128
0.456511 0.004677 0.067233
0.491044 -0.015958 0.043916
0.455866 -0.074096 0.089514
0.509528 -0.076119 0.045086
0.459651 0.005096 0.101767
0.522738 -0.050153 0.067188
0.485368 -0.047615 0.034853
0.485025 -0.037361 0.036756
0.455149 0.020611 0.092238
0.500678 0.039298 0.068292
0.473651 -0.007683 0.111553
0.465776 -0.087391 0.050227
0.455310 0.023773 0.092465
0.477381 -0.053384 0.034862
0.482147 0.030005 0.056008
0.499209 -0.018433 0.110112
0.502388 0.016736 0.111896
0.499459 0.034712 0.095163
0.498027 -0.121619 0.077989
0.517730 -0.064992 0.089011
0.515392 -0.082859 0.060815
0.459353 0.033955 0.099819
0.481456 0.031252 0.116326
0.518615 -0.014350 0.070309
0.509690 -0.071789 0.097254
0.516411 0.018474 0.091170
0.471945 -0.087918 0.045163
0.517897 -0.029272 0.094065
0.519031 -0.005707 0.081378
0.483650 -0.131121 0.069149
0.486559 -0.003962 0.114414
0.459156 0.011007 0.101410
0.466739 -0.076682 0.042335
0.487401 -0.068201 0.032413
0.498723 -0.023808 0.041830
0.474143 -0.106792 0.078354
0.459210 -0.039740 0.048029
0.492510 0.034552 0.096412
0.449527 -0.035429 0.068430
0.490172 -0.116629 0.038588
0.469830 -0.076680 0.040394
0.474620 -0.021927 0.110307
0.512605 0.030912 0.073743
0.504422 -0.101292 0.071934
0.492712 0.005466 0.049990
0.488439 0.010146 0.050533
0.469848 -0.002178 0.051227
0.466655 -0.085323 0.091386
0.515971 -0.047029 0.094848
0.467556 -0.094220 0.081632
0.476217 0.000992 0.049318
0.469708 -0.041765 0.107456
0.462299 0.000751 0.057811
0.480854 0.013818 0.051696
0.449043 -0.061007 0.070297
0.503000 -0.062100 0.036311
0.461091 -0.085938 0.084579
0.511266 -0.066311 0.096834
0.517668 -0.011918 0.068134
0.506062 0.035073 0.092811
0.471463 -0.005080 0.049634
0.497631 -0.088429 0.093342
0.515552 -0.010947 0.063513
0.460632 -0.087787 0.059169
0.461664 -0.023339 0.101732
0.449026 -0.042982 0.072467
0.481325 -0.010437 0.045314
0.520803 -0.025019 0.081995
0.499842 -0.060764 0.105232
0.515616 -0.074533 0.090444
0.468439 -0.077426 0.041708
0.508553 -0.118032 0.062210
0.506226 0.027316 0.063719
0.461113 0.037815 0.079143
0.454803 -0.080788 0.077341
0.449285 -0.029649 0.071304
0.450072 -0.071440 0.061415
0.473977 -0.057030 0.106555
0.472216 0.037191 0.081981
0.452130 -0.058202 0.055588
0.461011 0.034252 0.100319
0.461050 -0.020321 0.052025
0.485841 -0.132039 0.073992
0.465635 -0.008624 0.052298
0.513770 0.021130 0.099146
0.521912 -0.027748 0.068541
0.514203 -0.078036 0.090345
0.452493 -0.005183 0.081800
0.467777 0.032194 0.110436
0.503091 -0.076273 0.040746
0.499366 -0.079044 0.101838
0.455325 0.019444 0.093066
0.475806 -0.026180 0.110214
0.511655 -0.064943 0.042041
0.480132 -0.122001 0.039203
0.468018 -0.093057 0.083912
0.522968 -0.063990 0.073321
0.484569 -0.040947 0.111532
0.459906 -0.028005 0.049433
0.456462 -0.046618 0.095338
0.462796 -0.049186 0.101593
0.494155 -0.063951 0.032740
0.463912 -0.085793 0.051246
0.473174 -0.057104 0.035520
0.460209 -0.073216 0.094868
0.495808 -0.124752 0.040323
0.468129 -0.029093 0.106713
0.490201 -0.066340 0.032340
0.482008 -0.100910 0.084248
0.476238 -0.085854 0.097054
0.503058 -0.117315 0.075148
0.505558 0.017662 0.109706
0.497101 -0.066103 0.105283
0.509924 -0.039215 0.102867
0.488942 0.038362 0.074246
0.470679 -0.089111 0.046365
0.487855 -0.044145 0.110935
0.485337 0.001070 0.114951
0.508582 0.034093 0.098511
0.508144 0.008573 0.059551
0.493761 -0.087572 0.095790
0.492841 -0.074564 0.104849
0.457182 -0.036476 0.050992
0.479288 0.038603 0.073343
0.472323 -0.111346 0.044700
0.463425 0.037912 0.078359
0.492901 -0.022516 0.111591
0.458110 -0.086350 0.070141
0.476588 -0.005675 0.047505
0.467565 -0.071312 0.039292
0.462919 -0.022327 0.103049
0.488522 -0.110227 0.083207
0.459527 -0.023753 0.050589
0.454980 -0.002689 0.093003
0.475813 -0.001521 0.048800
0.513394 -0.087225 0.075778
0.465199 0.029900 0.108896
0.517141 -0.008850 0.067878
0.487406 -0.096008 0.044026
0.519155 -0.007156 0.080147
0.515895 -0.079250 0.056711
0.507714 -0.091933 0.055327
0.519204 -0.076464 0.082614
0.458856 -0.024458 0.098434
0.506668 -0.122932 0.050527
0.449142 -0.069652 0.071348
0.457560 -0.082728 0.058745
0.484878 0.032521 0.108858
0.449263 -0.059029 0.066370
0.456934 -0.084612 0.070526
0.519264 -0.040219 0.090496
0.487529 -0.090238 0.095037
0.487576 -0.022845 0.039585
0.508436 0.030789 0.067258
0.473650 -0.115277 0.079013
0.497581 -0.034938 0.039175
0.499018 -0.126872 0.048638
0.463720 -0.020774 0.048299
0.474397 0.014935 0.114174
0.517937 -0.072966 0.053801
0.472378 -0.030617 0.040641
0.473974 -0.020602 0.041896
0.479423 0.033740 0.101881
0.449510 -0.065840 0.075301
0.497002 -0.087235 0.043114
0.449041 -0.042370 0.074581
0.516344 -0.073483 0.051179
0.472475 -0.024447 0.109152
0.506935 0.006682 0.057809
0.508427 0.034234 0.097670
0.454853 -0.061714 0.049769
0.453158 -0.078908 0.075158
0.517327 -0.017948 0.064869
0.455588 0.032045 0.091112
0.500456 0.035760 0.061473
0.505892 0.005704 0.056620
0.462810 -0.006100 0.104530
0.463995 -0.091496 0.079935
0.496520 0.008345 0.051921
0.515147 -0.078076 0.088226
0.460400 0.027677 0.068200
0.512652 -0.084260 0.083081
0.456139 -0.003248 0.095565
0.449558 -0.067882 0.062556
0.462990 -0.041693 0.044153
0.521600 -0.056359 0.060507
0.494475 0.033996 0.099606
0.470065 0.037854 0.078230
0.499983 -0.065818 0.104262
0.467775 -0.117772 0.050470
0.464613 -0.110566 0.064144
0.506576 -0.103672 0.066186
0.471120 -0.032768 0.040787
0.499591 -0.123477 0.076374
0.497470 -0.014066 0.046285
0.454231 -0.063123 0.050541
0.482960 -0.064664 0.031927
0.502287 -0.075996 0.040151
0.486385 -0.099931 0.085515
0.481634 -0.126991 0.047782
0.465699 0.035263 0.093757
0.470550 0.040078 0.065389
0.480371 -0.103333 0.040969
0.493015 -0.074579 0.104812
0.514483 0.010053 0.097946
0.457593 0.011166 0.067324
0.496615 -0.126936 0.048792
0.452988 -0.059495 0.053474
0.490977 0.040153 0.060153
0.488063 -0.127749 0.052271
0.466791 0.007378 0.055730
0.515173 0.011824 0.071462
0.451131 -0.026920 0.063771
0.505560 -0.057464 0.038653
0.506167 -0.022870 0.045998
0.454328 -0.070086 0.050821
0.512100 0.010746 0.065143
0.466005 -0.124393 0.061071
0.450252 -0.061874 0.079518
0.469284 -0.070514 0.037887
0.468361 0.017387 0.057402
0.506807 -0.079402 0.044346
0.473320 -0.106328 0.044436
0.493968 -0.044931 0.036237
0.471352 0.016802 0.112977
0.457727 -0.082968 0.081774
0.471560 0.001163 0.051203
0.467037 0.014248 0.057443
0.510014 -0.077821 0.095524
0.473331 0.039837 0.066543
0.501094 0.006890 0.111773
0.462465 0.025360 0.064845
0.455204 -0.079735 0.081841
0.451058 -0.070541 0.080662
0.453577 -0.002635 0.072572
0.465418 -0.000925 0.054514
0.502476 -0.097272 0.080332
0.476605 -0.062942 0.033351
0.520856 -0.068264 0.055800
0.508740 -0.019992 0.103848
0.471056 -0.008465 0.048978
0.514529 -0.009912 0.062002
0.465556 -0.120431 0.061222
0.482864 -0.127449 0.050244
0.511019 -0.090375 0.073583
0.517148 0.014612 0.081288
0.452413 -0.020439 0.069344
0.505421 -0.038045 0.042322
0.518276 -0.053540 0.090095
0.466862 -0.013703 0.050101
0.494987 0.035329 0.091671
0.469638 -0.029960 0.107749
0.449618 -0.050576 0.065240
0.510739 -0.081220 0.049383
0.496302 -0.088275 0.094079
0.504860 -0.126256 0.048753
0.491422 -0.050591 0.034707
0.464754 -0.030231 0.044904
0.498036 -0.096035 0.086015
0.449040 -0.069142 0.068966
0.457494 -0.007930 0.061462
0.458857 -0.048895 0.046769
0.479810 -0.099364 0.084827
0.502568 -0.128831 0.059044
0.459182 0.019493 0.101882
0.454241 -0.080070 0.077220
0.514466 -0.040678 0.049866
0.452173 -0.045142 0.088147
0.487722 -0.069888 0.106302
0.497532 0.014589 0.114150
0.500019 -0.098038 0.081955
0.467635 0.015256 0.057295
0.473930 -0.128428 0.054449
0.454335 -0.074145 0.087129
0.499092 -0.046775 0.108049
0.474239 -0.102816 0.045752
0.462070 0.001270 0.058196
0.474892 -0.019957 0.110636
0.478905 -0.127219 0.078335
0.484416 -0.131341 0.070338
0.491220 -0.081386 0.038879
