ply
format ascii 1.0
element vertex 1024
property float x
property float y
property float z
end_header
0.527827 -0.091467 0.033179
0.560738 -0.007498 0.069782
0.538738 -0.013956 0.040712
0.551447 -0.058566 0.091549
0.543207 0.030307 0.063802
0.552735 -0.077883 0.085833
0.492185 0.020815 0.084766
0.550884 -0.033868 0.048006
0.492350 -0.028718 0.089831
0.559662 -0.077717 0.070447
0.560478 -0.024350 0.062345
0.499172 0.028501 0.091948
0.562146 -0.032166 0.075760
0.543772 0.014428 0.048967
0.499053 0.056082 0.083729
0.501499 0.044127 0.097621
0.502279 0.038357 0.090255
0.521341 0.034710 0.104772
0.554178 -0.012749 0.098163
0.548664 -0.063857 0.042018
0.544005 -0.058268 0.039373
0.540079 -0.077011 0.035347
0.496365 -0.039635 0.054550
0.541870 0.031979 0.096956
0.526516 0.028451 0.052381
0.511790 -0.078986 0.091916
0.522333 0.068582 0.092264
0.558776 -0.062890 0.077984
0.559812 -0.089247 0.061819
0.486719 -0.002073 0.077569
0.559437 0.014027 0.072601
0.526008 -0.033514 0.109744
0.494992 0.017533 0.095151
0.496421 0.027851 0.074582
0.541205 -0.097218 0.071173
0.493410 -0.012424 0.055421
0.551029 -0.012127 0.101942
0.523722 0.049140 0.108948
0.512285 -0.099719 0.079219
0.527783 -0.096941 0.066204
0.524067 0.069147 0.089782
0.543646 -0.093947 0.051609
0.506574 -0.060524 0.042390
0.524039 0.066633 0.104156
0.547369 -0.067360 0.040558
0.529200 0.004010 0.041368
0.543316 0.052610 0.087316
0.534884 -0.010271 0.040037
0.504224 -0.012567 0.107382
0.529677 -0.022982 0.111225
0.548101 -0.069461 0.040891
0.502918 -0.051440 0.093433
0.535291 -0.048692 0.036869
0.498506 0.045520 0.087077
0.556883 -0.001069 0.060388
0.557742 0.014616 0.066869
0.505451 -0.010600 0.108569
0.519827 -0.038686 0.037526
0.489654 0.008077 0.095078
0.555491 0.015832 0.062282
0.534555 0.025972 0.052357
0.514892 -0.092921 0.037858
0.537170 0.041666 0.072015
0.560441 -0.019670 0.085299
0.512272 0.023668 0.106949
0.537862 -0.051358 0.101979
0.496679 -0.064053 0.077568
0.548911 0.027320 0.090535
0.551099 -0.004911 0.051143
0.506646 0.026571 0.057026
0.501285 0.014565 0.050047
0.561584 -0.033238 0.075645
0.536973 0.021976 0.049214
0.496409 0.028570 0.079799
0.543069 0.048665 0.084151
0.511630 -0.058601 0.097966
0.550044 0.028795 0.081209
0.555795 -0.066812 0.050289
0.543470 -0.066035 0.096238
0.552102 -0.078758 0.086391
0.556109 -0.070736 0.050384
0.555986 -0.020515 0.094868
0.517723 0.059742 0.066765
0.501557 -0.071748 0.048305
0.525841 0.015404 0.042988
0.492795 -0.020275 0.055924
0.497635 0.016287 0.100141
0.558780 -0.003692 0.063972
0.527582 -0.087577 0.032236
0.495127 0.002381 0.054409
0.507727 -0.029742 0.040679
0.538372 -0.094196 0.091948
0.549762 -0.098553 0.081078
0.528521 0.013502 0.113527
0.516829 -0.021818 0.037662
0.539943 0.039659 0.073632
0.532889 0.062404 0.105808
0.542580 0.030606 0.097652
0.522963 0.006839 0.041455
0.496952 -0.075777 0.067645
0.545733 -0.098713 0.081273
0.556043 -0.047825 0.053165
0.505465 0.036930 0.096790
0.523167 -0.049315 0.104108
0.514760 -0.093501 0.041554
0.520550 -0.075459 0.034340
0.538820 0.000034 0.112105
0.501670 0.010578 0.106999
0.507414 0.049462 0.105014
0.500283 0.050640 0.078682
0.497519 -0.027681 0.048637
0.505363 -0.001307 0.045247
0.506653 0.003471 0.112037
0.514741 -0.100346 0.083602
0.537934 0.069481 0.094098
0.533906 -0.038627 0.107877
0.545699 -0.038182 0.042939
0.495335 0.013137 0.100374
0.524797 -0.046394 0.036118
0.489898 0.017149 0.080529
0.557056 -0.016705 0.056524
0.532684 -0.038966 0.108023
0.522674 0.019882 0.045114
0.561165 -0.007432 0.080298
0.556984 -0.091641 0.075938
0.531585 -0.068450 0.034119
0.548325 -0.090885 0.040122
0.537921 0.048774 0.073498
0.544581 -0.093722 0.089333
0.506512 0.006115 0.112255
0.507936 0.002478 0.112466
0.500750 -0.053683 0.048475
0.541521 0.044522 0.088591
0.521254 0.054885 0.065387
0.548952 -0.037684 0.099813
0.495371 0.016086 0.056625
0.559955 -0.083907 0.064190
0.528257 0.027461 0.051901
0.547374 -0.080709 0.090360
0.500444 0.005263 0.108353
0.522413 -0.100632 0.087203
0.542242 0.034428 0.067944
0.534672 -0.098011 0.074439
0.557782 -0.070674 0.078956
0.560227 -0.014360 0.085964
0.522509 -0.037662 0.037199
0.505047 0.057565 0.103934
0.497964 0.026647 0.091910
0.520897 0.069166 0.088357
0.537268 0.049674 0.072390
0.541030 -0.033067 0.106333
0.507878 -0.042485 0.042120
0.508257 -0.076262 0.040766
0.523662 -0.093752 0.092633
0.486460 0.010689 0.074562
0.557185 -0.029021 0.054516
0.487965 0.007491 0.067863
0.553898 -0.055340 0.089232
0.488983 -0.022021 0.082913
0.529422 0.067736 0.100088
0.498902 -0.080199 0.055547
0.560269 -0.066083 0.065538
0.546591 -0.025857 0.042748
0.532583 0.044372 0.105375
0.493372 -0.002945 0.098967
0.516472 -0.033335 0.038786
0.507362 -0.064252 0.093361
0.554190 -0.023080 0.050649
0.554530 -0.020608 0.051665
0.512378 0.026999 0.106066
0.555138 -0.008990 0.055323
0.533363 -0.093398 0.045699
0.499118 -0.091104 0.062321
0.543231 0.002558 0.046227
0.545273 -0.096806 0.069639
0.491314 0.016070 0.063704
0.533960 0.035461 0.101321
0.529630 -0.089902 0.032903
0.502336 -0.091684 0.076171
0.529584 -0.096322 0.062830
0.523450 0.015167 0.112987
0.553733 -0.027791 0.097202
0.497032 -0.023264 0.098556
0.560432 -0.055822 0.070584
0.494997 -0.060214 0.063054
0.524624 -0.076884 0.033432
0.534267 0.031083 0.057583
0.539101 0.055725 0.074941
0.506718 0.042951 0.072840
0.516565 -0.059212 0.036718
0.488922 -0.032221 0.075716
0.553656 -0.068648 0.086723
0.543128 -0.055692 0.098692
0.538293 -0.006342 0.111426
0.531451 0.064782 0.106569
0.512198 0.058692 0.108579
0.548051 -0.040509 0.044441
0.541130 0.024256 0.103210
0.501046 -0.086972 0.051322
0.533887 0.024706 0.050870
0.513729 0.051807 0.108605
0.533317 -0.054163 0.102568
0.543306 -0.039769 0.041217
0.556647 -0.002687 0.095155
0.492374 0.020664 0.085917
0.500454 -0.069428 0.083392
0.531920 -0.096621 0.092686
0.528390 0.013001 0.113576
0.536863 0.068483 0.098446
0.498536 -0.058362 0.084873
0.510905 -0.085476 0.038527
0.490487 -0.027047 0.060911
0.548156 -0.030433 0.045296
0.503037 -0.010042 0.045603
0.543442 -0.097515 0.073513
0.559589 0.004708 0.069484
0.504031 -0.022300 0.105174
0.559301 0.001772 0.067361
0.540104 -0.003253 0.043388
0.542545 0.051273 0.092932
0.533896 -0.050872 0.103192
0.525036 0.069709 0.087032
0.537313 0.017231 0.109281
0.559644 -0.075217 0.071322
0.558446 0.000898 0.091408
0.504872 0.035396 0.095793
0.502050 0.024694 0.058931
0.502763 -0.095913 0.053326
0.540465 0.067726 0.091780
0.559301 0.016362 0.076094
0.500800 -0.089655 0.052193
0.522818 -0.086583 0.094391
0.495002 -0.033241 0.053359
0.517007 0.034714 0.059040
0.515630 -0.097368 0.065713
0.519224 0.065859 0.068322
0.504924 -0.083626 0.044390
0.556338 -0.045698 0.053994
0.562023 -0.030251 0.078911
0.516232 -0.007995 0.039922
0.525696 0.041958 0.065411
0.557944 -0.010169 0.060039
0.561047 -0.014321 0.068310
0.551601 -0.079085 0.043068
0.490612 0.016471 0.066741
0.506348 0.035644 0.066678
0.561610 -0.012639 0.074535
0.516824 0.030011 0.054748
0.515531 -0.074878 0.036177
0.543423 -0.078994 0.093331
0.493056 0.020808 0.088352
0.528111 0.004324 0.115831
0.534376 -0.025518 0.037137
0.542790 0.055541 0.089567
0.541488 0.051961 0.077690
0.511354 0.013417 0.111730
0.519258 -0.100245 0.088502
0.548017 -0.099015 0.083470
0.497896 -0.066524 0.054703
0.559530 -0.013279 0.088183
0.545896 0.005413 0.108575
0.513897 0.005372 0.042564
0.541086 -0.043972 0.039514
0.559574 0.003158 0.068841
0.539032 -0.007751 0.042017
0.507457 0.066773 0.096451
0.499187 -0.090247 0.065531
0.523122 -0.006026 0.114452
0.494269 -0.054062 0.063436
0.500245 0.010554 0.050334
0.560827 -0.020356 0.083931
0.534772 -0.005844 0.112782
0.511204 0.035168 0.061915
0.546650 -0.017358 0.105133
0.560154 -0.072308 0.067706
0.558440 -0.043944 0.058979
0.496307 0.011875 0.054087
0.550252 0.023443 0.063257
0.500194 -0.052454 0.089807
0.532034 -0.097538 0.070914
0.554307 -0.095650 0.064532
0.530627 0.002974 0.115194
0.521722 -0.042418 0.036837
0.511519 0.070241 0.078386
0.492545 -0.019532 0.093098
0.529100 -0.095144 0.092985
0.515158 0.038234 0.063519
0.497350 -0.034504 0.095935
0.505277 0.061674 0.104623
0.486124 0.007762 0.080068
0.495531 -0.060554 0.075777
0.495089 0.008124 0.102888
0.520456 0.069637 0.085529
0.517294 0.008412 0.114867
0.525499 -0.001221 0.115197
0.523222 0.068795 0.091422
0.540230 0.068783 0.086579
0.558933 -0.042196 0.060709
0.490345 -0.035448 0.065605
0.514394 -0.094586 0.048259
0.513096 -0.012035 0.040182
0.542431 -0.060635 0.038222
0.539979 0.061359 0.097026
0.541395 -0.038576 0.040337
0.547788 -0.096354 0.067455
0.517639 0.071535 0.073596
0.541137 -0.027894 0.039994
0.513330 -0.049952 0.101218
0.503495 -0.080214 0.046093
0.524664 -0.091460 0.033442
0.547713 -0.045307 0.097736
0.560371 -0.036827 0.076582
0.558095 -0.094916 0.067841
0.556675 -0.079062 0.050508
0.498437 -0.001650 0.105147
0.527605 -0.078281 0.033067
0.526188 0.031581 0.055687
0.500195 -0.083298 0.052660
0.537833 -0.078970 0.034368
0.506948 -0.046378 0.042571
0.559977 -0.082296 0.063255
0.516174 0.014445 0.112501
0.499550 0.030413 0.090133
0.542915 0.049173 0.082247
0.553422 -0.045462 0.091836
0.555143 -0.031241 0.053025
0.559952 -0.076851 0.062080
0.524466 -0.080690 0.033145
0.508924 0.027688 0.103817
0.517547 0.066269 0.103514
0.493447 -0.046743 0.063878
0.533843 -0.099595 0.083840
0.503789 -0.076809 0.085227
0.498707 -0.028271 0.099139
0.539166 0.049684 0.099797
0.509004 0.070004 0.073174
0.555878 -0.060260 0.051236
0.489005 -0.032705 0.076102
0.499425 0.044667 0.092807
0.509241 0.068547 0.072351
0.509954 -0.094231 0.085559
0.516917 0.071043 0.076074
0.492928 0.019256 0.067542
0.491819 -0.010092 0.058249
0.532732 -0.040535 0.106649
0.526317 0.068511 0.094348
0.526154 -0.024988 0.111213
0.517844 -0.025014 0.110544
0.526664 0.039881 0.063747
0.527782 -0.025155 0.111076
0.495319 -0.065195 0.066627
0.506691 -0.074845 0.089212
0.509621 0.066887 0.096653
0.527366 -0.098897 0.078016
0.554355 0.003092 0.099371
0.515020 0.026561 0.052472
0.505851 0.040778 0.099503
0.498985 0.063754 0.086355
0.505859 -0.097051 0.061229
0.515482 -0.099768 0.080342
0.508093 -0.078290 0.089299
0.531513 0.036425 0.061673
0.491751 -0.036172 0.085782
0.501181 0.059990 0.099121
0.526656 0.058759 0.067034
0.506155 0.068498 0.086088
0.517818 0.057301 0.066255
0.540434 0.020731 0.049653
0.560268 0.007605 0.074545
0.496956 -0.075735 0.063228
0.496711 -0.023640 0.049968
0.549462 -0.069068 0.091237
0.556652 0.016415 0.089416
0.496275 -0.041162 0.088965
0.544316 0.033232 0.091842
0.553665 0.000994 0.100168
0.492842 0.022444 0.074516
0.534393 -0.007668 0.112618
0.556872 -0.096385 0.069319
0.530692 0.071145 0.081440
0.556418 -0.024559 0.093855
0.501638 -0.009922 0.046669
0.518067 -0.082709 0.094034
0.559007 -0.074904 0.074285
0.532585 -0.012498 0.112350
0.560506 -0.053041 0.069530
0.548725 -0.031987 0.101643
0.511724 0.028236 0.054994
0.527670 -0.080557 0.096642
0.557832 -0.067048 0.079688
0.496126 -0.037564 0.054710
0.532535 0.052863 0.106106
0.556160 0.005374 0.060735
0.541968 0.056165 0.081305
0.509548 0.013052 0.045186
0.504279 -0.019231 0.043571
0.500256 -0.084589 0.075137
0.506582 0.049569 0.069758
0.556454 -0.040710 0.088047
0.494189 -0.056981 0.067593
0.488547 0.010663 0.089255
0.536862 0.036087 0.064603
0.496866 0.011311 0.053447
0.491837 -0.018077 0.092213
0.503503 -0.018500 0.105627
0.499880 -0.033394 0.048289
0.558474 0.011240 0.067910
0.545406 -0.093788 0.088822
0.557813 0.007410 0.093204
0.546876 -0.084646 0.038231
0.506732 -0.071502 0.090425
0.509186 0.041702 0.070263
0.554254 -0.027810 0.096555
0.560619 -0.031018 0.084664
0.518874 -0.065283 0.035533
0.501054 -0.066354 0.048659
0.540208 0.043900 0.079028
0.558788 -0.092550 0.059881
0.530762 0.004405 0.041697
0.561717 -0.014893 0.073766
0.513678 0.042733 0.107283
0.560178 -0.062534 0.064343
0.502581 0.043255 0.078695
0.490908 0.018188 0.072411
0.524645 0.021647 0.046413
0.505956 -0.043802 0.098653
0.560844 0.001551 0.077036
0.513614 -0.072074 0.037247
0.523876 0.006314 0.116311
0.517974 0.039852 0.105409
0.516632 -0.023018 0.037525
0.539143 -0.020737 0.039614
0.524608 -0.059153 0.101863
0.513374 -0.077183 0.037166
0.514933 -0.091756 0.089809
0.539464 -0.062391 0.098955
0.561893 -0.018105 0.073513
0.511712 0.063685 0.069658
0.506285 -0.054125 0.042787
0.535924 0.057464 0.071884
0.556024 -0.047296 0.087543
0.498505 -0.071452 0.054222
0.558500 0.003602 0.065496
0.542434 -0.099747 0.086623
0.506904 0.024688 0.054549
0.551160 -0.032970 0.099373
0.494906 -0.049660 0.059271
0.527463 -0.093371 0.093265
0.526624 0.014005 0.113629
0.558823 -0.009984 0.090154
0.501220 0.017809 0.052208
0.516745 0.070380 0.070048
0.518307 -0.085789 0.034329
0.514636 0.032051 0.104437
0.538346 -0.095193 0.058039
0.551393 0.022749 0.091618
0.554213 -0.089307 0.081319
0.504054 0.066373 0.097420
0.540577 0.017967 0.107238
0.530779 0.010506 0.042786
0.552878 0.017388 0.096710
0.490295 0.017275 0.082873
0.506047 0.020756 0.105526
0.541331 -0.082301 0.093596
0.524524 -0.063798 0.034529
0.520164 0.068979 0.089121
0.522294 0.065447 0.068257
0.501737 -0.067147 0.047714
0.499606 -0.023098 0.046887
0.500622 0.017831 0.102088
0.557941 -0.011283 0.092092
0.548578 0.006258 0.051094
0.500716 0.043530 0.093752
0.558202 -0.041153 0.084184
0.523776 0.048921 0.108922
0.561141 -0.014443 0.068756
0.511420 0.060657 0.069109
0.547968 -0.010467 0.104953
0.488686 -0.009436 0.087194
0.535197 -0.061638 0.100465
0.544276 -0.000726 0.046227
0.519457 -0.092289 0.035108
0.508730 0.028312 0.103219
0.486755 -0.002302 0.076622
0.560408 -0.057505 0.067037
0.542334 0.030538 0.097997
0.547275 -0.098619 0.081033
0.524031 0.046774 0.066443
0.553333 -0.059714 0.089079
0.557928 -0.043636 0.084407
0.503158 -0.022754 0.043926
0.539191 -0.001985 0.111649
0.547353 0.008584 0.050485
0.499758 -0.091673 0.068375
0.552235 0.021910 0.064196
0.522663 -0.086381 0.032944
0.539974 0.051370 0.074655
0.487862 0.003238 0.068331
0.491645 -0.014919 0.058324
0.552406 -0.039074 0.049049
0.559989 -0.082291 0.064539
0.558324 -0.031621 0.058645
0.543229 -0.005876 0.108955
0.541230 -0.091337 0.035753
0.554183 0.001090 0.056392
0.507365 0.039245 0.070472
0.510111 -0.074526 0.039334
0.492642 -0.013072 0.095129
0.507986 0.061149 0.071248
0.533605 0.044608 0.070140
0.499727 0.049825 0.094678
0.556794 -0.081322 0.050501
0.561683 -0.022530 0.068224
0.550615 -0.060948 0.044184
0.553207 -0.038238 0.094213
0.533164 0.019557 0.045854
0.523856 -0.022583 0.111642
0.531672 -0.063492 0.100695
0.539892 0.068413 0.093893
0.555465 -0.038238 0.090685
0.510645 0.057362 0.068549
0.498219 -0.084319 0.065101
0.542681 0.000208 0.045423
0.558654 -0.024298 0.089863
0.493772 0.017231 0.093339
0.558033 -0.074665 0.077369
0.515321 0.020626 0.109824
0.516381 -0.010790 0.112846
0.553697 -0.025112 0.097529
0.539858 0.042211 0.077159
0.548096 -0.027193 0.102768
0.498555 -0.050320 0.051519
0.527432 0.006275 0.116080
0.559717 -0.028013 0.087251
0.556007 -0.008663 0.095840
0.547803 0.030827 0.073924
0.519381 -0.039695 0.037523
0.531252 -0.093486 0.045733
0.536555 -0.034529 0.038887
0.519019 -0.052839 0.036447
0.541040 -0.011169 0.109459
0.535777 -0.005817 0.041143
0.535444 0.021934 0.048491
0.499032 0.056118 0.083890
0.503541 0.030150 0.063507
0.558309 -0.084057 0.053946
0.519825 0.013611 0.113647
0.543795 0.035659 0.088612
0.504184 0.046056 0.074177
0.538169 0.019793 0.107255
0.501732 -0.035095 0.047228
0.552275 0.004809 0.054726
0.509027 -0.060873 0.095685
0.527631 -0.017839 0.037427
0.518814 -0.051322 0.102785
0.514385 0.066637 0.100044
0.513114 0.045175 0.068156
0.511609 0.032488 0.102879
0.545645 -0.065479 0.039553
0.486271 0.010075 0.081971
0.529850 0.059516 0.107653
0.554616 -0.009741 0.097846
0.538734 0.029335 0.058465
0.501645 0.055517 0.099381
0.549947 -0.092938 0.046725
0.512022 -0.088939 0.088830
0.546493 0.030308 0.091904
0.527239 -0.093488 0.044736
0.534972 -0.095689 0.060256
0.560565 -0.030872 0.084832
0.515057 -0.046077 0.038235
0.492820 -0.035165 0.088597
0.555352 -0.000505 0.057791
0.509938 -0.088981 0.038890
0.509134 -0.063416 0.094985
0.559281 -0.061441 0.059497
0.522481 -0.039477 0.108473
0.498231 0.024881 0.064611
0.499992 -0.084811 0.053635
0.511163 0.038606 0.102304
0.505690 -0.097693 0.065122
0.552174 0.021318 0.062930
0.530168 -0.020032 0.111632
0.494273 -0.042016 0.059461
0.559388 -0.075884 0.058600
0.495447 -0.024881 0.096122
0.561066 -0.020992 0.082986
0.507569 -0.026078 0.106561
0.558855 -0.085642 0.055634
0.543978 0.020880 0.102842
0.487482 -0.001567 0.085663
0.542494 -0.099260 0.083834
0.523977 -0.064010 0.100590
0.545420 -0.051043 0.098257
0.513367 -0.038507 0.106643
0.560271 -0.059776 0.071341
0.538572 -0.023976 0.038781
0.499145 -0.082687 0.072992
0.520313 -0.030871 0.109861
0.505095 0.003655 0.111231
0.495912 -0.069206 0.067902
0.559418 -0.014212 0.062399
0.491201 -0.037942 0.069387
0.541373 -0.000274 0.110787
0.533997 -0.062263 0.035109
0.556778 -0.064270 0.052438
0.552255 -0.075476 0.086957
0.536378 0.021447 0.048353
0.554473 -0.016527 0.097400
0.509537 0.042830 0.105434
0.525261 -0.096277 0.092439
0.526598 0.056614 0.066474
0.557736 -0.095523 0.068860
0.531294 0.019769 0.109886
0.511042 -0.069162 0.094516
0.546880 0.033475 0.079461
0.495610 -0.021953 0.051511
0.511679 -0.050476 0.039420
0.507507 0.012325 0.110350
0.549720 -0.069202 0.042321
0.544514 0.030542 0.065879
0.497646 -0.076324 0.058767
0.531154 -0.049069 0.104075
0.499143 -0.052881 0.050733
0.519414 -0.100009 0.082769
0.514045 -0.005786 0.113177
0.559980 -0.068103 0.071239
0.518369 0.066929 0.100076
0.491879 -0.029460 0.088569
0.517280 -0.092820 0.090702
0.560309 -0.005346 0.068591
0.546173 0.034257 0.081384
0.558811 -0.072659 0.056678
0.492809 -0.028790 0.055505
0.507411 0.065486 0.103988
0.513599 -0.001964 0.113743
0.520742 -0.029272 0.037155
0.505076 0.005911 0.046392
0.558593 0.017851 0.077621
0.519797 0.007877 0.041829
0.534595 0.070631 0.086037
0.528257 -0.045061 0.105269
0.516525 0.022769 0.108864
0.555945 -0.028840 0.052592
0.503163 0.061201 0.075937
0.523862 0.070466 0.082292
0.527163 -0.054380 0.035256
0.543826 -0.093253 0.047327
0.550417 0.026470 0.068297
0.519368 0.029913 0.054139
0.542146 0.050378 0.094237
0.508645 -0.043468 0.041569
0.491002 0.018296 0.082594
0.495094 0.013702 0.099748
0.551560 -0.062113 0.090661
0.505650 -0.049110 0.096691
0.529800 0.014724 0.043345
0.536029 -0.035239 0.107899
0.526200 0.012925 0.042585
0.524530 -0.048284 0.104479
0.555457 -0.095616 0.076035
0.510078 -0.078031 0.091004
0.533444 0.048149 0.105180
0.501050 -0.064054 0.086596
0.494264 -0.024917 0.053208
0.533376 0.033893 0.102420
0.534290 0.000286 0.041807
0.507166 -0.052490 0.042152
0.501243 0.068245 0.085731
0.530243 -0.003857 0.040143
0.559414 -0.081062 0.070887
0.515949 -0.089771 0.035629
0.510992 0.020724 0.108228
0.498885 -0.088754 0.063693
0.536997 -0.032137 0.039279
0.507535 -0.061537 0.094360
0.532855 0.032672 0.103302
0.511689 0.032701 0.059785
0.501501 0.027751 0.096875
0.513985 0.069179 0.085455
0.524945 -0.096329 0.061716
0.530339 0.069592 0.089947
0.520217 0.068684 0.090827
0.489776 -0.023604 0.085174
0.512177 -0.094696 0.048364
0.499395 0.022388 0.098046
0.498496 -0.078651 0.056399
0.552985 -0.063238 0.046590
0.533509 0.071831 0.076808
0.487489 -0.012337 0.079214
0.544077 0.036513 0.084455
0.525265 0.062208 0.109519
0.536669 -0.098469 0.077696
0.527333 -0.021451 0.111732
0.529309 -0.095034 0.054839
0.492184 -0.008569 0.057698
0.507236 -0.005756 0.110528
0.487146 0.011966 0.079529
0.504976 0.003029 0.111041
0.558078 -0.049942 0.082810
0.555408 -0.096275 0.068497
0.531488 -0.100536 0.088865
0.507346 -0.005156 0.043608
0.498270 -0.038087 0.051458
0.512482 0.030172 0.104419
0.504404 0.030496 0.098403
0.511389 -0.008006 0.041379
0.509050 -0.031737 0.106143
0.509418 -0.050448 0.099001
0.526786 -0.069776 0.033837
0.545358 -0.076562 0.038096
0.561351 -0.014230 0.080724
0.535490 -0.095199 0.057369
0.488509 -0.023458 0.068602
0.524360 -0.005432 0.114550
0.500946 0.032507 0.091615
0.525351 -0.002623 0.039889
0.559839 -0.061746 0.062034
0.559946 -0.083019 0.062626
0.532339 -0.100545 0.089100
0.522064 0.005677 0.116286
0.559838 -0.064726 0.061789
0.500674 -0.014821 0.104206
0.526440 0.036239 0.104037
0.490511 0.015395 0.089180
0.504631 -0.067971 0.044175
0.556738 -0.009515 0.094526
0.491535 0.012769 0.094577
0.556383 -0.077346 0.050118
0.545948 -0.015042 0.105939
0.537135 -0.047478 0.037528
0.538515 -0.006227 0.042087
0.530124 -0.065873 0.100274
0.533442 0.071118 0.075179
0.490583 -0.002102 0.061094
0.526106 0.066463 0.106028
0.509758 0.058043 0.107410
0.557879 -0.067037 0.079582
0.525945 0.015169 0.042955
0.499720 -0.072297 0.051594
0.498632 0.056226 0.087093
0.488399 0.015126 0.081949
0.553663 0.020982 0.065238
0.526484 -0.056793 0.035037
0.493130 -0.038161 0.061538
0.555368 0.014971 0.061824
0.492898 0.016536 0.092690
0.556161 -0.064545 0.051218
0.504347 -0.015143 0.106922
0.490832 -0.004845 0.060449
0.491572 -0.015060 0.058458
0.547812 -0.076876 0.039816
0.504951 -0.097957 0.066539
0.560419 -0.056524 0.070522
0.517289 0.033864 0.058446
0.547603 -0.080001 0.039299
0.494853 0.002085 0.054714
0.502770 -0.083403 0.047458
0.549463 -0.050220 0.095240
0.545892 -0.085066 0.090435
0.530130 -0.098621 0.077036
0.532311 0.055934 0.106086
0.527709 -0.004267 0.114505
0.505290 0.018941 0.105645
0.551395 -0.091971 0.043356
0.557165 -0.096385 0.070105
0.505004 -0.049621 0.095992
0.539268 0.002040 0.112182
0.521123 -0.085047 0.094403
0.510178 0.034320 0.062081
0.528294 -0.039778 0.108166
0.513840 -0.060218 0.098638
0.531489 0.069302 0.092096
0.557116 -0.062883 0.082240
0.555406 -0.070097 0.049238
0.508618 0.024918 0.053684
0.490018 0.015165 0.066181
0.488855 -0.031481 0.069414
0.541146 0.045621 0.081471
0.512908 -0.010586 0.040460
0.534215 -0.097529 0.071380
0.534886 -0.017120 0.038792
0.499667 0.060227 0.082529
0.505562 0.024772 0.055675
0.560438 -0.042693 0.074271
0.505712 -0.092969 0.081265
0.521944 0.036414 0.104596
0.495553 -0.060327 0.060319
0.497343 -0.064224 0.055622
0.507186 -0.049294 0.042274
0.553701 0.023600 0.074813
0.531747 -0.022461 0.110964
0.545517 0.033960 0.073913
0.502425 -0.053063 0.046443
0.562115 -0.022141 0.073487
0.515987 -0.052132 0.037436
0.501203 -0.066705 0.048459
0.539555 0.007287 0.045149
0.486248 0.005846 0.080134
0.550005 0.026486 0.067351
0.537625 -0.003435 0.112122
0.503185 -0.051378 0.093724
0.525177 -0.099632 0.081906
0.505386 -0.046453 0.043776
0.542672 0.020931 0.103868
0.499821 -0.051043 0.089806
0.527552 0.033361 0.057457
0.558372 -0.037429 0.059731
0.539551 -0.010539 0.041712
0.497905 -0.042111 0.052131
0.515746 -0.041998 0.105030
0.549414 -0.008499 0.103925
0.530931 0.005021 0.115444
0.507415 0.025470 0.055128
0.513271 0.053788 0.108438
0.499793 -0.086433 0.072527
0.531636 -0.091920 0.035933
0.545601 0.024013 0.057710
0.536944 -0.023226 0.038330
0.532267 0.018936 0.045068
0.561158 -0.007954 0.080549
0.529551 -0.093769 0.047065
0.524715 0.006954 0.041486
0.551108 -0.092639 0.044956
0.513607 -0.030434 0.039057
0.535015 0.068860 0.096154
0.510636 -0.042563 0.040471
0.529125 -0.088735 0.094539
0.503476 -0.036899 0.101408
0.531822 0.008663 0.114978
0.542359 -0.049463 0.039488
0.557563 -0.093800 0.055413
0.491740 0.018638 0.085305
0.548554 0.009899 0.106506
0.548608 -0.075943 0.040572
0.560315 -0.038771 0.076297
0.488042 0.005985 0.090745
0.505059 0.067004 0.075110
0.547245 0.032309 0.074938
0.511271 -0.003033 0.112799
0.559394 -0.026268 0.088105
0.512598 -0.022311 0.038847
0.557361 -0.012808 0.058121
0.560581 -0.012642 0.066806
0.486986 0.009845 0.071310
0.518820 0.032439 0.056808
0.497632 0.006264 0.052110
0.558246 0.012325 0.067570
0.499723 0.066766 0.090144
0.560737 -0.033959 0.068791
0.488562 0.012905 0.068202
0.542473 0.037439 0.089375
0.554794 0.021362 0.085677
0.527156 0.051482 0.108433
0.542479 -0.086069 0.092180
0.551203 -0.002887 0.102772
0.540670 -0.030555 0.106866
0.515380 -0.096227 0.058646
0.511925 0.035450 0.061707
0.557813 -0.023624 0.091553
0.557570 -0.067638 0.080170
0.529342 -0.100240 0.086605
0.497273 -0.067844 0.077046
0.546419 0.020281 0.101178
0.553538 0.006093 0.100817
0.516076 -0.013975 0.039039
0.518634 -0.094635 0.049648
0.512151 0.056965 0.067786
0.529941 -0.092253 0.037660
0.553910 -0.045495 0.091174
0.538330 0.030239 0.059158
0.501364 -0.046332 0.047645
0.504947 0.020193 0.051959
0.558914 -0.038880 0.061122
0.539791 0.045528 0.096970
0.513334 -0.026578 0.037954
0.551107 -0.054504 0.045484
0.502405 -0.050466 0.046477
0.520067 0.020546 0.110746
0.557520 -0.090843 0.053062
0.502844 -0.054200 0.092428
0.503484 0.039718 0.077308
0.512839 -0.058598 0.098610
0.500994 0.016180 0.103636
0.504597 0.030093 0.098822
0.522581 0.007818 0.116035
0.556718 -0.035220 0.056210
0.504098 0.061145 0.103359
0.541398 0.015409 0.047696
0.527922 0.029084 0.053360
0.548861 -0.096721 0.069932
0.535714 0.006115 0.043343
0.538986 0.028685 0.057851
0.525697 -0.028738 0.110581
0.548673 0.024066 0.095972
0.491455 -0.030068 0.058393
0.501660 -0.090861 0.075052
0.542871 0.053766 0.083299
0.488163 -0.020017 0.069998
0.506070 0.066626 0.096749
0.509175 -0.029718 0.040085
0.559997 -0.079005 0.066850
0.496828 0.010340 0.102826
0.499690 -0.020181 0.047127
0.499053 -0.030369 0.046664
0.544767 -0.095591 0.062066
0.544383 0.010887 0.048664
0.497643 0.029793 0.083410
0.541379 -0.011550 0.042406
0.495201 0.011627 0.100508
0.560583 -0.039667 0.072508
0.496424 -0.065468 0.075737
0.528635 -0.100184 0.086106
0.518711 0.011028 0.042469
0.544130 0.022909 0.054949
0.501050 -0.044854 0.093574
0.545368 -0.087767 0.037058
0.499299 -0.093158 0.064517
0.495903 -0.064112 0.074577
0.558525 -0.054820 0.057759
0.545203 0.032272 0.069437
0.495362 -0.064136 0.063779
0.529521 0.008959 0.115000
0.523203 -0.079853 0.033425
0.526625 0.016369 0.112236
0.552981 -0.054667 0.047649
0.533124 0.015363 0.044213
0.508033 -0.008580 0.042771
0.499498 -0.007640 0.104771
0.536315 -0.097957 0.074507
0.527017 -0.093303 0.043530
0.549033 -0.003452 0.104869
0.519967 0.062806 0.067516
0.532818 0.053691 0.068337
0.516121 0.039478 0.104830
0.500589 -0.017918 0.046574
0.530399 0.057780 0.107287
0.492332 -0.041551 0.067732
0.519822 0.012342 0.042551
0.491077 0.012602 0.061202
0.491516 0.018625 0.084292
0.541651 0.035497 0.093532
0.512681 0.069873 0.080979
0.543112 -0.093120 0.046324
0.515024 -0.093000 0.038419
0.504514 0.048593 0.071591
0.553434 0.006085 0.100961
0.528949 -0.077925 0.097329
0.525401 -0.063261 0.034498
0.507234 0.067066 0.094687
0.522590 0.008473 0.041731
0.501651 -0.095523 0.054529
0.514076 0.068623 0.088631
0.511490 -0.058886 0.039050
0.504650 -0.074530 0.087180
0.529091 -0.024690 0.036383
0.486764 0.000472 0.082228
0.489346 -0.034477 0.077442
0.520790 0.018992 0.044395
0.500388 -0.071719 0.082234
0.530970 0.067409 0.071650
0.547428 0.006100 0.050031
0.502868 0.019406 0.052750
0.511239 -0.069145 0.038728
0.493743 0.020316 0.090758
0.510946 0.052002 0.067381
0.488139 -0.009175 0.068004
0.560008 -0.080052 0.063231
0.548585 0.024745 0.062559
0.506075 -0.052806 0.042996
0.512178 -0.065897 0.038310
0.538231 0.008149 0.113223
0.514909 -0.093470 0.041402
0.547402 -0.075316 0.091567
0.519563 -0.077306 0.034501
0.549362 0.022041 0.059575
0.549059 0.014104 0.053248
0.533325 -0.050288 0.036245
0.511883 -0.050396 0.039320
0.529882 0.031208 0.105192
0.494863 0.011743 0.055698
0.496876 0.004909 0.105091
0.539962 -0.049104 0.101642
0.505337 -0.042986 0.043960
0.498783 -0.051570 0.088061
0.530865 0.063631 0.070371
0.514423 0.069620 0.083143
0.519443 0.024424 0.108522
0.512345 -0.079496 0.092114
0.532853 -0.032264 0.038166
0.488008 -0.018976 0.078938
0.527205 -0.015630 0.112701
0.508694 -0.037436 0.041908
0.528818 -0.097766 0.071548
0.561124 -0.033583 0.070742
0.533628 -0.001883 0.041216
0.496804 0.020406 0.096654
0.543881 0.020864 0.102938
0.503631 0.065012 0.101846
0.488459 -0.002975 0.066482
0.506713 -0.020095 0.041919
0.536740 0.029651 0.103169
0.539244 0.015404 0.046554
0.522251 -0.043652 0.036644
0.512921 -0.001439 0.041822
0.543757 0.036206 0.087280
0.514137 0.065859 0.104435
0.554895 -0.078387 0.047436
0.545652 0.023440 0.056993
0.491245 -0.019464 0.090553
0.552551 -0.012083 0.051147
0.556506 0.002166 0.095723
0.550210 -0.082610 0.087504
0.532466 0.032047 0.103822
0.511683 -0.066943 0.038546
0.522097 0.071259 0.077070
0.553877 0.015749 0.059543
0.550743 -0.022431 0.101045
0.511357 0.048196 0.067881
0.516373 -0.052670 0.037260
0.560405 -0.044706 0.074174
0.541335 0.064533 0.090537
0.532258 0.069150 0.093293
0.495648 0.025967 0.075227
