ply
format ascii 1.0
element vertex 1024
property float x
property float y
property float z
end_header
0.540043 -0.082803 0.041786
0.555800 0.004170 0.082543
0.543020 -0.004545 0.048906
0.544570 -0.047046 0.103010
0.537933 0.040363 0.070577
0.548715 -0.066308 0.098620
0.483937 0.027300 0.077402
0.554102 -0.023301 0.059979
0.486205 -0.021963 0.084279
0.559527 -0.065893 0.085671
0.558753 -0.012789 0.075983
0.488155 0.035646 0.085889
0.557265 -0.020194 0.089650
0.543616 0.024298 0.057081
0.488330 0.062971 0.076857
0.487751 0.051511 0.091357
0.490903 0.045680 0.084706
0.505521 0.043816 0.103948
0.542174 -0.001038 0.108298
0.555705 -0.053481 0.054805
0.551557 -0.048325 0.050786
0.550198 -0.067392 0.046597
0.500398 -0.033201 0.051839
0.527539 0.042555 0.102057
0.525139 0.036986 0.055170
0.507838 -0.070503 0.093502
0.507483 0.077418 0.090839
0.555589 -0.051039 0.092099
0.562822 -0.077537 0.077864
0.482252 0.003921 0.069910
0.552272 0.025576 0.084055
0.513452 -0.023724 0.112686
0.484045 0.024446 0.088281
0.490270 0.034451 0.068463
0.542984 -0.086763 0.082175
0.495411 -0.006293 0.050806
0.538083 -0.000593 0.111063
0.505659 0.058465 0.108037
0.513216 -0.091371 0.082237
0.531428 -0.087634 0.073771
0.509781 0.078070 0.088894
0.550403 -0.083684 0.063875
0.514965 -0.053452 0.043709
0.506032 0.075836 0.102819
0.555104 -0.057102 0.053191
0.532423 0.012626 0.046261
0.530091 0.063049 0.092353
0.539244 -0.001188 0.047074
0.491708 -0.004600 0.103724
0.515831 -0.012911 0.114681
0.555864 -0.059132 0.053791
0.496972 -0.043713 0.091487
0.543197 -0.039512 0.045654
0.487639 0.052464 0.080349
0.554195 0.010096 0.072212
0.552158 0.025921 0.078060
0.492425 -0.002520 0.105119
0.527470 -0.030739 0.041731
0.479606 0.014601 0.087148
0.551156 0.026870 0.072992
0.533037 0.035146 0.057408
0.526458 -0.085177 0.042866
0.529112 0.051368 0.076409
0.552162 -0.007691 0.097877
0.497002 0.032140 0.104040
0.528193 -0.040728 0.109108
0.496173 -0.057077 0.075040
0.536368 0.038341 0.097957
0.551421 0.005637 0.061912
0.504938 0.033643 0.054369
0.502528 0.021123 0.046686
0.556832 -0.021309 0.089431
0.536492 0.031292 0.055192
0.488793 0.035266 0.073452
0.530990 0.059037 0.089397
0.504609 -0.050081 0.098476
0.539882 0.039724 0.089228
0.560515 -0.055710 0.064800
0.536166 -0.055027 0.105672
0.548018 -0.067219 0.099021
0.561066 -0.059594 0.065132
0.545350 -0.008700 0.105921
0.510595 0.067760 0.065410
0.509334 -0.064920 0.048496
0.527957 0.023751 0.046465
0.495236 -0.014157 0.051435
0.485317 0.023506 0.093843
0.555229 0.007699 0.076275
0.539789 -0.078963 0.040659
0.496292 0.008579 0.049709
0.514370 -0.022712 0.041156
0.534416 -0.083578 0.101285
0.548606 -0.087234 0.094061
0.511530 0.023407 0.115144
0.523369 -0.014158 0.040387
0.531476 0.049616 0.078789
0.514377 0.072346 0.106957
0.528129 0.041256 0.102972
0.526213 0.014959 0.044554
0.499952 -0.068930 0.066028
0.544696 -0.087706 0.093172
0.558637 -0.036710 0.066884
0.492290 0.044633 0.091908
0.513366 -0.039804 0.107122
0.525370 -0.085696 0.046411
0.531615 -0.067396 0.040313
0.522750 0.010764 0.117078
0.487732 0.018263 0.101754
0.491048 0.057433 0.099851
0.491262 0.057547 0.072546
0.502269 -0.021307 0.045986
0.508862 0.005531 0.043791
0.491648 0.011666 0.108223
0.514429 -0.091720 0.087141
0.521899 0.079572 0.096765
0.521899 -0.028237 0.113216
0.550803 -0.028104 0.053880
0.483267 0.020191 0.093572
0.533166 -0.038058 0.042017
0.483149 0.023385 0.072854
0.556509 -0.005549 0.069158
0.520711 -0.028668 0.113042
0.524025 0.028006 0.047482
0.553353 0.004469 0.092776
0.556446 -0.079876 0.090785
0.541775 -0.059548 0.042791
0.557795 -0.080483 0.053958
0.528930 0.058540 0.077756
0.541053 -0.082668 0.100421
0.491268 0.014294 0.108291
0.492833 0.010784 0.109021
0.507243 -0.046975 0.047728
0.528591 0.054872 0.093417
0.514701 0.063169 0.065226
0.538464 -0.026270 0.109466
0.494961 0.022301 0.051365
0.561940 -0.072158 0.079973
0.527010 0.036128 0.055216
0.542540 -0.069459 0.101646
0.486561 0.012895 0.102937
0.520837 -0.091335 0.092681
0.535593 0.044474 0.074141
0.535883 -0.088004 0.083592
0.554918 -0.058858 0.093075
0.551403 -0.002402 0.098250
0.530061 -0.029514 0.042097
0.488499 0.065304 0.097855
0.487136 0.033702 0.085601
0.507123 0.077813 0.086670
0.528541 0.059365 0.076479
0.528766 -0.022166 0.113427
0.515022 -0.035375 0.043087
0.518128 -0.069039 0.043221
0.520078 -0.084276 0.097970
0.481921 0.016563 0.066442
0.558044 -0.017853 0.067748
0.485407 0.013366 0.060527
0.547324 -0.043683 0.101312
0.484379 -0.015683 0.076452
0.512225 0.077280 0.100309
0.505416 -0.073414 0.055085
0.560622 -0.054341 0.080650
0.550844 -0.015753 0.053448
0.515469 0.054340 0.107171
0.482896 0.003980 0.092327
0.523532 -0.025645 0.041829
0.502159 -0.056137 0.093119
0.555800 -0.012239 0.062986
0.555676 -0.009729 0.063957
0.497108 0.035453 0.103087
0.554451 0.001968 0.067181
0.542096 -0.084055 0.055400
0.504553 -0.084138 0.062093
0.544676 0.012371 0.054768
0.547276 -0.086063 0.081777
0.489147 0.022101 0.057086
0.518518 0.045489 0.103992
0.541738 -0.081107 0.041944
0.503927 -0.084200 0.076310
0.534028 -0.086940 0.070985
0.506692 0.024659 0.113194
0.543066 -0.016084 0.107848
0.487950 -0.015993 0.093719
0.558688 -0.044005 0.085144
0.498225 -0.053659 0.060468
0.535873 -0.068514 0.040591
0.530984 0.040317 0.062158
0.529182 0.065588 0.079188
0.499565 0.050276 0.068960
0.526002 -0.051469 0.040887
0.486990 -0.025992 0.069912
0.548708 -0.057014 0.099359
0.534444 -0.044698 0.107533
0.522877 0.004354 0.116535
0.512623 0.074618 0.107208
0.494025 0.067076 0.104204
0.552816 -0.030211 0.056049
0.525677 0.034919 0.108182
0.509097 -0.080078 0.051864
0.532888 0.033803 0.055848
0.495971 0.060333 0.104913
0.523867 -0.043870 0.108563
0.549084 -0.029906 0.051641
0.544653 0.009127 0.105669
0.483816 0.027186 0.078566
0.498596 -0.062027 0.081872
0.528194 -0.086487 0.100356
0.511427 0.022898 0.115175
0.519761 0.078576 0.100701
0.495574 -0.051120 0.082344
0.521926 -0.078057 0.042144
0.492144 -0.020994 0.055881
0.551977 -0.020143 0.056502
0.507147 -0.003351 0.043853
0.544517 -0.086840 0.085040
0.553919 0.016240 0.081465
0.492806 -0.014358 0.101933
0.554425 0.013251 0.079460
0.542852 0.006281 0.051425
0.527922 0.061763 0.097603
0.524022 -0.040532 0.109189
0.511417 0.078654 0.086486
0.520860 0.027733 0.113275
0.559096 -0.063385 0.086408
0.547144 0.012770 0.102407
0.492099 0.043038 0.090850
0.500141 0.031448 0.055040
0.510830 -0.088817 0.054607
0.525080 0.077978 0.095284
0.551030 0.027960 0.087288
0.508813 -0.082755 0.052742
0.518288 -0.077163 0.099152
0.498962 -0.026957 0.050073
0.513764 0.042611 0.058773
0.519925 -0.089023 0.070047
0.511183 0.074005 0.067070
0.514464 -0.076571 0.046103
0.558545 -0.034551 0.067677
0.556157 -0.018235 0.092574
0.521210 -0.000384 0.041856
0.519867 0.050633 0.066954
0.555948 0.001103 0.072522
0.556975 -0.002635 0.081479
0.559311 -0.068408 0.057209
0.487621 0.022503 0.059805
0.501395 0.042846 0.063219
0.555710 -0.000796 0.087555
0.515083 0.037826 0.054779
0.526258 -0.067175 0.040708
0.537821 -0.068003 0.103375
0.483801 0.027429 0.081087
0.511157 0.014271 0.117614
0.540615 -0.016480 0.044749
0.528770 0.065972 0.094262
0.530993 0.062076 0.082624
0.495545 0.021942 0.108800
0.517429 -0.091172 0.093067
0.546314 -0.087786 0.095913
0.503717 -0.059879 0.053461
0.550056 -0.001337 0.100155
0.530122 0.016614 0.115372
0.517312 0.012806 0.043241
0.547711 -0.034302 0.049571
0.554188 0.014682 0.080903
0.542511 0.001687 0.049995
0.492194 0.074528 0.090938
0.503688 -0.083218 0.065166
0.507471 0.003537 0.115353
0.496990 -0.047576 0.060397
0.501735 0.017048 0.046841
0.552952 -0.008370 0.096691
0.519094 0.004601 0.116873
0.507382 0.042663 0.059961
0.533381 -0.006090 0.113162
0.560362 -0.060514 0.082951
0.559088 -0.032544 0.072970
0.496844 0.018128 0.049341
0.545327 0.034064 0.072220
0.495412 -0.045007 0.087305
0.534273 -0.087806 0.079472
0.557252 -0.084299 0.079247
0.513841 0.013111 0.117731
0.529739 -0.034323 0.041725
0.500749 0.077960 0.074509
0.484861 -0.012730 0.087112
0.525302 -0.085231 0.099827
0.510527 0.046059 0.062447
0.489757 -0.027222 0.091727
0.488244 0.069431 0.098417
0.480311 0.013724 0.071767
0.495311 -0.053713 0.072869
0.482702 0.015222 0.096124
0.507433 0.078194 0.083810
0.500748 0.017479 0.113614
0.509213 0.008527 0.116520
0.508550 0.077684 0.090259
0.526191 0.078914 0.090174
0.558969 -0.030729 0.074698
0.491325 -0.029289 0.060693
0.523276 -0.086679 0.052807
0.518413 -0.004652 0.041422
0.550524 -0.050830 0.049349
0.523639 0.071693 0.100454
0.547405 -0.028884 0.050233
0.550251 -0.085456 0.080334
0.507832 0.079638 0.071494
0.546499 -0.018264 0.049411
0.504751 -0.041265 0.101720
0.512390 -0.073249 0.047223
0.536934 -0.083039 0.041188
0.538374 -0.034005 0.107436
0.555667 -0.024963 0.090149
0.559939 -0.083208 0.083421
0.562162 -0.067846 0.065732
0.485990 0.005786 0.099585
0.538932 -0.069679 0.041097
0.523708 0.040144 0.058140
0.507658 -0.076457 0.052777
0.548446 -0.069539 0.045127
0.514280 -0.039319 0.043424
0.562101 -0.070568 0.079015
0.499890 0.023360 0.110797
0.488875 0.037546 0.084169
0.531322 0.059496 0.087504
0.545466 -0.033824 0.103300
0.556645 -0.020253 0.065851
0.562013 -0.065165 0.077662
0.536067 -0.072326 0.040423
0.494354 0.035825 0.099967
0.500000 0.074951 0.100469
0.495566 -0.040337 0.060312
0.532648 -0.089469 0.092478
0.501818 -0.069087 0.084827
0.489752 -0.020841 0.094928
0.522928 0.060045 0.103364
0.499766 0.077427 0.068826
0.559877 -0.049155 0.065475
0.486999 -0.026460 0.070325
0.487027 0.051794 0.086144
0.500318 0.075978 0.068155
0.508872 -0.085963 0.087494
0.506502 0.079138 0.073704
0.489431 0.025476 0.061088
0.492952 -0.004041 0.053007
0.521240 -0.030255 0.111794
0.510747 0.077699 0.093918
0.512594 -0.015186 0.113802
0.504800 -0.015877 0.110923
0.521394 0.048608 0.065695
0.514206 -0.015229 0.114114
0.497916 -0.058530 0.064190
0.503386 -0.066827 0.089365
0.494209 0.074815 0.091709
0.527961 -0.089392 0.085103
0.540902 0.014788 0.108882
0.514212 0.034203 0.052240
0.491653 0.048550 0.094471
0.487013 0.070662 0.079062
0.511739 -0.089558 0.063091
0.515983 -0.091147 0.084180
0.504950 -0.070148 0.089962
0.526855 0.045503 0.065141
0.487253 -0.029516 0.080516
0.485923 0.067325 0.092087
0.519167 0.067486 0.068111
0.493634 0.075948 0.080546
0.510997 0.065325 0.065041
0.539783 0.030331 0.056594
0.552994 0.019278 0.086403
0.501151 -0.068972 0.061777
0.500847 -0.017318 0.046891
0.543488 -0.057675 0.102591
0.544870 0.028058 0.099393
0.491084 -0.034075 0.084994
0.531186 0.043899 0.097744
0.540171 0.012658 0.109547
0.487233 0.028780 0.067650
0.518903 0.002749 0.116686
0.558468 -0.084740 0.084572
0.518263 0.080423 0.082570
0.546323 -0.012717 0.105222
0.505506 -0.003321 0.044498
0.513551 -0.073681 0.097376
0.557659 -0.063067 0.089076
0.517580 -0.002212 0.116132
0.558849 -0.041247 0.084040
0.537349 -0.020575 0.110941
0.510246 0.035662 0.053714
0.521911 -0.070733 0.102385
0.554513 -0.055225 0.093650
0.499979 -0.031152 0.051846
0.514628 0.062814 0.107525
0.552954 0.016469 0.072097
0.530177 0.066373 0.086066
0.511886 0.020171 0.044290
0.509536 -0.012452 0.042596
0.501711 -0.077312 0.074475
0.499805 0.056803 0.065695
0.549070 -0.028922 0.100281
0.495991 -0.050413 0.064491
0.479940 0.016981 0.081145
0.531219 0.045642 0.069413
0.497594 0.017598 0.048898
0.484319 -0.011351 0.086013
0.491909 -0.010602 0.102076
0.505031 -0.026823 0.046512
0.552815 0.022634 0.079392
0.541988 -0.082679 0.100154
0.545590 0.019246 0.103707
0.556478 -0.074414 0.051503
0.502861 -0.063468 0.090412
0.502721 0.049175 0.067193
0.543743 -0.016074 0.107366
0.553304 -0.018999 0.097763
0.528967 -0.057362 0.040608
0.508376 -0.059577 0.048487
0.529968 0.053966 0.083886
0.562597 -0.080946 0.075854
0.533805 0.013149 0.046982
0.556180 -0.003048 0.086933
0.496919 0.051261 0.103986
0.560609 -0.050834 0.079334
0.493985 0.050366 0.073469
0.486246 0.024346 0.065272
0.525441 0.029944 0.049193
0.497935 -0.035763 0.097025
0.553298 0.013335 0.089195
0.523930 -0.064511 0.041110
0.506822 0.015932 0.116857
0.501754 0.048690 0.103452
0.523301 -0.015372 0.040250
0.544184 -0.011294 0.048226
0.516049 -0.049540 0.105739
0.524082 -0.069623 0.041170
0.512325 -0.083025 0.092825
0.531327 -0.051658 0.107065
0.556643 -0.006241 0.086864
0.503763 0.071274 0.066420
0.514130 -0.047089 0.043760
0.526840 0.067014 0.075322
0.549257 -0.035530 0.099941
0.504779 -0.064752 0.053357
0.554034 0.014976 0.077378
0.540151 -0.088894 0.097473
0.505990 0.031739 0.052129
0.540371 -0.021407 0.109451
0.498422 -0.043218 0.056385
0.523529 -0.083586 0.099586
0.509647 0.023761 0.114711
0.548611 0.001930 0.101731
0.501652 0.024392 0.048620
0.508018 0.078349 0.067885
0.530192 -0.077869 0.040107
0.499363 0.040634 0.101927
0.543659 -0.085219 0.068687
0.538779 0.034001 0.099847
0.552162 -0.077665 0.095125
0.488693 0.073881 0.090971
0.524495 0.028684 0.112158
0.533097 0.019252 0.047793
0.539201 0.028871 0.105359
0.482885 0.023587 0.075212
0.491617 0.028723 0.101111
0.535974 -0.071458 0.103198
0.534559 -0.055458 0.041103
0.506225 0.077584 0.087215
0.514177 0.073833 0.067850
0.509344 -0.060332 0.047793
0.504424 -0.016609 0.044682
0.487547 0.025317 0.096459
0.547330 0.000602 0.103410
0.548228 0.016572 0.060745
0.488091 0.050781 0.087446
0.551827 -0.029301 0.097051
0.505733 0.058251 0.108035
0.556954 -0.002741 0.081939
0.503845 0.068223 0.065933
0.534210 0.000878 0.113071
0.482048 -0.003081 0.079993
0.526769 -0.051213 0.107340
0.545910 0.009180 0.055180
0.531542 -0.084242 0.041423
0.494286 0.036420 0.099314
0.482560 0.003677 0.069018
0.559746 -0.045752 0.081790
0.527804 0.041175 0.103240
0.546235 -0.087496 0.093351
0.517651 0.055323 0.067309
0.547131 -0.048090 0.101186
0.551678 -0.031793 0.097290
0.508613 -0.016044 0.042775
0.523372 0.008772 0.116818
0.547054 0.018783 0.059736
0.503566 -0.084540 0.068113
0.547084 0.032709 0.073718
0.534791 -0.078143 0.039969
0.530405 0.061310 0.079319
0.485481 0.009128 0.061118
0.493104 -0.008864 0.053223
0.555647 -0.028351 0.061599
0.561765 -0.070538 0.080254
0.558200 -0.020275 0.072130
0.528253 0.005159 0.115466
0.552201 -0.081573 0.047863
0.552535 0.011961 0.067555
0.501089 0.046588 0.067001
0.520175 -0.067190 0.042274
0.483948 -0.006244 0.088837
0.499933 0.068484 0.067048
0.525990 0.053985 0.073529
0.486447 0.056995 0.087822
0.562437 -0.070090 0.065846
0.558187 -0.010768 0.081893
0.556785 -0.050387 0.057300
0.544106 -0.026596 0.105244
0.533917 0.028519 0.051029
0.510102 -0.012962 0.113502
0.523452 -0.053333 0.106686
0.523908 0.078657 0.097136
0.547231 -0.026486 0.102456
0.503485 0.064866 0.065316
0.502459 -0.077393 0.064258
0.544531 0.009971 0.053940
0.549534 -0.012356 0.101972
0.483387 0.024015 0.086221
0.555871 -0.062846 0.091773
0.499363 0.029402 0.107747
0.501770 -0.001770 0.112183
0.542754 -0.013411 0.108048
0.530258 0.052220 0.082060
0.536103 -0.015825 0.111665
0.504074 -0.043737 0.049934
0.510301 0.016167 0.117593
0.551525 -0.016026 0.099891
0.544272 0.003133 0.106393
0.539563 0.041434 0.081534
0.527114 -0.031780 0.041648
0.540067 -0.084308 0.054869
0.542867 -0.025258 0.047376
0.527983 -0.044930 0.041034
0.526387 -0.000279 0.115572
0.539488 0.003343 0.048202
0.535224 0.031117 0.054087
0.488263 0.063008 0.077004
0.499947 0.037090 0.059630
0.563150 -0.072631 0.069678
0.503142 0.022836 0.112915
0.531392 0.046216 0.094399
0.496551 0.053197 0.069441
0.522050 0.030316 0.111454
0.507216 -0.028394 0.046057
0.550893 0.015486 0.065291
0.502889 -0.052593 0.095670
0.533522 -0.009350 0.042910
0.509686 -0.042171 0.104758
0.497880 0.075004 0.096265
0.506819 0.052905 0.066085
0.496849 0.040803 0.099597
0.553590 -0.055381 0.051685
0.479773 0.016078 0.073546
0.511163 0.069264 0.108029
0.542468 0.001988 0.107992
0.535156 0.038941 0.064277
0.486613 0.062908 0.092639
0.557706 -0.082277 0.060830
0.509598 -0.080463 0.090989
0.533466 0.041157 0.098505
0.536486 -0.084643 0.052830
0.539854 -0.085936 0.069932
0.553196 -0.018855 0.097904
0.523219 -0.038466 0.041421
0.487445 -0.028376 0.083473
0.553390 0.010489 0.069279
0.521145 -0.081620 0.042371
0.503360 -0.055133 0.095126
0.560986 -0.049908 0.074387
0.510830 -0.029969 0.110750
0.494922 0.031443 0.059472
0.507305 -0.077962 0.053721
0.496146 0.046855 0.098681
0.510566 -0.090137 0.066817
0.547411 0.032090 0.072506
0.515985 -0.009925 0.115089
0.497225 -0.035645 0.056096
0.562348 -0.064312 0.074123
0.487202 -0.017775 0.091014
0.553482 -0.009004 0.095872
0.496091 -0.017820 0.104369
0.563327 -0.074136 0.071512
0.528748 0.031770 0.108727
0.480753 0.004638 0.077885
0.540931 -0.088457 0.094786
0.516131 -0.054455 0.104536
0.536435 -0.039893 0.107547
0.502510 -0.029752 0.106499
0.558607 -0.047945 0.085985
0.544090 -0.014583 0.047399
0.501092 -0.075544 0.072036
0.507767 -0.021535 0.111162
0.490358 0.011711 0.107021
0.498422 -0.062457 0.065736
0.557007 -0.002767 0.075349
0.491297 -0.031636 0.064661
0.525580 0.010632 0.116509
0.543387 -0.053174 0.044148
0.560697 -0.053058 0.067032
0.547780 -0.063925 0.099477
0.536191 0.030703 0.054224
0.542930 -0.004795 0.107793
0.493439 0.050997 0.101088
0.521844 -0.086671 0.098314
0.519414 0.065332 0.067641
0.559360 -0.083821 0.084329
0.514739 0.029802 0.112137
0.505724 -0.060720 0.095416
0.536989 0.044106 0.086510
0.499253 -0.015693 0.048012
0.519964 -0.043094 0.041827
0.492303 0.020525 0.106480
0.557012 -0.058720 0.055593
0.538608 0.040739 0.072919
0.503064 -0.069589 0.057692
0.521023 -0.038933 0.109230
0.505031 -0.046259 0.049437
0.519116 -0.091033 0.087583
0.499086 0.003041 0.111675
0.558941 -0.056270 0.086138
0.501675 0.075609 0.097355
0.486148 -0.022763 0.082967
0.514411 -0.083884 0.094358
0.555560 0.006259 0.081197
0.535734 0.044868 0.088139
0.562088 -0.061179 0.071991
0.495962 -0.022651 0.051372
0.490197 0.073385 0.098229
0.498236 0.006826 0.111949
0.527787 -0.021291 0.041247
0.507768 0.012725 0.044530
0.549831 0.029417 0.088508
0.522999 0.015752 0.044022
0.520799 0.080304 0.088064
0.517637 -0.035143 0.109441
0.500628 0.031615 0.107062
0.557363 -0.017805 0.065556
0.494029 0.068247 0.070261
0.511522 0.079226 0.081579
0.536233 -0.045850 0.042140
0.551688 -0.083059 0.059776
0.543906 0.037190 0.076994
0.517698 0.037916 0.054881
0.527248 0.060865 0.098787
0.515976 -0.036305 0.042802
0.483567 0.024654 0.075093
0.483165 0.020723 0.092883
0.545168 -0.050589 0.102326
0.498546 -0.041114 0.095265
0.531708 0.023390 0.047900
0.523694 -0.024693 0.113674
0.528585 0.021301 0.046272
0.514501 -0.038663 0.107805
0.555234 -0.083957 0.090624
0.506375 -0.069703 0.092126
0.516083 0.058169 0.107065
0.497921 -0.056563 0.084903
0.497709 -0.018721 0.049400
0.517769 0.043901 0.104954
0.537451 0.009322 0.048199
0.515033 -0.045403 0.043322
0.489033 0.075304 0.078892
0.534310 0.004843 0.045674
0.559405 -0.069237 0.086159
0.527856 -0.081998 0.040881
0.495633 0.029130 0.105043
0.503792 -0.081788 0.063258
0.543016 -0.022831 0.047777
0.501863 -0.053398 0.094020
0.517116 0.042661 0.105712
0.508599 0.040201 0.058138
0.489107 0.035174 0.091286
0.501275 0.077228 0.082017
0.529878 -0.087333 0.068665
0.515726 0.079008 0.090723
0.505834 0.077326 0.088882
0.484638 -0.017156 0.078902
0.521128 -0.086960 0.052317
0.487145 0.029685 0.092059
0.504687 -0.071887 0.055734
0.558569 -0.052438 0.060343
0.522175 0.081239 0.078843
0.483267 -0.006218 0.072107
0.532730 0.047010 0.090441
0.506065 0.071623 0.108484
0.536948 -0.088242 0.087282
0.513337 -0.011560 0.114478
0.535841 -0.085830 0.063170
0.493345 -0.002504 0.052515
0.493266 0.002486 0.107292
0.481142 0.017984 0.071357
0.490340 0.011074 0.106831
0.552699 -0.038097 0.096043
0.557278 -0.084760 0.083383
0.529091 -0.090496 0.096718
0.511481 0.001819 0.042900
0.502956 -0.031567 0.049315
0.497432 0.038592 0.101404
0.491286 0.038167 0.093429
0.516167 -0.000747 0.041955
0.498025 -0.023352 0.104588
0.501632 -0.042109 0.098554
0.537339 -0.061252 0.041282
0.554489 -0.066478 0.050644
0.553894 -0.002284 0.093505
0.541100 -0.085462 0.067274
0.487906 -0.017425 0.062608
0.508591 0.004228 0.115757
0.489666 0.039771 0.085887
0.529596 0.005685 0.044064
0.560855 -0.050119 0.076991
0.562294 -0.071304 0.078430
0.529845 -0.090433 0.097173
0.505135 0.015154 0.116371
0.561130 -0.053094 0.076873
0.489320 -0.007185 0.099802
0.510508 0.045726 0.104552
0.481514 0.021850 0.081413
0.513140 -0.060994 0.045198
0.545391 0.002317 0.105359
0.481217 0.019416 0.086987
0.561867 -0.066167 0.065210
0.532326 -0.003821 0.113658
0.544703 -0.038145 0.046736
0.541889 0.003167 0.049863
0.522248 -0.055836 0.105959
0.522602 0.080492 0.077286
0.490432 0.003881 0.055097
0.507520 0.075864 0.105183
0.492045 0.066215 0.102448
0.554585 -0.055213 0.093559
0.528082 0.023524 0.046471
0.506718 -0.065549 0.051188
0.487003 0.063145 0.079976
0.481466 0.021278 0.073898
0.548237 0.031916 0.075141
0.535810 -0.048312 0.041842
0.495293 -0.031852 0.057635
0.551223 0.025993 0.072552
0.482773 0.023241 0.085388
0.560454 -0.053403 0.065703
0.492132 -0.007166 0.103417
0.491038 0.001155 0.054651
0.493008 -0.009008 0.053338
0.556400 -0.066566 0.052973
0.509491 -0.090431 0.067992
0.558742 -0.044708 0.085108
0.514256 0.041774 0.058311
0.556560 -0.069707 0.052542
0.495966 0.008268 0.049940
0.511548 -0.076458 0.048468
0.541076 -0.038812 0.105699
0.541403 -0.073917 0.101492
0.530861 -0.088919 0.084893
0.514202 0.065857 0.107325
0.511736 0.005651 0.116569
0.490986 0.026857 0.101094
0.559941 -0.081264 0.057940
0.558536 -0.084702 0.085408
0.498153 -0.041688 0.094439
0.523018 0.012800 0.117193
0.516549 -0.075765 0.098646
0.506412 0.041740 0.059878
0.516515 -0.029819 0.112030
0.506662 -0.051508 0.099781
0.516267 0.078851 0.093111
0.552841 -0.051081 0.095748
0.560658 -0.059034 0.063814
0.507853 0.032086 0.051749
0.487294 0.021144 0.059157
0.488583 -0.025379 0.063800
0.530086 0.055802 0.086421
0.518056 -0.003217 0.041581
0.536240 -0.087617 0.080506
0.540066 -0.008038 0.046146
0.488953 0.067128 0.075704
0.504390 0.031739 0.052849
0.556771 -0.030848 0.088174
0.505876 -0.085120 0.082171
0.506027 0.045559 0.103873
0.499509 -0.053780 0.057990
0.502775 -0.057613 0.054106
0.514795 -0.042213 0.043318
0.545492 0.034711 0.084262
0.517852 -0.012234 0.114967
0.537152 0.044378 0.080785
0.509358 -0.046264 0.046199
0.557147 -0.010247 0.087058
0.524754 -0.044444 0.041142
0.508598 -0.059919 0.048349
0.541106 0.016777 0.052555
0.480547 0.011825 0.071939
0.543765 0.037155 0.075972
0.521843 0.007213 0.116910
0.497145 -0.043625 0.091836
0.524857 -0.090222 0.088287
0.512459 -0.039494 0.044167
0.527212 0.031738 0.109361
0.494955 -0.043630 0.087148
0.524412 0.042058 0.060139
0.558360 -0.026041 0.073418
0.543289 -0.001057 0.049952
0.502706 -0.035593 0.050023
0.505477 -0.033076 0.105724
0.535739 0.002934 0.112394
0.513921 0.015180 0.117972
0.506268 0.032570 0.052793
0.495438 0.062270 0.104551
0.502104 -0.079235 0.071911
0.542984 -0.082903 0.045479
0.542326 0.034161 0.065608
0.542596 -0.013971 0.046497
0.533313 0.027815 0.050056
0.553315 0.003953 0.093036
0.538093 -0.084698 0.055704
0.527878 0.015211 0.045052
0.559280 -0.081921 0.059428
0.520504 -0.022973 0.041204
0.518583 0.078763 0.097983
0.518122 -0.035267 0.042245
0.524453 -0.078810 0.101076
0.494321 -0.029024 0.098736
0.514647 0.018871 0.117619
0.549326 -0.039676 0.050105
0.562721 -0.082374 0.071274
0.483516 0.025105 0.077887
0.532919 0.021254 0.113919
0.556894 -0.065559 0.053877
0.555827 -0.026911 0.089935
0.479381 0.012307 0.082628
0.495665 0.074164 0.069746
0.538648 0.042887 0.082302
0.496333 0.005559 0.110456
0.550861 -0.014296 0.100556
0.519021 -0.014959 0.040409
0.556094 -0.001609 0.070623
0.556818 -0.001026 0.079841
0.483368 0.015702 0.063487
0.516270 0.040442 0.057203
0.499047 0.012601 0.048016
0.552613 0.023691 0.078961
0.486481 0.073794 0.082789
0.557930 -0.022224 0.082635
0.485508 0.018816 0.060800
0.529791 0.047900 0.094708
0.543752 0.032772 0.095100
0.508931 0.061059 0.108372
0.537724 -0.075151 0.102292
0.537375 0.008646 0.111543
0.528099 -0.019680 0.113744
0.521521 -0.088039 0.063134
0.508111 0.042996 0.059943
0.548221 -0.011719 0.103345
0.554172 -0.055825 0.094066
0.527622 -0.090412 0.093954
0.497151 -0.060818 0.074847
0.531585 0.031333 0.107807
0.539515 0.017743 0.109935
0.521721 -0.006374 0.041200
0.526973 -0.086368 0.055287
0.505166 0.064574 0.065004
0.540911 -0.083335 0.046698
0.546116 -0.033831 0.102795
0.534516 0.039824 0.064799
0.507541 -0.039615 0.046803
0.505130 0.027056 0.049288
0.558605 -0.027418 0.074959
0.524587 0.055897 0.100976
0.520270 -0.019172 0.039917
0.556452 -0.043901 0.058429
0.509147 -0.043676 0.046123
0.503674 0.029712 0.109914
0.563109 -0.079474 0.068883
0.497368 -0.046489 0.090609
0.495476 0.046885 0.072516
0.505595 -0.049972 0.099421
0.487601 0.023730 0.098114
0.491386 0.037788 0.093900
0.505548 0.017324 0.116184
0.557573 -0.024035 0.069497
0.487492 0.068786 0.096905
0.541613 0.025066 0.055181
0.526179 0.037746 0.056465
0.550635 -0.085691 0.083021
0.537992 0.015273 0.049830
0.535610 0.038302 0.063779
0.512591 -0.018973 0.113219
0.534894 0.035184 0.103253
0.493968 -0.023977 0.053838
0.503523 -0.083454 0.075019
0.530673 0.064090 0.088322
0.486953 -0.013996 0.063723
0.490792 0.074278 0.090858
0.515920 -0.022587 0.040972
0.560915 -0.067218 0.082350
0.484232 0.017566 0.096445
0.504234 -0.013691 0.044821
0.504465 -0.023904 0.044607
0.548759 -0.085036 0.074304
0.544534 0.020811 0.057094
0.488913 0.036650 0.077210
0.544926 -0.001908 0.051151
0.483209 0.018678 0.093725
0.557175 -0.027854 0.086397
0.496525 -0.058542 0.073265
0.527076 -0.090421 0.093281
0.521561 0.018820 0.044221
0.541741 0.032893 0.062599
0.494677 -0.037293 0.090859
0.555568 -0.077666 0.050091
0.504276 -0.086130 0.064336
0.496244 -0.057253 0.071955
0.560266 -0.043400 0.072249
0.538183 0.042585 0.076460
0.498655 -0.057525 0.061419
0.512411 0.018986 0.117009
0.534719 -0.071584 0.040320
0.509860 0.026092 0.113277
0.557675 -0.043875 0.061022
0.534618 0.024304 0.049605
0.512608 -0.001556 0.042414
0.487533 -0.000108 0.099745
0.537437 -0.087820 0.084097
0.536587 -0.084499 0.051602
0.534762 0.007952 0.113000
0.512330 0.071004 0.066615
0.525086 0.062943 0.071222
0.500159 0.048161 0.102412
0.505088 -0.011375 0.044441
0.511911 0.067570 0.107893
0.493085 -0.035176 0.063515
0.522513 0.020218 0.044547
0.489842 0.018578 0.054752
0.483577 0.025056 0.076852
0.528011 0.045980 0.098564
0.501187 0.077733 0.077331
0.551265 -0.083002 0.058613
0.526438 -0.085236 0.043445
0.497391 0.055703 0.066942
0.539376 0.017729 0.110046
0.522767 -0.067997 0.103286
0.535372 -0.054854 0.041288
0.492438 0.074769 0.089169
0.525665 0.016563 0.044655
0.509409 -0.088492 0.055450
0.500539 0.076742 0.085119
0.520475 -0.051498 0.041752
0.501955 -0.066711 0.086848
0.535688 -0.016083 0.042569
0.480852 0.006550 0.074305
0.487087 -0.028175 0.071776
0.522474 0.026958 0.046319
0.499008 -0.064338 0.080831
0.521448 0.076534 0.073371
0.547423 0.016304 0.059418
0.502975 0.026124 0.049521
0.521043 -0.061749 0.041781
0.483842 0.027038 0.083607
0.504467 0.059525 0.064486
0.486709 -0.003229 0.061369
0.561980 -0.068329 0.078912
0.543825 0.035217 0.071048
0.513779 -0.045787 0.043853
0.521830 -0.058446 0.041503
0.521311 0.018828 0.117675
0.525552 -0.085656 0.046303
0.541860 -0.064058 0.102602
0.530754 -0.069311 0.040275
0.545570 0.032526 0.068493
0.547553 0.024471 0.062636
0.541591 -0.041268 0.044587
0.520182 -0.042999 0.041782
0.513852 0.041004 0.106789
0.495030 0.017913 0.050508
0.484046 0.012200 0.098852
0.530141 -0.038324 0.109259
0.512118 -0.036039 0.044193
0.494469 -0.044269 0.085210
0.521960 0.072736 0.072262
0.502290 0.077659 0.079892
0.503405 0.033487 0.107453
0.508353 -0.070963 0.093862
0.539350 -0.023304 0.045596
0.484307 -0.012800 0.072243
0.512541 -0.005749 0.115146
0.515507 -0.030282 0.042902
0.531029 -0.088274 0.079225
0.557745 -0.021782 0.084603
0.537129 0.007097 0.047538
0.485175 0.027481 0.090100
0.528629 0.031749 0.108794
0.487182 0.072575 0.095170
0.486993 0.002947 0.059745
0.512382 -0.013153 0.041694
0.521093 0.039951 0.106748
0.539856 0.024870 0.053503
0.530386 -0.035516 0.041729
0.517055 0.005927 0.042533
0.531678 0.046733 0.093086
0.496505 0.074293 0.100454
0.561239 -0.067371 0.062270
0.542610 0.033580 0.064954
0.484298 -0.012812 0.084311
0.553318 -0.001397 0.062590
0.544021 0.013964 0.105987
0.546171 -0.071186 0.099735
0.516646 0.042017 0.106132
0.521364 -0.059523 0.041638
0.511189 0.079779 0.076048
0.550356 0.026608 0.069925
0.538776 -0.010903 0.110530
0.504994 0.055773 0.065228
0.525211 -0.044953 0.041098
0.556906 -0.032860 0.088152
0.526477 0.074840 0.094449
0.516691 0.078782 0.094477
0.489486 0.032525 0.068950
