ply
format ascii 1.0
element vertex 1024
property float x
property float y
property float z
end_header
0.510347 0.068447 0.097189
0.531363 -0.013050 0.048297
0.534252 -0.005370 0.084400
0.496087 0.029868 0.039259
0.533984 -0.051595 0.065024
0.495458 0.049808 0.042340
0.482384 -0.056592 0.086123
0.532051 0.014678 0.070599
0.465284 -0.009989 0.082259
0.510640 0.054054 0.048360
0.531531 0.004561 0.053699
0.484422 -0.064037 0.076129
0.521412 0.009732 0.042988
0.539993 -0.033289 0.075090
0.497579 -0.088921 0.082127
0.486516 -0.079718 0.070516
0.490428 -0.072561 0.075169
0.492576 -0.068221 0.051421
0.506221 -0.014919 0.032791
0.526246 0.044238 0.076314
0.526417 0.038485 0.081492
0.521250 0.056521 0.087056
0.488864 0.008283 0.104399
0.511097 -0.060041 0.042472
0.529825 -0.050801 0.084887
0.463132 0.041673 0.066908
0.511145 -0.098079 0.059695
0.509061 0.038143 0.043690
0.513374 0.066870 0.054334
0.477162 -0.034246 0.095008
0.534558 -0.034538 0.047285
0.473407 -0.002768 0.044387
0.476353 -0.054953 0.076772
0.494121 -0.060503 0.090376
0.492144 0.069039 0.060803
0.493833 -0.018604 0.105953
0.501690 -0.016881 0.032335
0.495387 -0.082445 0.046827
0.466294 0.064203 0.075491
0.486439 0.067141 0.073794
0.514164 -0.097791 0.060233
0.507961 0.070257 0.072959
0.498239 0.032751 0.105750
0.503715 -0.098235 0.050057
0.525376 0.047639 0.078251
0.532307 -0.024616 0.090721
0.524348 -0.077662 0.048350
0.533108 -0.009527 0.087609
0.465990 -0.026668 0.061494
0.477835 -0.012462 0.040783
0.525065 0.049734 0.077492
0.463725 0.013183 0.072178
0.524838 0.028084 0.089445
0.492001 -0.079547 0.080106
0.536884 -0.018112 0.057696
0.537447 -0.034297 0.052546
0.466570 -0.028554 0.059793
0.516639 0.015326 0.099919
0.470134 -0.046898 0.080559
0.539357 -0.034994 0.057389
0.534630 -0.046847 0.079225
0.497960 0.066390 0.102993
0.527472 -0.065313 0.063496
0.517270 -0.004496 0.037469
0.481850 -0.059816 0.056240
0.481775 0.018225 0.041472
0.466702 0.027229 0.087785
0.518944 -0.052918 0.042041
0.538131 -0.013716 0.068316
0.512618 -0.053794 0.095604
0.510347 -0.041923 0.104294
0.520808 0.010675 0.043463
0.537292 -0.041914 0.079734
0.490782 -0.062232 0.086690
0.525224 -0.073293 0.050755
0.464600 0.020860 0.062797
0.526440 -0.052264 0.047857
0.524684 0.046826 0.065412
0.485399 0.034556 0.041538
0.494406 0.050414 0.042388
0.523742 0.050637 0.065110
0.507522 -0.006453 0.033826
0.522803 -0.085428 0.080993
0.487693 0.041379 0.105061
0.532093 -0.036538 0.091979
0.490888 -0.011282 0.106006
0.474430 -0.054231 0.071367
0.535021 -0.015934 0.053809
0.511900 0.064849 0.098043
0.499808 -0.032288 0.105507
0.508749 0.003749 0.106249
0.476992 0.061462 0.048086
0.490900 0.070026 0.047742
0.485641 -0.048187 0.040083
0.519198 -0.001487 0.101992
0.527709 -0.063165 0.060388
0.507451 -0.092774 0.042629
0.510727 -0.058722 0.041473
0.528786 -0.028568 0.095068
0.470343 0.040512 0.094588
0.487977 0.069354 0.050445
0.528190 0.028066 0.063258
0.487779 -0.071867 0.068284
0.470889 0.012973 0.050335
0.495207 0.066188 0.100463
0.509056 0.051421 0.101551
0.489874 -0.032960 0.033783
0.470949 -0.049321 0.063641
0.487027 -0.085155 0.061120
0.500319 -0.082452 0.084819
0.496980 -0.001801 0.107815
0.511959 -0.024930 0.104769
0.468957 -0.042523 0.056533
0.464827 0.064415 0.070650
0.520785 -0.096263 0.047393
0.478630 0.004054 0.040123
0.530746 0.018815 0.077834
0.471829 -0.051701 0.072814
0.518835 0.023979 0.097387
0.482673 -0.052676 0.090728
0.535266 -0.002293 0.060263
0.477604 0.004112 0.040880
0.529741 -0.041878 0.092720
0.524554 -0.015117 0.040542
0.501224 0.065816 0.046313
0.518676 0.046885 0.093946
0.519777 0.070508 0.077811
0.528957 -0.072288 0.061938
0.483126 0.062736 0.045561
0.469449 -0.045133 0.056486
0.469264 -0.041404 0.055320
0.492055 0.023837 0.105568
0.520012 -0.070498 0.048687
0.524791 -0.079799 0.079463
0.494604 0.007684 0.035228
0.502288 -0.045844 0.103807
0.513352 0.061298 0.052569
0.531061 -0.049416 0.083995
0.487954 0.050578 0.042904
0.467718 -0.044724 0.063529
0.467538 0.065471 0.062685
0.531670 -0.056563 0.062781
0.485261 0.067879 0.063094
0.505559 0.045233 0.043678
0.518152 -0.009770 0.037165
0.518973 0.014931 0.098263
0.488400 -0.093186 0.063581
0.483109 -0.062484 0.077002
0.512973 -0.098145 0.063479
0.529514 -0.073060 0.063187
0.486076 0.000410 0.036209
0.504330 0.015733 0.105079
0.496106 0.048519 0.105665
0.466628 0.058029 0.057978
0.482572 -0.045957 0.097363
0.533286 0.009960 0.061556
0.487242 -0.041263 0.101039
0.500223 0.027708 0.039183
0.469536 -0.015706 0.089558
0.510444 -0.097437 0.049146
0.478630 0.047541 0.101774
0.517614 0.043971 0.051449
0.534914 0.007190 0.077380
0.502517 -0.075428 0.043094
0.466968 -0.036357 0.075144
0.514989 0.009283 0.101410
0.463236 0.026370 0.069054
0.535516 0.004437 0.066428
0.535748 0.001926 0.065476
0.483447 -0.062820 0.056802
0.536919 -0.009840 0.062492
0.505107 0.068896 0.084404
0.471157 0.056713 0.096785
0.538176 -0.021449 0.077375
0.496070 0.069742 0.059022
0.494726 -0.048025 0.101652
0.503721 -0.065795 0.044968
0.512197 0.067349 0.096118
0.463814 0.055149 0.084695
0.490122 0.067568 0.074917
0.483015 -0.050669 0.044047
0.502383 -0.000367 0.033738
0.464086 -0.016046 0.072789
0.517164 0.033146 0.047790
0.476448 0.026094 0.099271
0.512051 0.053765 0.099316
0.532318 -0.052850 0.075739
0.530719 -0.079021 0.060105
0.506520 -0.072652 0.084396
0.509252 0.034566 0.102727
0.471528 -0.004492 0.094670
0.498053 0.040940 0.041090
0.486383 0.024067 0.040074
0.488201 -0.026804 0.034616
0.506617 -0.095490 0.043111
0.490443 -0.093795 0.055249
0.530685 0.021211 0.075104
0.504210 -0.054009 0.038535
0.481066 0.055304 0.103234
0.534828 -0.045467 0.080746
0.489552 -0.086888 0.054128
0.477499 0.019916 0.044251
0.529840 0.020214 0.080738
0.512739 -0.023504 0.033214
0.481691 -0.056639 0.085174
0.463837 0.031972 0.080976
0.471421 0.062385 0.052105
0.485379 -0.047741 0.040139
0.516833 -0.096376 0.045064
0.464606 0.020675 0.081315
0.496862 0.058329 0.105354
0.484056 -0.006218 0.104077
0.532982 0.011384 0.074455
0.507702 -0.017064 0.106130
0.492002 0.069297 0.057566
0.534178 -0.024938 0.049358
0.464644 -0.016919 0.063164
0.534602 -0.021754 0.051057
0.536349 -0.015915 0.081575
0.519649 -0.077643 0.044910
0.478386 0.016744 0.043411
0.516842 -0.097596 0.061501
0.495545 -0.049211 0.036902
0.510731 0.051476 0.047761
0.517499 -0.025854 0.034611
0.487623 -0.070311 0.069405
0.507673 -0.053266 0.097490
0.478392 0.063829 0.100575
0.523590 -0.093624 0.047246
0.532751 -0.037501 0.044913
0.479563 0.057660 0.102782
0.466858 0.050629 0.057350
0.490520 0.002111 0.106226
0.520580 -0.059994 0.086894
0.478370 0.065278 0.082713
0.524474 -0.091319 0.078850
0.489332 0.054222 0.105424
0.528421 0.025916 0.062470
0.519728 0.007243 0.040848
0.521108 -0.015329 0.100855
0.524204 -0.066521 0.076272
0.535311 -0.009096 0.057166
0.530671 -0.006144 0.049101
0.523299 0.059228 0.073449
0.492304 -0.049149 0.099996
0.508405 -0.064482 0.089002
0.527310 -0.008885 0.044297
0.522052 -0.054661 0.090050
0.504554 0.049519 0.103790
0.483729 0.047570 0.043591
0.480548 -0.057127 0.082967
0.481248 -0.039910 0.038709
0.530482 0.005594 0.089975
0.523282 -0.081027 0.047135
0.529438 -0.075485 0.056460
0.475136 -0.051099 0.053465
0.464616 0.064226 0.063992
0.487962 0.069654 0.047276
0.482321 0.034377 0.103126
0.516476 -0.011385 0.036088
0.498583 -0.036046 0.031310
0.521448 -0.029148 0.100672
0.528310 0.024157 0.083497
0.534172 -0.023325 0.049820
0.535295 -0.011531 0.083289
0.497670 -0.100075 0.067215
0.469270 0.055267 0.094464
0.475902 -0.030668 0.043173
0.477406 0.019967 0.099533
0.508328 -0.038330 0.104811
0.518269 -0.003490 0.038165
0.485022 -0.028239 0.036139
0.514806 -0.062133 0.088950
0.495090 -0.013344 0.033146
0.514336 0.049498 0.049974
0.526968 0.023653 0.057459
0.503471 -0.041112 0.104933
0.537244 -0.043520 0.060418
0.464040 0.014345 0.076667
0.485981 0.067609 0.067454
0.506005 0.071407 0.056274
0.483018 -0.037995 0.037382
0.517359 0.019418 0.099059
0.513631 -0.099028 0.077165
0.465762 -0.019422 0.079835
0.469708 0.060357 0.053888
0.517268 -0.064625 0.085035
0.462950 -0.004667 0.074387
0.489234 -0.097225 0.062944
0.477801 -0.044305 0.093687
0.468106 0.023999 0.089875
0.468564 -0.047432 0.071190
0.514718 -0.098122 0.065797
0.475667 -0.045755 0.047036
0.478355 -0.034966 0.040984
0.512380 -0.097943 0.059666
0.527245 -0.093652 0.051101
0.526620 0.021726 0.055891
0.478443 0.000893 0.100823
0.490117 0.065829 0.095966
0.517671 -0.012112 0.102870
0.525464 0.040680 0.083411
0.517937 -0.088644 0.043850
0.529466 0.018871 0.082714
0.499388 0.070232 0.058798
0.521404 -0.098126 0.076248
0.532494 0.008628 0.083172
0.465964 0.012239 0.059321
0.488155 0.050328 0.105235
0.508015 0.067770 0.099234
0.493044 0.015176 0.037550
0.518349 0.013699 0.043642
0.506550 0.070785 0.051259
0.521727 0.058720 0.064597
0.466596 -0.037840 0.067195
0.513940 0.055760 0.097468
0.528234 -0.054528 0.082784
0.480603 0.051343 0.102898
0.519838 0.058159 0.089328
0.502308 0.019201 0.105404
0.514449 0.059940 0.053222
0.478184 -0.051299 0.049523
0.486440 -0.065439 0.077155
0.526549 -0.073434 0.052215
0.500886 0.017610 0.037704
0.532287 0.011989 0.064046
0.516743 0.054939 0.054090
0.511078 0.057446 0.099618
0.482807 -0.063709 0.060834
0.499624 -0.099023 0.055089
0.478583 0.012689 0.099824
0.477892 0.067373 0.057010
0.462813 0.039348 0.077300
0.463440 -0.011025 0.071179
0.512258 -0.078138 0.042421
0.515379 -0.098257 0.082633
0.525923 0.040361 0.064703
0.471188 -0.004087 0.094337
0.488511 -0.079685 0.075393
0.515692 -0.096648 0.083045
0.461942 0.057219 0.072660
0.519098 -0.098287 0.075000
0.494115 -0.051531 0.097804
0.491483 -0.021714 0.105079
0.478129 0.005902 0.041815
0.512429 -0.097647 0.055408
0.474884 -0.011221 0.043270
0.469667 -0.012684 0.049606
0.525413 -0.064007 0.076762
0.476040 -0.010715 0.042218
0.472863 0.030232 0.096495
0.462640 0.037237 0.072434
0.499040 -0.099802 0.065546
0.477615 0.066594 0.065710
0.509932 -0.030340 0.031861
0.521403 -0.051247 0.092925
0.487276 -0.076026 0.066101
0.497891 -0.096824 0.080338
0.474835 0.063957 0.092785
0.467699 0.064650 0.072440
0.462578 0.040802 0.071373
0.529159 -0.059330 0.074801
0.465542 -0.002143 0.085528
0.489698 -0.095314 0.069728
0.528436 -0.082794 0.074498
0.504278 -0.099929 0.075485
0.522535 -0.082963 0.081280
0.539008 -0.040130 0.076978
0.532022 -0.028594 0.045301
0.473347 0.041350 0.097716
0.496652 -0.006104 0.107454
0.492023 0.039630 0.040847
0.521943 -0.040712 0.037339
0.465082 0.002902 0.080064
0.516573 -0.059753 0.044375
0.508338 -0.028617 0.031775
0.490223 -0.055995 0.092931
0.484367 -0.026528 0.036517
0.504308 0.071664 0.051069
0.524882 -0.096762 0.061479
0.507377 -0.002283 0.034227
0.506060 -0.017664 0.106362
0.464940 0.046053 0.060967
0.508379 0.050462 0.046111
0.481972 -0.022188 0.037967
0.518702 0.030699 0.048494
0.494795 0.001805 0.034109
0.517916 -0.054000 0.093468
0.470317 0.045341 0.052351
0.506107 0.041615 0.043135
0.489169 0.006214 0.104462
0.504353 -0.083738 0.042638
0.537950 -0.024511 0.057980
0.528488 -0.080147 0.053573
0.518847 -0.037894 0.101906
0.507366 -0.007593 0.106665
0.465071 0.048134 0.086919
0.510355 -0.078423 0.086698
0.506838 0.014389 0.038267
0.473725 0.021930 0.096634
0.474040 -0.048442 0.085476
0.530727 -0.058543 0.068949
0.504129 -0.040335 0.104990
0.466283 -0.020782 0.080966
0.465036 -0.020762 0.063228
0.497234 0.004216 0.106378
0.536301 -0.031119 0.051281
0.484015 0.063061 0.045340
0.517664 -0.032589 0.033806
0.521806 0.064608 0.080193
0.462777 0.033793 0.071556
0.509598 -0.070459 0.084478
0.503170 -0.000119 0.033829
0.514664 0.006564 0.037757
0.509938 0.041083 0.101919
0.488611 0.036030 0.105183
0.525417 -0.068258 0.056389
0.513069 0.070227 0.056419
0.533259 -0.024757 0.089387
0.527276 -0.006547 0.044759
0.487888 -0.077921 0.055072
0.519348 0.040782 0.052372
0.499822 -0.074912 0.083165
0.489145 -0.051866 0.095774
0.530696 -0.043447 0.090415
0.464387 0.005403 0.066360
0.529043 -0.023160 0.043109
0.503304 0.046239 0.104394
0.478591 -0.042742 0.041363
0.491282 -0.073943 0.053361
0.518823 -0.000346 0.102224
0.533384 0.001441 0.084872
0.470653 0.023149 0.050879
0.501773 0.051116 0.104604
0.463147 0.054969 0.066143
0.481844 0.029735 0.042451
0.526673 -0.003377 0.044804
0.517846 -0.090961 0.083196
0.499554 0.026470 0.105694
0.531108 -0.080704 0.064518
0.505054 0.020731 0.038906
0.481691 0.039325 0.103021
0.535829 -0.023297 0.052949
0.481820 0.068642 0.048977
0.513946 -0.051444 0.097172
0.497718 0.003674 0.033997
0.481884 0.016690 0.102051
0.468896 0.058279 0.054849
0.484420 -0.049061 0.041350
0.515577 -0.015079 0.035201
0.509743 -0.045480 0.102818
0.522875 -0.096487 0.079390
0.504661 0.060908 0.103108
0.487495 -0.066908 0.056379
0.499650 0.069144 0.072135
0.518631 -0.048259 0.039508
0.496343 0.061965 0.044461
0.494584 -0.100547 0.068927
0.499356 -0.048876 0.036051
0.534231 -0.030830 0.088623
0.514705 -0.043830 0.034834
0.481392 -0.053185 0.088787
0.477762 -0.057952 0.061630
0.481203 0.050286 0.044868
0.514881 0.040958 0.098650
0.511904 -0.098260 0.063454
0.526496 -0.090311 0.076730
0.489497 0.037113 0.105368
0.500862 -0.005448 0.107598
0.475577 -0.055518 0.067885
0.513302 -0.014387 0.034444
0.539554 -0.024926 0.070165
0.488436 -0.078529 0.073809
0.510521 0.015923 0.039770
0.495382 -0.082219 0.046807
0.530400 -0.006097 0.048718
0.517177 -0.088001 0.083781
0.498028 -0.019670 0.032366
0.469938 -0.028700 0.086774
0.478124 0.027879 0.044392
0.537974 -0.018091 0.076627
0.503109 0.067220 0.101723
0.483253 -0.064227 0.061397
0.477764 -0.033831 0.095653
0.519081 0.035462 0.050316
0.510307 -0.058773 0.041402
0.489217 0.069612 0.049528
0.523712 -0.071677 0.076730
0.498725 0.031829 0.039676
0.509493 0.018210 0.039797
0.505382 -0.004498 0.107192
0.489874 -0.030858 0.033838
0.539780 -0.027278 0.071469
0.467338 0.056183 0.092041
0.537534 -0.041847 0.058348
0.508402 0.062600 0.101015
0.530297 -0.074610 0.059678
0.485672 -0.037291 0.100767
0.489971 -0.017127 0.105133
0.530933 0.019768 0.068769
0.513589 0.059683 0.052303
0.530544 0.011859 0.057817
0.493367 -0.025798 0.032887
0.517774 0.070425 0.085911
0.538350 -0.019920 0.062439
0.507532 -0.068496 0.085606
0.498822 0.047497 0.105377
0.466250 -0.026011 0.078348
0.513525 -0.089567 0.084689
0.527130 -0.068462 0.067349
0.488886 -0.084952 0.073871
0.521184 0.060915 0.064511
0.528879 0.001881 0.048687
0.526919 0.041394 0.073412
0.501140 0.010158 0.036194
0.536298 -0.039667 0.084795
0.473697 -0.014064 0.044594
0.475050 0.028926 0.046710
0.521960 -0.094814 0.046155
0.505066 0.011299 0.037103
0.516110 -0.084876 0.084714
0.470551 0.049469 0.095470
0.537691 -0.019140 0.078325
0.511675 -0.001306 0.035480
0.476665 -0.054542 0.078916
0.505693 0.049431 0.044613
0.481136 -0.056870 0.052041
0.471070 -0.027088 0.049051
0.502882 -0.003012 0.033540
0.525973 -0.066333 0.057956
0.494939 -0.003146 0.033770
0.489434 0.019574 0.104969
0.481160 -0.041965 0.039019
0.513134 0.002989 0.036570
0.510176 -0.018025 0.033160
0.530409 -0.053207 0.054608
0.516057 0.016210 0.100233
0.503620 0.068562 0.085868
0.528274 0.014327 0.087168
0.512881 0.028977 0.101209
0.490061 -0.021241 0.034056
0.534207 -0.013851 0.086210
0.536729 -0.042028 0.081324
0.497466 -0.088991 0.082028
0.507110 -0.059124 0.093212
0.519124 0.063154 0.060991
0.479664 -0.050012 0.046132
0.519081 -0.061545 0.047040
0.504752 -0.076394 0.085246
0.498212 -0.051103 0.037743
0.498741 0.006422 0.105818
0.539212 -0.023534 0.064978
0.463739 0.022988 0.066243
0.527825 -0.003155 0.094552
0.468259 0.014315 0.054338
0.499921 -0.099306 0.059781
0.514668 -0.072611 0.083212
0.486608 -0.067610 0.059620
0.525406 0.045696 0.080185
0.477256 -0.046876 0.092242
0.503328 -0.090959 0.043456
0.507570 -0.017660 0.032716
0.534278 -0.050474 0.071958
0.488594 -0.090978 0.069202
0.515842 0.071486 0.071980
0.462609 0.051890 0.068900
0.517202 -0.056532 0.042786
0.501561 0.067979 0.089405
0.495712 0.068522 0.072943
0.514554 0.006380 0.037677
0.510853 0.021354 0.102758
0.464645 -0.003459 0.082781
0.537755 -0.018437 0.060618
0.494982 0.061435 0.105768
0.463577 0.025590 0.066656
0.522322 0.040520 0.056443
0.470204 0.002524 0.047757
0.501278 -0.055318 0.096158
0.479383 0.052563 0.102345
0.488395 -0.073459 0.060363
0.471906 0.063768 0.090143
0.538185 -0.041038 0.059287
0.478715 -0.015280 0.040157
0.483451 0.009187 0.102386
0.518983 0.054591 0.056957
0.464204 -0.014319 0.075628
0.518893 -0.002645 0.038664
0.465065 -0.012876 0.059673
0.517912 0.064448 0.059404
0.505461 -0.050138 0.036777
0.472343 -0.036190 0.088734
0.483885 0.068740 0.050913
0.469733 0.027944 0.052210
0.489532 0.020135 0.038780
0.465502 0.000177 0.055485
0.515443 0.036763 0.047355
0.532658 0.004605 0.085854
0.466295 0.046516 0.089229
0.470182 -0.006440 0.048329
0.468492 -0.042844 0.058204
0.471289 0.033947 0.095160
0.533593 -0.005393 0.054440
0.475773 0.002705 0.097531
0.492421 -0.031905 0.032915
0.521371 0.041217 0.091562
0.524607 0.044149 0.063203
0.495041 0.047179 0.041890
0.537322 -0.041352 0.080763
0.505887 -0.011081 0.033112
0.486344 -0.078454 0.059305
0.467146 0.060805 0.056979
0.528178 -0.080633 0.074929
0.505446 0.071095 0.050787
0.491740 -0.052944 0.040728
0.463596 0.031575 0.065623
0.526769 -0.057029 0.051343
0.495327 -0.008245 0.107143
0.506524 0.024686 0.104287
0.473144 -0.050526 0.057154
0.525272 0.049517 0.075337
0.533534 -0.051978 0.062630
0.476673 0.042935 0.100390
0.476422 0.014301 0.044726
0.489655 0.022305 0.105103
0.468668 0.065168 0.067946
0.470647 -0.032416 0.050480
0.512996 0.044724 0.047606
0.502696 -0.098816 0.056949
0.465611 -0.009118 0.083483
0.463846 0.056272 0.063851
0.532476 -0.014965 0.049451
0.525204 -0.058300 0.050481
0.520788 0.051762 0.058737
0.488812 -0.003018 0.106266
0.492179 -0.100343 0.061901
0.471023 -0.036286 0.050406
0.520135 0.006537 0.099567
0.512996 -0.032146 0.104183
0.531649 -0.039372 0.044335
0.526663 -0.030257 0.097039
0.524286 -0.096419 0.055466
0.474755 0.009650 0.045936
0.483202 -0.058504 0.051880
0.533794 0.009925 0.063794
0.507079 -0.091489 0.084767
0.519461 -0.097612 0.065691
0.518808 0.032283 0.096303
0.511175 0.070475 0.075869
0.534788 -0.047395 0.056739
0.524171 -0.053949 0.088687
0.518245 -0.077121 0.044263
0.504952 0.016936 0.104926
0.482346 -0.053972 0.088490
0.472245 -0.052166 0.073430
0.495778 0.033473 0.039798
0.464029 0.010831 0.067949
0.534359 -0.035183 0.088931
0.481004 0.001210 0.038620
0.531920 -0.034007 0.092003
0.471854 0.012176 0.049114
0.499011 0.069317 0.047309
0.462849 0.040603 0.068765
0.504288 -0.078849 0.042638
0.463570 0.026291 0.078302
0.492436 -0.005997 0.106880
0.502142 -0.064621 0.044597
0.534443 -0.020134 0.086808
0.501039 0.025197 0.105527
0.501101 -0.100574 0.079201
0.531658 -0.016614 0.090828
0.509243 0.057131 0.048213
0.501066 0.064014 0.103837
0.479293 -0.057492 0.056226
0.470724 0.054138 0.095984
0.528976 0.012038 0.086587
0.463434 0.023598 0.068232
0.500851 -0.063726 0.044334
0.515892 -0.059246 0.090111
0.482466 -0.063840 0.070991
0.510231 -0.098929 0.070412
0.487713 0.066891 0.078979
0.518450 -0.097027 0.055694
0.510704 -0.098304 0.062207
0.468106 -0.014478 0.087392
0.488504 0.065481 0.097455
0.478745 -0.059332 0.071630
0.478208 0.045806 0.101461
0.526268 0.043578 0.070027
0.530127 -0.095953 0.062778
0.473717 -0.024564 0.093265
0.522324 -0.061485 0.049790
0.499689 -0.094810 0.045377
0.484290 0.068062 0.059375
0.476321 -0.014490 0.042081
0.495702 0.067862 0.080779
0.492529 -0.022997 0.105217
0.467808 -0.033247 0.057162
0.480032 -0.048036 0.093362
0.468365 -0.042228 0.058420
0.508921 0.024613 0.040804
0.503897 0.071435 0.052684
0.472624 0.066820 0.055106
0.513348 -0.020521 0.104519
0.492686 0.007781 0.105252
0.485516 -0.065520 0.057906
0.484173 -0.066213 0.067869
0.516819 -0.016552 0.103238
0.464782 -0.007069 0.058907
0.464661 0.012393 0.063650
0.515228 0.047279 0.097526
0.523112 0.056574 0.081385
0.522501 -0.008636 0.040087
0.498156 0.068725 0.074625
0.478500 -0.011577 0.100033
0.476845 -0.031016 0.042233
0.486971 -0.067473 0.075126
0.528841 -0.018703 0.094463
0.520900 0.040417 0.054250
0.514652 0.060754 0.053687
0.473043 0.066947 0.054340
0.477197 -0.042479 0.042657
0.520236 0.043328 0.054415
0.465093 -0.024566 0.066242
0.496975 -0.068549 0.048350
0.476747 -0.052589 0.084159
0.493635 0.039171 0.105833
0.511327 -0.016804 0.033573
0.473060 -0.050938 0.079602
0.522270 0.057093 0.065084
0.494710 -0.015865 0.033077
0.525986 0.027148 0.087681
0.535320 -0.013110 0.083609
0.473617 0.030995 0.048093
0.530985 -0.094958 0.063977
0.490938 -0.030195 0.103959
0.503809 -0.098039 0.047271
0.489390 -0.093415 0.057796
0.506213 0.041635 0.043178
0.532120 -0.036285 0.091928
0.484063 0.040895 0.104024
0.495055 -0.089808 0.080039
0.480127 -0.051307 0.090772
0.537543 -0.040883 0.056600
0.517823 0.034512 0.096930
0.482339 0.004849 0.101733
0.539343 -0.034099 0.057798
0.476315 -0.053916 0.079990
0.524936 0.044535 0.064502
0.465668 -0.024079 0.061725
0.490781 -0.027384 0.104233
0.489791 -0.017032 0.105089
0.523533 0.057013 0.078434
0.470370 0.063597 0.089658
0.517003 0.033831 0.047841
0.520938 -0.059005 0.087113
0.522871 0.060077 0.078938
0.499332 -0.032117 0.105483
0.485850 0.052978 0.104769
0.494559 0.020732 0.038069
0.485681 0.054459 0.043883
0.480238 0.067063 0.064455
0.505068 -0.086727 0.042819
0.479481 -0.031473 0.039906
0.476660 -0.056379 0.062074
0.519377 0.071508 0.073349
0.503975 0.071565 0.050304
0.463920 0.011335 0.068899
0.490686 -0.034814 0.033419
0.466122 0.048822 0.058542
0.513758 -0.061551 0.089554
0.474290 0.004008 0.043873
0.465201 0.022712 0.060757
0.517699 -0.096951 0.053358
0.505051 0.036968 0.041845
0.524217 0.050113 0.066420
0.515763 -0.051158 0.096576
0.491915 -0.047899 0.100808
0.475954 -0.003965 0.099187
0.524882 -0.070212 0.054002
0.517758 -0.013596 0.102811
0.487155 0.067933 0.065586
0.532046 -0.002701 0.088469
0.499963 -0.092544 0.082557
0.512292 -0.052009 0.097320
0.518327 0.019805 0.045215
0.462308 0.056031 0.078700
0.493581 -0.069705 0.051126
0.478647 0.026854 0.100817
0.481962 0.031878 0.102872
0.501860 0.022107 0.105437
0.531816 -0.045291 0.049794
0.479567 -0.012507 0.039509
0.529731 -0.056660 0.056238
0.494745 0.023971 0.105828
0.525719 0.000548 0.044653
0.510342 0.027511 0.102649
0.488751 0.036436 0.105218
0.537716 -0.026495 0.080747
0.477307 -0.042453 0.093547
0.535152 -0.047303 0.057700
0.488084 -0.029865 0.034602
0.463727 0.013117 0.071785
0.473286 0.066101 0.064494
0.500407 0.018729 0.105651
0.503890 -0.050646 0.036971
0.464179 0.012917 0.076935
0.528461 -0.056323 0.080574
0.528225 0.017232 0.056995
0.535079 -0.008692 0.083129
0.490862 0.011441 0.105020
0.467244 0.004315 0.054940
0.500256 -0.021074 0.032081
0.483626 -0.039952 0.036997
0.514120 -0.052210 0.096403
0.489905 -0.088848 0.054575
0.466009 0.050333 0.089090
0.510953 0.069078 0.092549
0.537988 -0.043873 0.067633
0.532062 0.003657 0.087325
0.536047 -0.039089 0.085983
0.524235 -0.014666 0.040368
0.501481 0.068238 0.086123
0.529990 -0.028343 0.093810
0.517914 0.071776 0.072415
0.513661 0.005884 0.103248
0.517231 -0.096644 0.047993
0.507304 0.016673 0.104303
0.470456 0.053897 0.052789
0.462753 -0.002258 0.066179
0.485563 -0.043184 0.036710
0.527667 0.029684 0.082601
0.514910 0.072076 0.060446
0.481110 -0.054695 0.086049
0.503043 -0.039426 0.030917
0.523823 0.056122 0.077339
0.517963 0.015612 0.043878
0.471386 -0.044343 0.084760
0.510546 -0.096528 0.084034
0.529755 -0.054940 0.054288
0.469778 -0.035526 0.052714
0.512822 0.001080 0.036198
0.515376 -0.002074 0.104135
0.535478 -0.006294 0.058928
0.531839 -0.007549 0.050501
0.484897 -0.044399 0.099294
0.522693 -0.057012 0.087189
0.504151 -0.035072 0.105382
0.536678 -0.032137 0.051686
0.496666 -0.100325 0.077141
0.524671 0.012563 0.048916
0.488926 -0.046414 0.100395
0.518158 -0.063663 0.047437
0.524584 -0.045084 0.041315
0.498728 -0.083922 0.044778
0.481895 0.054410 0.045050
0.503818 -0.025886 0.031654
0.486169 -0.002179 0.036094
0.483301 0.065536 0.087902
0.515516 -0.062222 0.088590
0.510146 -0.002452 0.034878
0.505437 0.042034 0.042977
0.472773 0.066565 0.058223
0.466405 0.031090 0.087724
0.508084 -0.048756 0.036232
0.509232 -0.033668 0.031421
0.519936 -0.009441 0.101572
0.492052 0.066427 0.091990
0.517543 -0.084049 0.084190
0.508535 0.068724 0.092519
0.501656 0.017868 0.037829
0.533786 -0.051559 0.071755
0.495081 0.017061 0.105746
0.513114 -0.046994 0.100373
0.527250 0.018456 0.055623
0.513440 -0.073464 0.043971
0.515295 0.002346 0.104235
0.528167 0.035043 0.072163
0.495431 0.021466 0.105827
0.483723 -0.056051 0.048040
0.517296 0.069693 0.062152
0.463587 0.016018 0.072934
0.500392 -0.071064 0.083500
0.464989 0.020966 0.061488
0.474324 -0.054167 0.066520
0.483909 -0.065872 0.067435
0.478314 -0.044385 0.042477
0.530097 0.015486 0.060664
0.489139 -0.096695 0.064670
0.539509 -0.034442 0.077668
0.530297 -0.051330 0.083203
0.498340 0.070302 0.056284
0.535995 -0.025760 0.084733
0.534685 -0.049679 0.072214
0.473957 -0.007582 0.044028
0.514197 -0.050919 0.038344
0.485579 -0.002627 0.105170
0.464340 0.054449 0.085968
0.527086 -0.078062 0.051515
0.478276 -0.015227 0.099298
0.496482 -0.100263 0.067981
0.510144 0.004127 0.105649
0.512945 0.056070 0.050669
0.470408 -0.049209 0.070014
0.501568 -0.008281 0.107377
0.498612 0.001472 0.108123
0.501189 0.069979 0.064751
0.539628 -0.029709 0.074862
0.489520 -0.063881 0.083263
0.535574 -0.007502 0.081345
0.471227 -0.050303 0.072809
0.520461 0.017277 0.046372
0.467374 0.028902 0.089257
0.472646 0.066472 0.059076
0.526367 -0.033623 0.097362
0.538548 -0.042552 0.070624
0.464189 0.006465 0.073417
0.520704 0.067545 0.082078
0.469223 0.058286 0.095094
0.468182 0.027728 0.090452
0.524826 0.034357 0.058229
0.532077 -0.054211 0.059627
0.475115 0.029789 0.098487
0.484062 -0.043921 0.038319
0.510260 0.056340 0.100314
0.486022 -0.051055 0.042344
0.527934 0.035135 0.069307
0.536215 -0.035321 0.085973
0.513430 -0.016932 0.104618
0.465908 -0.031805 0.066694
0.486350 0.068133 0.061887
0.502277 0.067997 0.090417
0.500762 -0.026183 0.031697
0.524677 -0.088081 0.078888
0.530343 -0.076982 0.069211
0.490307 -0.073831 0.055077
0.503185 -0.010169 0.107143
0.503466 -0.089112 0.043323
0.476659 0.006719 0.097895
0.527434 -0.034684 0.096525
0.495293 -0.044243 0.103581
0.481639 -0.054525 0.086925
0.514245 -0.062783 0.045064
0.512565 -0.098962 0.074507
0.511404 0.070407 0.077085
0.497648 0.066381 0.102501
0.507433 -0.078253 0.086854
0.509061 -0.033710 0.031393
0.471457 0.042927 0.050970
0.515650 0.040619 0.098055
0.498793 -0.100050 0.068624
0.528800 -0.030265 0.095141
0.476929 0.062998 0.100507
0.507989 -0.099008 0.068096
0.504306 0.032800 0.104656
0.462712 0.036939 0.075315
0.527621 0.003917 0.094240
0.474747 -0.037607 0.091682
0.470020 -0.002584 0.093141
0.528697 -0.041249 0.094555
0.463938 0.034390 0.081836
0.530658 -0.091176 0.068211
0.539446 -0.024788 0.071730
0.510943 -0.046801 0.101277
0.501498 0.042669 0.105028
0.479250 -0.056998 0.080776
0.515614 -0.079437 0.085312
0.482627 -0.025250 0.100763
0.515110 0.057796 0.053224
0.536943 -0.044957 0.062093
0.499637 0.025120 0.105698
0.503325 0.039816 0.104672
0.490974 -0.041091 0.033431
0.495420 0.066218 0.100467
0.488657 0.045164 0.042046
0.507761 0.052970 0.102127
0.538740 -0.041616 0.063651
0.540607 -0.032796 0.068324
0.523477 0.029357 0.091270
0.506754 0.024668 0.104214
0.497138 -0.063275 0.045087
0.501360 -0.041587 0.104810
0.467397 -0.044433 0.068357
0.484061 0.016537 0.040237
0.501214 0.015353 0.105567
0.464507 0.013567 0.078902
0.530401 -0.087314 0.069179
0.512217 -0.098809 0.071744
0.485883 -0.059456 0.050069
0.463235 0.042231 0.066374
0.526871 0.011573 0.090298
0.472410 -0.018031 0.093074
0.477197 -0.020299 0.041504
0.506435 0.011084 0.104671
0.483297 0.067075 0.069274
0.523718 0.011890 0.047261
0.533788 -0.018062 0.087687
0.477371 -0.057658 0.074438
0.505325 -0.050161 0.036778
0.490921 -0.100200 0.066084
0.485601 -0.030840 0.101636
0.509903 -0.005961 0.106116
0.502747 -0.060040 0.041679
0.538812 -0.034631 0.079996
0.517507 0.020745 0.098819
0.519390 -0.022649 0.101866
0.520109 -0.061813 0.048013
0.496563 -0.099478 0.056841
0.522782 0.058334 0.068032
0.538349 -0.043171 0.068103
0.466617 -0.019236 0.082556
0.537122 -0.006545 0.067266
0.513609 -0.028306 0.032926
0.491292 0.053525 0.042922
0.500060 -0.063304 0.044239
0.502537 0.040677 0.104851
0.522014 -0.097681 0.070640
0.540088 -0.034685 0.060469
0.499234 -0.006861 0.033141
0.514497 -0.075800 0.084656
0.510575 0.028137 0.102500
0.517809 0.021752 0.045300
0.524136 -0.090141 0.047503
0.517369 -0.096893 0.051966
0.492634 -0.058972 0.090459
