ply
format ascii 1.0
element vertex 1024
property float x
property float y
property float z
end_header
0.460941 0.101634 0.081437
0.481023 0.125604 0.173610
0.449936 0.112252 0.158573
0.512393 0.109252 0.129832
0.460528 0.111465 0.207558
0.512679 0.111511 0.109775
0.468595 0.056402 0.201581
0.465350 0.121360 0.141940
0.486692 0.053765 0.155270
0.500304 0.122397 0.106155
0.478632 0.126917 0.155392
0.475053 0.061364 0.211233
0.493587 0.124617 0.151533
0.451265 0.115630 0.188338
0.459981 0.064287 0.235575
0.476707 0.062488 0.227899
0.471672 0.065095 0.220414
0.491245 0.079330 0.221696
0.506875 0.111361 0.175827
0.467312 0.120019 0.111370
0.462094 0.116426 0.115820
0.462369 0.113225 0.096517
0.458140 0.066997 0.135527
0.490340 0.101130 0.217962
0.445945 0.098504 0.201920
0.507472 0.070454 0.108377
0.470815 0.084677 0.251001
0.503022 0.119897 0.122397
0.495487 0.124582 0.092759
0.466641 0.052474 0.177368
0.477462 0.124190 0.195018
0.515526 0.080517 0.157587
0.479837 0.056156 0.201332
0.458439 0.063467 0.205835
0.501225 0.103903 0.086696
0.450795 0.064690 0.161808
0.509342 0.107315 0.177285
0.491854 0.080882 0.236814
0.501476 0.073827 0.085054
0.492913 0.092374 0.084992
0.468841 0.087041 0.250965
0.482933 0.111711 0.084733
0.455321 0.079555 0.112662
0.482790 0.082997 0.252386
0.466558 0.119075 0.107547
0.443101 0.103413 0.175582
0.476258 0.105751 0.235312
0.447271 0.108837 0.161755
0.501770 0.060821 0.176072
0.515047 0.083936 0.168295
0.467631 0.119628 0.105649
0.499026 0.062291 0.134870
0.454828 0.109008 0.123950
0.465777 0.062543 0.226278
0.469562 0.124659 0.177103
0.471547 0.124150 0.193972
0.502669 0.061730 0.178342
0.448533 0.094247 0.133015
0.480872 0.050778 0.191956
0.466370 0.123280 0.193809
0.448776 0.106168 0.199913
0.462141 0.087875 0.080669
0.463409 0.103732 0.220396
0.498562 0.120715 0.166028
0.493774 0.069703 0.211216
0.516391 0.093537 0.138906
0.486081 0.060290 0.118192
0.487580 0.109528 0.212100
0.460488 0.121527 0.170657
0.445345 0.078077 0.200400
0.440683 0.074498 0.186724
0.493618 0.124078 0.150444
0.447609 0.109241 0.195343
0.463061 0.062044 0.207920
0.474332 0.106269 0.230657
0.507513 0.069218 0.129607
0.478874 0.113218 0.211082
0.477687 0.124520 0.111078
0.516575 0.100087 0.123515
0.513259 0.110725 0.109052
0.478920 0.124685 0.107342
0.506419 0.113783 0.167559
0.448395 0.086992 0.235459
0.462452 0.072790 0.103200
0.440608 0.100063 0.186821
0.453212 0.063737 0.154356
0.485501 0.057292 0.201593
0.474096 0.125424 0.175627
0.458953 0.101766 0.084918
0.446330 0.067037 0.175868
0.445743 0.082005 0.141886
0.518829 0.095565 0.095020
0.513059 0.109373 0.088468
0.507010 0.083228 0.203968
0.443289 0.091806 0.149142
0.466197 0.105896 0.219029
0.487862 0.090931 0.249181
0.491547 0.101583 0.216861
0.440722 0.097475 0.178030
0.480155 0.062943 0.104270
0.512189 0.105441 0.088174
0.475286 0.124508 0.130133
0.478960 0.066324 0.220940
0.513814 0.078886 0.140737
0.465676 0.086718 0.081093
0.455714 0.094773 0.096806
0.512130 0.093135 0.191120
0.494474 0.059127 0.198124
0.483702 0.066295 0.235292
0.457123 0.066700 0.229048
0.449764 0.070068 0.145508
0.441643 0.079286 0.170360
0.502400 0.062333 0.192869
0.506361 0.074967 0.085740
0.476506 0.099195 0.253104
0.517327 0.088476 0.152546
0.460426 0.117645 0.136186
0.485941 0.054928 0.198513
0.450663 0.099192 0.125458
0.465050 0.055262 0.196811
0.470261 0.125442 0.161030
0.517222 0.087252 0.152200
0.440502 0.096562 0.191547
0.490836 0.123131 0.176504
0.508407 0.117921 0.094093
0.456616 0.105640 0.104021
0.472766 0.119447 0.084835
0.463063 0.104247 0.227669
0.517973 0.102264 0.095076
0.501849 0.062213 0.195465
0.503413 0.063420 0.192089
0.457513 0.072481 0.120593
0.479131 0.103446 0.227783
0.449393 0.090626 0.230585
0.513711 0.105178 0.152019
0.444743 0.067052 0.189662
0.496274 0.124219 0.098539
0.446242 0.100281 0.200923
0.516167 0.105035 0.108008
0.496827 0.057426 0.193312
0.511849 0.081345 0.086794
0.462980 0.109518 0.212585
0.502681 0.096705 0.086493
0.505751 0.118454 0.115117
0.497685 0.120478 0.171306
0.448683 0.096944 0.134042
0.479874 0.064546 0.242689
0.475190 0.060161 0.209379
0.466659 0.084384 0.250451
0.461619 0.103950 0.228208
0.516336 0.095905 0.157826
0.450556 0.081394 0.130014
0.458527 0.081171 0.097161
0.515346 0.081250 0.094926
0.460348 0.053411 0.188834
0.471767 0.125768 0.148646
0.455432 0.056605 0.184038
0.510048 0.112335 0.132435
0.477579 0.052618 0.159706
0.480197 0.089319 0.252618
0.470702 0.068011 0.096875
0.492793 0.124657 0.116070
0.457164 0.118904 0.148039
0.492248 0.090244 0.231696
0.488451 0.052972 0.182565
0.447341 0.090829 0.138340
0.503626 0.066219 0.122732
0.465777 0.124119 0.153187
0.466140 0.124236 0.155855
0.492087 0.070141 0.214192
0.466548 0.124147 0.168042
0.474531 0.103464 0.083190
0.479963 0.066051 0.088200
0.451793 0.115525 0.176155
0.500802 0.108246 0.086877
0.450184 0.061209 0.191344
0.491283 0.092428 0.222101
0.460754 0.103486 0.082957
0.493788 0.065328 0.091497
0.490119 0.095048 0.084773
0.504684 0.078549 0.205184
0.509927 0.110771 0.161072
0.494551 0.056026 0.163075
0.494728 0.123719 0.127301
0.471180 0.062764 0.117927
0.456367 0.098899 0.095387
0.452146 0.104601 0.206215
0.462840 0.105183 0.234801
0.455551 0.074271 0.220395
0.452442 0.090752 0.112887
0.473669 0.054245 0.147962
0.511258 0.112414 0.118945
0.515956 0.099377 0.134109
0.513081 0.092635 0.184776
0.487533 0.089407 0.251604
0.485803 0.070177 0.245357
0.463080 0.119427 0.134460
0.498001 0.098484 0.212166
0.469211 0.071040 0.089329
0.447564 0.105897 0.198265
0.488102 0.071446 0.238811
0.516458 0.088927 0.136146
0.458613 0.115771 0.134084
0.502050 0.114846 0.184825
0.469751 0.056262 0.201753
0.493937 0.062168 0.114756
0.518414 0.089092 0.092575
0.507154 0.083074 0.203493
0.480501 0.096943 0.253254
0.491797 0.060232 0.125710
0.459666 0.084070 0.087823
0.459021 0.059959 0.149061
0.461178 0.119579 0.144391
0.443698 0.076704 0.161937
0.504074 0.105403 0.087143
0.477140 0.124927 0.185223
0.502306 0.060965 0.166106
0.475893 0.125150 0.181817
0.449889 0.113133 0.169655
0.481596 0.103430 0.235489
0.516303 0.089405 0.139508
0.466412 0.088742 0.250817
0.504469 0.092950 0.206844
0.500432 0.122210 0.108793
0.498111 0.117705 0.187361
0.478291 0.065984 0.219169
0.446363 0.073083 0.198883
0.473942 0.071887 0.081342
0.475525 0.102213 0.250917
0.480021 0.123167 0.198192
0.470673 0.070489 0.086968
0.514805 0.080160 0.102256
0.454944 0.066194 0.141297
0.447822 0.087714 0.209272
0.489274 0.080815 0.083868
0.448590 0.088180 0.241834
0.462957 0.076765 0.090883
0.475557 0.124624 0.132415
0.495948 0.123688 0.154213
0.441483 0.091004 0.163021
0.454112 0.094523 0.218362
0.471985 0.125516 0.168302
0.481589 0.126111 0.166665
0.473192 0.122123 0.097136
0.452691 0.059712 0.192508
0.451731 0.075398 0.211697
0.487038 0.124993 0.169974
0.445078 0.088582 0.203590
0.455891 0.089462 0.097616
0.517375 0.100472 0.110264
0.472146 0.056255 0.202574
0.511504 0.081941 0.195732
0.448570 0.108712 0.146281
0.477403 0.104711 0.238709
0.467045 0.106617 0.232028
0.500709 0.067218 0.202585
0.512087 0.077967 0.087363
0.514920 0.107025 0.088579
0.465957 0.067664 0.109762
0.499253 0.119230 0.172906
0.509340 0.101059 0.195693
0.439680 0.088414 0.176480
0.457572 0.113986 0.129477
0.476960 0.125045 0.183559
0.449546 0.112351 0.164907
0.471130 0.069177 0.249667
0.482715 0.065261 0.089885
0.511669 0.077231 0.185162
0.469674 0.062135 0.123916
0.441749 0.073306 0.182890
0.497588 0.121442 0.165020
0.513243 0.088892 0.185450
0.448779 0.081360 0.210200
0.512512 0.102082 0.172893
0.496445 0.123775 0.110652
0.480259 0.125326 0.135536
0.443790 0.068529 0.184976
0.463793 0.118192 0.201144
0.495210 0.060639 0.132794
0.498581 0.095150 0.085880
0.498226 0.118364 0.087059
0.511964 0.084496 0.194382
0.449419 0.096152 0.129330
0.454610 0.078137 0.248372
0.487283 0.053317 0.164993
0.517525 0.086341 0.093941
0.450507 0.084807 0.213769
0.495251 0.056733 0.151572
0.479463 0.064695 0.246839
0.466133 0.051494 0.187472
0.483169 0.059777 0.121026
0.489551 0.053860 0.194348
0.463799 0.084750 0.250127
0.506571 0.071924 0.198891
0.511706 0.079448 0.190100
0.470221 0.085768 0.251024
0.470372 0.103445 0.250533
0.481519 0.125375 0.137705
0.465587 0.058295 0.142222
0.472063 0.084494 0.081822
0.441962 0.087804 0.159052
0.461243 0.115161 0.113159
0.481958 0.100127 0.246167
0.456959 0.114211 0.134905
0.499345 0.111276 0.086850
0.451498 0.085371 0.248630
0.453688 0.114360 0.145082
0.508643 0.070205 0.138881
0.463221 0.075020 0.094554
0.460323 0.098521 0.081364
0.513515 0.104342 0.144068
0.495124 0.122554 0.147183
0.502114 0.121117 0.088830
0.481436 0.124958 0.099389
0.495186 0.056181 0.185705
0.457216 0.101824 0.094088
0.448065 0.097370 0.205800
0.469223 0.069959 0.093182
0.461383 0.111279 0.094262
0.451770 0.080265 0.126343
0.494981 0.124543 0.099841
0.502452 0.071668 0.204011
0.472963 0.062280 0.212605
0.472395 0.106658 0.230631
0.509657 0.111444 0.142616
0.470434 0.124152 0.146013
0.492419 0.124996 0.104766
0.457087 0.098718 0.091639
0.488886 0.067457 0.214088
0.480532 0.076923 0.251552
0.467883 0.061430 0.131039
0.511567 0.093284 0.087441
0.498531 0.064660 0.108303
0.496897 0.057334 0.158492
0.487450 0.098254 0.235632
0.449176 0.077143 0.246630
0.476816 0.124526 0.117641
0.474178 0.054204 0.147603
0.471550 0.061830 0.227032
0.448873 0.077555 0.245020
0.505216 0.070001 0.091919
0.453723 0.083983 0.248784
0.453307 0.061798 0.195513
0.452346 0.062450 0.164731
0.516390 0.087630 0.150325
0.473841 0.087932 0.251681
0.514621 0.080496 0.166193
0.511751 0.072691 0.165591
0.453398 0.095851 0.215965
0.514981 0.082095 0.166073
0.475913 0.061953 0.114104
0.502471 0.066413 0.111396
0.471873 0.071205 0.249934
0.504239 0.088675 0.086246
0.503762 0.111649 0.191404
0.443416 0.087375 0.199575
0.480532 0.066059 0.225387
0.460317 0.063719 0.243657
0.482391 0.072662 0.082507
0.503395 0.076590 0.085461
0.503862 0.067638 0.108172
0.453733 0.100984 0.212317
0.484802 0.054090 0.146985
0.473723 0.062220 0.243551
0.451336 0.095477 0.235013
0.460737 0.070819 0.248495
0.448609 0.087154 0.232978
0.449291 0.112412 0.194427
0.481217 0.124273 0.189397
0.476064 0.064160 0.103130
0.449684 0.069040 0.149713
0.514401 0.107132 0.119546
0.491593 0.116967 0.201676
0.490319 0.057423 0.143249
0.485942 0.104920 0.217919
0.504878 0.110708 0.189565
0.458865 0.059892 0.200441
0.513481 0.088521 0.183632
0.503544 0.119495 0.087753
0.462395 0.095755 0.250976
0.506692 0.114362 0.163416
0.444270 0.075070 0.162270
0.512138 0.075801 0.105661
0.502911 0.120793 0.109856
0.514046 0.086720 0.178825
0.493023 0.124159 0.129700
0.513802 0.104619 0.157980
0.444398 0.083562 0.201703
0.516576 0.084377 0.108890
0.505462 0.118404 0.118805
0.457664 0.066782 0.137552
0.490617 0.090239 0.240061
0.467947 0.124051 0.183362
0.469379 0.106205 0.237063
0.438846 0.083732 0.184365
0.444640 0.078195 0.152610
0.490352 0.063813 0.097949
0.450879 0.075173 0.225934
0.505698 0.115532 0.146322
0.474281 0.060834 0.122214
0.474495 0.051384 0.192836
0.457984 0.105311 0.213031
0.443503 0.069226 0.184289
0.485881 0.052921 0.166123
0.501555 0.060441 0.169859
0.451626 0.072271 0.140029
0.473620 0.124472 0.191036
0.517743 0.103196 0.094916
0.497839 0.116788 0.194078
0.468941 0.118750 0.090265
0.502700 0.066214 0.114941
0.454178 0.077315 0.218622
0.509476 0.111449 0.160906
0.501088 0.120739 0.154946
0.453614 0.093124 0.106838
0.461186 0.072363 0.108461
0.470109 0.104790 0.224565
0.494311 0.124036 0.089014
0.443722 0.104835 0.176126
0.486966 0.125242 0.167605
0.489316 0.071503 0.229723
0.490705 0.124998 0.119161
0.459753 0.068697 0.222053
0.457544 0.058489 0.195690
0.441761 0.098150 0.193687
0.502611 0.063995 0.143761
0.485309 0.123972 0.184263
0.455601 0.087405 0.100508
0.510259 0.077795 0.197572
0.489530 0.076065 0.226654
0.443433 0.091621 0.147941
0.450863 0.112750 0.151772
0.514787 0.080608 0.130738
0.456841 0.087052 0.095558
0.509827 0.073692 0.095675
0.517012 0.095593 0.127556
0.487647 0.125389 0.164454
0.448369 0.080532 0.239739
0.453881 0.079349 0.118913
0.458684 0.103018 0.235506
0.506894 0.115071 0.139828
0.467009 0.068242 0.104920
0.473459 0.124944 0.183041
0.516513 0.100773 0.088450
0.443636 0.078952 0.197939
0.512633 0.107555 0.156544
0.464811 0.064015 0.127070
0.516860 0.084741 0.095645
0.506452 0.081391 0.204389
0.499992 0.118102 0.176570
0.441786 0.073935 0.190420
0.448290 0.085452 0.246528
0.457884 0.092328 0.086753
0.489832 0.072902 0.218727
0.487769 0.104817 0.084998
0.490488 0.111487 0.208109
0.511995 0.113847 0.097645
0.471209 0.065629 0.249378
0.503270 0.096668 0.207163
0.443085 0.104726 0.182289
0.497043 0.111365 0.204381
0.467289 0.055004 0.197578
0.491554 0.064027 0.207736
0.517945 0.098294 0.107051
0.453821 0.098872 0.108270
0.467216 0.083465 0.250440
0.449475 0.091138 0.241567
0.460713 0.073257 0.107479
0.447477 0.072684 0.149550
0.487694 0.059673 0.203742
0.501894 0.116686 0.175795
0.456743 0.119434 0.181274
0.473080 0.062780 0.226253
0.502724 0.118260 0.144946
0.491903 0.080935 0.236600
0.482060 0.126076 0.166671
0.448601 0.080316 0.236664
0.510844 0.103594 0.179540
0.478055 0.051514 0.172947
0.517044 0.091099 0.128480
0.452964 0.116437 0.173045
0.460671 0.093036 0.080761
0.488112 0.067453 0.214519
0.465838 0.052762 0.176896
0.491899 0.124622 0.124732
0.491816 0.101249 0.216876
0.512360 0.106992 0.088274
0.453312 0.092776 0.223194
0.510934 0.111711 0.128157
0.503526 0.117866 0.142603
0.445614 0.076921 0.149260
0.512354 0.093560 0.189072
0.455219 0.118490 0.183291
0.485882 0.064989 0.089300
0.465613 0.119798 0.200014
0.457947 0.096878 0.086022
0.463989 0.105978 0.230575
0.456984 0.056258 0.180065
0.453671 0.062125 0.160097
0.468133 0.122390 0.137281
0.496170 0.124202 0.100190
0.476592 0.125655 0.147302
0.512014 0.098070 0.184801
0.466924 0.113813 0.082893
0.464555 0.123221 0.177984
0.454540 0.075438 0.216226
0.457240 0.083396 0.098538
0.487441 0.053036 0.171758
0.449511 0.076442 0.237544
0.459914 0.100902 0.222555
0.471968 0.061753 0.232511
0.482072 0.125011 0.097218
0.483899 0.126514 0.158772
0.469058 0.121383 0.114842
0.509844 0.110789 0.150193
0.444123 0.106433 0.191934
0.513743 0.078238 0.168512
0.516799 0.087595 0.126588
0.477136 0.101102 0.252115
0.507199 0.113928 0.149358
0.448763 0.079631 0.233305
0.480455 0.064616 0.095429
0.451535 0.115150 0.173653
0.503542 0.117614 0.162708
0.477913 0.055472 0.200499
0.505432 0.119018 0.110864
0.498079 0.071759 0.209203
0.509641 0.071057 0.179826
0.509497 0.110723 0.163736
0.468744 0.104919 0.222424
0.513377 0.103842 0.162865
0.458821 0.069631 0.124538
0.511023 0.081275 0.197643
0.502421 0.119247 0.158485
0.504123 0.113873 0.179226
0.470987 0.113120 0.210983
0.448681 0.093791 0.132021
0.474013 0.101423 0.083013
0.453212 0.110071 0.138180
0.451137 0.093365 0.119066
0.513314 0.095678 0.179736
0.447333 0.109518 0.166380
0.446537 0.107969 0.195036
0.460114 0.064224 0.235652
0.449522 0.073415 0.205428
0.486405 0.125444 0.095579
0.504728 0.074839 0.203689
0.482161 0.105374 0.219367
0.455259 0.071556 0.223619
0.502138 0.094401 0.208810
0.451609 0.074294 0.138196
0.461493 0.121950 0.181026
0.505312 0.067278 0.126686
0.444933 0.102366 0.153426
0.511951 0.075007 0.138243
0.476368 0.074847 0.250828
0.452361 0.081767 0.221590
0.487453 0.070433 0.218586
0.464653 0.117748 0.109006
0.467307 0.051179 0.190214
0.489521 0.087422 0.246749
0.505889 0.111954 0.178658
0.454647 0.108604 0.204982
0.475296 0.062468 0.239338
0.479860 0.119137 0.084701
0.507371 0.071242 0.097986
0.487380 0.106913 0.215226
0.472003 0.097840 0.082553
0.489034 0.100951 0.084952
0.501189 0.120645 0.155128
0.449887 0.089258 0.125863
0.487421 0.054373 0.148757
0.466595 0.123916 0.176878
0.460685 0.082941 0.084499
0.505381 0.067500 0.124056
0.485690 0.125496 0.118875
0.515004 0.077307 0.151339
0.450522 0.067859 0.200398
0.470478 0.069453 0.091977
0.485148 0.070334 0.224300
0.486115 0.071413 0.082921
0.464586 0.120070 0.199103
0.514760 0.084380 0.171266
0.462751 0.063571 0.134447
0.488790 0.125436 0.104740
0.492309 0.055125 0.160792
0.496953 0.121913 0.164167
0.505569 0.063878 0.163010
0.488541 0.125461 0.094530
0.499346 0.101226 0.208954
0.474189 0.051000 0.180054
0.513822 0.101610 0.088176
0.514752 0.080213 0.125693
0.514922 0.101831 0.138577
0.510575 0.069077 0.151347
0.496450 0.123245 0.123690
0.450813 0.112338 0.148405
0.487555 0.063387 0.099153
0.513373 0.075086 0.159889
0.501182 0.061062 0.192756
0.478335 0.062059 0.110613
0.475657 0.126171 0.165112
0.469986 0.058010 0.140874
0.511689 0.095943 0.190594
0.456515 0.107862 0.110356
0.479253 0.124948 0.114146
0.512937 0.110810 0.112369
0.446795 0.108890 0.194576
0.507270 0.111747 0.172001
0.486457 0.068032 0.229123
0.516284 0.082769 0.092522
0.451382 0.095514 0.232795
0.503122 0.120475 0.088501
0.502707 0.087070 0.209160
0.507018 0.069301 0.118492
0.475137 0.110789 0.214967
0.450354 0.067606 0.151697
0.451251 0.085561 0.121783
0.498684 0.063867 0.200980
0.469322 0.120799 0.106358
0.462739 0.112158 0.208402
0.472289 0.066030 0.101404
0.515887 0.086578 0.141348
0.458946 0.070339 0.121891
0.506770 0.079696 0.086065
0.507961 0.068863 0.184618
0.498525 0.122757 0.115634
0.477400 0.078676 0.251309
0.485599 0.053638 0.154196
0.511577 0.075672 0.095002
0.479225 0.125579 0.175343
0.476509 0.109604 0.216200
0.485987 0.125500 0.107303
0.455128 0.063624 0.146050
0.478427 0.067029 0.250440
0.507330 0.068387 0.188427
0.445896 0.095496 0.142020
0.440674 0.078900 0.177600
0.480837 0.122110 0.199999
0.439927 0.094358 0.178978
0.467841 0.098230 0.251897
0.515121 0.083580 0.145385
0.496940 0.073239 0.211067
0.469604 0.125109 0.148247
0.452518 0.070521 0.238616
0.461510 0.088936 0.250223
0.452666 0.101477 0.117655
0.478839 0.113078 0.084266
0.467676 0.117054 0.205412
0.445232 0.091192 0.203454
0.482936 0.102663 0.234957
0.450521 0.082254 0.128957
0.466948 0.055789 0.198519
0.485145 0.054884 0.198878
0.512562 0.109504 0.126187
0.502148 0.064089 0.138114
0.442196 0.103751 0.186451
0.517010 0.090607 0.155914
0.441003 0.100448 0.184345
0.514249 0.080123 0.141894
0.509156 0.116314 0.090220
0.505906 0.069086 0.108971
0.491281 0.091233 0.235320
0.495608 0.062014 0.120813
0.452356 0.065763 0.149232
0.492563 0.091520 0.220858
0.445894 0.108080 0.172360
0.453093 0.080417 0.120359
0.459142 0.066188 0.247922
0.444376 0.104529 0.167733
0.501546 0.121943 0.103041
0.459519 0.089592 0.083155
0.495402 0.068038 0.208664
0.480532 0.065517 0.090817
0.453048 0.110455 0.140609
0.503863 0.066189 0.125620
0.493566 0.090743 0.219894
0.447609 0.082341 0.207279
0.480439 0.062230 0.211939
0.462096 0.078538 0.249356
0.487831 0.090895 0.084246
0.470577 0.093037 0.251737
0.468885 0.083040 0.250614
0.480310 0.052714 0.158824
0.471588 0.082332 0.081638
0.482397 0.059732 0.206989
0.470961 0.067432 0.098573
0.472542 0.122935 0.113395
0.458697 0.099752 0.250534
0.471142 0.052472 0.167965
0.478168 0.106810 0.219091
0.489272 0.082579 0.249619
0.506356 0.097718 0.087018
0.514465 0.081588 0.169791
0.482315 0.097013 0.083864
0.451524 0.062996 0.166067
0.503655 0.063045 0.183613
0.464778 0.052744 0.191423
0.501144 0.060982 0.192097
0.503794 0.118269 0.136115
0.502357 0.118317 0.087570
0.515824 0.089615 0.087765
0.441707 0.081532 0.166313
0.455384 0.069721 0.136282
0.489737 0.070783 0.216810
0.481898 0.064679 0.215128
0.441516 0.085949 0.163168
0.507112 0.065256 0.157523
0.505667 0.067039 0.137624
0.455410 0.101067 0.102440
0.466221 0.117557 0.097936
0.493115 0.122999 0.170085
0.486376 0.102256 0.084677
0.464618 0.056048 0.154475
0.511935 0.078410 0.185820
0.474145 0.063274 0.215084
0.442479 0.099932 0.168619
0.488268 0.125328 0.119287
0.494588 0.124665 0.098975
0.516274 0.090368 0.087861
0.509916 0.076043 0.196866
0.488846 0.125310 0.116353
0.498481 0.058216 0.172885
0.491539 0.084477 0.223216
0.473681 0.053427 0.197464
0.458452 0.076986 0.105878
0.503338 0.114912 0.178090
0.479654 0.052856 0.196428
0.480534 0.124834 0.100922
0.512441 0.101252 0.175304
0.455611 0.110634 0.125382
0.449058 0.111879 0.166369
0.516633 0.086155 0.124110
0.457367 0.100114 0.249409
0.452481 0.060708 0.173123
0.485127 0.084466 0.252821
0.484236 0.068134 0.244303
0.505374 0.118478 0.118789
0.440669 0.100165 0.186591
0.465139 0.070107 0.103463
0.462936 0.062964 0.236592
0.466501 0.053374 0.195171
0.467214 0.120857 0.199468
0.452931 0.100816 0.115241
0.463319 0.062012 0.138658
0.466147 0.123263 0.192851
0.477264 0.054791 0.199614
0.478033 0.124681 0.113526
0.502074 0.060992 0.173476
0.452693 0.061046 0.170322
0.453813 0.062015 0.159993
0.468562 0.119435 0.098211
0.487295 0.070307 0.083010
0.494856 0.123704 0.126608
0.447580 0.088124 0.208309
0.468871 0.119288 0.095055
0.446617 0.066681 0.175651
0.465146 0.073859 0.091815
0.513011 0.106569 0.138756
0.517010 0.103467 0.103763
0.504010 0.091609 0.086382
0.489710 0.090116 0.243000
0.512490 0.081675 0.187089
0.491948 0.063215 0.205984
0.476881 0.121480 0.084801
0.504350 0.119561 0.087977
0.501465 0.063646 0.137404
0.511781 0.093602 0.193092
0.513941 0.078571 0.103656
0.448883 0.080304 0.209378
0.516380 0.082970 0.151246
0.509171 0.071112 0.128335
0.472953 0.093544 0.252088
0.506500 0.117134 0.123462
0.477498 0.124342 0.107617
0.443241 0.080843 0.198011
0.452364 0.059258 0.191073
0.467629 0.055931 0.146987
0.472156 0.105071 0.226919
0.441776 0.087588 0.160512
0.499600 0.097119 0.086118
0.447970 0.108986 0.154830
0.457921 0.065324 0.239274
0.444289 0.077355 0.198256
0.494590 0.123086 0.140923
0.499757 0.067138 0.091782
0.490786 0.080006 0.223319
0.468836 0.064046 0.117115
0.466035 0.066945 0.112195
0.452348 0.080494 0.123469
0.475362 0.118341 0.204548
0.515228 0.086012 0.168826
0.469510 0.111015 0.213886
0.455923 0.074666 0.120727
0.488773 0.125496 0.160573
0.451036 0.090199 0.119865
0.461136 0.072551 0.108077
0.448522 0.112421 0.180243
0.466745 0.051541 0.185652
0.466685 0.116918 0.205154
0.512758 0.091884 0.187729
0.499350 0.062469 0.135020
0.507436 0.085484 0.086474
0.452479 0.078431 0.126518
0.499926 0.099691 0.209215
0.494727 0.060320 0.134134
0.449590 0.098246 0.208051
0.479177 0.125239 0.142004
0.450159 0.112855 0.162168
0.456993 0.069071 0.132572
0.510674 0.071707 0.147670
0.509756 0.105321 0.181229
0.511724 0.084778 0.196434
0.444098 0.079306 0.198870
0.487288 0.071108 0.240652
0.488312 0.064032 0.095455
0.464642 0.104527 0.081920
0.457251 0.115260 0.199987
0.449751 0.110918 0.148929
0.443321 0.105769 0.191084
0.491206 0.123041 0.176068
0.474858 0.099415 0.083015
0.441196 0.099153 0.178233
0.478461 0.120747 0.084572
0.446029 0.088083 0.141067
0.477779 0.095807 0.252916
0.449803 0.084495 0.129631
0.517237 0.086120 0.100527
0.502618 0.061051 0.151023
0.510553 0.085866 0.199857
0.459376 0.115061 0.124246
0.490188 0.124048 0.086558
0.469560 0.055764 0.199609
0.506939 0.104308 0.199585
0.469225 0.120020 0.099349
0.495369 0.122523 0.145233
0.476997 0.050358 0.188707
0.450703 0.072735 0.244071
0.471373 0.112348 0.212654
0.506115 0.066378 0.187033
0.502651 0.118752 0.160377
0.443367 0.087401 0.148782
0.470767 0.125407 0.165222
0.479620 0.126124 0.167857
0.457714 0.054786 0.187178
0.446868 0.090005 0.206572
0.443838 0.070186 0.179110
0.472951 0.124378 0.191978
0.463205 0.063474 0.247604
0.487251 0.125125 0.147878
0.454446 0.057240 0.189368
0.482027 0.103945 0.221220
0.486299 0.116347 0.205349
0.491678 0.084391 0.239095
0.517965 0.099679 0.103101
0.507662 0.107517 0.186407
0.516052 0.095484 0.160368
0.482370 0.082546 0.083066
0.448707 0.082118 0.210450
0.504692 0.116361 0.163768
0.505996 0.118003 0.118354
0.513073 0.088180 0.087344
0.486783 0.060896 0.114432
0.498634 0.104013 0.208051
0.504065 0.110553 0.194640
0.442239 0.090927 0.157022
0.474512 0.088188 0.082350
0.448575 0.081277 0.232792
0.465867 0.102413 0.081980
0.509187 0.112093 0.142430
0.454932 0.108051 0.206018
0.454928 0.073507 0.127476
0.441925 0.077653 0.192827
0.481000 0.125337 0.141005
0.486130 0.099512 0.230907
0.443895 0.088232 0.144471
0.468653 0.121681 0.121416
0.455248 0.074711 0.123235
0.500241 0.076065 0.209600
0.487206 0.124736 0.088774
0.498822 0.062417 0.131942
0.459672 0.069845 0.218322
0.508436 0.070203 0.129839
0.489670 0.059559 0.202584
0.482446 0.064738 0.214861
0.509247 0.076668 0.198884
0.474878 0.124679 0.143110
0.478118 0.063893 0.245935
0.449182 0.113724 0.188829
0.447061 0.099605 0.202858
0.502024 0.111617 0.087209
0.446126 0.109192 0.178448
0.454323 0.108996 0.204204
0.514925 0.080125 0.162393
0.493416 0.107715 0.210410
0.457773 0.061494 0.145527
0.492348 0.065008 0.091958
0.472114 0.106458 0.235330
0.464885 0.055430 0.158143
0.471069 0.067758 0.249539
0.445581 0.083560 0.141820
0.497420 0.123669 0.103970
0.489368 0.055611 0.196548
0.446935 0.072782 0.152426
0.449084 0.072007 0.142466
0.493340 0.109872 0.085999
0.452108 0.116199 0.184879
0.466401 0.062275 0.210121
0.451568 0.114393 0.161468
0.486437 0.054720 0.197089
0.492184 0.123795 0.143371
0.484703 0.060507 0.116328
0.512404 0.087639 0.087230
0.439372 0.093227 0.182129
0.454599 0.114573 0.198116
0.496870 0.060644 0.141156
0.468291 0.117534 0.086875
0.482595 0.065564 0.086818
0.483123 0.060363 0.117299
0.482092 0.125435 0.124747
0.465746 0.111894 0.211051
0.473008 0.062805 0.114364
0.509868 0.083656 0.200038
0.456776 0.097450 0.092460
0.504527 0.081842 0.206292
0.471205 0.122884 0.121927
0.443729 0.106725 0.187458
0.442045 0.082325 0.162827
0.496744 0.057134 0.179891
0.503175 0.098267 0.086642
0.470778 0.097962 0.082398
0.509161 0.104839 0.186320
0.448871 0.089029 0.238715
0.455582 0.100899 0.230778
0.488594 0.074432 0.226051
0.446057 0.073862 0.154499
0.489801 0.088001 0.245006
0.469739 0.059448 0.137013
0.439395 0.094310 0.183469
0.448745 0.061569 0.187327
0.468566 0.055826 0.199315
0.486168 0.101960 0.220423
0.457420 0.078532 0.248766
0.477682 0.112671 0.084092
0.462717 0.087845 0.080749
0.452275 0.072655 0.225385
0.504172 0.110413 0.194666
0.516847 0.085493 0.111667
0.453885 0.099740 0.108821
0.469361 0.069455 0.249467
0.440434 0.097087 0.179658
0.474646 0.070499 0.081986
0.465204 0.077738 0.249675
0.453129 0.085243 0.113581
0.499954 0.065017 0.111059
0.446215 0.103862 0.146624
0.470270 0.051310 0.181064
0.475987 0.054114 0.146272
0.439567 0.094924 0.190408
0.493468 0.062357 0.112239
0.454437 0.098602 0.244777
0.455491 0.118615 0.180782
0.442303 0.075416 0.192181
0.455534 0.084799 0.103609
0.474688 0.056240 0.202776
0.449213 0.080089 0.227849
0.460110 0.056262 0.168044
0.494362 0.124643 0.101996
0.462343 0.116819 0.202130
0.453661 0.079128 0.120228
0.454526 0.085909 0.106668
0.510812 0.092493 0.199201
0.465568 0.086903 0.081088
0.515834 0.104884 0.113523
0.456093 0.093728 0.095025
0.460529 0.118308 0.198768
0.456744 0.119527 0.189424
0.454148 0.107244 0.122153
0.451193 0.085787 0.121844
0.494899 0.087326 0.218848
0.444921 0.066695 0.185210
0.492939 0.054882 0.191928
0.516042 0.095711 0.141086
0.451700 0.078432 0.129901
0.492975 0.059787 0.133111
0.454247 0.098745 0.240795
0.459960 0.079605 0.249184
0.496970 0.076185 0.212709
0.507943 0.070919 0.107967
0.450928 0.106775 0.139990
0.472820 0.052858 0.161527
0.513754 0.081363 0.175647
0.449218 0.082379 0.134856
0.498353 0.091878 0.085676
0.489058 0.124972 0.148780
0.445754 0.107544 0.170082
0.480942 0.057567 0.204585
0.499413 0.101106 0.208960
0.475549 0.063970 0.249230
0.457116 0.057163 0.173620
0.444008 0.080963 0.151454
0.495314 0.094428 0.217137
0.447544 0.111967 0.188416
0.449717 0.096679 0.128115
0.440568 0.087486 0.169680
0.480773 0.105719 0.219536
0.480567 0.073381 0.251241
0.477933 0.124110 0.099133
0.456757 0.115490 0.199246
0.484561 0.052768 0.164316
0.462823 0.122719 0.163826
0.501227 0.114691 0.189641
0.514813 0.108492 0.105551
0.494109 0.090209 0.219413
0.454891 0.085338 0.105701
0.455993 0.088695 0.249506
0.463424 0.122478 0.192920
0.511218 0.106994 0.167114
0.450814 0.080239 0.224339
0.451124 0.090604 0.119319
0.495035 0.123023 0.138958
0.475476 0.103300 0.247553
0.474309 0.093950 0.252298
0.459333 0.062494 0.204156
