ply
format ascii 1.0
element vertex 1024
property float x
property float y
property float z
end_header
0.442497 -0.020890 0.026527
0.482062 0.020892 0.105030
0.466825 0.036121 0.074919
0.457635 -0.028909 0.095477
0.474545 0.060159 0.118218
0.456295 -0.042464 0.080579
0.419156 0.057456 0.125805
0.472557 0.012576 0.071756
0.408018 0.014141 0.103921
0.466591 -0.036987 0.068383
0.480167 0.010659 0.089830
0.425633 0.058251 0.136617
0.476946 -0.002739 0.097177
0.475403 0.054043 0.097376
0.433101 0.084977 0.144247
0.429663 0.067706 0.149888
0.430993 0.066263 0.140705
0.444870 0.050586 0.152915
0.467968 0.004859 0.125533
0.465780 -0.008599 0.050641
0.463128 -0.001330 0.050901
0.456550 -0.013670 0.037213
0.418059 0.020927 0.068804
0.465675 0.045977 0.146923
0.461058 0.069103 0.105947
0.415743 -0.034093 0.081052
0.455701 0.084231 0.160364
0.466962 -0.028129 0.082484
0.466453 -0.042382 0.055030
0.411033 0.043685 0.107099
0.484532 0.037665 0.118651
0.434225 -0.009433 0.121525
0.418665 0.048915 0.133106
0.427048 0.066895 0.121357
0.444926 -0.047907 0.056856
0.420583 0.043819 0.083621
0.464200 0.004491 0.128735
0.449067 0.059760 0.164297
0.415036 -0.045219 0.059441
0.433431 -0.041285 0.051476
0.458057 0.085375 0.158742
0.452595 -0.036521 0.042330
0.426412 0.006519 0.048529
0.454076 0.076392 0.169531
0.464187 -0.010397 0.047431
0.461270 0.053457 0.084015
0.473556 0.067191 0.149840
0.464078 0.040632 0.075913
0.418374 0.015465 0.128433
0.439497 -0.002559 0.128703
0.464374 -0.012508 0.046674
0.412564 -0.009473 0.096004
0.457404 0.010367 0.052982
0.429630 0.074823 0.141435
0.481961 0.031862 0.100122
0.484416 0.041415 0.113960
0.419655 0.016149 0.130596
0.444602 0.022909 0.057285
0.411691 0.042748 0.127517
0.483625 0.045297 0.110511
0.468191 0.064674 0.105417
0.428800 -0.020483 0.028418
0.469159 0.067368 0.130545
0.475586 0.003478 0.111653
0.433492 0.043141 0.148014
0.443707 -0.023938 0.106728
0.407874 -0.010373 0.075341
0.472949 0.043127 0.139749
0.477902 0.034869 0.089722
0.440700 0.071242 0.106894
0.434838 0.066304 0.094133
0.476222 -0.003399 0.096457
0.470426 0.062172 0.100897
0.425933 0.064980 0.126134
0.473276 0.065536 0.145063
0.418291 -0.020155 0.096908
0.476559 0.048495 0.132778
0.469967 -0.017142 0.056763
0.447419 -0.034944 0.094691
0.455383 -0.043265 0.080525
0.469444 -0.020516 0.054801
0.468893 -0.000496 0.118832
0.455633 0.090593 0.133735
0.417948 -0.004084 0.047087
0.460012 0.063071 0.091067
0.418280 0.037289 0.079836
0.419725 0.044698 0.136918
0.482369 0.027409 0.101947
0.443281 -0.017156 0.027764
0.425468 0.055997 0.090762
0.434180 0.032372 0.063465
0.437875 -0.054571 0.075687
0.450406 -0.056326 0.065352
0.445273 0.026750 0.149806
0.445156 0.037641 0.066013
0.470995 0.064109 0.131124
0.461221 0.069472 0.169570
0.465903 0.044298 0.146856
0.455904 0.057608 0.084963
0.408124 -0.015342 0.060808
0.446501 -0.055351 0.065032
0.473378 -0.002950 0.069245
0.432163 0.060992 0.145779
0.429663 -0.018897 0.108141
0.427672 -0.022701 0.031215
0.438568 -0.006084 0.035240
0.452650 0.013263 0.142516
0.420752 0.035488 0.140086
0.434593 0.066782 0.159529
0.434370 0.082554 0.137239
0.423004 0.033283 0.070249
0.436630 0.054315 0.082106
0.422829 0.025720 0.141074
0.416190 -0.048578 0.063050
0.470256 0.079437 0.163937
0.441130 -0.015103 0.118035
0.467970 0.013005 0.064689
0.416845 0.042676 0.135221
0.448089 0.015752 0.052519
0.417254 0.057156 0.120068
0.479868 0.020782 0.088620
0.439866 -0.015089 0.117857
0.457407 0.066683 0.094911
0.479962 0.015756 0.113974
0.459899 -0.050308 0.065389
0.450523 -0.003490 0.039855
0.460412 -0.029863 0.034728
0.470963 0.072289 0.135626
0.444493 -0.054773 0.074350
0.423181 0.027836 0.142641
0.423742 0.024312 0.141039
0.420818 0.010965 0.056695
0.469900 0.060447 0.146463
0.458327 0.086200 0.130358
0.457536 -0.014930 0.113230
0.427959 0.066154 0.099896
0.467107 -0.039165 0.059865
0.462624 0.067999 0.105194
0.449546 -0.045374 0.082370
0.418181 0.030821 0.138297
0.422552 -0.052834 0.066698
0.473476 0.061849 0.123792
0.437781 -0.048185 0.058540
0.464201 -0.034717 0.079091
0.476304 0.007598 0.114998
0.447435 0.023111 0.057817
0.434254 0.074687 0.162664
0.424118 0.057101 0.135484
0.455392 0.087021 0.157236
0.470792 0.073759 0.135102
0.449394 -0.011902 0.120379
0.431386 0.021129 0.057962
0.425195 -0.006174 0.039011
0.423837 -0.050149 0.075036
0.414104 0.055728 0.111281
0.477965 0.011558 0.080433
0.416486 0.055868 0.104093
0.461173 -0.025866 0.095471
0.407842 0.023995 0.101292
0.460385 0.077654 0.167219
0.411973 -0.013744 0.048464
0.470711 -0.025215 0.070451
0.471371 0.022990 0.071128
0.457364 0.054908 0.159647
0.412046 0.030682 0.125343
0.442205 0.027713 0.060841
0.414192 -0.021324 0.089615
0.477257 0.019210 0.080013
0.477840 0.020658 0.082210
0.434482 0.046280 0.149040
0.479905 0.028292 0.091493
0.444360 -0.030158 0.036614
0.408336 -0.026058 0.048436
0.473130 0.045738 0.088740
0.449239 -0.048042 0.056184
0.422408 0.063943 0.105452
0.457829 0.049104 0.151657
0.444593 -0.020004 0.027301
0.407956 -0.034162 0.060128
0.436074 -0.039688 0.049138
0.440928 0.029895 0.149726
0.464715 -0.006945 0.116731
0.411483 0.013041 0.114625
0.471744 -0.019235 0.080143
0.410535 0.000279 0.064964
0.442363 -0.008036 0.034127
0.467706 0.066457 0.112496
0.473152 0.076972 0.140633
0.440314 0.077110 0.128891
0.437522 0.007351 0.045434
0.407432 0.019069 0.089827
0.458836 -0.035555 0.086301
0.448612 -0.027498 0.102191
0.451015 0.008491 0.138521
0.460158 0.071495 0.171325
0.440160 0.071247 0.167887
0.469369 0.009663 0.064959
0.461904 0.036821 0.148043
0.413642 -0.017933 0.041536
0.467655 0.064545 0.103428
0.440205 0.065103 0.164423
0.438681 -0.025178 0.105291
0.465787 0.013240 0.062160
0.473080 0.013864 0.128558
0.419028 0.056722 0.126715
0.408969 -0.018732 0.077788
0.431081 -0.055002 0.074387
0.445035 0.026353 0.149569
0.467994 0.076841 0.166969
0.409046 -0.009752 0.084692
0.426370 -0.013480 0.032519
0.413517 0.029994 0.080233
0.471315 0.017525 0.071015
0.432558 0.047637 0.077559
0.446429 -0.049945 0.058894
0.483527 0.031438 0.111113
0.416739 0.008563 0.121410
0.483164 0.030127 0.107744
0.469659 0.043248 0.082966
0.471206 0.063616 0.153792
0.439750 -0.022939 0.107613
0.459750 0.086873 0.156817
0.455396 0.029247 0.149070
0.466872 -0.035342 0.070439
0.476415 0.018086 0.127473
0.431526 0.060384 0.144068
0.435498 0.070148 0.107052
0.412972 -0.026779 0.038673
0.472856 0.078352 0.161307
0.484042 0.037949 0.122816
0.412654 -0.020490 0.040829
0.424074 -0.044834 0.080223
0.418351 0.027177 0.071042
0.451710 0.073895 0.113926
0.421924 -0.037777 0.049628
0.457930 0.094438 0.138429
0.419665 -0.012994 0.037844
0.473892 -0.001684 0.071097
0.476464 -0.002640 0.100833
0.446862 0.048125 0.075163
0.459907 0.074209 0.123989
0.481199 0.024213 0.095126
0.481319 0.015884 0.100214
0.465218 -0.022532 0.043773
0.421096 0.063020 0.108155
0.439951 0.074163 0.119797
0.480705 0.014106 0.106408
0.451607 0.072139 0.107804
0.433482 -0.004993 0.036597
0.445434 -0.044213 0.085388
0.419122 0.055465 0.128911
0.442464 0.018199 0.146859
0.461187 0.029612 0.065361
0.473114 0.068680 0.153234
0.473994 0.071834 0.141199
0.429389 0.032664 0.146539
0.419325 -0.052200 0.067684
0.448082 -0.057339 0.066952
0.414003 -0.001766 0.054878
0.475331 0.007629 0.117371
0.461308 0.017286 0.143085
0.446733 0.058567 0.084221
0.463233 0.011256 0.058283
0.483351 0.030475 0.109751
0.468054 0.040520 0.079326
0.440208 0.085160 0.161459
0.407807 -0.026917 0.051601
0.435952 0.011819 0.139731
0.411005 0.005384 0.068465
0.432966 0.063169 0.092152
0.476141 0.003456 0.110175
0.447449 0.009299 0.139578
0.445606 0.074616 0.116013
0.458214 -0.000051 0.128226
0.468815 -0.031355 0.068978
0.475050 -0.003264 0.076435
0.428598 0.063625 0.095623
0.479967 0.052663 0.114833
0.410640 -0.007752 0.092139
0.436217 -0.045312 0.055556
0.459274 -0.047324 0.053388
0.444731 0.016642 0.145859
0.445807 0.019599 0.054921
0.449097 0.095503 0.148464
0.409291 0.020081 0.111548
0.428632 -0.053088 0.075138
0.449598 0.075192 0.119379
0.410126 0.004943 0.106507
0.435144 0.077674 0.165438
0.411870 0.050765 0.114344
0.407926 -0.006284 0.075566
0.414989 0.037406 0.134668
0.455747 0.088902 0.155056
0.433258 0.025258 0.147130
0.439008 0.014712 0.143134
0.456791 0.084547 0.159855
0.474094 0.081797 0.157457
0.475460 -0.002803 0.078867
0.410548 0.020852 0.079738
0.425497 -0.026714 0.036258
0.443000 0.045605 0.072936
0.461428 -0.002258 0.048523
0.469843 0.070724 0.162317
0.464427 0.015216 0.061858
0.452242 -0.047367 0.054832
0.456317 0.097050 0.145717
0.466438 0.024262 0.067187
0.420886 -0.015098 0.104389
0.418594 -0.010575 0.040942
0.439432 -0.020067 0.026439
0.455307 -0.019845 0.107328
0.474116 -0.006447 0.095231
0.462227 -0.049441 0.056942
0.468257 -0.027606 0.050563
0.415637 0.027264 0.131742
0.444996 -0.009900 0.033378
0.460592 0.070189 0.110357
0.413261 -0.015295 0.044521
0.454254 -0.014144 0.035128
0.429602 0.017981 0.056193
0.467680 -0.037393 0.059930
0.433989 0.031703 0.148211
0.426815 0.060588 0.136134
0.473689 0.066918 0.143711
0.462108 -0.018835 0.102839
0.475932 0.011056 0.077799
0.469046 -0.032331 0.061814
0.441507 -0.010988 0.031858
0.431882 0.048960 0.147165
0.447993 0.078336 0.168152
0.411607 0.011449 0.072623
0.434420 -0.053769 0.065547
0.410193 -0.026693 0.075767
0.411915 0.008134 0.112637
0.466031 0.060009 0.158405
0.447910 0.098566 0.143693
0.471152 -0.012222 0.061032
0.407319 0.018460 0.089905
0.428957 0.071087 0.145907
0.448035 0.097691 0.142253
0.412421 -0.043052 0.067454
0.454938 0.095668 0.147474
0.423669 0.064240 0.110532
0.418869 0.044853 0.087079
0.439920 -0.015735 0.115874
0.458970 0.081982 0.162480
0.435747 -0.003155 0.127283
0.428013 -0.000377 0.125878
0.460802 0.073009 0.121585
0.437292 -0.003713 0.127240
0.408971 -0.005642 0.065378
0.412394 -0.027858 0.080453
0.442238 0.084511 0.161904
0.429807 -0.048458 0.060361
0.471070 0.017282 0.134939
0.449738 0.070929 0.103882
0.432662 0.062743 0.150138
0.433969 0.090057 0.150508
0.413787 -0.032444 0.045043
0.417791 -0.046753 0.060681
0.413002 -0.031157 0.078846
0.465199 0.069713 0.118492
0.406903 0.010124 0.096509
0.432230 0.080155 0.159502
0.463850 0.086990 0.134331
0.441806 0.091958 0.153503
0.455349 0.088798 0.132024
0.473353 0.059903 0.100953
0.483549 0.031189 0.116979
0.409194 -0.013182 0.057106
0.422740 0.036214 0.073426
0.453688 -0.036823 0.089467
0.478347 0.032370 0.133813
0.409420 0.003130 0.097005
0.469477 0.048742 0.143517
0.469798 0.015374 0.134434
0.422566 0.063537 0.118088
0.446757 0.007987 0.138438
0.460413 -0.050999 0.057290
0.466752 0.089062 0.153423
0.468722 -0.003471 0.115883
0.430999 0.047640 0.078382
0.420438 -0.040053 0.081495
0.465622 -0.036320 0.073040
0.444122 0.004674 0.135480
0.472633 -0.016457 0.080732
0.458042 -0.011048 0.117761
0.446346 0.072079 0.106566
0.429367 -0.042398 0.085787
0.464812 -0.032095 0.081630
0.418215 0.022629 0.070009
0.458872 0.061570 0.164744
0.482503 0.037222 0.103748
0.474439 0.073417 0.146516
0.443539 0.064933 0.090057
0.432353 0.040671 0.071114
0.407673 -0.027196 0.062797
0.442270 0.084089 0.129774
0.466861 -0.013998 0.102457
0.409339 0.001000 0.070420
0.412560 0.048012 0.123864
0.469506 0.066429 0.121317
0.429167 0.063302 0.094842
0.409127 0.021918 0.111501
0.416903 0.011635 0.123747
0.424165 0.028038 0.067171
0.484174 0.037913 0.113127
0.445385 -0.054827 0.073967
0.476709 0.022778 0.132365
0.460759 -0.023379 0.036286
0.412823 -0.025699 0.083247
0.443020 0.076584 0.126303
0.465361 -0.006804 0.116227
0.473598 -0.005623 0.105140
0.438762 0.002229 0.041457
0.418483 0.000341 0.050185
0.470818 0.064928 0.137941
0.465273 -0.043866 0.051550
0.462754 0.053159 0.084657
0.480532 0.012586 0.104580
0.438627 0.058276 0.158509
0.471632 -0.021687 0.071309
0.435046 0.075775 0.133576
0.420368 0.061619 0.113872
0.459326 0.066925 0.097135
0.415752 -0.006596 0.104742
0.482267 0.024827 0.115938
0.431976 -0.002625 0.038790
0.438734 0.020871 0.147893
0.442568 0.055522 0.155834
0.444758 0.036777 0.065245
0.466093 0.030939 0.070450
0.429566 -0.026355 0.101193
0.430728 -0.006726 0.035999
0.416634 -0.044542 0.072841
0.443707 -0.032054 0.098508
0.480106 0.010008 0.102686
0.450036 0.094243 0.137659
0.427344 0.011689 0.052216
0.471223 0.080824 0.138657
0.465234 -0.019056 0.098510
0.413694 -0.005778 0.051929
0.483223 0.032771 0.107058
0.441878 -0.057795 0.068668
0.441155 0.070805 0.103837
0.460698 -0.011492 0.115570
0.413502 0.010827 0.067342
0.427372 -0.051273 0.076149
0.443550 0.027681 0.149969
0.474858 0.009608 0.120703
0.434920 0.067956 0.097663
0.456083 0.098073 0.142026
0.434339 -0.013925 0.029550
0.438045 0.050555 0.150561
0.445770 -0.039064 0.046567
0.474116 0.038099 0.138493
0.456455 -0.050148 0.070884
0.436664 0.085378 0.161726
0.459133 0.029864 0.148062
0.463751 0.057659 0.088800
0.473215 0.030786 0.140102
0.417094 0.056013 0.122150
0.427331 0.043282 0.144657
0.442711 -0.046442 0.083656
0.444669 0.002252 0.041957
0.454476 0.086718 0.157708
0.460776 0.093214 0.138461
0.419197 -0.000061 0.049037
0.426337 0.037281 0.071402
0.422409 0.044144 0.139673
0.473293 0.007867 0.121563
0.477794 0.044851 0.095332
0.429725 0.069311 0.146232
0.469356 -0.013025 0.099139
0.449081 0.059577 0.164165
0.481277 0.015541 0.100535
0.449275 0.092098 0.135567
0.460910 0.005323 0.131846
0.409096 0.032396 0.111520
0.439448 -0.030888 0.099755
0.473454 0.042720 0.087110
0.433922 -0.020000 0.026887
0.431968 0.049820 0.146970
0.411247 0.043941 0.106183
0.472229 -0.018907 0.076261
0.465573 0.044150 0.147086
0.448042 -0.055617 0.065032
0.459060 0.078178 0.127239
0.459784 -0.029229 0.092975
0.468537 -0.015098 0.097988
0.430488 0.037930 0.069441
0.452700 0.011708 0.141101
0.477250 0.047427 0.095925
0.407378 -0.029632 0.053303
0.481313 0.050356 0.115013
0.438685 -0.015044 0.028502
0.473164 0.073260 0.138177
0.415411 0.052169 0.102230
0.417704 0.040891 0.084575
0.472692 0.007329 0.070036
0.467385 -0.038011 0.061017
0.477528 0.007089 0.082654
0.456387 0.008593 0.137175
0.454630 -0.026017 0.030100
0.480794 0.036370 0.097625
0.440741 0.075001 0.125000
0.427652 -0.004606 0.038906
0.410211 0.024400 0.116683
0.445602 0.092498 0.137289
0.466822 0.071758 0.130164
0.429845 0.074348 0.150240
0.467912 -0.029502 0.049374
0.480273 0.008970 0.095869
0.467705 -0.007825 0.054198
0.462805 -0.013961 0.108639
0.467122 0.062932 0.096406
0.433952 -0.000695 0.128687
0.435669 -0.031475 0.098619
0.471946 0.078072 0.163394
0.465793 -0.012936 0.105888
0.448002 0.089883 0.133277
0.408197 -0.021536 0.054275
0.472322 0.044353 0.086767
0.471855 -0.002000 0.112879
0.417879 0.049902 0.131298
0.464007 -0.037318 0.075670
0.435079 0.038340 0.149134
0.428968 0.010675 0.135189
0.465147 -0.004883 0.118419
0.470589 0.064540 0.135438
0.458152 -0.007451 0.121180
0.418689 0.012926 0.060820
0.442157 0.019890 0.148031
0.472733 -0.004122 0.108818
0.471092 0.008799 0.125915
0.476589 0.054345 0.127485
0.443975 0.022211 0.056705
0.442330 -0.029618 0.036387
0.461003 0.020692 0.062292
0.441213 0.012003 0.048816
0.453111 0.004640 0.134586
0.465568 0.043505 0.079288
0.469139 0.062941 0.100113
0.433050 0.084936 0.144400
0.436928 0.071998 0.113941
0.467968 -0.033866 0.050985
0.437011 0.029375 0.149099
0.470250 0.052453 0.142024
0.438219 0.079781 0.131406
0.457215 0.032079 0.148801
0.425832 0.026594 0.065562
0.480138 0.040806 0.097996
0.415904 -0.020153 0.093526
0.456277 0.037813 0.068992
0.425438 -0.018617 0.105532
0.445897 0.081252 0.165106
0.447960 0.079290 0.126752
0.435633 0.052568 0.149177
0.463175 -0.007849 0.047405
0.412025 0.051712 0.117185
0.457307 0.067110 0.169297
0.469071 0.007360 0.126899
0.471380 0.063259 0.112760
0.431698 0.076204 0.157404
0.459952 -0.035218 0.039372
0.414678 -0.040880 0.073215
0.470934 0.045653 0.142241
0.438759 -0.027943 0.035146
0.441935 -0.039533 0.047838
0.473536 -0.005567 0.105353
0.438401 0.017898 0.053503
0.407448 0.009280 0.099520
0.481244 0.034033 0.098079
0.424652 -0.016256 0.030877
0.415656 -0.021944 0.091603
0.472164 -0.018187 0.067711
0.429968 -0.012685 0.116951
0.430551 0.068707 0.111560
0.412527 -0.016950 0.044524
0.436592 0.058021 0.151880
0.412563 -0.034797 0.047970
0.481438 0.050495 0.113626
0.440466 -0.000469 0.130653
0.414412 0.017225 0.071478
0.469541 -0.029691 0.059334
0.410233 0.013352 0.111560
0.476464 0.003315 0.109066
0.418996 0.003726 0.120936
0.467760 -0.036148 0.051625
0.464008 0.033367 0.146232
0.409921 0.039978 0.114267
0.442702 -0.056069 0.066580
0.428284 -0.029558 0.097491
0.451837 -0.024140 0.104509
0.421952 -0.008287 0.115014
0.470606 -0.022811 0.078676
0.465091 0.028841 0.067979
0.407519 -0.024264 0.061883
0.429329 -0.005613 0.122453
0.421580 0.026724 0.140337
0.408413 -0.009739 0.064392
0.481210 0.019305 0.095126
0.409947 0.016721 0.081694
0.455327 0.012882 0.141496
0.453835 0.000413 0.044199
0.470903 -0.016374 0.060016
0.456061 -0.040878 0.082751
0.469959 0.062328 0.099832
0.467662 0.002024 0.122924
0.435158 0.060480 0.156589
0.424888 -0.052614 0.073698
0.463492 0.085508 0.132719
0.461518 -0.050325 0.057445
0.450053 0.032842 0.150323
0.416411 -0.027025 0.088361
0.474926 0.054137 0.133461
0.421668 0.037190 0.075508
0.434014 0.014709 0.051841
0.425845 0.033575 0.144415
0.465621 -0.013465 0.048178
0.475336 0.058963 0.120224
0.410798 -0.011726 0.053102
0.437302 -0.021060 0.109038
0.418914 0.011018 0.058863
0.420893 -0.049292 0.062991
0.427690 0.015337 0.137880
0.468659 -0.029538 0.074161
0.449731 0.080291 0.165683
0.407722 0.014277 0.102418
0.418431 -0.046548 0.073266
0.482378 0.023367 0.105121
0.473954 0.054068 0.135425
0.470110 -0.025935 0.059361
0.416661 0.030468 0.074985
0.438098 0.080485 0.167129
0.427908 0.018348 0.140332
0.447476 0.030575 0.062036
0.437552 0.059799 0.086856
0.483307 0.038652 0.124820
0.453019 0.059227 0.085512
0.469251 0.085261 0.157416
0.435082 -0.017467 0.111874
0.436888 0.040211 0.149577
0.477286 0.013004 0.078783
0.439911 0.091722 0.140790
0.459925 0.090128 0.153103
0.448917 0.008878 0.047808
0.453932 -0.033942 0.039105
0.479533 0.052683 0.120698
0.454148 0.071593 0.107491
0.470333 0.062369 0.154380
0.432046 0.020355 0.057055
0.418040 0.056778 0.122525
0.416881 0.043515 0.134968
0.457233 -0.031439 0.092865
0.414851 -0.009935 0.100254
0.463546 0.061159 0.091402
0.443830 -0.012955 0.120054
0.459945 0.061115 0.089454
0.431078 -0.018633 0.109134
0.457618 -0.053176 0.063219
0.414531 -0.032357 0.080617
0.458998 0.057859 0.161564
0.409861 -0.016022 0.083388
0.419381 0.034331 0.075239
0.456692 0.047457 0.151697
0.465239 0.048660 0.082924
0.428666 0.013079 0.052632
0.437176 0.093386 0.152580
0.460952 0.047252 0.078929
0.465569 -0.039882 0.066961
0.430979 -0.017129 0.028307
0.431372 0.040480 0.147410
0.408265 -0.024712 0.050811
0.461815 0.022344 0.063931
0.414670 -0.019619 0.091909
0.455739 0.046181 0.151744
0.446074 0.073463 0.112961
0.426511 0.054567 0.140606
0.449529 0.090489 0.154107
0.431936 -0.037774 0.047733
0.464062 0.083791 0.159740
0.454058 0.085638 0.158995
0.407731 0.021365 0.102439
0.423345 -0.026195 0.036068
0.423140 0.050210 0.138550
0.411699 -0.012757 0.049960
0.468913 -0.011577 0.055253
0.470674 0.091017 0.150160
0.409281 0.034203 0.103140
0.471687 0.055073 0.138998
0.453054 0.069798 0.171837
0.438803 -0.050726 0.061243
0.437463 -0.000842 0.129706
0.437990 -0.034697 0.043054
0.419659 0.046266 0.087456
0.421866 0.018667 0.134984
0.413825 0.054185 0.116213
0.421386 0.026335 0.139834
0.467778 -0.019571 0.093324
0.459243 -0.050076 0.056510
0.430789 -0.056261 0.069053
0.438121 0.051340 0.078888
0.420923 0.023124 0.067204
0.435621 0.049657 0.149338
0.429459 0.055229 0.143633
0.441913 0.048858 0.075904
0.419350 -0.001178 0.117740
0.417603 -0.013274 0.101869
0.445765 -0.003017 0.038439
0.460995 -0.016197 0.040292
0.478653 0.009893 0.110761
0.443218 -0.037895 0.045714
0.410527 0.029840 0.088417
0.437224 0.011892 0.140250
0.428211 0.061185 0.138629
0.456621 0.049850 0.078880
0.472024 -0.019825 0.069745
0.467655 -0.037677 0.059015
0.431539 -0.056634 0.069331
0.436891 0.020898 0.147355
0.471475 -0.022163 0.067964
0.415306 0.016194 0.124212
0.450199 0.050680 0.153610
0.415406 0.051363 0.126496
0.422624 0.000101 0.045905
0.471928 0.008511 0.124430
0.414551 0.046296 0.129762
0.468423 -0.025918 0.051111
0.457826 0.001679 0.130060
0.459244 0.010500 0.054363
0.467857 0.041897 0.080139
0.433815 -0.032774 0.096852
0.470855 0.091233 0.148404
0.418641 0.050439 0.093578
0.455555 0.074734 0.171225
0.437991 0.072002 0.166316
0.464883 -0.032049 0.081550
0.460070 0.062862 0.090926
0.415305 -0.005572 0.049387
0.431925 0.083601 0.147118
0.415078 0.055251 0.120047
0.482229 0.048664 0.115543
0.447834 0.007197 0.046281
0.413614 0.019743 0.075153
0.483443 0.044843 0.109658
0.417064 0.049903 0.130296
0.470553 -0.015830 0.058781
0.418077 0.013526 0.126697
0.418473 0.048414 0.091609
0.417574 0.040732 0.084606
0.462849 -0.018017 0.041821
0.411469 -0.035477 0.048952
0.471604 -0.019780 0.079718
0.451947 0.073396 0.113004
0.462139 -0.020281 0.039713
0.425074 0.055688 0.090835
0.416930 -0.013644 0.040336
0.456566 -0.023215 0.102802
0.447235 -0.048560 0.079983
0.432722 -0.048584 0.059955
0.459289 0.064177 0.166328
0.440652 0.011875 0.141161
0.426214 0.041954 0.143723
0.462330 -0.033231 0.037187
0.460503 -0.051465 0.057983
0.414302 -0.009827 0.099330
0.453465 0.014746 0.143684
0.422774 -0.043069 0.080875
0.444419 0.074142 0.115603
0.435499 -0.014518 0.117111
0.419899 -0.022470 0.096840
0.464581 0.082176 0.161513
0.464368 -0.029677 0.085911
0.469181 -0.019228 0.054103
0.443036 0.070899 0.103399
0.420400 0.062391 0.106933
0.409029 0.022733 0.084898
0.471474 0.064891 0.141003
0.443050 0.046722 0.073917
0.438178 -0.046178 0.056170
0.462984 0.035586 0.071244
0.434815 0.088788 0.145487
0.439628 0.070732 0.104697
0.473540 -0.010189 0.090189
0.409679 -0.038680 0.064079
0.445831 0.051896 0.153727
0.411695 0.001337 0.062654
0.413726 -0.000148 0.056813
0.429307 0.015649 0.054426
0.480505 0.046201 0.125003
0.441631 -0.002621 0.128964
0.475060 0.057614 0.128904
0.423021 0.011955 0.055476
0.479502 0.006628 0.100554
0.438242 0.013014 0.049722
0.418601 0.000104 0.049846
0.470861 0.051252 0.089965
0.411582 0.049117 0.113400
0.479371 0.053274 0.119868
0.450806 0.010752 0.140578
0.412760 -0.009641 0.096308
0.426649 -0.050284 0.063035
0.427815 0.017804 0.057014
0.462532 0.033304 0.146995
0.410573 -0.006477 0.092847
0.461825 0.070397 0.112925
0.476131 0.001764 0.080506
0.468053 0.038214 0.077648
0.419596 0.019592 0.065609
0.423886 -0.011097 0.112046
0.462930 0.007008 0.132164
0.445376 0.018119 0.147181
0.441660 0.071018 0.104789
0.440214 0.066953 0.165284
0.407483 -0.027322 0.059576
0.445361 -0.023724 0.028989
0.476996 0.057189 0.109995
0.463806 0.030162 0.067834
0.466333 0.063065 0.095326
0.479789 0.015208 0.113909
0.440339 -0.029985 0.037191
0.457582 0.057165 0.085224
0.461539 -0.034466 0.038154
0.440011 0.030828 0.062316
0.466866 0.078806 0.165052
0.434383 0.021036 0.056805
0.429588 -0.048560 0.079838
0.414142 -0.001492 0.110466
0.447075 0.021079 0.148801
0.463330 0.006363 0.055486
0.464926 -0.042381 0.047000
0.418161 0.055535 0.125065
0.465239 0.021188 0.143975
0.463613 -0.017849 0.043031
0.473735 -0.007895 0.093957
0.410772 0.043590 0.122599
0.443090 0.096337 0.143348
0.476119 0.055244 0.129068
0.425707 0.018615 0.138739
0.472578 -0.002999 0.110428
0.440756 0.037926 0.066331
0.480568 0.023135 0.092056
0.481579 0.018131 0.099788
0.415211 0.056442 0.108145
0.453503 0.072553 0.111022
0.429187 0.059557 0.091123
0.484260 0.039039 0.113391
0.434375 0.090495 0.155368
0.476914 -0.000442 0.090213
0.418074 0.059989 0.107299
0.469175 0.053946 0.143476
0.478485 0.038801 0.133090
0.452927 0.060915 0.165442
0.443373 -0.049208 0.080585
0.466047 0.011655 0.134334
0.449436 -0.009980 0.122120
0.423612 -0.033360 0.044248
0.446397 0.074733 0.116058
0.470789 -0.002007 0.114575
0.464327 -0.032735 0.081699
0.429353 -0.054289 0.067091
0.407791 -0.013423 0.072957
0.466602 0.032946 0.144756
0.470560 0.019303 0.137663
0.445708 0.043668 0.071244
0.429180 -0.028687 0.037826
0.449534 0.089473 0.132574
0.443270 -0.024324 0.030101
0.462723 -0.018689 0.102312
0.471014 0.063792 0.113781
0.423096 0.017241 0.059940
0.439002 0.068930 0.099084
0.476018 -0.000263 0.080965
0.466455 0.057758 0.153888
0.440800 0.034619 0.063397
0.469172 -0.003286 0.058749
0.423522 0.014085 0.056875
0.439347 0.036416 0.150341
0.466050 -0.038799 0.046576
0.412173 -0.011242 0.093690
0.435516 0.073258 0.130627
0.419285 -0.020823 0.097573
0.422055 0.041927 0.140142
0.429460 0.054637 0.143793
0.437876 0.022629 0.148327
0.475855 0.005773 0.078539
0.434219 0.078197 0.163976
0.473654 0.056171 0.096587
0.462287 0.068734 0.107247
0.452593 -0.049183 0.056833
0.467409 0.052300 0.087441
0.471633 0.062945 0.111924
0.434702 -0.005807 0.124723
0.470759 0.037900 0.142590
0.414424 0.028427 0.076610
0.407750 -0.032744 0.059552
0.474331 0.070210 0.147019
0.410564 0.032107 0.091379
0.438790 0.085308 0.161495
0.435702 0.032245 0.063121
0.467508 -0.036417 0.064703
0.417106 0.038744 0.135960
0.426953 0.039544 0.073154
0.424385 0.031559 0.067317
0.450820 -0.043244 0.050390
0.475335 0.051088 0.095311
0.426489 0.063882 0.129948
0.469416 0.036502 0.077880
0.416379 0.041406 0.134523
0.474715 -0.006890 0.090316
0.407783 -0.010582 0.073024
0.428813 -0.053792 0.066629
0.452476 0.061840 0.087608
0.476036 0.058047 0.106937
0.412097 -0.003555 0.099416
0.458973 -0.024937 0.033498
0.407564 -0.028862 0.049220
0.407842 -0.008750 0.072711
0.473210 -0.011667 0.069669
0.475491 0.058470 0.124207
0.409909 -0.003411 0.063540
0.444946 0.021999 0.148747
0.440411 -0.010056 0.032412
0.444367 0.030301 0.150043
0.470400 -0.005021 0.060674
0.466624 0.060277 0.092803
0.438277 0.048716 0.076441
0.415516 0.022192 0.128365
0.439335 -0.048662 0.058789
0.438875 -0.027144 0.034205
0.463369 0.010828 0.135588
0.458207 0.092088 0.136210
0.468356 0.080348 0.133364
0.440872 0.056045 0.154964
0.428399 0.041407 0.073973
0.457562 0.065691 0.168126
0.410682 0.014206 0.078505
0.453779 0.062552 0.088482
0.422076 0.062360 0.101487
0.418188 0.056079 0.124181
0.467004 0.050590 0.145873
0.449504 0.093605 0.150570
0.453522 -0.033136 0.038258
0.428775 -0.020858 0.028862
0.439669 0.083018 0.130599
0.470425 0.019258 0.137769
0.430953 -0.040940 0.087884
0.445618 0.002448 0.042301
0.440478 0.086317 0.160104
0.455816 0.058933 0.086022
0.411708 -0.026705 0.039782
0.448741 0.088476 0.156501
0.432212 0.008011 0.047067
0.411006 -0.026012 0.078703
0.456519 0.032234 0.064637
0.410477 0.043526 0.112377
0.406962 0.016253 0.090132
0.455610 0.066857 0.093647
0.408718 -0.020043 0.075594
0.468600 0.090611 0.143222
0.476924 0.045576 0.094237
0.436679 0.068521 0.099128
0.429963 -0.000216 0.041350
0.419098 0.053696 0.130748
0.447477 0.085937 0.129491
0.413226 0.042011 0.095424
0.468172 -0.035541 0.061099
0.478817 0.054569 0.114767
0.427364 0.012738 0.053068
0.431616 0.002383 0.042807
0.453475 0.019589 0.147687
0.427856 -0.022647 0.031117
0.450381 -0.041518 0.086240
0.437217 -0.007389 0.034303
0.479719 0.053544 0.110900
0.479331 0.050139 0.101341
0.455362 0.009938 0.051417
0.434249 0.014762 0.051820
0.452166 0.044951 0.152269
0.426814 0.063172 0.096768
0.415504 0.033163 0.135004
0.446240 -0.022544 0.107844
0.428430 0.020588 0.058996
0.409899 -0.005762 0.090994
0.468038 0.088144 0.140137
0.450588 0.091836 0.152435
0.440077 0.040869 0.150453
0.416120 -0.034774 0.081005
0.458122 0.024011 0.062513
0.408489 0.028709 0.099451
0.438293 0.003528 0.133586
0.433238 0.025150 0.060532
0.432965 -0.044845 0.055649
0.476890 -0.001187 0.092096
0.464311 0.047353 0.081214
0.420610 0.050020 0.136072
0.463889 0.033336 0.146295
0.434926 0.082252 0.164697
0.415156 0.047759 0.097448
0.434884 0.040029 0.069507
0.458843 0.042597 0.150422
0.471881 0.057359 0.095408
0.446105 0.018517 0.054157
0.444598 0.053602 0.079900
0.470645 0.053556 0.141186
0.444451 0.078572 0.168372
0.467441 -0.025041 0.048152
0.477099 0.057047 0.109092
0.408680 0.021750 0.109309
0.477820 0.028523 0.086081
0.473797 0.017633 0.131588
0.452536 -0.046412 0.079239
0.455117 0.045532 0.151813
0.430876 0.001555 0.042404
0.459661 0.093821 0.148944
0.482732 0.047028 0.107997
0.462046 -0.003485 0.122506
0.446973 0.082437 0.127942
0.438541 0.012540 0.049328
0.473121 -0.011792 0.089041
0.473330 0.076059 0.158659
0.464992 0.081244 0.162519
0.425777 0.065262 0.120828
