ply
format ascii 1.0
element vertex 1024
property float x
property float y
property float z
end_header
0.487837 0.092579 0.074189
0.440639 0.009492 0.092704
0.458429 0.020638 0.062207
0.466443 0.047723 0.124962
0.446425 -0.026943 0.072420
0.469326 0.067698 0.125335
0.500896 -0.035099 0.082382
0.453300 0.039046 0.077440
0.514540 0.009047 0.100934
0.460146 0.073949 0.112630
0.444064 0.027448 0.090419
0.493432 -0.043175 0.088590
0.446746 0.030607 0.105474
0.447584 -0.007301 0.063180
0.484966 -0.065994 0.073231
0.488070 -0.059013 0.090070
0.487618 -0.051115 0.085011
0.472854 -0.048738 0.104084
0.452954 0.003757 0.119001
0.462265 0.068281 0.079695
0.464794 0.063063 0.074566
0.472765 0.080926 0.075105
0.507731 0.031479 0.072115
0.452754 -0.039606 0.102477
0.460888 -0.024780 0.058327
0.509555 0.058651 0.121521
0.460974 -0.075748 0.083248
0.458358 0.057605 0.115299
0.461590 0.087459 0.107852
0.510889 -0.012671 0.080758
0.436711 -0.011579 0.089018
0.487092 0.013598 0.128832
0.500808 -0.034913 0.093628
0.493340 -0.037431 0.071960
0.482919 0.088091 0.114331
0.503565 0.005466 0.064637
0.456412 0.001324 0.121591
0.467506 -0.062970 0.104517
0.512404 0.082064 0.115606
0.494784 0.086815 0.106425
0.458766 -0.075115 0.081196
0.476499 0.091956 0.095803
0.501475 0.056777 0.069061
0.461833 -0.077504 0.095261
0.464172 0.071740 0.079004
0.462906 0.001941 0.055534
0.444382 -0.055230 0.088107
0.461018 0.016694 0.059632
0.501932 -0.009281 0.115596
0.481093 0.004105 0.128152
0.464081 0.073717 0.080074
0.511033 0.030949 0.113140
0.470159 0.053315 0.067487
0.488805 -0.057438 0.079158
0.441065 0.005867 0.081253
0.437219 -0.010580 0.083117
0.500447 -0.011246 0.116446
0.482354 0.040803 0.061617
0.508344 -0.027204 0.094919
0.438280 -0.010646 0.077973
0.453889 -0.020895 0.060916
0.501292 0.089838 0.075857
0.450554 -0.041319 0.075455
0.446678 0.015601 0.110459
0.484727 -0.041036 0.107020
0.479203 0.034967 0.129411
0.517637 0.046569 0.100405
0.446214 -0.031810 0.099484
0.446038 0.011303 0.072343
0.481042 -0.028483 0.058426
0.488125 -0.016161 0.053999
0.447542 0.031525 0.105531
0.452115 -0.015697 0.059683
0.494028 -0.039806 0.076609
0.445126 -0.050597 0.086203
0.505375 0.037800 0.121432
0.443205 -0.029897 0.090668
0.457629 0.069710 0.089916
0.476759 0.051516 0.129500
0.470249 0.068199 0.125946
0.458373 0.073366 0.091173
0.452721 0.012369 0.118532
0.463445 -0.060140 0.060890
0.510163 0.064222 0.076493
0.463387 -0.009782 0.053064
0.506288 0.012435 0.067146
0.499447 -0.034874 0.099248
0.440542 0.007491 0.085771
0.486896 0.089244 0.072170
0.497891 -0.007545 0.059981
0.492041 0.029119 0.059168
0.488265 0.077938 0.132137
0.476773 0.087770 0.125960
0.473027 -0.030591 0.119852
0.480813 0.024581 0.056327
0.448711 -0.039447 0.078180
0.454799 -0.072392 0.100090
0.452553 -0.038425 0.103677
0.468110 -0.001933 0.053336
0.518800 0.060705 0.094506
0.480678 0.087059 0.125224
0.452901 0.051271 0.087361
0.486045 -0.051308 0.092249
0.492993 0.029484 0.127313
0.502181 0.089138 0.079427
0.490761 0.075971 0.069072
0.466523 -0.015649 0.124742
0.498241 -0.031048 0.108182
0.482276 -0.065197 0.096873
0.484384 -0.059070 0.070347
0.502526 0.022596 0.063559
0.487605 0.000882 0.054931
0.496198 -0.025147 0.116038
0.510960 0.081693 0.120444
0.446209 -0.074101 0.088430
0.480611 0.020491 0.130406
0.458519 0.043668 0.072691
0.502497 -0.032493 0.099792
0.479411 0.049368 0.063642
0.503327 -0.030775 0.078916
0.444352 0.021615 0.082056
0.481885 0.020516 0.130345
0.465579 -0.015240 0.053037
0.441959 0.006072 0.102570
0.467246 0.084490 0.120978
0.478397 0.071742 0.069548
0.469346 0.093810 0.085381
0.448226 -0.048225 0.075033
0.481803 0.079581 0.131056
0.495676 -0.027689 0.115471
0.495309 -0.024117 0.117021
0.506231 0.047315 0.071425
0.448417 -0.048528 0.091117
0.461130 -0.054503 0.061805
0.464722 0.025228 0.126235
0.494440 -0.020887 0.058283
0.460451 0.081776 0.108604
0.459412 -0.023365 0.058573
0.475913 0.067770 0.129053
0.501022 -0.026822 0.110629
0.504336 0.082291 0.125705
0.446951 -0.032297 0.074895
0.489879 0.086466 0.116029
0.461501 0.064284 0.118134
0.445602 0.010434 0.109547
0.479481 0.040493 0.061668
0.482227 -0.072798 0.093046
0.495059 -0.041687 0.088783
0.461540 -0.075292 0.079108
0.448427 -0.048822 0.073595
0.472126 0.017264 0.129123
0.495470 0.040454 0.064096
0.503724 0.072184 0.072337
0.502249 0.074402 0.129138
0.507298 -0.023529 0.074343
0.447120 0.033678 0.083651
0.505594 -0.018084 0.069362
0.462885 0.045984 0.122493
0.514842 0.004459 0.091829
0.455752 -0.076130 0.092455
0.516099 0.069137 0.084950
0.455711 0.064925 0.104967
0.454414 0.032518 0.069292
0.459736 -0.055647 0.104638
0.508338 -0.017558 0.102496
0.484352 0.034785 0.060498
0.510149 0.043689 0.117703
0.447771 0.028864 0.077684
0.446970 0.026313 0.078021
0.483608 -0.043805 0.105295
0.443958 0.014500 0.078332
0.485154 0.091355 0.087696
0.519869 0.077038 0.094341
0.450750 0.004459 0.063809
0.478688 0.089016 0.113760
0.499476 -0.023990 0.063903
0.460087 -0.045813 0.103678
0.485668 0.091578 0.073928
0.519256 0.073675 0.108156
0.492351 0.087703 0.103545
0.477323 -0.032954 0.117675
0.457153 0.017884 0.122192
0.510107 0.002074 0.108649
0.453708 0.053823 0.106841
0.515827 0.047442 0.085432
0.487109 0.078388 0.069597
0.453691 -0.027387 0.064285
0.445524 -0.054888 0.074721
0.479309 -0.048783 0.068591
0.490692 0.059393 0.065806
0.516376 0.016230 0.087961
0.466182 0.059055 0.123809
0.474785 0.041087 0.128819
0.468580 -0.009638 0.125760
0.455670 -0.075122 0.099792
0.475903 -0.073949 0.098760
0.457141 0.045791 0.075298
0.456514 -0.034664 0.110270
0.515132 0.077202 0.083419
0.454609 -0.019371 0.059726
0.476253 -0.067293 0.101069
0.484356 0.036470 0.129656
0.460924 0.045227 0.070959
0.447475 -0.004068 0.113989
0.500947 -0.035299 0.083540
0.516419 0.050373 0.108222
0.495156 0.078664 0.131959
0.473291 -0.030170 0.120006
0.448210 -0.074814 0.092497
0.515593 0.039284 0.106058
0.503246 0.081953 0.073454
0.511080 0.016605 0.073121
0.454546 0.036221 0.073311
0.492162 0.008379 0.057140
0.481257 0.088041 0.117124
0.438489 -0.001916 0.088752
0.504296 0.000397 0.116208
0.439179 0.001434 0.087526
0.454774 0.010141 0.062040
0.446397 -0.055985 0.093519
0.483048 0.033339 0.129458
0.457243 -0.074543 0.078712
0.462987 -0.030913 0.116963
0.459654 0.071349 0.112743
0.444205 -0.005800 0.109935
0.486845 -0.049681 0.091607
0.486219 -0.028278 0.059624
0.516171 0.085147 0.088184
0.443878 -0.071222 0.087366
0.436808 -0.014907 0.091585
0.516212 0.079348 0.084918
0.501466 0.067035 0.128574
0.507157 0.025692 0.068900
0.469394 -0.034624 0.060506
0.506370 0.084974 0.103186
0.460676 -0.066006 0.060993
0.509421 0.077145 0.076964
0.452202 0.049093 0.087610
0.446885 0.027782 0.107842
0.478138 0.010950 0.054437
0.460293 -0.041690 0.066489
0.442380 0.014599 0.083718
0.441887 0.016340 0.093309
0.463631 0.082587 0.085617
0.500541 -0.025493 0.066449
0.480552 -0.040086 0.064807
0.441943 0.012858 0.098766
0.470088 -0.028908 0.057780
0.495685 0.073842 0.069420
0.479713 0.064433 0.130395
0.500664 -0.036095 0.085927
0.476200 -0.022946 0.124455
0.465010 0.031632 0.061061
0.444488 -0.058778 0.089258
0.444695 -0.051839 0.078897
0.489074 -0.033311 0.114104
0.507450 0.080886 0.126052
0.478950 0.087069 0.127898
0.513337 0.056578 0.080114
0.446350 0.008571 0.111143
0.457802 -0.018068 0.121649
0.477299 -0.002728 0.052612
0.463852 0.049231 0.070016
0.438802 -0.000276 0.088581
0.456743 0.014535 0.061762
0.476286 -0.078381 0.084094
0.520112 0.075210 0.097105
0.483424 -0.013914 0.124864
0.514972 0.041487 0.083900
0.490211 -0.012753 0.055136
0.446264 0.016759 0.109469
0.472022 -0.011238 0.126042
0.475269 -0.037129 0.061669
0.462473 0.004250 0.124971
0.457808 0.069945 0.108690
0.450571 0.046255 0.092260
0.494232 -0.015980 0.057319
0.441432 -0.019032 0.075509
0.513288 0.032536 0.109398
0.491679 0.086663 0.111989
0.468950 0.091401 0.110845
0.474056 -0.020993 0.124839
0.481414 0.044852 0.062469
0.468523 -0.074870 0.067294
0.512492 -0.000472 0.101460
0.497500 0.076646 0.131152
0.470974 -0.039708 0.063250
0.512311 0.013382 0.109418
0.481047 -0.076775 0.092596
0.509296 -0.022694 0.080201
0.517516 0.043695 0.097490
0.504459 -0.028732 0.103469
0.461367 -0.074887 0.076240
0.485256 -0.028541 0.119835
0.480029 -0.018128 0.124786
0.459933 -0.075493 0.082618
0.442962 -0.070542 0.082178
0.449931 0.044170 0.093500
0.514192 0.022803 0.079794
0.503925 0.087874 0.085878
0.482220 0.013979 0.055055
0.466720 0.065317 0.073779
0.446875 -0.067151 0.093904
0.462283 0.044036 0.069352
0.475817 0.089808 0.112203
0.461571 -0.073290 0.063939
0.459676 0.034226 0.065996
0.502035 0.029079 0.122453
0.510169 0.073152 0.077256
0.490886 0.091861 0.073677
0.467550 0.032708 0.126132
0.449789 0.034295 0.107114
0.465705 0.090387 0.114623
0.460034 0.081131 0.093743
0.504208 -0.019779 0.109094
0.484580 0.080386 0.070358
0.460929 -0.028820 0.060453
0.515202 0.073201 0.083436
0.475250 0.082614 0.074203
0.497448 0.043719 0.065377
0.459853 0.080597 0.107290
0.484350 -0.033562 0.115686
0.492272 -0.044273 0.086459
0.444823 -0.050474 0.084253
0.461184 0.035909 0.122049
0.449394 0.035815 0.082394
0.458257 0.075946 0.104674
0.488207 0.081968 0.070353
0.486340 -0.044386 0.102187
0.467995 -0.078237 0.093215
0.513912 0.034417 0.082075
0.492640 0.084689 0.125018
0.515484 0.057250 0.112781
0.509921 0.006841 0.110986
0.451162 -0.057430 0.099541
0.470112 -0.073440 0.061910
0.455993 0.063362 0.088992
0.516488 0.016567 0.088474
0.489104 -0.058344 0.084946
0.470132 -0.071778 0.061607
0.514236 0.074457 0.119417
0.462797 -0.073789 0.066208
0.497743 -0.027872 0.066971
0.504937 0.002072 0.066239
0.482023 0.022425 0.129516
0.457551 -0.075579 0.086158
0.484966 0.005267 0.127858
0.492763 0.003871 0.125258
0.459640 -0.039035 0.065751
0.483438 0.005788 0.128166
0.517416 0.050938 0.090221
0.512871 0.054704 0.116635
0.474232 -0.078125 0.084767
0.497651 0.084672 0.117858
0.448841 -0.011242 0.115753
0.472329 -0.025331 0.056193
0.485121 -0.055676 0.093793
0.483458 -0.073956 0.073521
0.514835 0.084221 0.096592
0.509564 0.082372 0.117427
0.512454 0.058134 0.118010
0.455590 -0.034205 0.065943
0.516389 0.017143 0.099101
0.484471 -0.074225 0.086969
0.455253 -0.057557 0.063547
0.475355 -0.076839 0.073662
0.463908 -0.057698 0.061118
0.449222 -0.014007 0.061265
0.437924 -0.006117 0.092814
0.518054 0.062113 0.090387
0.502458 0.018267 0.063479
0.471027 0.057138 0.127123
0.441521 -0.019840 0.103329
0.513920 0.021605 0.104533
0.449253 -0.038608 0.097955
0.450178 -0.009700 0.116915
0.498146 -0.033119 0.072550
0.472832 -0.009573 0.126307
0.467497 0.091019 0.116115
0.450561 -0.072923 0.074461
0.453201 0.016524 0.118819
0.493637 0.007643 0.057764
0.504911 0.062635 0.126028
0.460669 0.069964 0.115260
0.475771 -0.005378 0.126972
0.452735 0.051613 0.105103
0.463750 0.019320 0.126296
0.475442 -0.028355 0.057285
0.495649 0.061686 0.130148
0.460626 0.060703 0.117817
0.507443 0.029466 0.071629
0.457681 -0.063742 0.102940
0.440124 -0.000344 0.079608
0.443738 -0.056813 0.081203
0.479858 -0.011542 0.051872
0.493049 0.017780 0.058107
0.519206 0.067047 0.104720
0.477196 -0.053916 0.063847
0.456430 0.033356 0.117925
0.516501 0.042808 0.088561
0.507756 -0.027905 0.088517
0.451078 -0.033797 0.070040
0.493741 -0.015139 0.057014
0.512637 -0.001667 0.100063
0.503879 -0.003367 0.115444
0.501719 0.028455 0.065390
0.437579 -0.007658 0.085201
0.480951 0.079971 0.130796
0.443401 -0.012531 0.109640
0.468777 0.088378 0.081538
0.512158 0.051224 0.116842
0.476862 -0.046298 0.067131
0.456556 0.018216 0.121720
0.449373 0.026329 0.113072
0.489889 0.065846 0.066946
0.509288 0.059023 0.075199
0.448243 -0.045080 0.082082
0.463107 0.090943 0.106725
0.461372 0.001776 0.056103
0.442303 0.015214 0.098704
0.478456 -0.058486 0.102354
0.454671 0.062019 0.102844
0.484133 -0.051796 0.072965
0.500750 -0.028878 0.071315
0.463458 -0.016907 0.054225
0.507012 0.022781 0.116593
0.439373 -0.001224 0.096956
0.496952 0.070523 0.069176
0.479786 -0.025777 0.123335
0.474815 -0.054363 0.102439
0.481291 0.025695 0.056488
0.459637 0.027344 0.063172
0.493826 0.039595 0.128310
0.498503 0.075223 0.070467
0.509558 0.071760 0.123870
0.480066 0.046469 0.130055
0.442935 0.018300 0.099406
0.468608 -0.065915 0.061047
0.500142 0.050677 0.067578
0.447583 -0.056120 0.070633
0.458478 0.039522 0.119189
0.513967 0.061409 0.081185
0.439152 0.000197 0.085089
0.484972 0.085612 0.129701
0.480879 -0.025881 0.056709
0.461316 0.021451 0.125040
0.512525 0.038910 0.078950
0.498639 0.074592 0.130528
0.474716 -0.031463 0.119354
0.446487 0.004741 0.111890
0.487696 -0.019878 0.055090
0.462135 -0.071238 0.060746
0.495594 0.085078 0.071404
0.479869 -0.047494 0.102912
0.482930 0.089957 0.100866
0.445229 -0.027451 0.102357
0.470162 0.080025 0.124671
0.479787 -0.079000 0.084295
0.459353 -0.030281 0.115637
0.459940 -0.004215 0.055420
0.446063 -0.023871 0.108943
0.503306 -0.031581 0.081156
0.491171 -0.039108 0.105020
0.482611 0.066990 0.131063
0.483962 0.065917 0.066948
0.462412 -0.075514 0.079696
0.457853 -0.064998 0.061780
0.508689 0.060200 0.074703
0.499052 0.019346 0.061152
0.496526 -0.036349 0.101342
0.447986 0.005133 0.113844
0.445505 0.000500 0.068583
0.488330 -0.057349 0.086449
0.454244 0.035376 0.114872
0.467507 -0.062749 0.104567
0.441903 0.016325 0.093781
0.469587 -0.062996 0.061310
0.459387 -0.001799 0.123198
0.512541 -0.008629 0.092233
0.484175 0.044437 0.130231
0.450616 0.007700 0.064974
0.496330 0.091056 0.074214
0.486262 -0.044805 0.101410
0.510758 -0.012141 0.079950
0.453583 0.056535 0.104004
0.452862 -0.038524 0.103957
0.479148 0.087355 0.125342
0.460787 -0.046807 0.065710
0.464541 0.049964 0.123434
0.455190 0.037543 0.115706
0.495094 0.020698 0.059150
0.466623 -0.013561 0.124968
0.445960 -0.001691 0.067075
0.520413 0.075709 0.100284
0.440103 -0.017532 0.077283
0.491378 0.086937 0.071320
0.445786 -0.050597 0.075876
0.506882 -0.014328 0.070958
0.506378 0.006473 0.067611
0.453387 0.043815 0.080225
0.460053 0.080175 0.108486
0.447401 0.034953 0.088488
0.463355 -0.008287 0.124511
0.475486 0.094259 0.079748
0.442406 0.004647 0.076290
0.479271 -0.044455 0.067576
0.501269 0.071414 0.070964
0.511046 -0.007088 0.101573
0.473078 -0.064827 0.062342
0.452864 -0.044127 0.072039
0.487777 -0.063664 0.085321
0.460511 0.083245 0.094394
0.443416 0.024078 0.095669
0.460008 0.065268 0.081366
0.459892 0.028413 0.122197
0.455813 -0.013113 0.056321
0.486592 0.002451 0.127039
0.488051 0.045379 0.130119
0.444594 -0.072661 0.089004
0.457161 0.030014 0.119454
0.471093 -0.059920 0.061522
0.519410 0.069681 0.094822
0.451755 0.006784 0.063585
0.450345 0.018030 0.115567
0.501746 -0.034281 0.091734
0.462044 0.068541 0.117830
0.483100 -0.038565 0.111270
0.490814 -0.010315 0.123088
0.456541 0.015294 0.121741
0.448708 -0.042977 0.080730
0.463279 0.014397 0.125857
0.507943 0.042777 0.072795
0.476377 -0.024964 0.123980
0.449873 0.022528 0.114426
0.449761 0.001103 0.116139
0.443597 -0.029831 0.082790
0.483041 0.041649 0.061789
0.487190 0.091009 0.087249
0.465586 0.039816 0.065720
0.486647 0.054076 0.064364
0.466905 -0.003992 0.125932
0.459186 0.012392 0.059633
0.453459 -0.015723 0.058657
0.485003 -0.066084 0.073366
0.484132 -0.034524 0.062717
0.460357 0.084943 0.098723
0.481287 -0.032446 0.117856
0.448577 -0.039896 0.094149
0.481128 -0.052589 0.068365
0.461168 -0.032448 0.114568
0.500227 0.030740 0.065320
0.442971 0.001380 0.073248
0.508067 0.040133 0.119321
0.469462 0.023111 0.057580
0.497439 0.030914 0.125602
0.470330 -0.078065 0.089130
0.471869 -0.048043 0.065142
0.482374 -0.047985 0.100618
0.465151 0.069991 0.077133
0.508867 -0.025426 0.081362
0.458749 -0.070926 0.101885
0.451699 0.001168 0.117973
0.450048 -0.025179 0.066659
0.485243 -0.070085 0.088568
0.469435 0.093866 0.092483
0.511427 0.068903 0.121479
0.447958 -0.035497 0.099347
0.490840 0.090546 0.085363
0.486636 0.089024 0.102260
0.449414 0.026129 0.113175
0.488940 0.046460 0.063196
0.515575 0.015502 0.101694
0.441943 0.005894 0.078315
0.505143 0.084883 0.074537
0.508515 0.042733 0.119404
0.454435 0.062419 0.097818
0.491795 0.018829 0.128469
0.490743 -0.031064 0.063944
0.515952 0.074239 0.084717
0.481103 -0.053538 0.098272
0.515809 0.083506 0.100352
0.440106 -0.016582 0.076256
0.479922 0.001342 0.127826
0.511157 0.031659 0.076847
0.457964 0.076080 0.101033
0.511634 0.004053 0.106456
0.446047 0.017703 0.108825
0.502151 0.004132 0.119396
0.460532 0.085963 0.100866
0.454629 -0.030862 0.111548
0.511374 -0.015637 0.088329
0.484325 0.086087 0.126985
0.495485 0.044375 0.128328
0.471318 0.037386 0.127667
0.499903 0.016734 0.124320
0.455021 0.057198 0.108608
0.460889 0.030497 0.063163
0.519410 0.065772 0.101929
0.491835 0.009994 0.126845
0.497497 -0.025360 0.114865
0.518112 0.054344 0.092666
0.442428 0.017853 0.087391
0.514657 0.024039 0.084211
0.463957 -0.014430 0.124211
0.474649 0.066177 0.069322
0.456385 0.066851 0.091442
0.469339 0.065011 0.125594
0.452677 -0.015044 0.058887
0.453536 0.007556 0.119415
0.482063 -0.058787 0.099618
0.501357 0.077114 0.130043
0.455777 -0.055403 0.063610
0.466374 0.090543 0.115655
0.468147 -0.034644 0.115381
0.508126 0.048574 0.121025
0.444699 -0.034272 0.086983
0.503319 0.015986 0.064180
0.493500 0.049472 0.064717
0.492789 -0.032608 0.112206
0.462710 0.073328 0.081719
0.445465 -0.027582 0.074600
0.516813 0.064254 0.086565
0.485330 0.030843 0.129122
0.507923 0.045517 0.072918
0.506291 0.082575 0.120691
0.491780 -0.015509 0.121443
0.457459 0.064869 0.110763
0.466471 -0.077560 0.090028
0.514973 0.010053 0.099854
0.507752 0.072914 0.125558
0.440287 0.007808 0.090894
0.445485 -0.035765 0.088384
0.457350 0.073615 0.098208
0.508433 0.020443 0.069132
0.477916 -0.079668 0.091453
0.491298 -0.019314 0.120798
0.478958 0.032407 0.058867
0.486179 -0.006220 0.053916
0.437345 -0.016922 0.092421
0.470911 -0.003639 0.052639
0.447747 -0.073184 0.079813
0.487234 0.026177 0.128423
0.481236 -0.039994 0.110067
0.447932 0.033896 0.081515
0.478427 -0.067362 0.065538
0.457375 -0.073922 0.073812
0.479108 0.057497 0.065630
0.475438 0.092752 0.091669
0.441318 -0.023447 0.079393
0.467594 -0.028116 0.057848
0.447226 -0.055664 0.094887
0.494907 0.041693 0.064040
0.502320 -0.032293 0.080781
0.502475 -0.032858 0.098995
0.467117 0.051313 0.125151
0.508367 0.028268 0.116173
0.459860 -0.008489 0.054530
0.477709 0.017773 0.129990
0.463627 -0.007288 0.053465
0.491489 0.028679 0.127696
0.469754 0.087830 0.121811
0.510781 0.057729 0.119998
0.457897 -0.058904 0.103609
0.514977 0.044475 0.109847
0.505656 0.017904 0.066263
0.461235 -0.044840 0.104998
0.459113 0.006242 0.058195
0.498770 0.049548 0.066743
0.480033 -0.077457 0.072228
0.463770 0.009817 0.056835
0.461330 0.076847 0.113912
0.499094 0.087866 0.073159
0.486926 -0.038987 0.108724
0.519703 0.074372 0.094907
0.464605 0.037564 0.065523
0.509439 0.040887 0.117917
0.462195 -0.044103 0.106034
0.475101 -0.034056 0.060489
0.492230 -0.043636 0.093938
0.467627 -0.075716 0.074754
0.496579 0.087160 0.101402
0.452714 -0.074343 0.082723
0.462722 -0.075788 0.081377
0.514877 0.005339 0.094562
0.506079 0.087504 0.085478
0.495830 -0.039478 0.096019
0.516220 0.067347 0.085214
0.458753 0.067064 0.084808
0.446936 -0.071485 0.070634
0.513115 -0.003572 0.085332
0.447397 -0.039268 0.090112
0.462714 -0.074929 0.101775
0.488640 0.086217 0.119664
0.483005 0.002062 0.127637
0.490951 0.089074 0.095686
0.504099 0.000917 0.065388
0.497808 -0.016012 0.117344
0.507135 -0.026201 0.078773
0.497742 -0.024743 0.114834
0.456434 0.043923 0.116013
0.468723 0.090897 0.114970
0.495958 0.083449 0.129392
0.486455 0.005366 0.054952
0.505002 0.031437 0.069262
0.482406 -0.046176 0.102904
0.489005 -0.046100 0.095288
0.482987 0.009527 0.054638
0.502155 0.009790 0.120937
0.505517 0.029492 0.119595
0.483260 0.072114 0.068510
0.468083 0.080653 0.078797
0.443631 0.012250 0.104905
0.485536 0.089618 0.099562
0.513297 0.010380 0.078802
0.482108 -0.014250 0.125085
0.490642 -0.046418 0.087588
0.468056 0.007795 0.055086
0.454405 0.061980 0.100396
0.459967 0.081466 0.106900
0.495190 0.083547 0.129816
0.481671 -0.025537 0.123056
0.455145 0.064813 0.100998
0.505371 -0.006859 0.112422
0.467483 -0.048905 0.104192
0.504638 -0.031866 0.087598
0.505567 0.062691 0.072332
0.449071 0.002465 0.115329
0.505246 -0.031005 0.093595
0.459797 0.079616 0.092832
0.462668 0.001707 0.124908
0.468197 0.052341 0.068202
0.456847 0.013002 0.061279
0.490076 0.047413 0.130022
0.446917 -0.070307 0.069302
0.504493 -0.006488 0.066364
0.460223 -0.077552 0.097544
0.478199 -0.073448 0.097271
0.460561 0.060738 0.117726
0.463344 -0.009533 0.053124
0.512597 0.063291 0.079266
0.485886 -0.067311 0.076221
0.505518 -0.029666 0.080443
0.439162 -0.016734 0.078852
0.480349 0.059664 0.065936
0.511580 0.027191 0.077432
0.438547 -0.009725 0.077759
0.502651 -0.033599 0.091115
0.456842 0.067382 0.090236
0.502413 -0.006726 0.115915
0.504867 -0.003692 0.066587
0.506506 0.006546 0.067758
0.466117 0.080864 0.081072
0.516815 0.083141 0.101568
0.453893 0.054490 0.106975
0.469250 -0.033588 0.060258
0.467047 0.083880 0.081411
0.498280 -0.007425 0.060282
0.511918 0.075509 0.079241
0.466758 0.038410 0.125597
0.478475 0.071480 0.129982
0.494788 0.085284 0.117530
0.457087 -0.066617 0.102013
0.478611 -0.014652 0.125519
0.492386 -0.037618 0.105456
0.467247 0.094360 0.089426
0.467348 0.090819 0.116917
0.508998 0.028842 0.115511
0.465585 -0.017439 0.124361
0.502679 0.065278 0.127753
0.476495 -0.036602 0.061814
0.486296 0.020354 0.129655
0.503809 0.039511 0.123035
0.452052 -0.074552 0.085077
0.460640 0.055878 0.118859
0.458684 0.073012 0.089761
0.479046 -0.025472 0.056250
0.501355 -0.024220 0.066150
0.515202 0.017596 0.081876
0.447305 -0.047285 0.084098
0.482066 0.012512 0.054865
0.489680 0.086932 0.112940
0.462602 0.023431 0.060382
0.483099 -0.069311 0.071107
0.482320 -0.026592 0.057413
0.450877 0.040485 0.106614
0.517228 0.073860 0.114058
0.471805 -0.050137 0.103589
0.514874 0.048551 0.083053
0.513414 0.054043 0.080196
0.497935 0.046558 0.065970
0.440027 -0.022281 0.087039
0.478945 0.004116 0.128258
0.444948 -0.033173 0.081361
0.504139 0.047737 0.069762
0.443775 0.022081 0.100559
0.489508 0.052501 0.064363
0.509205 0.059443 0.075146
0.452830 -0.000284 0.060611
0.509690 -0.020921 0.080826
0.441549 -0.023233 0.078410
0.468569 -0.012685 0.125438
0.510812 0.030849 0.113456
0.500569 0.083646 0.121159
0.499153 0.043086 0.066146
0.456027 -0.031503 0.112177
0.513274 0.031159 0.108915
0.459460 -0.030774 0.061929
0.449055 0.039974 0.091128
0.456928 0.017313 0.062380
0.506514 0.034862 0.070922
0.498287 0.020957 0.124360
0.457327 -0.002996 0.122040
0.473272 -0.022907 0.124574
0.480285 -0.026692 0.057152
0.476142 -0.069160 0.100252
0.519697 0.069514 0.102695
0.484790 0.092846 0.077787
0.444786 -0.018659 0.069079
0.462166 0.029630 0.062145
0.456697 -0.012459 0.055549
0.442143 0.006471 0.102947
0.489101 0.090499 0.088160
0.466420 -0.001703 0.053752
0.467959 0.094397 0.091031
0.486362 0.031451 0.059256
0.449488 -0.074777 0.089818
0.492595 0.041609 0.063242
0.496058 0.070219 0.130818
0.508020 0.015011 0.116640
0.471394 -0.025944 0.123338
0.464075 0.054564 0.071826
0.463859 0.093320 0.102625
0.501978 -0.033352 0.083383
0.453758 -0.021012 0.119109
0.465241 0.079911 0.081705
0.450304 0.036174 0.107376
0.509707 -0.024170 0.091086
0.474969 -0.072079 0.063605
0.443908 -0.031642 0.083187
0.493634 -0.018475 0.119662
0.449865 0.020572 0.114657
0.485161 0.023814 0.056557
0.443307 0.017550 0.082529
0.441641 0.015188 0.091331
0.506479 -0.021582 0.071679
0.467896 -0.031432 0.059497
0.494112 -0.009886 0.057359
0.437455 -0.008593 0.084528
0.482597 -0.077835 0.076383
0.447399 0.034268 0.099154
0.503666 -0.023081 0.068312
0.449495 -0.042051 0.094048
0.441374 -0.023553 0.098030
0.463542 -0.064288 0.104205
0.482272 0.071162 0.131070
0.453966 -0.007451 0.119831
0.471900 0.014697 0.128832
0.505138 0.086183 0.096234
0.474476 -0.037179 0.061568
0.451248 0.016688 0.116750
0.461110 0.061039 0.118367
0.497547 0.083491 0.126695
0.517978 0.050360 0.101117
0.452188 -0.029282 0.110750
0.449072 -0.014649 0.116067
0.479705 0.016734 0.055244
0.500137 0.088300 0.088197
0.469639 -0.059006 0.061283
0.486775 0.092254 0.079082
0.460619 0.036252 0.121560
0.450310 -0.026321 0.066955
0.503586 0.040915 0.068751
0.483487 -0.021265 0.055085
0.449150 0.040967 0.092956
0.451188 -0.052541 0.098219
0.485430 0.028195 0.057091
0.458070 0.058985 0.080898
0.503485 0.045322 0.069065
0.478761 -0.037857 0.113283
0.462736 0.091348 0.099603
0.511660 0.033814 0.112955
0.483971 -0.047896 0.072875
0.504332 0.037826 0.122319
0.496860 -0.035257 0.103330
0.488996 -0.045826 0.095836
0.480578 -0.027332 0.122350
0.449466 0.038760 0.086842
0.482097 -0.076105 0.091286
0.449374 -0.008259 0.061157
0.459548 -0.025408 0.059398
0.475303 0.089549 0.114866
0.456489 0.000633 0.058340
0.449877 -0.024328 0.066329
0.486276 0.008849 0.128206
0.448192 -0.030631 0.105391
0.510534 0.020412 0.071851
0.519498 0.073147 0.106724
0.443837 -0.055070 0.083941
0.512958 0.006675 0.079060
0.477693 -0.078616 0.084082
0.490559 0.029578 0.058955
0.459568 0.076383 0.109723
0.502215 -0.030416 0.103210
0.498249 0.016589 0.060584
0.501444 0.026029 0.062839
0.477597 0.090273 0.106256
0.447880 -0.003809 0.064031
0.493132 -0.041874 0.079922
0.455570 0.018381 0.063743
0.503041 -0.031168 0.100306
0.449656 0.038295 0.104165
0.517946 0.048426 0.099035
0.498121 0.083463 0.126046
0.471226 -0.006974 0.052097
0.446016 -0.017026 0.066467
0.511110 0.024449 0.110989
0.470833 0.091349 0.080956
0.520599 0.078253 0.096999
0.517894 0.047449 0.097454
0.453133 0.056720 0.094176
0.444947 -0.030210 0.077592
0.516626 0.050900 0.087287
0.473509 -0.026678 0.122727
0.489236 0.080853 0.070078
0.473865 -0.033192 0.117399
0.456689 0.058796 0.083404
0.456676 -0.008709 0.055954
0.486559 0.008940 0.055291
0.504704 -0.013912 0.110666
0.488314 0.086718 0.116469
0.490803 0.090726 0.084137
0.456525 -0.008044 0.121420
0.460634 -0.062774 0.061271
0.450935 -0.052085 0.067643
0.476579 -0.054193 0.101563
0.496711 0.014856 0.059653
0.458621 -0.069094 0.102159
0.514252 0.028138 0.083948
0.469839 -0.007996 0.052073
0.500193 -0.020013 0.062485
0.502027 -0.033052 0.082391
0.451473 -0.041779 0.098259
0.467944 -0.075149 0.070085
0.475915 0.092816 0.090529
0.501281 0.089754 0.076434
0.479721 -0.054022 0.065331
0.449197 -0.014709 0.116178
0.493858 0.059282 0.130359
0.482982 0.065603 0.066978
0.476129 -0.078118 0.082319
0.468083 -0.003606 0.053049
0.517326 0.084173 0.088928
0.468213 -0.076225 0.077885
0.495818 0.057327 0.066671
0.514393 0.054675 0.114169
0.469694 0.030072 0.058867
0.510953 -0.016539 0.084394
0.516850 0.017833 0.090296
0.467484 -0.014554 0.052167
0.516889 0.052856 0.107767
0.449652 -0.066210 0.066462
0.446464 0.000768 0.067363
0.485801 -0.021207 0.055543
0.498689 0.066863 0.069171
0.500538 -0.036292 0.088467
0.472016 -0.054525 0.062001
0.509812 -0.002696 0.074179
0.459232 0.078537 0.106651
0.442560 -0.020335 0.074099
0.500030 0.049348 0.067355
0.496876 0.064184 0.068101
0.465145 -0.023630 0.123380
0.502007 0.089189 0.079311
0.474676 0.062397 0.128680
0.492209 0.077429 0.069500
0.442035 -0.016706 0.072262
0.443352 -0.007360 0.068515
0.472343 0.054606 0.066881
0.493268 0.049470 0.064651
0.465718 -0.043956 0.107490
0.495906 -0.016669 0.058509
0.503966 -0.026130 0.106841
0.476561 0.033409 0.128972
0.498323 0.039813 0.065339
0.514109 0.032012 0.107191
0.450529 -0.062322 0.066300
0.466713 -0.075281 0.072585
0.477971 -0.040836 0.109985
0.509193 0.059166 0.121980
0.468393 0.037229 0.063534
0.514313 0.002755 0.087049
0.481764 -0.003660 0.126886
0.493338 0.036018 0.062686
0.494902 0.086032 0.111873
0.447257 0.033358 0.100957
0.460213 0.008309 0.058091
0.498581 -0.037702 0.094657
0.454741 -0.030898 0.111618
0.481279 -0.079275 0.088690
0.507634 -0.007863 0.071112
0.490686 0.019599 0.057391
0.459270 -0.040502 0.107680
0.451234 -0.008306 0.059582
0.481202 0.046160 0.062759
0.479886 0.003616 0.053586
0.448249 -0.039972 0.092749
0.471498 -0.078833 0.093371
0.461040 0.081162 0.090272
0.444769 -0.017885 0.068584
0.513288 0.000042 0.098764
0.446535 0.018215 0.074691
0.446434 -0.008767 0.113132
0.473241 0.071022 0.127603
0.462815 -0.043772 0.106599
0.497660 0.064975 0.068493
0.457980 -0.073293 0.068312
0.439383 -0.009991 0.075063
0.459232 0.011083 0.123559
0.472704 -0.051091 0.063625
0.489253 0.053132 0.064441
0.451420 0.042371 0.107077
0.443680 -0.067693 0.087308
0.451559 -0.074652 0.086418
0.494674 -0.036053 0.072900
