ply
format ascii 1.0
element vertex 1024
property float x
property float y
property float z
end_header
0.514579 0.145084 0.125812
0.601183 0.110883 0.097461
0.580683 0.102512 0.127133
0.557423 0.133601 0.070314
0.618100 0.074241 0.109440
0.543395 0.147770 0.073468
0.578552 0.038924 0.091509
0.573853 0.123427 0.116497
0.541393 0.070126 0.080336
0.547369 0.155043 0.088167
0.587937 0.122544 0.102745
0.589238 0.038253 0.084813
0.583693 0.126938 0.088374
0.605806 0.086936 0.122099
0.609676 0.021615 0.096378
0.602828 0.029186 0.080960
0.598650 0.034509 0.087469
0.608953 0.049188 0.071167
0.594166 0.105331 0.069247
0.549448 0.141838 0.118870
0.550525 0.135108 0.122543
0.533604 0.144740 0.124505
0.534216 0.085103 0.113566
0.619935 0.067515 0.076956
0.605312 0.064447 0.121811
0.516120 0.116752 0.070513
0.634691 0.029951 0.087669
0.558341 0.143803 0.082622
0.538366 0.163764 0.095259
0.557353 0.050499 0.096214
0.616748 0.095694 0.097446
0.560582 0.095793 0.057413
0.578350 0.041692 0.080609
0.586197 0.039029 0.102126
0.520605 0.153538 0.086469
0.552920 0.065290 0.116314
0.592748 0.102028 0.065832
0.621608 0.041138 0.068642
0.500200 0.132210 0.080459
0.511845 0.143937 0.092468
0.636141 0.031244 0.090059
0.523821 0.156020 0.106038
0.524536 0.107910 0.122203
0.634846 0.030822 0.075530
0.545889 0.143313 0.119979
0.588087 0.083699 0.129459
0.636073 0.056716 0.088941
0.580929 0.097336 0.128559
0.562124 0.066256 0.064053
0.571010 0.091594 0.056970
0.544791 0.145167 0.119332
0.531247 0.092173 0.073125
0.551980 0.122743 0.126890
0.601471 0.027512 0.091797
0.603126 0.105167 0.107853
0.615838 0.094841 0.103322
0.564465 0.065753 0.063026
0.549495 0.104569 0.128691
0.567710 0.043746 0.079925
0.615091 0.093006 0.108187
0.608679 0.072103 0.120899
0.505246 0.135607 0.122014
0.623117 0.061249 0.103197
0.592453 0.116297 0.080623
0.594777 0.049132 0.068351
0.554472 0.117271 0.061953
0.516942 0.097785 0.087740
0.620723 0.076714 0.082179
0.596044 0.104567 0.116972
0.591133 0.050020 0.118535
0.578246 0.054660 0.124366
0.582510 0.127219 0.088399
0.607095 0.076931 0.123322
0.586960 0.037827 0.097056
0.632788 0.059505 0.091601
0.531707 0.102702 0.067072
0.622173 0.077928 0.091499
0.552223 0.147952 0.109764
0.546772 0.131723 0.065371
0.542345 0.147776 0.072857
0.549462 0.150694 0.109158
0.589324 0.112139 0.071401
0.623885 0.035720 0.112154
0.513027 0.110501 0.115350
0.594590 0.073627 0.129535
0.546599 0.069794 0.114890
0.579349 0.043785 0.075312
0.602534 0.107779 0.103833
0.517322 0.142533 0.127247
0.565200 0.057225 0.119019
0.548509 0.089264 0.127628
0.521947 0.146552 0.066516
0.525606 0.159460 0.075838
0.597967 0.066986 0.059313
0.560311 0.091465 0.130885
0.623477 0.064401 0.101132
0.637489 0.039977 0.072679
0.619390 0.068834 0.076042
0.586165 0.077168 0.130213
0.507816 0.106905 0.096079
0.522866 0.156497 0.075939
0.566880 0.135551 0.109257
0.599933 0.036911 0.080579
0.546526 0.104582 0.061249
0.504882 0.135363 0.118296
0.521998 0.129160 0.127220
0.594430 0.083593 0.058242
0.577958 0.049531 0.067504
0.611045 0.029186 0.073848
0.606140 0.026742 0.100598
0.543758 0.079130 0.120810
0.568686 0.068594 0.126825
0.576048 0.057143 0.061250
0.501518 0.133850 0.075854
0.645626 0.040881 0.084747
0.561783 0.105291 0.058008
0.566986 0.122996 0.121378
0.575475 0.044039 0.074871
0.546842 0.113461 0.128739
0.574102 0.040146 0.095424
0.591237 0.115873 0.109720
0.560736 0.104567 0.057917
0.596005 0.068067 0.128235
0.601969 0.109690 0.087033
0.535324 0.161189 0.081216
0.534490 0.133014 0.127447
0.528691 0.159193 0.117416
0.629050 0.057045 0.102554
0.526243 0.151296 0.068677
0.577967 0.055310 0.061373
0.576152 0.058688 0.060601
0.526179 0.098276 0.117489
0.628837 0.060374 0.086816
0.622452 0.041693 0.112638
0.571958 0.117161 0.064927
0.575827 0.048304 0.118510
0.542603 0.160112 0.093565
0.605678 0.066462 0.122026
0.537957 0.144907 0.069058
0.573195 0.051827 0.065601
0.506463 0.139314 0.071657
0.620769 0.070288 0.105930
0.515886 0.148664 0.083651
0.551843 0.147913 0.080772
0.596361 0.112635 0.080641
0.552005 0.105980 0.128932
0.615587 0.022352 0.076107
0.587045 0.038538 0.084716
0.634026 0.029040 0.091718
0.629257 0.056131 0.103814
0.570569 0.107311 0.059669
0.539027 0.097355 0.124608
0.513652 0.119506 0.121724
0.512719 0.135080 0.067043
0.566711 0.042535 0.100793
0.581913 0.124156 0.110166
0.564981 0.046661 0.106905
0.561361 0.133704 0.072815
0.543965 0.064259 0.088273
0.639014 0.034743 0.079270
0.505215 0.112908 0.107345
0.556357 0.148721 0.094420
0.576887 0.115786 0.123028
0.623624 0.051379 0.070892
0.561963 0.053078 0.074418
0.551411 0.098430 0.128371
0.524446 0.103755 0.071259
0.584288 0.118627 0.114963
0.586425 0.117153 0.114239
0.597329 0.047197 0.069630
0.595773 0.109644 0.112016
0.517273 0.148742 0.112756
0.497398 0.119120 0.099273
0.596351 0.094530 0.123377
0.523503 0.156557 0.087720
0.573476 0.044263 0.111823
0.617602 0.058705 0.073689
0.516927 0.145477 0.126138
0.499660 0.119979 0.085249
0.513341 0.145370 0.095741
0.595897 0.062169 0.060449
0.582451 0.114783 0.068365
0.548954 0.068934 0.072017
0.564447 0.141552 0.090690
0.518118 0.096087 0.102706
0.523537 0.133274 0.127623
0.612586 0.067874 0.116386
0.635143 0.053272 0.101898
0.604264 0.037347 0.104920
0.531798 0.115396 0.127196
0.535893 0.071768 0.094131
0.551023 0.142413 0.073663
0.554483 0.124483 0.064255
0.589231 0.087383 0.058164
0.638384 0.037260 0.072334
0.621306 0.026371 0.071094
0.566824 0.126052 0.119420
0.613881 0.071037 0.069869
0.501304 0.119464 0.110515
0.607220 0.072620 0.122264
0.617094 0.031940 0.070093
0.549410 0.115562 0.061377
0.564149 0.122451 0.123071
0.603260 0.101157 0.073279
0.578611 0.039002 0.090337
0.515590 0.103265 0.081017
0.515937 0.143140 0.065989
0.597504 0.067202 0.059212
0.644361 0.040104 0.080406
0.522778 0.094510 0.081076
0.508309 0.127729 0.122587
0.540185 0.071702 0.109296
0.574555 0.119545 0.119817
0.560573 0.072396 0.125570
0.521940 0.155088 0.083944
0.609658 0.102226 0.099361
0.554537 0.072666 0.065043
0.607157 0.104190 0.101119
0.589790 0.096298 0.125708
0.634802 0.056206 0.083280
0.552305 0.113799 0.061122
0.637079 0.031999 0.092773
0.606339 0.071817 0.063289
0.549287 0.153302 0.087614
0.606984 0.100737 0.077290
0.598341 0.037588 0.081421
0.586798 0.047493 0.116776
0.495744 0.126215 0.107289
0.645847 0.044240 0.086625
0.618578 0.093603 0.094292
0.499151 0.120878 0.109340
0.517672 0.129596 0.066260
0.538113 0.080138 0.115644
0.604141 0.052324 0.116744
0.503574 0.135116 0.093850
0.629561 0.032708 0.111256
0.506063 0.121211 0.117486
0.568717 0.134292 0.108678
0.585199 0.125175 0.085505
0.570481 0.081827 0.130412
0.615567 0.053335 0.110663
0.596916 0.111856 0.106984
0.596157 0.115701 0.098046
0.539886 0.153678 0.115710
0.573454 0.043051 0.108923
0.598224 0.042621 0.110136
0.598068 0.114175 0.092053
0.600275 0.055806 0.120420
0.519245 0.124746 0.125867
0.536808 0.140411 0.066641
0.579271 0.039083 0.087894
0.590854 0.072243 0.055926
0.568932 0.107143 0.129574
0.638046 0.054123 0.087119
0.633971 0.057103 0.098525
0.586629 0.054348 0.062421
0.504754 0.136505 0.070667
0.524222 0.158105 0.073550
0.514871 0.103492 0.109957
0.596821 0.111105 0.078635
0.602963 0.085972 0.061849
0.579189 0.071118 0.129641
0.559447 0.123713 0.124407
0.608448 0.103299 0.099806
0.585627 0.098569 0.126590
0.623801 0.019308 0.084464
0.498230 0.118173 0.096199
0.579707 0.075317 0.056395
0.522317 0.091536 0.103148
0.574545 0.056410 0.123665
0.592126 0.117220 0.081861
0.587371 0.084219 0.057159
0.600825 0.047255 0.114409
0.586071 0.101636 0.062368
0.551665 0.152326 0.091512
0.571632 0.134054 0.103801
0.573140 0.052068 0.120424
0.617477 0.084034 0.108576
0.528545 0.091278 0.076799
0.514371 0.146865 0.087402
0.530048 0.163341 0.092210
0.591446 0.075096 0.056192
0.547877 0.108490 0.128761
0.628290 0.022676 0.102447
0.548615 0.063921 0.078229
0.515228 0.140025 0.066097
0.605793 0.048044 0.112895
0.540542 0.076755 0.073189
0.618877 0.019792 0.075918
0.564516 0.043389 0.095009
0.518764 0.094925 0.090037
0.571630 0.046719 0.071781
0.633971 0.028802 0.094609
0.586851 0.061599 0.058232
0.584926 0.073922 0.056069
0.635395 0.030603 0.088459
0.646268 0.044113 0.091919
0.573352 0.133061 0.102268
0.533939 0.076328 0.103620
0.504113 0.134843 0.111557
0.565390 0.082019 0.129899
0.547657 0.135602 0.123511
0.640940 0.047225 0.080683
0.563767 0.120368 0.124240
0.525391 0.158468 0.089741
0.633052 0.027132 0.106868
0.571668 0.113367 0.125925
0.539502 0.097977 0.064797
0.507787 0.117705 0.116336
0.512533 0.142657 0.125800
0.565291 0.121410 0.066131
0.579044 0.128476 0.087120
0.533217 0.165263 0.088732
0.543536 0.156446 0.107958
0.566515 0.055200 0.068071
0.524408 0.136469 0.127578
0.607611 0.061728 0.118954
0.503587 0.116276 0.109715
0.530615 0.144441 0.125407
0.535494 0.099088 0.123752
0.543796 0.159226 0.094689
0.590583 0.057214 0.061409
0.590852 0.037566 0.086817
0.632990 0.059329 0.093559
0.568641 0.126641 0.071503
0.578837 0.124250 0.111526
0.547850 0.155877 0.096530
0.520541 0.135638 0.127447
0.595499 0.044465 0.072210
0.630308 0.026251 0.076626
0.527339 0.086157 0.103684
0.514555 0.147738 0.074220
0.512259 0.110259 0.078025
0.546283 0.073329 0.070688
0.631695 0.053716 0.076555
0.626243 0.021663 0.107770
0.557277 0.143677 0.109634
0.535597 0.072086 0.093683
0.601674 0.027949 0.085951
0.625259 0.022891 0.108385
0.503109 0.126042 0.075052
0.632316 0.026556 0.104413
0.577107 0.042898 0.108296
0.553769 0.062198 0.113930
0.559519 0.105803 0.059077
0.637326 0.032708 0.085288
0.567194 0.090226 0.057007
0.561725 0.084070 0.058316
0.614554 0.055631 0.111976
0.568123 0.091581 0.056995
0.514715 0.099026 0.098527
0.515811 0.110629 0.074100
0.625308 0.020839 0.084110
0.510606 0.143222 0.080574
0.606322 0.095129 0.070005
0.596388 0.056979 0.122384
0.603214 0.034352 0.078343
0.615552 0.016273 0.094738
0.497246 0.128172 0.099088
0.502298 0.134494 0.079092
0.514122 0.113884 0.073477
0.615011 0.061796 0.113219
0.535186 0.075026 0.083462
0.614691 0.018555 0.081471
0.628979 0.043049 0.111068
0.623807 0.018672 0.095032
0.622077 0.037430 0.112349
0.608429 0.080278 0.122463
0.612514 0.100169 0.094662
0.507658 0.107500 0.100453
0.546347 0.075741 0.120057
0.548167 0.138888 0.069474
0.617470 0.089705 0.081328
0.534498 0.081194 0.079341
0.622257 0.069272 0.081979
0.604319 0.095844 0.069010
0.579768 0.039810 0.101800
0.585736 0.085127 0.057124
0.531373 0.165077 0.087183
0.641612 0.036126 0.098041
0.586501 0.115202 0.071867
0.559798 0.071114 0.124640
0.517489 0.123578 0.067466
0.549238 0.152205 0.084772
0.580890 0.086901 0.056931
0.566555 0.139971 0.092073
0.576201 0.113077 0.063841
0.595616 0.053065 0.120355
0.525494 0.129072 0.064402
0.554652 0.145521 0.080494
0.535634 0.083571 0.113684
0.630051 0.045792 0.071228
0.607546 0.100438 0.108366
0.637623 0.054260 0.095433
0.582280 0.062543 0.128341
0.554341 0.079514 0.126341
0.503628 0.114002 0.087316
0.609049 0.033429 0.108801
0.574049 0.126408 0.075604
0.520236 0.092767 0.098680
0.568691 0.042067 0.086092
0.618371 0.065636 0.109861
0.573050 0.052940 0.120944
0.549216 0.062577 0.079340
0.557088 0.069766 0.065108
0.540959 0.084625 0.120260
0.613806 0.097413 0.101816
0.526709 0.152032 0.069109
0.611577 0.095829 0.076371
0.532385 0.154361 0.120174
0.518421 0.108344 0.073312
0.604816 0.040371 0.107121
0.582748 0.115279 0.068962
0.583954 0.123802 0.079828
0.528658 0.121199 0.127434
0.516796 0.106611 0.115709
0.627094 0.061123 0.096300
0.535114 0.165383 0.096846
0.589419 0.084577 0.129061
0.596399 0.115809 0.092525
0.610137 0.037909 0.070279
0.558930 0.146542 0.096051
0.602051 0.033213 0.099489
0.575193 0.041377 0.103505
0.598683 0.068239 0.127015
0.539236 0.088830 0.068673
0.608416 0.104140 0.091400
0.520162 0.121351 0.125307
0.589619 0.067706 0.056029
0.610677 0.043260 0.071439
0.559269 0.092105 0.130887
0.575767 0.107324 0.127346
0.539923 0.112296 0.062135
0.516136 0.124460 0.124771
0.508415 0.127613 0.070766
0.547034 0.125983 0.063449
0.594071 0.118039 0.092363
0.623074 0.028252 0.110252
0.529207 0.103530 0.122628
0.634254 0.050189 0.105386
0.568763 0.130381 0.075318
0.511518 0.107181 0.109773
0.607938 0.102673 0.103254
0.520165 0.153924 0.070777
0.589769 0.051771 0.120731
0.576947 0.115862 0.065774
0.525882 0.089775 0.107766
0.515515 0.137613 0.066168
0.597115 0.065218 0.059423
0.598939 0.108181 0.077150
0.580753 0.052227 0.122636
0.631440 0.027696 0.110304
0.512717 0.134100 0.126124
0.602554 0.045886 0.071693
0.519701 0.151923 0.099936
0.618929 0.081367 0.080347
0.535517 0.156848 0.076400
0.621322 0.016864 0.083722
0.608936 0.074091 0.065147
0.594095 0.080522 0.128741
0.616062 0.085214 0.074528
0.574558 0.040036 0.093090
0.588452 0.046505 0.069884
0.532952 0.140919 0.066131
0.533423 0.124647 0.128170
0.633440 0.028500 0.090996
0.631248 0.035297 0.111030
0.516601 0.107767 0.116493
0.548511 0.078008 0.122947
0.582550 0.044773 0.073345
0.597465 0.108078 0.075140
0.602850 0.095505 0.118604
0.601698 0.029520 0.084775
0.574686 0.128552 0.079233
0.621477 0.041323 0.068637
0.596145 0.115788 0.097582
0.620569 0.030052 0.110442
0.592138 0.098232 0.063299
0.553482 0.055360 0.085625
0.544888 0.122071 0.062382
0.594547 0.097425 0.122887
0.508582 0.139030 0.124456
0.595819 0.044003 0.072894
0.557162 0.050806 0.097119
0.563004 0.143111 0.093993
0.619193 0.068644 0.075711
0.523932 0.157633 0.076069
0.618171 0.048844 0.110370
0.557677 0.136106 0.072467
0.572638 0.129908 0.078726
0.550959 0.080880 0.125641
0.593124 0.085233 0.058414
0.603785 0.093174 0.119592
0.497648 0.119120 0.093164
0.617651 0.086382 0.107302
0.515050 0.137958 0.127080
0.632404 0.056766 0.101572
0.561716 0.049247 0.105922
0.550006 0.065154 0.113271
0.570951 0.127770 0.114699
0.543864 0.159052 0.093418
0.580868 0.126104 0.105670
0.592696 0.091152 0.060280
0.523531 0.154745 0.122235
0.602825 0.102306 0.112284
0.601778 0.040545 0.106751
0.516113 0.119991 0.123211
0.553655 0.059564 0.077015
0.618793 0.026847 0.108656
0.622936 0.056935 0.105696
0.605857 0.024605 0.084718
0.541903 0.157987 0.107675
0.590356 0.121461 0.097061
0.553017 0.141138 0.116936
0.574071 0.121509 0.070065
0.602634 0.076082 0.126644
0.567534 0.086890 0.057061
0.541195 0.120570 0.062200
0.646085 0.043071 0.084665
0.575389 0.123706 0.073379
0.617545 0.031661 0.110647
0.502067 0.113699 0.097435
0.594179 0.095735 0.123923
0.587984 0.117280 0.075673
0.577248 0.041219 0.082460
0.548917 0.150886 0.081826
0.594588 0.052980 0.064892
0.571636 0.073517 0.057918
0.584468 0.112991 0.068376
0.625506 0.062205 0.097967
0.579468 0.109369 0.063373
0.527425 0.094036 0.115066
0.591898 0.070445 0.055975
0.585752 0.120832 0.077713
0.598350 0.104413 0.071909
0.621931 0.075954 0.099133
0.548440 0.104882 0.128603
0.515831 0.147202 0.112875
0.563610 0.114325 0.126554
0.538210 0.113194 0.128064
0.587284 0.092828 0.059295
0.584930 0.094996 0.127948
0.606035 0.075906 0.124152
0.609697 0.021553 0.096225
0.592098 0.044474 0.112811
0.540971 0.160402 0.103809
0.592383 0.060342 0.059887
0.623613 0.067774 0.085517
0.605019 0.033256 0.104181
0.608748 0.071101 0.065545
0.540833 0.087262 0.120953
0.604322 0.098713 0.114543
0.528190 0.102517 0.069250
0.570357 0.097089 0.130768
0.542110 0.102772 0.062648
0.628373 0.024116 0.080352
0.609915 0.041399 0.109329
0.600843 0.043541 0.073524
0.546145 0.140948 0.121342
0.566445 0.041748 0.093402
0.633402 0.039281 0.070733
0.596714 0.103775 0.069899
0.614215 0.072240 0.114947
0.611620 0.021740 0.080623
0.528482 0.160809 0.110502
0.508605 0.123747 0.072312
0.621467 0.072781 0.081385
0.513169 0.144318 0.114175
0.517222 0.149387 0.097946
0.584036 0.123644 0.079685
0.540822 0.105617 0.127445
0.536767 0.074791 0.080719
0.602441 0.104015 0.110610
0.505041 0.129199 0.121869
0.526305 0.104327 0.069618
0.558962 0.145844 0.101050
0.553713 0.097139 0.058206
0.584696 0.043697 0.111479
0.502352 0.116957 0.108578
0.605157 0.039359 0.074888
0.496819 0.127912 0.095171
0.617108 0.086894 0.108486
0.573580 0.090014 0.056895
0.531263 0.084366 0.108576
0.548062 0.155319 0.100136
0.546591 0.069118 0.074348
0.591759 0.117941 0.082698
0.554045 0.077564 0.062925
0.540201 0.161595 0.101899
0.613167 0.075403 0.069591
0.558585 0.049616 0.088210
0.520451 0.154047 0.073592
0.535780 0.115116 0.062840
0.559477 0.123289 0.065083
0.548424 0.089901 0.060848
0.561383 0.143863 0.089464
0.572908 0.109088 0.127812
0.504249 0.112244 0.089761
0.558873 0.089787 0.058070
0.575137 0.055963 0.062192
0.512122 0.101868 0.096722
0.594920 0.115231 0.104033
0.532774 0.078044 0.099503
0.595805 0.085901 0.059308
0.540788 0.130723 0.127047
0.554882 0.146761 0.107877
0.544953 0.145706 0.072693
0.606269 0.076942 0.124155
0.591466 0.108084 0.069509
0.607428 0.034984 0.072443
0.511844 0.137933 0.066796
0.627293 0.044461 0.111361
0.532568 0.165239 0.087677
0.604360 0.065564 0.063476
0.523181 0.109520 0.069219
0.623574 0.072784 0.094056
0.546972 0.073612 0.118827
0.535340 0.105727 0.125990
0.583233 0.052341 0.063950
0.546105 0.146021 0.117823
0.619221 0.074784 0.107312
0.507468 0.109023 0.104739
0.551920 0.110450 0.060687
0.525837 0.096233 0.115479
0.504785 0.137274 0.076354
0.573914 0.068498 0.058395
0.554887 0.149001 0.088554
0.631194 0.026928 0.080046
0.540470 0.070424 0.081529
0.509179 0.129940 0.069567
0.602481 0.109345 0.098939
0.623789 0.071479 0.092307
0.550043 0.153083 0.102483
0.540145 0.075328 0.114246
0.623126 0.019044 0.076853
0.576540 0.065629 0.058344
0.557200 0.099270 0.130156
0.574011 0.063585 0.126611
0.619309 0.091900 0.093021
0.584901 0.074062 0.130218
0.643968 0.038754 0.093125
0.553115 0.105527 0.060231
0.596954 0.052646 0.066014
0.581158 0.123374 0.112189
0.615892 0.022521 0.104401
0.636680 0.031291 0.097647
0.542304 0.120491 0.128415
0.524277 0.156310 0.110345
0.620095 0.081510 0.103954
0.601833 0.057873 0.120812
0.633922 0.056296 0.081909
0.538759 0.098641 0.124971
0.575779 0.039953 0.093437
0.575718 0.043583 0.075579
0.554774 0.136087 0.070743
0.534934 0.092280 0.069979
0.596673 0.076998 0.128788
0.565732 0.104715 0.058242
0.592931 0.075545 0.129597
0.548211 0.104896 0.060903
0.531324 0.162576 0.080746
0.515687 0.114977 0.071668
0.627036 0.049632 0.071488
0.520185 0.099817 0.078469
0.543925 0.074262 0.116886
0.616082 0.059116 0.072453
0.588608 0.089865 0.128166
0.530992 0.103234 0.123390
0.620397 0.015180 0.095736
0.582761 0.089706 0.129613
0.544695 0.156940 0.087336
0.508222 0.134695 0.124528
0.591770 0.049876 0.066821
0.499084 0.117244 0.098226
0.565726 0.113067 0.126429
0.526657 0.102004 0.070594
0.614857 0.059384 0.071469
0.599181 0.049502 0.116173
0.590404 0.039801 0.079665
0.629401 0.024228 0.095131
0.510261 0.142033 0.097205
0.640576 0.035665 0.089461
0.633325 0.028492 0.089268
0.543382 0.065556 0.085779
0.502589 0.133228 0.111613
0.585022 0.041491 0.078005
0.506159 0.111489 0.106726
0.552934 0.144058 0.114086
0.643766 0.038458 0.102488
0.550159 0.057437 0.093252
0.624263 0.068021 0.089713
0.632530 0.033834 0.069580
0.516983 0.150007 0.080216
0.570662 0.088773 0.056841
0.513789 0.145455 0.103827
0.555137 0.061573 0.114637
0.569380 0.063715 0.061551
0.568341 0.041537 0.095984
0.574577 0.056302 0.062311
0.567894 0.134291 0.079511
0.530466 0.164017 0.088125
0.512526 0.145863 0.069316
0.566995 0.072789 0.127813
0.536495 0.085979 0.116668
0.599726 0.045470 0.071646
0.594441 0.040014 0.078268
0.567378 0.077979 0.129348
0.550710 0.082371 0.062521
0.536479 0.095657 0.067233
0.530344 0.130286 0.127936
0.537507 0.148048 0.121430
0.596965 0.114133 0.085753
0.517805 0.149868 0.100822
0.541945 0.066829 0.102289
0.580968 0.075856 0.056275
0.593412 0.037067 0.085502
0.580493 0.085261 0.130400
0.559206 0.146105 0.098459
0.543201 0.159755 0.095223
0.513085 0.146477 0.069017
0.587954 0.066752 0.056117
0.556939 0.148051 0.098331
0.557965 0.065471 0.067191
0.613404 0.052155 0.071686
0.573550 0.040522 0.086601
0.517710 0.110974 0.119665
0.598125 0.105695 0.073046
0.572466 0.042222 0.080856
0.544627 0.155180 0.108579
0.587401 0.099507 0.061913
0.554130 0.123262 0.126245
0.586447 0.097191 0.126750
0.538365 0.120990 0.062441
0.643112 0.039093 0.104016
0.559134 0.055739 0.112205
0.636146 0.032228 0.073495
0.619172 0.025111 0.072360
0.554686 0.145564 0.080597
0.594478 0.073861 0.129530
0.511557 0.109008 0.112173
0.609657 0.020734 0.093100
0.571655 0.040115 0.093885
0.617925 0.087908 0.106044
0.540025 0.121559 0.128385
0.533525 0.080739 0.107089
0.614339 0.093530 0.108542
0.576124 0.041098 0.083084
0.554218 0.146643 0.109098
0.560235 0.068067 0.064178
0.557193 0.057777 0.112483
0.549858 0.065171 0.113127
0.538944 0.149859 0.119497
0.496199 0.127326 0.093794
0.563905 0.142002 0.090666
0.603655 0.053166 0.117204
0.536421 0.151780 0.119637
0.564810 0.057166 0.118702
0.504961 0.119014 0.114646
0.562606 0.126232 0.067853
0.533696 0.146575 0.068559
0.512574 0.145267 0.081361
0.632228 0.043655 0.071646
0.584032 0.077640 0.056202
0.586589 0.047083 0.069600
0.530011 0.161751 0.113841
0.531598 0.165188 0.086383
0.534096 0.092220 0.070657
0.596243 0.082633 0.058381
0.517728 0.127331 0.066571
0.599521 0.047002 0.114220
0.557264 0.101758 0.058018
0.531953 0.105312 0.066034
0.641200 0.036416 0.087209
0.557449 0.141950 0.078543
0.549438 0.149914 0.110426
0.591022 0.053037 0.121481
0.572054 0.043520 0.109362
0.536135 0.072125 0.100462
0.629114 0.060384 0.094025
0.566376 0.080908 0.129818
0.515820 0.148438 0.086773
0.575693 0.101907 0.128941
0.613161 0.019586 0.098031
0.589006 0.050547 0.119732
0.574548 0.132615 0.088674
0.501110 0.122635 0.079787
0.610629 0.048573 0.071506
0.518277 0.096962 0.105353
0.516291 0.101470 0.109376
0.533430 0.101181 0.123665
0.620348 0.084915 0.096895
0.572743 0.092856 0.057130
0.622811 0.072222 0.099711
0.527653 0.099426 0.119444
0.591161 0.120800 0.091870
0.536810 0.110316 0.127410
0.516619 0.106977 0.115852
0.597485 0.088873 0.125317
0.563150 0.044703 0.094696
0.619796 0.081322 0.104924
0.591026 0.084917 0.057888
0.531480 0.092293 0.072825
0.508792 0.141499 0.076806
0.534470 0.097790 0.122672
0.612399 0.074241 0.068684
0.529369 0.090091 0.077004
0.609925 0.061366 0.117319
0.576551 0.129716 0.103871
0.583843 0.100792 0.126504
0.533241 0.088192 0.115531
0.547264 0.094161 0.061825
0.594526 0.098204 0.064447
0.593204 0.073977 0.056175
0.590719 0.051573 0.120215
0.618288 0.030346 0.070540
0.501816 0.115202 0.089705
0.516841 0.147860 0.122735
0.614633 0.080939 0.114497
0.572394 0.107442 0.128478
0.601545 0.075914 0.127414
0.601581 0.109985 0.086721
0.514566 0.145915 0.111656
0.587395 0.078411 0.130059
0.529389 0.161740 0.112199
0.551750 0.094370 0.128687
0.643342 0.038791 0.082865
0.540695 0.099715 0.126014
0.520163 0.135712 0.065353
0.542962 0.082144 0.066999
0.596522 0.072377 0.057019
0.556120 0.128201 0.123652
0.533174 0.165887 0.101206
0.576638 0.039909 0.090741
0.608001 0.085386 0.064245
0.540203 0.149754 0.118803
0.577524 0.129721 0.087166
0.564887 0.044480 0.084077
0.621484 0.020342 0.105791
0.622733 0.074441 0.098357
0.574171 0.064693 0.059327
0.586899 0.119349 0.077110
0.557230 0.088425 0.129983
0.594455 0.113378 0.108600
0.597059 0.114483 0.099777
0.566274 0.043929 0.103864
0.603504 0.055465 0.118528
0.569672 0.056945 0.121580
0.614464 0.096593 0.102304
0.618477 0.014365 0.091306
0.581114 0.128003 0.095156
0.569482 0.043589 0.107195
0.624131 0.065528 0.085086
0.619839 0.085654 0.085785
0.625598 0.042297 0.069175
0.530787 0.144401 0.066975
0.599890 0.096113 0.066145
0.572259 0.105353 0.059482
0.503967 0.135185 0.101001
0.601499 0.047647 0.114594
0.588019 0.115977 0.074151
0.554056 0.145634 0.079964
0.511252 0.144371 0.071756
0.514438 0.100739 0.087740
0.614234 0.077861 0.070972
0.608124 0.092385 0.069011
0.565815 0.085671 0.130556
0.506902 0.137877 0.109846
0.618193 0.033159 0.111235
0.515558 0.146554 0.121117
0.568905 0.127122 0.072115
0.614666 0.071258 0.114406
0.532107 0.094138 0.119174
0.584978 0.053542 0.122887
0.575867 0.130861 0.102273
0.628834 0.057250 0.078787
0.554442 0.091844 0.130278
0.558271 0.137192 0.116411
0.529607 0.097739 0.119735
0.597663 0.056480 0.063599
0.535283 0.164286 0.103902
0.529066 0.094028 0.073783
0.599902 0.036357 0.100352
0.532525 0.103521 0.066341
0.581611 0.045897 0.071580
0.594280 0.040360 0.077788
0.589900 0.065803 0.056590
0.576991 0.127545 0.107758
0.617652 0.019420 0.077194
0.604945 0.084694 0.123663
0.606751 0.064964 0.120811
0.525920 0.159167 0.087161
0.594015 0.086983 0.127259
0.613861 0.072933 0.115455
0.564030 0.092377 0.057203
0.618342 0.077860 0.076415
0.538421 0.074722 0.111336
0.499794 0.119098 0.086511
0.636483 0.056202 0.093093
0.544384 0.064164 0.101361
0.622799 0.018315 0.084259
0.549446 0.090424 0.128106
0.546457 0.156625 0.091539
0.574438 0.046617 0.071981
0.550784 0.076166 0.123064
0.542638 0.082288 0.122307
0.523763 0.156456 0.095403
0.603512 0.089711 0.121911
0.588847 0.037468 0.093539
0.584300 0.102722 0.125550
0.574251 0.044889 0.074561
0.576856 0.131029 0.090782
0.515625 0.098758 0.089396
0.510812 0.143872 0.072312
0.586605 0.071131 0.130062
0.612718 0.080925 0.117206
0.535019 0.086518 0.073950
0.528988 0.155392 0.121064
0.496056 0.120267 0.096832
0.516261 0.097657 0.090752
0.563405 0.141268 0.103650
0.621134 0.073696 0.103953
0.515420 0.098777 0.101472
0.595245 0.070449 0.057214
0.520364 0.134108 0.127372
0.598845 0.063897 0.061094
0.559464 0.138406 0.114103
0.599362 0.078972 0.127749
0.564815 0.075621 0.128162
0.562657 0.059897 0.067617
0.517002 0.149858 0.083463
0.513112 0.144201 0.115408
0.598137 0.094545 0.064170
0.627699 0.035341 0.111617
0.629219 0.050766 0.108669
0.609160 0.042184 0.072109
0.553059 0.075469 0.123822
0.632430 0.040860 0.070837
0.530708 0.081444 0.100604
0.588328 0.071114 0.130057
0.570589 0.046660 0.113885
0.576438 0.039891 0.091759
0.622306 0.065572 0.080797
0.628881 0.023426 0.099746
0.523869 0.155827 0.111410
0.505296 0.135679 0.121438
0.607042 0.032240 0.107028
0.608056 0.092291 0.068876
0.528350 0.128252 0.063950
0.534401 0.124968 0.128199
0.623801 0.019199 0.086263
0.587170 0.075800 0.130172
0.495366 0.124958 0.106235
0.629178 0.024207 0.091913
0.528837 0.111034 0.125327
0.514630 0.109172 0.076309
0.566079 0.102733 0.130836
0.559511 0.048247 0.091918
0.534537 0.073293 0.092110
0.594073 0.067319 0.128983
0.513763 0.104848 0.081883
0.638539 0.040105 0.107239
0.601934 0.094888 0.119726
0.583061 0.052369 0.122170
0.520895 0.117473 0.124390
0.579451 0.039580 0.085398
0.613634 0.035491 0.111113
0.552488 0.057468 0.104682
0.545514 0.157812 0.094988
0.617345 0.082040 0.109559
0.530078 0.102496 0.122601
0.523947 0.116156 0.125134
0.600236 0.077785 0.058190
0.504996 0.135476 0.118439
0.542109 0.141298 0.068532
0.519964 0.129579 0.126908
0.615675 0.084779 0.112113
0.609195 0.090530 0.117410
0.549462 0.122372 0.127464
0.535530 0.105843 0.126083
0.611892 0.057817 0.069650
0.572168 0.050838 0.118928
0.570458 0.049822 0.069063
0.557532 0.117455 0.062402
0.537070 0.095502 0.122925
0.528218 0.089891 0.078746
0.635556 0.042629 0.108043
0.629920 0.024598 0.097438
0.600095 0.053832 0.066329
0.516105 0.117470 0.070211
0.562879 0.110181 0.127838
0.545461 0.062127 0.092660
0.575026 0.084805 0.056615
0.543371 0.094759 0.125382
0.512127 0.144497 0.086999
0.581736 0.127780 0.093241
0.586509 0.090841 0.128533
0.581772 0.041004 0.079339
0.613096 0.075326 0.069502
0.620208 0.016798 0.079208
0.557322 0.053943 0.106933
0.555203 0.082135 0.127679
0.615098 0.064270 0.070922
0.603487 0.083233 0.124960
0.547279 0.109708 0.128758
0.573366 0.074857 0.129606
0.623945 0.067581 0.086905
0.627814 0.023813 0.075931
0.542753 0.155102 0.111219
0.614201 0.081445 0.115132
0.547708 0.063254 0.080856
0.591563 0.110264 0.115964
0.606865 0.097856 0.073330
0.538243 0.148666 0.071426
0.614153 0.059419 0.070908
0.522843 0.116420 0.124810
0.635902 0.030184 0.103049
0.613857 0.092226 0.111012
0.584723 0.108550 0.065462
0.611043 0.038174 0.110114
0.536648 0.110977 0.127487
0.572998 0.133895 0.088522
0.643945 0.047119 0.087390
0.641638 0.036926 0.085946
0.584295 0.039565 0.101315
