ply
format ascii 1.0
element vertex 256
property float x
property float y
property float z
end_header
0.646225 -0.042024 0.187924
0.650612 0.097813 0.167458
0.525164 0.022002 0.168061
0.546519 -0.069726 0.227441
0.677256 0.019412 0.126745
0.613311 0.035207 0.216734
0.580906 0.055673 0.143761
0.578296 -0.016004 0.192285
0.667328 0.017396 0.189377
0.592588 -0.074251 0.176573
0.606156 -0.049921 0.221827
0.533346 -0.029086 0.170678
0.666008 0.052670 0.158835
0.644580 0.066886 0.202890
0.623665 -0.003575 0.195150
0.548149 -0.072845 0.183324
0.593172 -0.007619 0.230594
0.555978 -0.030537 0.226784
0.632619 0.032733 0.177941
0.548948 0.029984 0.137579
0.572308 -0.094695 0.205153
0.662694 -0.014706 0.168461
0.610681 -0.040090 0.176616
0.541268 0.000368 0.193702
0.549793 -0.001120 0.155167
0.587127 0.020125 0.198251
0.624968 -0.070799 0.190454
0.686936 0.016147 0.160668
0.560633 0.041683 0.167230
0.558533 -0.042642 0.192499
0.632568 -0.032084 0.216830
0.600146 -0.078275 0.209971
0.664481 0.046139 0.129849
0.655880 -0.015048 0.197297
0.642358 0.021112 0.204635
0.619600 0.055216 0.192484
0.536168 -0.027132 0.205452
0.622219 0.000978 0.223378
0.639365 0.070812 0.175302
0.657644 0.047033 0.185158
0.642358 0.003731 0.175375
0.660179 0.025610 0.163609
0.599443 -0.029568 0.204134
0.566636 -0.067541 0.205292
0.583151 -0.033277 0.226880
0.564712 -0.006495 0.213964
0.670733 0.077559 0.150052
0.537359 -0.059370 0.204770
0.524387 -0.004098 0.163634
0.582565 -0.045949 0.182601
0.548424 0.021397 0.179619
0.600188 -0.001318 0.206774
0.614146 0.019835 0.196818
0.556629 0.051957 0.144914
0.538436 0.041024 0.157306
0.633949 0.047795 0.212608
0.635171 -0.054321 0.208438
0.594999 0.017170 0.220715
0.575456 -0.079021 0.223683
0.600227 -0.014138 0.184395
0.624721 -0.021812 0.180286
0.611570 -0.026050 0.224521
0.679665 0.002070 0.177507
0.645105 0.088059 0.189219
0.675738 0.030802 0.147344
0.570091 -0.082193 0.186769
0.567589 -0.045602 0.212635
0.547267 -0.022192 0.186972
0.625781 -0.055769 0.172817
0.525884 -0.013527 0.184457
0.532645 0.011595 0.149539
0.551837 0.021831 0.157903
0.669873 0.009145 0.144585
0.587690 -0.060409 0.224268
0.673999 0.037403 0.174854
0.617898 -0.066682 0.211065
0.566967 -0.060367 0.184745
0.567369 0.030756 0.147010
0.645708 0.051963 0.169009
0.570996 0.005144 0.198121
0.643047 0.001022 0.199737
0.655569 0.036755 0.145597
0.663978 0.070460 0.168333
0.523403 0.006440 0.182092
0.644426 -0.017290 0.180997
0.563703 -0.057253 0.228391
0.659860 -0.000259 0.183953
0.557574 -0.028595 0.207052
0.548145 -0.003223 0.175584
0.651648 0.028566 0.181109
0.659449 0.006016 0.164924
0.608717 0.039605 0.197379
0.574710 -0.011618 0.230441
0.547126 -0.043716 0.211171
0.618052 -0.016301 0.207634
0.548198 -0.018585 0.165019
0.627805 0.012772 0.186507
0.649177 -0.030478 0.208832
0.605937 -0.075481 0.189314
0.602109 -0.059039 0.178653
0.567776 0.062411 0.154381
0.625832 0.032855 0.200581
0.643714 0.037445 0.194437
0.638967 0.056790 0.186359
0.632054 -0.033127 0.193872
0.585611 -0.081715 0.195300
0.614031 0.017743 0.214411
0.676125 0.019815 0.174301
0.580458 0.011450 0.212632
0.639807 -0.057880 0.192020
0.569072 0.045909 0.134503
0.595273 -0.034696 0.184800
0.653637 0.081847 0.175908
0.656223 -0.028706 0.185284
0.575840 0.046333 0.156851
0.605006 0.005312 0.227211
0.539540 0.036127 0.173263
0.663628 0.023918 0.134952
0.628436 0.068971 0.189687
0.651445 0.071268 0.188234
0.671344 -0.011897 0.183751
0.639317 -0.017605 0.213573
0.655513 0.064321 0.154845
0.676812 0.064577 0.160281
0.674707 0.002060 0.161740
0.543694 -0.036490 0.193355
0.671517 0.047196 0.144239
0.562854 -0.012081 0.193986
0.684191 0.017879 0.143373
0.620490 -0.046164 0.215946
0.602503 0.026649 0.207945
0.665800 0.055613 0.174505
0.554025 0.054829 0.160318
0.562694 -0.027712 0.189315
0.639142 0.089074 0.174621
0.654025 0.011889 0.196484
0.553401 0.009803 0.167844
0.658006 0.040596 0.167427
0.551513 -0.057608 0.198477
0.582713 0.003273 0.227068
0.625535 0.012474 0.204339
0.538623 0.015893 0.163353
0.629926 0.060134 0.204460
0.677072 0.039330 0.160024
0.599247 -0.034539 0.227064
0.599160 0.010691 0.197564
0.647798 -0.047498 0.203680
0.533014 -0.026314 0.189881
0.624743 0.041656 0.187248
0.609715 0.000366 0.191064
0.535024 -0.011575 0.156163
0.575939 -0.048792 0.230255
0.546742 -0.016595 0.200730
0.570199 -0.026969 0.230433
0.671613 0.017558 0.158759
0.618006 0.047509 0.205551
0.637297 0.018997 0.175774
0.640022 -0.016086 0.199004
0.629436 -0.035629 0.179709
0.554505 -0.019301 0.217839
0.633527 -0.008630 0.184316
0.668807 0.063065 0.148541
0.598065 -0.061621 0.214526
0.536294 0.028488 0.144010
0.538320 0.011865 0.185996
0.550965 -0.059827 0.218380
0.665814 0.030904 0.185597
0.641367 0.052112 0.201427
0.565198 -0.071903 0.230189
0.587458 -0.005364 0.193153
0.673356 0.033335 0.131333
0.592024 -0.022453 0.227537
0.625977 -0.014415 0.218961
0.551719 0.035735 0.157825
0.644788 0.018320 0.188326
0.580696 -0.080592 0.208187
0.612207 -0.008569 0.223287
0.571337 -0.039714 0.200704
0.626961 0.034647 0.214727
0.539410 -0.015029 0.178185
0.648404 -0.006114 0.189268
0.532405 -0.011230 0.196328
0.563302 -0.043430 0.230667
0.611381 -0.013613 0.192388
0.631627 -0.066434 0.201636
0.642047 0.042470 0.178022
0.535028 0.023042 0.178408
0.645541 0.032051 0.169564
0.590244 -0.044727 0.226587
0.531796 -0.001144 0.174859
0.550871 0.018806 0.145133
0.559359 0.038477 0.140019
0.611538 0.004318 0.210166
0.651327 0.015612 0.168547
0.612398 -0.077707 0.205629
0.612220 -0.065529 0.173719
0.667775 0.010084 0.178719
0.665039 0.036553 0.156285
0.546718 0.043839 0.147843
0.524678 0.008034 0.159316
0.654944 0.061435 0.169924
0.544914 0.047024 0.166662
0.557295 -0.047685 0.204391
0.650649 -0.011020 0.170910
0.552150 0.009000 0.180580
0.593371 0.004509 0.219703
0.584189 0.007931 0.196401
0.592426 -0.074096 0.219026
0.547135 -0.028296 0.172991
0.665456 -0.020624 0.191346
0.636687 0.003539 0.189278
0.576112 0.041394 0.143740
0.653291 0.093711 0.179701
0.616492 0.027166 0.206606
0.650539 0.026753 0.195381
0.623911 0.001494 0.209857
0.639174 0.077904 0.193135
0.568396 0.034958 0.158576
0.668062 0.026323 0.122263
0.672328 -0.006322 0.172211
0.630333 0.027207 0.188733
0.527550 -0.000910 0.191778
0.685988 0.012044 0.172157
0.532839 -0.000636 0.149831
0.633337 0.044357 0.196532
0.563063 0.048370 0.155319
0.640453 -0.040207 0.212372
0.569697 0.058333 0.139902
0.647719 0.083636 0.165460
0.654900 -0.001087 0.198472
0.654640 -0.021820 0.174622
0.656029 0.037790 0.192780
0.527379 -0.016424 0.164163
0.539733 0.027246 0.155493
0.592566 0.013174 0.209693
0.663791 0.019368 0.145971
0.549139 -0.010535 0.188576
0.572076 -0.041586 0.188983
0.634387 -0.019573 0.188882
0.582572 -0.026668 0.189290
0.579732 -0.075902 0.183878
0.663177 -0.004877 0.161912
0.615606 -0.051385 0.176899
0.663715 -0.007779 0.192389
0.561354 -0.054039 0.192998
0.590282 -0.053809 0.178618
0.636568 0.010676 0.199882
0.617047 0.009229 0.193393
0.659741 0.037741 0.178617
0.605914 -0.074768 0.176359
0.654204 0.053164 0.157271
0.635724 -0.054880 0.178418
0.575716 -0.089443 0.214729
0.552700 0.010100 0.152323
0.545685 -0.032858 0.207920
0.613397 -0.020916 0.180242
