ply
format ascii 1.0
element vertex 256
property float x
property float y
property float z
end_header
0.653507 -0.052405 0.193933
0.550921 0.035425 0.140049
0.671415 0.065460 0.157878
0.547971 -0.080572 0.216416
0.618275 0.027767 0.223165
0.537301 -0.036614 0.156286
0.599461 -0.037636 0.235777
0.678065 -0.001076 0.156678
0.603079 -0.090298 0.185834
0.637737 0.075121 0.202082
0.657358 -0.000956 0.203372
0.614352 -0.022075 0.190655
0.549136 -0.033936 0.202286
0.588764 -0.095696 0.233809
0.642032 0.032781 0.175868
0.543628 0.004992 0.172709
0.629039 -0.079315 0.218896
0.582580 -0.057432 0.198094
0.579819 -0.009411 0.211775
0.637231 -0.029086 0.225092
0.664956 0.016325 0.125606
0.544192 -0.001902 0.135747
0.563466 -0.052478 0.235131
0.575103 -0.104887 0.202519
0.677268 0.032129 0.168048
0.606172 -0.002612 0.235665
0.654959 -0.020397 0.174808
0.617467 -0.054450 0.184346
0.627900 0.010970 0.195375
0.525319 -0.023261 0.184108
0.623973 0.047387 0.196980
0.542054 -0.055413 0.180967
0.597912 -0.067144 0.230508
0.671034 0.043169 0.137944
0.648677 0.087541 0.177700
0.679764 -0.008307 0.186705
0.665303 -0.027750 0.200856
0.601689 0.011742 0.207437
0.638429 -0.074768 0.187643
0.607505 -0.046889 0.211022
0.554904 -0.020108 0.174725
0.575600 -0.079652 0.213379
0.657189 0.010003 0.170524
0.561861 0.011151 0.151917
0.562889 -0.091975 0.240954
0.658004 0.054578 0.178657
0.650350 0.026429 0.200772
0.622375 -0.007850 0.213609
0.644364 -0.057771 0.219233
0.569385 -0.026678 0.228100
0.608517 -0.095876 0.217009
0.555106 -0.059269 0.203036
0.526190 -0.013245 0.160765
0.639434 -0.031292 0.195046
0.638271 0.042085 0.216995
0.537111 0.020716 0.155229
0.670436 0.014982 0.190775
0.583498 -0.033495 0.201124
0.658730 0.029093 0.152686
0.638256 -0.008962 0.187414
0.588543 -0.017421 0.238361
0.561318 -0.084458 0.196009
0.679614 0.017588 0.143641
0.557072 0.015691 0.129509
0.623766 -0.055617 0.228174
0.621552 -0.092627 0.198278
0.601037 -0.014069 0.214624
0.636221 0.061632 0.184995
0.555571 -0.042377 0.169877
0.553629 -0.011860 0.152559
0.656047 0.050515 0.155198
0.638932 0.005993 0.213675
0.617853 -0.021834 0.230282
0.612387 0.028231 0.199793
0.571822 -0.055075 0.216021
0.683903 0.010142 0.175498
0.569478 -0.072431 0.236790
0.641680 -0.015729 0.208797
0.661514 0.007359 0.144890
0.598737 -0.070163 0.187603
0.656204 -0.040118 0.214450
0.660514 0.031899 0.183730
0.646443 0.011313 0.187438
0.535143 -0.047567 0.198431
0.590046 -0.107712 0.218176
0.642919 0.055114 0.202974
0.635773 -0.047989 0.186431
0.541412 -0.015516 0.190930
0.672726 -0.014049 0.169903
0.530457 0.002480 0.151101
0.584211 -0.054502 0.233603
0.537632 -0.037136 0.180091
0.646014 -0.073720 0.204775
0.556329 -0.063838 0.222035
0.621838 0.008843 0.221843
0.585864 -0.083148 0.190862
0.659216 -0.038036 0.183741
0.621532 -0.079652 0.181858
0.651249 0.072940 0.188677
0.629989 0.026501 0.208980
0.601977 -0.050493 0.193171
0.592455 0.002642 0.220266
0.592857 -0.097527 0.203369
0.658632 -0.005529 0.184431
0.567772 0.026039 0.139172
0.529589 -0.005269 0.176255
0.669618 0.015414 0.158423
0.553556 -0.028468 0.158533
0.540793 0.015100 0.138612
0.606090 -0.082629 0.228274
0.558968 -0.041534 0.222169
0.619114 -0.039252 0.231876
0.536881 -0.013845 0.145783
0.634446 0.079802 0.185836
0.569091 -0.046829 0.199144
0.623740 -0.029288 0.214510
0.656358 0.040341 0.168898
0.679438 0.038692 0.152098
0.670205 0.051257 0.167106
0.545599 -0.048963 0.212610
0.556078 -0.035287 0.186914
0.528247 0.008534 0.166806
0.628077 0.054212 0.211703
0.535671 -0.023178 0.170268
0.558092 0.026951 0.155738
0.651963 -0.016442 0.194490
0.577691 -0.036776 0.237742
0.534287 -0.031341 0.196373
0.623829 -0.037177 0.185247
0.619297 0.039362 0.211966
0.604300 -0.003811 0.202718
0.598712 -0.021553 0.194177
0.567827 -0.031159 0.203505
0.546581 0.006556 0.151471
0.574086 -0.070843 0.198817
0.608614 -0.050883 0.233220
0.631925 0.020442 0.183494
0.627390 -0.016319 0.201456
0.542756 -0.009470 0.163456
0.617131 0.013358 0.206436
0.672330 0.004737 0.134028
0.606837 0.013056 0.221876
0.648334 0.039609 0.189073
0.656380 -0.057308 0.209694
0.670072 0.017076 0.174779
0.667991 -0.013418 0.196262
0.550529 -0.048202 0.193572
0.657401 0.063946 0.163670
0.615262 -0.070484 0.228593
0.659187 -0.007219 0.168589
0.657143 0.025215 0.168455
0.638493 -0.000133 0.199849
0.584048 -0.093896 0.217690
0.580572 -0.011494 0.226631
0.539766 -0.046158 0.167458
0.588756 0.003490 0.205966
0.621164 -0.001719 0.198868
0.646075 -0.001153 0.177596
0.561552 -0.077498 0.209406
0.551128 0.016170 0.162968
0.556949 -0.052240 0.180593
0.638773 -0.044891 0.200399
0.640247 -0.043251 0.223280
0.582745 -0.067310 0.240304
0.627185 0.061407 0.198115
0.610830 -0.003638 0.222048
0.636995 0.042012 0.202626
0.647901 0.012276 0.204353
0.595620 -0.008884 0.228019
0.669045 -0.027560 0.187186
0.632606 -0.085306 0.203184
0.578130 -0.089530 0.240674
0.669363 0.049772 0.150695
0.668958 0.003122 0.174528
0.626330 0.030633 0.196171
0.545632 -0.006168 0.181512
0.686102 0.009300 0.161253
0.634869 0.004452 0.183992
0.620737 -0.090193 0.213788
0.529359 -0.036085 0.167618
0.626800 -0.011298 0.229702
0.553517 -0.021886 0.188930
0.558166 0.029918 0.129773
0.645383 0.084131 0.193934
0.649045 0.051827 0.168238
0.557607 -0.043426 0.206506
0.666116 0.043987 0.177949
0.638627 0.024996 0.194113
0.677425 0.017264 0.130159
0.553063 0.018109 0.142604
0.652417 -0.030028 0.198984
0.612147 -0.023482 0.211992
0.586192 -0.020736 0.203124
0.606031 -0.098149 0.204345
0.665223 0.018626 0.139331
0.637922 -0.060652 0.184030
0.657418 0.013206 0.194198
0.630352 0.032422 0.220669
0.648789 -0.028175 0.186632
0.650119 0.020313 0.178883
0.554238 -0.000520 0.143785
0.611037 -0.074133 0.187157
0.637254 0.063229 0.211508
0.632713 -0.063023 0.222688
0.649725 0.067812 0.200286
0.578273 -0.064046 0.209610
0.643661 0.075906 0.176510
0.664982 0.002277 0.193742
0.673392 0.027893 0.154364
0.598852 -0.093767 0.226590
0.683802 -0.003253 0.175947
0.627928 0.019493 0.219472
0.543892 -0.023840 0.148390
0.662705 -0.039551 0.197722
0.562171 -0.079286 0.229350
0.676553 0.004307 0.184323
0.661909 0.039670 0.146966
0.668211 0.039362 0.163694
0.596889 -0.054836 0.230873
0.572401 -0.089125 0.193204
0.610792 0.004812 0.212677
0.623558 -0.065161 0.184600
0.546258 0.026291 0.148801
0.655057 -0.014751 0.206256
0.607162 -0.016099 0.231663
0.573283 -0.059545 0.236665
0.567017 -0.067043 0.217178
0.663064 0.060609 0.150668
0.558056 -0.052392 0.214509
0.523883 -0.016983 0.174015
0.652344 -0.064774 0.199996
0.627584 0.002519 0.210983
0.566675 -0.062030 0.202809
0.526865 -0.025102 0.161367
0.637216 -0.020610 0.190321
0.599186 -0.022694 0.238493
0.588727 -0.043725 0.198125
0.673060 0.007200 0.149807
0.635943 0.014354 0.203351
0.649461 0.043474 0.177977
0.666064 -0.024013 0.173149
0.576923 -0.063550 0.222530
0.641986 -0.068653 0.215419
0.670619 0.025904 0.183334
0.670677 0.032518 0.142857
0.635482 0.052902 0.192778
0.613022 -0.088302 0.191612
0.665598 0.001539 0.163497
0.611294 0.025012 0.214269
0.539604 0.011453 0.163919
0.591054 -0.006511 0.212498
0.532396 -0.045614 0.186004
0.538043 0.000369 0.159743
0.590432 -0.063056 0.191810
0.547135 -0.045086 0.181339
0.557672 -0.031024 0.172415
