ply
format ascii 1.0
element vertex 256
property float x
property float y
property float z
end_header
0.653637 -0.052509 0.194269
0.531414 0.015306 0.168316
0.647552 0.081583 0.172175
0.557943 -0.088780 0.237465
0.663096 0.005634 0.125339
0.612501 0.019085 0.222344
0.538834 -0.051816 0.182690
0.600303 -0.087937 0.186528
0.667505 0.013203 0.188956
0.604486 -0.045561 0.236591
0.574288 -0.013423 0.207080
0.574509 0.037229 0.152262
0.622058 -0.020436 0.195968
0.635272 0.054804 0.206051
0.656443 0.041218 0.156613
0.629208 -0.079475 0.219210
0.576143 -0.057477 0.204721
0.528857 -0.013514 0.198296
0.559357 -0.093751 0.194931
0.554274 -0.017739 0.163172
0.589983 -0.107127 0.223913
0.666504 -0.022925 0.172060
0.629500 0.017524 0.186052
0.617620 -0.054671 0.184621
0.682811 0.005808 0.155494
0.568046 -0.039927 0.234991
0.655127 -0.016815 0.205543
0.626744 -0.011457 0.229961
0.637341 -0.046215 0.222899
0.542323 -0.046835 0.215900
0.592809 -0.007968 0.231721
0.599123 -0.076144 0.233701
0.554360 0.014567 0.146281
0.625276 0.061972 0.179083
0.652508 0.040534 0.186962
0.554609 -0.028172 0.191203
0.526443 -0.021791 0.169179
0.555106 0.034032 0.173119
0.638318 0.008764 0.211714
0.643250 -0.008626 0.180167
0.593766 -0.032265 0.199509
0.656897 0.032666 0.129972
0.548811 0.002150 0.186864
0.638638 -0.074923 0.187970
0.600576 -0.003724 0.205561
0.665183 0.067035 0.156182
0.612063 0.034100 0.199667
0.577726 -0.085200 0.214033
0.657502 0.014737 0.154154
0.557266 -0.067786 0.222901
0.578493 -0.062981 0.239513
0.621797 -0.092825 0.198589
0.608238 -0.046974 0.212571
0.681423 -0.004909 0.177660
0.670612 0.028702 0.171328
0.629931 0.033557 0.215464
0.577457 -0.106932 0.201338
0.537691 -0.000061 0.152416
0.647587 -0.030034 0.187212
0.610231 -0.093147 0.223045
0.646392 0.064302 0.186779
0.648754 0.013899 0.175112
0.565469 0.014116 0.165505
0.646046 -0.064927 0.215010
0.530518 -0.037055 0.196853
0.670498 -0.028587 0.195166
0.649948 0.022534 0.199238
0.629932 0.040388 0.188657
0.524449 -0.002105 0.180321
0.618460 -0.062655 0.227691
0.598058 -0.098262 0.205293
0.656261 -0.040199 0.214781
0.664381 -0.003822 0.162765
0.587142 -0.027322 0.238539
0.673249 0.017115 0.140317
0.594750 -0.068808 0.193173
0.614663 0.013405 0.201814
0.623765 -0.029467 0.214777
0.578293 -0.089828 0.240908
0.552324 -0.086659 0.212955
0.548335 -0.036327 0.173111
0.657088 0.055240 0.171575
0.607381 -0.016744 0.219864
0.563004 -0.046739 0.216384
0.663544 -0.008952 0.186703
0.629184 -0.000009 0.195982
0.552588 -0.046741 0.198570
0.649716 0.002551 0.195471
0.576761 -0.079300 0.195211
0.640394 0.031700 0.174171
0.630646 -0.040210 0.183056
0.617219 0.000786 0.216325
0.554294 0.033069 0.152101
0.573035 -0.031480 0.201073
0.542347 -0.024230 0.206034
0.570016 -0.025270 0.223431
0.550201 0.000746 0.168347
0.621766 -0.079863 0.182159
0.558192 -0.065560 0.204779
0.602103 -0.050755 0.193417
0.636876 -0.011207 0.207997
0.547740 0.019020 0.179853
0.665240 -0.000979 0.141935
0.595238 0.005592 0.220435
0.672977 0.009685 0.171965
0.637984 0.066529 0.167532
0.638869 -0.045036 0.200704
0.650036 0.057697 0.155203
0.634830 0.077607 0.185982
0.534773 -0.023191 0.184641
0.671852 0.029324 0.153771
0.613169 -0.030866 0.232997
0.637236 -0.029216 0.225382
0.550144 -0.014777 0.181674
0.568809 -0.076618 0.232837
0.577038 -0.063866 0.222742
0.609354 -0.008895 0.234518
0.650168 0.024180 0.142732
0.649159 -0.068856 0.198978
0.622647 0.054952 0.193608
0.548536 0.019571 0.160658
0.622288 -0.043951 0.230656
0.562052 0.043216 0.162075
0.546928 -0.010703 0.199151
0.532805 -0.039349 0.173028
0.631818 0.080960 0.169103
0.597318 -0.060749 0.236315
0.536081 -0.006300 0.170777
0.668670 0.052849 0.161343
0.655401 0.027745 0.177069
0.588326 -0.092301 0.229432
0.625086 0.017904 0.212194
0.616541 -0.008267 0.203534
0.663871 0.037365 0.142747
0.579886 -0.011263 0.224475
0.566599 0.021986 0.151301
0.659933 -0.038821 0.186910
0.664084 0.042433 0.175567
0.632826 -0.063169 0.222996
0.539506 -0.026971 0.163667
0.626871 0.027743 0.196804
0.653702 0.026955 0.162102
0.580772 -0.047090 0.238644
0.646449 -0.015779 0.193317
0.638963 0.005312 0.183206
0.559474 -0.051713 0.232012
0.569028 -0.073155 0.213741
0.645419 0.044358 0.168381
0.642392 -0.077994 0.209138
0.623532 0.045065 0.208781
0.568195 0.027949 0.169865
0.553757 -0.047000 0.181466
0.535614 -0.002324 0.191801
0.638095 -0.060811 0.184345
0.585746 -0.093333 0.199267
0.659536 0.012904 0.137787
0.637703 0.054410 0.180621
0.552658 -0.037511 0.211733
0.636206 0.039571 0.203921
0.620664 -0.036726 0.192891
0.653054 -0.001562 0.171346
0.586018 -0.005127 0.207069
0.534236 0.015249 0.182948
0.645172 -0.027117 0.205114
0.609120 -0.076481 0.223505
0.620948 -0.090382 0.214096
0.543671 -0.037031 0.189672
0.652817 -0.022610 0.175653
0.671229 0.017385 0.126318
0.601912 0.011429 0.207533
0.671547 0.014165 0.154478
0.586210 -0.021039 0.203321
0.631645 0.065734 0.193163
0.674376 -0.016949 0.182029
0.574863 -0.044959 0.197711
0.656498 -0.057392 0.210038
0.542162 -0.011237 0.159115
0.539934 -0.051801 0.200239
0.635747 -0.083322 0.198373
0.541002 0.025925 0.170136
0.642707 0.053776 0.194697
0.660868 0.052146 0.149135
0.637300 0.018778 0.202598
0.643184 0.031892 0.192132
0.528413 -0.011031 0.160722
0.604166 0.003430 0.233019
0.541165 0.012858 0.151160
0.604784 -0.029801 0.192371
0.593130 -0.009306 0.218469
0.616686 0.030536 0.216995
0.553778 -0.057429 0.215375
0.671323 0.002093 0.182655
0.586798 -0.111283 0.211794
0.554965 0.004573 0.154882
0.664485 0.017491 0.165567
0.655881 -0.026995 0.197217
0.605017 -0.003963 0.221043
0.538663 -0.037173 0.207942
0.623972 -0.015499 0.217911
0.660638 -0.003291 0.199435
0.611245 -0.074371 0.187437
0.650299 0.016037 0.187810
0.648807 -0.050715 0.218922
0.665218 -0.016312 0.197165
0.588823 -0.044023 0.198343
0.599149 -0.022930 0.238713
0.625970 -0.025321 0.229967
0.633547 -0.015099 0.194357
0.563176 -0.035951 0.224038
0.558133 0.011529 0.175435
0.676446 -0.000930 0.165034
0.674387 0.006670 0.133399
0.672246 -0.012847 0.166485
0.656834 0.029088 0.191077
0.602789 -0.015857 0.207373
0.555520 -0.027414 0.178841
0.529159 -0.034896 0.183987
0.613998 -0.088630 0.189984
0.685249 0.010925 0.166457
0.623743 -0.065363 0.184894
0.597223 -0.035774 0.238354
0.563249 -0.049936 0.203764
0.630747 -0.023600 0.204039
0.525590 -0.015286 0.182967
0.627940 -0.000148 0.210562
0.548352 0.033027 0.163009
0.539867 0.007814 0.172548
0.530692 -0.024865 0.201918
0.647405 -0.006345 0.204908
0.665371 0.023749 0.183644
0.640123 -0.005497 0.191737
0.567638 -0.083064 0.201914
0.646161 0.069812 0.176284
0.593634 -0.097353 0.218373
0.616981 -0.017995 0.232064
0.663448 0.023908 0.139363
0.639532 -0.031647 0.195830
0.637180 0.015887 0.177339
0.621695 0.011468 0.221334
0.610028 0.002874 0.203780
0.664074 0.032896 0.162632
0.661005 0.002705 0.188015
0.591802 -0.049597 0.235987
0.572289 -0.055753 0.215521
0.632375 -0.085857 0.209135
0.617560 0.040422 0.191711
0.605768 0.021435 0.203305
0.678266 0.005173 0.144920
0.553078 -0.029178 0.203835
0.605949 0.009656 0.222620
0.629309 0.011208 0.198395
0.627773 0.072765 0.176154
0.671825 0.002627 0.154796
0.580114 -0.019688 0.232208
0.568535 -0.057406 0.239742
0.553913 -0.081485 0.202916
