ply
format ascii 1.0
element vertex 256
property float x
property float y
property float z
end_header
0.653662 -0.052460 0.194291
0.542074 0.048449 0.164063
0.666726 0.067987 0.157390
0.544339 -0.049283 0.220768
0.620284 0.025908 0.223030
0.586736 -0.112328 0.216009
0.675880 -0.000091 0.152494
0.521305 -0.015035 0.169913
0.604653 -0.033974 0.236901
0.590628 -0.063328 0.192055
0.661050 -0.000771 0.202686
0.642804 0.068055 0.203237
0.586646 -0.004409 0.202845
0.624898 -0.076795 0.222279
0.641864 0.032120 0.177100
0.575173 -0.075470 0.238895
0.529121 0.019916 0.193750
0.620947 -0.029242 0.188878
0.551481 -0.086551 0.208215
0.640288 -0.029611 0.222730
0.546109 -0.014443 0.205113
0.627092 -0.075981 0.181374
0.679283 0.032897 0.172082
0.540473 -0.045199 0.183654
0.569389 -0.027009 0.228292
0.542118 0.012470 0.162918
0.624491 0.004176 0.195509
0.655247 -0.020282 0.175329
0.603320 -0.000861 0.234899
0.666533 0.017964 0.126741
0.647281 0.085850 0.176479
0.579700 -0.034336 0.197752
0.683729 0.000179 0.182811
0.672359 0.042891 0.142415
0.622823 0.046378 0.201217
0.591118 -0.093371 0.194046
0.574271 -0.055091 0.218242
0.607190 -0.047636 0.211508
0.645805 0.023465 0.203985
0.518816 -0.006164 0.197983
0.669967 -0.029321 0.197195
0.658556 0.007908 0.173701
0.525616 -0.032990 0.204708
0.644491 -0.057848 0.219575
0.661154 0.052030 0.179058
0.599264 -0.066427 0.230569
0.548364 -0.019988 0.178307
0.619090 -0.096865 0.205392
0.603258 -0.093775 0.226195
0.550767 0.030866 0.181162
0.608347 -0.021002 0.209791
0.578165 -0.085944 0.215887
0.603763 0.014509 0.208353
0.620456 -0.053567 0.190675
0.638809 0.061512 0.180089
0.519729 0.011478 0.172232
0.641006 -0.076777 0.200972
0.645638 -0.025454 0.196643
0.567922 -0.100022 0.197291
0.626748 -0.011431 0.229995
0.668587 0.023924 0.191309
0.659175 0.033714 0.160455
0.578433 -0.044623 0.240039
0.638566 0.001758 0.213398
0.588496 -0.017683 0.238585
0.558220 -0.065551 0.204783
0.636977 0.039334 0.216984
0.536902 0.001365 0.182027
0.529692 0.031084 0.171966
0.623868 -0.055761 0.228478
0.674316 0.021428 0.148510
0.557976 -0.088784 0.237459
0.650340 0.053424 0.159884
0.558692 -0.065430 0.229307
0.686515 0.013833 0.164828
0.617921 0.025991 0.196994
0.549337 -0.034987 0.200521
0.628515 -0.016438 0.204405
0.553909 0.032084 0.158981
0.640937 -0.002876 0.184925
0.656278 -0.040157 0.214808
0.617642 0.002716 0.218180
0.642642 0.047536 0.195929
0.674212 -0.011651 0.169093
0.576796 -0.079280 0.195212
0.524377 -0.032319 0.184683
0.638124 -0.060763 0.184361
0.585304 -0.006740 0.223482
0.539976 0.004132 0.200138
0.659408 -0.038007 0.184136
0.672994 0.046371 0.161101
0.652896 0.071084 0.187230
0.651718 -0.014508 0.210176
0.614037 -0.088594 0.189986
0.651708 0.018332 0.186943
0.631943 0.019845 0.186125
0.662649 0.007517 0.141071
0.598761 -0.021796 0.194421
0.606242 -0.003103 0.204871
0.560309 -0.046509 0.209105
0.669699 -0.011131 0.186494
0.638890 -0.044994 0.200727
0.655455 0.037992 0.188184
0.538583 -0.050387 0.204246
0.574245 -0.015715 0.207688
0.623778 -0.029437 0.214804
0.673129 0.016955 0.175416
0.626100 0.016381 0.209963
0.585700 -0.060137 0.240177
0.602127 -0.050725 0.193433
0.668748 0.005576 0.187783
0.574317 -0.068541 0.207913
0.608691 -0.051078 0.233494
0.537484 0.031802 0.156416
0.647276 0.007514 0.198909
0.637103 0.055847 0.212710
0.588993 -0.095958 0.234062
0.530881 -0.002353 0.166269
0.527777 -0.016770 0.187877
0.679027 0.010227 0.137768
0.607123 -0.016299 0.231921
0.568555 -0.057407 0.239750
0.595237 0.005609 0.220471
0.530520 -0.010963 0.207830
0.609012 -0.079063 0.229977
0.637052 0.075933 0.186629
0.633913 0.034457 0.198340
0.631193 0.058503 0.194880
0.541441 -0.033223 0.214167
0.561579 -0.084827 0.196207
0.664251 0.030426 0.176058
0.630668 -0.040165 0.183079
0.619154 -0.039411 0.232165
0.533260 0.016958 0.178873
0.629955 -0.085848 0.193057
0.656523 -0.057347 0.210059
0.563347 -0.040913 0.230623
0.659948 -0.017327 0.197570
0.601864 -0.072155 0.186625
0.666085 0.011858 0.157123
0.659542 -0.007049 0.169275
0.598263 -0.012441 0.218297
0.548087 0.015551 0.176733
0.632410 -0.085822 0.209141
0.533346 -0.023636 0.171291
0.589784 -0.093306 0.210311
0.663287 0.053417 0.152783
0.567096 -0.077205 0.219646
0.647617 0.045464 0.171782
0.617660 0.033326 0.210823
0.640018 -0.009360 0.199082
0.556315 0.044187 0.166628
0.544091 -0.008024 0.171321
0.536752 0.029899 0.184727
0.520373 -0.003266 0.183875
0.678766 0.033125 0.157654
0.681214 0.000876 0.168400
0.659387 0.062769 0.168572
0.645134 0.072059 0.172726
0.540220 0.044240 0.177550
0.553847 -0.059074 0.216983
0.607773 0.012619 0.221773
0.612950 -0.014172 0.198325
0.583531 -0.108420 0.202829
0.529355 -0.042563 0.193016
0.578326 -0.089826 0.240905
0.637360 -0.046183 0.222921
0.640804 0.011035 0.179680
0.528401 0.021797 0.161503
0.615648 -0.069513 0.186785
0.661818 0.012431 0.198280
0.541936 -0.032356 0.177892
0.585758 -0.031233 0.240026
0.625979 -0.025296 0.229996
0.642374 -0.074274 0.214530
0.669582 -0.022040 0.177961
0.586222 -0.021018 0.203345
0.649916 0.059448 0.195168
0.543722 -0.011544 0.188123
0.646468 -0.015612 0.187176
0.619430 -0.005669 0.207177
0.634503 0.017311 0.199332
0.567892 -0.031504 0.203696
0.615338 0.008914 0.204324
0.632184 0.026339 0.216739
0.650232 -0.064736 0.198620
0.638672 -0.074877 0.187981
0.588844 -0.044000 0.198359
0.572290 -0.055085 0.205072
0.665719 0.032680 0.147720
0.683176 0.011945 0.151174
0.595236 -0.052205 0.235703
0.627767 -0.011068 0.216401
0.656804 0.028256 0.196925
0.530981 -0.023826 0.212459
0.600343 -0.087905 0.186529
0.610000 -0.007002 0.222317
0.619865 0.013161 0.226568
0.606323 -0.098362 0.204631
0.663110 0.043093 0.170008
0.652318 0.024759 0.175663
0.528990 0.002146 0.193757
0.632851 -0.063139 0.223011
0.546623 -0.024874 0.193109
0.521002 -0.025723 0.195102
0.549902 -0.037172 0.187941
0.593782 -0.032240 0.199530
0.662762 -0.039655 0.198135
0.540087 0.023923 0.170973
0.615608 -0.065173 0.228536
0.553317 -0.084321 0.220392
0.596559 -0.011392 0.205756
0.644281 0.033064 0.190693
0.551765 -0.040191 0.216702
0.666635 0.021092 0.138715
0.675554 0.018609 0.161322
0.550098 0.045010 0.155449
0.524174 0.008040 0.161441
0.669252 0.055718 0.169388
0.680616 0.043695 0.151948
0.658863 -0.010158 0.181130
0.544579 0.020656 0.187099
0.546652 0.022492 0.157930
0.670218 0.005076 0.174934
0.616178 -0.027855 0.199840
0.522794 0.022457 0.181072
0.545823 0.034418 0.167567
0.677743 0.025590 0.182331
0.532014 -0.041579 0.210084
0.625717 0.041963 0.213925
0.626977 0.003553 0.207677
0.666007 0.001753 0.164327
0.612817 -0.092901 0.219188
0.599157 -0.022919 0.238739
0.549994 -0.047611 0.202515
0.684200 0.010232 0.176584
0.648692 -0.003714 0.206631
0.538173 -0.034431 0.196900
0.644784 0.011485 0.209676
0.644196 0.044839 0.209540
0.647683 0.081329 0.189513
0.595715 0.002263 0.209262
0.526240 0.009387 0.184345
0.559303 -0.048766 0.220503
0.574885 -0.044940 0.197724
0.559493 -0.051714 0.232021
0.531505 -0.007717 0.176471
0.582745 -0.057729 0.198322
0.652488 -0.001205 0.177211
0.589979 -0.106508 0.225309
0.547765 -0.005419 0.196870
0.561765 -0.077862 0.209602
0.677861 0.018228 0.129795
0.671435 -0.018126 0.196067
0.663655 0.019941 0.169933
0.609450 0.024951 0.204467
