ply
format ascii 1.0
element vertex 256
property float x
property float y
property float z
end_header
0.627571 -0.029187 0.209880
0.644610 0.108084 0.180554
0.519946 0.047990 0.175485
0.522215 -0.042003 0.241600
0.659449 0.024293 0.136886
0.601467 0.050719 0.232625
0.582095 0.070302 0.154164
0.566525 -0.006003 0.204858
0.655655 0.031456 0.201513
0.580385 -0.064532 0.220033
0.515400 0.005780 0.211296
0.638800 0.061648 0.163814
0.599701 0.003159 0.240124
0.541059 -0.046751 0.198293
0.635289 0.076877 0.213233
0.538910 0.008124 0.171518
0.553536 0.012830 0.242633
0.565904 -0.032101 0.242641
0.615739 0.019809 0.206355
0.547785 0.048551 0.145849
0.571671 0.032852 0.212652
0.649128 -0.004622 0.188598
0.588066 -0.038078 0.193738
0.601262 -0.033574 0.235580
0.672991 0.018672 0.172794
0.546333 -0.071212 0.222879
0.613362 0.053517 0.200518
0.557402 0.061348 0.175788
0.540305 0.028738 0.198291
0.534196 -0.018665 0.222904
0.603588 -0.008085 0.196932
0.580486 0.027785 0.243040
0.653187 0.061861 0.190914
0.640337 -0.002309 0.217306
0.662986 0.043915 0.160104
0.513943 0.021522 0.186347
0.631414 0.081265 0.183535
0.525174 0.027311 0.156013
0.630518 0.040875 0.218491
0.633060 0.037175 0.187413
0.608858 -0.049662 0.215046
0.544140 0.036831 0.171565
0.519353 -0.038443 0.209979
0.589150 0.012420 0.218592
0.583244 -0.012517 0.222852
0.545101 -0.012555 0.245008
0.518683 -0.002944 0.183386
0.543002 -0.043090 0.228080
0.619633 -0.017041 0.233657
0.597036 0.035146 0.212644
0.562870 -0.035777 0.200758
0.651076 0.022490 0.161077
0.658489 0.070441 0.152121
0.648211 0.046525 0.140702
0.557574 0.069920 0.152419
0.536673 0.062672 0.163130
0.613251 0.068932 0.218999
0.667030 0.010034 0.195171
0.573253 -0.000811 0.243559
0.539228 -0.003540 0.205252
0.561060 -0.055724 0.235108
0.632848 0.011556 0.190158
0.636567 0.096482 0.199616
0.582980 -0.046478 0.233661
0.637213 0.019684 0.217333
0.563784 -0.057301 0.204790
0.663007 0.044144 0.182924
0.619215 -0.005771 0.213317
0.636535 0.055077 0.203339
0.609301 0.017945 0.227699
0.653516 0.021343 0.182817
0.537379 0.006409 0.230423
0.562229 0.028471 0.231523
0.641685 0.041215 0.166637
0.564877 0.047786 0.157517
0.537042 0.049155 0.186792
0.584358 -0.022398 0.240592
0.657817 0.063325 0.171206
0.611977 -0.034155 0.198002
0.618870 0.075793 0.198411
0.671787 0.023077 0.152690
0.552804 -0.016880 0.215819
0.634923 -0.013675 0.199338
0.535142 0.010774 0.191328
0.553849 0.009910 0.205232
0.648826 0.012608 0.202629
0.620206 -0.036058 0.228116
0.585986 0.003940 0.200981
0.584480 -0.057287 0.196300
0.522961 0.037124 0.193934
0.635215 0.059115 0.183941
0.581278 0.041760 0.227036
0.540722 -0.031725 0.243499
0.541733 -0.030274 0.207926
0.596450 0.053677 0.210581
0.576488 -0.020303 0.198287
0.648250 0.090353 0.184657
0.538822 -0.062287 0.208099
0.595205 0.029077 0.231140
0.611714 0.044050 0.219106
0.568884 0.079666 0.162431
0.525746 0.030042 0.175879
0.521615 0.020773 0.203744
0.521745 0.009949 0.166953
0.573771 0.014716 0.208150
0.529869 0.046901 0.158947
0.595786 -0.022852 0.201729
0.632418 0.030336 0.204478
0.628762 0.007945 0.206647
0.570183 0.061346 0.144216
0.522498 -0.006037 0.200910
0.617974 0.036602 0.195725
0.599089 -0.051902 0.228654
0.574239 0.062974 0.167158
0.549430 0.017608 0.226883
0.544264 0.022013 0.179439
0.656050 -0.002421 0.203682
0.535840 -0.003669 0.182712
0.627213 0.060848 0.215650
0.657304 0.006097 0.177861
0.539595 0.021794 0.162466
0.622568 0.009833 0.222465
0.620244 0.028394 0.220467
0.646844 0.045692 0.188731
0.633406 0.094891 0.174999
0.554429 -0.053655 0.217425
0.569591 -0.015986 0.239482
0.669869 0.030097 0.186859
0.545147 -0.063238 0.236773
0.639437 -0.018021 0.214392
0.550123 0.054014 0.162854
0.644109 0.041584 0.207203
0.640113 0.078311 0.198130
0.553591 0.074540 0.167085
0.557783 0.025245 0.211738
0.597145 -0.056312 0.205792
0.531624 0.008881 0.211505
0.601996 -0.045787 0.193993
0.644898 0.035607 0.151669
0.663506 0.030506 0.168485
0.579946 0.023638 0.227983
0.613954 -0.001854 0.236408
0.604330 0.009275 0.206820
0.648283 0.050449 0.155672
0.526250 -0.006036 0.219056
0.542802 -0.005515 0.220068
0.587210 0.014154 0.244816
0.541250 0.063011 0.177626
0.549207 0.037884 0.157285
0.618438 0.055191 0.226854
0.660516 0.035233 0.147221
0.566999 0.021433 0.244328
0.531167 -0.019704 0.207255
0.644387 0.067990 0.176179
0.626278 0.049366 0.192687
0.648989 0.075394 0.162400
0.540169 -0.046319 0.246099
0.519575 0.007455 0.193768
0.630967 -0.026107 0.226961
0.601408 0.000917 0.225789
0.553748 -0.024753 0.246051
0.605547 0.064444 0.206769
0.594542 -0.012148 0.241483
0.637621 0.024049 0.183876
0.618420 -0.020649 0.216873
0.587259 0.024067 0.210474
0.662144 0.012506 0.165776
0.526805 -0.047042 0.198062
0.574115 -0.048421 0.200296
0.653820 0.049355 0.169503
0.528628 -0.033267 0.232523
0.644099 0.007858 0.182461
0.552935 -0.003764 0.202314
0.625605 0.063576 0.199636
0.647099 0.032316 0.177201
0.627503 0.085631 0.203025
0.540127 -0.043146 0.212808
0.603704 0.058500 0.221389
0.610442 0.032871 0.206720
0.547359 -0.021566 0.227628
0.606447 0.018418 0.241025
0.623085 0.043023 0.207411
0.658126 0.014568 0.152752
0.532020 -0.005344 0.234238
0.620851 -0.040156 0.213843
0.651275 0.050964 0.200830
0.645151 0.063572 0.152171
0.521449 0.037890 0.164158
0.530843 -0.031970 0.215501
0.603711 0.024590 0.217691
0.570362 -0.046432 0.237643
0.585005 -0.000663 0.237554
0.628539 0.093488 0.187455
0.558930 0.055800 0.148969
0.603963 0.038443 0.228434
0.587617 0.043836 0.215305
0.612478 -0.021240 0.199915
0.570841 -0.061356 0.228369
0.644107 0.025028 0.202219
0.538612 0.048403 0.169250
0.583342 -0.057255 0.209225
0.622568 0.075534 0.210834
0.658137 0.019404 0.196117
0.635559 -0.001099 0.190556
0.515839 0.023507 0.170769
0.647583 0.032126 0.190112
0.645960 0.054105 0.178555
0.651189 0.025472 0.146716
0.528131 0.005641 0.178224
0.611148 0.004597 0.216708
0.546336 0.063480 0.154642
0.587726 0.038171 0.240758
0.658528 0.048575 0.148390
0.624810 0.019909 0.195150
0.557468 -0.017968 0.204147
0.649311 -0.009506 0.212220
0.611941 -0.026989 0.233731
0.544922 0.036429 0.184076
0.586151 -0.035300 0.238363
0.645355 0.017838 0.191655
0.520038 -0.036161 0.222266
0.574090 -0.036871 0.195377
0.575365 0.056835 0.154611
0.537716 0.053527 0.151179
0.610378 -0.046745 0.228041
0.641067 0.009300 0.211691
0.565107 0.052883 0.168762
0.627908 -0.004872 0.204255
0.513301 0.009014 0.183330
0.646680 0.101047 0.170714
0.595238 0.028699 0.243371
0.534698 0.032724 0.164989
0.586186 0.031739 0.221317
0.562152 0.066513 0.163819
0.659491 0.031651 0.180349
0.571915 0.074032 0.148683
0.569945 -0.062591 0.214144
0.646372 0.089163 0.196592
0.606329 -0.011143 0.237429
0.644112 0.100788 0.190134
0.549960 -0.001583 0.244463
0.604544 0.043638 0.208683
0.599958 0.047140 0.220380
0.654691 0.060061 0.158871
0.656107 0.041625 0.195161
0.537910 0.035428 0.153870
0.673558 0.017505 0.184567
0.516601 0.036045 0.184051
0.609292 -0.001225 0.204647
0.552027 -0.053231 0.205932
0.624476 0.070494 0.221855
0.588719 0.017172 0.232159
0.667000 0.033184 0.157703
0.642325 0.060041 0.194495
0.669012 0.027926 0.142572
0.592105 0.043434 0.230660
