ply
format ascii 1.0
element vertex 256
property float x
property float y
property float z
end_header
0.627568 -0.029218 0.209869
0.644616 0.108052 0.180542
0.520021 0.047976 0.175480
0.522212 -0.042026 0.241590
0.659359 0.024203 0.136808
0.601470 0.050690 0.232614
0.582294 0.070113 0.154293
0.566523 -0.006030 0.204848
0.655615 0.031422 0.201374
0.580379 -0.064560 0.220022
0.515399 0.005758 0.211286
0.638803 0.061616 0.163802
0.599701 0.003130 0.240113
0.541055 -0.046776 0.198283
0.635293 0.076845 0.213222
0.538937 0.008086 0.171521
0.553536 0.012805 0.242623
0.565901 -0.032128 0.242630
0.615740 0.019779 0.206344
0.547925 0.048492 0.145882
0.571672 0.032825 0.212641
0.649101 -0.004667 0.188558
0.588062 -0.038106 0.193727
0.601259 -0.033603 0.235569
0.672942 0.018617 0.172706
0.546327 -0.071237 0.222869
0.613365 0.053487 0.200506
0.557515 0.061238 0.175852
0.540337 0.028694 0.198299
0.534194 -0.018689 0.222894
0.603586 -0.008114 0.196921
0.580488 0.027757 0.243029
0.653190 0.061829 0.190902
0.640341 -0.002330 0.217274
0.662876 0.043828 0.159942
0.513976 0.021513 0.186332
0.631419 0.081234 0.183523
0.525238 0.027293 0.156008
0.630520 0.040844 0.218479
0.608853 -0.049692 0.215034
0.633061 0.037144 0.187402
0.544204 0.036787 0.171577
0.519349 -0.038466 0.209969
0.589150 0.012392 0.218581
0.583242 -0.012544 0.222841
0.545100 -0.012580 0.244998
0.518687 -0.002958 0.183370
0.542998 -0.043114 0.228069
0.619631 -0.017072 0.233646
0.597038 0.035118 0.212633
0.562866 -0.035803 0.200747
0.658492 0.070408 0.152109
0.648078 0.046418 0.140554
0.651013 0.022420 0.161010
0.557776 0.069822 0.152488
0.536822 0.062644 0.163145
0.613255 0.068903 0.218988
0.667007 0.009998 0.195098
0.573252 -0.000838 0.243548
0.539227 -0.003565 0.205242
0.561056 -0.055750 0.235098
0.632793 0.011490 0.190106
0.636572 0.096450 0.199604
0.582976 -0.046506 0.233650
0.637214 0.019669 0.217256
0.563779 -0.057327 0.204779
0.662920 0.044080 0.182746
0.619220 -0.005802 0.213326
0.636538 0.055046 0.203327
0.609302 0.017916 0.227688
0.653477 0.021293 0.182749
0.537378 0.006385 0.230413
0.562231 0.028444 0.231512
0.641583 0.041130 0.166502
0.564985 0.047658 0.157592
0.537109 0.049117 0.186800
0.584356 -0.022426 0.240582
0.657819 0.063292 0.171194
0.611973 -0.034185 0.197991
0.618874 0.075763 0.198399
0.671714 0.023004 0.152599
0.552802 -0.016906 0.215808
0.634921 -0.013706 0.199326
0.535157 0.010737 0.191328
0.553848 0.009885 0.205221
0.648812 0.012575 0.202574
0.620203 -0.036088 0.228105
0.585986 0.003913 0.200970
0.584474 -0.057315 0.196289
0.523007 0.037103 0.193929
0.635218 0.059083 0.183930
0.581280 0.041733 0.227025
0.540719 -0.031749 0.243489
0.541730 -0.030299 0.207916
0.596453 0.053648 0.210570
0.576486 -0.020330 0.198276
0.648255 0.090321 0.184645
0.538817 -0.062311 0.208089
0.595206 0.029049 0.231129
0.611716 0.044020 0.219095
0.569097 0.079521 0.162533
0.525798 0.030021 0.175876
0.521633 0.020751 0.203735
0.521779 0.009934 0.166942
0.573771 0.014689 0.208140
0.529955 0.046877 0.158950
0.595783 -0.022881 0.201718
0.628745 0.007907 0.206610
0.570373 0.061206 0.144311
0.632419 0.030305 0.204467
0.522496 -0.006061 0.200900
0.617975 0.036572 0.195714
0.599084 -0.051931 0.228643
0.574379 0.062807 0.167263
0.549431 0.017583 0.226873
0.544302 0.021967 0.179449
0.656039 -0.002452 0.203632
0.535844 -0.003705 0.182710
0.627216 0.060817 0.215638
0.657263 0.006043 0.177803
0.539647 0.021757 0.162472
0.622568 0.009802 0.222454
0.620245 0.028364 0.220455
0.646846 0.045660 0.188719
0.633411 0.094860 0.174988
0.669833 0.030054 0.186764
0.554424 -0.053680 0.217415
0.569590 -0.016013 0.239471
0.545142 -0.063263 0.236763
0.639442 -0.018045 0.214375
0.550241 0.053937 0.162896
0.644111 0.041552 0.207191
0.640117 0.078279 0.198118
0.553774 0.074448 0.167147
0.557783 0.025219 0.211727
0.597140 -0.056341 0.205781
0.531624 0.008857 0.211495
0.601991 -0.045816 0.193982
0.644780 0.035509 0.151535
0.664873 0.032157 0.170368
0.579947 0.023610 0.227972
0.613953 -0.001884 0.236397
0.604330 0.009246 0.206808
0.648166 0.050356 0.155521
0.526249 -0.006059 0.219046
0.542801 -0.005539 0.220058
0.587211 0.014126 0.244805
0.541365 0.062959 0.177651
0.549283 0.037836 0.157302
0.618441 0.055161 0.226842
0.660434 0.035153 0.147133
0.567001 0.021407 0.244317
0.531165 -0.019728 0.207245
0.644390 0.067958 0.176168
0.626280 0.049336 0.192675
0.648993 0.075362 0.162389
0.540165 -0.046344 0.246089
0.519574 0.007432 0.193758
0.630965 -0.026138 0.226950
0.601407 0.000888 0.225778
0.553746 -0.024779 0.246041
0.605551 0.064415 0.206758
0.594540 -0.012176 0.241472
0.637546 0.023974 0.183790
0.618418 -0.020679 0.216862
0.587260 0.024039 0.210463
0.662088 0.012442 0.165706
0.526800 -0.047066 0.198052
0.574111 -0.048448 0.200285
0.653719 0.049275 0.169347
0.528625 -0.033291 0.232513
0.644062 0.007806 0.182416
0.552934 -0.003789 0.202304
0.625608 0.063545 0.199624
0.647005 0.032234 0.177080
0.627508 0.085600 0.203014
0.540123 -0.043171 0.212798
0.603707 0.058471 0.221377
0.610443 0.032842 0.206709
0.547357 -0.021591 0.227618
0.606447 0.018389 0.241014
0.623087 0.042992 0.207400
0.658055 0.014491 0.152685
0.532019 -0.005368 0.234228
0.620847 -0.040186 0.213831
0.651278 0.050932 0.200818
0.645154 0.063540 0.152159
0.521520 0.037876 0.164153
0.530840 -0.031994 0.215491
0.603712 0.024561 0.217680
0.570358 -0.046459 0.237633
0.585004 -0.000690 0.237544
0.628545 0.093457 0.187444
0.559088 0.055698 0.149034
0.603965 0.038413 0.228423
0.587619 0.043808 0.215294
0.612475 -0.021270 0.199904
0.570836 -0.061382 0.228359
0.538694 0.048364 0.169261
0.644072 0.024989 0.202117
0.583337 -0.057283 0.209214
0.622573 0.075504 0.210823
0.658114 0.019367 0.196046
0.645963 0.054073 0.178543
0.635534 -0.001146 0.190529
0.515886 0.023499 0.170756
0.647518 0.032068 0.189990
0.611155 0.004569 0.216716
0.651109 0.025389 0.146647
0.528150 0.005616 0.178218
0.546509 0.063421 0.154680
0.587728 0.038143 0.240747
0.658404 0.048477 0.148229
0.624762 0.019848 0.195101
0.557465 -0.017994 0.204137
0.649311 -0.009530 0.212185
0.611938 -0.027019 0.233720
0.544975 0.036382 0.184089
0.586148 -0.035328 0.238352
0.645300 0.017782 0.191564
0.520034 -0.036184 0.222256
0.574086 -0.036898 0.195366
0.575513 0.056671 0.154716
0.537861 0.053502 0.151191
0.610374 -0.046775 0.228029
0.641061 0.009277 0.211624
0.565207 0.052748 0.168840
0.627899 -0.004908 0.204239
0.513320 0.009007 0.183312
0.646685 0.101015 0.170702
0.595239 0.028671 0.243360
0.534761 0.032693 0.164993
0.586188 0.031711 0.221306
0.562314 0.066391 0.163897
0.572140 0.073883 0.148789
0.569940 -0.062618 0.214134
0.646377 0.089131 0.196581
0.654694 0.060028 0.158859
0.606328 -0.011172 0.237418
0.644118 0.100756 0.190122
0.549960 -0.001608 0.244453
0.604546 0.043609 0.208672
0.599961 0.047111 0.220369
0.537982 0.035401 0.153872
0.656048 0.041580 0.195002
0.673522 0.017461 0.184480
0.516654 0.036034 0.184041
0.609291 -0.001255 0.204636
0.552022 -0.053257 0.205921
0.655225 0.036563 0.165381
0.658671 0.033250 0.184008
0.666930 0.033114 0.157609
0.624481 0.070463 0.221843
0.588720 0.017144 0.232148
0.642328 0.060010 0.194483
0.668927 0.027843 0.142480
