ply
format ascii 1.0
element vertex 256
property float x
property float y
property float z
end_header
0.443199 0.134114 0.220298
0.484513 0.255741 0.167983
0.352726 0.195468 0.147292
0.333206 0.131392 0.235555
0.492843 0.166262 0.150789
0.421677 0.218207 0.217453
0.420595 0.207757 0.138697
0.381905 0.167542 0.199418
0.388520 0.106064 0.203934
0.471693 0.184770 0.203979
0.395811 0.141190 0.243138
0.472860 0.212771 0.143478
0.346074 0.147891 0.169464
0.463168 0.233040 0.203448
0.429022 0.175132 0.230750
0.344712 0.114301 0.197987
0.389105 0.185333 0.236713
0.387291 0.185455 0.128072
0.352695 0.169918 0.226527
0.361324 0.103973 0.237663
0.436159 0.193455 0.192472
0.417318 0.155423 0.198890
0.352699 0.183485 0.181696
0.395593 0.202600 0.197826
0.373543 0.164954 0.153733
0.417049 0.109937 0.224530
0.478533 0.212187 0.179397
0.466931 0.151122 0.197726
0.390152 0.207324 0.153881
0.467217 0.182882 0.164625
0.497674 0.178839 0.183760
0.358092 0.144533 0.201340
0.436812 0.227275 0.190683
0.365197 0.148105 0.242608
0.455958 0.161804 0.223094
0.337054 0.165200 0.197613
0.459812 0.240858 0.175904
0.424386 0.142255 0.240243
0.476413 0.185222 0.137540
0.405981 0.177029 0.212788
0.411878 0.128037 0.204030
0.454858 0.206291 0.208820
0.444803 0.168409 0.199017
0.387556 0.111426 0.237979
0.358807 0.124138 0.219896
0.346935 0.168204 0.151000
0.397124 0.152961 0.219454
0.382718 0.135793 0.199430
0.373999 0.188429 0.164538
0.375761 0.193600 0.211021
0.452942 0.209189 0.181855
0.404180 0.199893 0.222652
0.404731 0.164025 0.240817
0.397556 0.207502 0.130116
0.332031 0.134682 0.211467
0.373837 0.204886 0.136006
0.475024 0.169009 0.182986
0.434637 0.195453 0.216525
0.480692 0.242236 0.187078
0.355986 0.100188 0.212689
0.361059 0.176567 0.134710
0.443538 0.228646 0.214053
0.487179 0.192864 0.167874
0.416341 0.196155 0.202989
0.478591 0.164620 0.211069
0.410669 0.124725 0.241173
0.338524 0.168448 0.172305
0.342576 0.150811 0.223413
0.354787 0.160075 0.186159
0.377134 0.130012 0.243122
0.435640 0.157844 0.217056
0.462303 0.210886 0.162657
0.454182 0.183204 0.216030
0.443448 0.150996 0.237447
0.467620 0.193000 0.182978
0.376294 0.105368 0.221402
0.426007 0.176348 0.203466
0.400458 0.188188 0.143820
0.350726 0.127363 0.245748
0.367307 0.183713 0.230285
0.484750 0.214216 0.160094
0.428805 0.117838 0.208663
0.342274 0.185640 0.162267
0.355450 0.163457 0.207135
0.430122 0.139558 0.206528
0.364681 0.124485 0.201045
0.364335 0.171907 0.170787
0.408714 0.184531 0.235538
0.421721 0.216482 0.197154
0.429792 0.121406 0.234103
0.361722 0.146766 0.223205
0.466908 0.215479 0.195778
0.382234 0.154817 0.236634
0.463745 0.249093 0.193214
0.477693 0.196921 0.152231
0.372662 0.185887 0.146040
0.364138 0.153575 0.167395
0.452570 0.185414 0.195803
0.398230 0.107248 0.219631
0.490960 0.172673 0.199767
0.482031 0.172074 0.166048
0.367885 0.203072 0.155689
0.401111 0.173791 0.195626
0.462885 0.168880 0.203184
0.454647 0.143107 0.209583
0.406929 0.219730 0.139377
0.453967 0.226490 0.185740
0.484669 0.193746 0.187279
0.442304 0.212488 0.198066
0.410726 0.196310 0.129071
0.458256 0.172692 0.185634
0.476684 0.238988 0.170658
0.356968 0.193855 0.168692
0.396440 0.145720 0.201904
0.499080 0.173221 0.166823
0.350282 0.140565 0.235174
0.409543 0.111318 0.204230
0.408739 0.205467 0.150463
0.490736 0.182445 0.154730
0.439282 0.175902 0.217521
0.381415 0.196178 0.226244
0.448228 0.238213 0.199229
0.470379 0.252924 0.178899
0.438396 0.213285 0.214954
0.440186 0.133474 0.236767
0.365488 0.166298 0.235555
0.416488 0.167492 0.224324
0.367451 0.173467 0.195853
0.385704 0.196266 0.142392
0.474013 0.223665 0.167309
0.390438 0.216909 0.140754
0.468759 0.231979 0.188362
0.339968 0.154952 0.184628
0.464794 0.199949 0.196977
0.393081 0.194077 0.213202
0.343099 0.149104 0.201079
0.372515 0.115316 0.240665
0.347313 0.132912 0.208940
0.419233 0.198905 0.218735
0.410768 0.209255 0.209317
0.379176 0.173278 0.233912
0.419070 0.158588 0.239129
0.466523 0.154765 0.214486
0.479712 0.160711 0.196304
0.392092 0.123735 0.200050
0.472616 0.178931 0.150848
0.483069 0.181785 0.178138
0.473087 0.198139 0.166740
0.449089 0.157079 0.208653
0.357207 0.157318 0.151934
0.364717 0.182598 0.215571
0.356716 0.179311 0.152859
0.355599 0.155283 0.234116
0.431131 0.224906 0.204639
0.351019 0.171048 0.195448
0.371783 0.157775 0.195521
0.367960 0.110706 0.210714
0.402739 0.190403 0.202946
0.454743 0.145861 0.223808
0.488693 0.164928 0.176728
0.394834 0.123675 0.240417
0.433552 0.144207 0.223553
0.413998 0.166205 0.207702
0.453443 0.194273 0.184397
0.437836 0.184612 0.203583
0.373285 0.188196 0.128283
0.377453 0.190135 0.197338
0.476661 0.223447 0.151989
0.419846 0.185838 0.213333
0.480668 0.179368 0.192866
0.465070 0.216245 0.181028
0.384390 0.179372 0.142012
0.400652 0.186109 0.224384
0.369050 0.148360 0.211593
0.340366 0.171498 0.185615
0.452855 0.222821 0.205785
0.350738 0.171537 0.163712
0.371521 0.169450 0.139827
0.428569 0.202914 0.198676
0.430000 0.163419 0.204998
0.411783 0.147108 0.240508
0.448020 0.195884 0.217341
0.466924 0.168450 0.216433
0.350000 0.147802 0.212715
0.484144 0.174754 0.145324
0.416987 0.142150 0.199561
0.362709 0.114297 0.229428
0.360536 0.097246 0.226332
0.387347 0.179560 0.199467
0.377858 0.177290 0.155508
0.398020 0.193013 0.131844
0.461473 0.160885 0.190834
0.379332 0.142188 0.238355
0.488188 0.248784 0.178618
0.453495 0.170373 0.213606
0.400363 0.109317 0.237068
0.395383 0.173947 0.236761
0.394604 0.198001 0.231214
0.427709 0.168841 0.216567
0.354626 0.161343 0.171421
0.398395 0.207631 0.212641
0.385423 0.202510 0.130890
0.377863 0.213564 0.144609
0.340702 0.182770 0.174689
0.480736 0.165344 0.154936
0.442673 0.202579 0.207345
0.467469 0.181370 0.177653
0.427339 0.206120 0.210995
0.456568 0.239489 0.188804
0.485211 0.214859 0.145620
0.443999 0.202450 0.188123
0.481004 0.176295 0.206796
0.427633 0.118135 0.222094
0.475406 0.207037 0.190489
0.357872 0.148326 0.176996
0.360711 0.117540 0.244315
0.412375 0.195426 0.141390
0.435285 0.165700 0.235840
0.456040 0.194252 0.206140
0.360290 0.164668 0.141883
0.398334 0.196771 0.152440
0.365805 0.209341 0.145265
0.474360 0.190102 0.192925
0.391691 0.161838 0.239964
0.465921 0.188872 0.154074
0.412821 0.173190 0.237267
0.398499 0.208012 0.142820
0.412768 0.209705 0.129611
0.486019 0.169126 0.189213
0.364578 0.184834 0.179722
0.409239 0.192597 0.214412
0.416036 0.114731 0.236960
0.346263 0.157061 0.157044
0.486583 0.188831 0.145354
0.354401 0.155524 0.197972
0.477255 0.200290 0.177895
0.409176 0.198799 0.233571
0.427307 0.190457 0.204072
0.352341 0.134246 0.219709
0.420096 0.188128 0.235504
0.454960 0.211504 0.198123
0.372039 0.142992 0.201410
0.368568 0.196898 0.143067
0.479225 0.184996 0.163898
0.384732 0.156069 0.200577
0.344260 0.159522 0.207230
0.419701 0.181444 0.224350
0.390977 0.190812 0.198527
0.493699 0.183018 0.170654
0.467666 0.171309 0.192714
0.358611 0.133571 0.205544
0.349262 0.195157 0.159940
0.341933 0.136832 0.227836
0.471746 0.240844 0.195484
0.472675 0.207891 0.158141
0.464161 0.179195 0.210847
