ply
format ascii 1.0
element vertex 256
property float x
property float y
property float z
end_header
0.636613 -0.034687 0.209526
0.649028 0.102603 0.179672
0.527824 0.037285 0.172482
0.531588 -0.051622 0.240403
0.672899 0.019216 0.139292
0.606730 0.045024 0.229365
0.590866 0.059832 0.153722
0.574730 -0.013989 0.203909
0.661798 0.026571 0.202381
0.590797 -0.071866 0.219406
0.523237 -0.004373 0.209088
0.607209 -0.003390 0.239421
0.667386 0.059110 0.167367
0.550977 -0.055747 0.197273
0.640392 0.071211 0.212226
0.547971 -0.002119 0.170021
0.560674 0.004428 0.241507
0.574834 -0.039971 0.241777
0.622833 0.013765 0.205720
0.557073 0.037855 0.144003
0.579589 0.025457 0.207483
0.657128 -0.009475 0.188087
0.597635 -0.045208 0.193083
0.610281 -0.040045 0.235019
0.680563 0.014591 0.174529
0.557017 -0.079899 0.221988
0.632249 0.043658 0.191960
0.650675 0.028525 0.165823
0.565102 0.051169 0.174184
0.547884 0.019070 0.196379
0.546751 -0.032341 0.219154
0.611914 -0.014607 0.196302
0.586998 0.020453 0.242088
0.648277 -0.007203 0.216780
0.636642 0.075386 0.182514
0.522155 0.010891 0.183697
0.655438 0.042550 0.140259
0.534275 0.016362 0.153648
0.658232 0.054034 0.195243
0.636665 0.035477 0.217835
0.615789 0.063335 0.201762
0.618692 -0.055881 0.214606
0.553245 -0.021268 0.243900
0.552429 0.026716 0.169632
0.528856 -0.048280 0.208747
0.642482 0.011899 0.185889
0.596480 0.005371 0.217768
0.544579 -0.007330 0.223356
0.591543 -0.019769 0.222065
0.527647 -0.013492 0.181425
0.612941 0.036990 0.206573
0.627990 -0.022795 0.233192
0.571006 -0.063793 0.234286
0.572308 -0.043899 0.199883
0.566469 0.059355 0.150716
0.669716 0.035606 0.180383
0.545055 0.052228 0.160451
0.580913 -0.008408 0.242646
0.673349 0.005457 0.196540
0.627020 0.055659 0.223380
0.568644 0.020916 0.228004
0.641136 0.090756 0.198646
0.543173 -0.010419 0.200250
0.592549 -0.053679 0.232992
0.644224 0.014630 0.216594
0.663092 0.010125 0.156927
0.606616 0.023475 0.225263
0.574051 -0.065356 0.203998
0.552516 -0.051916 0.227062
0.672691 0.030039 0.159436
0.627323 -0.011614 0.212902
0.587365 0.034398 0.226042
0.573539 0.037328 0.156551
0.672086 0.079204 0.168634
0.544479 0.039150 0.184340
0.649992 0.042211 0.180866
0.561423 0.001404 0.204120
0.592901 -0.029542 0.239849
0.621332 -0.040316 0.197535
0.661793 0.070216 0.183674
0.660862 0.008884 0.176699
0.643426 -0.018926 0.198992
0.629373 -0.041791 0.227723
0.593810 -0.003285 0.200161
0.653175 0.005384 0.201608
0.594801 -0.064538 0.195683
0.639102 0.026276 0.198704
0.530484 0.026887 0.191252
0.549651 -0.040603 0.242421
0.562710 -0.028246 0.204564
0.649270 0.059156 0.171793
0.585315 -0.027898 0.197472
0.644322 0.047663 0.206031
0.657174 0.045911 0.158406
0.635143 0.000775 0.198753
0.549282 -0.071329 0.207114
0.629941 0.004140 0.221932
0.534098 -0.024503 0.208439
0.645871 0.086236 0.171190
0.534661 -0.023182 0.228900
0.529235 0.010709 0.201358
0.577227 0.069295 0.161138
0.534084 0.019515 0.173460
0.538341 0.036130 0.156321
0.635266 0.063100 0.195405
0.530933 -0.000858 0.164834
0.581111 0.007015 0.207189
0.655054 0.024572 0.186101
0.596800 0.022375 0.210165
0.654252 0.085693 0.188053
0.604669 -0.029660 0.201085
0.579501 0.050681 0.143320
0.604388 0.013618 0.240273
0.623814 0.026328 0.224683
0.673458 0.022203 0.190404
0.629033 0.078891 0.201203
0.564683 0.016905 0.210605
0.556515 0.008987 0.225706
0.608905 -0.058468 0.228139
0.582361 0.052698 0.166411
0.543908 0.000935 0.187811
0.552674 0.012071 0.177822
0.598397 0.041316 0.215313
0.552301 -0.017471 0.212829
0.554111 -0.047404 0.211309
0.548606 0.011377 0.160707
0.660209 0.024456 0.149574
0.615054 0.002907 0.215271
0.663966 -0.006806 0.203133
0.628994 0.052632 0.207599
0.564449 -0.062048 0.216541
0.577899 -0.023731 0.238592
0.544830 -0.013760 0.181354
0.555394 -0.071934 0.235844
0.648045 -0.022972 0.214051
0.558516 0.043603 0.161014
0.657507 0.071478 0.165684
0.561723 0.064205 0.165078
0.624849 0.069049 0.214639
0.607335 -0.063025 0.205278
0.611861 -0.052351 0.193483
0.587193 0.015932 0.224561
0.621683 -0.007839 0.235842
0.619811 0.040813 0.220766
0.624451 0.030582 0.195014
0.667416 0.022676 0.172285
0.677445 0.015382 0.158921
0.668791 0.056652 0.182448
0.526652 -0.013631 0.196648
0.613841 0.057923 0.215889
0.548874 0.052818 0.175156
0.635341 0.090505 0.181747
0.557959 0.027615 0.155515
0.573766 0.013569 0.243284
0.644201 0.076111 0.198638
0.642352 0.054744 0.185263
0.549661 -0.055200 0.245068
0.651464 0.039715 0.195800
0.616315 0.011730 0.227024
0.606244 0.049981 0.204758
0.543297 0.006182 0.201810
0.639736 -0.031420 0.226624
0.562365 -0.033106 0.245058
0.550144 -0.004549 0.237045
0.602657 -0.018888 0.240789
0.610844 0.019625 0.211981
0.648386 0.034040 0.152725
0.662789 0.046460 0.172379
0.627067 -0.026502 0.216412
0.609127 -0.005608 0.225109
0.536748 -0.056611 0.196923
0.537279 -0.002920 0.210971
0.666159 0.037345 0.148523
0.549261 -0.033760 0.205221
0.584055 -0.056082 0.199560
0.619689 -0.003918 0.203701
0.537723 -0.042665 0.231350
0.643424 -0.006511 0.190025
0.661703 0.014453 0.195124
0.561084 -0.012305 0.201243
0.631144 0.013376 0.193951
0.626491 0.034396 0.208463
0.646806 0.032044 0.208660
0.619308 0.047045 0.199593
0.604172 -0.003243 0.209171
0.524111 -0.001494 0.191025
0.540319 -0.041638 0.211511
0.630304 -0.045905 0.213470
0.599289 0.033174 0.232085
0.529989 0.027001 0.161433
0.654519 0.017123 0.208179
0.579906 -0.054127 0.236867
0.592701 -0.007807 0.236741
0.543230 -0.016341 0.236869
0.568027 0.045183 0.147576
0.639555 0.031726 0.186794
0.621299 -0.027384 0.199406
0.581063 -0.069049 0.227650
0.535740 -0.015841 0.218157
0.546700 0.038066 0.166898
0.593553 -0.064511 0.208597
0.668029 0.069870 0.158341
0.639928 0.000788 0.210996
0.524538 0.012608 0.168154
0.537036 -0.004758 0.176407
0.555143 0.052922 0.152461
0.632679 0.020030 0.215431
0.667065 -0.000395 0.187052
0.656028 0.092028 0.176364
0.594248 0.007109 0.243968
0.671711 0.008343 0.167658
0.657544 -0.014070 0.211764
0.620703 -0.033043 0.233237
0.552785 0.026592 0.182169
0.595229 -0.042368 0.237681
0.529343 -0.045933 0.221030
0.583608 -0.044558 0.194600
0.553954 -0.022431 0.224168
0.584146 0.046356 0.154043
0.671952 0.069356 0.176545
0.546732 0.042890 0.148722
0.619983 -0.052864 0.227603
0.666479 0.032551 0.192589
0.573177 0.042610 0.167707
0.603888 0.010728 0.207011
0.595690 0.010108 0.231315
0.651565 0.002706 0.181813
0.635954 -0.010446 0.203779
0.656724 0.054750 0.182190
0.543334 0.022218 0.162827
0.570457 0.056148 0.162393
0.638296 0.082548 0.208198
0.658667 0.017629 0.165399
0.580976 0.063444 0.147659
0.674479 0.011545 0.184670
0.580339 -0.070364 0.213422
0.661769 0.033292 0.164816
0.651909 0.040405 0.167841
0.635616 0.060336 0.214417
0.614429 -0.017424 0.236832
0.646722 0.095588 0.189266
0.546819 0.024839 0.151719
0.678441 0.022455 0.149403
0.661927 0.014587 0.143159
0.524503 0.025432 0.181183
0.617768 0.049111 0.229267
0.656545 -0.001125 0.211034
0.562130 -0.061757 0.205026
0.661197 0.041065 0.186495
0.593076 0.025383 0.220908
0.617791 0.025583 0.204693
0.614484 0.035906 0.229931
0.558598 -0.010904 0.243611
0.619400 0.005043 0.236053
0.666441 0.028755 0.140292
0.624890 0.068172 0.195596
