ply
format ascii 1.0
element vertex 256
property float x
property float y
property float z
end_header
0.516099 0.009907 0.221001
0.456058 0.128822 0.155846
0.578053 0.108011 0.176182
0.406638 0.025772 0.235255
0.513179 0.100041 0.239629
0.415852 0.067963 0.173598
0.469323 0.047845 0.256536
0.552370 0.047340 0.162294
0.455621 -0.006838 0.210680
0.546485 0.058411 0.218519
0.549721 0.132564 0.215320
0.491806 0.052267 0.212097
0.426115 0.067741 0.220004
0.437379 -0.001836 0.257347
0.437437 0.104589 0.189194
0.481699 -0.003306 0.245250
0.542720 0.094983 0.196208
0.444861 0.031183 0.220492
0.508787 0.039900 0.247140
0.463502 0.078944 0.229013
0.436063 0.096479 0.152501
0.430504 0.047635 0.253478
0.569431 0.072356 0.186281
0.538745 0.028997 0.198675
0.488912 0.077593 0.254780
0.423215 -0.008169 0.225576
0.516848 0.078557 0.214353
0.482688 0.020652 0.208224
0.561985 0.086685 0.157834
0.412237 0.088925 0.200656
0.411988 0.049825 0.198921
0.564497 0.137426 0.189251
0.520649 0.109502 0.212017
0.456937 0.020726 0.253072
0.520608 0.039375 0.220299
0.566632 0.046956 0.200831
0.537681 0.066895 0.193202
0.492515 0.088994 0.223738
0.503401 0.064644 0.234814
0.437842 0.077038 0.192476
0.494037 -0.005639 0.214789
0.474739 0.033921 0.233299
0.457020 0.102728 0.168804
0.414504 0.012005 0.261774
0.538555 0.109147 0.231948
0.458345 0.054343 0.220341
0.542661 0.084540 0.221202
0.504046 0.010822 0.245625
0.446265 0.068515 0.245372
0.456564 -0.011037 0.242524
0.421845 0.042111 0.221672
0.418724 0.015219 0.216486
0.543916 0.032480 0.222774
0.427055 0.013345 0.240194
0.437516 0.120884 0.171035
0.414619 0.093976 0.176974
0.527024 0.067102 0.233205
0.554071 0.103136 0.176943
0.567780 0.094595 0.193912
0.549298 0.077564 0.176039
0.548708 0.120510 0.195560
0.466828 0.070828 0.256764
0.548351 0.047433 0.187046
0.556778 0.074664 0.206285
0.570544 0.052640 0.174975
0.454651 0.107801 0.146126
0.459283 0.016468 0.211242
0.485325 0.021408 0.252433
0.470987 -0.014737 0.224929
0.559891 0.063845 0.149319
0.492664 0.054969 0.251778
0.521291 0.058453 0.205110
0.440686 0.084216 0.170085
0.481034 0.066962 0.234151
0.429914 0.056093 0.188197
0.522009 0.022183 0.240839
0.439458 0.031163 0.242942
0.407452 0.069783 0.210359
0.436723 0.007041 0.221725
0.540862 0.110747 0.211768
0.501313 0.034496 0.210703
0.432262 0.022722 0.259557
0.432585 0.053315 0.234513
0.434936 -0.014890 0.242717
0.479233 0.086117 0.237853
0.525616 0.094015 0.226142
0.569247 0.089648 0.175198
0.431170 0.087973 0.206363
0.500366 -0.005883 0.232453
0.420393 0.038592 0.240535
0.537473 0.044587 0.208935
0.509365 0.081168 0.240973
0.526629 0.084742 0.199790
0.424657 0.106243 0.167271
0.476951 -0.004343 0.207771
0.448391 0.046694 0.258016
0.533763 0.048524 0.229465
0.506133 0.099289 0.217000
0.414601 0.056662 0.230069
0.407936 0.076909 0.187605
0.527092 0.019839 0.210340
0.469373 0.030967 0.215280
0.553675 0.035415 0.206514
0.504635 0.045839 0.224695
0.504988 0.022991 0.225553
0.562098 0.066386 0.166746
0.468249 0.113849 0.155794
0.433906 0.069211 0.176441
0.439152 0.113635 0.154726
0.458693 0.003165 0.252628
0.487065 0.038594 0.254611
0.531703 0.067914 0.215318
0.563852 0.126613 0.202734
0.424673 0.088498 0.162670
0.442343 -0.007978 0.227610
0.517074 0.058116 0.222628
0.429658 0.063590 0.203444
0.440086 0.047278 0.217887
0.555338 0.082242 0.191216
0.424568 0.113319 0.182702
0.555911 0.063538 0.191040
0.562929 0.110007 0.189559
0.556005 0.092066 0.205878
0.459302 0.118944 0.172010
0.550697 0.138371 0.198207
0.420315 0.100623 0.192416
0.431272 0.022907 0.223955
0.549770 0.059502 0.174803
0.530990 0.119264 0.221416
0.477369 0.058964 0.214093
0.444643 0.062615 0.221084
0.441135 0.104087 0.168021
0.505139 0.069138 0.219545
0.472853 0.031950 0.255716
0.555064 0.117840 0.216306
0.497158 0.090822 0.239173
0.488785 0.073905 0.221931
0.551545 0.053213 0.204782
0.507073 0.083334 0.225532
0.431436 0.091109 0.180374
0.413320 0.054438 0.214902
0.515893 0.005818 0.237247
0.409336 0.059727 0.187568
0.447782 0.030098 0.260928
0.456739 0.059519 0.258662
0.419416 0.022859 0.249354
0.518487 0.108723 0.227084
0.533093 0.052849 0.196893
0.471773 0.010941 0.253016
0.566175 0.053069 0.159511
0.496220 0.044375 0.237146
0.434721 0.000052 0.240774
0.462476 0.078164 0.243978
0.548587 0.061450 0.159412
0.477035 0.086918 0.223243
0.419227 0.081336 0.212007
0.448714 0.111801 0.179351
0.426940 0.046922 0.199198
0.575450 0.083821 0.162763
0.501906 0.019925 0.211596
0.563817 0.045266 0.185582
0.493704 0.073435 0.241727
0.529605 0.018901 0.224579
0.564556 0.112841 0.175091
0.526244 0.033909 0.203637
0.544285 0.123019 0.225060
0.541123 0.074997 0.207242
0.415105 0.068327 0.197397
0.505552 0.026140 0.248317
0.477339 0.075147 0.246602
0.459448 0.037033 0.256927
0.529023 0.080335 0.227206
0.483673 -0.011674 0.230366
0.429507 0.008503 0.262768
0.529169 0.085565 0.213610
0.569115 0.058850 0.192355
0.470203 -0.010701 0.240103
0.504977 0.061262 0.251358
0.438620 0.041547 0.230664
0.526666 0.102388 0.238279
0.460930 0.120616 0.145980
0.549430 0.045256 0.216037
0.439653 0.057766 0.252751
0.539700 0.128837 0.201485
0.519367 0.095978 0.211948
0.571026 0.075694 0.173251
0.427621 0.053389 0.212066
0.515581 0.073590 0.230144
0.435789 0.036252 0.260517
0.420746 0.023257 0.232196
0.451591 0.112059 0.159006
0.439288 0.093774 0.197650
0.487909 0.053843 0.233178
0.419559 0.079263 0.179337
0.465583 0.065281 0.221753
0.555731 0.101861 0.196935
0.454190 -0.013410 0.229857
0.499193 0.007216 0.210234
0.539657 0.091762 0.209002
0.469058 0.005197 0.211692
0.445763 0.094378 0.160805
0.518299 0.049581 0.232274
0.562499 0.063670 0.179672
0.524352 0.072222 0.202060
0.557524 0.088033 0.169999
0.552362 0.093823 0.186374
0.519323 0.088296 0.236962
0.503322 0.056638 0.217065
0.542199 0.082144 0.196505
0.491082 0.010692 0.248305
0.514988 0.028815 0.215658
0.556250 0.044707 0.175257
0.531989 0.101798 0.212885
0.551518 0.053254 0.150321
0.447865 -0.004542 0.250998
0.431024 0.077015 0.212431
0.574387 0.099376 0.184383
0.531558 0.031751 0.221482
0.548640 0.035382 0.194735
0.529806 0.058234 0.222913
0.427192 0.076821 0.165732
0.484191 0.008514 0.209745
0.555431 0.128499 0.189019
0.547367 0.072081 0.186901
0.448190 0.122421 0.164727
0.522307 0.045168 0.209619
0.534033 0.040773 0.195248
0.484915 0.064407 0.251773
0.515070 0.066539 0.211684
0.429017 0.031460 0.235255
0.540037 0.026374 0.213164
0.538724 0.124588 0.212658
0.414445 0.065145 0.220139
0.509919 -0.000475 0.227718
0.474615 0.061980 0.258238
0.459439 0.042661 0.218517
0.556348 0.063958 0.211285
0.497565 0.080259 0.231840
0.561574 0.142832 0.199346
0.545808 0.057027 0.195230
0.497928 0.001321 0.242320
0.431817 0.034527 0.222289
0.530032 0.116164 0.209800
0.475005 0.077560 0.230598
0.437367 0.062237 0.241164
0.465192 -0.008182 0.217224
0.505675 0.098862 0.230810
0.419744 0.058436 0.193345
0.436248 0.111716 0.180084
0.565305 0.071501 0.197091
0.539151 0.073249 0.222338
0.427330 0.006482 0.215044
0.430768 0.101833 0.176209
0.546747 0.066927 0.201005
0.436197 0.065823 0.190563
0.550304 0.083361 0.210682
