ply
format ascii 1.0
element vertex 256
property float x
property float y
property float z
end_header
0.655121 -0.045914 0.148333
0.550931 0.064567 0.132226
0.676489 0.074335 0.110544
0.548473 -0.064107 0.175388
0.628855 0.036448 0.180984
0.532360 0.007569 0.173038
0.696629 0.010343 0.134378
0.604843 -0.026979 0.193095
0.600838 -0.078422 0.141926
0.649273 0.083719 0.158575
0.680433 0.027225 0.087298
0.649141 0.029506 0.133012
0.619078 -0.011793 0.147635
0.588324 -0.083630 0.190422
0.577802 -0.030491 0.155958
0.662930 -0.003149 0.161989
0.527978 0.027067 0.133899
0.629288 -0.070920 0.173893
0.536221 -0.028980 0.149923
0.596908 0.015764 0.164729
0.634359 -0.003318 0.186241
0.567556 -0.038176 0.193909
0.671859 -0.017280 0.130032
0.681842 0.041463 0.125905
0.552358 0.001901 0.143729
0.572361 -0.090610 0.159655
0.548501 0.041405 0.156846
0.640969 -0.038770 0.177889
0.618646 -0.044142 0.140492
0.632159 0.052415 0.152843
0.553464 -0.015790 0.175044
0.587274 -0.001402 0.187528
0.600111 -0.056043 0.187282
0.653841 0.025416 0.162349
0.675337 0.012516 0.113452
0.660375 0.096434 0.134419
0.658524 0.056995 0.125146
0.650591 0.000373 0.137164
0.525299 -0.004240 0.142085
0.637608 -0.066508 0.142320
0.610753 -0.036333 0.167782
0.630611 0.012134 0.156040
0.575883 -0.065839 0.171012
0.557432 0.038217 0.128876
0.669901 0.048973 0.101645
0.613607 0.013699 0.190773
0.563314 -0.077562 0.198912
0.671370 0.014936 0.144510
0.672276 -0.027021 0.154992
0.611292 -0.005520 0.171892
0.554537 -0.040398 0.166603
0.607150 -0.085321 0.172669
0.646340 -0.021942 0.152806
0.643981 0.056623 0.175373
0.666022 0.043227 0.145796
0.555902 0.012554 0.165961
0.591268 -0.050231 0.149096
0.684092 -0.006271 0.147744
0.616276 0.032792 0.161388
0.695578 0.021768 0.106106
0.628809 -0.020516 0.170839
0.560392 -0.068758 0.154269
0.597975 -0.019837 0.157066
0.651020 0.074654 0.138072
0.619551 -0.082886 0.153391
0.537209 0.047747 0.138803
0.647309 -0.058051 0.169158
0.580929 0.000676 0.166032
0.564234 0.051421 0.145217
0.539161 0.018045 0.150577
0.532794 -0.016825 0.168037
0.572363 -0.017353 0.187772
0.665000 0.032664 0.115327
0.554096 -0.017330 0.153556
0.576822 -0.042920 0.175432
0.620752 -0.053329 0.183278
0.571618 -0.058662 0.194845
0.655374 0.062511 0.159260
0.641322 -0.003041 0.164711
0.624032 -0.030424 0.188196
0.616829 -0.010346 0.193017
0.659991 -0.034491 0.168948
0.627997 0.016107 0.175411
0.587665 -0.095302 0.174493
0.677204 0.062958 0.127306
0.633000 -0.031043 0.138580
0.658424 -0.029015 0.137877
0.668316 0.002324 0.129324
0.584678 -0.069743 0.147947
0.687116 0.042218 0.107138
0.535629 0.008553 0.132385
0.587900 -0.042197 0.191317
0.566290 0.055979 0.125712
0.637713 0.070263 0.153189
0.684593 0.022367 0.126128
0.641959 0.039065 0.168156
0.620055 -0.069549 0.137272
0.548711 -0.032644 0.182116
0.590780 -0.085062 0.159786
0.545610 0.023861 0.131691
0.587822 -0.016281 0.197723
0.540976 -0.014386 0.140458
0.613362 0.009218 0.161571
0.568816 -0.053171 0.160517
0.534836 -0.001089 0.157662
0.637505 0.024207 0.145146
0.652876 0.014197 0.148814
0.606589 -0.072196 0.184320
0.687038 0.002388 0.121712
0.526228 0.021592 0.161837
0.547302 0.057551 0.150284
0.680658 0.030463 0.141036
0.663296 0.080763 0.148862
0.677795 0.027190 0.104341
0.559194 -0.052083 0.181510
0.540439 0.039169 0.124306
0.642734 -0.021922 0.180745
0.604060 -0.038908 0.150153
0.532729 0.036621 0.152969
0.661443 -0.014065 0.149152
0.548104 0.000167 0.174154
0.647592 0.012142 0.170397
0.652683 0.045745 0.136036
0.665708 0.025735 0.130377
0.647780 0.091563 0.143864
0.649219 -0.061841 0.152906
0.629167 0.049154 0.168858
0.572533 -0.016575 0.162567
0.612129 0.022565 0.173336
0.641530 -0.037154 0.155676
0.603444 0.001971 0.186133
0.563493 -0.028918 0.176812
0.525236 0.014672 0.143566
0.540655 0.028353 0.163978
0.541173 -0.031831 0.166309
0.637135 -0.009266 0.150377
0.664444 0.063165 0.111808
0.661240 0.027521 0.147451
0.612498 -0.040994 0.189809
0.552073 0.052261 0.120178
0.626252 0.000401 0.165361
0.620854 0.003586 0.180752
0.667188 0.057695 0.137806
0.564090 0.066231 0.139863
0.601255 -0.060011 0.142909
0.666051 0.040859 0.129768
0.634744 -0.055174 0.177846
0.631457 0.037365 0.152332
0.583060 -0.080954 0.174597
0.681266 0.011832 0.099656
0.646263 0.050785 0.158251
0.684868 0.008813 0.144254
0.642049 -0.070515 0.163196
0.675938 0.049654 0.115159
0.633156 0.027581 0.165489
0.667396 0.001367 0.148744
0.645041 0.071019 0.165823
0.638343 -0.052321 0.139037
0.585480 -0.054968 0.197808
0.648092 0.032550 0.150936
0.552489 0.043068 0.143046
0.623918 -0.026829 0.148986
0.601172 0.014184 0.178809
0.561498 -0.061566 0.169657
0.582394 -0.030950 0.198016
0.685317 -0.005690 0.133692
0.578693 -0.076626 0.197933
0.591808 -0.008008 0.161503
0.601833 0.001578 0.163938
0.650616 -0.004723 0.154349
0.638825 0.010401 0.143800
0.547986 0.028256 0.147170
0.619712 -0.080788 0.168971
0.658227 -0.051485 0.163825
0.581373 -0.046359 0.157757
0.634377 -0.074848 0.152671
0.659214 0.012444 0.130228
0.658794 -0.011006 0.136180
0.683765 0.031935 0.116415
0.527926 -0.016089 0.148082
0.536108 -0.005519 0.176797
0.676889 -0.018914 0.145211
0.567547 -0.036802 0.166116
0.557676 -0.027533 0.163969
0.596130 -0.005861 0.196643
0.695976 0.012130 0.120223
0.662318 0.009840 0.157541
0.538736 0.034654 0.138632
0.660968 0.093610 0.147426
0.678014 0.010451 0.132810
0.692078 0.025819 0.093149
0.603858 -0.087006 0.160097
0.562249 0.068425 0.126405
0.661977 -0.034833 0.149600
0.651742 0.065231 0.146936
0.651704 -0.044303 0.173233
0.547129 -0.020050 0.164418
0.542275 -0.002074 0.135497
0.622735 0.020182 0.162298
0.548706 0.012069 0.135795
0.615230 -0.058794 0.142420
0.556729 0.053393 0.134659
0.591799 -0.030996 0.155897
0.552990 0.020504 0.156045
0.543947 0.012597 0.170984
0.677740 0.040787 0.095743
0.632164 -0.017027 0.185984
0.556567 -0.001048 0.164715
0.671920 -0.014321 0.156365
0.603750 -0.009823 0.151933
0.542186 -0.021024 0.177288
0.634692 0.061888 0.162145
0.641597 0.080811 0.147513
0.683032 0.064398 0.114554
0.598205 -0.082518 0.182758
0.686139 0.019395 0.113979
0.635768 0.008330 0.167058
0.622655 0.045856 0.157577
0.563322 -0.064565 0.187630
0.681675 0.052730 0.102675
0.650093 0.006810 0.158856
0.621504 0.026516 0.181752
0.600340 -0.043709 0.187959
0.570810 -0.074421 0.150822
0.654426 0.085292 0.132872
0.670511 0.051778 0.126377
0.639191 0.044821 0.178606
0.526116 0.007223 0.159784
0.630603 -0.006731 0.174263
0.576680 -0.046215 0.194807
0.549982 -0.027165 0.148066
0.538249 0.048472 0.150689
0.591699 0.006946 0.179618
0.557708 -0.040149 0.179786
0.618165 -0.070321 0.178191
0.669056 0.070188 0.120248
0.641121 0.019608 0.161834
0.658899 0.034461 0.156545
0.631989 -0.010943 0.160708
0.611192 -0.077568 0.147247
0.542138 0.051478 0.126209
0.583682 -0.020438 0.155967
0.568962 -0.053077 0.172388
0.620604 0.035269 0.171888
0.658048 0.073802 0.159101
0.548436 0.010301 0.150664
0.631289 -0.077316 0.163533
0.550608 -0.002921 0.155008
0.667555 0.034047 0.138948
0.641346 0.058479 0.149463
0.669067 -0.024740 0.138794
0.691272 0.020177 0.136350
0.673181 0.025898 0.121832
0.617566 0.000874 0.191735
0.637255 0.028909 0.175952
0.610689 -0.059881 0.186508
