ply
format ascii 1.0
element vertex 256
property float x
property float y
property float z
end_header
0.646229 -0.042073 0.187916
0.650665 0.097787 0.167495
0.525245 0.021983 0.168049
0.546520 -0.069765 0.227433
0.677224 0.019346 0.126667
0.613322 0.035161 0.216725
0.581049 0.055581 0.143791
0.578301 -0.016047 0.192276
0.667352 0.017336 0.189427
0.592588 -0.074295 0.176565
0.606158 -0.049967 0.221819
0.533354 -0.029116 0.170665
0.665885 0.052563 0.158629
0.644593 0.066837 0.202881
0.623672 -0.003630 0.195159
0.548150 -0.072885 0.183316
0.593179 -0.007663 0.230585
0.555983 -0.030578 0.226776
0.632566 0.032649 0.177860
0.549060 0.029937 0.137584
0.572307 -0.094738 0.205145
0.662676 -0.014771 0.168426
0.610685 -0.040136 0.176608
0.541301 0.000324 0.193698
0.549850 -0.001171 0.155170
0.587136 0.020081 0.198242
0.624969 -0.070846 0.190446
0.686904 0.016081 0.160590
0.560741 0.041616 0.167245
0.558537 -0.042683 0.192491
0.632572 -0.032132 0.216821
0.600146 -0.078320 0.209963
0.655891 -0.015086 0.197269
0.664925 0.046001 0.129828
0.619612 0.055169 0.192475
0.642365 0.021090 0.204558
0.536173 -0.027171 0.205444
0.622226 0.000931 0.223370
0.639397 0.070783 0.175300
0.657593 0.046982 0.184999
0.642389 0.003697 0.175386
0.660232 0.025579 0.163660
0.599448 -0.029612 0.204126
0.566637 -0.067583 0.205284
0.583156 -0.033320 0.226872
0.564719 -0.006536 0.213956
0.670556 0.077430 0.149758
0.537361 -0.059409 0.204762
0.524434 -0.004115 0.163619
0.582568 -0.045993 0.182593
0.548495 0.021345 0.179623
0.600195 -0.001363 0.206765
0.614155 0.019788 0.196809
0.556766 0.051898 0.144927
0.538549 0.040988 0.157306
0.633961 0.047747 0.212599
0.635174 -0.054369 0.208429
0.595008 0.017125 0.220706
0.575457 -0.079064 0.223675
0.600233 -0.014183 0.184387
0.624726 -0.021859 0.180277
0.611575 -0.026096 0.224513
0.679651 0.002021 0.177438
0.645134 0.088011 0.189241
0.675707 0.030737 0.147265
0.570090 -0.082235 0.186761
0.567593 -0.045644 0.212627
0.547272 -0.022232 0.186964
0.625783 -0.055816 0.172809
0.525904 -0.013549 0.184441
0.532723 0.011569 0.149531
0.551924 0.021777 0.157909
0.669841 0.009081 0.144507
0.587692 -0.060452 0.224260
0.674048 0.037354 0.174930
0.617899 -0.066728 0.211057
0.566969 -0.060409 0.184737
0.567475 0.030682 0.147028
0.645615 0.051863 0.168864
0.571004 0.005102 0.198112
0.655645 0.036744 0.145654
0.643053 0.000964 0.199746
0.663862 0.070379 0.168080
0.523453 0.006422 0.182077
0.644422 -0.017347 0.180983
0.563705 -0.057295 0.228383
0.557578 -0.028636 0.207044
0.659853 -0.000309 0.183906
0.548186 -0.003275 0.175585
0.659422 0.005947 0.164871
0.651807 0.028493 0.181512
0.608728 0.039559 0.197371
0.574717 -0.011660 0.230433
0.547129 -0.043756 0.211163
0.618058 -0.016347 0.207625
0.548224 -0.018635 0.165018
0.627783 0.012702 0.186475
0.649182 -0.030527 0.208823
0.605938 -0.075527 0.189306
0.602111 -0.059084 0.178645
0.567921 0.062335 0.154403
0.625843 0.032808 0.200572
0.638982 0.056749 0.186342
0.632058 -0.033175 0.193864
0.585611 -0.081758 0.195292
0.676102 0.019761 0.174218
0.614040 0.017697 0.214403
0.580467 0.011407 0.212623
0.643689 0.037403 0.194325
0.639809 -0.057929 0.192012
0.569208 0.045834 0.134524
0.595277 -0.034741 0.184792
0.653675 0.081810 0.175931
0.656227 -0.028755 0.185269
0.575961 0.046246 0.156877
0.605014 0.005267 0.227203
0.539636 0.036088 0.173262
0.663597 0.023855 0.134874
0.628455 0.068931 0.189674
0.651466 0.071218 0.188243
0.671340 -0.011943 0.183705
0.639323 -0.017653 0.213564
0.655365 0.064189 0.154635
0.676680 0.064486 0.160008
0.674677 0.001993 0.161677
0.543698 -0.036529 0.193347
0.562860 -0.012123 0.193978
0.671601 0.047179 0.144322
0.684159 0.017813 0.143294
0.620493 -0.046210 0.215937
0.665719 0.055553 0.174291
0.602513 0.026604 0.207936
0.554156 0.054772 0.160329
0.562699 -0.027754 0.189307
0.639184 0.089046 0.174639
0.654040 0.011828 0.196515
0.553465 0.009745 0.167850
0.551515 -0.057649 0.198469
0.657922 0.040506 0.167280
0.582721 0.003230 0.227059
0.625543 0.012426 0.204331
0.538698 0.015856 0.163350
0.629939 0.060086 0.204451
0.677136 0.039293 0.160105
0.599252 -0.034584 0.227056
0.599168 0.010646 0.197555
0.624755 0.041608 0.187239
0.533013 -0.026346 0.189869
0.647801 -0.047548 0.203672
0.609723 0.000320 0.191056
0.535067 -0.011606 0.156154
0.575942 -0.048835 0.230247
0.546748 -0.016634 0.200722
0.570204 -0.027011 0.230425
0.671576 0.017487 0.158683
0.618018 0.047463 0.205542
0.637249 0.018913 0.175711
0.640028 -0.016135 0.198996
0.629440 -0.035677 0.179700
0.554511 -0.019341 0.217831
0.633533 -0.008679 0.184307
0.668642 0.062930 0.148296
0.598067 -0.061666 0.214518
0.536400 0.028457 0.144006
0.538374 0.011826 0.185992
0.550966 -0.059867 0.218372
0.665849 0.030848 0.185659
0.641380 0.052063 0.201418
0.565199 -0.071944 0.230181
0.587464 -0.005408 0.193144
0.645471 0.031961 0.169459
0.673326 0.033271 0.131254
0.592030 -0.022497 0.227528
0.644765 0.018266 0.188250
0.625983 -0.014463 0.218952
0.551825 0.035681 0.157833
0.580695 -0.080635 0.208179
0.612214 -0.008615 0.223279
0.571341 -0.039756 0.200695
0.626972 0.034599 0.214718
0.539433 -0.015068 0.178179
0.648417 -0.006165 0.189276
0.532411 -0.011268 0.196320
0.563306 -0.043471 0.230659
0.611387 -0.013659 0.192379
0.631628 -0.066482 0.201628
0.641986 0.042394 0.177903
0.535102 0.023009 0.178403
0.590247 -0.044771 0.226579
0.531840 -0.001172 0.174849
0.550963 0.018755 0.145138
0.559481 0.038415 0.140032
0.611546 0.004272 0.210157
0.651370 0.015580 0.168580
0.667759 0.010032 0.178655
0.612398 -0.077753 0.205621
0.612221 -0.065575 0.173711
0.665105 0.036526 0.156351
0.546842 0.043794 0.147849
0.524745 0.008017 0.159302
0.654843 0.061348 0.169724
0.545029 0.046978 0.166667
0.557298 -0.047726 0.204383
0.650633 -0.011085 0.170884
0.552204 0.008943 0.180585
0.593379 0.004465 0.219695
0.584197 0.007887 0.196392
0.592427 -0.074140 0.219018
0.547143 -0.028345 0.172988
0.665463 -0.020664 0.191315
0.636705 0.003494 0.189284
0.576236 0.041309 0.143765
0.653331 0.093670 0.179736
0.616502 0.027119 0.206598
0.650524 0.026718 0.195277
0.623919 0.001447 0.209848
0.639195 0.077856 0.193141
0.568501 0.034881 0.158595
0.668031 0.026258 0.122185
0.672312 -0.006379 0.172158
0.630305 0.027143 0.188667
0.527583 -0.000935 0.191765
0.532900 -0.000663 0.149821
0.685966 0.011991 0.172073
0.633349 0.044309 0.196523
0.563188 0.048300 0.155336
0.640457 -0.040256 0.212363
0.569846 0.058256 0.139925
0.647767 0.083613 0.165479
0.654906 -0.001150 0.198491
0.654631 -0.021880 0.174602
0.656001 0.037753 0.192643
0.527410 -0.016445 0.164148
0.539829 0.027209 0.155491
0.592575 0.013130 0.209685
0.663760 0.019305 0.145893
0.549161 -0.010589 0.188576
0.572079 -0.041628 0.188974
0.634393 -0.019617 0.188863
0.582577 -0.026712 0.189281
0.579732 -0.075945 0.183870
0.663150 -0.004947 0.161867
0.615608 -0.051432 0.176891
0.663719 -0.007819 0.192346
0.561357 -0.054081 0.192990
0.590284 -0.053853 0.178609
0.636574 0.010640 0.199838
0.659692 0.037686 0.178475
0.617041 0.009166 0.193389
0.605914 -0.074814 0.176351
0.654076 0.053038 0.157098
0.635726 -0.054929 0.178410
0.575715 -0.089486 0.214721
0.552774 0.010046 0.152329
0.545689 -0.032898 0.207912
0.613402 -0.020962 0.180234
