ply
format ascii 1.0
element vertex 256
property float x
property float y
property float z
end_header
0.502191 0.034997 0.206499
0.565257 0.158088 0.177391
0.427896 0.144862 0.174008
0.399452 0.059266 0.240057
0.548418 0.074823 0.132385
0.505971 0.118706 0.230283
0.493691 0.144170 0.151975
0.452995 0.078071 0.202790
0.549391 0.082211 0.197655
0.445793 0.018177 0.217241
0.409306 0.106782 0.209912
0.487793 0.074605 0.237509
0.561953 0.112463 0.162448
0.414826 0.048850 0.196373
0.546386 0.131704 0.210238
0.431728 0.100897 0.169873
0.447940 0.099724 0.240947
0.443861 0.053304 0.240369
0.508244 0.085116 0.203620
0.453863 0.135768 0.144064
0.471480 0.112584 0.210796
0.530217 0.050749 0.184606
0.461834 0.040658 0.191019
0.560130 0.064514 0.167895
0.476379 0.039699 0.232645
0.411595 0.023745 0.220662
0.528433 0.109334 0.190300
0.467660 0.144324 0.173881
0.440511 0.119654 0.196607
0.538648 0.088719 0.163275
0.418525 0.077284 0.221337
0.486886 0.063312 0.194164
0.478416 0.104341 0.240975
0.523764 0.055749 0.213592
0.543644 0.137484 0.180643
0.413160 0.122116 0.184964
0.514057 0.130454 0.204395
0.425376 0.123713 0.154501
0.556233 0.110248 0.193494
0.529521 0.099443 0.215930
0.477589 0.022258 0.211847
0.547954 0.102894 0.141296
0.446638 0.125980 0.169831
0.397551 0.064039 0.208523
0.525167 0.076194 0.183251
0.480822 0.087261 0.216250
0.466653 0.065890 0.220420
0.431218 0.078840 0.243276
0.409040 0.097541 0.181976
0.418356 0.051190 0.226146
0.499332 0.048816 0.230515
0.496051 0.105894 0.210338
0.439128 0.051498 0.198521
0.470558 0.152365 0.150502
0.448558 0.152827 0.161453
0.559932 0.089731 0.174929
0.552288 0.058296 0.190468
0.461673 0.080055 0.241400
0.428324 0.089757 0.203614
0.528360 0.122145 0.221586
0.579177 0.127165 0.167684
0.542111 0.066986 0.153478
0.430975 0.032958 0.232740
0.554114 0.149802 0.196622
0.454720 0.034003 0.230962
0.528396 0.077393 0.213933
0.558192 0.081946 0.151212
0.432537 0.030952 0.202365
0.502598 0.059798 0.210347
0.501765 0.085289 0.225026
0.430382 0.099508 0.228987
0.461379 0.111507 0.229803
0.469741 0.129059 0.155542
0.444446 0.139962 0.185123
0.534732 0.065365 0.198186
0.464509 0.055994 0.238058
0.485672 0.035941 0.194872
0.436503 0.072507 0.213915
0.534313 0.141813 0.197817
0.544232 0.101440 0.178786
0.429334 0.104637 0.189721
0.562378 0.123711 0.178845
0.446671 0.097398 0.203524
0.514336 0.047119 0.195947
0.493158 0.030871 0.224813
0.474644 0.080661 0.198633
0.540386 0.066460 0.173187
0.528042 0.090494 0.196584
0.451812 0.023870 0.193495
0.427132 0.133574 0.192434
0.483799 0.117385 0.225071
0.420407 0.062422 0.241695
0.421343 0.063923 0.206123
0.514888 0.068391 0.198469
0.515064 0.110878 0.212802
0.457250 0.061288 0.195922
0.541221 0.107986 0.204244
0.407455 0.034933 0.206094
0.492487 0.100587 0.228816
0.555901 0.144232 0.169009
0.484663 0.157528 0.160378
0.427079 0.126017 0.174357
0.420276 0.118689 0.202275
0.416228 0.108605 0.165497
0.467059 0.094918 0.206113
0.436637 0.140429 0.157362
0.564009 0.140335 0.185560
0.474495 0.052126 0.198987
0.555402 0.074290 0.181456
0.479297 0.139957 0.142169
0.564987 0.106626 0.178856
0.411727 0.093261 0.199461
0.532866 0.125196 0.194463
0.467851 0.023375 0.225615
0.483913 0.140003 0.165062
0.445530 0.105852 0.225314
0.441673 0.112026 0.177719
0.543209 0.087636 0.146207
0.553250 0.095725 0.159387
0.512842 0.099098 0.195890
0.424860 0.090882 0.181113
0.539677 0.086467 0.184118
0.514177 0.095838 0.222810
0.437038 0.113497 0.160799
0.511292 0.073135 0.219485
0.425226 0.037454 0.215199
0.452891 0.067166 0.237271
0.413467 0.031439 0.234639
0.517407 0.041329 0.210798
0.549862 0.077261 0.166148
0.458141 0.140025 0.161036
0.551100 0.131546 0.195015
0.468593 0.158041 0.165207
0.531236 0.135533 0.213048
0.455800 0.110308 0.210078
0.464159 0.020237 0.202758
0.425595 0.104032 0.209938
0.472204 0.028574 0.190956
0.542539 0.115321 0.186536
0.500483 0.120972 0.210575
0.533554 0.049503 0.199845
0.493779 0.079186 0.204174
0.476245 0.100852 0.225898
0.499347 0.064991 0.233491
0.431155 0.086586 0.218439
0.415439 0.091902 0.217564
0.555221 0.067905 0.145470
0.479990 0.089197 0.242518
0.453121 0.151508 0.175896
0.548101 0.151992 0.179940
0.451600 0.125241 0.155495
0.513983 0.126687 0.220367
0.463581 0.103071 0.242461
0.415118 0.077521 0.205730
0.550299 0.117581 0.170264
0.414837 0.048901 0.244189
0.517461 0.117565 0.197927
0.544634 0.098144 0.193740
0.413614 0.106947 0.192337
0.506696 0.036462 0.223539
0.574748 0.112365 0.169567
0.488402 0.072108 0.223128
0.435082 0.064380 0.244062
0.477640 0.062039 0.238841
0.496694 0.046091 0.213728
0.482993 0.098948 0.208261
0.401363 0.053549 0.196402
0.445250 0.035736 0.197751
0.518768 0.058716 0.187020
0.408376 0.065344 0.230933
0.515433 0.081765 0.191613
0.441004 0.084942 0.200516
0.415420 0.052351 0.210930
0.538358 0.083521 0.205921
0.571889 0.120489 0.157109
0.429939 0.069849 0.225786
0.502583 0.093921 0.212446
0.558035 0.094065 0.143848
0.499448 0.086542 0.238407
0.528708 0.118912 0.205727
0.544796 0.071414 0.190912
0.421317 0.090307 0.232806
0.492126 0.027004 0.210498
0.425661 0.134905 0.162676
0.410656 0.066024 0.213884
0.442969 0.038389 0.235176
0.557093 0.090977 0.187788
0.472651 0.076181 0.235181
0.545589 0.143766 0.204661
0.523272 0.104256 0.204957
0.466868 0.138668 0.147052
0.503921 0.106350 0.226023
0.540381 0.075225 0.143142
0.565261 0.127032 0.166513
0.490673 0.047844 0.196878
0.438079 0.024364 0.225777
0.528630 0.097065 0.185344
0.445466 0.138760 0.167566
0.450946 0.024116 0.206438
0.498710 0.072283 0.213966
0.415460 0.123361 0.169364
0.420833 0.102309 0.176701
0.457804 0.150240 0.152857
0.543091 0.101190 0.153096
0.488789 0.111583 0.238642
0.520861 0.067809 0.210013
0.567654 0.145706 0.173823
0.519825 0.086822 0.213288
0.561995 0.075894 0.162447
0.440325 0.070024 0.202151
0.488657 0.042174 0.230651
0.517498 0.115668 0.226341
0.447365 0.125295 0.182334
0.461658 0.043309 0.235693
0.399168 0.065769 0.220813
0.449182 0.046638 0.192926
0.543992 0.057163 0.199817
0.482693 0.133893 0.152511
0.446218 0.143927 0.149500
0.480220 0.024282 0.224834
0.471854 0.133724 0.166778
0.540742 0.055590 0.179003
0.494419 0.113895 0.219561
0.408165 0.110625 0.181968
0.529584 0.064239 0.178581
0.492564 0.100052 0.241041
0.557581 0.079345 0.139099
0.436286 0.125441 0.163366
0.484821 0.106362 0.219183
0.473783 0.147543 0.161854
0.485391 0.151231 0.146602
0.436602 0.023717 0.211561
0.537896 0.123401 0.212444
0.488977 0.058929 0.234579
0.544190 0.079599 0.155086
0.439590 0.087437 0.242728
0.560798 0.152316 0.187053
0.440119 0.126888 0.152208
0.560572 0.063109 0.179647
0.556903 0.100491 0.169563
0.420689 0.134808 0.182623
0.494736 0.067646 0.201827
0.546026 0.141632 0.191614
0.535281 0.057732 0.208093
0.422955 0.038848 0.203756
0.514116 0.055886 0.206912
0.482273 0.091676 0.229860
0.522332 0.132074 0.196497
0.536270 0.075404 0.180235
0.556294 0.065431 0.157064
0.461442 0.134697 0.171540
0.537295 0.094775 0.208907
0.549663 0.060352 0.169829
0.439925 0.074211 0.237569
0.553342 0.118908 0.186533
0.430061 0.123565 0.199130
