ply
format ascii 1.0
element vertex 256
property float x
property float y
property float z
end_header
0.627558 -0.029179 0.209864
0.644566 0.108082 0.180462
0.519931 0.047999 0.175476
0.522204 -0.041994 0.241591
0.659522 0.024357 0.136934
0.601464 0.050740 0.232592
0.582158 0.070211 0.154231
0.566511 -0.005995 0.204846
0.655621 0.031463 0.201432
0.580371 -0.064524 0.220020
0.515386 0.005789 0.211287
0.638982 0.061783 0.163933
0.599690 0.003167 0.240110
0.541045 -0.046742 0.198283
0.635257 0.076887 0.213138
0.538894 0.008132 0.171508
0.553525 0.012839 0.242622
0.565892 -0.032093 0.242629
0.615748 0.019832 0.206349
0.547809 0.048545 0.145854
0.571658 0.032860 0.212640
0.649138 -0.004601 0.188609
0.588051 -0.038069 0.193725
0.601249 -0.033566 0.235566
0.673024 0.018700 0.172851
0.546319 -0.071204 0.222868
0.613324 0.053509 0.200470
0.557409 0.061308 0.175813
0.540291 0.028747 0.198281
0.534183 -0.018656 0.222895
0.603574 -0.008077 0.196918
0.580475 0.027793 0.243027
0.653253 0.061892 0.191065
0.640318 -0.002311 0.217310
0.662901 0.043887 0.160003
0.513928 0.021531 0.186338
0.631370 0.081263 0.183444
0.525157 0.027319 0.156003
0.630513 0.040869 0.218555
0.608844 -0.049654 0.215031
0.635629 0.042087 0.185284
0.544125 0.036840 0.171554
0.519339 -0.038434 0.209970
0.589137 0.012429 0.218579
0.583231 -0.012508 0.222839
0.545090 -0.012546 0.244998
0.518668 -0.002935 0.183377
0.542989 -0.043081 0.228069
0.619621 -0.017033 0.233642
0.597023 0.035154 0.212630
0.635356 0.017376 0.186552
0.562856 -0.035769 0.200746
0.658732 0.070596 0.152358
0.648102 0.046475 0.140615
0.651123 0.022535 0.161114
0.557639 0.069888 0.152447
0.536704 0.062686 0.163124
0.613228 0.068943 0.218936
0.667037 0.010043 0.195214
0.573242 -0.000803 0.243547
0.539215 -0.003531 0.205242
0.561048 -0.055715 0.235097
0.636523 0.096480 0.199525
0.582968 -0.046470 0.233648
0.637201 0.019700 0.217284
0.563770 -0.057292 0.204778
0.662948 0.044137 0.182823
0.619205 -0.005764 0.213312
0.636571 0.055094 0.203442
0.609289 0.017953 0.227684
0.537367 0.006418 0.230413
0.562218 0.028479 0.231511
0.564881 0.047735 0.157549
0.537027 0.049164 0.186781
0.647854 0.010590 0.202248
0.584346 -0.022390 0.240579
0.641207 0.040215 0.161552
0.657968 0.063411 0.171414
0.618823 0.075785 0.198334
0.611962 -0.034147 0.197988
0.671842 0.023124 0.152749
0.552791 -0.016872 0.215808
0.634908 -0.013667 0.199322
0.535127 0.010782 0.191318
0.553835 0.009919 0.205221
0.620193 -0.036050 0.228101
0.585972 0.003949 0.200968
0.653951 0.021008 0.180809
0.584465 -0.057279 0.196287
0.522947 0.037133 0.193925
0.581266 0.041769 0.227023
0.540711 -0.031716 0.243489
0.541719 -0.030266 0.207916
0.618815 0.035178 0.195647
0.628045 0.006531 0.201619
0.596422 0.053674 0.210551
0.576474 -0.020294 0.198274
0.648206 0.090351 0.184565
0.538808 -0.062278 0.208089
0.595193 0.029085 0.231127
0.611698 0.044060 0.219069
0.568956 0.079603 0.162481
0.525731 0.030051 0.175870
0.521602 0.020782 0.203735
0.521729 0.009958 0.166944
0.573758 0.014725 0.208138
0.529852 0.046910 0.158937
0.595772 -0.022844 0.201715
0.570239 0.061287 0.144261
0.522484 -0.006028 0.200901
0.635307 0.059181 0.184036
0.634858 0.027637 0.202286
0.599076 -0.051894 0.228640
0.574264 0.062897 0.167210
0.549418 0.017617 0.226873
0.648451 0.050113 0.176730
0.544248 0.022021 0.179429
0.535825 -0.003661 0.182702
0.666385 0.028329 0.189425
0.539579 0.021803 0.162456
0.622556 0.009841 0.222450
0.627188 0.060859 0.215580
0.620227 0.028390 0.220486
0.653870 0.034956 0.171195
0.633361 0.094890 0.174908
0.554416 -0.053646 0.217414
0.569580 -0.015978 0.239470
0.649901 0.046354 0.199090
0.545135 -0.063229 0.236763
0.639417 -0.018020 0.214381
0.550133 0.053996 0.162865
0.640069 0.078309 0.198038
0.553644 0.074512 0.167109
0.557770 0.025254 0.211726
0.597131 -0.056304 0.205778
0.531611 0.008890 0.211496
0.601981 -0.045779 0.193979
0.652149 -0.004719 0.203966
0.579934 0.023646 0.227970
0.604317 0.009283 0.206805
0.613942 -0.001846 0.236393
0.657329 0.006125 0.177890
0.526237 -0.006027 0.219047
0.542789 -0.005506 0.220057
0.648980 0.034054 0.149857
0.650943 0.052543 0.155852
0.587199 0.014162 0.244803
0.541258 0.063009 0.177626
0.549190 0.037892 0.157275
0.618427 0.055211 0.226798
0.566988 0.021441 0.244316
0.531153 -0.019695 0.207245
0.644522 0.068074 0.176346
0.649193 0.075523 0.162614
0.540157 -0.046310 0.246089
0.519560 0.007464 0.193759
0.630955 -0.026099 0.226945
0.668973 0.032512 0.170021
0.601396 0.000925 0.225775
0.553737 -0.024745 0.246040
0.605513 0.064441 0.206718
0.594530 -0.012139 0.241469
0.625409 0.045915 0.203555
0.618407 -0.020641 0.216858
0.587246 0.024075 0.210461
0.662183 0.012543 0.165816
0.526790 -0.047033 0.198052
0.574101 -0.048412 0.200283
0.645376 0.032049 0.187632
0.635568 -0.001076 0.190557
0.528616 -0.033259 0.232514
0.662489 0.035403 0.146100
0.610458 0.032898 0.206727
0.552921 -0.003755 0.202303
0.625563 0.063570 0.199564
0.624088 0.019245 0.194630
0.627460 0.085629 0.202935
0.540114 -0.043138 0.212798
0.603686 0.058511 0.221346
0.547347 -0.021558 0.227618
0.606436 0.018426 0.241011
0.647746 0.023305 0.208881
0.644119 0.007886 0.182478
0.658179 0.014618 0.152790
0.532008 -0.005335 0.234228
0.620838 -0.040148 0.213827
0.642441 0.044356 0.210043
0.521433 0.037899 0.164149
0.530829 -0.031961 0.215492
0.603698 0.024601 0.217668
0.570350 -0.046424 0.237631
0.584993 -0.000654 0.237541
0.655477 0.019778 0.195303
0.628495 0.093486 0.187364
0.558966 0.055765 0.148995
0.603951 0.038451 0.228419
0.587604 0.043844 0.215292
0.612464 -0.021232 0.199900
0.570829 -0.061347 0.228357
0.538598 0.048410 0.169241
0.645386 0.063742 0.152325
0.583328 -0.057247 0.209212
0.622535 0.075539 0.210754
0.515823 0.023516 0.170760
0.611139 0.004606 0.216703
0.528116 0.005650 0.178215
0.546381 0.063474 0.154651
0.587715 0.038179 0.240744
0.633558 0.008087 0.213302
0.557454 -0.017960 0.204136
0.659760 0.048667 0.171232
0.611929 -0.026981 0.233716
0.544907 0.036438 0.184066
0.586140 -0.035292 0.238350
0.520025 -0.036152 0.222257
0.574075 -0.036862 0.195365
0.659307 0.006066 0.204264
0.575394 0.056760 0.154663
0.537743 0.053543 0.151170
0.610366 -0.046737 0.228026
0.565105 0.052827 0.168796
0.513286 0.009023 0.183321
0.646635 0.101045 0.170622
0.595227 0.028707 0.243357
0.534682 0.032733 0.164980
0.586174 0.031748 0.221304
0.562191 0.066465 0.163853
0.571995 0.073967 0.148735
0.625148 0.046279 0.189773
0.569932 -0.062583 0.214132
0.646329 0.089161 0.196501
0.606318 -0.011135 0.237415
0.644068 0.100786 0.190042
0.650960 0.042609 0.185774
0.549949 -0.001574 0.244452
0.599946 0.047148 0.220366
0.604517 0.043636 0.208655
0.633033 0.029120 0.190565
0.639037 0.037605 0.197198
0.537889 0.035443 0.153855
0.658504 0.031206 0.156462
0.673579 0.017523 0.184624
0.516587 0.036054 0.184042
0.609278 -0.001217 0.204632
0.635000 0.030979 0.213979
0.650639 0.003549 0.212217
0.552013 -0.053223 0.205921
0.631459 -0.005460 0.210286
0.624456 0.070511 0.221778
0.588708 0.017180 0.232146
0.664657 0.023661 0.163410
0.642372 0.060062 0.194623
0.629598 0.074894 0.192909
0.592094 0.043442 0.230647
0.554941 0.050127 0.173425
0.661471 0.029566 0.178173
