ply
format ascii 1.0
element vertex 256
property float x
property float y
property float z
end_header
0.627563 -0.029182 0.209898
0.644787 0.108082 0.180790
0.520008 0.047999 0.175506
0.522207 -0.042000 0.241619
0.659488 0.024337 0.136900
0.601465 0.050682 0.232672
0.582240 0.070193 0.154279
0.566515 -0.006000 0.204876
0.655562 0.031459 0.201275
0.580377 -0.064528 0.220053
0.515390 0.005782 0.211314
0.638689 0.061588 0.163761
0.599692 0.003164 0.240141
0.541051 -0.046749 0.198312
0.635360 0.076827 0.213392
0.538928 0.008112 0.171548
0.553526 0.012834 0.242650
0.565896 -0.032097 0.242659
0.615718 0.019805 0.206367
0.547892 0.048525 0.145900
0.571660 0.032855 0.212668
0.649118 -0.004617 0.188615
0.588057 -0.038074 0.193757
0.601253 -0.033569 0.235598
0.672988 0.018681 0.172818
0.546325 -0.071209 0.222899
0.613424 0.053523 0.200592
0.557490 0.061290 0.175859
0.540326 0.028720 0.198326
0.534187 -0.018663 0.222922
0.603579 -0.008081 0.196949
0.580476 0.027790 0.243056
0.653136 0.061855 0.190845
0.640327 -0.002303 0.217323
0.662642 0.043739 0.159757
0.513965 0.021537 0.186359
0.631547 0.081277 0.183695
0.525227 0.027317 0.156035
0.630504 0.040888 0.218466
0.608850 -0.049658 0.215064
0.635510 0.042019 0.185175
0.544192 0.036813 0.171604
0.519344 -0.038441 0.209998
0.589140 0.012425 0.218609
0.583235 -0.012513 0.222869
0.545093 -0.012551 0.245026
0.518679 -0.002934 0.183398
0.542994 -0.043087 0.228098
0.619624 -0.017036 0.233675
0.597033 0.035137 0.212657
0.635262 0.017313 0.186499
0.562862 -0.035774 0.200776
0.658347 0.070371 0.152009
0.647733 0.046218 0.140439
0.557720 0.069869 0.152493
0.536785 0.062667 0.163169
0.651087 0.022515 0.161080
0.613301 0.068904 0.219103
0.667020 0.010039 0.195187
0.573244 -0.000807 0.243576
0.539219 -0.003538 0.205269
0.561053 -0.055720 0.235127
0.636692 0.096456 0.199815
0.582972 -0.046474 0.233680
0.637204 0.019723 0.217219
0.563777 -0.057298 0.204809
0.662818 0.044088 0.182607
0.619219 -0.005767 0.213375
0.636500 0.055077 0.203294
0.609291 0.017950 0.227715
0.537369 0.006413 0.230440
0.562219 0.028474 0.231539
0.564963 0.047716 0.157596
0.537096 0.049143 0.186826
0.647844 0.010586 0.202241
0.584349 -0.022394 0.240610
0.657721 0.063289 0.171108
0.640962 0.040044 0.161441
0.611968 -0.034151 0.198021
0.618968 0.075796 0.198537
0.671807 0.023104 0.152716
0.552795 -0.016877 0.215837
0.634914 -0.013670 0.199355
0.535147 0.010763 0.191356
0.553839 0.009913 0.205249
0.653914 0.020989 0.180775
0.620198 -0.036053 0.228134
0.585977 0.003944 0.200998
0.584472 -0.057284 0.196319
0.522995 0.037128 0.193955
0.581267 0.041765 0.227052
0.540714 -0.031721 0.243517
0.541725 -0.030272 0.207945
0.618736 0.035124 0.195613
0.628009 0.006503 0.201620
0.596493 0.053689 0.210625
0.576479 -0.020300 0.198305
0.648394 0.090339 0.184866
0.538815 -0.062284 0.208119
0.595199 0.029072 0.231154
0.611727 0.044023 0.219159
0.569037 0.079585 0.162528
0.525787 0.030045 0.175902
0.521623 0.020776 0.203762
0.521770 0.009958 0.166969
0.573762 0.014719 0.208167
0.529942 0.046901 0.158976
0.595777 -0.022848 0.201747
0.570322 0.061268 0.144308
0.522489 -0.006036 0.200928
0.634806 0.027617 0.202207
0.635151 0.059090 0.183901
0.599081 -0.051897 0.228673
0.574345 0.062879 0.167257
0.648262 0.050004 0.176559
0.549421 0.017611 0.226900
0.544292 0.021993 0.179476
0.535836 -0.003679 0.182738
0.627257 0.060806 0.215764
0.539637 0.021783 0.162499
0.622559 0.009838 0.222482
0.666356 0.028319 0.189382
0.620236 0.028405 0.220465
0.633575 0.094917 0.175189
0.554421 -0.053652 0.217444
0.569583 -0.015982 0.239500
0.649824 0.046336 0.198923
0.545140 -0.063235 0.236793
0.653686 0.034846 0.171038
0.639429 -0.018015 0.214410
0.550215 0.053977 0.162911
0.640214 0.078283 0.198301
0.553724 0.074493 0.167155
0.557773 0.025248 0.211754
0.597137 -0.056308 0.205811
0.531615 0.008884 0.211523
0.601988 -0.045783 0.194012
0.652145 -0.004719 0.203969
0.579935 0.023645 0.228000
0.613945 -0.001849 0.236425
0.657295 0.006102 0.177878
0.604321 0.009279 0.206836
0.526241 -0.006033 0.219074
0.542793 -0.005512 0.220085
0.648680 0.033840 0.149731
0.650649 0.052359 0.155632
0.587201 0.014159 0.244833
0.541339 0.062990 0.177671
0.549272 0.037862 0.157328
0.618453 0.055141 0.226941
0.566990 0.021437 0.244344
0.531158 -0.019702 0.207273
0.644300 0.067956 0.176103
0.648867 0.075337 0.162300
0.540161 -0.046315 0.246118
0.519565 0.007457 0.193786
0.630959 -0.026102 0.226979
0.668937 0.032493 0.169988
0.601399 0.000921 0.225806
0.553740 -0.024749 0.246069
0.605613 0.064450 0.206850
0.594533 -0.012143 0.241500
0.625347 0.045888 0.203469
0.662454 0.035383 0.146066
0.618412 -0.020644 0.216891
0.587246 0.024066 0.210490
0.662148 0.012524 0.165783
0.526797 -0.047040 0.198081
0.574107 -0.048417 0.200315
0.645272 0.031998 0.187507
0.635550 -0.001095 0.190573
0.528620 -0.033265 0.232542
0.610417 0.032867 0.206725
0.552926 -0.003761 0.202332
0.625683 0.063566 0.199752
0.624019 0.019195 0.194609
0.627606 0.085612 0.203187
0.540119 -0.043144 0.212827
0.603734 0.058481 0.221454
0.547351 -0.021563 0.227647
0.606437 0.018423 0.241042
0.647719 0.023314 0.208771
0.644089 0.007862 0.182478
0.658145 0.014598 0.152756
0.532011 -0.005341 0.234256
0.620843 -0.040151 0.213861
0.642401 0.044362 0.209906
0.521508 0.037900 0.164179
0.530834 -0.031968 0.215520
0.603701 0.024594 0.217712
0.570354 -0.046428 0.237662
0.584996 -0.000658 0.237572
0.628683 0.093497 0.187633
0.559049 0.055746 0.149041
0.655457 0.019771 0.195280
0.603965 0.038429 0.228445
0.587622 0.043835 0.215318
0.612469 -0.021236 0.199933
0.570834 -0.061352 0.228389
0.538680 0.048391 0.169287
0.583335 -0.057252 0.209244
0.645013 0.063495 0.152101
0.622643 0.075508 0.210967
0.611154 0.004605 0.216764
0.515876 0.023523 0.170783
0.528141 0.005641 0.178246
0.546464 0.063455 0.154696
0.587715 0.038176 0.240774
0.633559 0.008097 0.213280
0.557459 -0.017965 0.204165
0.659555 0.048565 0.170981
0.611932 -0.026983 0.233749
0.544963 0.036408 0.184115
0.586143 -0.035295 0.238382
0.520030 -0.036158 0.222284
0.574081 -0.036868 0.195395
0.659300 0.006068 0.204250
0.575477 0.056741 0.154710
0.537826 0.053523 0.151216
0.610370 -0.046740 0.228059
0.565187 0.052809 0.168843
0.513311 0.009030 0.183339
0.646865 0.101061 0.170940
0.595228 0.028704 0.243387
0.534750 0.032718 0.165020
0.586181 0.031741 0.221332
0.562272 0.066447 0.163900
0.572077 0.073949 0.148782
0.625041 0.046214 0.189687
0.569938 -0.062588 0.214164
0.646492 0.089129 0.196796
0.606320 -0.011138 0.237447
0.644261 0.100769 0.190355
0.604577 0.043642 0.208723
0.549951 -0.001579 0.244481
0.599967 0.047129 0.220391
0.650840 0.042558 0.185602
0.632942 0.029067 0.190488
0.638961 0.037572 0.197090
0.537972 0.035423 0.153901
0.658469 0.031186 0.156428
0.673542 0.017504 0.184591
0.516642 0.036058 0.184067
0.609282 -0.001221 0.204664
0.634984 0.030989 0.213903
0.650642 0.003556 0.212214
0.552019 -0.053228 0.205951
0.631463 -0.005462 0.210311
0.624523 0.070444 0.221982
0.588703 0.017173 0.232176
0.664621 0.023641 0.163376
0.642283 0.060040 0.194437
0.592112 0.043431 0.230673
0.629757 0.074902 0.193141
0.555022 0.050109 0.173471
0.661434 0.029546 0.178139
