ply
format ascii 1.0
element vertex 256
property float x
property float y
property float z
end_header
0.627559 -0.029205 0.209891
0.644762 0.108049 0.180707
0.520082 0.047991 0.175503
0.522203 -0.042017 0.241611
0.659536 0.024352 0.136891
0.601474 0.050674 0.232646
0.582398 0.070060 0.154370
0.566513 -0.006020 0.204868
0.655624 0.031436 0.201458
0.580371 -0.064549 0.220045
0.515388 0.005766 0.211305
0.638680 0.061571 0.163685
0.599690 0.003143 0.240134
0.541047 -0.046767 0.198305
0.635344 0.076807 0.213306
0.538956 0.008081 0.171553
0.553525 0.012816 0.242642
0.565891 -0.032116 0.242652
0.615706 0.019775 0.206354
0.548011 0.048480 0.145928
0.571660 0.032835 0.212660
0.649116 -0.004641 0.188608
0.588053 -0.038095 0.193749
0.601249 -0.033590 0.235591
0.672995 0.018659 0.172819
0.546319 -0.071227 0.222891
0.613400 0.053485 0.200551
0.557591 0.061211 0.175907
0.540357 0.028683 0.198336
0.534184 -0.018680 0.222915
0.603576 -0.008103 0.196942
0.580476 0.027770 0.243048
0.653097 0.061819 0.190753
0.640325 -0.002327 0.217316
0.662852 0.043822 0.159998
0.513997 0.021534 0.186346
0.631520 0.081244 0.183613
0.525291 0.027306 0.156032
0.630501 0.040872 0.218419
0.632976 0.037115 0.187343
0.608845 -0.049680 0.215057
0.544255 0.036775 0.171618
0.519340 -0.038458 0.209990
0.589139 0.012404 0.218601
0.583232 -0.012533 0.222862
0.545090 -0.012569 0.245018
0.518683 -0.002942 0.183385
0.542989 -0.043104 0.228091
0.619621 -0.017058 0.233667
0.597033 0.035115 0.212649
0.562858 -0.035794 0.200769
0.658353 0.070359 0.151962
0.648010 0.046367 0.140637
0.557881 0.069797 0.152545
0.651109 0.022511 0.161060
0.536911 0.062642 0.163183
0.613292 0.068884 0.219046
0.667019 0.010014 0.195180
0.573241 -0.000826 0.243569
0.539217 -0.003556 0.205261
0.561047 -0.055739 0.235120
0.632809 0.011519 0.190147
0.636666 0.096423 0.199732
0.582967 -0.046494 0.233672
0.637203 0.019674 0.217309
0.563771 -0.057317 0.204802
0.619207 -0.005789 0.213337
0.662953 0.044109 0.182849
0.636477 0.055049 0.203227
0.609290 0.017928 0.227708
0.653500 0.021324 0.182803
0.537367 0.006395 0.230432
0.562219 0.028455 0.231531
0.641575 0.041122 0.166608
0.565061 0.047625 0.157651
0.537162 0.049112 0.186837
0.584346 -0.022414 0.240603
0.657704 0.063260 0.171055
0.618937 0.075756 0.198468
0.611964 -0.034173 0.198013
0.671838 0.023101 0.152720
0.552792 -0.016896 0.215829
0.634911 -0.013693 0.199348
0.535161 0.010733 0.191358
0.553838 0.009894 0.205241
0.648815 0.012589 0.202639
0.620193 -0.036075 0.228127
0.585975 0.003923 0.200990
0.584466 -0.057304 0.196312
0.523040 0.037113 0.193953
0.635118 0.059056 0.183819
0.581268 0.041744 0.227044
0.540710 -0.031739 0.243510
0.541721 -0.030290 0.207937
0.596479 0.053657 0.210600
0.576476 -0.020320 0.198297
0.648368 0.090305 0.184784
0.538809 -0.062302 0.208111
0.595199 0.029051 0.231147
0.611724 0.044004 0.219130
0.569205 0.079482 0.162601
0.525838 0.030030 0.175901
0.521639 0.020761 0.203755
0.521803 0.009949 0.166961
0.573760 0.014700 0.208159
0.530028 0.046884 0.158980
0.632375 0.030308 0.204422
0.595774 -0.022870 0.201739
0.628743 0.007923 0.206644
0.570475 0.061168 0.144377
0.522486 -0.006052 0.200920
0.617908 0.036550 0.195688
0.599076 -0.051919 0.228666
0.574464 0.062761 0.167333
0.549420 0.017593 0.226892
0.544330 0.021954 0.179488
0.656038 -0.002441 0.203692
0.535839 -0.003708 0.182739
0.627246 0.060786 0.215702
0.657293 0.006077 0.177871
0.539689 0.021752 0.162507
0.622557 0.009815 0.222475
0.620237 0.028389 0.220440
0.646755 0.045641 0.188608
0.633549 0.094884 0.175107
0.669859 0.030077 0.186867
0.554416 -0.053670 0.217437
0.569579 -0.016001 0.239492
0.545134 -0.063253 0.236785
0.639426 -0.018039 0.214403
0.550319 0.053920 0.162944
0.644066 0.041566 0.207100
0.640187 0.078249 0.198218
0.553872 0.074426 0.167201
0.557772 0.025229 0.211746
0.597132 -0.056329 0.205804
0.531613 0.008866 0.211514
0.601983 -0.045805 0.194004
0.644743 0.035476 0.151645
0.664945 0.032212 0.170489
0.579934 0.023625 0.227992
0.613942 -0.001871 0.236418
0.604319 0.009258 0.206829
0.648129 0.050332 0.155596
0.526238 -0.006050 0.219066
0.542790 -0.005530 0.220077
0.587199 0.014138 0.244825
0.541441 0.062949 0.177694
0.549348 0.037820 0.157347
0.618455 0.055130 0.226893
0.660586 0.035273 0.147248
0.566989 0.021418 0.244336
0.531155 -0.019719 0.207265
0.644278 0.067927 0.176038
0.626199 0.049313 0.192609
0.648864 0.075319 0.162247
0.540156 -0.046333 0.246111
0.519563 0.007440 0.193777
0.630955 -0.026125 0.226972
0.601397 0.000900 0.225799
0.553736 -0.024768 0.246061
0.605593 0.064417 0.206805
0.594530 -0.012163 0.241493
0.618408 -0.020667 0.216883
0.637573 0.024008 0.183847
0.587245 0.024045 0.210482
0.662160 0.012512 0.165766
0.526792 -0.047057 0.198073
0.574103 -0.048437 0.200307
0.653713 0.049280 0.169412
0.528615 -0.033282 0.232534
0.644088 0.007838 0.182470
0.552924 -0.003780 0.202324
0.625656 0.063529 0.199688
0.647041 0.032271 0.177155
0.627579 0.085579 0.203104
0.540115 -0.043162 0.212819
0.603730 0.058462 0.221418
0.610403 0.032835 0.206707
0.547347 -0.021581 0.227639
0.606436 0.018402 0.241034
0.623041 0.042995 0.207352
0.658172 0.014599 0.152737
0.532008 -0.005358 0.234248
0.620839 -0.040174 0.213854
0.651213 0.050939 0.200693
0.645017 0.063487 0.152033
0.521579 0.037892 0.164175
0.530830 -0.031985 0.215512
0.603700 0.024571 0.217708
0.570349 -0.046447 0.237654
0.584993 -0.000678 0.237564
0.628657 0.093464 0.187551
0.559180 0.055672 0.149090
0.603965 0.038407 0.228437
0.587622 0.043815 0.215310
0.612466 -0.021258 0.199925
0.570828 -0.061371 0.228381
0.644079 0.025006 0.202182
0.538761 0.048359 0.169299
0.583329 -0.057272 0.209237
0.622624 0.075482 0.210895
0.658126 0.019384 0.196126
0.635548 -0.001118 0.190566
0.515923 0.023520 0.170771
0.647540 0.032094 0.190065
0.611141 0.004580 0.216727
0.528160 0.005622 0.178241
0.546605 0.063409 0.154727
0.651255 0.025519 0.146705
0.645847 0.054036 0.178424
0.587715 0.038155 0.240766
0.658352 0.048446 0.148285
0.624775 0.019875 0.195140
0.557456 -0.017984 0.204157
0.649299 -0.009524 0.212230
0.611929 -0.027005 0.233742
0.545015 0.036367 0.184131
0.645316 0.017807 0.191624
0.586139 -0.035316 0.238374
0.520025 -0.036175 0.222276
0.574077 -0.036888 0.195388
0.575601 0.056625 0.154786
0.537949 0.053500 0.151229
0.610365 -0.046762 0.228052
0.641053 0.009286 0.211672
0.565279 0.052713 0.168900
0.627896 -0.004890 0.204265
0.513330 0.009029 0.183324
0.646839 0.101027 0.170858
0.595227 0.028683 0.243380
0.534813 0.032693 0.165026
0.586181 0.031720 0.221324
0.562405 0.066360 0.163957
0.572253 0.073843 0.148858
0.569932 -0.062607 0.214156
0.646466 0.089095 0.196713
0.606318 -0.011159 0.237439
0.644235 0.100735 0.190272
0.604563 0.043610 0.208701
0.654566 0.059984 0.158726
0.549949 -0.001597 0.244473
0.599968 0.047108 0.220383
0.656067 0.041600 0.195096
0.538046 0.035399 0.153908
0.673536 0.017471 0.184591
0.516694 0.036052 0.184059
0.609280 -0.001243 0.204657
0.655218 0.036562 0.165466
0.552014 -0.053247 0.205943
0.658707 0.033286 0.184091
0.624516 0.070430 0.221913
0.588702 0.017152 0.232168
0.667046 0.033202 0.157740
0.642239 0.059995 0.194363
0.669089 0.027969 0.142605
