ply
format ascii 1.0
element vertex 256
property float x
property float y
property float z
end_header
0.421051 0.128565 0.184427
0.393185 0.258597 0.146742
0.509110 0.203780 0.132998
0.327485 0.176622 0.220128
0.456522 0.209674 0.206620
0.384866 0.195647 0.183269
0.484883 0.142941 0.158977
0.359749 0.140015 0.171962
0.377741 0.157448 0.219659
0.350349 0.223897 0.155725
0.477012 0.164720 0.113564
0.439102 0.239050 0.136490
0.444677 0.171762 0.171468
0.494210 0.226311 0.175478
0.426756 0.165827 0.216504
0.400523 0.201721 0.224982
0.347307 0.210005 0.198620
0.485922 0.184944 0.167826
0.327435 0.170762 0.177684
0.336154 0.140108 0.208362
0.385979 0.235058 0.176739
0.423342 0.197727 0.190791
0.458394 0.138228 0.186162
0.388053 0.122257 0.201817
0.395990 0.153461 0.172297
0.365949 0.190374 0.224743
0.383429 0.219293 0.145549
0.466813 0.179058 0.141133
0.463139 0.207274 0.174720
0.495048 0.231321 0.142841
0.361008 0.176876 0.194533
0.451410 0.178792 0.200950
0.409340 0.238423 0.128177
0.454654 0.143064 0.156492
0.393646 0.171621 0.199843
0.406174 0.142015 0.212756
0.353852 0.233390 0.182629
0.422390 0.253860 0.154465
0.368327 0.246156 0.154246
0.469950 0.164148 0.180938
0.362215 0.132584 0.205539
0.483119 0.200435 0.145783
0.488753 0.160734 0.138998
0.421712 0.162264 0.181729
0.427004 0.204085 0.221025
0.402294 0.212586 0.198039
0.482035 0.209763 0.193444
0.394813 0.124421 0.176592
0.365966 0.208480 0.171048
0.484276 0.187918 0.123468
0.406554 0.233998 0.152291
0.343876 0.163392 0.206954
0.470372 0.187619 0.187907
0.370989 0.207719 0.208342
0.328041 0.188385 0.198826
0.405357 0.179923 0.179739
0.337528 0.149246 0.181666
0.430633 0.135592 0.205355
0.402817 0.178177 0.221172
0.369688 0.161216 0.178933
0.503226 0.189528 0.151427
0.441493 0.212511 0.188684
0.446336 0.158035 0.190432
0.471145 0.162014 0.158001
0.386955 0.241931 0.132189
0.438838 0.136335 0.171686
0.462384 0.188243 0.161982
0.468328 0.153063 0.132199
0.345793 0.191467 0.212589
0.369617 0.125256 0.185612
0.480003 0.217928 0.159304
0.448661 0.191126 0.181582
0.418810 0.187864 0.209520
0.349760 0.167574 0.179492
0.346929 0.190879 0.188093
0.440981 0.195545 0.207597
0.367961 0.246573 0.175163
0.365451 0.230655 0.141208
0.370839 0.223319 0.187694
0.501098 0.216515 0.159129
0.411473 0.125677 0.202701
0.393039 0.249729 0.165699
0.485842 0.179124 0.145941
0.346171 0.215917 0.178323
0.412906 0.144362 0.175804
0.433064 0.171363 0.195662
0.363489 0.171059 0.225154
0.422775 0.251332 0.133565
0.473100 0.141168 0.174215
0.432647 0.144629 0.188726
0.475588 0.220815 0.179287
0.363223 0.200157 0.188798
0.384080 0.236125 0.154843
0.340090 0.160964 0.224925
0.380244 0.133404 0.169529
0.456213 0.157238 0.170861
0.385941 0.142137 0.213664
0.366285 0.215049 0.153881
0.421502 0.230974 0.142182
0.387967 0.167888 0.180105
0.484310 0.151580 0.124109
0.468645 0.177470 0.123069
0.404144 0.158793 0.218784
0.492829 0.199955 0.161365
0.349299 0.139427 0.190550
0.489988 0.209289 0.177249
0.429114 0.208137 0.203730
0.462836 0.217258 0.192088
0.363082 0.231968 0.164517
0.379249 0.177774 0.221889
0.401543 0.195125 0.188168
0.382699 0.222247 0.165062
0.348592 0.208414 0.162883
0.475983 0.198721 0.163449
0.487178 0.166542 0.161262
0.346797 0.175328 0.219011
0.472052 0.147450 0.148934
0.407506 0.250362 0.146411
0.363010 0.150331 0.217806
0.418192 0.214455 0.193164
0.416871 0.166864 0.203389
0.364020 0.193257 0.205027
0.458175 0.175532 0.180495
0.440215 0.155763 0.174038
0.460679 0.199789 0.192939
0.431778 0.151845 0.209820
0.494075 0.231844 0.159068
0.456478 0.168989 0.158761
0.486130 0.172189 0.127842
0.493516 0.191566 0.137186
0.405645 0.121080 0.188432
0.384523 0.202358 0.223667
0.434706 0.253420 0.144331
0.434861 0.186658 0.188090
0.474723 0.173864 0.169287
0.498969 0.204520 0.147526
0.399598 0.231655 0.138474
0.390413 0.166122 0.222448
0.412443 0.201963 0.215378
0.457609 0.136485 0.170995
0.341155 0.166124 0.191900
0.349300 0.146966 0.211457
0.400310 0.211170 0.212861
0.480018 0.155224 0.167877
0.332384 0.183301 0.185567
0.426616 0.239736 0.153207
0.442752 0.131849 0.185219
0.474586 0.160828 0.143182
0.400475 0.250098 0.133446
0.349280 0.223197 0.192208
0.472243 0.179988 0.154860
0.483772 0.146967 0.140128
0.361847 0.213740 0.194138
0.424363 0.237702 0.128498
0.416315 0.144742 0.190015
0.478941 0.194151 0.177005
0.376298 0.252593 0.164807
0.453579 0.216436 0.180835
0.442453 0.198279 0.193352
0.417428 0.176806 0.218876
0.412297 0.196982 0.200348
0.375621 0.242726 0.142571
0.506532 0.225697 0.148959
0.436888 0.167512 0.182584
0.469725 0.207875 0.201930
0.343283 0.177006 0.203251
0.356328 0.200165 0.215670
0.369519 0.177725 0.183500
0.358733 0.220331 0.171833
0.472105 0.203790 0.185774
0.488671 0.219126 0.148537
0.446923 0.142909 0.192466
0.405749 0.250267 0.160388
0.413908 0.173035 0.187984
0.458643 0.163944 0.189397
0.385998 0.121290 0.186572
0.477793 0.181241 0.113542
0.379523 0.132335 0.206774
0.427164 0.176190 0.206859
0.393560 0.187096 0.225417
0.442892 0.209934 0.201897
0.393137 0.234314 0.165286
0.413134 0.183780 0.197535
0.378705 0.206504 0.188460
0.451663 0.183169 0.168344
0.421240 0.192026 0.222582
0.383771 0.182412 0.184271
0.487193 0.219878 0.185714
0.384898 0.248510 0.150111
0.331712 0.139260 0.195959
0.421993 0.184549 0.186572
0.350335 0.205951 0.185728
0.511371 0.194446 0.142432
0.460685 0.150135 0.180896
0.453325 0.196038 0.203327
0.405139 0.134165 0.173272
0.469829 0.140087 0.161612
0.465824 0.194523 0.174353
0.476140 0.186185 0.133483
0.359644 0.178678 0.207335
0.376950 0.145065 0.174205
0.423958 0.126087 0.199149
0.410729 0.166025 0.175915
0.448700 0.204076 0.181331
0.349360 0.229206 0.170817
0.474665 0.166321 0.128615
0.414540 0.242475 0.139246
0.358199 0.233696 0.152888
0.456827 0.187298 0.190556
0.383516 0.209797 0.208455
0.482376 0.157690 0.152698
0.373921 0.234571 0.180490
0.475696 0.208072 0.173564
0.370604 0.201825 0.219504
0.479070 0.181089 0.178685
0.350291 0.188881 0.200098
0.444750 0.148559 0.164767
0.431251 0.177267 0.219162
0.419709 0.155342 0.210250
0.485866 0.187826 0.155621
0.460282 0.155831 0.158422
0.377380 0.230254 0.137926
0.448383 0.175660 0.188041
0.393763 0.260438 0.159609
0.478404 0.172257 0.138760
0.362369 0.125301 0.195595
0.392139 0.141761 0.172734
0.371684 0.146477 0.209985
0.380405 0.224137 0.179884
0.487563 0.218071 0.168994
0.496924 0.204048 0.134484
0.361455 0.205568 0.160031
0.418011 0.257021 0.143526
0.378347 0.215216 0.156108
0.440287 0.184586 0.202362
0.442037 0.180922 0.178992
0.396552 0.149623 0.216421
0.462740 0.175185 0.168135
0.417594 0.134203 0.208728
0.362733 0.188621 0.192356
0.355756 0.199832 0.198268
0.427287 0.192234 0.202164
0.393558 0.231584 0.148976
0.460127 0.175505 0.192327
0.469077 0.158379 0.121487
0.446362 0.148974 0.182148
0.483705 0.228246 0.154336
0.348952 0.147471 0.178975
0.349665 0.176179 0.187591
0.428326 0.135579 0.177003
0.399944 0.126924 0.204680
0.367692 0.213630 0.181388
0.474376 0.218551 0.193889
0.367522 0.134224 0.178465
0.342296 0.152814 0.202318
0.487167 0.182425 0.133504
