ply
format ascii 1.0
element vertex 256
property float x
property float y
property float z
end_header
0.548400 -0.005562 0.204459
0.442850 0.095844 0.170384
0.566234 0.111129 0.162400
0.440897 -0.029639 0.221776
0.515284 0.075719 0.230238
0.420682 0.039148 0.210129
0.492889 0.011591 0.243372
0.587459 0.050582 0.187985
0.497084 -0.041676 0.194121
0.536643 0.121652 0.208156
0.539741 0.070558 0.183895
0.574428 0.065432 0.141496
0.510606 0.026137 0.198938
0.480173 -0.046058 0.241349
0.551108 0.039474 0.217720
0.469916 0.005122 0.203963
0.521726 -0.031307 0.228368
0.421371 0.057369 0.171586
0.430034 0.003019 0.192492
0.485228 0.052772 0.212712
0.456450 -0.001937 0.241019
0.528857 0.013003 0.230132
0.564692 0.023217 0.186177
0.467782 -0.055066 0.209482
0.500884 0.046345 0.243309
0.573075 0.081604 0.181806
0.445356 0.034322 0.186348
0.437923 0.074235 0.196022
0.512840 -0.006392 0.193067
0.520262 0.090001 0.201445
0.430762 0.010256 0.223154
0.521844 0.054866 0.204101
0.464606 0.025228 0.229267
0.548916 0.134360 0.183468
0.490522 -0.017893 0.238278
0.566255 0.062001 0.204713
0.566697 0.054202 0.167733
0.548015 0.096866 0.178709
0.542293 0.040008 0.191177
0.419109 0.026542 0.181533
0.532846 -0.027425 0.197597
0.501828 0.001799 0.219137
0.468659 -0.029756 0.220142
0.450808 0.069687 0.169839
0.454124 -0.041325 0.247136
0.559689 0.084070 0.158091
0.562974 0.016134 0.211894
0.542634 0.070925 0.211228
0.500730 -0.047129 0.225578
0.530070 0.096109 0.224500
0.537923 -0.011334 0.227445
0.535093 0.016237 0.204301
0.499790 0.032612 0.221920
0.446604 -0.006135 0.212191
0.443986 0.030508 0.214098
0.485164 -0.013932 0.199217
0.574658 0.036033 0.204093
0.523147 0.037044 0.224946
0.444331 0.052388 0.204677
0.504465 0.070315 0.210005
0.516868 -0.007339 0.237167
0.587660 0.062674 0.161983
0.482607 0.032215 0.245228
0.455106 -0.034216 0.202107
0.489199 0.017077 0.206595
0.555970 0.083087 0.196232
0.514806 -0.044548 0.207508
0.429027 0.078826 0.176197
0.454716 0.084244 0.185978
0.535951 0.116891 0.186103
0.446655 0.015885 0.197654
0.468314 -0.005274 0.222459
0.439507 0.056954 0.182542
0.416330 0.054528 0.191891
0.562386 0.045409 0.187781
0.461631 -0.022078 0.243150
0.535072 0.053859 0.222334
0.470141 0.036743 0.213057
0.538683 0.101549 0.204250
0.512106 0.026657 0.238688
0.427315 0.022080 0.199746
0.550508 0.006828 0.224982
0.451854 0.012533 0.219058
0.471095 0.013263 0.244220
0.507668 0.052409 0.218669
0.579212 0.083094 0.162005
0.481800 -0.058272 0.225902
0.558704 0.067750 0.179652
0.479912 -0.033854 0.198206
0.551694 0.011156 0.193713
0.531244 -0.000581 0.196027
0.430044 0.039267 0.172423
0.549792 0.059351 0.195482
0.480598 0.043128 0.229901
0.477157 -0.004730 0.240566
0.539589 -0.026478 0.215083
0.459303 0.087624 0.166665
0.528686 0.037396 0.204058
0.516094 -0.031750 0.191000
0.485729 -0.048348 0.211173
0.550599 0.099571 0.160605
0.567426 0.096068 0.172362
0.435333 0.017232 0.182742
0.461911 -0.017923 0.208522
0.578511 0.063702 0.179874
0.498227 -0.033688 0.236594
0.522559 0.068617 0.214921
0.437010 0.089842 0.188227
0.512642 0.009221 0.240490
0.551981 0.122419 0.195600
0.449571 -0.013163 0.227673
0.434599 0.069497 0.162927
0.497080 -0.001784 0.201059
0.571541 0.068263 0.158410
0.426750 0.057218 0.205129
0.424455 0.039693 0.192684
0.574178 0.039740 0.177329
0.552561 0.026682 0.204212
0.532709 0.085098 0.212337
0.516110 0.087635 0.217358
0.517175 0.059252 0.230392
0.422585 0.069353 0.188301
0.558661 0.042810 0.203567
0.436006 0.007171 0.207075
0.533680 0.056631 0.189593
0.537877 0.130774 0.194818
0.519781 0.010646 0.194146
0.463187 0.018884 0.209479
0.537197 0.031670 0.218393
0.491155 0.055042 0.227284
0.542902 0.046682 0.206304
0.524982 0.109101 0.202198
0.549960 0.081342 0.176689
0.501665 -0.002006 0.241396
0.583805 0.051044 0.172204
0.446163 0.082855 0.159512
0.571880 0.088141 0.149125
0.509335 0.040977 0.230599
0.574650 0.051454 0.154907
0.454731 0.098650 0.179615
0.575725 0.050572 0.199475
0.496287 -0.023253 0.194415
0.507812 -0.021882 0.237277
0.530949 0.066729 0.201344
0.541052 0.082386 0.193612
0.574557 0.069598 0.194555
0.428218 0.023885 0.217234
0.476347 -0.044253 0.224996
0.512714 0.040267 0.211454
0.535167 0.109432 0.216701
0.455272 0.011896 0.233548
0.439770 -0.001118 0.226071
0.562523 0.091068 0.185460
0.533646 0.002549 0.210103
0.504483 0.066196 0.223999
0.474884 -0.017407 0.247291
0.522086 0.028248 0.213154
0.443736 0.075195 0.182816
0.556876 0.107672 0.172802
0.454246 -0.026461 0.217235
0.497816 0.044227 0.212366
0.550291 -0.010405 0.220386
0.528567 0.076882 0.224874
0.559912 0.069352 0.194272
0.417039 0.045823 0.178742
0.525860 -0.037584 0.212909
0.526425 0.025559 0.236059
0.469440 -0.039439 0.247611
0.481920 0.028628 0.209946
0.432770 0.046225 0.211404
0.515563 0.075395 0.203298
0.567448 0.058165 0.190830
0.513298 -0.041927 0.222936
0.504071 0.053974 0.231885
0.563458 0.074722 0.167411
0.474245 -0.010416 0.206722
0.518504 0.018832 0.223299
0.555807 0.053795 0.211225
0.576975 0.035945 0.190168
0.492438 0.038214 0.234654
0.432223 0.052814 0.193455
0.550769 0.028835 0.190916
0.421457 0.015268 0.188650
0.459321 -0.001680 0.213137
0.442342 0.043739 0.177297
0.548185 0.112506 0.203751
0.565440 0.029246 0.211098
0.436337 0.055228 0.169799
0.554490 0.006063 0.205934
0.430995 0.065848 0.177169
0.498805 -0.049439 0.212823
0.454709 0.099873 0.165911
0.521264 0.048171 0.218330
0.533043 -0.013337 0.193844
0.416353 0.030619 0.197421
0.584341 0.062334 0.149325
0.423950 0.009415 0.202918
0.540824 0.033233 0.202339
0.436705 0.029259 0.177141
0.525372 0.100803 0.212024
0.550857 0.052384 0.184721
0.510142 -0.021160 0.195231
0.525802 -0.015122 0.232206
0.448693 0.085152 0.174378
0.575627 0.073716 0.171318
0.483855 0.005512 0.205275
0.571485 0.093475 0.160621
0.494838 0.027264 0.201655
0.547660 0.016439 0.209710
0.486338 0.041403 0.218055
0.425233 0.069328 0.200612
0.521453 0.036854 0.238477
0.555999 0.089256 0.168935
0.539791 0.019155 0.229294
0.543979 0.059085 0.215188
0.490677 -0.044572 0.234637
0.445911 0.040172 0.202468
0.454462 -0.028738 0.235405
0.498427 0.060549 0.214753
0.453275 0.002023 0.226335
0.489937 -0.005554 0.238488
0.466136 -0.039312 0.199910
0.565718 0.018501 0.200148
0.569262 0.051371 0.179539
0.465910 -0.009341 0.243111
0.553110 0.070746 0.204279
0.539222 0.094550 0.216655
0.513081 0.061817 0.211840
0.549588 0.090461 0.189142
0.531162 0.047109 0.210727
0.439951 0.017377 0.220048
0.561936 0.078508 0.185018
0.443815 0.005502 0.192372
0.546477 -0.017818 0.210557
0.428361 0.080371 0.188030
0.540341 0.086402 0.181564
0.493028 0.026560 0.245946
0.438015 0.063487 0.200985
0.449278 0.006731 0.209090
0.537801 0.113098 0.198198
0.530989 0.001639 0.232204
0.460873 -0.017401 0.220664
0.532824 0.061268 0.212283
0.442308 0.030134 0.197603
0.446777 0.019188 0.208857
0.501577 0.032791 0.239475
0.506790 -0.039984 0.200380
0.435519 0.081973 0.164164
0.475148 0.015526 0.204144
0.440116 0.042906 0.192083
0.416322 0.047139 0.203075
0.529465 0.096214 0.198398
0.545129 0.079794 0.204001
0.435553 0.013173 0.196949
0.433147 0.045958 0.183519
0.565269 0.033358 0.180129
