ply
format ascii 1.0
element vertex 256
property float x
property float y
property float z
end_header
0.633922 -0.027380 0.218214
0.598027 0.094784 0.163559
0.523854 -0.028788 0.143936
0.546512 -0.093830 0.232851
0.652530 0.025041 0.141174
0.567636 0.028673 0.213636
0.571998 0.020705 0.135685
0.565204 -0.035680 0.195422
0.628522 0.031307 0.198406
0.606182 -0.081893 0.200800
0.590645 -0.049281 0.239774
0.546463 -0.071773 0.164924
0.615579 0.056945 0.138298
0.593097 0.064738 0.199899
0.598275 -0.002293 0.227841
0.565922 -0.100614 0.193661
0.559716 -0.017219 0.232682
0.557536 -0.016483 0.124402
0.539159 -0.055079 0.224488
0.586435 -0.106179 0.226613
0.594374 0.016555 0.189287
0.601066 -0.024962 0.195922
0.531411 -0.039182 0.178025
0.556013 0.000813 0.193778
0.622676 0.027097 0.160620
0.558631 -0.041645 0.149516
0.626582 -0.062274 0.222061
0.643843 -0.000182 0.195571
0.655955 0.029967 0.175528
0.621166 0.059489 0.172919
0.547616 0.002416 0.150803
0.559150 -0.068254 0.197006
0.601362 -0.078273 0.234747
0.575297 0.044617 0.186895
0.628246 0.002742 0.220596
0.530567 -0.064060 0.195228
0.586378 0.068571 0.172020
0.613349 -0.031794 0.237586
0.602451 0.037179 0.207470
0.578916 -0.014042 0.209285
0.612414 -0.050439 0.201234
0.570898 -0.084957 0.217797
0.562911 -0.044823 0.233236
0.541828 -0.031292 0.208812
0.615771 0.001162 0.196409
0.535036 -0.054406 0.146976
0.543401 -0.091468 0.206586
0.585514 -0.038812 0.215998
0.584312 -0.061047 0.195815
0.600851 0.039877 0.179810
0.545568 -0.022473 0.160910
0.630366 0.035750 0.134066
0.563885 0.003465 0.218839
0.584696 -0.025502 0.237419
0.553215 0.007389 0.127064
0.535448 -0.008582 0.132842
0.586274 0.010742 0.211364
0.602403 0.082108 0.183098
0.638055 0.044513 0.164909
0.651072 0.024436 0.197954
0.607719 0.044927 0.157272
0.575801 -0.088930 0.240336
0.627476 0.015885 0.180420
0.541382 -0.039100 0.130845
0.609269 0.014771 0.213787
0.579436 0.049845 0.210323
0.586642 -0.098233 0.205731
0.614151 0.050707 0.194109
0.560215 -0.064445 0.218928
0.612351 -0.054036 0.238369
0.546785 -0.057109 0.181895
0.528434 -0.059482 0.168316
0.570114 0.023429 0.192840
0.614070 -0.012378 0.214706
0.578436 -0.066824 0.239444
0.643734 0.019327 0.161793
0.623851 -0.013589 0.235171
0.643930 0.042037 0.188048
0.576166 -0.080739 0.197104
0.566934 -0.007012 0.140241
0.622229 0.039511 0.177998
0.548512 -0.019870 0.192975
0.631983 -0.048928 0.206406
0.521322 -0.043129 0.158701
0.549092 -0.008460 0.210391
0.555573 -0.074771 0.235388
0.595854 -0.002909 0.200477
0.547201 -0.054787 0.205238
0.620494 -0.030475 0.204059
0.547408 -0.041646 0.166779
0.610409 0.064393 0.156256
0.576165 -0.006470 0.232009
0.630025 -0.045587 0.231821
0.656018 0.036581 0.156382
0.584513 0.078045 0.189040
0.629784 0.012209 0.203992
0.542928 -0.072475 0.211110
0.646661 0.014602 0.181926
0.574225 0.001726 0.199179
0.612486 0.021336 0.196186
0.545931 -0.029343 0.228231
0.585155 0.028722 0.202850
0.625197 0.044295 0.150314
0.545621 -0.024982 0.142359
0.557829 -0.056617 0.162924
0.612968 -0.075371 0.216721
0.531921 -0.013958 0.152459
0.577300 -0.019415 0.192044
0.553939 0.022566 0.136669
0.591014 0.054197 0.184385
0.638241 -0.013560 0.207627
0.596169 -0.089658 0.217962
0.639033 0.033835 0.150329
0.570413 0.005888 0.125735
0.601303 0.076677 0.166802
0.528630 -0.028026 0.165271
0.589639 -0.045007 0.198520
0.638654 0.030154 0.174113
0.620223 -0.065403 0.201564
0.563812 0.011716 0.147366
0.604272 0.055054 0.173502
0.644840 0.009822 0.210248
0.578064 0.060361 0.195445
0.564146 0.014981 0.205566
0.595291 0.023193 0.216670
0.587950 0.084607 0.174592
0.590850 0.046982 0.198919
0.631397 -0.029740 0.234608
0.592691 -0.015759 0.221188
0.550101 -0.039239 0.191428
0.550205 -0.008910 0.139010
0.542126 0.010707 0.137942
0.537661 -0.069849 0.180278
0.625074 0.060350 0.152557
0.556928 -0.084016 0.204464
0.610478 0.027751 0.181404
0.587652 0.035220 0.188978
0.599565 -0.021585 0.236153
0.598926 -0.065415 0.196806
0.571730 0.039508 0.200818
0.563388 -0.009234 0.202483
0.576790 -0.038418 0.238439
0.625644 -0.005407 0.206281
0.557933 -0.053550 0.191289
0.549735 -0.057315 0.147592
0.561739 -0.061440 0.238396
0.598949 0.067532 0.183384
0.536582 -0.039720 0.149076
0.544306 -0.073244 0.196316
0.537514 -0.050539 0.191475
0.548239 -0.044927 0.231028
0.622937 0.030052 0.146102
0.578124 -0.000408 0.216079
0.636716 0.024662 0.187516
0.613633 0.012919 0.183853
0.600407 0.003297 0.214427
0.636463 -0.010943 0.221767
0.600100 -0.064088 0.237228
0.536891 -0.046870 0.212830
0.620122 -0.024790 0.221111
0.620015 0.046120 0.165491
0.591863 -0.018165 0.204524
0.604372 0.010208 0.199950
0.544524 -0.022342 0.124666
0.527336 -0.058599 0.182553
0.549763 -0.084053 0.223173
0.561933 -0.086746 0.241406
0.565792 -0.031114 0.233522
0.558877 -0.023398 0.138119
0.580315 0.023946 0.217128
0.545619 -0.019738 0.218204
0.578815 0.015346 0.200598
0.621767 0.023695 0.207813
0.641452 0.023746 0.207897
0.568998 -0.009804 0.220640
0.586707 -0.089558 0.228058
0.565563 -0.058827 0.207486
0.603011 0.042413 0.194258
0.548900 -0.062569 0.233650
0.536427 -0.049717 0.159754
0.629657 0.005987 0.191840
0.554123 -0.038908 0.135737
0.606572 -0.011119 0.202256
0.600270 -0.035170 0.237479
0.573480 -0.051609 0.238110
0.618334 0.037175 0.190597
0.608491 -0.035960 0.196735
0.630669 0.041583 0.188075
0.579824 0.060896 0.181947
0.562648 -0.022738 0.195472
0.555014 -0.029132 0.151585
0.561985 -0.004206 0.128397
0.618341 0.005116 0.209165
0.581368 0.036757 0.214461
0.604866 0.091546 0.174410
0.650394 0.040227 0.169727
0.613029 -0.072542 0.234182
0.556977 -0.003684 0.227180
0.545650 -0.055895 0.167186
0.574632 0.012362 0.217279
0.655330 0.035021 0.187372
0.554968 0.006456 0.208600
0.546205 -0.003711 0.127682
0.533848 0.000624 0.141684
0.521934 -0.046604 0.171053
0.609139 0.060118 0.185535
0.630494 -0.049439 0.219799
0.589807 -0.077210 0.239687
0.555950 -0.064703 0.172415
0.607826 0.054894 0.148413
0.640653 0.001308 0.219107
0.647451 0.012411 0.197932
0.621606 0.027432 0.173032
0.572448 0.005834 0.138028
0.631987 0.047008 0.176166
0.608712 -0.006357 0.233193
0.617200 0.051019 0.181043
0.547794 -0.049361 0.137718
0.602180 0.025002 0.205289
0.655386 0.021656 0.152724
0.560369 -0.001436 0.149088
0.526452 -0.009801 0.142207
0.555121 -0.071808 0.209614
0.596411 0.028861 0.182974
0.547867 -0.060322 0.194332
0.628502 0.036985 0.166254
0.586048 -0.013322 0.233970
0.553873 0.008055 0.139778
0.589698 0.002839 0.220162
0.564353 0.017985 0.126643
0.641106 0.034166 0.196858
0.540262 -0.031147 0.176037
0.622636 -0.059029 0.234407
0.588042 0.006905 0.200038
0.541068 -0.063975 0.152739
0.568304 0.005420 0.229893
0.583334 0.003071 0.232221
0.571388 -0.061404 0.197443
0.535861 -0.018308 0.139674
0.574139 -0.043381 0.196782
0.593310 -0.088534 0.204200
0.635508 0.043031 0.141902
0.633742 0.011570 0.215102
0.565827 -0.076896 0.201346
0.521443 -0.031283 0.156587
0.595772 0.076026 0.191564
0.642612 0.022959 0.147917
0.633139 0.026708 0.140843
0.632134 -0.005188 0.196648
0.609881 0.032968 0.199717
0.543792 -0.046056 0.180589
0.649153 0.025351 0.186583
0.617604 -0.076166 0.204629
0.551605 -0.008574 0.151156
0.634749 0.026796 0.163858
0.631872 -0.037139 0.223837
