ply
format ascii 1.0
element vertex 256
property float x
property float y
property float z
end_header
0.651784 -0.039965 0.146345
0.549896 0.071796 0.131092
0.674999 0.079582 0.108689
0.545155 -0.056685 0.174403
0.626489 0.043832 0.178948
0.529240 0.013978 0.170018
0.694049 0.015692 0.132276
0.602208 -0.020372 0.191603
0.596991 -0.071700 0.140428
0.649785 0.091322 0.157281
0.678668 0.032775 0.085120
0.646678 0.035529 0.131109
0.616220 -0.005340 0.146023
0.584869 -0.076782 0.189037
0.574767 -0.023464 0.154724
0.659380 0.003854 0.161250
0.625848 -0.064632 0.172128
0.526007 0.034845 0.132975
0.533187 -0.021341 0.149023
0.594605 0.022508 0.163355
0.668821 -0.011524 0.127991
0.564777 -0.031044 0.192764
0.636577 -0.021087 0.174594
0.680083 0.048321 0.125426
0.568515 -0.083504 0.158418
0.612851 0.013663 0.191840
0.549922 0.009191 0.142686
0.547014 0.048750 0.155773
0.631687 0.063603 0.152492
0.615265 -0.037672 0.138856
0.538707 -0.016365 0.179640
0.630548 0.014908 0.165038
0.573751 -0.004094 0.181114
0.671790 0.021764 0.112747
0.597012 -0.049361 0.185810
0.673456 0.029992 0.147950
0.655487 0.059805 0.118231
0.643173 -0.013306 0.145827
0.522730 0.003610 0.141220
0.633926 -0.060305 0.140481
0.607744 -0.029781 0.166227
0.659862 0.102663 0.134247
0.572494 -0.058797 0.169764
0.555724 0.045286 0.127767
0.560029 -0.070372 0.197772
0.648768 0.034716 0.157883
0.684638 0.055228 0.099989
0.668611 -0.020082 0.153313
0.661358 0.053536 0.143658
0.603499 -0.078719 0.171103
0.643372 -0.045897 0.170125
0.655519 0.011486 0.130340
0.608667 0.001083 0.170191
0.551472 -0.033062 0.165565
0.646959 0.056736 0.171370
0.552117 0.003485 0.170057
0.587888 -0.043384 0.147715
0.621556 0.039767 0.154944
0.681342 -0.000776 0.145663
0.552871 0.025913 0.162053
0.693015 0.027259 0.104073
0.623840 -0.040757 0.182202
0.593828 0.000863 0.195254
0.636218 0.016563 0.142007
0.556805 -0.061480 0.153166
0.631987 0.002879 0.184489
0.595097 -0.013096 0.155648
0.648915 0.075995 0.140372
0.615747 -0.076439 0.151710
0.535793 0.055334 0.137773
0.667196 0.041982 0.105139
0.562933 0.058350 0.144045
0.551322 -0.010060 0.152528
0.573795 -0.035894 0.174204
0.545398 0.032388 0.141165
0.523623 0.030900 0.153579
0.670513 0.070159 0.128706
0.568559 -0.051586 0.193642
0.578429 0.007645 0.164796
0.680656 0.004910 0.120907
0.533006 -0.002712 0.157755
0.580823 -0.017122 0.194866
0.559036 -0.015368 0.171929
0.612319 0.030283 0.174732
0.657011 -0.028634 0.166923
0.583893 -0.088427 0.173104
0.652244 0.071517 0.159589
0.629782 -0.024774 0.136818
0.665425 0.035717 0.126203
0.581013 -0.062800 0.146612
0.533263 0.016174 0.131438
0.591073 0.012526 0.180611
0.585037 -0.035348 0.189974
0.659367 -0.025431 0.136532
0.634837 -0.003120 0.161753
0.654880 0.017978 0.147963
0.642531 -0.060593 0.157154
0.565004 0.062815 0.124520
0.612524 0.017518 0.160588
0.616285 -0.063093 0.135598
0.684700 0.029413 0.124571
0.587012 -0.078216 0.158377
0.538183 -0.006861 0.139509
0.658562 -0.004977 0.141614
0.672359 0.060385 0.112193
0.565506 -0.046020 0.159349
0.638389 -0.031022 0.153826
0.614426 -0.003909 0.191426
0.603234 -0.065600 0.182770
0.661839 0.088176 0.143925
0.644986 0.092726 0.137226
0.546184 0.064908 0.149183
0.621299 -0.024082 0.186518
0.648230 0.018921 0.165158
0.556102 -0.044819 0.180433
0.538737 0.046649 0.123279
0.600847 -0.032243 0.148660
0.535957 0.031900 0.165323
0.678507 0.017586 0.097658
0.530588 0.015521 0.152279
0.668857 0.011122 0.141546
0.628117 0.027041 0.178900
0.683053 0.041224 0.110763
0.530424 0.045447 0.150068
0.624049 0.053290 0.163937
0.639534 0.048241 0.159436
0.541429 -0.018668 0.162823
0.649991 0.052283 0.132195
0.569758 -0.009482 0.161396
0.636878 0.069221 0.166570
0.661307 0.037923 0.141507
0.609634 -0.034490 0.188232
0.550672 0.059441 0.119064
0.642960 0.002931 0.150070
0.689176 0.015614 0.113771
0.635928 0.026121 0.154108
0.548730 -0.028498 0.179995
0.672553 0.021837 0.130100
0.563130 0.073148 0.138660
0.597676 -0.053297 0.141424
0.613733 -0.054579 0.182806
0.619414 0.008603 0.178212
0.579492 -0.074016 0.173266
0.536465 -0.002242 0.175009
0.563905 -0.016861 0.185933
0.661879 0.072300 0.113459
0.666960 0.054487 0.128359
0.636372 0.077407 0.153535
0.634830 -0.046126 0.137204
0.582500 -0.048091 0.196476
0.631712 0.033354 0.165959
0.639853 0.043423 0.173357
0.655926 0.101395 0.148135
0.683320 0.013889 0.141807
0.550973 0.050286 0.141950
0.670543 0.052951 0.096343
0.620861 -0.020444 0.147314
0.558158 -0.054321 0.168550
0.667630 0.016625 0.154731
0.668678 -0.003370 0.151798
0.645475 0.040765 0.144355
0.605376 0.017280 0.180207
0.654960 -0.045596 0.161801
0.521816 0.023140 0.139952
0.627822 -0.070547 0.156111
0.575409 -0.069651 0.196646
0.599324 0.008253 0.162502
0.652279 -0.007973 0.155122
0.589141 -0.001186 0.160155
0.671653 0.030316 0.098716
0.541906 0.020093 0.169978
0.667157 0.002898 0.123989
0.676088 0.039038 0.137705
0.629597 -0.010797 0.184240
0.616087 -0.074360 0.167289
0.623536 -0.001858 0.169583
0.578131 -0.039382 0.156474
0.539395 0.027984 0.152735
0.564305 -0.028641 0.166059
0.525149 -0.008283 0.147217
0.633810 0.055428 0.174859
0.546431 0.019423 0.134761
0.683350 0.037528 0.097934
0.644814 0.060327 0.157371
0.673926 -0.013295 0.143130
0.678925 -0.004113 0.132483
0.626767 0.001524 0.150269
0.540352 0.031837 0.128921
0.657996 0.025185 0.129104
0.536949 0.042214 0.137630
0.600063 -0.080344 0.158562
0.561277 0.075359 0.125207
0.522533 0.006709 0.157561
0.619267 0.029539 0.163716
0.682060 0.027478 0.138309
0.529129 -0.015310 0.160589
0.659490 0.081387 0.155405
0.539706 0.005416 0.134522
0.679045 0.073069 0.119060
0.639488 -0.006534 0.173252
0.611661 -0.052276 0.140803
0.631563 -0.048969 0.176043
0.555427 0.060485 0.133520
0.588754 -0.024166 0.154528
0.647347 0.004343 0.136895
0.600964 -0.003159 0.150470
0.626049 -0.014224 0.169125
0.534764 0.044358 0.161839
0.688297 0.003926 0.134769
0.594690 -0.075801 0.181279
0.606764 0.004987 0.182226
0.688581 0.027948 0.091776
0.639655 0.013512 0.156552
0.553164 0.013808 0.158890
0.560112 -0.057365 0.186502
0.669114 0.049290 0.116876
0.627307 0.051042 0.152112
0.660778 0.034335 0.153437
0.635777 0.030986 0.142629
0.647809 -0.015735 0.172783
0.597421 -0.037031 0.186495
0.567109 -0.067286 0.149615
0.620663 0.008407 0.158891
0.650206 -0.021139 0.152159
0.573795 -0.039212 0.193567
0.672501 0.036700 0.114860
0.677673 0.061020 0.124992
0.643205 0.067900 0.147443
0.560673 -0.026463 0.179089
0.655908 0.045267 0.150545
0.547951 -0.009745 0.175702
0.546970 -0.019814 0.147077
0.640667 0.087198 0.146918
0.649561 -0.052288 0.152201
0.536911 0.056058 0.149652
0.547000 0.037688 0.159989
0.682872 0.025850 0.112024
0.658369 -0.006374 0.129832
0.605241 0.027317 0.165012
0.638018 -0.032654 0.176041
0.658609 0.048189 0.123052
0.548143 0.004421 0.153982
0.661947 -0.029195 0.150284
0.553256 -0.007592 0.163779
0.659800 0.026350 0.141420
0.607406 -0.070997 0.145651
0.540750 0.058917 0.125146
0.580787 -0.013495 0.154686
0.659883 0.063708 0.129050
0.618703 0.041647 0.170578
0.565768 -0.045941 0.171227
0.631940 -0.010413 0.146246
0.618146 0.021111 0.179206
0.669503 0.069079 0.105075
0.681076 0.053199 0.114772
0.678686 0.009841 0.131200
