ply
format ascii 1.0
element vertex 256
property float x
property float y
property float z
end_header
0.502525 0.035247 0.207099
0.564462 0.158844 0.177896
0.427280 0.144124 0.173780
0.399400 0.058556 0.240147
0.548986 0.075411 0.133179
0.505338 0.119041 0.230655
0.493193 0.143985 0.152091
0.452904 0.077799 0.203049
0.549252 0.082925 0.198245
0.446259 0.017878 0.217654
0.408897 0.106063 0.209810
0.487588 0.074799 0.237925
0.561541 0.113163 0.162975
0.415066 0.048166 0.196561
0.545736 0.132375 0.210797
0.431587 0.100178 0.169922
0.447464 0.099515 0.241117
0.443866 0.053054 0.240666
0.508074 0.085416 0.204091
0.453496 0.135127 0.144024
0.470998 0.112525 0.211026
0.530538 0.051228 0.185331
0.462179 0.040444 0.191432
0.560449 0.065251 0.168812
0.476556 0.039761 0.233121
0.411990 0.023104 0.220914
0.528069 0.109801 0.190781
0.467048 0.143997 0.173861
0.440036 0.119180 0.196591
0.538628 0.089240 0.163754
0.420351 0.071038 0.218666
0.486982 0.063365 0.194612
0.477891 0.104446 0.241259
0.523836 0.056227 0.214260
0.543051 0.138033 0.181164
0.412722 0.121291 0.184793
0.513453 0.130802 0.204782
0.425080 0.122838 0.154384
0.555844 0.111012 0.194090
0.529149 0.100000 0.216446
0.478033 0.022271 0.212382
0.547982 0.103467 0.141829
0.430948 0.078467 0.243440
0.446238 0.125413 0.169810
0.397584 0.063213 0.208592
0.525136 0.076600 0.183793
0.480577 0.087317 0.216598
0.427818 0.094986 0.223222
0.466612 0.065813 0.220774
0.408873 0.096658 0.181928
0.499422 0.049109 0.231059
0.495639 0.106080 0.210691
0.431223 0.032553 0.233045
0.439330 0.051072 0.198804
0.469984 0.151932 0.150451
0.447924 0.152230 0.161285
0.559779 0.090477 0.175522
0.552494 0.059001 0.191329
0.461397 0.079990 0.241689
0.527741 0.122673 0.222071
0.578600 0.128089 0.168119
0.542548 0.067541 0.154220
0.553349 0.150517 0.197126
0.424897 0.093213 0.200273
0.454963 0.033837 0.231364
0.528263 0.077941 0.214480
0.558513 0.082645 0.152090
0.432935 0.030470 0.202683
0.418445 0.050634 0.226342
0.502663 0.060061 0.210882
0.501502 0.085588 0.225469
0.460828 0.111402 0.229993
0.469382 0.128649 0.155623
0.443822 0.139460 0.185009
0.534817 0.065916 0.198909
0.446378 0.097062 0.203696
0.464495 0.055950 0.238433
0.486047 0.035985 0.195400
0.533627 0.142331 0.198295
0.543966 0.102017 0.179389
0.561854 0.124496 0.179316
0.514590 0.047461 0.196561
0.540634 0.067013 0.173948
0.493457 0.031084 0.225387
0.474543 0.080600 0.198975
0.527845 0.090977 0.197121
0.452320 0.023560 0.193916
0.426537 0.132936 0.192267
0.483206 0.117497 0.225338
0.420314 0.061933 0.241864
0.514896 0.068742 0.199008
0.514601 0.111257 0.213244
0.436413 0.069105 0.203841
0.457361 0.061040 0.196251
0.540810 0.108628 0.204783
0.407797 0.034204 0.206295
0.411387 0.083272 0.208385
0.492051 0.100796 0.229171
0.555271 0.144863 0.169540
0.412757 0.083939 0.228840
0.483984 0.157298 0.160369
0.426656 0.125274 0.174235
0.419784 0.118038 0.202160
0.416032 0.107700 0.165421
0.466780 0.094800 0.206379
0.436153 0.139686 0.157206
0.563371 0.141110 0.186128
0.474686 0.052065 0.199417
0.555514 0.075006 0.182304
0.478895 0.139567 0.142236
0.564660 0.107442 0.179408
0.429461 0.103989 0.187901
0.532365 0.125699 0.194965
0.445057 0.105570 0.225455
0.468226 0.023329 0.226105
0.483391 0.139794 0.165152
0.441375 0.111454 0.177754
0.543340 0.088172 0.146727
0.553195 0.096377 0.159975
0.512560 0.099421 0.196337
0.539534 0.087030 0.184665
0.430959 0.082899 0.212445
0.421350 0.054479 0.210599
0.513814 0.096258 0.223272
0.436815 0.112780 0.160802
0.511178 0.073516 0.220005
0.425502 0.036936 0.215466
0.452766 0.066999 0.237563
0.424765 0.090158 0.181185
0.413724 0.030859 0.234874
0.550082 0.077901 0.166950
0.517639 0.041739 0.211453
0.457641 0.139525 0.160993
0.550525 0.132225 0.195579
0.467885 0.157673 0.165112
0.530535 0.136066 0.213515
0.455345 0.110086 0.210249
0.464664 0.020084 0.203244
0.472673 0.028467 0.191449
0.542122 0.115916 0.187072
0.499936 0.121205 0.210912
0.533782 0.050047 0.200595
0.493669 0.079340 0.204602
0.475820 0.100891 0.226185
0.499257 0.065292 0.233986
0.555725 0.068570 0.146337
0.479613 0.089325 0.242856
0.452426 0.151042 0.175759
0.411041 0.105393 0.194173
0.547362 0.152584 0.180420
0.451281 0.124643 0.155505
0.513328 0.127073 0.220763
0.463063 0.103028 0.242687
0.549837 0.118185 0.170780
0.414873 0.048363 0.244377
0.517015 0.117929 0.198365
0.544369 0.098789 0.194324
0.431233 0.108694 0.201994
0.506942 0.036810 0.224153
0.574344 0.113247 0.170080
0.488284 0.072264 0.223554
0.434958 0.064050 0.244287
0.434254 0.095237 0.236808
0.477559 0.062133 0.239253
0.496884 0.046305 0.214270
0.482660 0.098999 0.208581
0.401555 0.052726 0.196519
0.422488 0.102076 0.211298
0.445618 0.035371 0.198108
0.518996 0.059088 0.187648
0.421892 0.069046 0.204746
0.408299 0.064698 0.231042
0.440853 0.084539 0.200703
0.515319 0.082097 0.192107
0.538182 0.084146 0.206474
0.571377 0.121277 0.157586
0.502284 0.094190 0.212865
0.558124 0.094737 0.144480
0.499116 0.086858 0.238835
0.528206 0.119403 0.206222
0.410750 0.065006 0.211161
0.492526 0.027163 0.211080
0.544872 0.072047 0.191693
0.425208 0.134079 0.162495
0.443150 0.038115 0.235515
0.556890 0.091737 0.188369
0.472440 0.076211 0.235528
0.423407 0.086918 0.236679
0.544862 0.144424 0.205163
0.522898 0.104714 0.205431
0.466455 0.138178 0.147062
0.410390 0.093871 0.200423
0.503439 0.106662 0.226407
0.564685 0.127789 0.166965
0.490917 0.047945 0.197390
0.438445 0.024012 0.226139
0.528413 0.097519 0.185864
0.444946 0.138167 0.167464
0.540842 0.075752 0.143857
0.451396 0.023837 0.206855
0.498632 0.072516 0.214445
0.415091 0.122469 0.169197
0.416347 0.090488 0.218294
0.420642 0.101517 0.176686
0.457241 0.149689 0.152752
0.407862 0.109732 0.181838
0.543038 0.101736 0.153591
0.488198 0.111788 0.238948
0.520841 0.068265 0.210572
0.566995 0.146474 0.174381
0.562262 0.076640 0.163368
0.519595 0.087271 0.213802
0.488815 0.042357 0.231172
0.516915 0.116103 0.226783
0.446907 0.124808 0.182320
0.461785 0.043228 0.236096
0.399131 0.064997 0.220882
0.449458 0.046298 0.193266
0.430859 0.077368 0.223639
0.544145 0.057808 0.200622
0.482299 0.133598 0.152630
0.445739 0.143237 0.149373
0.480588 0.024361 0.225374
0.471389 0.133400 0.166842
0.541054 0.056159 0.179790
0.493890 0.114093 0.219882
0.529816 0.064699 0.179272
0.492081 0.100304 0.241398
0.558041 0.080024 0.139974
0.435926 0.124730 0.163295
0.484369 0.106465 0.219487
0.473200 0.147209 0.161847
0.544496 0.080174 0.155832
0.484849 0.150929 0.146635
0.437035 0.023305 0.211919
0.537313 0.123997 0.212977
0.488946 0.059126 0.235048
0.560034 0.153063 0.187567
0.439802 0.126152 0.152149
0.560790 0.063863 0.180570
0.556719 0.101194 0.170173
0.420133 0.134047 0.182416
0.494754 0.067803 0.202294
0.545358 0.142246 0.192126
0.535371 0.058310 0.208836
0.423266 0.038271 0.204009
0.514234 0.056256 0.207513
0.481921 0.091787 0.230200
0.439805 0.086058 0.243126
0.536883 0.075407 0.184045
0.521755 0.132481 0.196925
0.556709 0.066120 0.157943
0.460942 0.134293 0.171544
0.537000 0.095390 0.209470
0.550002 0.060995 0.170650
0.439727 0.073911 0.237784
