ply
format ascii 1.0
element vertex 256
property float x
property float y
property float z
end_header
0.627554 -0.029200 0.209868
0.644566 0.108060 0.180466
0.519964 0.048036 0.175570
0.522199 -0.042013 0.241593
0.659547 0.024137 0.137300
0.601462 0.050719 0.232595
0.582177 0.070250 0.154309
0.566508 -0.006015 0.204849
0.655639 0.031441 0.201500
0.580367 -0.064544 0.220023
0.515378 0.005777 0.211333
0.638743 0.061618 0.163732
0.599686 0.003147 0.240113
0.541041 -0.046762 0.198285
0.635256 0.076866 0.213141
0.538878 0.008151 0.171548
0.553522 0.012819 0.242625
0.565888 -0.032113 0.242632
0.615712 0.019787 0.206339
0.547819 0.048594 0.145938
0.571656 0.032840 0.212642
0.649110 -0.004636 0.188584
0.588047 -0.038090 0.193728
0.601246 -0.033586 0.235569
0.672989 0.018665 0.172795
0.546315 -0.071223 0.222871
0.613323 0.053488 0.200473
0.557447 0.061324 0.175903
0.540303 0.028729 0.198348
0.534185 -0.018682 0.222896
0.603571 -0.008098 0.196921
0.580473 0.027773 0.243030
0.653132 0.061836 0.190816
0.640321 -0.002323 0.217293
0.662969 0.043900 0.160090
0.513930 0.021561 0.186399
0.631369 0.081242 0.183448
0.525163 0.027375 0.156070
0.630500 0.040869 0.218438
0.633007 0.037141 0.187361
0.608840 -0.049675 0.215034
0.544144 0.036853 0.171632
0.519335 -0.038453 0.209972
0.589135 0.012408 0.218582
0.583228 -0.012529 0.222842
0.545087 -0.012566 0.245000
0.518640 -0.002907 0.183405
0.542985 -0.043100 0.228072
0.619617 -0.017055 0.233645
0.597021 0.035134 0.212633
0.562852 -0.035788 0.200749
0.658431 0.070411 0.152039
0.648193 0.046511 0.140688
0.651101 0.022517 0.161038
0.557656 0.069930 0.152546
0.536730 0.062717 0.163234
0.613227 0.068922 0.218939
0.667013 0.010019 0.195157
0.573238 -0.000823 0.243549
0.539201 -0.003537 0.205256
0.561044 -0.055735 0.235099
0.632831 0.011542 0.190146
0.636523 0.096458 0.199528
0.582964 -0.046490 0.233651
0.637198 0.019670 0.217320
0.563766 -0.057312 0.204781
0.619199 -0.005785 0.213305
0.662991 0.044130 0.182910
0.636496 0.055058 0.203266
0.609287 0.017932 0.227687
0.653494 0.021330 0.182781
0.537364 0.006399 0.230415
0.562215 0.028459 0.231514
0.641668 0.041201 0.166624
0.564902 0.047771 0.157617
0.537063 0.049165 0.186876
0.584343 -0.022410 0.240582
0.657760 0.063294 0.171124
0.618823 0.075763 0.198337
0.611959 -0.034168 0.197991
0.552788 -0.016891 0.215810
0.634906 -0.013689 0.199325
0.535116 0.010780 0.191362
0.672469 0.024496 0.153742
0.553833 0.009899 0.205223
0.648810 0.012594 0.202616
0.620189 -0.036071 0.228104
0.585970 0.003928 0.200971
0.584461 -0.057299 0.196290
0.522968 0.037142 0.194004
0.635159 0.059085 0.183860
0.581264 0.041748 0.227026
0.540707 -0.031735 0.243491
0.541716 -0.030285 0.207919
0.596421 0.053654 0.210554
0.576471 -0.020315 0.198277
0.648206 0.090329 0.184569
0.538804 -0.062297 0.208091
0.595191 0.029065 0.231130
0.611696 0.044039 0.219072
0.568983 0.079633 0.162581
0.525742 0.030081 0.175940
0.521604 0.020780 0.203793
0.521715 0.010004 0.166988
0.573756 0.014704 0.208141
0.529883 0.046956 0.159029
0.632386 0.030318 0.204433
0.595768 -0.022865 0.201718
0.628746 0.007931 0.206635
0.570249 0.061337 0.144339
0.522466 -0.006029 0.200927
0.617930 0.036572 0.195691
0.599072 -0.051915 0.228643
0.574294 0.062922 0.167286
0.549416 0.017597 0.226875
0.544250 0.022024 0.179486
0.656033 -0.002436 0.203668
0.535796 -0.003652 0.182727
0.627187 0.060838 0.215583
0.657287 0.006082 0.177847
0.539579 0.021833 0.162514
0.622553 0.009819 0.222453
0.620231 0.028387 0.220437
0.646787 0.045662 0.188649
0.633361 0.094868 0.174912
0.554412 -0.053666 0.217417
0.569576 -0.015998 0.239473
0.669853 0.030082 0.186844
0.545130 -0.063249 0.236765
0.639421 -0.018035 0.214379
0.550159 0.054026 0.162953
0.644078 0.041570 0.207134
0.640069 0.078287 0.198042
0.553674 0.074537 0.167217
0.557767 0.025234 0.211729
0.597127 -0.056324 0.205782
0.531603 0.008878 0.211530
0.601977 -0.045800 0.193982
0.644880 0.035593 0.151656
0.663520 0.030512 0.168487
0.579931 0.023626 0.227973
0.613939 -0.001867 0.236397
0.604314 0.009263 0.206808
0.648265 0.050435 0.155659
0.526236 -0.006048 0.219070
0.542786 -0.005525 0.220060
0.587196 0.014142 0.244806
0.541298 0.063023 0.177732
0.549210 0.037918 0.157353
0.618425 0.055190 0.226802
0.566986 0.021422 0.244318
0.531150 -0.019714 0.207247
0.660578 0.035280 0.147225
0.644330 0.067960 0.176098
0.626228 0.049335 0.192632
0.648932 0.075364 0.162319
0.540153 -0.046330 0.246091
0.519536 0.007472 0.193803
0.630951 -0.026121 0.226949
0.601393 0.000904 0.225778
0.553733 -0.024764 0.246042
0.605512 0.064420 0.206721
0.594527 -0.012160 0.241472
0.618404 -0.020662 0.216861
0.637605 0.024035 0.183863
0.587244 0.024055 0.210463
0.662153 0.012518 0.165743
0.526786 -0.047052 0.198055
0.574097 -0.048432 0.200286
0.653804 0.049341 0.169489
0.528612 -0.033277 0.232516
0.644081 0.007844 0.182448
0.552919 -0.003775 0.202306
0.625562 0.063549 0.199567
0.647082 0.032302 0.177188
0.627459 0.085608 0.202938
0.540110 -0.043157 0.212800
0.603685 0.058490 0.221349
0.610412 0.032849 0.206698
0.547343 -0.021577 0.227620
0.606433 0.018405 0.241014
0.623053 0.043004 0.207365
0.658165 0.014606 0.152714
0.532005 -0.005354 0.234230
0.620834 -0.040169 0.213831
0.651234 0.050947 0.200744
0.645093 0.063542 0.152089
0.521453 0.037949 0.164230
0.530826 -0.031980 0.215494
0.603696 0.024576 0.217684
0.570346 -0.046443 0.237634
0.584990 -0.000674 0.237544
0.628495 0.093464 0.187368
0.558980 0.055811 0.149077
0.603949 0.038430 0.228423
0.587602 0.043824 0.215295
0.612461 -0.021253 0.199903
0.570824 -0.061367 0.228360
0.644091 0.025014 0.202206
0.538630 0.048433 0.169333
0.583324 -0.057267 0.209215
0.622534 0.075518 0.210757
0.658121 0.019389 0.196104
0.635542 -0.001113 0.190544
0.515826 0.023565 0.170823
0.647567 0.032112 0.190099
0.528098 0.005674 0.178253
0.611132 0.004584 0.216696
0.546401 0.063513 0.154753
0.645893 0.054066 0.178472
0.587712 0.038159 0.240747
0.658511 0.048560 0.148376
0.624794 0.019895 0.195138
0.557451 -0.017979 0.204138
0.651247 0.025525 0.146683
0.649294 -0.009520 0.212207
0.611925 -0.027002 0.233719
0.645338 0.017824 0.191642
0.544927 0.036433 0.184142
0.586135 -0.035312 0.238353
0.520021 -0.036170 0.222259
0.574072 -0.036882 0.195367
0.575413 0.056798 0.154731
0.537759 0.053586 0.151269
0.610361 -0.046758 0.228029
0.641051 0.009286 0.211678
0.565137 0.052850 0.168869
0.627891 -0.004886 0.204243
0.513273 0.009058 0.183365
0.646635 0.101023 0.170626
0.595224 0.028687 0.243360
0.534695 0.032766 0.165052
0.586172 0.031727 0.221307
0.562218 0.066494 0.163944
0.659475 0.031636 0.180335
0.572009 0.074013 0.148826
0.569927 -0.062603 0.214135
0.646328 0.089140 0.196504
0.606314 -0.011156 0.237418
0.644068 0.100764 0.190046
0.549946 -0.001593 0.244455
0.599944 0.047128 0.220369
0.604515 0.043615 0.208658
0.654634 0.060030 0.158789
0.656092 0.041611 0.195147
0.537907 0.035483 0.153933
0.673529 0.017477 0.184567
0.516606 0.036084 0.184121
0.609275 -0.001238 0.204635
0.552009 -0.053242 0.205923
0.624455 0.070489 0.221781
0.588705 0.017160 0.232149
0.642269 0.060011 0.194413
0.669080 0.027976 0.142581
0.629598 0.074872 0.192912
0.592092 0.043422 0.230650
