ply
format ascii 1.0
element vertex 256
property float x
property float y
property float z
end_header
0.646249 -0.042089 0.187968
0.650617 0.097747 0.167426
0.525301 0.022018 0.168178
0.546537 -0.069785 0.227473
0.677175 0.019259 0.126713
0.613339 0.035158 0.216752
0.581192 0.055525 0.143974
0.578320 -0.016066 0.192320
0.667324 0.017348 0.189306
0.592611 -0.074313 0.176611
0.606175 -0.049984 0.221866
0.533346 -0.029094 0.170735
0.665999 0.052591 0.158811
0.644586 0.066833 0.202850
0.623690 -0.003642 0.195199
0.548172 -0.072905 0.183357
0.593193 -0.007681 0.230631
0.555998 -0.030597 0.226817
0.632616 0.032651 0.177947
0.549140 0.029970 0.137721
0.572327 -0.094756 0.205189
0.662698 -0.014786 0.168480
0.610707 -0.040153 0.176656
0.541336 0.000310 0.193799
0.549874 -0.001153 0.155266
0.587153 0.020063 0.198287
0.624990 -0.070863 0.190495
0.686919 0.016071 0.160624
0.560838 0.041583 0.167402
0.558556 -0.042703 0.192532
0.632589 -0.032148 0.216872
0.600165 -0.078338 0.210009
0.664301 0.046095 0.129758
0.655909 -0.015101 0.197322
0.642382 0.021061 0.204643
0.619602 0.055143 0.192475
0.536194 -0.027192 0.205517
0.622241 0.000915 0.223419
0.639367 0.070747 0.175269
0.657642 0.046967 0.185128
0.642339 0.003636 0.175376
0.660122 0.025505 0.163534
0.599466 -0.029630 0.204172
0.566656 -0.067602 0.205326
0.583171 -0.033338 0.226916
0.564734 -0.006555 0.213998
0.670727 0.077479 0.150029
0.537380 -0.059430 0.204801
0.524456 -0.004074 0.163719
0.582590 -0.046011 0.182637
0.548554 0.021337 0.179745
0.600212 -0.001380 0.206812
0.614172 0.019771 0.196858
0.556900 0.051903 0.145095
0.538649 0.041024 0.157452
0.633969 0.047749 0.212597
0.635192 -0.054385 0.208480
0.595022 0.017107 0.220752
0.575474 -0.079082 0.223719
0.600253 -0.014200 0.184433
0.624747 -0.021876 0.180327
0.611591 -0.026113 0.224561
0.679671 0.002006 0.177495
0.645106 0.087993 0.189186
0.675685 0.030690 0.147291
0.570112 -0.082254 0.186804
0.567610 -0.045663 0.212669
0.547275 -0.022235 0.187031
0.625806 -0.055833 0.172858
0.525919 -0.013533 0.184530
0.532761 0.011615 0.149646
0.551977 0.021790 0.158031
0.669833 0.009023 0.144586
0.587709 -0.060470 0.224305
0.673953 0.037331 0.174730
0.617918 -0.066745 0.211105
0.566990 -0.060428 0.184779
0.567554 0.030657 0.147174
0.645698 0.051885 0.168983
0.571021 0.005083 0.198155
0.643074 0.000976 0.199742
0.655470 0.036610 0.145508
0.663969 0.070381 0.168309
0.523492 0.006443 0.182189
0.644442 -0.017363 0.181035
0.563722 -0.057314 0.228425
0.659872 -0.000324 0.183960
0.557600 -0.028659 0.207095
0.651649 0.028494 0.181103
0.548211 -0.003277 0.175680
0.608729 0.039533 0.197396
0.659443 0.005932 0.164925
0.574731 -0.011679 0.230476
0.547147 -0.043776 0.211203
0.618075 -0.016364 0.207674
0.548228 -0.018625 0.165095
0.627817 0.012697 0.186537
0.649199 -0.030543 0.208876
0.605959 -0.075544 0.189353
0.602133 -0.059102 0.178691
0.568077 0.062300 0.154589
0.625849 0.032793 0.200592
0.643724 0.037383 0.194428
0.638967 0.056725 0.186326
0.632078 -0.033192 0.193914
0.585632 -0.081777 0.195336
0.614055 0.017680 0.214451
0.580482 0.011389 0.212667
0.676121 0.019747 0.174274
0.639829 -0.057945 0.192063
0.569330 0.045820 0.134690
0.595298 -0.034758 0.184838
0.653640 0.081781 0.175876
0.656247 -0.028770 0.185322
0.576075 0.046187 0.157046
0.605028 0.005250 0.227250
0.539716 0.036101 0.173403
0.663559 0.023772 0.134935
0.628436 0.068906 0.189652
0.651446 0.071202 0.188202
0.671360 -0.011958 0.183760
0.639339 -0.017669 0.213615
0.655506 0.064242 0.154820
0.676804 0.064497 0.160259
0.674699 0.001979 0.161732
0.543707 -0.036539 0.193403
0.671408 0.047061 0.144100
0.562879 -0.012142 0.194020
0.684142 0.017765 0.143331
0.620511 -0.046227 0.215986
0.602528 0.026586 0.207983
0.665790 0.055534 0.174481
0.554289 0.054764 0.160500
0.562719 -0.027773 0.189349
0.639145 0.089009 0.174587
0.654038 0.011845 0.196448
0.553505 0.009745 0.167958
0.657995 0.040518 0.167402
0.551534 -0.057668 0.198510
0.582735 0.003212 0.227104
0.625560 0.012410 0.204380
0.538745 0.015880 0.163468
0.629935 0.060077 0.204438
0.676998 0.039230 0.159891
0.599267 -0.034602 0.227102
0.599185 0.010628 0.197602
0.533013 -0.026345 0.189941
0.647820 -0.047563 0.203724
0.624747 0.041579 0.187250
0.609741 0.000303 0.191103
0.535077 -0.011570 0.156243
0.575958 -0.048853 0.230290
0.546764 -0.016651 0.200796
0.570219 -0.027030 0.230468
0.671597 0.017472 0.158739
0.618021 0.047450 0.205551
0.637297 0.018914 0.175789
0.640046 -0.016151 0.199047
0.629461 -0.035693 0.179751
0.554527 -0.019361 0.217872
0.633553 -0.008695 0.184358
0.668800 0.062986 0.148517
0.598085 -0.061684 0.214564
0.536474 0.028514 0.144136
0.538421 0.011824 0.186106
0.550984 -0.059887 0.218413
0.665793 0.030847 0.185501
0.641378 0.052057 0.201406
0.565215 -0.071963 0.230223
0.587483 -0.005426 0.193189
0.673273 0.033189 0.131279
0.592045 -0.022515 0.227574
0.625999 -0.014479 0.219002
0.551911 0.035683 0.157978
0.644799 0.018253 0.188336
0.580715 -0.080654 0.208223
0.612228 -0.008632 0.223327
0.571360 -0.039775 0.200739
0.626988 0.034601 0.214735
0.539444 -0.015063 0.178262
0.648418 -0.006177 0.189278
0.563321 -0.043490 0.230701
0.532423 -0.011281 0.196412
0.611406 -0.013676 0.192427
0.631648 -0.066498 0.201678
0.642040 0.042392 0.178009
0.535162 0.023019 0.178530
0.645531 0.031966 0.169559
0.590263 -0.044789 0.226624
0.531868 -0.001153 0.174951
0.551012 0.018775 0.145262
0.559582 0.038419 0.140184
0.611562 0.004254 0.210205
0.651286 0.015509 0.168509
0.612418 -0.077770 0.205669
0.612245 -0.065592 0.173759
0.664960 0.036436 0.156179
0.667779 0.010017 0.178709
0.546953 0.043820 0.148002
0.524781 0.008063 0.159415
0.654934 0.061357 0.169899
0.545141 0.046986 0.166824
0.557317 -0.047746 0.204416
0.650654 -0.011101 0.170936
0.552246 0.008930 0.180693
0.593394 0.004447 0.219741
0.584215 0.007869 0.196437
0.592445 -0.074158 0.219063
0.547136 -0.028344 0.173054
0.665482 -0.020679 0.191369
0.636694 0.003467 0.189290
0.576342 0.041265 0.143928
0.653293 0.093645 0.179669
0.616515 0.027107 0.206631
0.650553 0.026695 0.195377
0.623935 0.001430 0.209897
0.639174 0.077839 0.193101
0.568585 0.034838 0.158746
0.667968 0.026154 0.122234
0.672333 -0.006394 0.172214
0.630342 0.027135 0.188746
0.527615 -0.000930 0.191867
0.685986 0.011977 0.172129
0.532923 -0.000617 0.149923
0.633346 0.044294 0.196525
0.563308 0.048276 0.155502
0.640474 -0.040272 0.212414
0.569998 0.058234 0.140106
0.647723 0.083570 0.165427
0.654926 -0.001126 0.198460
0.654652 -0.021896 0.174656
0.656037 0.037731 0.192760
0.527416 -0.016408 0.164234
0.539895 0.027243 0.155621
0.592590 0.013112 0.209730
0.663745 0.019244 0.145963
0.634411 -0.019648 0.188945
0.549181 -0.010608 0.188662
0.572099 -0.041647 0.189018
0.582597 -0.026730 0.189326
0.579755 -0.075964 0.183914
0.663172 -0.004962 0.161921
0.615631 -0.051449 0.176939
0.663738 -0.007834 0.192400
0.561377 -0.054100 0.193032
0.590306 -0.053871 0.178655
0.636592 0.010617 0.199907
0.617065 0.009157 0.193436
0.605938 -0.074831 0.176398
0.654195 0.053086 0.157246
0.635749 -0.054945 0.178461
0.659729 0.037662 0.178593
0.575734 -0.089505 0.214764
0.552811 0.010063 0.152437
0.545712 -0.032922 0.207970
0.613422 -0.020979 0.180282
