ply
format ascii 1.0
element vertex 256
property float x
property float y
property float z
end_header
0.543486 0.009393 0.209831
0.591920 0.139192 0.181214
0.457638 0.108928 0.175644
0.438339 0.021308 0.242579
0.585967 0.054559 0.135895
0.537070 0.093016 0.233388
0.523470 0.115331 0.154714
0.489533 0.046284 0.205639
0.584720 0.061893 0.200991
0.489418 -0.014010 0.220220
0.442718 0.069514 0.211923
0.524237 0.047068 0.240616
0.603207 0.094194 0.169057
0.455170 0.012705 0.199038
0.575789 0.110717 0.213598
0.466402 0.065603 0.172351
0.481648 0.067262 0.243693
0.483138 0.020686 0.243227
0.543566 0.059879 0.206852
0.484998 0.102340 0.146313
0.503711 0.082772 0.213672
0.569596 0.028327 0.188091
0.502859 0.010167 0.194046
0.571865 0.070747 0.167132
0.597770 0.045523 0.171544
0.517104 0.011039 0.235777
0.454774 -0.012553 0.223380
0.548858 0.093190 0.201121
0.497201 0.112866 0.176194
0.472525 0.085633 0.198903
0.457851 0.036038 0.221238
0.525006 0.035654 0.197301
0.577472 0.094236 0.186556
0.511356 0.075481 0.243924
0.562377 0.032585 0.217014
0.445303 0.084857 0.186735
0.585619 0.082515 0.143978
0.568969 0.123147 0.186403
0.562868 0.076642 0.219340
0.457861 0.087331 0.156470
0.520539 -0.006178 0.215041
0.467519 0.044538 0.245966
0.478437 0.092185 0.172133
0.436118 0.025752 0.211019
0.561447 0.052951 0.186538
0.515965 0.058756 0.219269
0.462665 0.060625 0.225740
0.504415 0.035857 0.223403
0.594363 0.070534 0.178264
0.443994 0.059933 0.184108
0.538821 0.022824 0.233783
0.528905 0.079067 0.213411
0.472828 -0.001069 0.235567
0.478966 0.018238 0.201352
0.499587 0.120823 0.152729
0.477484 0.118953 0.163316
0.552587 0.108080 0.219657
0.590566 0.038465 0.194087
0.497625 0.049372 0.244304
0.560845 0.076450 0.189615
0.579674 0.045782 0.157015
0.589928 0.120396 0.195845
0.580522 0.085960 0.207735
0.460099 0.058391 0.202635
0.496291 0.002797 0.233956
0.564398 0.054652 0.217225
0.592780 0.063431 0.156465
0.474844 -0.002940 0.205211
0.458174 0.015515 0.228829
0.540913 0.034070 0.213636
0.536928 0.059315 0.228201
0.493669 0.080539 0.232609
0.597477 0.088981 0.189204
0.501326 0.097655 0.158159
0.474409 0.106072 0.187135
0.572234 0.043407 0.201658
0.480945 0.064720 0.206269
0.503335 0.025814 0.241055
0.527059 0.008334 0.198083
0.557342 0.111084 0.198562
0.554177 0.022854 0.199328
0.534872 0.004258 0.228092
0.510750 0.051428 0.201629
0.577904 0.045114 0.176696
0.494892 -0.007692 0.196500
0.457770 0.097912 0.194249
0.515263 0.089039 0.228019
0.458755 0.026944 0.244357
0.552125 0.044031 0.201758
0.585720 0.101498 0.171416
0.584405 0.124375 0.172624
0.474087 0.035843 0.206382
0.495810 0.030114 0.198853
0.532584 0.097213 0.211431
0.588021 0.080233 0.163702
0.449439 -0.001970 0.208749
0.447652 0.047196 0.210854
0.525863 0.073411 0.231879
0.545300 0.084239 0.219697
0.574626 0.068862 0.149215
0.448882 0.048000 0.231313
0.512838 0.127706 0.162739
0.452416 0.082512 0.204228
0.458909 0.090117 0.176310
0.599407 0.106739 0.181694
0.450232 0.071471 0.167566
0.501463 0.064695 0.209011
0.467141 0.105238 0.159236
0.577356 0.071017 0.186676
0.591817 0.054697 0.185049
0.514002 0.023079 0.202068
0.509824 0.109360 0.144753
0.563657 0.062980 0.202274
0.478641 0.073025 0.228025
0.463655 0.069365 0.190257
0.563898 0.085190 0.204737
0.510635 -0.006201 0.228736
0.575609 0.111254 0.196354
0.513994 0.110283 0.167714
0.474896 0.077889 0.180176
0.607166 0.109356 0.163161
0.546551 0.074301 0.199138
0.467152 0.048923 0.214960
0.460688 0.019660 0.213095
0.470459 0.078574 0.163153
0.547878 0.048372 0.222765
0.564236 0.096992 0.216075
0.549919 0.066923 0.221106
0.594434 0.048965 0.149480
0.466714 0.002672 0.217973
0.490474 0.035519 0.240151
0.460469 0.055062 0.183642
0.455612 -0.004661 0.237346
0.557806 0.017503 0.214218
0.488462 0.107316 0.163275
0.586062 0.056946 0.169692
0.496730 0.126465 0.167299
0.488420 0.078641 0.212849
0.507515 -0.009806 0.205863
0.514595 -0.000594 0.194093
0.529883 0.052258 0.207311
0.580770 0.132607 0.192315
0.572945 0.027521 0.203357
0.509728 0.071723 0.228843
0.536884 0.038891 0.236710
0.514712 0.060636 0.245525
0.443273 0.059867 0.199324
0.569959 0.123048 0.204144
0.481909 0.118383 0.177851
0.587268 0.083963 0.178898
0.483729 0.091781 0.157902
0.554536 0.093455 0.227386
0.496767 0.072453 0.245308
0.574191 0.072207 0.207386
0.454819 0.012861 0.246853
0.464750 0.074369 0.204315
0.547656 0.011422 0.226897
0.573188 0.058648 0.179690
0.586997 0.081034 0.195591
0.595698 0.125126 0.182435
0.525246 0.044630 0.226247
0.473074 0.030643 0.246823
0.543887 0.105593 0.207525
0.468996 0.061572 0.239345
0.515645 0.033384 0.241914
0.536652 0.019767 0.216986
0.516789 0.070604 0.211260
0.441243 0.015765 0.198957
0.456651 0.067049 0.213547
0.459655 0.034201 0.207245
0.486930 0.003316 0.200674
0.557262 0.034876 0.190398
0.446542 0.028387 0.233501
0.476826 0.051671 0.203258
0.551084 0.057346 0.194845
0.589791 0.100708 0.189765
0.540906 0.100141 0.222148
0.536812 0.067959 0.215603
0.534379 0.060312 0.241561
0.444001 0.072291 0.193899
0.575320 0.055750 0.208604
0.449002 0.028969 0.213627
0.534416 0.000265 0.213782
0.581559 0.050596 0.194438
0.456743 0.098610 0.164451
0.577035 0.053727 0.146639
0.565060 0.089022 0.190048
0.552786 0.078628 0.210016
0.561178 0.098670 0.201178
0.484070 0.005760 0.238073
0.509032 0.046822 0.238175
0.591858 0.066873 0.190689
0.459121 0.052120 0.239183
0.497536 0.106743 0.149459
0.536545 0.080495 0.229151
0.521803 0.089692 0.216239
0.530591 0.020753 0.200088
0.579513 0.116042 0.181415
0.480957 -0.008768 0.228682
0.451754 0.054931 0.220627
0.475897 0.104721 0.169621
0.576087 0.079669 0.156347
0.563075 0.112388 0.211381
0.535541 0.046012 0.217188
0.493906 -0.007522 0.209436
0.447756 0.086108 0.171159
0.455286 0.065900 0.178959
0.487116 0.117300 0.154915
0.520808 0.083903 0.241644
0.558083 0.044217 0.213324
0.598295 0.057028 0.166067
0.540165 0.085075 0.208117
0.580220 0.058558 0.158590
0.529013 0.014956 0.233863
0.478990 0.091779 0.184656
0.587601 0.063196 0.144832
0.502034 0.012874 0.238709
0.437425 0.027689 0.223314
0.489570 0.014599 0.195843
0.467568 0.043527 0.226212
0.582394 0.036371 0.203379
0.513699 0.103881 0.155252
0.476383 0.109660 0.151483
0.522813 -0.003827 0.228040
0.583623 0.071511 0.172094
0.502696 0.102702 0.169345
0.579510 0.034376 0.182548
0.595499 0.105530 0.163302
0.567404 0.041632 0.182020
0.525913 0.072909 0.244104
0.604706 0.095568 0.181106
0.468336 0.090399 0.165495
0.581738 0.126156 0.203316
0.517634 0.078206 0.222173
0.503135 0.116573 0.164213
0.514521 0.121320 0.149088
0.479674 -0.009619 0.214458
0.593167 0.132622 0.171069
0.578882 0.133572 0.178203
0.527304 0.031638 0.237742
0.534618 0.089967 0.221207
0.472205 0.092083 0.154388
0.598304 0.044213 0.183303
0.591736 0.075339 0.151113
0.451423 0.098270 0.184306
0.532226 0.040909 0.205006
0.573616 0.035915 0.211591
0.464379 0.003760 0.206509
0.552831 0.031556 0.210265
0.564895 0.066040 0.214610
0.563904 0.106966 0.222354
0.516781 0.063343 0.232876
0.475496 0.053050 0.245679
0.561991 0.064896 0.190592
0.611247 0.101472 0.173282
0.583833 0.093566 0.199717
