ply
format ascii 1.0
element vertex 256
property float x
property float y
property float z
end_header
0.627566 -0.029220 0.209883
0.644698 0.108095 0.180718
0.520050 0.048022 0.175582
0.522210 -0.042033 0.241603
0.659495 0.024297 0.136886
0.601456 0.050674 0.232644
0.582347 0.070116 0.154418
0.566520 -0.006035 0.204860
0.655610 0.031421 0.201387
0.580379 -0.064564 0.220037
0.515390 0.005756 0.211341
0.638826 0.061637 0.163814
0.599696 0.003128 0.240126
0.541054 -0.046783 0.198297
0.635305 0.076841 0.213312
0.538921 0.008116 0.171570
0.553531 0.012800 0.242635
0.565899 -0.032132 0.242644
0.615735 0.019775 0.206356
0.547952 0.048545 0.145983
0.571667 0.032820 0.212653
0.649123 -0.004656 0.188600
0.588061 -0.038111 0.193741
0.601256 -0.033606 0.235583
0.672995 0.018641 0.172804
0.546327 -0.071244 0.222883
0.613384 0.053500 0.200551
0.557560 0.061241 0.175967
0.540347 0.028688 0.198375
0.534197 -0.018703 0.222906
0.603584 -0.008118 0.196934
0.580482 0.027754 0.243041
0.653184 0.061827 0.190914
0.640332 -0.002342 0.217309
0.662817 0.043790 0.159924
0.513976 0.021553 0.186401
0.631481 0.081278 0.183619
0.525242 0.027359 0.156083
0.630515 0.040843 0.218492
0.608852 -0.049695 0.215049
0.633057 0.037141 0.187414
0.544220 0.036811 0.171663
0.519348 -0.038474 0.209982
0.589146 0.012388 0.218594
0.583239 -0.012549 0.222854
0.545097 -0.012585 0.245010
0.518659 -0.002920 0.183408
0.542997 -0.043121 0.228083
0.619628 -0.017074 0.233660
0.597033 0.035114 0.212645
0.562865 -0.035809 0.200761
0.658531 0.070434 0.152151
0.647975 0.046334 0.140563
0.557828 0.069854 0.152614
0.651094 0.022475 0.161066
0.536867 0.062687 0.163264
0.613259 0.068897 0.219048
0.667026 0.009999 0.195173
0.573248 -0.000842 0.243561
0.539213 -0.003558 0.205265
0.561055 -0.055755 0.235112
0.632789 0.011487 0.190120
0.636610 0.096460 0.199741
0.582975 -0.046510 0.233665
0.637210 0.019668 0.217270
0.563779 -0.057333 0.204794
0.662915 0.044079 0.182759
0.619217 -0.005804 0.213339
0.636532 0.055043 0.203339
0.609297 0.017913 0.227700
0.653510 0.021309 0.182807
0.537374 0.006379 0.230424
0.562225 0.028439 0.231523
0.641540 0.041090 0.166534
0.565013 0.047677 0.157689
0.537140 0.049130 0.186902
0.584353 -0.022430 0.240595
0.657835 0.063301 0.171229
0.618901 0.075777 0.198472
0.611972 -0.034189 0.198006
0.671814 0.023064 0.152702
0.552799 -0.016912 0.215821
0.634918 -0.013708 0.199341
0.535145 0.010747 0.191382
0.553845 0.009878 0.205233
0.648822 0.012574 0.202631
0.620201 -0.036091 0.228119
0.585982 0.003908 0.200983
0.584474 -0.057320 0.196304
0.523025 0.037123 0.194017
0.635219 0.059087 0.183935
0.581274 0.041729 0.227036
0.540717 -0.031755 0.243501
0.541728 -0.030306 0.207929
0.596462 0.053655 0.210598
0.576484 -0.020335 0.198289
0.648320 0.090354 0.184793
0.538817 -0.062318 0.208103
0.595201 0.029045 0.231141
0.611714 0.044015 0.219128
0.569161 0.079528 0.162671
0.525807 0.030060 0.175954
0.521634 0.020760 0.203802
0.521764 0.009990 0.166996
0.573767 0.014684 0.208152
0.529982 0.046933 0.159049
0.595781 -0.022885 0.201731
0.628742 0.007904 0.206624
0.570415 0.061235 0.144425
0.632414 0.030303 0.204480
0.522479 -0.006050 0.200936
0.617970 0.036569 0.195726
0.599083 -0.051934 0.228658
0.574425 0.062802 0.167379
0.549426 0.017577 0.226885
0.544302 0.021981 0.179515
0.656046 -0.002455 0.203684
0.535815 -0.003685 0.182745
0.627221 0.060812 0.215705
0.657301 0.006062 0.177864
0.539646 0.021798 0.162539
0.622564 0.009800 0.222467
0.620240 0.028361 0.220468
0.646838 0.045657 0.188726
0.633498 0.094920 0.175115
0.669866 0.030063 0.186860
0.554424 -0.053686 0.217429
0.569587 -0.016017 0.239484
0.545142 -0.063269 0.236777
0.639433 -0.018054 0.214395
0.550276 0.053965 0.163003
0.644105 0.041550 0.207204
0.640149 0.078289 0.198225
0.553833 0.074467 0.167280
0.557779 0.025213 0.211739
0.597140 -0.056345 0.205796
0.531615 0.008856 0.211539
0.601991 -0.045820 0.193997
0.644708 0.035443 0.151571
0.664938 0.032189 0.170471
0.579942 0.023606 0.227984
0.613949 -0.001886 0.236411
0.604326 0.009242 0.206821
0.648093 0.050300 0.155522
0.526247 -0.006069 0.219079
0.542797 -0.005546 0.220070
0.587206 0.014122 0.244818
0.541412 0.062978 0.177770
0.549299 0.037872 0.157388
0.618434 0.055147 0.226894
0.660553 0.035228 0.147232
0.566995 0.021402 0.244329
0.531162 -0.019735 0.207257
0.644401 0.067967 0.176191
0.626275 0.049333 0.192687
0.649021 0.075381 0.162424
0.540163 -0.046349 0.246103
0.519549 0.007450 0.193811
0.630962 -0.026140 0.226965
0.601403 0.000884 0.225791
0.553743 -0.024784 0.246054
0.605566 0.064424 0.206805
0.594537 -0.012179 0.241485
0.637542 0.023971 0.183803
0.618416 -0.020682 0.216876
0.587255 0.024035 0.210475
0.662154 0.012484 0.165768
0.526800 -0.047074 0.198065
0.574110 -0.048453 0.200299
0.653677 0.049248 0.169338
0.528623 -0.033298 0.232526
0.644095 0.007823 0.182463
0.552931 -0.003796 0.202316
0.625631 0.063556 0.199691
0.647001 0.032232 0.177093
0.627533 0.085607 0.203110
0.540122 -0.043178 0.212811
0.603706 0.058465 0.221417
0.610438 0.032838 0.206721
0.547354 -0.021597 0.227631
0.606443 0.018386 0.241027
0.623081 0.042989 0.207412
0.658151 0.014558 0.152742
0.532015 -0.005375 0.234240
0.620846 -0.040189 0.213846
0.651272 0.050930 0.200830
0.645191 0.063570 0.152179
0.521537 0.037935 0.164242
0.530838 -0.032001 0.215504
0.603707 0.024558 0.217692
0.570357 -0.046463 0.237647
0.585000 -0.000694 0.237556
0.628605 0.093494 0.187558
0.559124 0.055734 0.149142
0.603959 0.038410 0.228434
0.587613 0.043804 0.215305
0.612474 -0.021273 0.199918
0.570836 -0.061387 0.228373
0.538723 0.048397 0.169362
0.644068 0.024988 0.202130
0.583337 -0.057288 0.209229
0.622586 0.075504 0.210899
0.645957 0.054070 0.178555
0.658133 0.019369 0.196119
0.635555 -0.001133 0.190559
0.515887 0.023556 0.170827
0.647513 0.032066 0.190003
0.611152 0.004566 0.216730
0.528131 0.005650 0.178266
0.546554 0.063464 0.154800
0.651224 0.025470 0.146708
0.587722 0.038140 0.240758
0.658316 0.048414 0.148211
0.624758 0.019845 0.195114
0.557463 -0.018000 0.204149
0.649306 -0.009539 0.212223
0.611936 -0.027021 0.233734
0.544992 0.036389 0.184174
0.586146 -0.035332 0.238367
0.645296 0.017780 0.191577
0.520033 -0.036191 0.222268
0.574085 -0.036903 0.195380
0.575551 0.056680 0.154825
0.537895 0.053559 0.151298
0.610373 -0.046777 0.228044
0.565241 0.052752 0.168944
0.641057 0.009275 0.211638
0.627903 -0.004906 0.204258
0.513306 0.009051 0.183365
0.646784 0.101077 0.170868
0.595234 0.028668 0.243372
0.534772 0.032736 0.165075
0.586182 0.031707 0.221318
0.562363 0.066404 0.164019
0.654722 0.060049 0.158888
0.572197 0.073904 0.148919
0.569940 -0.062623 0.214148
0.646417 0.089142 0.196722
0.606325 -0.011175 0.237432
0.644177 0.100780 0.190282
0.604555 0.043616 0.208698
0.549956 -0.001613 0.244465
0.599955 0.047108 0.220381
0.537995 0.035454 0.153957
0.656043 0.041579 0.195015
0.673548 0.017464 0.184577
0.655182 0.036529 0.165392
0.516671 0.036073 0.184128
0.609288 -0.001258 0.204649
0.552022 -0.053263 0.205935
0.658671 0.033253 0.184017
0.624482 0.070453 0.221916
0.588715 0.017140 0.232160
0.667024 0.033168 0.157719
0.642317 0.060003 0.194497
0.669052 0.027922 0.142585
