ply
format ascii 1.0
element vertex 256
property float x
property float y
property float z
end_header
0.627564 -0.029170 0.209914
0.644561 0.108180 0.180651
0.520011 0.048013 0.175520
0.522207 -0.041989 0.241631
0.659534 0.024367 0.136987
0.601433 0.050751 0.232663
0.582283 0.070156 0.154336
0.566517 -0.005988 0.204890
0.655606 0.031472 0.201421
0.580378 -0.064517 0.220066
0.515391 0.005795 0.211326
0.638681 0.061609 0.163711
0.599692 0.003176 0.240157
0.541053 -0.046736 0.198325
0.635233 0.076943 0.213280
0.538932 0.008125 0.171562
0.553527 0.012846 0.242665
0.565896 -0.032086 0.242673
0.615709 0.019809 0.206379
0.547916 0.048532 0.145924
0.571662 0.032867 0.212684
0.649146 -0.004591 0.188661
0.588059 -0.038062 0.193771
0.601254 -0.033557 0.235614
0.673033 0.018710 0.172905
0.546326 -0.071197 0.222911
0.613331 0.053564 0.200558
0.557504 0.061279 0.175893
0.540328 0.028733 0.198340
0.534188 -0.018651 0.222935
0.603581 -0.008069 0.196965
0.580477 0.027801 0.243072
0.653098 0.061856 0.190781
0.640322 -0.002302 0.217361
0.662813 0.043842 0.159958
0.513968 0.021550 0.186372
0.631380 0.081349 0.183586
0.525231 0.027331 0.156048
0.630502 0.040907 0.218444
0.632978 0.037151 0.187368
0.608851 -0.049646 0.215079
0.544196 0.036826 0.171618
0.519346 -0.038429 0.210010
0.589142 0.012436 0.218625
0.583236 -0.012501 0.222884
0.545093 -0.012540 0.245040
0.518682 -0.002921 0.183410
0.542994 -0.043075 0.228111
0.619624 -0.017024 0.233691
0.597020 0.035176 0.212680
0.562864 -0.035762 0.200790
0.658355 0.070397 0.151990
0.647971 0.046387 0.140596
0.557765 0.069862 0.152529
0.536812 0.062683 0.163185
0.651132 0.022544 0.161166
0.613202 0.068977 0.219041
0.667044 0.010054 0.195267
0.573244 -0.000795 0.243591
0.539221 -0.003525 0.205283
0.561053 -0.055708 0.235140
0.632786 0.011538 0.190152
0.636503 0.096551 0.199690
0.582973 -0.046462 0.233694
0.637205 0.019718 0.217302
0.563778 -0.057286 0.204822
0.662910 0.044131 0.182793
0.619214 -0.005755 0.213371
0.636477 0.055084 0.203254
0.609292 0.017962 0.227732
0.537370 0.006424 0.230454
0.653547 0.021378 0.182908
0.562220 0.028486 0.231554
0.641535 0.041142 0.166568
0.564977 0.047700 0.157633
0.537099 0.049156 0.186841
0.584350 -0.022382 0.240625
0.657705 0.063298 0.171082
0.618818 0.075845 0.198454
0.611970 -0.034139 0.198036
0.671853 0.023134 0.152803
0.552797 -0.016865 0.215850
0.634916 -0.013658 0.199372
0.535150 0.010776 0.191369
0.553841 0.009925 0.205263
0.648833 0.012626 0.202707
0.620198 -0.036041 0.228150
0.585979 0.003956 0.201013
0.584474 -0.057271 0.196333
0.522997 0.037141 0.193969
0.635119 0.059093 0.183845
0.581268 0.041776 0.227068
0.540714 -0.031709 0.243530
0.541726 -0.030260 0.207958
0.596417 0.053707 0.210619
0.576481 -0.020287 0.198319
0.648208 0.090447 0.184739
0.538816 -0.062272 0.208130
0.595191 0.029104 0.231175
0.611688 0.044093 0.219145
0.569085 0.079562 0.162575
0.525790 0.030058 0.175916
0.521624 0.020789 0.203775
0.521773 0.009972 0.166982
0.573763 0.014732 0.208182
0.529946 0.046915 0.158990
0.595779 -0.022836 0.201762
0.628738 0.007955 0.206656
0.632377 0.030343 0.204447
0.570363 0.061248 0.144353
0.522491 -0.006023 0.200941
0.617910 0.036585 0.195714
0.599081 -0.051886 0.228687
0.574368 0.062849 0.167306
0.549422 0.017623 0.226915
0.544295 0.022007 0.179490
0.656051 -0.002406 0.203755
0.535839 -0.003666 0.182751
0.627172 0.060906 0.215694
0.657338 0.006135 0.177943
0.539641 0.021796 0.162513
0.622560 0.009850 0.222499
0.620239 0.028423 0.220465
0.646757 0.045678 0.188634
0.669898 0.030124 0.186976
0.633373 0.094986 0.175068
0.554422 -0.053639 0.217457
0.569583 -0.015970 0.239514
0.545140 -0.063223 0.236805
0.639423 -0.018011 0.214432
0.550231 0.053977 0.162937
0.644067 0.041602 0.207126
0.640063 0.078384 0.198188
0.553762 0.074488 0.167188
0.557774 0.025260 0.211769
0.664976 0.032258 0.170572
0.597139 -0.056296 0.205826
0.531616 0.008896 0.211536
0.601990 -0.045771 0.194026
0.644704 0.035496 0.151605
0.579938 0.023650 0.228015
0.613945 -0.001837 0.236442
0.604322 0.009292 0.206853
0.648089 0.050352 0.155556
0.526242 -0.006021 0.219087
0.542794 -0.005500 0.220099
0.587201 0.014170 0.244849
0.541354 0.062998 0.177692
0.549275 0.037876 0.157343
0.618400 0.055240 0.226895
0.660591 0.035298 0.147333
0.566990 0.021449 0.244359
0.531160 -0.019689 0.207286
0.644279 0.067964 0.176065
0.626200 0.049348 0.192634
0.648865 0.075357 0.162275
0.540161 -0.046304 0.246131
0.519567 0.007469 0.193798
0.630960 -0.026090 0.226996
0.601399 0.000933 0.225822
0.553740 -0.024738 0.246083
0.605505 0.064483 0.206809
0.594533 -0.012131 0.241516
0.637538 0.024023 0.183836
0.618413 -0.020632 0.216907
0.587254 0.024088 0.210507
0.662192 0.012553 0.165869
0.526799 -0.047028 0.198093
0.574109 -0.048405 0.200328
0.653672 0.049300 0.169371
0.528620 -0.033253 0.232554
0.644127 0.007895 0.182529
0.552928 -0.003749 0.202346
0.625564 0.063634 0.199679
0.646997 0.032283 0.177126
0.627442 0.085691 0.203077
0.540120 -0.043132 0.212839
0.603664 0.058536 0.221428
0.610405 0.032870 0.206732
0.547351 -0.021551 0.227660
0.606437 0.018435 0.241058
0.623043 0.043029 0.207377
0.658190 0.014628 0.152842
0.532012 -0.005329 0.234269
0.620844 -0.040139 0.213877
0.651214 0.050976 0.200720
0.645019 0.063525 0.152060
0.521512 0.037913 0.164193
0.530836 -0.031956 0.215532
0.603702 0.024604 0.217733
0.570354 -0.046416 0.237676
0.584996 -0.000646 0.237587
0.628492 0.093565 0.187517
0.559079 0.055739 0.149075
0.603941 0.038477 0.228471
0.587592 0.043857 0.215340
0.612471 -0.021223 0.199949
0.570834 -0.061340 0.228402
0.644063 0.025039 0.202163
0.538685 0.048403 0.169302
0.583336 -0.057239 0.209258
0.622515 0.075588 0.210879
0.658153 0.019425 0.196212
0.515879 0.023536 0.170796
0.647509 0.032117 0.190036
0.635576 -0.001067 0.190607
0.611148 0.004615 0.216761
0.645849 0.054073 0.178451
0.528144 0.005654 0.178259
0.546499 0.063461 0.154721
0.587716 0.038187 0.240790
0.651262 0.025540 0.146808
0.658312 0.048467 0.148245
0.624754 0.019896 0.195146
0.557461 -0.017953 0.204179
0.649301 -0.009496 0.212279
0.611933 -0.026972 0.233765
0.544966 0.036421 0.184130
0.586143 -0.035284 0.238396
0.520030 -0.036146 0.222296
0.645292 0.017831 0.191610
0.574083 -0.036855 0.195409
0.575504 0.056713 0.154759
0.537852 0.053540 0.151231
0.610371 -0.046728 0.228074
0.565197 0.052790 0.168882
0.641053 0.009326 0.211670
0.627908 -0.004850 0.204294
0.513314 0.009043 0.183352
0.646647 0.101155 0.170806
0.595228 0.028715 0.243404
0.534754 0.032731 0.165034
0.586172 0.031758 0.221350
0.562303 0.066432 0.163939
0.572129 0.073925 0.148831
0.569939 -0.062576 0.214177
0.646317 0.089243 0.196670
0.654568 0.060022 0.158754
0.606321 -0.011127 0.237463
0.644057 0.100873 0.190222
0.549952 -0.001567 0.244494
0.604521 0.043676 0.208721
0.599929 0.047172 0.220418
0.656038 0.041631 0.195049
0.537975 0.035440 0.153913
0.655178 0.036582 0.165426
0.673586 0.017533 0.184678
0.516645 0.036071 0.184081
0.609284 -0.001209 0.204680
0.552020 -0.053216 0.205963
0.658667 0.033305 0.184051
0.624425 0.070549 0.221899
0.588717 0.017192 0.232191
0.667062 0.033238 0.157820
0.642240 0.060031 0.194390
0.669091 0.027993 0.142687
