ply
format ascii 1.0
element vertex 256
property float x
property float y
property float z
end_header
0.628105 -0.019095 0.210439
0.612347 0.122632 0.184928
0.508691 0.029077 0.171458
0.528592 -0.057496 0.240320
0.661142 0.048379 0.152131
0.584064 0.055015 0.234892
0.566698 0.063761 0.154932
0.557615 -0.000859 0.207432
0.639912 0.043546 0.210293
0.579822 -0.057265 0.194431
0.585917 -0.031148 0.240309
0.618082 0.071977 0.171042
0.520752 -0.021858 0.179173
0.608111 0.091685 0.219672
0.597849 0.012233 0.228458
0.535048 -0.060815 0.196663
0.542382 -0.018651 0.244107
0.538434 0.035406 0.144135
0.556292 0.019111 0.242080
0.601440 0.040414 0.200706
0.559135 -0.079602 0.221248
0.593905 -0.021283 0.195587
0.643160 0.009582 0.191918
0.520982 0.010147 0.200055
0.537622 0.006279 0.164447
0.610033 -0.050058 0.211415
0.525334 -0.021334 0.214109
0.664488 0.042767 0.186345
0.542286 0.050270 0.174414
0.561719 0.036089 0.213510
0.629419 0.073360 0.201950
0.585404 0.069722 0.206289
0.584337 -0.060106 0.228494
0.627767 0.016676 0.221997
0.635750 0.065151 0.146920
0.563700 -0.031704 0.199080
0.635889 0.047164 0.171543
0.612206 -0.021327 0.234108
0.610624 0.038659 0.227894
0.548460 -0.047259 0.217743
0.608981 0.095213 0.191033
0.589561 0.010966 0.201811
0.578821 -0.011843 0.221618
0.582620 0.028497 0.244849
0.511354 0.001322 0.167831
0.573266 -0.001500 0.245684
0.633280 0.089483 0.157599
0.626041 0.029795 0.189845
0.520696 -0.048447 0.216637
0.534875 0.025496 0.181511
0.540817 0.004661 0.229119
0.603389 0.066827 0.222826
0.558616 -0.063504 0.239675
0.585485 0.033977 0.218821
0.543046 0.058398 0.150898
0.523066 0.047205 0.159825
0.619784 0.053220 0.188627
0.646996 0.062233 0.189794
0.655504 0.026602 0.203824
0.509169 -0.010179 0.197025
0.615470 0.003700 0.206487
0.562513 -0.030721 0.245338
0.517937 0.017300 0.152464
0.606620 0.111077 0.207195
0.637443 0.080284 0.179119
0.557426 -0.067599 0.202481
0.603657 -0.041800 0.232091
0.647661 0.065171 0.166452
0.610963 -0.035194 0.193643
0.547452 0.019384 0.212071
0.549153 -0.025492 0.219881
0.619315 -0.000721 0.235161
0.644408 0.004465 0.215126
0.622787 0.057253 0.214967
0.534845 -0.008224 0.188334
0.544096 -0.043158 0.242733
0.650072 0.027852 0.182219
0.612944 0.024752 0.208890
0.571371 0.019368 0.223979
0.593125 0.090373 0.205120
0.529127 -0.033048 0.230984
0.591705 -0.011273 0.241965
0.505543 0.013240 0.184471
0.554094 0.038269 0.157379
0.577474 0.051884 0.215770
0.552042 0.000223 0.245716
0.621220 -0.037845 0.221963
0.570718 -0.047586 0.239621
0.611634 -0.014708 0.200452
0.567169 0.034914 0.235214
0.653988 0.040103 0.167999
0.641820 0.043199 0.191226
0.529334 0.026988 0.163693
0.561981 -0.050331 0.196950
0.637249 0.023895 0.206647
0.591857 -0.056866 0.208469
0.635059 -0.004588 0.201367
0.543796 -0.014278 0.203154
0.537075 -0.036485 0.208354
0.577240 -0.017586 0.202073
0.523022 0.038995 0.178765
0.587331 -0.041058 0.197142
0.603102 0.073269 0.205852
0.530410 -0.009595 0.170145
0.551128 0.070360 0.161609
0.593609 0.082219 0.223760
0.571846 -0.065296 0.212513
0.629602 -0.004614 0.220524
0.625214 0.035791 0.216412
0.595118 0.054966 0.212883
0.536212 -0.011978 0.227384
0.557864 0.052450 0.144203
0.620240 0.110091 0.196771
0.518780 0.024037 0.190203
0.632939 0.063041 0.177219
0.620029 0.076361 0.187453
0.658261 0.055035 0.176297
0.587151 0.010635 0.241519
0.644973 0.050245 0.157566
0.556320 -0.061499 0.223061
0.559225 0.055161 0.167359
0.522596 -0.006268 0.206346
0.554626 0.026849 0.227326
0.618812 0.041729 0.202133
0.634450 0.056220 0.200846
0.611844 0.059649 0.202373
0.601445 0.111196 0.191485
0.629458 0.055810 0.159001
0.627647 0.014007 0.197927
0.615426 0.096575 0.206108
0.599887 -0.003976 0.197660
0.628663 -0.024213 0.226382
0.573566 0.011308 0.202982
0.629472 0.073971 0.158884
0.541740 0.001314 0.207496
0.537938 0.041448 0.161098
0.536789 0.062303 0.164966
0.600477 0.025810 0.218559
0.585441 0.067811 0.221859
0.603643 0.001597 0.238229
0.576843 -0.016596 0.244510
0.654919 0.043471 0.199592
0.521162 -0.022652 0.199212
0.510694 -0.010180 0.180382
0.624472 0.085999 0.170999
0.592471 0.043246 0.229892
0.584234 0.009218 0.222564
0.622053 -0.032449 0.203304
0.604327 0.010964 0.215033
0.518060 0.014244 0.171076
0.531850 0.005773 0.184206
0.528404 -0.048705 0.203947
0.612500 -0.011798 0.214752
0.608314 0.047439 0.216526
0.543645 -0.051326 0.204731
0.588733 -0.047147 0.233151
0.522604 0.005588 0.159961
0.524728 0.033517 0.147642
0.617959 0.006079 0.220306
0.586394 0.023243 0.228135
0.571522 0.040700 0.222966
0.648898 0.013569 0.205280
0.532810 -0.047243 0.231550
0.513103 0.002877 0.190910
0.547020 -0.057529 0.244972
0.612145 0.108172 0.182865
0.540823 0.025710 0.155782
0.560582 -0.017016 0.243590
0.653201 0.060349 0.152854
0.595977 0.021250 0.242417
0.628462 0.064358 0.191503
0.576332 0.023283 0.211769
0.637446 0.023255 0.186618
0.521486 -0.009013 0.190077
0.596910 0.057064 0.231339
0.568516 0.024103 0.244283
0.665419 0.049429 0.166501
0.648320 0.045982 0.178373
0.559852 0.011889 0.209985
0.538916 0.018588 0.169002
0.579678 0.038927 0.234260
0.631645 0.007176 0.213340
0.538253 -0.016308 0.214907
0.608832 0.084758 0.202998
0.547537 0.044801 0.148053
0.540041 -0.001538 0.174727
0.549029 -0.038243 0.203240
0.530686 -0.000246 0.197831
0.596829 -0.058200 0.225392
0.618668 0.026205 0.222252
0.598551 -0.046412 0.193382
0.530856 0.012956 0.153163
0.547225 -0.030663 0.244024
0.631097 0.049588 0.183309
0.575061 -0.037195 0.195814
0.642807 0.017435 0.216335
0.533162 0.049844 0.152262
0.600269 -0.025853 0.235818
0.526872 0.054393 0.169793
0.644390 0.034987 0.201853
0.604963 0.079514 0.217524
0.517985 -0.010083 0.167390
0.596236 0.035617 0.211214
0.572521 -0.062411 0.232412
0.642040 0.070425 0.156469
0.567483 0.009500 0.246859
0.562791 0.049216 0.155181
0.598125 0.019081 0.207909
0.618460 0.022275 0.196682
0.533164 -0.020624 0.204457
0.638848 0.082158 0.165904
0.552187 0.043451 0.168424
0.531379 -0.038941 0.219023
0.516836 0.046598 0.171267
0.515225 -0.014522 0.211725
0.593883 0.068925 0.230750
0.610664 0.120357 0.196828
0.589453 0.079756 0.211941
0.603552 0.097243 0.203407
0.547064 0.056135 0.162784
0.556569 0.065281 0.148397
0.562331 0.024636 0.217812
0.531130 0.015666 0.196396
0.652876 0.022314 0.192809
0.516510 0.004812 0.178507
0.610361 -0.048642 0.224697
0.645030 0.050369 0.200985
0.529428 -0.019372 0.233987
0.587790 0.045555 0.216653
0.554398 -0.027379 0.205299
0.533608 -0.019392 0.184148
0.626001 0.017062 0.209597
0.620005 0.068188 0.207164
0.619507 0.045235 0.220964
0.575411 -0.038484 0.233508
0.529842 -0.005768 0.215793
0.521954 0.036535 0.164955
0.537385 -0.007592 0.238366
0.563333 -0.011000 0.205100
0.644777 0.066202 0.178827
0.649700 0.052871 0.168135
0.616899 0.065023 0.189157
0.600001 -0.031948 0.196594
0.603726 0.003836 0.205620
0.632871 0.026368 0.217296
0.508946 0.024765 0.183844
0.636972 0.070355 0.169032
0.629778 0.083317 0.187415
0.622248 -0.015841 0.231868
0.627279 0.048294 0.196268
0.651684 0.041662 0.152452
0.584961 0.057584 0.208132
0.610552 -0.010493 0.237619
0.513209 0.000299 0.202122
0.566552 -0.060287 0.200443
0.593075 -0.056278 0.195565
