ply
format ascii 1.0
element vertex 256
property float x
property float y
property float z
end_header
0.644479 -0.047488 0.140386
0.536892 0.062874 0.130132
0.663022 0.073388 0.103175
0.538661 -0.067116 0.169604
0.617845 0.035168 0.174285
0.521527 0.004232 0.169917
0.684967 0.009400 0.125969
0.595059 -0.029672 0.186539
0.590382 -0.080447 0.134764
0.640271 0.083185 0.153582
0.667275 0.026501 0.079501
0.637420 0.028071 0.126256
0.608101 -0.013724 0.140983
0.579033 -0.086443 0.183455
0.567210 -0.032945 0.149982
0.651217 -0.003939 0.156159
0.515121 0.024746 0.131585
0.619482 -0.073099 0.166177
0.525203 -0.031541 0.145589
0.586063 0.013374 0.158960
0.660419 -0.018478 0.122002
0.557910 -0.041251 0.188046
0.629205 -0.029345 0.169077
0.670259 0.039593 0.112597
0.540413 -0.000141 0.139664
0.562437 -0.093160 0.152965
0.604892 0.004602 0.187086
0.536184 0.038922 0.154097
0.622270 0.055290 0.147953
0.607820 -0.045974 0.133403
0.543274 -0.018773 0.170372
0.622195 0.006611 0.160082
0.664083 0.024314 0.142571
0.590477 -0.058700 0.180432
0.663086 0.011499 0.105649
0.577120 -0.004199 0.181731
0.654587 0.056535 0.130670
0.635292 -0.020947 0.140282
0.513445 -0.006836 0.138940
0.627034 -0.068173 0.134487
0.600478 -0.038618 0.160971
0.650496 0.095495 0.131118
0.565978 -0.068513 0.164583
0.543974 0.036838 0.125686
0.554165 -0.080742 0.192596
0.660949 -0.027193 0.147266
0.639860 0.026938 0.152989
0.544223 -0.043140 0.161244
0.597463 -0.087702 0.165256
0.636528 -0.053926 0.164193
0.647231 0.004443 0.125460
0.600678 -0.007819 0.165340
0.637952 0.048527 0.166530
0.544646 0.009944 0.162040
0.580706 -0.052454 0.142542
0.612624 0.031245 0.150318
0.666246 0.051736 0.091623
0.672988 -0.007495 0.139494
0.617041 -0.049410 0.176590
0.683001 0.021071 0.097834
0.627540 0.008717 0.137010
0.550138 -0.071357 0.148157
0.624179 -0.005625 0.179346
0.587299 -0.022106 0.150779
0.635707 0.070232 0.135889
0.609394 -0.084880 0.145737
0.523944 0.045470 0.136760
0.570265 -0.001889 0.160415
0.551110 0.049739 0.142126
0.527171 0.015500 0.147519
0.522270 -0.019992 0.164181
0.647819 0.056846 0.109827
0.562374 -0.020300 0.182092
0.542962 -0.019604 0.148837
0.566837 -0.045701 0.169182
0.562191 -0.061706 0.188604
0.603867 0.021391 0.170153
0.649709 -0.036301 0.161042
0.647300 0.042122 0.142095
0.578122 -0.097902 0.167384
0.665384 0.015212 0.125148
0.646067 0.063999 0.151442
0.668174 0.058751 0.116411
0.621998 -0.032707 0.131347
0.653356 0.038595 0.123190
0.574281 -0.072013 0.141272
0.523093 0.006459 0.129212
0.578228 -0.045033 0.184936
0.651524 -0.032693 0.130636
0.626861 -0.011265 0.156492
0.646488 0.010456 0.143247
0.635864 -0.068469 0.151041
0.552187 0.054938 0.122703
0.672720 -0.001386 0.116791
0.604098 0.008787 0.155866
0.609400 -0.071319 0.129798
0.538913 -0.035847 0.177161
0.580800 -0.087431 0.152753
0.532710 0.022000 0.128568
0.578045 -0.019209 0.191702
0.529253 -0.016578 0.136376
0.651829 0.079583 0.140356
0.558550 -0.055774 0.154429
0.650257 -0.012301 0.135869
0.523548 -0.003922 0.154202
0.630976 -0.038966 0.148157
0.606878 -0.012920 0.186420
0.597041 -0.074745 0.177098
0.514642 0.018431 0.159396
0.534250 0.055216 0.148100
0.670767 0.034876 0.130377
0.614163 -0.032858 0.181158
0.639779 0.011035 0.160046
0.656842 0.040069 0.101612
0.634107 0.065262 0.164401
0.549402 -0.055070 0.175648
0.526778 0.037429 0.121877
0.593409 -0.041018 0.143465
0.520398 0.033798 0.150749
0.665110 0.026283 0.096608
0.537457 -0.002845 0.170172
0.660574 0.004001 0.136657
0.619785 0.018412 0.174044
0.675335 0.023591 0.114794
0.615000 0.044724 0.159408
0.635726 0.088282 0.138761
0.561959 -0.019174 0.156903
0.630506 0.040011 0.154625
0.553462 -0.031856 0.171421
0.513043 0.012020 0.140983
0.529024 0.025439 0.161147
0.530793 -0.034683 0.161668
0.602772 -0.043563 0.182885
0.537852 0.050974 0.117667
0.679710 0.009281 0.107558
0.591082 0.003262 0.170553
0.635025 -0.004562 0.139451
0.627178 0.018098 0.149248
0.550319 0.064692 0.137248
0.590643 -0.062047 0.135994
0.607275 -0.063477 0.177142
0.640719 0.046957 0.124263
0.611403 -0.000192 0.173290
0.648509 0.023335 0.135410
0.573381 -0.083604 0.167793
0.668640 0.011012 0.091689
0.677353 0.046564 0.100220
0.626927 0.069403 0.149158
0.658278 -0.004084 0.118129
0.664968 0.047507 0.125333
0.627556 -0.053935 0.131385
0.659687 0.011853 0.149235
0.576081 -0.057915 0.191302
0.631127 0.035065 0.168490
0.539519 0.041114 0.140198
0.613117 -0.028727 0.142014
0.551525 -0.064366 0.163615
0.674484 0.007242 0.135697
0.660525 -0.010476 0.145861
0.654782 0.024151 0.121639
0.636260 0.033094 0.139588
0.623064 0.024917 0.161114
0.647994 -0.053240 0.155724
0.655483 0.065878 0.117756
0.572768 -0.033935 0.191914
0.621383 -0.078758 0.150058
0.569508 -0.079639 0.191280
0.644310 -0.015714 0.149719
0.581121 -0.010401 0.155519
0.535615 0.026060 0.144046
0.622112 -0.019350 0.178948
0.609892 -0.082994 0.161337
0.615645 -0.010370 0.164490
0.632873 0.002049 0.152234
0.624633 0.052125 0.165865
0.570974 -0.048799 0.151479
0.516568 -0.018791 0.144470
0.525703 -0.008872 0.173130
0.557179 -0.039420 0.160378
0.547165 -0.030183 0.158842
0.658348 0.034741 0.135633
0.646455 0.093644 0.144909
0.635915 0.055330 0.152905
0.590934 0.000863 0.183764
0.659693 0.048232 0.111835
0.592714 -0.000166 0.157726
0.663627 0.060103 0.101985
0.665871 -0.020199 0.137025
0.670402 -0.010818 0.126342
0.618538 -0.006664 0.145181
0.651870 0.030225 0.148400
0.525901 0.032433 0.136100
0.679094 0.025191 0.085016
0.593900 -0.089248 0.152740
0.547834 0.067234 0.123957
0.673508 0.020649 0.133860
0.610667 0.020895 0.159032
0.536508 -0.022790 0.159888
0.530085 -0.004101 0.131734
0.657675 0.029655 0.109142
0.631752 -0.014711 0.167889
0.536222 0.010168 0.132191
0.604590 -0.060684 0.135204
0.541159 0.018109 0.152492
0.624875 -0.057355 0.170223
0.543100 0.051806 0.131965
0.581206 -0.033310 0.149596
0.532910 0.009575 0.167544
0.545547 -0.003598 0.160365
0.644350 0.084593 0.128807
0.592858 -0.011966 0.145656
0.586225 -0.008693 0.190579
0.532127 -0.024161 0.172887
0.618445 -0.022666 0.163836
0.679593 -0.002535 0.128496
0.588724 -0.085128 0.175584
0.553789 -0.067593 0.181498
0.618120 0.042654 0.147514
0.626772 0.023115 0.137841
0.640282 -0.023702 0.167190
0.590602 -0.046374 0.181275
0.560528 -0.076869 0.144396
0.642562 -0.028752 0.146469
0.612389 -0.000034 0.153964
0.675510 0.028916 0.103499
0.514749 0.004128 0.156923
0.595967 0.010879 0.178905
0.567130 -0.049211 0.188624
0.538834 -0.029365 0.143229
0.642628 -0.059935 0.146108
0.525480 0.045868 0.148607
0.547876 -0.043211 0.174304
0.595901 0.013520 0.165685
0.649867 -0.013631 0.124083
0.663588 0.006554 0.116316
0.630940 -0.040892 0.170352
0.653473 0.065695 0.103816
0.666618 0.037664 0.094255
0.654480 -0.036468 0.144309
0.600846 -0.079562 0.139859
0.528214 0.049720 0.124089
0.623939 -0.018421 0.140934
0.572991 -0.022835 0.149997
0.609974 0.032918 0.166012
0.609922 0.012280 0.174441
0.625576 0.061449 0.157531
0.558949 -0.055842 0.166157
0.536604 0.007966 0.146999
0.601140 -0.004340 0.176638
0.539233 -0.005323 0.150857
0.664737 0.072054 0.114803
0.638898 0.071846 0.155804
0.640327 -0.006294 0.158676
0.647377 0.017421 0.152215
0.676459 0.033660 0.120085
0.643013 0.058929 0.161160
