ply
format ascii 1.0
element vertex 256
property float x
property float y
property float z
end_header
0.627570 -0.029172 0.209860
0.644661 0.108167 0.180738
0.519904 0.048051 0.175556
0.522215 -0.041990 0.241583
0.659583 0.024406 0.136928
0.601438 0.050715 0.232646
0.582032 0.070388 0.154201
0.566522 -0.005989 0.204840
0.655632 0.031471 0.201429
0.580384 -0.064518 0.220014
0.515392 0.005801 0.211324
0.638795 0.061663 0.163793
0.599700 0.003174 0.240105
0.541057 -0.046737 0.198276
0.635300 0.076910 0.213378
0.538864 0.008189 0.171526
0.553535 0.012844 0.242616
0.565903 -0.032087 0.242623
0.615737 0.019823 0.206335
0.547714 0.048646 0.145894
0.571668 0.032866 0.212634
0.649150 -0.004593 0.188605
0.588063 -0.038063 0.193719
0.601261 -0.033559 0.235561
0.673044 0.018713 0.172856
0.546332 -0.071198 0.222861
0.613398 0.053579 0.200569
0.557360 0.061410 0.175838
0.540285 0.028773 0.198321
0.534200 -0.018658 0.222886
0.603585 -0.008070 0.196912
0.580485 0.027799 0.243021
0.653184 0.061877 0.190893
0.640329 -0.002304 0.217306
0.662912 0.043895 0.160000
0.513911 0.021570 0.186394
0.631467 0.081343 0.183676
0.525113 0.027394 0.156055
0.630516 0.040891 0.218471
0.633057 0.037190 0.187393
0.608856 -0.049647 0.215026
0.544095 0.036897 0.171600
0.519351 -0.038429 0.209963
0.589148 0.012435 0.218573
0.583242 -0.012502 0.222833
0.545101 -0.012541 0.244991
0.518649 -0.002892 0.183400
0.543001 -0.043076 0.228062
0.619632 -0.017027 0.233637
0.597030 0.035168 0.212627
0.562868 -0.035763 0.200740
0.658484 0.070457 0.152100
0.648114 0.046484 0.140612
0.557509 0.070008 0.152479
0.651157 0.022564 0.161098
0.536619 0.062748 0.163202
0.613251 0.068956 0.219082
0.667049 0.010052 0.195210
0.573252 -0.000797 0.243541
0.539215 -0.003513 0.205246
0.561060 -0.055710 0.235090
0.632818 0.011554 0.190118
0.636600 0.096543 0.199779
0.582980 -0.046464 0.233642
0.637211 0.019707 0.217280
0.563783 -0.057287 0.204772
0.662959 0.044145 0.182820
0.619217 -0.005757 0.213307
0.636532 0.055092 0.203319
0.609300 0.017960 0.227679
0.653549 0.021376 0.182841
0.537377 0.006423 0.230406
0.562228 0.028485 0.231505
0.641620 0.041195 0.166560
0.564818 0.047868 0.157545
0.537010 0.049204 0.186848
0.584357 -0.022384 0.240574
0.657812 0.063340 0.171185
0.611974 -0.034140 0.197982
0.618912 0.075860 0.198519
0.671886 0.023155 0.152757
0.552803 -0.016866 0.215801
0.634920 -0.013660 0.199317
0.535115 0.010817 0.191343
0.553846 0.009925 0.205214
0.648838 0.012624 0.202652
0.620205 -0.036043 0.228096
0.585984 0.003955 0.200962
0.584478 -0.057272 0.196281
0.522936 0.037164 0.193990
0.635212 0.059130 0.183921
0.581276 0.041775 0.227018
0.540722 -0.031711 0.243481
0.541731 -0.030260 0.207909
0.596465 0.053720 0.210598
0.576486 -0.020288 0.198268
0.648300 0.090432 0.184826
0.538821 -0.062273 0.208082
0.595201 0.029097 0.231122
0.611711 0.044073 0.219133
0.568829 0.079742 0.162492
0.525705 0.030103 0.175925
0.521600 0.020802 0.203782
0.521695 0.010020 0.166979
0.573769 0.014731 0.208132
0.529810 0.046981 0.159007
0.595784 -0.022837 0.201709
0.628752 0.007956 0.206614
0.632415 0.030351 0.204458
0.570110 0.061443 0.144254
0.522481 -0.006005 0.200918
0.617971 0.036617 0.195705
0.599088 -0.051888 0.228634
0.574188 0.063045 0.167194
0.549429 0.017622 0.226866
0.544225 0.022070 0.179458
0.656057 -0.002408 0.203698
0.535805 -0.003616 0.182709
0.627218 0.060877 0.215744
0.657341 0.006133 0.177887
0.539541 0.021870 0.162489
0.622567 0.009848 0.222445
0.620242 0.028409 0.220447
0.646841 0.045707 0.188710
0.633465 0.094979 0.175157
0.669903 0.030122 0.186919
0.554428 -0.053641 0.217407
0.569591 -0.015972 0.239464
0.545147 -0.063224 0.236756
0.639429 -0.018013 0.214377
0.550068 0.054090 0.162903
0.644106 0.041599 0.207182
0.640151 0.078374 0.198277
0.553540 0.074611 0.167154
0.557780 0.025259 0.211720
0.597144 -0.056297 0.205773
0.531617 0.008902 0.211521
0.601994 -0.045772 0.193973
0.644817 0.035574 0.151593
0.664993 0.032265 0.170527
0.579945 0.023650 0.227964
0.613953 -0.001839 0.236389
0.604328 0.009290 0.206800
0.648202 0.050421 0.155579
0.526250 -0.006024 0.219060
0.542800 -0.005501 0.220050
0.587209 0.014168 0.244797
0.541209 0.063070 0.177694
0.549147 0.037966 0.157317
0.618420 0.055198 0.226918
0.660633 0.035327 0.147286
0.566998 0.021447 0.244310
0.531165 -0.019690 0.207238
0.644383 0.068006 0.176159
0.626275 0.049382 0.192667
0.648984 0.075410 0.162380
0.540169 -0.046305 0.246082
0.519550 0.007495 0.193794
0.630966 -0.026092 0.226941
0.601406 0.000931 0.225770
0.553748 -0.024740 0.246033
0.605572 0.064494 0.206827
0.594541 -0.012133 0.241464
0.637580 0.024043 0.183818
0.618419 -0.020634 0.216853
0.587258 0.024084 0.210455
0.662209 0.012565 0.165803
0.526803 -0.047028 0.198045
0.574114 -0.048406 0.200277
0.653755 0.049341 0.169404
0.528627 -0.033254 0.232506
0.644131 0.007894 0.182474
0.552933 -0.003749 0.202297
0.625643 0.063639 0.199732
0.647048 0.032307 0.177125
0.627535 0.085687 0.203167
0.540126 -0.043132 0.212790
0.603697 0.058520 0.221430
0.610439 0.032886 0.206701
0.547358 -0.021552 0.227611
0.606446 0.018433 0.241006
0.623082 0.043038 0.207392
0.658220 0.014653 0.152774
0.532019 -0.005330 0.234221
0.620850 -0.040141 0.213822
0.651272 0.050980 0.200809
0.645146 0.063588 0.152150
0.521396 0.037964 0.164217
0.530841 -0.031956 0.215484
0.603709 0.024605 0.217672
0.570362 -0.046418 0.237625
0.585004 -0.000648 0.237536
0.628586 0.093561 0.187606
0.558862 0.055891 0.149012
0.603955 0.038466 0.228417
0.587606 0.043853 0.215288
0.612476 -0.021225 0.199895
0.570841 -0.061341 0.228351
0.538563 0.048471 0.169304
0.644087 0.025040 0.202153
0.583341 -0.057241 0.209206
0.622585 0.075574 0.210950
0.658158 0.019423 0.196156
0.635580 -0.001068 0.190552
0.645956 0.054121 0.178534
0.515792 0.023574 0.170816
0.647547 0.032129 0.190036
0.611150 0.004612 0.216698
0.528092 0.005699 0.178240
0.546273 0.063565 0.154706
0.651302 0.025572 0.146743
0.587724 0.038185 0.240739
0.658440 0.048543 0.148287
0.624783 0.019909 0.195111
0.557466 -0.017954 0.204129
0.649306 -0.009498 0.212223
0.611940 -0.026974 0.233711
0.544888 0.036481 0.184110
0.586151 -0.035286 0.238344
0.645324 0.017842 0.191594
0.520037 -0.036147 0.222249
0.574088 -0.036856 0.195358
0.575302 0.056921 0.154640
0.537651 0.053616 0.151239
0.610377 -0.046730 0.228021
0.565059 0.052952 0.168795
0.641062 0.009319 0.211642
0.627913 -0.004852 0.204239
0.513267 0.009066 0.183363
0.646742 0.101141 0.170892
0.595236 0.028714 0.243352
0.534645 0.032797 0.165029
0.586181 0.031755 0.221299
0.562099 0.066588 0.163871
0.571846 0.074124 0.148734
0.569944 -0.062577 0.214126
0.646410 0.089230 0.196758
0.654686 0.060076 0.158850
0.606328 -0.011129 0.237410
0.644154 0.100861 0.190309
0.604563 0.043684 0.208696
0.549960 -0.001569 0.244446
0.599946 0.047163 0.220364
0.656074 0.041635 0.195067
0.537847 0.035514 0.153909
0.673585 0.017524 0.184628
0.655262 0.036629 0.165439
0.516567 0.036097 0.184112
0.609290 -0.001211 0.204627
0.552025 -0.053217 0.205914
0.658709 0.033317 0.184065
0.624470 0.070511 0.221964
0.588721 0.017189 0.232140
0.667093 0.033256 0.157778
0.642322 0.060057 0.194474
0.669136 0.028024 0.142642
