ply
format ascii 1.0
element vertex 256
property float x
property float y
property float z
end_header
0.646242 -0.042054 0.187959
0.650579 0.097677 0.167221
0.525290 0.022049 0.168176
0.546532 -0.069755 0.227467
0.677278 0.019381 0.126783
0.613362 0.035192 0.216715
0.581129 0.055605 0.143940
0.578312 -0.016034 0.192315
0.667314 0.017383 0.189297
0.592604 -0.074280 0.176603
0.606169 -0.049952 0.221859
0.533337 -0.029063 0.170731
0.644608 0.066835 0.202738
0.666046 0.052650 0.158891
0.623681 -0.003605 0.195183
0.548165 -0.072874 0.183351
0.593186 -0.007649 0.230625
0.555992 -0.030567 0.226812
0.632638 0.032703 0.177976
0.549106 0.030008 0.137713
0.572322 -0.094725 0.205182
0.662712 -0.014737 0.168497
0.610698 -0.040120 0.176648
0.541327 0.000341 0.193795
0.549863 -0.001121 0.155262
0.587144 0.020095 0.198282
0.624983 -0.070829 0.190487
0.686955 0.016116 0.160706
0.560810 0.041639 0.167384
0.558549 -0.042671 0.192527
0.632582 -0.032114 0.216864
0.600160 -0.078305 0.210001
0.664242 0.046089 0.129736
0.655896 -0.015079 0.197332
0.642375 0.021082 0.204670
0.619608 0.055142 0.192405
0.536186 -0.027162 0.205513
0.622233 0.000948 0.223412
0.639344 0.070695 0.175150
0.657662 0.047002 0.185195
0.642330 0.003670 0.175368
0.660111 0.025540 0.163526
0.599459 -0.029597 0.204165
0.566650 -0.067570 0.205320
0.583165 -0.033307 0.226910
0.564727 -0.006524 0.213994
0.670791 0.077545 0.150139
0.537373 -0.059399 0.204796
0.524446 -0.004043 0.163716
0.582582 -0.045979 0.182631
0.548544 0.021369 0.179742
0.600197 -0.001351 0.206806
0.614174 0.019786 0.196845
0.556842 0.051952 0.145078
0.538615 0.041050 0.157450
0.633993 0.047768 0.212521
0.635186 -0.054352 0.208471
0.595014 0.017140 0.220747
0.575470 -0.079051 0.223712
0.600244 -0.014167 0.184427
0.624738 -0.021842 0.180319
0.611584 -0.026081 0.224553
0.679683 0.002039 0.177544
0.645111 0.087975 0.189015
0.675758 0.030771 0.147381
0.570106 -0.082222 0.186797
0.567604 -0.045632 0.212664
0.547267 -0.022203 0.187027
0.625798 -0.055799 0.172850
0.525910 -0.013502 0.184527
0.532750 0.011646 0.149643
0.551966 0.021822 0.158028
0.669894 0.009115 0.144622
0.587703 -0.060439 0.224298
0.673942 0.037367 0.174721
0.617912 -0.066712 0.211097
0.566983 -0.060396 0.184773
0.567525 0.030719 0.147152
0.645735 0.051941 0.169044
0.571012 0.005115 0.198150
0.643066 0.001010 0.199734
0.655431 0.036616 0.145504
0.664014 0.070431 0.168406
0.523483 0.006474 0.182187
0.644443 -0.017320 0.181032
0.563716 -0.057283 0.228420
0.659878 -0.000290 0.183989
0.557593 -0.028627 0.207091
0.651666 0.028535 0.181145
0.548202 -0.003246 0.175676
0.608733 0.039544 0.197358
0.659468 0.005986 0.164960
0.574724 -0.011647 0.230471
0.547141 -0.043745 0.211199
0.618068 -0.016331 0.207666
0.548218 -0.018594 0.165091
0.649192 -0.030509 0.208867
0.627823 0.012741 0.186541
0.605953 -0.075511 0.189345
0.602126 -0.059068 0.178684
0.568012 0.062364 0.154563
0.625853 0.032800 0.200544
0.643732 0.037414 0.194473
0.638964 0.056700 0.186242
0.632070 -0.033158 0.193906
0.585626 -0.081744 0.195329
0.614058 0.017698 0.214439
0.580474 0.011420 0.212662
0.676143 0.019784 0.174338
0.639822 -0.057911 0.192054
0.569273 0.045884 0.134665
0.595290 -0.034726 0.184831
0.653618 0.081731 0.175704
0.656240 -0.028736 0.185319
0.576033 0.046262 0.157016
0.605021 0.005282 0.227243
0.539700 0.036130 0.173401
0.663650 0.023888 0.134988
0.628441 0.068890 0.189560
0.651447 0.071181 0.188059
0.671361 -0.011928 0.183787
0.639332 -0.017635 0.213607
0.655561 0.064309 0.154903
0.676854 0.064550 0.160361
0.674726 0.002029 0.161777
0.543700 -0.036508 0.193399
0.671363 0.047073 0.144069
0.562871 -0.012110 0.194015
0.684212 0.017848 0.143411
0.620505 -0.046194 0.215978
0.602538 0.026614 0.207972
0.665823 0.055577 0.174565
0.554239 0.054811 0.160485
0.562711 -0.027741 0.189344
0.639122 0.088956 0.174426
0.654029 0.011879 0.196439
0.553495 0.009777 0.167954
0.658030 0.040571 0.167463
0.551528 -0.057637 0.198505
0.582727 0.003243 0.227099
0.625551 0.012443 0.204373
0.538734 0.015911 0.163465
0.629956 0.060088 0.204351
0.599261 -0.034570 0.227095
0.599179 0.010656 0.197595
0.676972 0.039260 0.159862
0.533005 -0.026315 0.189938
0.647813 -0.047529 0.203715
0.609732 0.000336 0.191097
0.624741 0.041569 0.187192
0.535067 -0.011539 0.156239
0.575953 -0.048822 0.230284
0.546756 -0.016620 0.200791
0.570213 -0.026999 0.230462
0.671632 0.017527 0.158796
0.618037 0.047467 0.205493
0.637315 0.018967 0.175808
0.640038 -0.016117 0.199039
0.629453 -0.035659 0.179742
0.554520 -0.019330 0.217867
0.633544 -0.008661 0.184350
0.668860 0.063054 0.148611
0.598079 -0.061651 0.214557
0.536446 0.028536 0.144137
0.538412 0.011855 0.186103
0.550978 -0.059856 0.218408
0.665783 0.030882 0.185493
0.641392 0.052058 0.201317
0.565211 -0.071932 0.230217
0.587474 -0.005394 0.193184
0.673378 0.033305 0.131370
0.592038 -0.022483 0.227568
0.625992 -0.014446 0.218994
0.551885 0.035726 0.157967
0.580710 -0.080622 0.208216
0.644805 0.018289 0.188361
0.612221 -0.008599 0.223320
0.571353 -0.039743 0.200733
0.627008 0.034626 0.214684
0.539435 -0.015032 0.178259
0.648409 -0.006143 0.189269
0.563316 -0.043459 0.230695
0.532415 -0.011250 0.196409
0.611397 -0.013643 0.192420
0.631642 -0.066465 0.201669
0.642065 0.042440 0.178057
0.535152 0.023050 0.178528
0.645560 0.032021 0.169600
0.590257 -0.044757 0.226618
0.531859 -0.001122 0.174947
0.550997 0.018816 0.145253
0.559539 0.038470 0.140167
0.611554 0.004287 0.210199
0.651276 0.015544 0.168500
0.612413 -0.077737 0.205661
0.612237 -0.065559 0.173751
0.664932 0.036457 0.156165
0.546908 0.043856 0.147994
0.524771 0.008094 0.159413
0.654974 0.061408 0.169979
0.545105 0.047021 0.166817
0.557310 -0.047715 0.204410
0.667793 0.010053 0.178756
0.650668 -0.011050 0.170945
0.552237 0.008961 0.180689
0.593387 0.004485 0.219736
0.584206 0.007901 0.196432
0.592440 -0.074126 0.219056
0.547127 -0.028312 0.173050
0.665473 -0.020655 0.191382
0.636685 0.003501 0.189282
0.576298 0.041339 0.143899
0.653280 0.093603 0.179469
0.616523 0.027127 0.206601
0.650556 0.026722 0.195417
0.623927 0.001463 0.209890
0.639186 0.077830 0.192967
0.568559 0.034904 0.158724
0.668085 0.026293 0.122300
0.672346 -0.006353 0.172248
0.630351 0.027176 0.188767
0.527607 -0.000899 0.191864
0.686007 0.012013 0.172195
0.532912 -0.000586 0.149920
0.633352 0.044292 0.196454
0.563262 0.048334 0.155482
0.640468 -0.040238 0.212406
0.569928 0.058299 0.140080
0.647681 0.083494 0.165262
0.654918 -0.001092 0.198451
0.654658 -0.021850 0.174658
0.656047 0.037759 0.192816
0.527406 -0.016377 0.164230
0.539877 0.027271 0.155620
0.592589 0.013149 0.209724
0.663812 0.019338 0.146007
0.634403 -0.019614 0.188937
0.549172 -0.010577 0.188658
0.572092 -0.041615 0.189012
0.582589 -0.026698 0.189320
0.579748 -0.075931 0.183907
0.663196 -0.004907 0.161948
0.615623 -0.051415 0.176931
0.663732 -0.007810 0.192425
0.561370 -0.054068 0.193026
0.590299 -0.053838 0.178648
0.636585 0.010645 0.199917
0.617064 0.009199 0.193426
0.605931 -0.074798 0.176390
0.654243 0.053150 0.157316
0.635741 -0.054910 0.178452
0.575729 -0.089473 0.214757
0.552800 0.010095 0.152433
0.659752 0.037703 0.178652
0.545705 -0.032891 0.207966
0.613414 -0.020945 0.180275
