ply
format ascii 1.0
element vertex 256
property float x
property float y
property float z
end_header
0.653489 -0.052434 0.193931
0.551169 0.035404 0.140128
0.671475 0.065463 0.157999
0.547953 -0.080598 0.216415
0.618247 0.027728 0.223206
0.537327 -0.036613 0.156283
0.599445 -0.037664 0.235776
0.678096 -0.001075 0.156737
0.603059 -0.090324 0.185831
0.637738 0.075109 0.202229
0.656054 -0.000270 0.203424
0.586656 -0.004155 0.202631
0.549119 -0.033961 0.202287
0.588745 -0.095724 0.233806
0.642060 0.032779 0.175928
0.543688 0.004963 0.172738
0.629020 -0.079344 0.218892
0.582562 -0.057458 0.198093
0.620845 -0.029101 0.188589
0.637214 -0.029115 0.225091
0.665021 0.016367 0.125674
0.544320 -0.001895 0.135770
0.563449 -0.052505 0.235131
0.575084 -0.104913 0.202516
0.677222 0.032086 0.168004
0.654965 -0.020405 0.174826
0.606157 -0.002641 0.235666
0.624039 0.006132 0.194915
0.623540 -0.065188 0.184598
0.525337 -0.023257 0.184100
0.623966 0.047383 0.197052
0.542037 -0.055427 0.180960
0.570003 -0.024960 0.223260
0.679766 -0.008341 0.186758
0.671018 0.043163 0.137908
0.597894 -0.067172 0.230506
0.648720 0.087585 0.177894
0.665283 -0.027792 0.200875
0.593690 -0.032009 0.199291
0.554934 -0.020135 0.174742
0.575582 -0.079679 0.213377
0.657134 0.009952 0.170476
0.561995 0.011080 0.151997
0.562870 -0.092002 0.240952
0.658040 0.054565 0.178754
0.650354 0.026395 0.200831
0.644347 -0.057800 0.219230
0.555088 -0.059294 0.203035
0.608498 -0.095904 0.217005
0.607941 -0.047581 0.213798
0.526240 -0.013233 0.160761
0.638248 0.042054 0.217071
0.602781 0.014941 0.208471
0.634802 -0.013013 0.206590
0.670397 0.014957 0.190709
0.537270 0.020728 0.155258
0.604593 -0.016256 0.214388
0.658696 0.029076 0.152623
0.631953 -0.085853 0.196880
0.588527 -0.017450 0.238361
0.561299 -0.084483 0.196007
0.679665 0.017603 0.143723
0.557277 0.015659 0.129583
0.623748 -0.055646 0.228172
0.643376 -0.031087 0.197079
0.602998 -0.051924 0.192661
0.636240 0.061664 0.185105
0.555579 -0.042403 0.169886
0.639643 -0.003768 0.183398
0.553687 -0.011877 0.152578
0.638443 0.008426 0.212447
0.656101 0.050530 0.155289
0.617837 -0.021863 0.230282
0.617104 0.001222 0.216182
0.616879 0.027438 0.197926
0.571805 -0.055101 0.216020
0.569460 -0.072459 0.236789
0.683923 0.010119 0.175575
0.661559 0.007382 0.144945
0.572964 -0.031161 0.200891
0.656187 -0.040148 0.214448
0.577675 -0.036804 0.237743
0.630871 -0.046731 0.188088
0.645996 -0.073748 0.204771
0.660535 0.031879 0.183804
0.535121 -0.047580 0.198422
0.595419 -0.071376 0.192270
0.590026 -0.107739 0.218172
0.592440 0.002615 0.220268
0.642908 0.055097 0.203078
0.643963 -0.066536 0.185195
0.541434 -0.015533 0.190938
0.672739 -0.014060 0.169944
0.530562 0.002518 0.151095
0.584193 -0.054530 0.233602
0.537638 -0.037145 0.180088
0.556311 -0.063864 0.222034
0.633554 0.021186 0.189226
0.659206 -0.038057 0.183742
0.612917 -0.014007 0.198057
0.651268 0.072955 0.188839
0.592837 -0.097553 0.203366
0.662103 -0.010968 0.189814
0.567989 0.025960 0.139283
0.529635 -0.005266 0.176257
0.669656 0.015417 0.158494
0.553589 -0.028487 0.158546
0.540974 0.015116 0.138645
0.606072 -0.082657 0.228272
0.558951 -0.041560 0.222169
0.651876 0.011588 0.186998
0.619098 -0.039281 0.231875
0.629928 0.025361 0.210702
0.536943 -0.013823 0.145776
0.634473 0.079833 0.185990
0.579918 -0.010984 0.224298
0.623724 -0.029316 0.214509
0.574225 -0.015420 0.207492
0.656396 0.040340 0.168978
0.679409 0.038666 0.152064
0.670250 0.051251 0.167210
0.545581 -0.048988 0.212610
0.556080 -0.035320 0.186926
0.528335 0.008565 0.166801
0.628052 0.054181 0.211782
0.535701 -0.023180 0.170268
0.558271 0.026889 0.155826
0.603769 -0.000854 0.203282
0.653960 -0.016541 0.205825
0.581457 -0.085477 0.199308
0.569074 -0.046855 0.199144
0.610712 -0.075098 0.183388
0.534286 -0.031352 0.196369
0.619278 0.039338 0.212023
0.546699 0.006538 0.151509
0.574067 -0.070869 0.198815
0.646479 -0.016141 0.190593
0.618785 -0.096724 0.205079
0.608597 -0.050912 0.233219
0.542789 -0.009487 0.163468
0.672383 0.004766 0.134090
0.659662 -0.005365 0.170321
0.648355 0.039589 0.189145
0.656363 -0.057338 0.209691
0.625246 0.013559 0.220288
0.670013 0.017029 0.174712
0.669541 0.002355 0.182095
0.550512 -0.048227 0.193572
0.657455 0.063950 0.163778
0.615244 -0.070513 0.228590
0.605719 0.009911 0.222520
0.657093 0.025182 0.168386
0.640935 0.015656 0.177214
0.584029 -0.093924 0.217687
0.671746 -0.023029 0.188179
0.616798 -0.089740 0.191780
0.638486 -0.000160 0.199868
0.539771 -0.046164 0.167452
0.561533 -0.077524 0.209404
0.551251 0.016125 0.163028
0.638756 -0.044920 0.200398
0.556936 -0.052271 0.180600
0.640230 -0.043281 0.223279
0.597582 -0.011026 0.227364
0.617114 0.013342 0.206456
0.582728 -0.067339 0.240302
0.627185 0.061410 0.198212
0.636983 0.042000 0.202701
0.623979 -0.015352 0.217654
0.578112 -0.089558 0.240671
0.669340 0.049753 0.150665
0.545673 -0.006186 0.181527
0.686134 0.009292 0.161331
0.649147 0.011501 0.201004
0.529376 -0.036079 0.167608
0.586175 -0.020763 0.203125
0.553533 -0.021917 0.188946
0.558420 0.029882 0.129864
0.645400 0.084136 0.194115
0.631692 -0.018030 0.194261
0.649090 0.051830 0.168325
0.599792 -0.015038 0.201827
0.557590 -0.043452 0.206506
0.666148 0.043970 0.178041
0.604703 -0.029573 0.192136
0.677487 0.017296 0.130239
0.553244 0.018078 0.142670
0.622389 -0.003007 0.204244
0.665278 0.018653 0.139402
0.667365 0.003230 0.164141
0.626785 -0.011327 0.229702
0.554351 -0.000556 0.143835
0.637237 0.063205 0.211612
0.606012 -0.098176 0.204341
0.632696 -0.063052 0.222686
0.588709 -0.043751 0.198124
0.649724 0.067798 0.200432
0.578255 -0.064072 0.209609
0.620273 -0.053425 0.190377
0.628789 0.035417 0.222436
0.643700 0.075956 0.176668
0.678194 -0.002698 0.169586
0.673356 0.027867 0.154312
0.598833 -0.093795 0.226587
0.543938 -0.023844 0.148397
0.662683 -0.039589 0.197725
0.562153 -0.079313 0.229349
0.664950 0.002253 0.193695
0.649446 -0.008990 0.177724
0.637883 0.018810 0.203713
0.661885 0.039659 0.146917
0.626058 0.035142 0.194604
0.668172 0.039328 0.163650
0.596872 -0.054865 0.230871
0.546452 0.026278 0.148859
0.604961 -0.003710 0.220867
0.573266 -0.059573 0.236664
0.566999 -0.067069 0.217176
0.591815 -0.008515 0.215394
0.648781 -0.028194 0.186636
0.630324 0.009820 0.185254
0.655449 0.022807 0.189902
0.663127 0.060625 0.150776
0.616101 -0.027701 0.199561
0.558039 -0.052418 0.214508
0.624460 -0.091008 0.213941
0.523917 -0.016973 0.174008
0.637816 -0.081599 0.211105
0.652325 -0.064803 0.199993
0.646270 -0.007596 0.207698
0.630330 -0.074230 0.180869
0.566657 -0.062056 0.202808
0.526900 -0.025091 0.161360
0.599170 -0.022723 0.238493
0.673101 0.007212 0.149872
0.649493 0.043466 0.178055
0.666070 -0.024025 0.173173
0.576905 -0.063578 0.222528
0.641968 -0.068683 0.215416
0.670652 0.032507 0.142808
0.635479 0.052904 0.192866
0.670569 0.025872 0.183258
0.651036 0.026092 0.179289
0.607147 -0.016127 0.231663
0.611272 0.024986 0.214301
0.539709 0.011446 0.163945
0.532387 -0.045619 0.185993
0.669249 -0.016081 0.197355
0.638170 -0.073279 0.196288
0.572381 -0.089151 0.193201
0.538120 0.000372 0.159754
0.547130 -0.045106 0.181340
0.557691 -0.031054 0.172430
0.552081 0.006839 0.135449
0.642672 0.004964 0.190616
0.645326 0.061051 0.192411
