ply
format ascii 1.0
element vertex 256
property float x
property float y
property float z
end_header
0.627558 -0.029193 0.209884
0.644733 0.107994 0.180604
0.519894 0.048032 0.175580
0.522202 -0.042007 0.241608
0.659633 0.024177 0.137451
0.601485 0.050676 0.232639
0.582102 0.070267 0.154304
0.566511 -0.006009 0.204864
0.655553 0.034316 0.201070
0.580370 -0.064538 0.220039
0.515381 0.005783 0.211348
0.638745 0.061625 0.163748
0.599689 0.003153 0.240129
0.541045 -0.046756 0.198300
0.635365 0.076794 0.213295
0.538853 0.008170 0.171550
0.553524 0.012825 0.242640
0.565891 -0.032107 0.242647
0.615715 0.019794 0.206354
0.547746 0.048612 0.145934
0.571658 0.032846 0.212657
0.648758 0.000344 0.181638
0.588051 -0.038083 0.193743
0.601249 -0.033580 0.235585
0.546318 -0.071217 0.222886
0.613409 0.053481 0.200544
0.646277 0.000090 0.215616
0.557373 0.061341 0.175898
0.666977 0.033991 0.169136
0.540275 0.028754 0.198345
0.534188 -0.018676 0.222910
0.603574 -0.008091 0.196936
0.580475 0.027779 0.243045
0.651429 0.063745 0.192093
0.513901 0.021552 0.186418
0.626122 0.087092 0.185884
0.525103 0.027375 0.156079
0.630503 0.040876 0.218454
0.623757 -0.008661 0.234174
0.608844 -0.049668 0.215050
0.655499 0.050650 0.145737
0.635508 0.042008 0.185163
0.673078 0.018318 0.189561
0.544085 0.036878 0.171624
0.519339 -0.038447 0.209987
0.589138 0.012415 0.218597
0.583231 -0.012522 0.222857
0.545089 -0.012560 0.245015
0.518638 -0.002911 0.183424
0.542989 -0.043094 0.228086
0.597035 0.035119 0.212644
0.562856 -0.035782 0.200764
0.643547 0.034508 0.162203
0.557581 0.069947 0.152542
0.536656 0.062734 0.163229
0.627625 -0.006429 0.201725
0.613310 0.068881 0.219038
0.573241 -0.000816 0.243564
0.655823 0.074882 0.153584
0.656745 0.013591 0.162377
0.539204 -0.003531 0.205270
0.647074 0.089413 0.195457
0.561047 -0.055729 0.235114
0.630893 0.019696 0.188755
0.582967 -0.046484 0.233666
0.641386 0.022552 0.213098
0.563770 -0.057306 0.204796
0.609289 0.017939 0.227703
0.661274 0.003924 0.200851
0.537366 0.006405 0.230430
0.659872 0.063280 0.170813
0.562218 0.028465 0.231528
0.653580 0.021370 0.182932
0.564828 0.047788 0.157612
0.660784 0.046519 0.184348
0.637024 0.053595 0.202834
0.537001 0.049185 0.186871
0.620193 -0.036065 0.228120
0.584346 -0.022404 0.240598
0.611962 -0.034162 0.198007
0.552791 -0.016885 0.215825
0.617566 0.072844 0.197995
0.535104 0.010798 0.191366
0.553836 0.009905 0.205238
0.585973 0.003935 0.200986
0.671917 0.023148 0.152848
0.584465 -0.057293 0.196306
0.522926 0.037146 0.194013
0.581266 0.041755 0.227041
0.540710 -0.031729 0.243506
0.541719 -0.030279 0.207933
0.618734 0.035113 0.195600
0.643049 0.008796 0.199145
0.640947 0.091740 0.172162
0.596489 0.053661 0.210595
0.576474 -0.020308 0.198292
0.610234 0.004114 0.214650
0.538808 -0.062291 0.208106
0.595200 0.029056 0.231142
0.611731 0.044001 0.219123
0.568908 0.079651 0.162576
0.625619 0.023344 0.221659
0.639818 -0.016754 0.213949
0.525695 0.030084 0.175948
0.521590 0.020784 0.203806
0.521684 0.010001 0.167003
0.573758 0.014711 0.208156
0.614205 -0.018282 0.214128
0.645962 -0.009161 0.196318
0.529801 0.046962 0.159031
0.595772 -0.022858 0.201733
0.570175 0.061355 0.144335
0.645896 0.054073 0.178488
0.522469 -0.006023 0.200942
0.609537 -0.018119 0.235911
0.657458 0.032052 0.152475
0.599075 -0.051908 0.228659
0.629514 0.010762 0.210941
0.635281 0.077187 0.196012
0.574220 0.062939 0.167282
0.549418 0.017603 0.226890
0.544215 0.022050 0.179481
0.673075 0.018706 0.172947
0.535794 -0.003635 0.182733
0.660142 0.047240 0.161226
0.627260 0.060777 0.215692
0.539530 0.021851 0.162512
0.634664 0.033583 0.198930
0.554415 -0.053660 0.217432
0.569579 -0.015991 0.239488
0.545134 -0.063243 0.236780
0.550085 0.054044 0.162948
0.553600 0.074554 0.167213
0.557770 0.025240 0.211744
0.597131 -0.056318 0.205797
0.531606 0.008883 0.211545
0.601981 -0.045793 0.193998
0.651812 0.049668 0.199035
0.635346 0.099110 0.191734
0.645085 0.038984 0.145008
0.623846 -0.002095 0.219154
0.579933 0.023637 0.227989
0.658437 0.019103 0.198848
0.646032 0.069537 0.177887
0.526239 -0.006042 0.219084
0.542789 -0.005519 0.220074
0.587199 0.014148 0.244821
0.626978 0.087420 0.203629
0.541224 0.063040 0.177728
0.549137 0.037946 0.157341
0.618467 0.055125 0.226885
0.647392 0.062612 0.151097
0.652841 0.040518 0.172424
0.566988 0.021428 0.244333
0.531153 -0.019709 0.207262
0.610966 0.028644 0.217307
0.540156 -0.046324 0.246106
0.519539 0.007477 0.193818
0.602173 0.014106 0.207103
0.630954 -0.026114 0.226965
0.651680 0.095213 0.182016
0.553736 -0.024758 0.246057
0.605608 0.064417 0.206798
0.601395 0.000911 0.225794
0.635655 0.058701 0.187757
0.660876 0.008309 0.180267
0.594530 -0.012153 0.241487
0.635593 -0.001075 0.190592
0.587242 0.024054 0.210478
0.653966 0.018070 0.149059
0.526790 -0.047046 0.198069
0.645341 0.032019 0.187599
0.574101 -0.048426 0.200301
0.654895 0.026664 0.168582
0.528615 -0.033272 0.232531
0.625345 0.045877 0.203457
0.552922 -0.003769 0.202321
0.540113 -0.043151 0.212815
0.603743 0.058463 0.221411
0.644080 0.041577 0.207150
0.547346 -0.021571 0.227635
0.627550 0.009459 0.197326
0.645766 0.047766 0.159262
0.606435 0.018412 0.241029
0.661436 0.031771 0.186879
0.613042 -0.001451 0.238154
0.532008 -0.005349 0.234245
0.620837 -0.040162 0.213847
0.521386 0.037946 0.164240
0.530829 -0.031975 0.215509
0.624127 0.061661 0.200743
0.570349 -0.046437 0.237649
0.584993 -0.000668 0.237559
0.558906 0.055828 0.149072
0.603970 0.038409 0.228431
0.587628 0.043823 0.215306
0.612464 -0.021246 0.199919
0.638070 0.082591 0.181033
0.570828 -0.061361 0.228375
0.538556 0.048450 0.169329
0.649982 0.074403 0.165208
0.622644 0.075474 0.210886
0.583328 -0.057261 0.209230
0.515782 0.023555 0.170840
0.528081 0.005681 0.178264
0.546326 0.063531 0.154748
0.587714 0.038165 0.240762
0.632945 -0.021107 0.201499
0.625373 -0.016544 0.220597
0.630520 0.023034 0.206422
0.606721 0.043596 0.207465
0.557454 -0.017973 0.204153
0.544878 0.036461 0.184134
0.586139 -0.035306 0.238368
0.520024 -0.036165 0.222273
0.574075 -0.036876 0.195383
0.575339 0.056816 0.154727
0.622556 0.009826 0.222469
0.537685 0.053603 0.151264
0.610365 -0.046751 0.228045
0.635237 -0.004756 0.212811
0.596404 0.003528 0.209907
0.565063 0.052868 0.168864
0.635165 0.013641 0.221531
0.652166 0.008009 0.208059
0.611147 0.031810 0.205414
0.513256 0.009048 0.183387
0.595226 0.028693 0.243376
0.534635 0.032778 0.165053
0.637711 0.093183 0.202818
0.586182 0.031729 0.221320
0.646790 0.045669 0.188665
0.562144 0.066512 0.163940
0.658514 0.063785 0.157764
0.571934 0.074030 0.148821
0.625039 0.046203 0.189675
0.569931 -0.062596 0.214150
0.644902 0.012913 0.183698
0.647553 0.101787 0.170547
0.666440 0.031796 0.143959
0.620071 -0.025279 0.233610
0.633389 0.099454 0.177602
0.549949 -0.001587 0.244470
0.599976 0.047111 0.220377
0.647116 0.022443 0.200870
0.537833 0.035500 0.153929
0.516558 0.036078 0.184135
0.552012 -0.053236 0.205938
0.624535 0.070422 0.221903
0.622226 0.034238 0.224176
0.672092 0.028497 0.183399
0.588698 0.017160 0.232164
0.648547 -0.010588 0.209410
0.592120 0.043417 0.230660
0.554902 0.050162 0.173500
0.664719 0.023677 0.163501
