ply
format ascii 1.0
element vertex 256
property float x
property float y
property float z
end_header
0.655246 -0.046668 0.149222
0.551198 0.063454 0.132548
0.676657 0.073442 0.111584
0.548559 -0.065106 0.175954
0.628722 0.035594 0.181781
0.531414 0.005213 0.171286
0.696524 0.009711 0.135050
0.604782 -0.027828 0.193813
0.601064 -0.079315 0.142666
0.649207 0.082901 0.159466
0.680058 0.026450 0.088007
0.649087 0.028707 0.133790
0.619122 -0.012637 0.148388
0.588411 -0.084521 0.191126
0.577867 -0.031431 0.156594
0.662901 -0.003972 0.163042
0.629395 -0.071721 0.174717
0.528174 0.025981 0.134188
0.536327 -0.030033 0.150373
0.596831 0.014877 0.165395
0.634261 -0.004099 0.187036
0.567520 -0.039116 0.194518
0.671876 -0.018043 0.130846
0.681502 0.041919 0.127144
0.572561 -0.091560 0.160314
0.552500 0.000832 0.144196
0.548597 0.040354 0.157209
0.640984 -0.039540 0.178728
0.618792 -0.044991 0.141266
0.632148 0.051594 0.153673
0.541380 -0.024891 0.181038
0.576195 -0.012039 0.182935
0.674266 0.015170 0.115340
0.600140 -0.056908 0.188005
0.653735 0.024678 0.163144
0.660362 0.095606 0.135330
0.600962 0.002692 0.190495
0.650785 -0.000314 0.138127
0.525448 -0.005309 0.142427
0.637803 -0.067310 0.143167
0.610794 -0.037184 0.168525
0.630558 0.011317 0.156805
0.575987 -0.066774 0.171666
0.557678 0.037087 0.129296
0.658405 0.056211 0.125899
0.563359 -0.078509 0.199534
0.675802 0.023255 0.145855
0.670640 0.048612 0.103121
0.672354 -0.027669 0.155849
0.607297 -0.086177 0.173433
0.646382 -0.022707 0.153615
0.643868 0.055779 0.176261
0.554598 -0.041396 0.167155
0.596905 -0.010578 0.160116
0.554501 -0.004806 0.171595
0.591402 -0.051142 0.149787
0.684071 -0.006899 0.148500
0.659668 0.043729 0.149257
0.554883 0.017626 0.163578
0.695428 0.021020 0.106745
0.616232 0.031957 0.162123
0.620221 0.013871 0.181531
0.628801 -0.021321 0.171628
0.560556 -0.069741 0.154875
0.651025 0.073816 0.138978
0.619751 -0.083725 0.154193
0.537415 0.046670 0.139089
0.647399 -0.058811 0.170030
0.564409 0.050319 0.145643
0.554184 -0.018378 0.154072
0.613222 -0.007194 0.175955
0.671241 0.004131 0.133723
0.620787 -0.054145 0.184064
0.576852 -0.043845 0.176082
0.547517 0.023930 0.142600
0.525637 0.022003 0.154768
0.571629 -0.059591 0.195480
0.655333 0.061702 0.160191
0.641295 -0.003812 0.165525
0.535663 -0.011405 0.159084
0.561786 -0.023569 0.173584
0.583306 -0.024928 0.196798
0.580885 -0.000250 0.166657
0.660023 -0.035220 0.169844
0.623994 -0.031229 0.188977
0.587831 -0.096206 0.175202
0.677063 0.062233 0.128090
0.665348 0.036238 0.117395
0.633119 -0.031858 0.139390
0.658541 -0.029769 0.138764
0.584864 -0.070671 0.148631
0.687757 0.041745 0.108780
0.535830 0.007462 0.132752
0.587882 -0.043089 0.191993
0.566580 0.054828 0.126139
0.616727 -0.011166 0.193762
0.637680 0.069424 0.154060
0.641883 0.038229 0.169015
0.620273 -0.070397 0.138066
0.686948 0.023176 0.127174
0.590967 -0.085967 0.160498
0.612633 0.006412 0.162747
0.541131 -0.015460 0.140901
0.568921 -0.054130 0.161140
0.657063 0.011338 0.150178
0.687939 0.003196 0.120787
0.637440 0.023392 0.145907
0.632263 0.023494 0.169479
0.665798 0.033815 0.135871
0.606667 -0.073047 0.185073
0.547459 0.056486 0.150602
0.663261 0.079953 0.149797
0.559232 -0.053052 0.182102
0.540712 0.038053 0.124631
0.642699 -0.022686 0.181579
0.604163 -0.039786 0.150877
0.537813 0.023266 0.166650
0.681157 0.011003 0.100326
0.661458 -0.014789 0.149959
0.532932 0.006769 0.153562
0.647507 0.011399 0.171199
0.679478 0.027780 0.104821
0.647746 0.090727 0.144742
0.532149 0.036663 0.151332
0.649370 -0.062607 0.153787
0.672584 0.006305 0.151436
0.629085 0.048313 0.169671
0.544353 -0.027175 0.164261
0.641611 -0.037937 0.156516
0.572542 -0.017523 0.163177
0.604224 0.016236 0.179399
0.683436 -0.006994 0.132108
0.637207 -0.010013 0.151171
0.666695 0.055950 0.139402
0.664336 0.062377 0.112565
0.612482 -0.041826 0.190560
0.599090 0.002203 0.174390
0.552389 0.051118 0.120535
0.659794 0.028195 0.149092
0.626214 -0.000414 0.166136
0.551597 -0.036856 0.181542
0.588161 -0.005860 0.190332
0.652109 0.045516 0.134888
0.564317 0.065117 0.140253
0.601432 -0.060901 0.143638
0.659951 0.018299 0.131191
0.634800 -0.055959 0.178676
0.631452 0.036544 0.153141
0.583190 -0.081869 0.175283
0.538915 -0.010851 0.176376
0.566501 -0.024961 0.187651
0.646228 0.049962 0.159142
0.614857 0.006379 0.194124
0.642189 -0.071292 0.164060
0.643122 0.003340 0.150045
0.644970 0.070203 0.166715
0.638514 -0.053123 0.139877
0.585474 -0.055862 0.198484
0.685777 0.007770 0.144532
0.552664 0.041978 0.143427
0.623995 -0.027659 0.149764
0.561596 -0.062537 0.170262
0.617062 0.026999 0.175541
0.599410 -0.014863 0.196568
0.524145 0.014197 0.141129
0.676464 0.055558 0.115645
0.578739 -0.077536 0.198602
0.587793 -0.021295 0.160027
0.543952 0.011588 0.171384
0.678671 0.031493 0.118316
0.619858 -0.081616 0.169772
0.647854 0.034584 0.146242
0.658318 -0.052222 0.164727
0.646928 0.013114 0.140982
0.673871 0.020133 0.130200
0.581470 -0.047288 0.158415
0.634560 -0.075650 0.153513
0.541474 0.019412 0.154106
0.658787 -0.011800 0.136975
0.567348 -0.036762 0.167805
0.528043 -0.017145 0.148462
0.676924 -0.019586 0.146028
0.682686 0.033105 0.137294
0.548889 0.010984 0.136221
0.691915 0.025010 0.093772
0.542613 0.023284 0.130297
0.693487 0.015160 0.118439
0.538908 0.033577 0.138960
0.660921 0.092796 0.148341
0.662087 -0.035552 0.150500
0.604048 -0.087878 0.160852
0.562554 0.067281 0.126780
0.670405 0.051031 0.127166
0.525001 -0.002203 0.158761
0.623160 0.012065 0.168430
0.651733 0.064404 0.147854
0.651748 -0.045050 0.174110
0.532014 -0.024078 0.161886
0.664313 -0.003065 0.145323
0.542458 -0.003159 0.135920
0.615406 -0.059650 0.143192
0.556966 0.052277 0.135040
0.678533 0.040459 0.097244
0.649925 -0.007437 0.149135
0.632100 -0.017813 0.186781
0.671942 -0.014964 0.157165
0.626473 0.024734 0.158249
0.634644 0.061054 0.163016
0.621680 0.001379 0.180584
0.536389 0.035678 0.163148
0.641567 0.079971 0.148385
0.671885 0.044540 0.138281
0.598313 -0.083390 0.183492
0.652478 0.001885 0.159271
0.555462 0.005528 0.160431
0.635701 0.007540 0.167851
0.622624 0.045027 0.158357
0.563371 -0.065520 0.188243
0.673819 -0.004243 0.124677
0.628207 0.022764 0.184990
0.611661 0.020555 0.164041
0.682410 0.052319 0.104349
0.600336 -0.044572 0.188674
0.570999 -0.075381 0.151465
0.654432 0.084454 0.133777
0.608883 -0.019182 0.150155
0.639066 0.043972 0.179459
0.630551 -0.007529 0.175048
0.576661 -0.047133 0.195449
0.648591 0.014073 0.159375
0.563515 -0.034624 0.180784
0.550563 -0.018125 0.177206
0.550097 -0.028224 0.148582
0.538390 0.047422 0.150978
0.618257 -0.071147 0.178979
0.668908 0.069427 0.121003
0.690194 0.026680 0.115815
0.610619 0.005753 0.180144
0.593838 0.002668 0.163743
0.591864 -0.031902 0.156577
0.548797 0.029295 0.161429
0.643202 0.024496 0.156189
0.606538 -0.003389 0.165169
0.583835 -0.000932 0.180547
0.669019 0.036344 0.146872
0.550692 -0.003965 0.155476
0.669661 0.033956 0.106738
0.677342 0.009600 0.125181
0.631990 -0.011746 0.161501
0.555939 -0.015862 0.165342
0.666332 0.017978 0.152667
0.611399 -0.078431 0.148019
0.542419 0.050364 0.126513
0.569031 -0.054028 0.173021
0.657993 0.072996 0.160028
0.663698 0.006814 0.158881
