ply
format ascii 1.0
element vertex 256
property float x
property float y
property float z
end_header
0.504986 0.033110 0.206908
0.566599 0.157050 0.178280
0.429323 0.141677 0.173889
0.401824 0.055917 0.240192
0.551029 0.073591 0.133003
0.507460 0.116831 0.230706
0.495226 0.141751 0.152169
0.455182 0.075466 0.203044
0.551520 0.080994 0.198144
0.448811 0.015484 0.217523
0.411073 0.103524 0.209903
0.563512 0.111370 0.162721
0.489940 0.072529 0.237851
0.417455 0.045691 0.196555
0.547855 0.130377 0.210987
0.433758 0.097747 0.169993
0.449720 0.097072 0.241171
0.446314 0.050597 0.240619
0.510295 0.083301 0.203995
0.455552 0.132781 0.144113
0.473147 0.110248 0.211068
0.532893 0.049257 0.185127
0.464590 0.038176 0.191324
0.562699 0.063438 0.168571
0.479044 0.037458 0.232986
0.414527 0.020561 0.220855
0.519207 0.115891 0.198436
0.469091 0.141668 0.173951
0.442164 0.116753 0.196674
0.540792 0.087331 0.163717
0.422683 0.068538 0.218713
0.489304 0.061192 0.194513
0.480127 0.102129 0.241270
0.526223 0.054161 0.214079
0.545237 0.136161 0.181377
0.414838 0.118792 0.184890
0.557898 0.109136 0.193816
0.427178 0.120401 0.154477
0.531356 0.097968 0.216276
0.480557 0.020021 0.212205
0.433296 0.075951 0.243474
0.552641 0.099133 0.140950
0.448335 0.123026 0.169896
0.399933 0.060638 0.208651
0.527422 0.074616 0.183684
0.482840 0.085067 0.216565
0.430061 0.092502 0.223300
0.468971 0.063496 0.220716
0.533584 0.100587 0.184393
0.411060 0.094150 0.182007
0.501868 0.046904 0.230905
0.497814 0.103906 0.210674
0.433742 0.030061 0.232974
0.441711 0.048692 0.198761
0.471994 0.149630 0.150546
0.449938 0.149855 0.161391
0.562008 0.088649 0.175437
0.524503 0.130211 0.217040
0.554828 0.057107 0.191103
0.463735 0.077604 0.241673
0.580519 0.126354 0.167869
0.544723 0.065663 0.154063
0.555445 0.148598 0.197433
0.427114 0.090749 0.200334
0.457473 0.031448 0.231254
0.530557 0.075885 0.214373
0.560607 0.080845 0.151881
0.435408 0.028055 0.202605
0.420877 0.048105 0.226335
0.505025 0.057917 0.210737
0.503787 0.083404 0.225394
0.463015 0.109039 0.230050
0.471462 0.126341 0.155700
0.445884 0.137053 0.185106
0.537136 0.063931 0.198731
0.448578 0.094700 0.203746
0.466926 0.053584 0.238356
0.488483 0.033806 0.195240
0.531844 0.135055 0.196420
0.563808 0.122667 0.179087
0.516981 0.045398 0.196376
0.495968 0.028868 0.225202
0.476802 0.078365 0.198938
0.542903 0.065109 0.173762
0.454806 0.021246 0.193788
0.428622 0.130472 0.192367
0.485360 0.115237 0.225369
0.545186 0.115642 0.180506
0.422727 0.059377 0.241880
0.541048 0.104298 0.201164
0.517219 0.066678 0.198882
0.438729 0.066701 0.203845
0.503454 0.121584 0.208770
0.459696 0.058741 0.196199
0.410262 0.031677 0.206269
0.413653 0.080754 0.208465
0.494280 0.098564 0.229148
0.514707 0.107286 0.216972
0.557476 0.143081 0.169826
0.518269 0.096880 0.193438
0.415056 0.081380 0.228919
0.485982 0.155029 0.160463
0.428755 0.122825 0.174329
0.421917 0.115547 0.202252
0.418179 0.105227 0.165506
0.468993 0.092516 0.206387
0.438202 0.137279 0.157307
0.565531 0.139273 0.186424
0.477064 0.049831 0.199314
0.557766 0.073145 0.182110
0.480936 0.137298 0.142317
0.566685 0.105625 0.179136
0.541780 0.085099 0.184579
0.530692 0.084298 0.199453
0.431630 0.101538 0.187977
0.447260 0.103153 0.225527
0.470770 0.021007 0.225948
0.485442 0.137520 0.165231
0.443517 0.109046 0.177830
0.532557 0.117722 0.209288
0.555308 0.094542 0.159883
0.433234 0.080449 0.212488
0.550816 0.098938 0.182958
0.423739 0.051998 0.210596
0.438944 0.110372 0.160882
0.513503 0.071385 0.219886
0.517487 0.089645 0.218179
0.427972 0.034461 0.215416
0.455150 0.064586 0.237532
0.426971 0.087698 0.181251
0.416253 0.028291 0.234831
0.520081 0.039655 0.211250
0.552265 0.076042 0.166773
0.459692 0.137178 0.161084
0.552680 0.130305 0.195789
0.469884 0.155353 0.165213
0.457503 0.107746 0.210313
0.467181 0.017799 0.203085
0.475134 0.026243 0.191295
0.545433 0.086308 0.146668
0.536169 0.048054 0.200382
0.478043 0.098599 0.226191
0.495943 0.077171 0.204527
0.501642 0.063079 0.233869
0.557859 0.066765 0.146122
0.481915 0.087011 0.242829
0.454449 0.148668 0.175862
0.410509 0.094020 0.197195
0.549508 0.150727 0.180716
0.453374 0.122282 0.155587
0.524874 0.115426 0.224701
0.465308 0.100645 0.242721
0.417347 0.045778 0.244371
0.433394 0.106236 0.202073
0.509427 0.034653 0.223957
0.576327 0.111491 0.169804
0.490621 0.070030 0.223473
0.437367 0.061548 0.244281
0.515590 0.128725 0.204899
0.436521 0.092749 0.236876
0.479966 0.059819 0.239168
0.499312 0.044128 0.214114
0.484860 0.096776 0.208571
0.403926 0.050195 0.196547
0.424682 0.099592 0.211370
0.448062 0.033019 0.198019
0.424209 0.066580 0.204776
0.521324 0.057064 0.187482
0.410682 0.062116 0.231086
0.509708 0.097377 0.204585
0.443099 0.082161 0.200734
0.517588 0.080053 0.192018
0.543329 0.141369 0.200960
0.512039 0.123555 0.219498
0.573305 0.119537 0.157333
0.527322 0.104483 0.200877
0.536814 0.125488 0.220536
0.501420 0.084634 0.238768
0.541528 0.075853 0.205745
0.412406 0.106327 0.191933
0.413096 0.062480 0.211201
0.547152 0.070120 0.191511
0.495027 0.024975 0.210888
0.551326 0.096906 0.196656
0.427275 0.131635 0.162597
0.539395 0.091198 0.206877
0.500627 0.091673 0.215505
0.445650 0.035667 0.235436
0.559120 0.089863 0.188289
0.474783 0.073885 0.235484
0.425708 0.084386 0.236746
0.468503 0.135868 0.147149
0.545097 0.099861 0.153551
0.505639 0.104484 0.226377
0.554367 0.118464 0.168849
0.566603 0.126000 0.166739
0.491890 0.115216 0.213554
0.493308 0.045782 0.197248
0.440987 0.021566 0.226035
0.447004 0.135777 0.167560
0.542932 0.073880 0.143718
0.539829 0.125022 0.194250
0.453904 0.021489 0.206728
0.535394 0.133410 0.208781
0.500948 0.070347 0.214336
0.418599 0.087971 0.218364
0.417197 0.119990 0.169295
0.422813 0.099048 0.176763
0.459258 0.147348 0.152852
0.490399 0.109518 0.238957
0.523171 0.066191 0.210442
0.569179 0.144704 0.174715
0.564435 0.074843 0.163135
0.548631 0.095586 0.170608
0.491289 0.040108 0.231021
0.449011 0.122413 0.182405
0.464265 0.040857 0.235995
0.401494 0.062401 0.220943
0.451848 0.043973 0.193194
0.433172 0.074907 0.223678
0.546500 0.055858 0.200409
0.484363 0.131331 0.152705
0.447774 0.140864 0.149473
0.483127 0.022092 0.225197
0.473460 0.131089 0.166922
0.543379 0.054244 0.179578
0.532105 0.062738 0.179100
0.539994 0.110141 0.190150
0.555922 0.082945 0.139204
0.494334 0.098044 0.241374
0.438021 0.122318 0.163384
0.486557 0.104223 0.219492
0.475229 0.144908 0.161938
0.486859 0.148674 0.146722
0.439554 0.020887 0.211817
0.546618 0.078303 0.155683
0.491358 0.056869 0.234936
0.507687 0.109438 0.206662
0.504686 0.114124 0.218459
0.529229 0.086423 0.187780
0.562155 0.151209 0.187908
0.538140 0.092346 0.194786
0.441888 0.123760 0.152237
0.560239 0.093901 0.148424
0.563100 0.062037 0.180326
0.422210 0.131572 0.182521
0.497071 0.065644 0.202192
0.537739 0.056305 0.208640
0.425709 0.035813 0.203966
0.516608 0.054166 0.207350
0.484189 0.089512 0.230175
0.442120 0.083579 0.243163
0.496172 0.113134 0.228832
0.538543 0.073985 0.180697
0.558907 0.064303 0.157721
0.421988 0.100693 0.194963
