ply
format ascii 1.0
element vertex 256
property float x
property float y
property float z
end_header
0.627575 -0.029203 0.209895
0.644719 0.108015 0.180625
0.519988 0.048032 0.175588
0.522218 -0.042016 0.241611
0.659457 0.024274 0.136901
0.601490 0.050674 0.232651
0.582242 0.070196 0.154371
0.566529 -0.006018 0.204871
0.655641 0.031438 0.201465
0.580387 -0.064547 0.220047
0.515399 0.005774 0.211351
0.638797 0.061638 0.163759
0.599705 0.003144 0.240138
0.541063 -0.046765 0.198305
0.635361 0.076808 0.213313
0.538903 0.008148 0.171567
0.553540 0.012817 0.242645
0.565906 -0.032116 0.242654
0.615734 0.019784 0.206364
0.547866 0.048583 0.145966
0.571677 0.032837 0.212664
0.649133 -0.004639 0.188613
0.588070 -0.038093 0.193752
0.601264 -0.033589 0.235594
0.672998 0.018653 0.172810
0.546334 -0.071226 0.222891
0.613417 0.053487 0.200557
0.557482 0.061296 0.175941
0.540325 0.028726 0.198367
0.534205 -0.018685 0.222915
0.603593 -0.008101 0.196946
0.580491 0.027770 0.243052
0.653155 0.061832 0.190845
0.640341 -0.002326 0.217321
0.662898 0.043843 0.160021
0.513953 0.021558 0.186415
0.631498 0.081209 0.183610
0.525189 0.027372 0.156088
0.630521 0.040866 0.218465
0.633030 0.037138 0.187388
0.608861 -0.049678 0.215060
0.544168 0.036849 0.171651
0.519356 -0.038456 0.209990
0.589155 0.012405 0.218605
0.583248 -0.012532 0.222865
0.545105 -0.012568 0.245020
0.518663 -0.002910 0.183422
0.543005 -0.043103 0.228091
0.619636 -0.017058 0.233671
0.597050 0.035117 0.212654
0.562874 -0.035792 0.200770
0.658502 0.070436 0.152097
0.648078 0.046410 0.140645
0.651083 0.022472 0.161092
0.557722 0.069906 0.152587
0.536778 0.062716 0.163254
0.613308 0.068886 0.219052
0.667036 0.010015 0.195187
0.573257 -0.000826 0.243571
0.539222 -0.003540 0.205275
0.561062 -0.055738 0.235121
0.632826 0.011521 0.190152
0.636667 0.096423 0.199689
0.582983 -0.046493 0.233674
0.637219 0.019675 0.217315
0.563787 -0.057315 0.204803
0.662970 0.044111 0.182856
0.619223 -0.005788 0.213341
0.636518 0.055055 0.203293
0.609306 0.017929 0.227712
0.653523 0.021325 0.182832
0.537383 0.006396 0.230434
0.562234 0.028456 0.231534
0.641612 0.041143 0.166605
0.564937 0.047737 0.157659
0.537086 0.049162 0.186894
0.584361 -0.022413 0.240606
0.657806 0.063302 0.171175
0.611981 -0.034172 0.198017
0.618954 0.075758 0.198475
0.671794 0.023059 0.152705
0.552808 -0.016894 0.215831
0.634927 -0.013692 0.199353
0.535139 0.010777 0.191381
0.553854 0.009896 0.205243
0.648832 0.012590 0.202644
0.620209 -0.036075 0.228130
0.585992 0.003925 0.200994
0.584483 -0.057302 0.196314
0.522991 0.037139 0.194022
0.635189 0.059088 0.183881
0.581284 0.041745 0.227048
0.540725 -0.031738 0.243511
0.541737 -0.030288 0.207938
0.596496 0.053658 0.210606
0.576493 -0.020318 0.198300
0.648343 0.090281 0.184730
0.538825 -0.062300 0.208111
0.595214 0.029052 0.231151
0.611740 0.044005 0.219135
0.569052 0.079594 0.162633
0.525766 0.030077 0.175958
0.521626 0.020777 0.203811
0.521740 0.010001 0.167006
0.573777 0.014701 0.208163
0.529908 0.046953 0.159047
0.595790 -0.022868 0.201742
0.628759 0.007924 0.206649
0.632408 0.030314 0.204460
0.570312 0.061299 0.144389
0.522488 -0.006032 0.200945
0.617953 0.036569 0.195716
0.599091 -0.051918 0.228668
0.574339 0.062875 0.167340
0.549435 0.017594 0.226895
0.544274 0.022020 0.179506
0.656055 -0.002439 0.203697
0.535819 -0.003655 0.182746
0.627263 0.060787 0.215708
0.657311 0.006079 0.177877
0.539604 0.021829 0.162533
0.622573 0.009816 0.222479
0.620251 0.028384 0.220463
0.646807 0.045657 0.188671
0.633502 0.094832 0.175073
0.669876 0.030079 0.186874
0.554432 -0.053669 0.217438
0.569595 -0.016000 0.239494
0.545149 -0.063252 0.236785
0.639441 -0.018038 0.214407
0.550197 0.054009 0.162984
0.644099 0.041567 0.207162
0.640196 0.078248 0.198205
0.553733 0.074515 0.167255
0.557788 0.025231 0.211749
0.597148 -0.056328 0.205806
0.531624 0.008874 0.211549
0.602000 -0.045803 0.194007
0.644795 0.035510 0.151640
0.664935 0.032197 0.170474
0.579950 0.023626 0.227996
0.613958 -0.001870 0.236422
0.604335 0.009259 0.206833
0.648181 0.050361 0.155609
0.526256 -0.006051 0.219088
0.542806 -0.005528 0.220079
0.587214 0.014139 0.244829
0.541334 0.063014 0.177757
0.549235 0.037914 0.157373
0.618471 0.055131 0.226899
0.660524 0.035215 0.147236
0.567004 0.021419 0.244340
0.531171 -0.019717 0.207266
0.644372 0.067968 0.176137
0.626251 0.049332 0.192658
0.648992 0.075382 0.162370
0.540171 -0.046332 0.246111
0.519559 0.007469 0.193821
0.630971 -0.026124 0.226976
0.601412 0.000901 0.225803
0.553751 -0.024767 0.246063
0.605610 0.064418 0.206811
0.594545 -0.012163 0.241496
0.637590 0.024010 0.183853
0.618424 -0.020666 0.216887
0.587262 0.024047 0.210486
0.662151 0.012487 0.165791
0.526808 -0.047055 0.198073
0.574119 -0.048436 0.200309
0.653749 0.049295 0.169429
0.528631 -0.033280 0.232535
0.644105 0.007840 0.182476
0.552940 -0.003778 0.202326
0.625673 0.063531 0.199695
0.647059 0.032273 0.177161
0.627593 0.085581 0.203101
0.540130 -0.043160 0.212820
0.603746 0.058463 0.221424
0.610434 0.032846 0.206723
0.547363 -0.021580 0.227640
0.606451 0.018402 0.241039
0.623074 0.043001 0.207391
0.658133 0.014549 0.152767
0.532024 -0.005357 0.234249
0.620854 -0.040172 0.213857
0.651256 0.050944 0.200772
0.645162 0.063571 0.152125
0.521478 0.037946 0.164248
0.530846 -0.031984 0.215513
0.603716 0.024573 0.217709
0.570364 -0.046446 0.237656
0.585009 -0.000677 0.237567
0.628636 0.093435 0.187529
0.559032 0.055786 0.149116
0.603981 0.038408 0.228443
0.587639 0.043816 0.215315
0.612483 -0.021256 0.199929
0.570843 -0.061370 0.228382
0.644095 0.025007 0.202188
0.538656 0.048429 0.169353
0.583345 -0.057270 0.209238
0.622641 0.075483 0.210902
0.658143 0.019386 0.196133
0.635564 -0.001116 0.190571
0.515850 0.023561 0.170840
0.647557 0.032096 0.190072
0.611157 0.004581 0.216731
0.645917 0.054063 0.178500
0.528121 0.005670 0.178271
0.651197 0.025454 0.146731
0.546457 0.063502 0.154782
0.587731 0.038156 0.240770
0.658412 0.048479 0.148307
0.624792 0.019877 0.195145
0.557472 -0.017982 0.204159
0.649315 -0.009523 0.212235
0.611944 -0.027005 0.233745
0.544950 0.036430 0.184162
0.586154 -0.035315 0.238377
0.645333 0.017809 0.191630
0.520041 -0.036173 0.222277
0.574094 -0.036886 0.195390
0.575462 0.056753 0.154785
0.537807 0.053586 0.151289
0.610381 -0.046761 0.228055
0.641069 0.009287 0.211678
0.565168 0.052814 0.168913
0.627913 -0.004889 0.204270
0.513296 0.009055 0.183382
0.646781 0.100975 0.170786
0.595242 0.028684 0.243384
0.534720 0.032762 0.165071
0.586197 0.031721 0.221329
0.562270 0.066463 0.163988
0.572083 0.073972 0.148880
0.569948 -0.062606 0.214157
0.646465 0.089095 0.196665
0.654693 0.060050 0.158834
0.606333 -0.011159 0.237443
0.644215 0.100720 0.190205
0.604580 0.043612 0.208706
0.549964 -0.001596 0.244475
0.599984 0.047109 0.220388
0.656084 0.041601 0.195103
0.537931 0.035483 0.153950
0.673564 0.017487 0.184583
0.516629 0.036081 0.184138
0.609297 -0.001242 0.204661
0.552030 -0.053245 0.205944
0.655255 0.036580 0.165474
0.658722 0.033285 0.184100
0.624533 0.070431 0.221919
0.588718 0.017153 0.232172
0.667007 0.033166 0.157718
0.642287 0.060003 0.194443
0.669020 0.027907 0.142587
