ply
format ascii 1.0
element vertex 256
property float x
property float y
property float z
end_header
0.654769 -0.045409 0.148298
0.551184 0.065117 0.132387
0.676668 0.074725 0.110921
0.548108 -0.063507 0.175364
0.628128 0.038016 0.180611
0.532156 0.008232 0.173163
0.696224 0.010833 0.134106
0.604513 -0.026429 0.193065
0.600457 -0.077869 0.141897
0.651067 0.085787 0.159021
0.679668 0.027669 0.087120
0.648855 0.030016 0.132977
0.618757 -0.011257 0.147603
0.587943 -0.083065 0.190395
0.577465 -0.029917 0.155931
0.662607 -0.002813 0.162233
0.527797 0.027804 0.134059
0.628917 -0.070391 0.173861
0.535845 -0.028298 0.149990
0.596613 0.016321 0.164700
0.634049 -0.002794 0.186208
0.567216 -0.037593 0.193883
0.671459 -0.016819 0.129913
0.681478 0.043138 0.126552
0.552093 0.002529 0.143820
0.571970 -0.090031 0.159630
0.548486 0.041976 0.157001
0.640627 -0.038252 0.177855
0.633400 0.057860 0.154224
0.618295 -0.043605 0.140461
0.553155 -0.015196 0.175105
0.673928 0.016391 0.114464
0.586966 -0.000837 0.187500
0.648671 0.024563 0.163330
0.599754 -0.055489 0.187253
0.675198 0.024958 0.149231
0.650526 0.001023 0.137328
0.525007 -0.003504 0.142203
0.637237 -0.065988 0.142287
0.610412 -0.035788 0.167752
0.661100 0.097111 0.135961
0.575516 -0.065263 0.170986
0.557406 0.038699 0.129038
0.658314 0.057529 0.125147
0.613313 0.014241 0.190742
0.562939 -0.076974 0.198887
0.670666 0.049998 0.102554
0.622810 0.017126 0.161059
0.671957 -0.026487 0.154900
0.610976 -0.004978 0.171862
0.554180 -0.039789 0.166614
0.606766 -0.084773 0.172639
0.645992 -0.021415 0.152712
0.648539 0.051141 0.173262
0.555708 0.013137 0.166062
0.590912 -0.049669 0.149068
0.660156 0.044004 0.149428
0.683737 -0.005750 0.147557
0.695081 0.022175 0.105804
0.628482 -0.019988 0.170806
0.560021 -0.068168 0.154244
0.597647 -0.019281 0.157037
0.650505 0.070332 0.142216
0.619166 -0.082350 0.153360
0.620847 0.039006 0.157652
0.537278 0.048442 0.138950
0.646948 -0.057539 0.169124
0.580621 0.001247 0.166005
0.564335 0.051827 0.145387
0.538967 0.018714 0.150708
0.640050 0.000885 0.156594
0.572041 -0.016774 0.187746
0.532488 -0.016156 0.168127
0.553769 -0.016723 0.153616
0.670916 0.005353 0.132828
0.576482 -0.042353 0.175388
0.620398 -0.052793 0.183247
0.571260 -0.058082 0.194819
0.623698 -0.029892 0.188164
0.659651 -0.033991 0.168912
0.616514 -0.009807 0.192985
0.634479 0.017585 0.145102
0.587272 -0.094737 0.174466
0.677002 0.063440 0.127376
0.653794 0.065986 0.161547
0.665299 0.037588 0.116769
0.632660 -0.030518 0.138547
0.658086 -0.028514 0.137841
0.584305 -0.069175 0.147920
0.630443 0.018921 0.179004
0.687743 0.043013 0.108192
0.535374 0.009263 0.132507
0.587556 -0.041632 0.191290
0.566457 0.056366 0.125884
0.619680 -0.069013 0.137241
0.686674 0.024347 0.126262
0.548398 -0.032058 0.182154
0.590395 -0.084499 0.159758
0.545413 0.024533 0.131823
0.587502 -0.015716 0.197695
0.540643 -0.013709 0.140540
0.652578 0.014703 0.148779
0.568458 -0.052589 0.160492
0.687577 0.004368 0.119859
0.534578 -0.000413 0.157771
0.615019 0.026608 0.174611
0.672352 0.007463 0.150679
0.665579 0.035048 0.135022
0.606218 -0.071648 0.184290
0.663234 0.082721 0.145749
0.526064 0.022295 0.161991
0.640218 0.040237 0.162439
0.646353 0.086982 0.138933
0.547465 0.058136 0.150441
0.558841 -0.051492 0.181485
0.540429 0.039833 0.124454
0.642407 -0.021406 0.180711
0.603715 -0.038357 0.150124
0.661098 -0.013555 0.149055
0.629234 0.001489 0.170426
0.680756 0.012211 0.099425
0.532667 0.037362 0.153109
0.679147 0.028990 0.103936
0.547873 0.000768 0.174248
0.648854 -0.061331 0.152872
0.572209 -0.015996 0.162541
0.641187 -0.036637 0.155642
0.603140 0.002525 0.186103
0.563173 -0.028339 0.176825
0.638430 0.063567 0.168399
0.629161 0.049609 0.169410
0.646387 0.009726 0.169048
0.525020 0.015405 0.143711
0.540495 0.029008 0.164124
0.540826 -0.031205 0.166366
0.683064 -0.005816 0.131167
0.666594 0.057162 0.138653
0.664286 0.063723 0.111844
0.612155 -0.040451 0.189778
0.552206 0.052801 0.120338
0.652415 0.046261 0.135989
0.564354 0.066638 0.140036
0.659797 0.019617 0.130481
0.600890 -0.059458 0.142880
0.648328 0.034408 0.149377
0.661781 0.028944 0.155030
0.634387 -0.054651 0.177813
0.582679 -0.080385 0.174571
0.608435 0.007187 0.162885
0.641677 -0.069998 0.163163
0.604056 0.017646 0.178681
0.633601 0.027603 0.167672
0.617921 0.005953 0.179614
0.637985 -0.051802 0.139003
0.637875 0.071654 0.155305
0.585126 -0.054401 0.197781
0.657111 0.095883 0.149836
0.685490 0.008919 0.143609
0.552503 0.043599 0.143204
0.623583 -0.026296 0.148954
0.561134 -0.060977 0.169632
0.640432 -0.011635 0.163591
0.582061 -0.030380 0.197988
0.676375 0.056824 0.114900
0.578319 -0.076052 0.197906
0.591492 -0.007447 0.161474
0.678596 0.032768 0.117676
0.547839 0.028835 0.147321
0.619331 -0.080252 0.168940
0.657872 -0.050983 0.163789
0.676727 0.017536 0.135350
0.581021 -0.045788 0.157730
0.634000 -0.074324 0.152638
0.645534 0.053857 0.159029
0.658408 -0.010535 0.136082
0.527597 -0.015373 0.148179
0.535859 -0.004875 0.176898
0.676536 -0.018405 0.145082
0.567194 -0.036206 0.166104
0.557328 -0.026922 0.163998
0.682608 0.034272 0.136663
0.634539 -0.016122 0.147980
0.595819 -0.005303 0.196614
0.691539 0.026186 0.092845
0.659681 0.025291 0.142445
0.693158 0.016314 0.117501
0.598858 0.003628 0.173679
0.538590 0.035343 0.138789
0.649620 -0.006145 0.148303
0.661647 -0.034322 0.149562
0.603471 -0.086455 0.160068
0.562548 0.068854 0.126577
0.634570 0.045114 0.151590
0.670285 0.052279 0.126397
0.634699 0.012715 0.164075
0.641555 0.037753 0.175164
0.660923 0.075979 0.157265
0.651356 -0.043795 0.173199
0.546806 -0.019432 0.164484
0.541983 -0.001394 0.135595
0.664035 -0.001834 0.144519
0.629172 -0.004249 0.151941
0.548469 0.012723 0.135905
0.614866 -0.058253 0.142390
0.662116 0.010222 0.157905
0.556861 0.053880 0.134823
0.591461 -0.030435 0.155868
0.543760 0.013218 0.171101
0.678519 0.041829 0.096645
0.631842 -0.016501 0.185951
0.552814 0.021112 0.156162
0.556319 -0.000466 0.164795
0.671597 -0.013783 0.156238
0.644678 0.015799 0.137734
0.603431 -0.009272 0.151904
0.541876 -0.020421 0.177364
0.671725 0.045754 0.137441
0.597824 -0.081962 0.182729
0.611444 0.021956 0.163307
0.670246 0.025948 0.124000
0.562958 -0.063978 0.187605
0.673441 -0.003016 0.123762
0.682456 0.053636 0.103805
0.622286 0.005744 0.191264
0.599994 -0.043155 0.187930
0.570433 -0.073841 0.150797
0.639899 0.028743 0.142381
0.650783 -0.003570 0.165514
0.525893 0.007929 0.159917
0.640117 0.023229 0.154739
0.576333 -0.045640 0.194780
0.623029 0.002386 0.160085
0.644925 0.062282 0.149302
0.549610 -0.026533 0.148117
0.642064 0.081460 0.148641
0.538316 0.049154 0.150836
0.557381 -0.039569 0.179789
0.617795 -0.069783 0.178160
0.668891 0.070709 0.120317
0.689896 0.027847 0.114895
0.628229 0.028140 0.157092
0.593574 0.004123 0.163050
0.651467 0.003753 0.155712
0.622169 0.027219 0.183978
0.677019 0.010812 0.124281
0.669606 0.035331 0.106104
0.610811 -0.077024 0.147217
0.542257 0.052123 0.126360
0.583354 -0.019869 0.155939
0.568604 -0.052495 0.172341
0.548213 0.010934 0.150772
0.630910 -0.076790 0.163500
0.550339 -0.002302 0.155094
0.682500 0.067902 0.118168
0.668698 -0.024255 0.138706
0.637821 0.053150 0.176560
