ply
format ascii 1.0
element vertex 256
property float x
property float y
property float z
end_header
0.653499 -0.042437 0.146642
0.550804 0.068746 0.131237
0.675938 0.077200 0.108848
0.546884 -0.059800 0.174363
0.628101 0.040069 0.179618
0.530483 0.010731 0.170053
0.695404 0.013491 0.132557
0.603665 -0.023148 0.191746
0.598916 -0.074499 0.140550
0.648891 0.087219 0.157427
0.679913 0.030339 0.085343
0.647901 0.032987 0.131314
0.617729 -0.008026 0.146212
0.586672 -0.079660 0.189120
0.576358 -0.026399 0.154781
0.661726 0.000021 0.160685
0.627630 -0.067262 0.172341
0.527116 0.031631 0.133040
0.534758 -0.024518 0.149005
0.595893 0.019690 0.163479
0.633326 0.000283 0.184728
0.566294 -0.034044 0.192789
0.670374 -0.013910 0.128291
0.680920 0.045969 0.125162
0.570455 -0.086476 0.158449
0.551238 0.006167 0.142738
0.548007 0.045657 0.155887
0.639596 -0.035212 0.176295
0.616990 -0.040362 0.139038
0.631411 0.056103 0.151515
0.540189 -0.019525 0.179632
0.575143 -0.007039 0.181170
0.673112 0.019352 0.112999
0.598661 -0.052166 0.185934
0.652848 0.028918 0.160613
0.660146 0.100041 0.133399
0.600135 0.007418 0.188517
0.649620 0.004091 0.135829
0.524098 0.000356 0.141230
0.656555 0.057303 0.118402
0.635782 -0.062883 0.140720
0.609336 -0.032520 0.166387
0.629474 0.015777 0.154544
0.574250 -0.061748 0.169810
0.556795 0.042275 0.127895
0.561766 -0.073400 0.197777
0.674994 0.027216 0.143729
0.685373 0.052797 0.099686
0.662439 0.051120 0.143848
0.670843 -0.023706 0.153228
0.605369 -0.081483 0.171244
0.644916 -0.018380 0.151114
0.643376 0.060130 0.174003
0.553082 -0.036131 0.165565
0.595648 -0.005754 0.158156
0.553449 0.000435 0.170102
0.589620 -0.046240 0.147811
0.682797 -0.003043 0.145958
0.554020 0.022882 0.162136
0.694297 0.024983 0.104315
0.615397 0.036591 0.160069
0.619402 0.018425 0.179398
0.627538 -0.016853 0.169344
0.558629 -0.064523 0.153163
0.650530 0.078338 0.136835
0.617665 -0.079127 0.151890
0.668054 0.039425 0.104927
0.536785 0.052195 0.137871
0.645723 -0.054534 0.167504
0.563893 0.055363 0.144203
0.552792 -0.013088 0.152551
0.612162 -0.002563 0.173841
0.670044 0.008251 0.131316
0.575403 -0.038842 0.174248
0.619297 -0.049614 0.181800
0.546517 0.029327 0.141249
0.524741 0.027632 0.153635
0.671495 0.067780 0.128877
0.570197 -0.054563 0.193677
0.654737 0.065934 0.157901
0.640166 0.000547 0.163144
0.534408 -0.005905 0.157767
0.582250 -0.020026 0.194942
0.560524 -0.018400 0.171937
0.579801 0.004730 0.164868
0.622793 -0.026742 0.186721
0.658593 -0.031077 0.167237
0.585816 -0.091309 0.173183
0.631436 -0.027377 0.137048
0.656871 -0.025554 0.136182
0.582865 -0.065696 0.146684
0.666354 0.033217 0.126037
0.534533 0.013026 0.131481
0.586588 -0.038226 0.190062
0.565979 0.059862 0.124687
0.615784 -0.006611 0.191609
0.637171 0.073957 0.151908
0.641166 0.042615 0.166737
0.618173 -0.065776 0.135782
0.685961 0.027131 0.124804
0.588920 -0.081077 0.158467
0.611574 0.011078 0.160669
0.539641 -0.009980 0.139520
0.673429 0.057990 0.112384
0.567218 -0.049011 0.159374
0.656090 0.015535 0.147977
0.686663 0.007176 0.118300
0.636345 0.027785 0.143565
0.631418 0.027967 0.167257
0.604989 -0.068367 0.182912
0.547096 0.061817 0.149313
0.662877 0.084192 0.147685
0.557741 -0.047869 0.180429
0.539810 0.043544 0.123373
0.641515 -0.018382 0.179158
0.602509 -0.035021 0.148798
0.537052 0.028718 0.165395
0.660090 -0.010645 0.147474
0.679864 0.015183 0.097922
0.531840 0.012315 0.152318
0.646587 0.015699 0.168743
0.683927 0.038830 0.110528
0.647492 0.095227 0.142795
0.531448 0.042263 0.150144
0.647499 -0.058321 0.151236
0.671537 0.010263 0.149157
0.628466 0.052813 0.167534
0.542960 -0.021793 0.162818
0.640027 -0.033576 0.154081
0.651095 0.049767 0.132373
0.571244 -0.012449 0.161439
0.664069 0.037272 0.151524
0.603433 0.020946 0.177414
0.682084 -0.003021 0.129570
0.635924 -0.005530 0.148807
0.611185 -0.037220 0.188397
0.598102 0.006964 0.172428
0.551678 0.056410 0.119198
0.625126 0.004088 0.163928
0.550283 -0.031600 0.179995
0.587244 -0.000999 0.188462
0.647550 0.037411 0.147710
0.564014 0.070168 0.138834
0.599487 -0.056093 0.141550
0.633238 -0.051565 0.176275
0.630574 0.041061 0.150957
0.581328 -0.076925 0.173332
0.537841 -0.005435 0.175026
0.565358 -0.019866 0.185957
0.658787 0.028218 0.140690
0.645526 0.054331 0.156850
0.614102 0.010951 0.192020
0.662865 0.069834 0.113616
0.640325 -0.066948 0.161563
0.643255 0.008389 0.148973
0.668052 0.052083 0.128554
0.644506 0.074499 0.164549
0.636611 -0.048699 0.137447
0.584107 -0.050984 0.196555
0.684677 0.011629 0.142078
0.551986 0.047231 0.142074
0.671292 0.050382 0.096075
0.622456 -0.023101 0.147516
0.559892 -0.057357 0.168552
0.616306 0.031594 0.173468
0.598456 -0.010132 0.194575
0.523016 0.019879 0.139993
0.658476 0.016127 0.129130
0.577146 -0.072587 0.196700
0.586423 -0.016375 0.158136
0.543097 0.016955 0.170038
0.645677 0.017416 0.138533
0.675167 0.039709 0.136162
0.672914 0.027864 0.098944
0.617943 -0.077048 0.167470
0.656660 -0.048050 0.162107
0.579812 -0.042297 0.156540
0.674615 0.022178 0.130691
0.632551 -0.071207 0.151082
0.540538 0.024852 0.152805
0.657397 -0.007536 0.134523
0.565888 -0.031635 0.166091
0.526611 -0.011527 0.147210
0.675473 -0.015618 0.143438
0.547669 0.016382 0.134825
0.541500 0.028735 0.129003
0.692348 0.019082 0.115987
0.685144 0.034797 0.096600
0.537989 0.039085 0.137720
0.660703 0.097080 0.146377
0.601983 -0.083127 0.158692
0.562177 0.072383 0.125380
0.660448 -0.031418 0.147877
0.622203 0.016622 0.166267
0.523854 0.003425 0.157576
0.651138 0.068820 0.145604
0.650256 -0.040827 0.171565
0.530635 -0.018541 0.160576
0.541065 0.002318 0.134556
0.663119 0.001074 0.142972
0.648675 -0.003122 0.146771
0.680018 0.070733 0.119236
0.613468 -0.054988 0.140972
0.556397 0.057466 0.133665
0.631019 -0.013408 0.184470
0.670604 -0.011005 0.154629
0.625536 0.029285 0.156084
0.634048 0.065530 0.160780
0.620739 0.005923 0.178410
0.535770 0.041186 0.161922
0.641181 0.084513 0.146337
0.596512 -0.078620 0.181393
0.554421 0.010785 0.158954
0.634705 0.011940 0.165549
0.621872 0.049612 0.156273
0.561807 -0.060391 0.186509
0.669929 0.046804 0.116627
0.672468 -0.000096 0.122203
0.627500 0.027237 0.182803
0.610741 0.025227 0.162004
0.598994 -0.039834 0.186622
0.568979 -0.070266 0.149643
0.654063 0.088986 0.131741
0.607439 -0.014466 0.148066
0.638498 0.048360 0.177219
0.575358 -0.042158 0.193619
0.673421 0.034235 0.114664
0.678723 0.058686 0.125188
0.629466 -0.003087 0.172770
0.647560 0.018361 0.156906
0.562215 -0.029493 0.179116
0.650408 0.003341 0.157460
0.549403 -0.012846 0.175720
0.548530 -0.022869 0.147078
0.537874 0.052912 0.149752
0.616540 -0.066578 0.176711
0.609715 0.010397 0.178082
0.688546 0.024508 0.091681
0.592756 0.007516 0.161834
0.590349 -0.027018 0.154629
0.684245 0.031048 0.137382
0.548049 0.034590 0.160090
0.605412 0.001326 0.163126
0.661404 0.042230 0.131810
0.582876 0.003992 0.178727
0.642235 0.028835 0.153780
0.630731 -0.007294 0.159202
0.549487 0.001363 0.154024
0.676175 0.013696 0.122780
0.554691 -0.010621 0.163808
0.665461 0.022015 0.150511
0.609310 -0.073735 0.145805
0.541747 0.055821 0.125258
0.660910 0.061256 0.129220
0.567441 -0.048932 0.171243
0.657546 0.077193 0.157854
