ply
format ascii 1.0
element vertex 256
property float x
property float y
property float z
end_header
0.653500 -0.052416 0.193932
0.551330 0.035367 0.140033
0.671450 0.065467 0.157946
0.547965 -0.080584 0.216413
0.618254 0.027745 0.223203
0.537446 -0.036632 0.156224
0.599454 -0.037648 0.235775
0.678111 -0.001048 0.156730
0.603073 -0.090309 0.185832
0.637733 0.075127 0.202199
0.656056 -0.000240 0.203385
0.586665 -0.004140 0.202628
0.549140 -0.033960 0.202244
0.588758 -0.095708 0.233806
0.642069 0.032795 0.175925
0.543816 0.004955 0.172662
0.629032 -0.079327 0.218893
0.582573 -0.057444 0.198092
0.620856 -0.029085 0.188588
0.637224 -0.029097 0.225090
0.665071 0.016433 0.125673
0.544492 -0.001936 0.135701
0.563459 -0.052490 0.235129
0.575097 -0.104898 0.202516
0.677179 0.032087 0.167912
0.606165 -0.002624 0.235664
0.654975 -0.020388 0.174826
0.624048 0.006149 0.194913
0.623552 -0.065172 0.184598
0.525414 -0.023247 0.184009
0.623973 0.047400 0.197049
0.542087 -0.055437 0.180922
0.570012 -0.024945 0.223258
0.679775 -0.008323 0.186758
0.597905 -0.067156 0.230505
0.670695 0.043139 0.137994
0.648693 0.087579 0.177841
0.665293 -0.027774 0.200875
0.593700 -0.031994 0.199290
0.555033 -0.020161 0.174709
0.575594 -0.079664 0.213376
0.657104 0.009946 0.170425
0.562146 0.011056 0.151937
0.562882 -0.091987 0.240951
0.658038 0.054585 0.178724
0.650362 0.026413 0.200829
0.644358 -0.057782 0.219231
0.555112 -0.059291 0.203022
0.608511 -0.095888 0.217006
0.607951 -0.047564 0.213797
0.526373 -0.013238 0.160667
0.638254 0.042071 0.217068
0.602789 0.014957 0.208468
0.634811 -0.012996 0.206589
0.670381 0.014980 0.190642
0.537416 0.020703 0.155160
0.604602 -0.016240 0.214386
0.673478 0.020790 0.147317
0.631965 -0.085836 0.196881
0.588536 -0.017434 0.238359
0.654982 0.046765 0.157303
0.561311 -0.084469 0.196006
0.557454 0.015615 0.129513
0.623759 -0.055628 0.228172
0.643388 -0.031070 0.197085
0.603009 -0.051909 0.192660
0.636230 0.061660 0.185092
0.555665 -0.042432 0.169867
0.639630 -0.003769 0.183378
0.553838 -0.011914 0.152538
0.638452 0.008443 0.212445
0.617846 -0.021845 0.230281
0.617112 0.001239 0.216180
0.616886 0.027454 0.197923
0.571813 -0.055084 0.216023
0.569471 -0.072444 0.236788
0.683933 0.010138 0.175575
0.572974 -0.031147 0.200889
0.656197 -0.040130 0.214448
0.577684 -0.036788 0.237741
0.630882 -0.046714 0.188088
0.646008 -0.073731 0.204773
0.660543 0.031896 0.183802
0.535144 -0.047572 0.198365
0.595432 -0.071361 0.192270
0.590039 -0.107724 0.218172
0.592448 0.002631 0.220265
0.642914 0.055118 0.203068
0.657116 0.027210 0.156927
0.669868 0.001691 0.139298
0.643975 -0.066519 0.185196
0.541505 -0.015536 0.190875
0.672749 -0.014043 0.169944
0.530716 0.002489 0.151005
0.584204 -0.054514 0.233601
0.537709 -0.037150 0.180030
0.556322 -0.063850 0.222032
0.633562 0.021202 0.189223
0.659217 -0.038039 0.183743
0.612927 -0.013991 0.198055
0.651256 0.072963 0.188801
0.592850 -0.097538 0.203366
0.662113 -0.010950 0.189814
0.568153 0.025926 0.139216
0.529746 -0.005266 0.176164
0.553711 -0.028521 0.158515
0.541140 0.015077 0.138556
0.606084 -0.082641 0.228272
0.558962 -0.041546 0.222166
0.651859 0.011597 0.186950
0.619107 -0.039264 0.231874
0.629936 0.025378 0.210700
0.672129 0.045798 0.155891
0.537105 -0.013856 0.145709
0.634455 0.079830 0.185956
0.579927 -0.010969 0.224295
0.623733 -0.029299 0.214508
0.574234 -0.015405 0.207489
0.663071 0.006825 0.154053
0.545592 -0.048978 0.212576
0.556138 -0.035339 0.186904
0.528469 0.008549 0.166704
0.628065 0.054205 0.211784
0.535806 -0.023189 0.170198
0.558416 0.026868 0.155746
0.603778 -0.000839 0.203280
0.672622 0.016187 0.163898
0.653973 -0.016510 0.205807
0.581470 -0.085463 0.199308
0.569085 -0.046841 0.199142
0.610724 -0.075082 0.183388
0.534330 -0.031344 0.196301
0.619284 0.039355 0.212020
0.679435 0.014863 0.133522
0.546852 0.006511 0.151435
0.574079 -0.070855 0.198814
0.656187 0.063311 0.161763
0.646478 -0.016130 0.190580
0.618798 -0.096707 0.205080
0.665084 0.043057 0.169708
0.608607 -0.050895 0.233218
0.685624 0.012027 0.152108
0.542930 -0.009503 0.163404
0.659671 -0.005348 0.170320
0.648362 0.039607 0.189143
0.656374 -0.057319 0.209692
0.625254 0.013576 0.220286
0.550545 -0.048233 0.193544
0.669551 0.002373 0.182094
0.615255 -0.070496 0.228590
0.605726 0.009928 0.222518
0.640944 0.015673 0.177212
0.584041 -0.093908 0.217687
0.671756 -0.023011 0.188179
0.616811 -0.089724 0.191781
0.638494 -0.000143 0.199866
0.539858 -0.046179 0.167404
0.647589 0.045652 0.170860
0.561545 -0.077510 0.209403
0.551389 0.016110 0.162950
0.638766 -0.044902 0.200398
0.556991 -0.052296 0.180589
0.640240 -0.043263 0.223279
0.597590 -0.011009 0.227362
0.617122 0.013359 0.206454
0.582739 -0.067323 0.240301
0.627184 0.061418 0.198205
0.662468 0.037798 0.148757
0.636990 0.042017 0.202698
0.656311 0.025605 0.171610
0.660981 0.013140 0.139027
0.623988 -0.015334 0.217652
0.675020 0.023634 0.180438
0.578123 -0.089542 0.240671
0.545772 -0.006199 0.181467
0.529472 -0.036083 0.167533
0.649155 0.011518 0.201003
0.586185 -0.020748 0.203123
0.553601 -0.021933 0.188911
0.676852 0.032590 0.153486
0.558595 0.029838 0.129782
0.645386 0.084148 0.194068
0.631696 -0.018022 0.194262
0.667397 0.056756 0.169101
0.599801 -0.015022 0.201825
0.662435 0.058491 0.150739
0.557607 -0.043445 0.206482
0.604713 -0.029558 0.192134
0.553405 0.018044 0.142593
0.622398 -0.002990 0.204242
0.626793 -0.011309 0.229701
0.554514 -0.000588 0.143777
0.606025 -0.098160 0.204342
0.637242 0.063222 0.211608
0.632707 -0.063035 0.222686
0.588720 -0.043736 0.198123
0.649722 0.067820 0.200403
0.578267 -0.064058 0.209608
0.620285 -0.053409 0.190377
0.628796 0.035434 0.222433
0.643677 0.075945 0.176632
0.678197 -0.002684 0.169577
0.598846 -0.093779 0.226587
0.544086 -0.023874 0.148344
0.662693 -0.039571 0.197725
0.562164 -0.079298 0.229347
0.649431 -0.008993 0.177700
0.637891 0.018827 0.203711
0.664944 0.002277 0.193646
0.626066 0.035159 0.194601
0.596882 -0.054848 0.230871
0.546605 0.026249 0.148766
0.604970 -0.003693 0.220865
0.573276 -0.059558 0.236663
0.667616 0.022805 0.135763
0.591824 -0.008500 0.215392
0.567007 -0.067052 0.217184
0.648791 -0.028176 0.186636
0.630333 0.009837 0.185252
0.655457 0.022825 0.189901
0.558050 -0.052404 0.214506
0.616111 -0.027685 0.199560
0.624473 -0.090991 0.213942
0.524020 -0.016969 0.173910
0.637828 -0.081582 0.211106
0.652337 -0.064785 0.199994
0.646279 -0.007567 0.207676
0.630342 -0.074214 0.180869
0.527020 -0.025096 0.161273
0.566668 -0.062042 0.202807
0.599179 -0.022706 0.238491
0.666081 -0.024007 0.173173
0.576916 -0.063562 0.222527
0.686144 0.013642 0.163769
0.641979 -0.068665 0.215417
0.666190 0.028392 0.165856
0.635485 0.052920 0.192863
0.607155 -0.016110 0.231662
0.611279 0.025002 0.214298
0.539846 0.011430 0.163858
0.532437 -0.045615 0.185930
0.669259 -0.016063 0.197355
0.638182 -0.073262 0.196289
0.667810 0.003794 0.164133
0.572394 -0.089137 0.193201
0.538264 0.000352 0.159675
0.547190 -0.045120 0.181305
0.658260 0.043384 0.181344
0.557783 -0.031083 0.172409
0.670588 0.032476 0.142721
0.552252 0.006798 0.135381
0.642681 0.004981 0.190614
0.645322 0.061061 0.192392
0.679494 0.007924 0.142517
0.532637 -0.014586 0.183601
0.617706 -0.079750 0.222646
