ply
format ascii 1.0
element vertex 256
property float x
property float y
property float z
end_header
0.516775 0.025713 0.146927
0.463037 0.164407 0.126588
0.584755 0.128210 0.112363
0.411874 0.049064 0.176712
0.524791 0.111821 0.178887
0.422519 0.120355 0.167832
0.573803 0.060043 0.124737
0.478519 0.062007 0.192853
0.454089 0.016192 0.142012
0.557946 0.146496 0.153815
0.540808 0.097917 0.132715
0.496315 0.070936 0.146990
0.563928 0.085631 0.084307
0.441736 0.015832 0.190827
0.539705 0.062972 0.162846
0.451252 0.069196 0.156418
0.484042 0.012194 0.173227
0.427614 0.138529 0.129598
0.413753 0.084695 0.148982
0.486647 0.104736 0.164520
0.439800 0.065744 0.194644
0.577958 0.096633 0.130190
0.538410 0.055937 0.126946
0.423564 0.015584 0.160497
0.509972 0.048808 0.175318
0.500860 0.089803 0.192761
0.440487 0.106679 0.141606
0.451822 0.145475 0.152364
0.483501 0.041196 0.139993
0.532191 0.124946 0.150063
0.570538 0.154468 0.125637
0.420231 0.089311 0.179471
0.517284 0.084410 0.165892
0.564983 0.075368 0.150151
0.457808 0.087568 0.182728
0.463002 0.036927 0.187280
0.558779 0.117304 0.120679
0.582659 0.100272 0.101779
0.542525 0.037408 0.149819
0.413143 0.111173 0.139425
0.558644 0.078866 0.111098
0.544246 0.093189 0.159842
0.492630 0.013309 0.141438
0.479824 0.051257 0.167439
0.518806 0.053880 0.146247
0.436475 0.037117 0.171661
0.459116 0.137395 0.124909
0.421097 0.030862 0.199914
0.560946 0.108760 0.145912
0.458078 0.007245 0.172616
0.546011 0.124755 0.171836
0.507163 0.023236 0.170863
0.442422 0.103683 0.169958
0.530420 0.076190 0.140860
0.491925 0.079633 0.171262
0.426358 0.068288 0.166810
0.456075 0.045868 0.149303
0.510646 0.112853 0.160059
0.560173 0.052137 0.144663
0.491056 0.035141 0.183216
0.555077 0.137514 0.132620
0.478534 0.084832 0.196531
0.420623 0.040370 0.155321
0.473977 0.071420 0.156978
0.514614 0.072783 0.185167
0.576751 0.073898 0.098750
0.469998 0.004917 0.153024
0.437313 0.128612 0.150198
0.526112 0.034328 0.167367
0.443918 0.154452 0.133650
0.470271 0.148065 0.140700
0.434683 0.088898 0.152542
0.554445 0.072682 0.131620
0.447090 0.059162 0.174836
0.576229 0.120793 0.131905
0.435831 0.045239 0.195563
0.439845 0.082459 0.173826
0.466185 0.096806 0.166283
0.552466 0.126284 0.152340
0.420185 0.102668 0.156660
0.564281 0.100284 0.111052
0.459854 0.072840 0.196430
0.443287 0.124791 0.131567
0.436317 0.005367 0.174967
0.525261 0.094254 0.150762
0.501691 0.047902 0.137669
0.559135 0.092176 0.128467
0.442567 0.030306 0.148400
0.504992 0.102652 0.179326
0.555945 0.056542 0.119132
0.544087 0.062922 0.144258
0.419237 0.129909 0.144431
0.528770 0.036435 0.136838
0.479993 0.096713 0.181877
0.457040 0.054340 0.191562
0.514467 0.066166 0.162228
0.500803 0.009878 0.157977
0.474060 0.150269 0.121047
0.501485 0.093396 0.161444
0.475112 0.017163 0.136843
0.537157 0.109131 0.165360
0.442711 0.013751 0.160144
0.570937 0.144099 0.140491
0.577125 0.112153 0.115676
0.423790 0.095756 0.138879
0.547655 0.082382 0.145828
0.572903 0.079592 0.132987
0.434469 0.051576 0.161294
0.507695 0.038922 0.154571
0.495901 0.072870 0.192407
0.446859 0.116235 0.158277
0.462812 0.019540 0.184223
0.456873 0.160432 0.144883
0.427418 0.059669 0.181945
0.560104 0.069390 0.096292
0.494851 0.051587 0.187490
0.532027 0.077932 0.158670
0.443784 0.144392 0.119759
0.472222 0.051504 0.149994
0.427653 0.118440 0.129369
0.435445 0.146755 0.148261
0.575474 0.079025 0.116406
0.558455 0.154857 0.136836
0.529128 0.123292 0.166311
0.422191 0.085112 0.162916
0.519395 0.100292 0.168365
0.543544 0.139864 0.150531
0.550282 0.112172 0.134217
0.451804 0.084034 0.163100
0.568014 0.063875 0.110192
0.532134 0.047892 0.156266
0.546101 0.044399 0.135091
0.583754 0.092356 0.115326
0.480220 0.046157 0.189434
0.459540 0.151843 0.115281
0.565426 0.089377 0.142695
0.566919 0.107728 0.130902
0.552539 0.068746 0.156464
0.414322 0.117152 0.155158
0.475783 0.161466 0.134533
0.461464 0.033072 0.142909
0.423661 0.135928 0.157725
0.476610 0.025965 0.184042
0.568306 0.086741 0.098821
0.504867 0.082573 0.179023
0.525884 0.111254 0.150128
0.437486 0.020389 0.175127
0.423315 0.102984 0.173980
0.439061 0.127203 0.165047
0.425225 0.074448 0.180858
0.517781 0.076182 0.151663
0.444058 0.079273 0.187760
0.555326 0.135377 0.163792
0.569671 0.126461 0.116528
0.446280 0.137943 0.137360
0.565258 0.133124 0.150370
0.567626 0.066219 0.139103
0.498597 0.026181 0.138079
0.450130 0.043397 0.198164
0.495139 0.055180 0.148281
0.556921 0.095216 0.153240
0.424747 0.046522 0.170648
0.541388 0.102988 0.146067
0.517925 0.019293 0.162359
0.531476 0.054868 0.139807
0.483460 0.005985 0.157210
0.435659 0.025917 0.198547
0.485811 0.089776 0.163675
0.472855 0.084678 0.161519
0.528618 0.065182 0.153920
0.457210 0.150250 0.134596
0.507390 0.060925 0.185021
0.471325 0.006710 0.168587
0.540474 0.072298 0.132169
0.546899 0.051302 0.151219
0.504777 0.071478 0.170416
0.492660 0.090404 0.179716
0.448597 0.053147 0.158193
0.547939 0.084686 0.131857
0.411007 0.099623 0.146156
0.457507 0.135927 0.144606
0.531385 0.089372 0.137115
0.439776 0.066766 0.166505
0.435210 0.114899 0.168804
0.519715 0.100173 0.182592
0.530427 0.032138 0.150576
0.533782 0.088407 0.166504
0.567246 0.089513 0.118411
0.547913 0.116462 0.161796
0.454084 0.007002 0.160137
0.475021 0.163337 0.120923
0.517976 0.061293 0.173860
0.411973 0.092522 0.160037
0.429724 0.106309 0.133283
0.585580 0.120399 0.122594
0.566123 0.053590 0.133319
0.474844 0.028915 0.142066
0.495145 0.024683 0.176977
0.447297 0.133181 0.156795
0.464011 0.063434 0.156009
0.564250 0.073833 0.123542
0.434338 0.093659 0.171407
0.482983 0.078534 0.151662
0.502592 0.059049 0.169979
0.549615 0.147148 0.142274
0.542402 0.131885 0.160178
0.451110 0.013166 0.182913
0.517178 0.102255 0.155924
0.521215 0.122508 0.155480
0.572755 0.077303 0.087221
0.425743 0.042953 0.188582
0.522353 0.049690 0.173307
0.436932 0.103614 0.153073
0.505866 0.082060 0.159038
0.467897 0.048254 0.187900
0.428036 0.031206 0.151639
0.501725 0.106129 0.165297
0.561075 0.145965 0.125957
0.512349 0.091379 0.174753
0.434074 0.078885 0.163573
0.537351 0.115665 0.175717
0.445223 0.054846 0.195347
0.579442 0.109685 0.128051
0.437114 0.072019 0.180281
0.434306 0.122557 0.140154
0.433022 0.149046 0.136627
0.427184 0.081030 0.147477
0.510299 0.015047 0.152876
0.445056 0.155481 0.145504
0.512937 0.111072 0.171651
0.538237 0.115028 0.152860
0.554233 0.093260 0.141217
0.441268 0.143291 0.158661
0.557282 0.082097 0.099716
0.439374 0.112715 0.130569
0.556837 0.105218 0.125144
0.424605 0.120151 0.150098
0.569602 0.158755 0.136611
0.434994 0.051544 0.173690
0.509097 0.060472 0.146993
0.507112 0.037512 0.176797
0.494114 0.097937 0.170830
0.579944 0.085862 0.126032
0.464124 0.013036 0.147069
0.449996 0.155246 0.121030
0.460496 0.076278 0.156239
0.563928 0.118950 0.131742
0.571063 0.099920 0.101302
0.564514 0.152538 0.146407
0.556954 0.063564 0.142632
0.522201 0.044204 0.151684
0.554456 0.067799 0.121106
0.542767 0.127065 0.146032
0.534492 0.043227 0.129512
0.529456 0.101603 0.173732
0.439997 0.116364 0.147930
