ply
format ascii 1.0
element vertex 256
property float x
property float y
property float z
end_header
0.543471 0.009375 0.209801
0.591927 0.139095 0.181082
0.457549 0.108921 0.175615
0.438327 0.021295 0.242561
0.585370 0.054335 0.136020
0.537090 0.092990 0.233333
0.523302 0.115514 0.154541
0.489519 0.046268 0.205614
0.584748 0.061865 0.201082
0.489403 -0.014026 0.220197
0.442705 0.069500 0.211902
0.524226 0.047052 0.240588
0.593347 0.093166 0.165452
0.455154 0.012690 0.199018
0.575791 0.110648 0.213469
0.466360 0.065606 0.172314
0.481638 0.067248 0.243668
0.483127 0.020671 0.243204
0.543489 0.059836 0.206797
0.484853 0.102388 0.146241
0.503699 0.082756 0.213645
0.569635 0.028322 0.188113
0.502842 0.010150 0.194021
0.597869 0.045523 0.171664
0.517091 0.011023 0.235750
0.454760 -0.012567 0.223360
0.560669 0.086250 0.193430
0.497098 0.112957 0.176089
0.472486 0.085644 0.198860
0.573352 0.066841 0.166733
0.457838 0.036024 0.221217
0.524990 0.035636 0.197272
0.511346 0.075465 0.243896
0.562348 0.032550 0.217024
0.572796 0.116107 0.183884
0.445253 0.084836 0.186719
0.543877 0.105540 0.207448
0.457779 0.087324 0.156441
0.588146 0.090511 0.196704
0.562847 0.076666 0.219107
0.520524 -0.006194 0.215014
0.467509 0.044524 0.245943
0.580768 0.081875 0.144606
0.478364 0.092202 0.172084
0.436103 0.025738 0.211000
0.561505 0.052955 0.186561
0.515952 0.058740 0.219241
0.462653 0.060610 0.225718
0.504402 0.035841 0.223376
0.443970 0.059910 0.184092
0.538809 0.022808 0.233753
0.528896 0.079035 0.213378
0.472815 -0.001083 0.235546
0.478950 0.018222 0.201329
0.499395 0.120922 0.152618
0.594452 0.070527 0.178389
0.477327 0.118974 0.163264
0.590597 0.038440 0.194173
0.497615 0.049357 0.244278
0.558963 0.099045 0.224750
0.608677 0.109929 0.170376
0.579828 0.045825 0.157067
0.581474 0.129486 0.200083
0.460085 0.058376 0.202613
0.496278 0.002782 0.233932
0.564381 0.054617 0.217257
0.594043 0.062585 0.154926
0.474828 -0.002956 0.205189
0.458161 0.015500 0.228808
0.540893 0.034055 0.213586
0.536916 0.059298 0.228171
0.493659 0.080524 0.232582
0.501229 0.097761 0.158044
0.474334 0.106084 0.187090
0.572250 0.043384 0.201704
0.480931 0.064705 0.206245
0.503323 0.025799 0.241029
0.527042 0.008317 0.198056
0.577271 0.080213 0.182074
0.562716 0.119248 0.200892
0.592536 0.104548 0.181742
0.554161 0.022835 0.199297
0.534859 0.004242 0.228063
0.510735 0.051412 0.201602
0.577982 0.045118 0.176759
0.562522 0.067525 0.199796
0.494875 -0.007708 0.196476
0.457712 0.097906 0.194220
0.515252 0.089023 0.227990
0.458744 0.026931 0.244336
0.552140 0.044022 0.201747
0.474072 0.035828 0.206359
0.547157 0.086248 0.215933
0.495795 0.030097 0.198828
0.573478 0.086505 0.207419
0.449423 -0.001985 0.208730
0.447639 0.047181 0.210833
0.525854 0.073384 0.231847
0.584395 0.124284 0.172496
0.448870 0.047986 0.231292
0.512647 0.127851 0.162593
0.452385 0.082499 0.204204
0.458843 0.090112 0.176280
0.450179 0.071456 0.167545
0.501450 0.064679 0.208984
0.467041 0.105242 0.159198
0.592599 0.121281 0.189185
0.513986 0.023063 0.202042
0.591880 0.054682 0.185157
0.509650 0.109495 0.144616
0.597229 0.087915 0.181880
0.563238 0.102530 0.197642
0.478630 0.073010 0.228000
0.463626 0.069365 0.190223
0.510621 -0.006216 0.228710
0.513878 0.110433 0.167565
0.474847 0.077902 0.180131
0.577938 0.066189 0.149650
0.586973 0.075545 0.162720
0.546401 0.074238 0.199019
0.467139 0.048908 0.214937
0.548023 0.071271 0.225956
0.460674 0.019645 0.213074
0.574678 0.064892 0.187475
0.470393 0.078581 0.163112
0.547865 0.048354 0.222733
0.466699 0.002657 0.217952
0.490462 0.035504 0.240127
0.460450 0.055059 0.183611
0.455599 -0.004675 0.237326
0.557775 0.017474 0.214198
0.586179 0.056960 0.169789
0.488345 0.107376 0.163194
0.496556 0.126554 0.167197
0.560276 0.112654 0.216179
0.488407 0.078626 0.212823
0.507498 -0.009822 0.205838
0.580629 0.111010 0.198378
0.514578 -0.000611 0.194067
0.573954 0.093859 0.189716
0.531491 0.094527 0.213586
0.572946 0.027496 0.203386
0.509717 0.071710 0.228816
0.529868 0.052241 0.207282
0.536873 0.038875 0.236680
0.592815 0.048285 0.149185
0.514702 0.060621 0.245497
0.443258 0.059852 0.199303
0.481791 0.118420 0.177787
0.575551 0.131038 0.183298
0.483643 0.091804 0.157849
0.544155 0.101838 0.223433
0.496758 0.072438 0.245282
0.581225 0.096890 0.173344
0.454807 0.012847 0.246833
0.548831 0.093128 0.201048
0.587741 0.074864 0.191057
0.464729 0.074370 0.204280
0.547643 0.011404 0.226867
0.576090 0.074001 0.199960
0.606122 0.094716 0.172438
0.525234 0.044613 0.226219
0.473063 0.030629 0.246800
0.468986 0.061557 0.239322
0.515634 0.033368 0.241886
0.536638 0.019750 0.216957
0.516772 0.070583 0.211232
0.441227 0.015750 0.198938
0.456638 0.067035 0.213525
0.459641 0.034186 0.207224
0.486914 0.003300 0.200650
0.557299 0.034877 0.190398
0.446530 0.028373 0.233481
0.476812 0.051655 0.203234
0.551124 0.057346 0.194848
0.573588 0.061870 0.209280
0.602168 0.102299 0.159938
0.536780 0.067934 0.215567
0.591860 0.074360 0.147170
0.534368 0.060295 0.241531
0.443972 0.072269 0.193884
0.559789 0.095829 0.208905
0.448988 0.028954 0.213607
0.534401 0.000248 0.213753
0.581597 0.050576 0.194516
0.456656 0.098601 0.164424
0.484058 0.005745 0.238050
0.509021 0.046807 0.238148
0.459110 0.052106 0.239161
0.573563 0.122465 0.207948
0.556104 0.080648 0.208094
0.497384 0.106835 0.149353
0.536542 0.080457 0.229116
0.594873 0.108072 0.169352
0.530575 0.020736 0.200060
0.480944 -0.008783 0.228660
0.451742 0.054917 0.220606
0.564373 0.072873 0.187974
0.475806 0.104736 0.169573
0.493890 -0.007538 0.209412
0.535519 0.045996 0.217138
0.447690 0.086090 0.171140
0.455250 0.065891 0.178933
0.486942 0.117355 0.154838
0.576198 0.079681 0.156442
0.520798 0.083887 0.241614
0.558070 0.044191 0.213328
0.595809 0.127091 0.177530
0.554746 0.062960 0.216492
0.577236 0.053791 0.146697
0.598425 0.057037 0.166210
0.529000 0.014940 0.233835
0.548921 0.091335 0.229468
0.478930 0.091797 0.184607
0.502022 0.012859 0.238684
0.437411 0.027675 0.223295
0.489553 0.014582 0.195819
0.467555 0.043513 0.226190
0.582401 0.036340 0.203442
0.513573 0.104030 0.155104
0.476226 0.109678 0.151434
0.522800 -0.003843 0.228014
0.502611 0.102812 0.169226
0.579567 0.034372 0.182602
0.526259 0.086806 0.222565
0.567466 0.041636 0.182053
0.525903 0.072893 0.244075
0.593864 0.059918 0.142813
0.468259 0.090404 0.165456
0.517626 0.078185 0.222143
0.502987 0.116685 0.164093
0.514317 0.121471 0.148938
0.479659 -0.009634 0.214436
0.568336 0.101400 0.215657
0.527292 0.031622 0.237714
0.580380 0.058597 0.158668
0.587993 0.132801 0.190646
0.472118 0.092086 0.154350
0.598358 0.044191 0.183423
0.590061 0.080799 0.172843
0.451355 0.098256 0.184283
0.532211 0.040892 0.204977
0.574481 0.120454 0.194907
0.573603 0.035880 0.211632
0.464363 0.003745 0.206488
0.552818 0.031535 0.210250
0.516763 0.063325 0.232848
0.475486 0.053035 0.245655
0.573311 0.053049 0.186847
0.551948 0.108110 0.199591
0.594059 0.045967 0.160794
0.454023 0.067646 0.197100
0.492084 0.102633 0.173830
0.571150 0.072936 0.212128
0.587951 0.040150 0.173504
0.476748 0.040954 0.240312
