ply
format ascii 1.0
element vertex 256
property float x
property float y
property float z
end_header
0.654198 -0.044357 0.147534
0.550505 0.066578 0.131758
0.676199 0.075825 0.110313
0.547557 -0.062137 0.174887
0.628324 0.038239 0.180059
0.530845 0.008303 0.170493
0.695823 0.011756 0.133334
0.604127 -0.025245 0.192450
0.599768 -0.076645 0.141267
0.649387 0.084649 0.158234
0.679291 0.028764 0.086412
0.648477 0.031094 0.132270
0.618291 -0.010092 0.146958
0.587373 -0.081828 0.189796
0.576965 -0.028629 0.155391
0.662215 -0.001696 0.161302
0.628340 -0.069273 0.173156
0.527479 0.029173 0.133463
0.535377 -0.026929 0.149469
0.596281 0.017545 0.164131
0.633717 -0.001699 0.185524
0.566797 -0.036293 0.193367
0.670951 -0.015800 0.129145
0.680751 0.044063 0.125179
0.571293 -0.088727 0.159072
0.551709 0.003843 0.143244
0.548096 0.043402 0.156368
0.640161 -0.037173 0.177134
0.617709 -0.042435 0.139800
0.631359 0.053980 0.151760
0.540681 -0.021888 0.180109
0.575577 -0.009259 0.181764
0.659486 0.097920 0.132868
0.599261 -0.054287 0.186637
0.653245 0.026970 0.161591
0.674451 0.013982 0.112497
0.600484 0.005303 0.189191
0.649922 0.002009 0.136481
0.524605 -0.002116 0.141654
0.636586 -0.064878 0.141561
0.609926 -0.034609 0.167116
0.629944 0.013784 0.155342
0.574947 -0.063977 0.170432
0.556925 0.040214 0.128366
0.669682 0.050740 0.101246
0.562412 -0.075664 0.198362
0.657965 0.058560 0.124403
0.675126 0.025448 0.143992
0.671459 -0.025507 0.154117
0.606141 -0.083585 0.171988
0.645519 -0.020347 0.152021
0.643384 0.058377 0.174146
0.553690 -0.038449 0.166097
0.596159 -0.007903 0.158822
0.553866 -0.001869 0.170617
0.590332 -0.048419 0.148479
0.683301 -0.004802 0.146783
0.659241 0.046009 0.147716
0.554340 0.020578 0.162645
0.615568 0.034417 0.160609
0.619739 0.016383 0.180135
0.694696 0.023161 0.105069
0.628054 -0.018867 0.170129
0.559397 -0.066825 0.153731
0.650136 0.076166 0.136688
0.618495 -0.081190 0.152676
0.536761 0.049789 0.138368
0.646398 -0.056474 0.168375
0.563816 0.053386 0.144694
0.553337 -0.015400 0.153067
0.664604 0.034369 0.114790
0.612603 -0.004637 0.174564
0.670494 0.006369 0.132095
0.575991 -0.041064 0.174861
0.619902 -0.051653 0.182575
0.546868 0.026976 0.141733
0.525062 0.025167 0.154052
0.570780 -0.056795 0.194280
0.654621 0.064122 0.157905
0.640619 -0.001438 0.163974
0.534898 -0.008316 0.158225
0.561038 -0.020684 0.172486
0.582689 -0.022209 0.195569
0.580246 0.002520 0.165472
0.623287 -0.028765 0.187495
0.659174 -0.032966 0.168141
0.586621 -0.093489 0.173863
0.676676 0.064436 0.126536
0.632109 -0.029392 0.137853
0.657540 -0.027467 0.137077
0.583660 -0.067904 0.147340
0.686824 0.043813 0.106754
0.535002 0.010608 0.131933
0.587118 -0.040394 0.190714
0.686674 0.025967 0.121817
0.565820 0.057954 0.125186
0.636928 0.071862 0.151916
0.639693 0.039483 0.164085
0.616179 -0.008660 0.192347
0.619006 -0.067846 0.136562
0.589735 -0.083253 0.159152
0.612007 0.008994 0.161382
0.540210 -0.012367 0.139995
0.567901 -0.051275 0.159964
0.656358 0.013636 0.148472
0.636855 0.025835 0.144434
0.605666 -0.070464 0.183647
0.686149 0.003817 0.120716
0.665230 0.036078 0.134275
0.546918 0.059557 0.149822
0.663383 0.085447 0.144200
0.558344 -0.050160 0.180984
0.539920 0.041213 0.123854
0.642002 -0.020333 0.179994
0.676926 0.028644 0.103369
0.603172 -0.037148 0.149505
0.537330 0.026324 0.165850
0.660636 -0.012527 0.148311
0.532248 0.009888 0.152761
0.632424 0.024410 0.171473
0.646966 0.013716 0.169650
0.646951 0.093106 0.142420
0.648247 -0.060263 0.152116
0.628516 0.050846 0.167828
0.671860 0.008520 0.149611
0.531592 0.039749 0.150625
0.543520 -0.024154 0.163306
0.640665 -0.035547 0.154921
0.571771 -0.014695 0.162022
0.666557 0.020430 0.125379
0.603767 0.018839 0.178092
0.636395 -0.007605 0.149639
0.666308 0.058195 0.137871
0.663888 0.064724 0.111064
0.611716 -0.039289 0.189135
0.598510 0.004833 0.173095
0.551575 0.054278 0.119696
0.659258 0.030474 0.147516
0.625565 0.002063 0.164670
0.550822 -0.033921 0.180515
0.587628 -0.003165 0.189096
0.651625 0.047885 0.133385
0.563694 0.068201 0.139352
0.600261 -0.058235 0.142259
0.633870 -0.053551 0.177101
0.630662 0.038925 0.151377
0.582074 -0.079123 0.173988
0.680324 0.013272 0.098678
0.538275 -0.007822 0.175494
0.565828 -0.022123 0.186523
0.645513 0.052402 0.157051
0.614425 0.008895 0.192741
0.641072 -0.068914 0.162422
0.642417 0.005735 0.148501
0.637369 -0.050693 0.138283
0.584666 -0.053159 0.197205
0.616611 0.029537 0.174186
0.685100 0.009866 0.142854
0.552042 0.045066 0.142556
0.623075 -0.025148 0.148287
0.644341 0.072671 0.164497
0.560576 -0.059646 0.169120
0.598855 -0.012249 0.195253
0.667374 0.048236 0.116873
0.523422 0.017401 0.140407
0.684460 -0.004245 0.132725
0.577792 -0.074789 0.197338
0.586977 -0.018562 0.158776
0.543425 0.014595 0.170515
0.677330 0.059693 0.113380
0.618710 -0.079101 0.168256
0.647348 0.036953 0.144741
0.657327 -0.049949 0.163014
0.681195 0.017867 0.131543
0.644270 0.016888 0.137030
0.580477 -0.044512 0.157171
0.640196 0.044360 0.176870
0.633352 -0.073210 0.151916
0.540877 0.022473 0.153272
0.657934 -0.009478 0.135348
0.566476 -0.033900 0.166666
0.527164 -0.013983 0.147645
0.681996 0.035254 0.135369
0.676049 -0.017428 0.144302
0.548109 0.014036 0.135317
0.660118 0.075348 0.152352
0.695114 0.013528 0.119188
0.541854 0.026424 0.129456
0.691160 0.027218 0.092123
0.538297 0.036687 0.138175
0.678189 0.035220 0.115761
0.625758 0.027161 0.156662
0.602806 -0.085250 0.159425
0.561814 0.070410 0.125902
0.661111 -0.033296 0.148785
0.622594 0.014585 0.167015
0.640501 0.021212 0.161109
0.524294 0.000957 0.157998
0.663491 -0.000810 0.143572
0.650908 0.066786 0.145593
0.650860 -0.042746 0.172445
0.531185 -0.020971 0.161026
0.541583 -0.000064 0.135031
0.614239 -0.057074 0.141730
0.556282 0.055386 0.134163
0.677481 0.042536 0.095314
0.649110 -0.005100 0.147501
0.631467 -0.015398 0.185266
0.671147 -0.012804 0.155474
0.633959 0.063533 0.160933
0.621131 0.003887 0.179158
0.672971 -0.001995 0.123012
0.535936 0.038722 0.162400
0.627858 0.025439 0.183394
0.640783 0.082378 0.146163
0.671408 0.046758 0.136679
0.597236 -0.080752 0.182104
0.651794 0.004215 0.157609
0.554817 0.008483 0.159468
0.635117 0.009953 0.166344
0.621902 0.047454 0.156634
0.562440 -0.062662 0.187087
0.609504 0.024539 0.165323
0.681480 0.054399 0.102348
0.599542 -0.041954 0.187319
0.569782 -0.072528 0.150252
0.653516 0.086776 0.131415
0.608021 -0.016573 0.148778
0.629913 -0.005091 0.173555
0.575891 -0.044369 0.194234
0.562748 -0.031766 0.179677
0.658761 0.023895 0.134011
0.549881 -0.015173 0.176226
0.549146 -0.025206 0.147585
0.537843 0.050502 0.150250
0.617232 -0.068632 0.177486
0.668547 0.071712 0.119505
0.610089 0.008315 0.178789
0.593200 0.005357 0.162482
0.590959 -0.029190 0.155288
0.548320 0.032330 0.160551
0.656060 0.100481 0.143884
0.605877 -0.000781 0.163823
0.583275 0.001802 0.179342
0.668528 0.038564 0.145267
0.549949 -0.000967 0.154526
0.631243 -0.009300 0.159994
0.555188 -0.012920 0.164330
0.665683 0.020228 0.150883
0.610140 -0.075835 0.146559
0.541657 0.053517 0.125760
0.568081 -0.051188 0.171834
0.663037 0.009083 0.157127
0.547857 0.012269 0.150187
0.630285 -0.075672 0.162786
0.659364 0.007952 0.129430
