ply
format ascii 1.0
element vertex 256
property float x
property float y
property float z
end_header
0.646246 -0.042032 0.187942
0.650539 0.097779 0.167273
0.525222 0.022047 0.168159
0.546537 -0.069733 0.227453
0.677281 0.019400 0.126762
0.613336 0.035228 0.216704
0.581051 0.055625 0.143909
0.578316 -0.016013 0.192297
0.592610 -0.074261 0.176589
0.662156 0.020567 0.185297
0.606175 -0.049929 0.221843
0.533338 -0.029054 0.170719
0.644555 0.066902 0.202737
0.665062 0.056033 0.152812
0.623685 -0.003583 0.195165
0.548171 -0.072855 0.183337
0.593190 -0.007626 0.230607
0.555997 -0.030545 0.226795
0.549029 0.030027 0.137684
0.572329 -0.094704 0.205169
0.664496 -0.012904 0.168534
0.610703 -0.040100 0.176632
0.541305 0.000365 0.193772
0.549817 -0.001093 0.155234
0.587147 0.020116 0.198262
0.624989 -0.070808 0.190472
0.687910 0.014898 0.161884
0.649554 0.039237 0.125712
0.560733 0.041659 0.167354
0.629258 0.028037 0.182343
0.558554 -0.042651 0.192511
0.632587 -0.032091 0.216847
0.600165 -0.078283 0.209987
0.656711 0.025328 0.154867
0.655900 -0.015057 0.197314
0.660306 0.050413 0.181964
0.619568 0.055188 0.192398
0.536191 -0.027142 0.205496
0.622237 0.000971 0.223393
0.639309 0.070782 0.175156
0.640896 0.002224 0.171913
0.640319 0.017087 0.205506
0.599463 -0.029576 0.204149
0.566656 -0.067550 0.205305
0.583170 -0.033284 0.226893
0.564731 -0.006503 0.213976
0.537379 -0.059379 0.204781
0.524409 -0.004046 0.163705
0.582587 -0.045959 0.182615
0.548484 0.021399 0.179710
0.600208 -0.001326 0.206787
0.556764 0.051971 0.145048
0.538538 0.041069 0.157421
0.611774 0.017482 0.196013
0.634474 0.042099 0.207737
0.635191 -0.054329 0.208455
0.672570 0.078067 0.158004
0.595017 0.017162 0.220727
0.677915 0.001773 0.181393
0.575475 -0.079029 0.223698
0.600248 -0.014147 0.184409
0.624742 -0.021821 0.180302
0.611589 -0.026058 0.224536
0.645053 0.088047 0.189049
0.668665 0.038029 0.140050
0.570112 -0.082203 0.186784
0.567609 -0.045611 0.212648
0.547271 -0.022184 0.187010
0.625803 -0.055778 0.172834
0.525900 -0.013500 0.184517
0.532683 0.011651 0.149624
0.551891 0.021853 0.157993
0.669897 0.009135 0.144602
0.646368 0.038749 0.168263
0.587709 -0.060416 0.224283
0.617918 -0.066690 0.211082
0.566988 -0.060376 0.184758
0.671889 0.031028 0.168183
0.650846 0.036622 0.196044
0.567448 0.030739 0.147123
0.661315 0.007598 0.169186
0.571016 0.005135 0.198132
0.523445 0.006472 0.182175
0.650649 -0.025233 0.177734
0.607014 0.036905 0.197483
0.563722 -0.057261 0.228404
0.557598 -0.028607 0.207074
0.659409 0.066487 0.168560
0.548172 -0.003216 0.175648
0.643602 0.001381 0.194125
0.636959 -0.019920 0.195719
0.684033 0.022814 0.144673
0.574728 -0.011625 0.230453
0.547146 -0.043724 0.211183
0.618072 -0.016309 0.207649
0.548201 -0.018566 0.165066
0.649197 -0.030486 0.208850
0.605959 -0.075490 0.189331
0.647553 0.021349 0.173949
0.659316 -0.001630 0.185222
0.602131 -0.059048 0.178669
0.567934 0.062384 0.154532
0.638926 0.056773 0.186230
0.628847 0.060014 0.207473
0.585632 -0.081724 0.195315
0.612079 0.014967 0.213544
0.580477 0.011442 0.212643
0.639828 -0.057889 0.192038
0.569195 0.045903 0.134635
0.623039 0.027357 0.204581
0.655923 0.082035 0.177132
0.652387 0.039176 0.145346
0.671108 0.053882 0.169108
0.595294 -0.034705 0.184815
0.627821 0.012961 0.190162
0.575956 0.046282 0.156986
0.605024 0.005305 0.227224
0.673736 0.001507 0.159777
0.539623 0.036151 0.173372
0.678989 0.017366 0.175656
0.628392 0.068952 0.189552
0.639336 -0.017612 0.213589
0.663320 0.022217 0.137540
0.653286 0.073556 0.190705
0.671635 0.017548 0.158776
0.640017 0.085582 0.168603
0.543705 -0.036488 0.193383
0.562874 -0.012090 0.193997
0.655343 0.034440 0.180797
0.656528 -0.030297 0.192467
0.620510 -0.046172 0.215962
0.554161 0.054831 0.160455
0.562715 -0.027722 0.189327
0.553443 0.009812 0.167921
0.551533 -0.057617 0.198490
0.667721 -0.014604 0.183753
0.582731 0.003266 0.227080
0.633548 -0.008639 0.184332
0.538671 0.015926 0.163441
0.629256 0.040740 0.193246
0.649199 0.055090 0.170639
0.647195 0.015030 0.187971
0.602522 0.026641 0.207957
0.618002 0.047510 0.205485
0.599266 -0.034547 0.227079
0.533015 -0.026302 0.189925
0.647818 -0.047506 0.203698
0.609736 0.000357 0.191078
0.661781 0.039468 0.161002
0.535034 -0.011530 0.156222
0.575958 -0.048800 0.230269
0.546760 -0.016600 0.200774
0.661103 0.070028 0.149803
0.570217 -0.026977 0.230445
0.642999 0.043015 0.182557
0.664154 0.040543 0.124640
0.629458 -0.035638 0.179725
0.648787 -0.010039 0.179685
0.554524 -0.019309 0.217850
0.599180 0.010682 0.197577
0.625554 0.012465 0.204354
0.676856 0.064571 0.160339
0.636766 -0.035074 0.196142
0.598085 -0.061629 0.214542
0.637571 0.030306 0.198330
0.536369 0.028555 0.144108
0.634804 0.015704 0.178161
0.538370 0.011874 0.186080
0.550984 -0.059835 0.218393
0.565216 -0.071910 0.230203
0.587478 -0.005373 0.193165
0.650245 0.012821 0.162273
0.592043 -0.022460 0.227550
0.649902 0.028390 0.136841
0.652485 0.059528 0.157825
0.625996 -0.014423 0.218976
0.551807 0.035746 0.157938
0.580716 -0.080600 0.208202
0.612225 -0.008576 0.223301
0.571358 -0.039722 0.200717
0.539423 -0.015013 0.178240
0.641353 0.052123 0.201313
0.532419 -0.011231 0.196391
0.563321 -0.043437 0.230680
0.611401 -0.013622 0.192402
0.631647 -0.066442 0.201654
0.535090 0.023063 0.178504
0.590262 -0.044735 0.226601
0.531826 -0.001114 0.174931
0.670465 0.026653 0.147947
0.666851 0.027665 0.126032
0.550920 0.018835 0.145225
0.635468 0.082049 0.180753
0.559461 0.038489 0.140138
0.666524 0.019325 0.171844
0.658530 0.046619 0.136516
0.612418 -0.077716 0.205646
0.619623 -0.002510 0.211133
0.655013 -0.004276 0.166411
0.612242 -0.065538 0.173736
0.619943 0.030143 0.192375
0.546831 0.043875 0.147964
0.524715 0.008090 0.159400
0.545027 0.047041 0.166787
0.557315 -0.047695 0.204395
0.552194 0.008997 0.180657
0.593390 0.004502 0.219716
0.584209 0.007922 0.196413
0.656644 0.028921 0.169486
0.648819 0.023152 0.198380
0.626983 0.034675 0.214675
0.592446 -0.074104 0.219042
0.547128 -0.028284 0.173028
0.667984 0.009295 0.180699
0.576220 0.041359 0.143869
0.645916 0.095539 0.178619
0.633240 0.000374 0.202042
0.673840 0.068997 0.149147
0.639130 0.077894 0.192981
0.677473 0.029355 0.134096
0.681754 0.011853 0.151607
0.568482 0.034924 0.158694
0.620051 0.024615 0.216274
0.639817 -0.023536 0.184311
0.527585 -0.000893 0.191851
0.532861 -0.000581 0.149903
0.659264 0.009598 0.190058
0.563185 0.048354 0.155451
0.640472 -0.040215 0.212389
0.569850 0.058318 0.140049
0.657604 0.043902 0.172070
0.616217 0.004578 0.201878
0.636935 0.005682 0.184677
0.527386 -0.016377 0.164220
0.539800 0.027290 0.155591
0.592585 0.013166 0.209705
0.680336 0.028052 0.154725
0.549161 -0.010543 0.188632
0.572097 -0.041595 0.188996
0.582593 -0.026677 0.189303
0.579753 -0.075911 0.183893
0.615628 -0.051395 0.176915
0.561375 -0.054048 0.193011
0.590304 -0.053818 0.178632
0.647004 -0.016257 0.189999
0.665513 -0.007606 0.192966
0.625348 0.047107 0.214362
0.634847 0.034584 0.174704
0.605936 -0.074778 0.176376
0.657807 -0.019965 0.187127
0.635746 -0.054889 0.178436
0.575735 -0.089452 0.214744
0.552737 0.010127 0.152400
0.675699 -0.002303 0.170963
0.545710 -0.032871 0.207950
0.658498 0.092747 0.174301
