ply
format ascii 1.0
element vertex 256
property float x
property float y
property float z
end_header
0.464126 0.068497 0.203651
0.542677 0.182225 0.174050
0.405140 0.186983 0.170368
0.365216 0.106104 0.236407
0.514999 0.101604 0.129282
0.478732 0.151154 0.227048
0.470430 0.177485 0.148874
0.420996 0.117605 0.199453
0.516212 0.109125 0.195195
0.405947 0.059224 0.214054
0.381380 0.151809 0.206216
0.535750 0.136152 0.159931
0.454818 0.109777 0.234426
0.379383 0.093586 0.192867
0.520421 0.158709 0.206823
0.403129 0.142886 0.166362
0.418562 0.139895 0.237501
0.408465 0.094401 0.237050
0.476659 0.117381 0.200636
0.429902 0.174423 0.140657
0.443775 0.149445 0.207472
0.493904 0.080364 0.181711
0.424954 0.079309 0.187870
0.525300 0.090071 0.164852
0.438979 0.076637 0.229600
0.372746 0.069221 0.217217
0.499872 0.138708 0.187299
0.444480 0.181168 0.170566
0.414117 0.160398 0.193125
0.505820 0.116745 0.159217
0.386600 0.121393 0.217760
0.452727 0.098514 0.191114
0.449380 0.140496 0.237726
0.488242 0.086331 0.210679
0.518540 0.164630 0.177221
0.387427 0.166433 0.181254
0.488182 0.161579 0.201056
0.521182 0.128843 0.136187
0.399985 0.166293 0.150888
0.527541 0.134476 0.190476
0.499570 0.128883 0.212976
0.438038 0.059100 0.208869
0.421240 0.165765 0.166386
0.491452 0.106194 0.179744
0.364160 0.110951 0.204845
0.449697 0.123143 0.213076
0.432833 0.103821 0.217218
0.399243 0.121381 0.239782
0.380103 0.142613 0.178287
0.470523 0.088143 0.228129
0.382995 0.095573 0.222657
0.467265 0.139604 0.207208
0.526594 0.113289 0.172764
0.403808 0.093051 0.195177
0.448603 0.188675 0.147194
0.426775 0.192092 0.157964
0.516781 0.085051 0.187469
0.429608 0.118604 0.238116
0.398053 0.132430 0.200076
0.501351 0.151627 0.218279
0.507744 0.094765 0.150417
0.393084 0.075878 0.229399
0.530424 0.175546 0.193231
0.416773 0.073809 0.227784
0.552556 0.149694 0.164774
0.525619 0.107513 0.148071
0.495672 0.107333 0.210308
0.394568 0.073556 0.199043
0.470146 0.118493 0.222005
0.401204 0.141920 0.225418
0.467817 0.093010 0.207671
0.433496 0.149775 0.226410
0.444657 0.165701 0.152280
0.420806 0.179965 0.181628
0.454512 0.065663 0.221915
0.500303 0.094364 0.195183
0.429302 0.094365 0.234874
0.447947 0.071539 0.191906
0.535424 0.148503 0.175901
0.509698 0.100910 0.173312
0.403848 0.114288 0.210481
0.509742 0.170213 0.194314
0.401098 0.146977 0.186181
0.417244 0.137595 0.200077
0.514545 0.128771 0.175895
0.497013 0.120109 0.193661
0.442825 0.117331 0.195439
0.477817 0.078886 0.193143
0.412811 0.063982 0.190332
0.402740 0.175958 0.188812
0.456522 0.152658 0.221816
0.386393 0.106507 0.238181
0.387748 0.107721 0.202611
0.486693 0.142097 0.209609
0.480728 0.099890 0.195344
0.423069 0.100382 0.192671
0.512325 0.135778 0.201304
0.370196 0.080792 0.202584
0.519461 0.129048 0.154461
0.462919 0.134887 0.225678
0.531647 0.169673 0.165650
0.510688 0.114971 0.140807
0.463191 0.191951 0.157174
0.401824 0.168415 0.170752
0.393891 0.162148 0.198630
0.388826 0.152570 0.161842
0.437117 0.132487 0.202817
0.413345 0.181374 0.153804
0.539070 0.164822 0.182271
0.438951 0.089060 0.195887
0.455681 0.175189 0.138961
0.382081 0.138058 0.195808
0.453541 0.086418 0.229949
0.524030 0.099935 0.183117
0.538859 0.131940 0.176859
0.428439 0.061536 0.222565
0.460084 0.174697 0.161891
0.506131 0.153878 0.191125
0.417074 0.146218 0.221831
0.414403 0.152620 0.174265
0.483063 0.130610 0.192866
0.394904 0.133909 0.177568
0.483863 0.127334 0.219805
0.518147 0.144056 0.180934
0.410137 0.154639 0.157304
0.478041 0.105176 0.216571
0.388084 0.081011 0.211804
0.419246 0.106953 0.233968
0.375515 0.076664 0.231181
0.480077 0.072829 0.207995
0.434575 0.178129 0.157654
0.447295 0.194611 0.161870
0.505896 0.164473 0.209634
0.525063 0.157832 0.191665
0.427936 0.149232 0.206652
0.424519 0.058809 0.199694
0.397171 0.146957 0.206354
0.433659 0.065975 0.187920
0.473521 0.153963 0.207335
0.497104 0.078795 0.196950
0.446870 0.137255 0.222646
0.461568 0.113396 0.201118
0.501917 0.120084 0.178846
0.505706 0.086144 0.170562
0.400354 0.128963 0.214919
0.385472 0.136278 0.213938
0.520858 0.093940 0.142407
0.448953 0.125283 0.239331
0.518325 0.106411 0.161900
0.431010 0.190226 0.172447
0.523669 0.144387 0.166780
0.524856 0.178430 0.176500
0.426171 0.164327 0.152093
0.487673 0.157968 0.217056
0.434497 0.141178 0.239112
0.383353 0.122014 0.202130
0.379090 0.093839 0.240682
0.489884 0.148312 0.194679
0.514469 0.125525 0.190857
0.385782 0.151361 0.188670
0.468672 0.069434 0.220717
0.455189 0.107160 0.220058
0.401182 0.106543 0.240644
0.443104 0.098648 0.235729
0.536122 0.150519 0.161578
0.460077 0.080244 0.210803
0.453426 0.134413 0.205063
0.366648 0.100001 0.192787
0.407826 0.076621 0.194502
0.483581 0.089750 0.184100
0.374916 0.110927 0.227325
0.482717 0.113017 0.188280
0.410020 0.125972 0.197071
0.380335 0.097042 0.207417
0.506583 0.120991 0.203631
0.396915 0.112560 0.222314
0.472156 0.126890 0.209400
0.467926 0.120094 0.235365
0.548586 0.136396 0.168426
0.501234 0.148261 0.202445
0.494989 0.093786 0.175599
0.511036 0.099025 0.187846
0.464452 0.099482 0.232276
0.526278 0.125206 0.165438
0.390992 0.133997 0.229205
0.453078 0.061903 0.207606
0.401691 0.177374 0.159040
0.525860 0.120697 0.145765
0.377377 0.111232 0.210291
0.501033 0.107621 0.196552
0.405668 0.079708 0.231901
0.440027 0.113305 0.231986
0.465596 0.105919 0.211209
0.507573 0.126600 0.146188
0.521132 0.170708 0.201230
0.443153 0.175578 0.143745
0.475025 0.139096 0.222946
0.494040 0.134414 0.201955
0.454446 0.082696 0.193906
0.399051 0.066402 0.222515
0.421794 0.178580 0.164083
0.411900 0.064395 0.203268
0.544488 0.143965 0.154209
0.389995 0.167310 0.165670
0.392465 0.145755 0.173098
0.435662 0.188271 0.149450
0.460624 0.146313 0.235441
0.486909 0.098707 0.206732
0.543461 0.169621 0.170541
0.487012 0.115659 0.215958
0.518999 0.111829 0.183162
0.526658 0.096198 0.153553
0.407389 0.111277 0.198752
0.489762 0.146633 0.223106
0.421772 0.165031 0.178896
0.424835 0.082150 0.232532
0.365908 0.112507 0.217140
0.413179 0.086896 0.189668
0.508439 0.085051 0.196845
0.458160 0.168761 0.149343
0.526305 0.132528 0.177538
0.423367 0.183542 0.146013
0.507086 0.103100 0.140034
0.440826 0.060818 0.221868
0.447284 0.170081 0.163522
0.466631 0.147789 0.216392
0.380974 0.155698 0.178242
0.521211 0.110196 0.135404
0.462846 0.134398 0.237905
0.410958 0.166585 0.159838
0.456135 0.141571 0.215972
0.451071 0.183505 0.158583
0.463184 0.185568 0.143419
0.397594 0.065891 0.208292
0.511433 0.107013 0.151954
0.459485 0.075189 0.227483
0.510942 0.151582 0.209109
0.527733 0.113781 0.160176
0.408669 0.128810 0.239264
0.537440 0.177125 0.183700
0.415037 0.167474 0.148708
0.512525 0.125304 0.164742
0.525563 0.088687 0.176612
0.396595 0.178004 0.178946
0.461025 0.101819 0.198817
0.521370 0.168479 0.188194
0.499900 0.086785 0.205139
0.386089 0.082641 0.200340
0.478669 0.087664 0.204022
0.451623 0.127389 0.226681
0.496573 0.162066 0.193129
0.505806 0.111532 0.171162
0.437057 0.172444 0.168196
0.514133 0.090002 0.162401
0.504609 0.081709 0.185427
0.407309 0.115631 0.234152
