ply
format ascii 1.0
element vertex 256
property float x
property float y
property float z
end_header
0.653491 -0.052430 0.193928
0.535962 0.052079 0.173391
0.666490 0.069560 0.157055
0.544980 -0.049245 0.222955
0.619178 0.027351 0.222829
0.586401 -0.112077 0.215749
0.676361 0.000064 0.153083
0.517106 -0.012117 0.176889
0.604626 -0.033793 0.236637
0.590416 -0.063081 0.191805
0.662925 0.001759 0.204823
0.638555 0.072134 0.201971
0.586656 -0.004154 0.202626
0.624696 -0.076677 0.221961
0.643218 0.033423 0.177480
0.526693 0.021289 0.202188
0.557762 -0.088443 0.237261
0.626440 -0.019687 0.204289
0.683942 0.035809 0.170442
0.558671 -0.092689 0.194855
0.548841 -0.012125 0.208691
0.626817 -0.075855 0.181052
0.537847 -0.042775 0.186686
0.586360 -0.065459 0.239772
0.655473 -0.019989 0.175248
0.536680 0.016270 0.169784
0.640231 -0.043277 0.223276
0.603402 -0.000675 0.234649
0.572219 -0.031885 0.230176
0.666937 0.018064 0.127320
0.628350 0.011219 0.195969
0.647346 0.085938 0.175416
0.579598 -0.034055 0.197534
0.567364 -0.067653 0.213880
0.682117 -0.005366 0.182340
0.520197 -0.024454 0.204398
0.621390 0.042195 0.196706
0.590807 -0.093127 0.193784
0.620808 -0.047724 0.184368
0.607068 -0.047454 0.211233
0.664541 -0.026262 0.201279
0.663225 0.014228 0.175044
0.661273 0.053499 0.181363
0.650848 0.026218 0.202372
0.544901 -0.017131 0.182316
0.618789 -0.096721 0.205077
0.639324 0.045719 0.216300
0.677634 0.047461 0.147509
0.603006 -0.093584 0.225911
0.626784 -0.011323 0.229698
0.546716 0.033662 0.188301
0.604704 -0.029572 0.192131
0.645998 -0.073745 0.204770
0.603355 0.014821 0.208274
0.604422 -0.016366 0.214420
0.515370 0.014023 0.181178
0.521480 -0.000887 0.209445
0.547955 -0.080598 0.216411
0.674117 0.025646 0.192271
0.607523 -0.061870 0.230859
0.640005 -0.007601 0.188992
0.579918 -0.010983 0.224293
0.672020 0.022406 0.149529
0.656706 0.047745 0.159562
0.559616 -0.045525 0.205865
0.639128 0.004624 0.214748
0.564995 -0.059543 0.236333
0.577601 -0.085530 0.222594
0.638226 0.062751 0.181786
0.533659 0.003784 0.188509
0.687974 0.012097 0.167460
0.524823 0.033882 0.181272
0.643404 -0.032631 0.200374
0.537653 -0.027404 0.217849
0.547582 0.036432 0.166054
0.617432 0.003210 0.218036
0.641252 0.011413 0.179823
0.576536 -0.078988 0.194982
0.546160 -0.029262 0.198842
0.649668 -0.012143 0.210034
0.576114 -0.105939 0.199906
0.534781 -0.045623 0.205938
0.642688 0.053325 0.198571
0.664604 0.033578 0.171484
0.622231 -0.043804 0.230376
0.632201 0.027837 0.208579
0.643965 -0.066532 0.185193
0.580719 -0.046824 0.238433
0.662811 -0.009570 0.189325
0.631956 -0.085850 0.196878
0.526626 -0.028141 0.179819
0.652658 0.075544 0.190076
0.659373 -0.037888 0.183820
0.643652 -0.061607 0.218660
0.578114 -0.089556 0.240668
0.656188 -0.040143 0.214445
0.659636 0.036801 0.189868
0.592439 0.002617 0.220263
0.514806 -0.000528 0.192408
0.661275 -0.003359 0.170333
0.615133 0.025154 0.198814
0.538379 0.005350 0.206417
0.613735 -0.088427 0.189684
0.673375 0.055868 0.168029
0.663095 0.007667 0.141697
0.681120 0.012963 0.137402
0.588527 -0.017448 0.238357
0.619603 -0.004044 0.199757
0.654528 0.012091 0.192432
0.551863 -0.061835 0.207979
0.568039 -0.047307 0.222886
0.574225 -0.015419 0.207487
0.591507 -0.021967 0.201337
0.601961 -0.050518 0.193167
0.633478 -0.027912 0.226502
0.571586 -0.075063 0.234867
0.671836 -0.020333 0.179915
0.627975 0.053645 0.206976
0.598973 -0.075930 0.233436
0.530992 0.035849 0.165113
0.672766 0.009194 0.190305
0.620846 -0.029099 0.188585
0.576000 -0.057170 0.204510
0.589504 -0.093064 0.210053
0.603938 -0.001032 0.203201
0.526165 0.000942 0.173206
0.607146 -0.016124 0.231659
0.656364 -0.057333 0.209689
0.525920 -0.012739 0.194900
0.585411 -0.104766 0.230019
0.529377 0.019440 0.186808
0.651363 -0.024121 0.189863
0.553186 -0.037033 0.217602
0.595143 -0.051991 0.235449
0.672775 0.013461 0.162272
0.635531 0.077927 0.183985
0.636450 -0.005998 0.203853
0.601612 -0.071945 0.186351
0.620441 0.038836 0.211542
0.534559 -0.011312 0.213902
0.572706 -0.086044 0.207854
0.639066 0.027306 0.190688
0.635757 -0.048014 0.186426
0.627002 0.014836 0.218472
0.543940 0.018603 0.183120
0.629671 -0.058553 0.223250
0.583655 -0.031853 0.239786
0.620346 -0.063310 0.185824
0.676575 -0.005692 0.166814
0.648995 0.046342 0.172914
0.553694 -0.081109 0.202725
0.640636 0.060037 0.211552
0.674261 0.038093 0.181579
0.532566 -0.015510 0.174668
0.617629 0.012853 0.206210
0.550479 0.048068 0.174237
0.648141 0.011996 0.205462
0.665997 0.037742 0.154668
0.533155 0.032061 0.193161
0.524479 -0.037849 0.199370
0.679270 0.023704 0.176773
0.623724 -0.029313 0.214505
0.608952 -0.076289 0.223223
0.659304 0.061262 0.169562
0.535567 0.046938 0.186675
0.556313 -0.063864 0.222030
0.605653 0.010322 0.221614
0.684480 0.012260 0.153705
0.605120 -0.003785 0.220803
0.662566 -0.039784 0.197825
0.674168 0.005449 0.176277
0.652134 -0.007069 0.180493
0.681405 0.046084 0.160979
0.522689 0.025273 0.170377
0.666454 -0.016129 0.167420
0.637245 -0.080675 0.213147
0.665488 0.016043 0.199948
0.654592 0.025597 0.178395
0.643726 -0.046302 0.202451
0.630902 0.034463 0.221730
0.541130 -0.009434 0.193074
0.645262 -0.028256 0.219419
0.647407 0.001051 0.196620
0.634736 0.038954 0.196458
0.627779 -0.010958 0.216102
0.678324 0.032779 0.157346
0.675814 -0.013045 0.191561
0.567811 -0.031185 0.203501
0.576907 -0.063576 0.222525
0.637200 -0.020634 0.190317
0.542447 -0.031021 0.182354
0.588710 -0.043750 0.198120
0.518967 -0.023268 0.190641
0.627066 0.003634 0.207559
0.527550 -0.034563 0.213154
0.668151 0.056358 0.155949
0.600037 -0.087690 0.186252
0.607868 -0.048939 0.235175
0.539841 -0.004811 0.176587
0.567881 -0.045995 0.236307
0.588120 -0.092050 0.229174
0.595662 -0.008707 0.228026
0.606015 -0.098174 0.204339
0.657817 -0.015125 0.200557
0.644422 0.073486 0.174587
0.651016 0.063012 0.199591
0.547079 -0.043029 0.203499
0.649449 0.043228 0.185691
0.664093 0.007852 0.154938
0.550738 -0.026532 0.211032
0.535220 0.027104 0.178767
0.596615 -0.011186 0.205494
0.632497 0.002323 0.187582
0.626890 0.029303 0.195857
0.669278 0.044348 0.165702
0.557897 -0.052060 0.217555
0.642576 0.082196 0.193197
0.673377 0.022557 0.136795
0.630679 0.059558 0.196535
0.543152 0.049448 0.163811
0.667014 0.026986 0.161486
0.617837 -0.021859 0.230278
0.615206 -0.009430 0.216964
0.663539 0.021336 0.188065
0.518780 0.011435 0.169790
0.612917 -0.014005 0.198053
0.639808 0.021323 0.201390
0.648709 -0.050640 0.218591
0.541382 0.022910 0.194107
0.540468 0.026726 0.165071
0.663761 0.002379 0.181489
0.616102 -0.027699 0.199557
0.519067 0.024479 0.190404
0.540352 0.037961 0.175538
0.571436 -0.043396 0.206168
0.669768 -0.025685 0.190456
0.561390 -0.038661 0.227867
0.624463 -0.091005 0.213940
0.652328 -0.064799 0.199990
0.648511 0.035573 0.195343
0.627732 -0.039810 0.189994
0.514451 -0.012067 0.189561
0.612555 -0.092740 0.218886
0.599170 -0.022720 0.238489
0.523118 -0.013090 0.211516
0.570682 -0.073083 0.203380
0.657492 0.061212 0.156687
0.562155 -0.079312 0.229345
0.687312 0.005165 0.176846
0.523111 0.011326 0.192415
0.535958 -0.034291 0.201344
0.612102 0.024701 0.213977
0.618902 -0.068219 0.227375
0.538716 -0.038938 0.217944
0.631291 0.018838 0.187767
0.560932 -0.076892 0.211234
