ply
format ascii 1.0
element vertex 256
property float x
property float y
property float z
end_header
0.654840 -0.045136 0.147713
0.550972 0.065469 0.131806
0.676547 0.075018 0.110271
0.548219 -0.063213 0.174946
0.628724 0.037214 0.180518
0.531315 0.007180 0.170530
0.696393 0.011077 0.133712
0.604665 -0.026162 0.192572
0.600507 -0.077576 0.141386
0.649229 0.084508 0.158240
0.679926 0.028103 0.086763
0.648925 0.030299 0.132438
0.618838 -0.010972 0.147094
0.588073 -0.082791 0.189901
0.577554 -0.029623 0.155481
0.662724 -0.002419 0.161431
0.629022 -0.070123 0.173306
0.527932 0.028039 0.133495
0.535968 -0.028040 0.149513
0.596732 0.016605 0.164241
0.634197 -0.002533 0.185678
0.567365 -0.037314 0.193446
0.671581 -0.016514 0.129395
0.681742 0.042237 0.125458
0.572046 -0.089737 0.159159
0.552221 0.002777 0.143305
0.548515 0.042307 0.156423
0.640749 -0.037989 0.177296
0.618354 -0.043316 0.139937
0.632055 0.053253 0.152421
0.541224 -0.022982 0.180159
0.576083 -0.010255 0.181852
0.599887 -0.055217 0.186754
0.653672 0.026189 0.161765
0.675066 0.013286 0.112824
0.660353 0.097270 0.134119
0.600941 0.004376 0.189307
0.658328 0.057780 0.124569
0.650397 0.001190 0.136613
0.525136 -0.003257 0.141684
0.637292 -0.065706 0.141720
0.610518 -0.035510 0.167245
0.630415 0.012938 0.155490
0.575619 -0.064976 0.170522
0.557401 0.039103 0.128441
0.669822 0.049832 0.101214
0.563084 -0.076697 0.198438
0.671207 0.015688 0.143997
0.672030 -0.026267 0.154350
0.606865 -0.084496 0.172114
0.646093 -0.021153 0.152200
0.643887 0.057375 0.174962
0.554295 -0.039507 0.166162
0.665846 0.043993 0.145199
0.596686 -0.008844 0.158933
0.554364 -0.002927 0.170680
0.590984 -0.049376 0.148586
0.683859 -0.005528 0.147092
0.554784 0.019521 0.162708
0.616136 0.033637 0.160913
0.695306 0.022517 0.105447
0.620175 0.015510 0.180272
0.628599 -0.019717 0.170277
0.560095 -0.067868 0.153804
0.650957 0.075497 0.137711
0.619234 -0.082068 0.152816
0.537216 0.048682 0.138397
0.647050 -0.057273 0.168545
0.564258 0.052285 0.144776
0.664882 0.033501 0.114856
0.553892 -0.016460 0.153131
0.613104 -0.005531 0.174694
0.576593 -0.042060 0.174951
0.620525 -0.052526 0.182715
0.547317 0.025897 0.141788
0.525503 0.024027 0.154082
0.571404 -0.057805 0.194365
0.655290 0.063287 0.158865
0.641122 -0.002254 0.164136
0.535427 -0.009428 0.158267
0.561586 -0.021722 0.172558
0.583215 -0.023186 0.195666
0.580737 0.001535 0.165565
0.623841 -0.029628 0.187638
0.659760 -0.033729 0.168325
0.587371 -0.094455 0.173967
0.677019 0.063720 0.126699
0.632720 -0.030233 0.138006
0.658146 -0.028237 0.137258
0.668061 0.003095 0.128703
0.584369 -0.068879 0.147440
0.687021 0.043025 0.106694
0.535509 0.009495 0.131975
0.587700 -0.041358 0.190817
0.566301 0.056842 0.125269
0.616670 -0.009543 0.192481
0.637643 0.071090 0.152817
0.684356 0.023120 0.125489
0.641831 0.039842 0.167697
0.619726 -0.068723 0.136702
0.590473 -0.084211 0.159260
0.612484 0.008098 0.161511
0.540772 -0.013465 0.140044
0.568548 -0.052294 0.160046
0.637305 0.025007 0.144590
0.652670 0.014977 0.148227
0.632182 0.025127 0.168180
0.606341 -0.071377 0.183772
0.686769 0.003140 0.121058
0.680531 0.031203 0.140562
0.547349 0.058457 0.149867
0.663245 0.081553 0.148517
0.558965 -0.051205 0.181055
0.540404 0.040099 0.123894
0.642540 -0.021145 0.180158
0.677526 0.027962 0.103715
0.603792 -0.038069 0.149626
0.537755 0.025219 0.165893
0.661202 -0.013295 0.148536
0.532733 0.008769 0.152800
0.647421 0.012918 0.169817
0.652492 0.046532 0.135464
0.665572 0.026534 0.129889
0.647749 0.092396 0.143551
0.648928 -0.061058 0.152288
0.532023 0.038649 0.150650
0.629058 0.049952 0.168428
0.544088 -0.025241 0.163359
0.641274 -0.036363 0.155083
0.572314 -0.015704 0.162106
0.604198 0.017921 0.178211
0.636917 -0.008451 0.149801
0.664232 0.063950 0.111224
0.661047 0.028292 0.146855
0.612297 -0.040184 0.189266
0.598986 0.003900 0.173209
0.552067 0.053162 0.119753
0.626058 0.001205 0.164814
0.551398 -0.034987 0.180576
0.588108 -0.004128 0.189197
0.667015 0.058463 0.137214
0.564145 0.067097 0.139425
0.600948 -0.059165 0.142377
0.634505 -0.054386 0.177257
0.665843 0.041632 0.129170
0.631324 0.038206 0.151868
0.582783 -0.080102 0.174087
0.680970 0.012601 0.099017
0.538784 -0.008923 0.175540
0.566364 -0.023147 0.186601
0.646156 0.051581 0.157823
0.614867 0.008007 0.192872
0.641765 -0.069728 0.162587
0.684647 0.009557 0.143607
0.675858 0.050467 0.114731
0.667202 0.002119 0.148199
0.644973 0.071796 0.165453
0.638039 -0.051519 0.138443
0.585276 -0.054129 0.197306
0.647912 0.033335 0.150366
0.552489 0.043962 0.142618
0.623662 -0.026013 0.148430
0.561236 -0.060685 0.169194
0.617016 0.028654 0.174318
0.599354 -0.013181 0.195368
0.523900 0.016256 0.140436
0.685059 -0.004942 0.133038
0.578463 -0.075779 0.197432
0.587535 -0.019528 0.158877
0.543876 0.013507 0.170566
0.642918 0.004923 0.148664
0.619425 -0.079978 0.168396
0.657967 -0.050718 0.163196
0.581109 -0.045496 0.157266
0.634069 -0.074047 0.152073
0.541326 0.021378 0.153319
0.644752 0.016081 0.137195
0.659048 0.013259 0.129708
0.658535 -0.010227 0.135570
0.567067 -0.034923 0.166746
0.683645 0.032727 0.115946
0.527722 -0.015116 0.147679
0.676636 -0.018161 0.144565
0.548602 0.012960 0.135373
0.695716 0.012872 0.119558
0.542328 0.025313 0.129508
0.691787 0.026578 0.092498
0.662142 0.010582 0.157015
0.538724 0.035584 0.138219
0.660941 0.094409 0.147118
0.677775 0.011208 0.132176
0.603549 -0.086171 0.159547
0.562293 0.069299 0.125971
0.661712 -0.034065 0.148973
0.623049 0.013719 0.167155
0.524798 -0.000184 0.158028
0.651661 0.066049 0.146548
0.651470 -0.043533 0.172620
0.531747 -0.022093 0.161065
0.542116 -0.001158 0.135081
0.614923 -0.057965 0.141864
0.556745 0.054279 0.134229
0.677643 0.041642 0.095294
0.631985 -0.016239 0.185418
0.649621 -0.005901 0.147647
0.671692 -0.013567 0.155730
0.626343 0.026398 0.156980
0.634606 0.062695 0.161750
0.621602 0.003017 0.179297
0.536343 0.037628 0.162434
0.641547 0.081645 0.147170
0.597941 -0.081688 0.182220
0.685878 0.020152 0.113336
0.555298 0.007427 0.159532
0.635586 0.009122 0.166498
0.650370 0.006211 0.159690
0.622539 0.046699 0.157138
0.563088 -0.063695 0.187162
0.676202 0.061816 0.108505
0.628196 0.024380 0.183709
0.611548 0.022242 0.162832
0.600132 -0.042884 0.187436
0.570500 -0.073542 0.150337
0.654382 0.086144 0.132541
0.608584 -0.017480 0.148904
0.670311 0.052548 0.125777
0.639075 0.045574 0.178163
0.630416 -0.005936 0.173704
0.576481 -0.045365 0.194324
0.563319 -0.032799 0.179752
0.640944 0.020396 0.161269
0.550409 -0.016242 0.176286
0.549734 -0.026279 0.147644
0.538274 0.049402 0.150281
0.617908 -0.069513 0.177624
0.668867 0.070962 0.119659
0.610549 0.007415 0.178915
0.593686 0.004408 0.162590
0.591550 -0.030145 0.155395
0.548731 0.031236 0.160613
0.606379 -0.001694 0.163945
0.583752 0.000826 0.179439
0.550462 -0.002037 0.154585
0.555723 -0.013975 0.164395
0.681604 0.053560 0.102256
0.658731 0.035230 0.155956
0.631773 -0.010143 0.160145
0.610871 -0.076737 0.146689
0.542138 0.052404 0.125797
0.568715 -0.052206 0.171916
0.657985 0.074573 0.158737
0.548339 0.011193 0.150243
0.682469 0.068167 0.117456
0.630997 -0.076517 0.162939
0.667356 0.034814 0.138345
0.526545 0.015871 0.164667
