ply
format ascii 1.0
element vertex 256
property float x
property float y
property float z
end_header
0.577739 -0.022291 0.210894
0.517453 0.094026 0.217820
0.467015 -0.026499 0.218707
0.604799 0.061963 0.274997
0.615427 0.059066 0.182616
0.527756 0.014588 0.267711
0.496052 0.032375 0.191395
0.622217 0.017350 0.225883
0.525460 -0.044283 0.191863
0.572693 0.034829 0.240925
0.611362 0.087382 0.226882
0.533122 0.003571 0.210842
0.489058 0.013107 0.238014
0.565209 0.092759 0.215288
0.558241 -0.015121 0.251281
0.511904 -0.025540 0.236636
0.488987 -0.025429 0.179282
0.496049 0.058595 0.223859
0.517171 0.066383 0.187494
0.602441 0.050515 0.222282
0.591211 0.001225 0.241932
0.562975 0.026517 0.276164
0.550146 -0.018152 0.185448
0.546605 -0.036178 0.225376
0.499659 -0.000277 0.201389
0.604197 0.035392 0.252908
0.593821 0.013543 0.209469
0.540656 0.088464 0.193753
0.564443 0.005642 0.224542
0.492963 -0.043924 0.211765
0.526323 0.025254 0.237625
0.592641 0.076010 0.249453
0.627307 0.038489 0.202417
0.476354 0.034069 0.219897
0.520751 -0.016542 0.181251
0.578345 0.052462 0.266623
0.470681 -0.001797 0.202793
0.490344 0.060480 0.196291
0.547624 0.032822 0.253761
0.527514 -0.011370 0.254681
0.601824 0.072305 0.202807
0.542821 0.076177 0.218435
0.504562 0.003931 0.258611
0.509740 0.017776 0.217589
0.582579 0.019639 0.260153
0.515781 0.049046 0.207093
0.545497 0.006163 0.242895
0.616838 0.064120 0.238708
0.486578 -0.011756 0.241104
0.600951 -0.009952 0.221789
0.560320 -0.039322 0.205024
0.498777 0.079947 0.208545
0.604141 0.044094 0.198983
0.577884 -0.027065 0.234481
0.557169 -0.002290 0.201913
0.486678 -0.019968 0.207540
0.520878 -0.034261 0.216779
0.543070 0.099632 0.218736
0.588067 0.052184 0.244029
0.610534 0.090638 0.249981
0.486243 0.014167 0.213441
0.548643 0.000633 0.265162
0.530854 -0.006733 0.231086
0.619275 0.039111 0.232486
0.500636 -0.002676 0.223863
0.620109 0.061136 0.210023
0.516442 0.067691 0.222407
0.595603 0.071585 0.226091
0.569162 0.003679 0.246288
0.498892 0.036396 0.222993
0.506790 -0.029870 0.191960
0.479929 -0.006043 0.183343
0.584540 0.027372 0.223413
0.613430 0.021450 0.204991
0.595857 0.041927 0.273393
0.603159 0.024996 0.233748
0.519360 0.087157 0.193173
0.543118 0.016956 0.223814
0.613108 0.071107 0.258327
0.478317 -0.003740 0.221460
0.529499 0.072351 0.203729
0.514881 0.024581 0.255887
0.581456 -0.007519 0.226112
0.481164 0.043734 0.202040
0.490942 -0.043460 0.187380
0.541583 -0.022754 0.243643
0.520419 -0.004935 0.198746
0.546223 -0.036353 0.190935
0.486209 -0.028642 0.224863
0.567209 -0.022295 0.194923
0.606216 0.006063 0.230539
0.601678 0.053621 0.257601
0.546650 0.019586 0.269490
0.563452 0.023300 0.257102
0.505720 0.051795 0.190835
0.586168 0.037103 0.256292
0.577684 0.037226 0.276818
0.613415 0.037676 0.215388
0.562687 0.044854 0.261579
0.606840 0.048974 0.240928
0.589236 0.018956 0.243489
0.543557 -0.044698 0.207863
0.565279 -0.014048 0.220492
0.529778 -0.029653 0.232455
0.580586 0.010327 0.230792
0.554882 0.096593 0.201739
0.536328 0.019863 0.250846
0.630588 0.030861 0.217642
0.508243 -0.043991 0.204033
0.559912 -0.026760 0.238877
0.558959 0.016899 0.236160
0.534850 -0.013110 0.190946
0.612432 0.070826 0.223391
0.591818 0.067192 0.263884
0.491020 0.030773 0.209103
0.618352 0.043202 0.187606
0.573598 -0.035971 0.219633
0.528963 0.094545 0.204716
0.590627 -0.002660 0.210282
0.533105 -0.028941 0.184322
0.532649 0.036473 0.248133
0.500979 -0.013839 0.192302
0.513407 0.071474 0.206803
0.483307 0.053338 0.214958
0.602580 0.024684 0.217309
0.592656 0.037041 0.236124
0.501321 -0.009958 0.247168
0.606442 0.075933 0.241464
0.489194 0.023623 0.226124
0.616553 0.070986 0.197122
0.611127 0.008563 0.213857
0.505348 0.074508 0.193492
0.598139 0.059191 0.210135
0.597488 0.063670 0.239269
0.534522 0.028198 0.265976
0.604166 0.047936 0.184194
0.490800 0.067387 0.211888
0.524197 0.055830 0.195841
0.524247 0.080698 0.215320
0.494517 -0.031260 0.200696
0.574296 0.019491 0.241010
0.512030 0.005170 0.209745
0.502898 0.015690 0.249478
0.555071 0.088806 0.225536
0.601318 0.084069 0.216627
0.519550 -0.000799 0.261123
0.507144 0.048310 0.225564
0.490071 0.047652 0.189106
0.550598 0.083917 0.208662
0.602789 0.081467 0.259034
0.615661 0.053489 0.197598
0.506374 0.026634 0.230829
0.493731 0.002918 0.248966
0.597994 0.089214 0.242861
0.548674 0.013013 0.255258
0.489214 -0.000019 0.211415
0.531663 0.090708 0.222485
0.554550 0.032998 0.266321
0.503269 0.073372 0.220462
0.508958 -0.035203 0.224592
0.517266 0.033794 0.245327
0.495411 -0.025754 0.235175
0.525602 -0.022228 0.243704
0.522192 0.011485 0.218830
0.594194 0.039113 0.222364
0.497290 0.010774 0.222232
0.589285 -0.015425 0.216494
0.488763 -0.006784 0.195710
0.501573 0.064866 0.203007
0.482721 -0.015819 0.228451
0.514832 0.040863 0.196067
0.570772 -0.016811 0.245869
0.557541 0.101890 0.222638
0.502595 0.037884 0.208572
0.619341 0.049032 0.219851
0.560118 -0.035740 0.224312
0.595405 0.013709 0.227686
0.594294 0.024505 0.254733
0.476785 0.019366 0.221532
0.572923 0.046081 0.252938
0.556995 0.002849 0.252683
0.613964 0.034329 0.201514
0.592880 0.054677 0.275733
0.616253 0.052491 0.232317
0.552934 -0.004613 0.241159
0.482996 0.000757 0.238899
0.538620 0.088629 0.211441
0.599869 0.011743 0.240685
0.539952 0.009410 0.274365
0.547260 -0.009427 0.197177
0.508335 -0.020192 0.183252
0.606742 0.050329 0.269382
0.535555 -0.040414 0.217201
0.573640 0.028027 0.264539
0.594403 0.000813 0.229195
0.531282 0.079638 0.192008
0.554715 0.009585 0.216901
0.613480 0.057570 0.249380
0.565259 0.003192 0.210238
0.612879 0.071704 0.209630
0.530284 0.016374 0.227471
0.604067 0.058596 0.198245
0.587184 0.006483 0.220457
0.537071 -0.003968 0.263222
0.578603 0.011481 0.249657
0.548832 0.022700 0.246477
0.612094 0.049415 0.208886
0.608595 0.035217 0.238471
0.537678 0.009924 0.260229
0.571189 0.033774 0.253391
0.540618 0.079278 0.202941
0.541430 0.098010 0.203854
0.517015 0.089034 0.206498
0.616239 0.029985 0.224695
0.551486 0.008616 0.230813
0.581692 0.027704 0.235517
0.493140 0.049166 0.200959
0.505652 0.062634 0.184950
0.558090 0.016569 0.266034
0.624050 0.026856 0.207778
0.602480 0.068966 0.250807
0.516686 -0.036762 0.188138
0.513122 0.083856 0.222750
0.486610 0.040315 0.221383
0.603170 0.062569 0.223032
0.615019 0.080859 0.217188
0.608710 0.091565 0.237942
0.570516 -0.033535 0.207359
0.484879 0.037134 0.192797
0.610413 0.019629 0.224912
0.585222 0.031669 0.269607
0.583495 0.056654 0.256849
0.609089 -0.000572 0.221033
0.514031 0.013895 0.260770
0.476558 -0.017881 0.218766
0.606093 0.072924 0.267455
0.517681 0.022605 0.224607
0.511023 -0.015289 0.243638
0.519741 -0.044517 0.202781
0.556251 -0.030475 0.198809
0.590664 -0.015377 0.227953
0.493622 -0.008553 0.185153
0.495097 0.047006 0.225461
0.596394 0.052709 0.235856
0.520149 0.074618 0.197417
0.526565 0.083370 0.202277
0.616563 0.060181 0.222189
0.568611 0.008412 0.234833
0.492908 -0.046427 0.198252
0.493661 0.056127 0.210020
0.543852 0.023032 0.258819
0.469830 -0.011512 0.208689
0.610310 0.043444 0.226506
0.551944 0.101877 0.211957
0.515494 -0.005946 0.251838
0.614237 0.079241 0.249009
