ply
format ascii 1.0
element vertex 256
property float x
property float y
property float z
end_header
0.548389 -0.005561 0.204443
0.425992 0.064287 0.169816
0.546605 0.136484 0.190817
0.449329 -0.037617 0.243149
0.578035 0.060915 0.140788
0.508311 0.067301 0.230976
0.438755 -0.001275 0.186005
0.494126 -0.038926 0.194352
0.565743 0.058670 0.203939
0.497546 0.003720 0.244243
0.470132 0.036748 0.213046
0.467626 0.088586 0.153333
0.544497 0.090014 0.170906
0.538055 0.099699 0.217625
0.518070 0.027750 0.204349
0.521715 -0.031306 0.228351
0.468476 -0.009093 0.215773
0.425609 0.035789 0.200509
0.478127 -0.062497 0.223319
0.450475 0.032158 0.166582
0.452222 -0.042325 0.200881
0.565377 0.024509 0.185003
0.527795 0.065498 0.194872
0.512829 -0.006388 0.193052
0.585990 0.052663 0.175290
0.550533 0.029540 0.216354
0.436286 0.003828 0.220189
0.521445 0.036855 0.238463
0.530979 0.001640 0.232189
0.461482 0.010773 0.240812
0.573644 0.089071 0.156811
0.487630 0.041697 0.238527
0.491115 -0.026653 0.241321
0.449242 0.064301 0.148088
0.528461 0.113451 0.192468
0.423744 0.020575 0.174615
0.553309 0.083844 0.197601
0.559951 0.064807 0.176210
0.448208 0.084858 0.174089
0.541494 0.039400 0.190410
0.534694 0.056301 0.220966
0.562310 0.112172 0.169233
0.489189 0.017081 0.206582
0.449934 0.022734 0.194965
0.514540 0.090147 0.206106
0.532833 -0.027422 0.197580
0.500223 0.047858 0.210809
0.470643 -0.035796 0.222571
0.443607 0.052731 0.189304
0.500700 -0.048165 0.226928
0.470767 -0.012632 0.246013
0.502408 0.001935 0.220448
0.440885 -0.029633 0.221762
0.514793 -0.044545 0.207491
0.485152 -0.013928 0.199203
0.571787 0.035503 0.204938
0.526966 0.081191 0.226546
0.548182 0.116081 0.204307
0.433580 0.048771 0.154648
0.565480 0.051446 0.158531
0.544297 0.017788 0.197189
0.565539 0.091645 0.179474
0.448261 -0.009922 0.233724
0.475128 -0.050774 0.204537
0.425852 0.013461 0.199988
0.422770 0.043031 0.175845
0.450844 0.061794 0.170263
0.480161 -0.046055 0.241333
0.539304 -0.017474 0.224877
0.511245 -0.013995 0.236169
0.504442 0.070288 0.209954
0.550498 0.006828 0.224967
0.470551 -0.029284 0.201802
0.501558 0.031949 0.225620
0.480870 0.022647 0.245201
0.576457 0.068935 0.162146
0.518494 0.018834 0.223285
0.451241 0.004878 0.205587
0.556144 0.076534 0.159474
0.561052 0.044805 0.185516
0.563717 0.016266 0.207532
0.526123 0.047975 0.204683
0.544095 0.071765 0.210689
0.443827 0.014803 0.174060
0.547168 0.049570 0.206699
0.534025 0.093972 0.199197
0.574165 0.071095 0.188148
0.526483 0.007532 0.192021
0.447766 0.082973 0.153122
0.542463 0.073938 0.181284
0.468454 0.018699 0.207118
0.464597 0.025232 0.229254
0.580522 0.041276 0.189367
0.463952 0.074731 0.166981
0.455991 0.005002 0.223644
0.512970 0.049542 0.224344
0.445903 -0.011112 0.213383
0.503788 0.028948 0.243785
0.516081 -0.031746 0.190984
0.558016 0.100011 0.156065
0.438675 0.020305 0.211075
0.551248 0.062424 0.192271
0.532592 0.036422 0.217076
0.491147 0.055045 0.227273
0.459066 -0.025432 0.234631
0.543194 0.118426 0.183875
0.533635 0.002551 0.210088
0.522545 0.068607 0.214845
0.436044 0.069296 0.183373
0.426338 0.050964 0.190690
0.490556 -0.048977 0.213059
0.531431 0.018653 0.234538
0.497069 -0.001780 0.201045
0.515667 0.004570 0.239180
0.445541 0.035669 0.184788
0.433762 0.034264 0.164092
0.440342 0.048259 0.173275
0.486330 0.041411 0.218044
0.435015 -0.000658 0.204053
0.572505 0.038823 0.174865
0.525786 0.107371 0.207824
0.441536 0.040277 0.201967
0.536428 0.127063 0.199954
0.543038 -0.021672 0.209047
0.552055 0.098186 0.185485
0.581020 0.054993 0.155737
0.454634 0.094057 0.162745
0.436336 0.071173 0.159905
0.552878 0.034819 0.201560
0.522958 0.095227 0.219667
0.572596 0.055303 0.190028
0.532685 0.085085 0.212204
0.430265 0.026986 0.187457
0.489800 -0.011175 0.243728
0.563854 0.062210 0.147184
0.454907 -0.027128 0.215426
0.499356 0.052650 0.240297
0.538951 0.078647 0.195403
0.496274 -0.023248 0.194399
0.513504 0.082695 0.219375
0.557175 0.079497 0.183086
0.474956 0.038848 0.230678
0.568122 0.081133 0.168839
0.567446 0.077950 0.148573
0.554379 0.006374 0.197339
0.525792 -0.015120 0.232190
0.473718 0.003147 0.245140
0.523096 0.077618 0.202219
0.570788 0.055000 0.171910
0.535423 -0.030441 0.218930
0.495777 0.033844 0.209282
0.440525 0.011451 0.197665
0.537675 0.057424 0.187479
0.513655 0.042056 0.211664
0.450078 0.052781 0.158733
0.458847 0.075808 0.146808
0.513286 -0.041925 0.222919
0.533031 -0.013334 0.193828
0.533144 0.034333 0.202736
0.516179 0.011499 0.201327
0.503806 0.014043 0.236372
0.541033 0.105696 0.194913
0.567689 0.098598 0.167182
0.501576 -0.027480 0.231631
0.517675 0.020593 0.237765
0.470099 -0.013616 0.229198
0.512399 0.058717 0.213265
0.551405 0.025619 0.186979
0.521576 0.062471 0.227518
0.561488 0.071644 0.195234
0.469428 -0.039436 0.247596
0.481910 0.028632 0.209934
0.542570 0.087832 0.184960
0.428787 0.008595 0.186276
0.537541 0.015992 0.211043
0.469906 0.005127 0.203950
0.535435 0.116910 0.210991
0.561343 0.045318 0.204882
0.485539 -0.047771 0.225899
0.550280 -0.010404 0.220370
0.456196 -0.013434 0.222184
0.529105 -0.035603 0.207891
0.557901 0.089280 0.164425
0.549002 0.102158 0.166774
0.500417 0.045158 0.228457
0.456440 -0.001933 0.241006
0.448499 0.074730 0.164659
0.549664 0.051630 0.183208
0.451300 0.072635 0.178562
0.420817 0.037163 0.187697
0.500632 0.019041 0.199976
0.508687 0.040473 0.238147
0.461899 -0.017917 0.208508
0.438221 0.058520 0.163017
0.500562 0.062951 0.220174
0.426822 0.050778 0.166020
0.496775 -0.040154 0.236530
0.519105 0.032812 0.226322
0.449571 0.007914 0.183477
0.437143 0.078250 0.172431
0.552811 0.125323 0.192964
0.466958 -0.024986 0.245322
0.542436 -0.003346 0.228814
0.510130 -0.021157 0.195215
0.576647 0.074056 0.175324
0.483844 0.005517 0.205261
0.582831 0.061166 0.184286
0.458933 0.061906 0.158556
0.537735 0.130720 0.183797
0.536148 0.061986 0.209482
0.485220 0.052776 0.212701
0.551502 0.019872 0.207308
0.569913 0.044421 0.195697
0.561462 0.029324 0.210245
0.446251 0.012230 0.216759
0.451320 0.023077 0.182629
0.575869 0.046275 0.164698
0.458905 -0.001322 0.213401
0.524037 0.047925 0.219063
0.507597 -0.040126 0.198482
0.490602 0.013802 0.245575
0.435919 0.022586 0.166835
0.441769 0.043343 0.161765
0.561237 0.015843 0.194304
0.540566 0.106059 0.206886
0.537045 0.047681 0.212998
0.474375 -0.010075 0.205431
0.559881 0.102908 0.176371
0.570504 0.025916 0.197942
0.447135 -0.004331 0.223127
0.545062 0.040017 0.217738
0.457551 0.014903 0.230010
0.484334 -0.043946 0.201450
0.565988 0.089754 0.147769
0.445069 0.029031 0.206202
0.561248 0.111505 0.157448
0.526044 0.024304 0.212407
0.549019 0.061922 0.206395
0.467056 0.076475 0.155754
0.575272 0.069245 0.148817
0.583363 0.061973 0.168434
0.522852 0.096907 0.200678
0.484756 0.000182 0.243047
0.429599 0.024781 0.198843
0.555117 0.075666 0.172328
0.460758 -0.049635 0.203606
0.525113 -0.037902 0.218492
0.514795 0.076934 0.229282
0.543331 0.033894 0.208132
0.565676 0.066108 0.164801
0.481146 -0.056721 0.232721
0.569383 0.052273 0.145937
0.474469 0.030493 0.238475
0.440943 0.062055 0.175883
0.500297 -0.012942 0.239064
0.557669 0.006714 0.208725
