ply
format ascii 1.0
element vertex 256
property float x
property float y
property float z
end_header
0.653669 -0.052511 0.194233
0.549389 0.040786 0.150847
0.672855 0.070543 0.165454
0.548188 -0.081002 0.216564
0.618693 0.026292 0.224158
0.532876 -0.031689 0.161559
0.672264 0.003678 0.141223
0.599509 -0.037889 0.235980
0.603376 -0.090570 0.186077
0.673238 0.013397 0.200975
0.636310 0.071105 0.204396
0.614422 -0.022309 0.190873
0.548436 -0.033415 0.206270
0.589002 -0.095985 0.234031
0.542294 0.007843 0.181021
0.629247 -0.079484 0.219172
0.637028 0.024354 0.184348
0.579965 -0.060346 0.200079
0.637987 -0.029393 0.223489
0.658768 -0.016854 0.172847
0.579814 -0.009742 0.211929
0.681904 0.032197 0.166739
0.539930 0.004514 0.143640
0.563563 -0.052847 0.235286
0.575420 -0.105239 0.202725
0.643840 0.086091 0.174637
0.662159 0.050786 0.190820
0.606107 -0.002844 0.235857
0.635844 0.001069 0.208802
0.617651 -0.054677 0.184588
0.523857 -0.020498 0.191381
0.667893 -0.023543 0.201898
0.538910 -0.052788 0.184000
0.605155 0.006994 0.204047
0.683877 0.001801 0.174905
0.598063 -0.067405 0.230727
0.639487 0.041133 0.210170
0.638673 -0.074926 0.187932
0.607622 -0.047131 0.211244
0.553441 -0.020840 0.176190
0.559466 0.014875 0.159611
0.642303 -0.027238 0.193345
0.563103 -0.092342 0.241133
0.614315 0.034839 0.199117
0.583588 -0.033821 0.201299
0.644503 -0.057890 0.219521
0.554167 -0.058739 0.204315
0.569410 -0.027032 0.228248
0.608782 -0.096112 0.217263
0.661898 0.020442 0.178459
0.671187 0.046083 0.148291
0.604520 -0.016436 0.214414
0.523169 -0.008455 0.169010
0.561580 -0.084858 0.196180
0.572155 -0.084890 0.219052
0.535680 0.025536 0.165578
0.640787 0.062769 0.182003
0.650804 0.019486 0.207146
0.648627 0.001397 0.183084
0.588522 -0.017708 0.238534
0.544498 -0.011417 0.195655
0.655866 0.048150 0.169010
0.687630 0.013066 0.155185
0.553502 0.021825 0.138122
0.597966 -0.067741 0.188616
0.623883 -0.055796 0.228428
0.670731 0.025136 0.134520
0.621836 -0.092832 0.198551
0.657784 -0.003301 0.209107
0.626773 -0.011467 0.229933
0.656293 -0.040202 0.214745
0.668234 -0.005079 0.190210
0.549028 -0.004047 0.163336
0.626215 0.052573 0.196137
0.577075 -0.063884 0.222713
0.678450 0.029918 0.187998
0.667367 0.009945 0.160593
0.555071 -0.038828 0.186489
0.581736 -0.085785 0.199515
0.616375 0.005465 0.220760
0.575186 -0.075492 0.238862
0.533834 -0.046317 0.202619
0.590347 -0.108006 0.218408
0.631091 -0.017963 0.206912
0.630674 -0.040213 0.183023
0.630347 0.005453 0.190592
0.592399 0.002357 0.220434
0.675537 0.053058 0.177044
0.527571 0.008210 0.160289
0.561835 -0.045728 0.217645
0.621996 0.017379 0.202956
0.649952 0.036532 0.193571
0.665055 0.030139 0.158468
0.535197 -0.034366 0.185107
0.646227 -0.073842 0.205075
0.556483 -0.064238 0.222186
0.659588 -0.037889 0.184159
0.621801 -0.079868 0.182123
0.580808 -0.047110 0.238617
0.648978 0.076332 0.192043
0.616859 -0.007313 0.202353
0.602134 -0.050764 0.193387
0.545888 -0.040811 0.170237
0.644885 0.056800 0.198292
0.638901 -0.045040 0.200670
0.565485 0.030540 0.147890
0.534418 -0.009610 0.154950
0.609727 -0.020115 0.236037
0.528195 -0.002027 0.184775
0.671921 -0.006648 0.164248
0.537864 0.021334 0.148292
0.606295 -0.082865 0.228517
0.634621 0.057154 0.215238
0.673255 -0.019822 0.182395
0.619173 -0.039444 0.232112
0.632444 0.077671 0.184784
0.593149 -0.097821 0.203599
0.569227 -0.047203 0.199304
0.526822 0.012848 0.176603
0.623721 0.042842 0.215731
0.661778 0.062646 0.178085
0.668291 0.037997 0.176274
0.532997 -0.019520 0.176744
0.557015 0.030430 0.165129
0.654241 -0.014074 0.190344
0.647545 -0.016485 0.208578
0.545848 -0.049230 0.215656
0.565131 -0.070569 0.207425
0.607967 0.020036 0.213628
0.656512 0.014458 0.192849
0.639265 -0.007674 0.193779
0.552698 -0.019587 0.160103
0.598774 -0.021835 0.194369
0.567906 -0.031534 0.203654
0.543919 0.011263 0.159858
0.533485 -0.029951 0.202062
0.630972 0.025195 0.213506
0.674692 0.021268 0.149496
0.608708 -0.051108 0.233447
0.623795 -0.029476 0.214747
0.672927 0.011666 0.184870
0.656533 -0.057394 0.210001
0.586808 -0.062809 0.239977
0.583694 -0.032129 0.239964
0.562363 -0.079663 0.229520
0.615426 -0.070691 0.228842
0.549808 -0.005345 0.180596
0.584305 -0.094210 0.217904
0.548275 -0.046310 0.197651
0.638123 0.021848 0.199131
0.629022 0.035116 0.196018
0.580550 -0.011814 0.226788
0.674613 0.046434 0.163607
0.596950 -0.006526 0.206259
0.682733 0.016525 0.137949
0.663407 -0.001522 0.175235
0.549850 0.019439 0.171828
0.677393 0.015438 0.169858
0.597573 -0.011254 0.227548
0.638127 -0.060813 0.184309
0.663644 0.032175 0.191127
0.647033 0.042802 0.180756
0.662649 -0.039916 0.198176
0.620693 -0.036732 0.192860
0.531520 -0.043275 0.174574
0.640332 -0.043381 0.223553
0.648772 0.006060 0.203162
0.594550 -0.051672 0.235948
0.632859 -0.085472 0.203471
0.537371 0.001927 0.168511
0.665728 0.012074 0.131999
0.578337 -0.089848 0.240875
0.626001 -0.025331 0.229937
0.620989 -0.090391 0.214059
0.571119 -0.053787 0.211435
0.680874 -0.007184 0.185166
0.677087 0.000648 0.153776
0.555551 0.035870 0.139609
0.568080 -0.039948 0.234966
0.628529 0.064034 0.187892
0.609855 -0.006695 0.222355
0.573395 -0.061739 0.240882
0.653145 0.030626 0.177814
0.652688 -0.025625 0.183659
0.655908 -0.026996 0.197183
0.525039 -0.030204 0.176417
0.679562 0.037523 0.154102
0.550545 0.023208 0.151640
0.666757 0.058243 0.166640
0.586238 -0.021052 0.203296
0.606323 -0.098400 0.204597
0.540362 -0.021158 0.155983
0.624000 -0.015509 0.217882
0.641172 0.073369 0.174376
0.611280 -0.074379 0.187402
0.550560 0.004515 0.151019
0.632863 -0.063177 0.222961
0.625142 0.014043 0.216041
0.588719 0.003183 0.206127
0.660829 0.003948 0.198487
0.632539 0.035551 0.221090
0.659274 -0.014098 0.202761
0.640875 0.013578 0.212167
0.544510 -0.023280 0.199827
0.604492 0.009509 0.221448
0.599095 -0.094028 0.226828
0.639173 0.011608 0.184204
0.555654 -0.033001 0.170136
0.617074 0.005989 0.208407
0.656812 0.030869 0.202178
0.625299 -0.002179 0.214304
0.623776 -0.065368 0.184859
0.636544 0.045875 0.195746
0.544726 0.031148 0.159040
0.643538 0.086473 0.186934
0.574300 -0.071201 0.199001
0.550363 -0.049632 0.180899
0.670422 0.025835 0.168627
0.532185 -0.009924 0.193258
0.616043 0.034042 0.212164
0.676932 -0.011085 0.174402
0.664989 0.017039 0.142996
0.633390 -0.018256 0.195092
0.521836 -0.013291 0.182036
0.652535 -0.064880 0.200301
0.546269 -0.028868 0.164098
0.655311 0.053182 0.181274
0.523396 -0.020333 0.168519
0.541331 -0.012645 0.166186
0.650021 0.019716 0.181324
0.588854 -0.044035 0.198315
0.528829 0.000245 0.151531
0.612691 0.016396 0.226434
0.665057 -0.028978 0.190021
0.642165 -0.068782 0.215710
0.687972 0.009482 0.166392
0.646024 -0.005116 0.205510
0.637908 0.079172 0.196027
0.673699 0.021995 0.179209
0.667066 0.023015 0.198481
0.563208 -0.035972 0.224014
0.621030 0.046603 0.205012
0.670722 0.044109 0.185913
0.613304 -0.088539 0.191869
0.538129 0.015348 0.173177
0.639105 0.067796 0.193609
0.678003 0.064110 0.174553
0.530131 -0.043159 0.190699
0.672106 -0.014450 0.195787
0.572682 -0.089491 0.193396
0.631425 0.060675 0.204645
0.661501 -0.029650 0.176348
0.631522 0.016829 0.191095
0.645201 -0.027121 0.205082
0.548182 0.012790 0.143534
0.550335 -0.028505 0.185615
