ply
format ascii 1.0
element vertex 256
property float x
property float y
property float z
end_header
0.636629 -0.034719 0.209453
0.649229 0.102735 0.180102
0.527923 0.037280 0.172418
0.531605 -0.051627 0.240346
0.666696 0.019682 0.135847
0.606715 0.044963 0.229381
0.591009 0.059742 0.153703
0.574750 -0.014009 0.203840
0.662199 0.026956 0.200649
0.590807 -0.071887 0.219345
0.523260 -0.004381 0.209024
0.607236 -0.003411 0.239346
0.664538 0.058844 0.164318
0.550987 -0.055764 0.197215
0.640475 0.071217 0.212542
0.548018 -0.002151 0.169968
0.560703 0.004417 0.241437
0.574853 -0.039985 0.241712
0.622860 0.013735 0.205639
0.557192 0.037812 0.143959
0.579618 0.025436 0.207407
0.657122 -0.009530 0.187978
0.597647 -0.045235 0.193017
0.610300 -0.040067 0.234950
0.680029 0.014613 0.171915
0.557025 -0.079912 0.221933
0.635580 0.047308 0.188182
0.565219 0.051113 0.174146
0.547941 0.019036 0.196327
0.650832 0.028577 0.165828
0.546769 -0.032353 0.219092
0.611933 -0.014636 0.196229
0.587031 0.020437 0.242011
0.648305 -0.007226 0.216679
0.611133 0.057176 0.202367
0.639313 0.037803 0.215806
0.522210 0.010893 0.183627
0.636833 0.075511 0.182823
0.534359 0.016350 0.153586
0.618705 -0.055908 0.214538
0.553268 -0.021277 0.243835
0.661546 0.053065 0.191010
0.658163 0.043814 0.143199
0.552515 0.026678 0.169584
0.528869 -0.048290 0.208690
0.642569 0.011904 0.185863
0.596506 0.005349 0.217693
0.544603 -0.007340 0.223290
0.591564 -0.019790 0.221995
0.527670 -0.013497 0.181356
0.628012 -0.022821 0.233118
0.571020 -0.063807 0.234227
0.572322 -0.043919 0.199819
0.603588 0.028249 0.211704
0.566613 0.059299 0.150680
0.545183 0.052200 0.160399
0.674398 0.005958 0.194314
0.580940 -0.008423 0.242576
0.663026 0.010013 0.156803
0.622539 0.060483 0.222973
0.669873 0.033857 0.179407
0.568675 0.020901 0.227930
0.641281 0.090830 0.199016
0.645500 0.016066 0.214079
0.543194 -0.010433 0.200185
0.592565 -0.053698 0.232927
0.672150 0.079170 0.168586
0.672243 0.029989 0.154919
0.574060 -0.065375 0.203938
0.552532 -0.051927 0.227002
0.627338 -0.011644 0.212805
0.616343 0.011705 0.226945
0.587398 0.034379 0.225963
0.573649 0.037261 0.156519
0.544572 0.039122 0.184287
0.561447 0.001387 0.204050
0.592922 -0.029559 0.239781
0.621346 -0.040346 0.197465
0.658002 0.069766 0.179993
0.641293 0.028243 0.198290
0.625902 0.075981 0.199588
0.660841 0.008816 0.176566
0.643444 -0.018962 0.198915
0.619269 0.040113 0.214596
0.629390 -0.041818 0.227652
0.593832 -0.003309 0.200087
0.594809 -0.064564 0.195620
0.530555 0.026877 0.191188
0.549670 -0.040611 0.242360
0.655232 0.005778 0.201414
0.635683 0.000901 0.201016
0.646599 0.052511 0.202321
0.562727 -0.028263 0.204499
0.585332 -0.027922 0.197404
0.549290 -0.071343 0.207059
0.534116 -0.024514 0.208377
0.630310 0.023081 0.223633
0.601822 0.022201 0.230214
0.646096 0.086395 0.171560
0.651265 0.033398 0.183213
0.534682 -0.023190 0.228838
0.529277 0.010700 0.201293
0.577378 0.069223 0.161110
0.534158 0.019502 0.173398
0.538450 0.036112 0.156263
0.530985 -0.000867 0.164769
0.581136 0.006994 0.207116
0.625005 0.035167 0.197028
0.654427 0.085799 0.188445
0.604686 -0.029687 0.201015
0.629088 0.052670 0.207763
0.648563 0.054284 0.179095
0.579639 0.050607 0.143292
0.564711 0.016888 0.210532
0.556543 0.008974 0.225636
0.608918 -0.058491 0.228074
0.582485 0.052618 0.166385
0.543946 0.000907 0.187755
0.552734 0.012032 0.177773
0.661753 0.040637 0.162269
0.552321 -0.017484 0.212764
0.554125 -0.047419 0.211248
0.635419 0.063185 0.195673
0.548678 0.011344 0.160655
0.629967 0.004111 0.221852
0.673100 0.064365 0.177514
0.564461 -0.062063 0.216482
0.577921 -0.023745 0.238524
0.544853 -0.013788 0.181298
0.673453 0.022152 0.190240
0.555406 -0.071945 0.235788
0.648071 -0.022998 0.213968
0.558632 0.043557 0.160971
0.561864 0.064154 0.165039
0.607345 -0.063052 0.205213
0.611871 -0.052381 0.193416
0.656047 0.029260 0.148928
0.602035 0.043937 0.211797
0.660185 -0.009307 0.203324
0.586774 0.016248 0.226971
0.665746 0.022462 0.169601
0.621709 -0.007864 0.235766
0.611898 0.002773 0.206058
0.675097 0.015883 0.149276
0.594278 0.007091 0.243893
0.526671 -0.013642 0.196585
0.548992 0.052784 0.175107
0.635536 0.090632 0.182099
0.558057 0.027569 0.155471
0.613223 0.030690 0.224939
0.573798 0.013556 0.243211
0.644345 0.076185 0.198971
0.653017 0.038553 0.201909
0.549678 -0.055207 0.245010
0.620129 0.066530 0.209368
0.543333 0.006154 0.201754
0.639756 -0.031449 0.226550
0.609152 -0.005632 0.225034
0.562386 -0.033116 0.244994
0.550171 -0.004558 0.236977
0.602681 -0.018907 0.240718
0.657569 0.071453 0.165617
0.627086 -0.026531 0.216338
0.594198 0.016844 0.209513
0.622176 0.046240 0.227176
0.536758 -0.056624 0.196866
0.537302 -0.002931 0.210905
0.549277 -0.033774 0.205159
0.584066 -0.056105 0.199497
0.643420 -0.006565 0.189930
0.537740 -0.042672 0.231291
0.617036 0.026575 0.205901
0.561104 -0.012323 0.201175
0.631216 0.013376 0.193905
0.660667 0.021647 0.184607
0.613360 0.012108 0.240246
0.524144 -0.001495 0.190955
0.614924 0.043220 0.202111
0.540334 -0.041649 0.211452
0.630319 -0.045935 0.213400
0.663035 0.039704 0.189395
0.530081 0.026994 0.161369
0.635056 0.060405 0.218460
0.635004 0.034054 0.188035
0.610577 0.018086 0.216876
0.579922 -0.054142 0.236804
0.592727 -0.007825 0.236668
0.543254 -0.016348 0.236805
0.635344 0.082016 0.206814
0.568155 0.045125 0.147540
0.650500 0.041757 0.155579
0.665031 0.054039 0.177683
0.621315 -0.027415 0.199334
0.581074 -0.069066 0.227590
0.535762 -0.015851 0.218093
0.650930 0.020057 0.201413
0.546804 0.038036 0.166847
0.665406 0.014701 0.197778
0.651230 0.060920 0.190521
0.593563 -0.064534 0.208535
0.641103 0.002791 0.212694
0.618841 -0.001589 0.216088
0.668098 0.069845 0.158283
0.524606 0.012608 0.168085
0.537075 -0.004776 0.176346
0.555277 0.052881 0.152417
0.593868 0.031097 0.239751
0.658693 0.016970 0.146290
0.656238 0.092170 0.176782
0.677618 0.025844 0.166374
0.620723 -0.033067 0.233165
0.552863 0.026552 0.182121
0.595248 -0.042386 0.237614
0.660856 0.042006 0.176414
0.529359 -0.045940 0.220973
0.583621 -0.044582 0.194536
0.553975 -0.022443 0.224103
0.621527 0.061869 0.197297
0.666874 0.001777 0.203448
0.584271 0.046275 0.154018
0.636205 0.044724 0.201345
0.546856 0.042861 0.148671
0.619998 -0.052889 0.227535
0.573287 0.042543 0.167674
0.665157 -0.001047 0.182583
0.598804 0.035138 0.220726
0.651552 0.002644 0.181697
0.660059 0.022460 0.158303
0.601730 0.021941 0.242461
0.667564 0.030190 0.142068
0.650900 0.062030 0.169926
0.543419 0.022192 0.162772
0.592793 0.024522 0.220314
0.570589 0.056085 0.162359
0.612059 0.054381 0.221858
0.581128 0.063368 0.147634
0.580348 -0.070384 0.213363
0.633860 0.027104 0.212813
0.614453 -0.017446 0.236758
0.646895 0.095691 0.189667
0.546916 0.024809 0.151667
0.651244 0.044615 0.187214
0.666924 0.041812 0.150958
0.680504 0.013475 0.183695
0.652868 0.012830 0.192230
0.524580 0.025431 0.181115
0.617293 -0.007528 0.203965
0.658349 -0.000999 0.211467
0.629642 0.037302 0.207709
0.562140 -0.061775 0.204968
0.628142 0.074223 0.213179
0.671254 0.036823 0.168021
0.639568 -0.010849 0.209733
0.637472 0.017554 0.205681
0.595725 0.010093 0.231239
0.558624 -0.010914 0.243543
