ply
format ascii 1.0
element vertex 256
property float x
property float y
property float z
end_header
0.632701 -0.023033 0.210451
0.623758 0.113530 0.179659
0.515989 0.026976 0.165153
0.530962 -0.058312 0.236431
0.662467 0.035748 0.142183
0.588372 0.049848 0.227256
0.575653 0.059542 0.150275
0.568487 -0.013949 0.201315
0.646452 0.038121 0.202741
0.593874 -0.067765 0.218849
0.516088 -0.013866 0.202988
0.596604 0.002795 0.238158
0.637594 0.070637 0.163886
0.553028 -0.059396 0.194418
0.618384 0.081171 0.212065
0.542864 -0.008269 0.165632
0.549377 0.002086 0.237758
0.571268 -0.039010 0.239698
0.546885 0.031954 0.138839
0.565966 0.025766 0.204266
0.610444 0.021845 0.204802
0.597180 -0.040639 0.192325
0.648182 0.003486 0.190006
0.606456 -0.032751 0.234715
0.616447 0.055291 0.187772
0.562005 -0.081746 0.219923
0.669381 0.033383 0.177769
0.550123 0.047136 0.169032
0.537095 0.013258 0.191069
0.543434 -0.036821 0.215703
0.640696 0.038263 0.165001
0.605523 -0.007921 0.195582
0.572316 0.022618 0.239297
0.615801 0.084670 0.182119
0.638750 0.006033 0.217982
0.639769 0.054282 0.139096
0.514219 0.000301 0.176981
0.619606 0.046190 0.216331
0.527397 0.007042 0.147643
0.592339 0.062540 0.200394
0.618648 -0.047055 0.215095
0.546582 -0.024498 0.240338
0.640930 0.065415 0.191607
0.630849 0.023054 0.185606
0.542209 0.020879 0.164418
0.529349 -0.055914 0.204612
0.648074 0.093979 0.166496
0.585631 0.009199 0.215813
0.585083 -0.016364 0.220407
0.536645 -0.012616 0.219090
0.524056 -0.022768 0.176050
0.620839 -0.012604 0.233395
0.572195 -0.063222 0.232548
0.571708 -0.043851 0.197826
0.588965 0.032702 0.209650
0.551999 0.054883 0.145450
0.531354 0.044474 0.153791
0.571509 -0.006859 0.240181
0.601834 0.067705 0.221579
0.554949 0.019575 0.224311
0.616790 0.100611 0.198293
0.537369 -0.016442 0.195737
0.663536 0.023757 0.197333
0.591602 -0.049393 0.232106
0.653891 0.049480 0.179258
0.630920 0.027064 0.216220
0.652567 0.055553 0.158007
0.577067 -0.064585 0.202490
0.552276 -0.054979 0.224156
0.619288 -0.001964 0.213044
0.603479 0.019157 0.225903
0.571013 0.036198 0.222989
0.562141 0.034509 0.152608
0.650909 0.024272 0.178698
0.626108 0.039253 0.197324
0.531127 0.032087 0.178044
0.552633 -0.001218 0.200529
0.587237 -0.025507 0.238445
0.639046 0.083721 0.181537
0.619339 -0.031483 0.197841
0.604012 0.083463 0.198253
0.625908 -0.031102 0.228417
0.585498 -0.000015 0.198287
0.597740 -0.060128 0.195200
0.519025 0.017718 0.184455
0.654164 0.026054 0.158165
0.546612 -0.044181 0.239104
0.626051 0.061698 0.203088
0.641069 0.017744 0.202977
0.635498 0.045703 0.182162
0.607092 0.040075 0.201823
0.669002 0.039530 0.159340
0.559213 -0.030136 0.201683
0.581729 -0.025791 0.195717
0.553649 -0.074904 0.204500
0.530232 -0.031587 0.204047
0.623799 0.096843 0.171212
0.585958 0.026417 0.228072
0.640009 -0.009524 0.200946
0.527721 0.027281 0.149810
0.519883 0.001849 0.195080
0.560075 0.066738 0.156285
0.626800 0.065728 0.177373
0.525179 0.010635 0.167256
0.529465 -0.029931 0.224478
0.526304 -0.010196 0.159241
0.570798 0.007902 0.204450
0.625213 0.011189 0.198666
0.609295 0.058880 0.208380
0.631152 0.097717 0.188533
0.600866 -0.023976 0.200325
0.566847 0.048363 0.139385
0.552700 0.014697 0.206828
0.601565 0.044655 0.217846
0.545306 0.005620 0.221674
0.608785 -0.051203 0.228178
0.567457 0.051374 0.162537
0.659901 0.039860 0.192802
0.537012 -0.005515 0.182967
0.544408 0.006733 0.173174
0.546678 -0.021372 0.209165
0.637240 0.054380 0.166894
0.652731 0.079297 0.172408
0.654988 0.009263 0.205394
0.553862 -0.050450 0.208407
0.615680 0.072360 0.195060
0.541813 0.004873 0.155861
0.618499 0.014096 0.221661
0.612326 0.031799 0.218605
0.634324 0.045529 0.151584
0.566378 -0.062914 0.214465
0.571522 -0.022524 0.236317
0.540977 -0.019978 0.177171
0.558245 -0.074035 0.233505
0.545973 0.038261 0.155687
0.545368 0.059198 0.159225
0.609272 -0.056252 0.205371
0.584959 0.048029 0.209446
0.612418 -0.045084 0.193586
0.649247 0.039529 0.151479
0.574207 0.018031 0.221913
0.611811 0.000995 0.235402
0.645570 0.081607 0.156664
0.581741 0.010830 0.241826
0.521993 -0.022693 0.191183
0.601829 0.009313 0.205018
0.533821 0.046045 0.168711
0.612115 0.099374 0.181092
0.548533 0.022372 0.150690
0.633963 -0.008184 0.220020
0.655572 0.038901 0.167139
0.560496 0.013468 0.239984
0.622183 0.086659 0.198641
0.549112 -0.058501 0.242066
0.599283 0.073245 0.207785
0.534448 -0.000092 0.196674
0.599643 0.000783 0.224011
0.557611 -0.034475 0.242206
0.540887 -0.008703 0.232974
0.594851 -0.013252 0.239636
0.645216 0.051713 0.193458
0.546962 -0.037986 0.201790
0.646584 0.036428 0.185009
0.621487 -0.016625 0.216674
0.633139 0.049490 0.205442
0.644277 0.068857 0.177230
0.539226 -0.062825 0.193380
0.581688 0.019878 0.207274
0.585458 -0.053710 0.198353
0.529470 -0.009841 0.205735
0.535852 -0.048506 0.227500
0.638970 0.059253 0.152254
0.554921 -0.014796 0.197938
0.619143 0.022667 0.193256
0.517765 -0.011340 0.184906
0.599772 0.019176 0.239027
0.630076 0.072888 0.188476
0.539266 -0.047273 0.207798
0.628317 -0.035157 0.214321
0.636497 0.085898 0.165577
0.600404 0.026503 0.212864
0.520742 0.016951 0.154691
0.635124 0.003299 0.192689
0.614442 0.069641 0.217794
0.607157 0.062083 0.195694
0.634277 -0.019041 0.227609
0.579059 -0.052074 0.235357
0.583290 -0.004208 0.234857
0.536229 -0.021553 0.232712
0.611930 0.090999 0.205890
0.624098 0.028343 0.205025
0.629456 0.012490 0.211038
0.608969 0.006443 0.215672
0.556143 0.041108 0.142959
0.643342 0.023720 0.189407
0.660469 0.046227 0.151123
0.616878 -0.018749 0.199426
0.583370 -0.066653 0.226536
0.534807 0.030949 0.160859
0.651464 0.026186 0.203837
0.595827 -0.060167 0.208033
0.644901 -0.004859 0.212002
0.517415 0.002002 0.161582
0.529751 -0.022624 0.213317
0.594172 0.037576 0.225690
0.532116 -0.012640 0.171350
0.541798 0.046674 0.146568
0.577230 0.034311 0.237150
0.656445 0.013386 0.193307
0.598341 0.049380 0.200527
0.662238 0.025676 0.170407
0.613437 0.039531 0.190695
0.601410 0.054369 0.226206
0.650720 0.052497 0.145506
0.648865 0.058403 0.170436
0.632562 0.104223 0.176889
0.615525 -0.024000 0.233300
0.541646 0.021153 0.176944
0.591949 -0.037726 0.236675
0.634466 0.035866 0.208048
0.528756 -0.053365 0.216851
0.583205 -0.042520 0.193128
0.548367 -0.025635 0.220780
0.571266 0.045136 0.150580
0.643619 0.057309 0.182450
0.630361 0.076948 0.173344
0.535504 0.035281 0.142574
0.618686 -0.043693 0.228071
0.586459 0.026765 0.240446
0.560006 0.039914 0.163503
0.615682 0.051344 0.200977
0.582667 0.038843 0.218273
0.583190 0.013790 0.229196
0.630794 0.000973 0.203975
0.639615 0.012565 0.185910
0.534577 0.014656 0.157186
0.555509 0.052670 0.157505
0.592559 0.059986 0.219939
0.565822 0.061290 0.143353
0.583647 -0.068255 0.212322
0.624179 0.041887 0.185566
0.606359 -0.009731 0.236238
0.538352 0.017579 0.146229
0.622061 0.106260 0.189189
0.657705 0.034174 0.181498
0.514160 0.014956 0.174064
0.609096 0.000135 0.203420
0.646174 0.013505 0.212748
0.564656 -0.063191 0.202846
0.605711 0.082144 0.211957
0.625756 0.053590 0.180928
0.573502 0.032505 0.212200
0.549989 -0.013341 0.240089
0.620205 0.019403 0.211485
0.634031 0.053856 0.191690
0.528452 -0.011026 0.189199
