ply
format ascii 1.0
element vertex 256
property float x
property float y
property float z
end_header
0.577736 -0.022282 0.210875
0.517577 0.094002 0.217731
0.467012 -0.026490 0.218694
0.604778 0.062027 0.274909
0.615089 0.059041 0.182331
0.527757 0.014595 0.267696
0.496081 0.032346 0.191349
0.622151 0.017474 0.225698
0.525455 -0.044273 0.191846
0.572742 0.034836 0.240952
0.611570 0.087350 0.227089
0.533119 0.003580 0.210827
0.489057 0.013116 0.238001
0.565521 0.093033 0.215209
0.558240 -0.015114 0.251263
0.511902 -0.025532 0.236621
0.488982 -0.025419 0.179268
0.496084 0.058605 0.223783
0.517225 0.066335 0.187416
0.602385 0.050538 0.222201
0.591217 0.001253 0.241899
0.562988 0.026543 0.276139
0.550141 -0.018142 0.185431
0.546603 -0.036169 0.225359
0.499656 -0.000267 0.201376
0.604227 0.035325 0.252987
0.593724 0.013553 0.209365
0.540781 0.088330 0.193691
0.564440 0.005651 0.224525
0.492960 -0.043915 0.211750
0.526322 0.025262 0.237611
0.592555 0.076029 0.249360
0.627109 0.038569 0.202156
0.476373 0.034088 0.219842
0.520746 -0.016532 0.181235
0.578326 0.052495 0.266567
0.470677 -0.001787 0.202781
0.490390 0.060461 0.196211
0.547624 0.032830 0.253746
0.527514 -0.011362 0.254665
0.601776 0.072338 0.202727
0.542858 0.076032 0.218374
0.504562 0.003938 0.258597
0.509738 0.017785 0.217575
0.582570 0.019598 0.260172
0.515815 0.049022 0.207035
0.545496 0.006171 0.242878
0.616955 0.064045 0.238872
0.486576 -0.011748 0.241090
0.600948 -0.009894 0.221722
0.560316 -0.039313 0.205005
0.498832 0.079936 0.208444
0.603912 0.044081 0.198783
0.577882 -0.027057 0.234462
0.557166 -0.002280 0.201896
0.486674 -0.019958 0.207526
0.520875 -0.034252 0.216763
0.543220 0.099486 0.218678
0.588142 0.052160 0.244109
0.486250 0.014171 0.213413
0.548643 0.000640 0.265145
0.610421 0.090690 0.249837
0.530852 -0.006725 0.231070
0.619238 0.039157 0.232400
0.500628 -0.002669 0.223861
0.620062 0.061169 0.209942
0.516483 0.067684 0.222327
0.595772 0.071597 0.226221
0.569146 0.003685 0.246259
0.498912 0.036402 0.222944
0.506786 -0.029860 0.191945
0.479924 -0.006033 0.183330
0.584506 0.027380 0.223366
0.613301 0.021501 0.204818
0.595854 0.041982 0.273328
0.603136 0.025029 0.233687
0.519480 0.087126 0.193086
0.543116 0.016964 0.223799
0.613046 0.071175 0.258205
0.478315 -0.003731 0.221448
0.529551 0.072313 0.203649
0.514881 0.024589 0.255873
0.581458 -0.007503 0.226089
0.481197 0.043729 0.201976
0.490937 -0.043450 0.187365
0.541582 -0.022746 0.243626
0.520415 -0.004925 0.198731
0.546219 -0.036343 0.190918
0.486207 -0.028633 0.224849
0.567205 -0.022286 0.194905
0.601648 0.053667 0.257524
0.606193 0.006155 0.230421
0.546651 0.019593 0.269474
0.563452 0.023308 0.257085
0.505762 0.051759 0.190771
0.586196 0.037062 0.256345
0.577688 0.037266 0.276773
0.613264 0.037748 0.215177
0.562670 0.044869 0.261542
0.606911 0.048921 0.241031
0.589227 0.018983 0.243444
0.543553 -0.044689 0.207845
0.565276 -0.014040 0.220474
0.529776 -0.029645 0.232439
0.580574 0.010337 0.230762
0.536328 0.019871 0.250831
0.555037 0.096391 0.201694
0.630465 0.030987 0.217403
0.508240 -0.043981 0.204018
0.559910 -0.026752 0.238859
0.558957 0.016907 0.236143
0.534846 -0.013101 0.190930
0.612605 0.070800 0.223561
0.591773 0.067229 0.263805
0.491041 0.030769 0.209058
0.618087 0.043204 0.187361
0.573595 -0.035963 0.219614
0.529105 0.094466 0.204641
0.590575 -0.002657 0.210224
0.533100 -0.028931 0.184305
0.532648 0.036481 0.248119
0.500974 -0.013829 0.192287
0.513436 0.071471 0.206708
0.483341 0.053346 0.214883
0.602474 0.024735 0.217156
0.592717 0.037021 0.236187
0.501320 -0.009950 0.247154
0.606341 0.075965 0.241347
0.489204 0.023640 0.226087
0.616505 0.071019 0.197040
0.611054 0.008629 0.213721
0.505405 0.074476 0.193400
0.598091 0.059224 0.210054
0.534522 0.028205 0.265961
0.603873 0.047877 0.183982
0.555160 0.088602 0.225491
0.490845 0.067386 0.211799
0.597603 0.063646 0.239385
0.524240 0.055787 0.195779
0.524309 0.080642 0.215238
0.494513 -0.031250 0.200682
0.574318 0.019496 0.241015
0.512027 0.005180 0.209730
0.502897 0.015698 0.249464
0.601543 0.084089 0.216802
0.519550 -0.000792 0.261108
0.507170 0.048314 0.225504
0.490110 0.047625 0.189040
0.550684 0.083735 0.208611
0.602710 0.081517 0.258916
0.506373 0.026642 0.230816
0.615394 0.053512 0.197329
0.493730 0.002926 0.248953
0.597871 0.089233 0.242740
0.548674 0.013021 0.255242
0.489212 -0.000019 0.211405
0.531765 0.090616 0.222413
0.554551 0.033005 0.266305
0.503315 0.073373 0.220371
0.508956 -0.035194 0.224577
0.517265 0.033802 0.245313
0.495409 -0.025746 0.235161
0.525600 -0.022220 0.243688
0.594148 0.039129 0.222299
0.522189 0.011494 0.218816
0.497292 0.010781 0.222212
0.589283 -0.015411 0.216470
0.488759 -0.006774 0.195697
0.501619 0.064847 0.202925
0.482718 -0.015811 0.228438
0.514865 0.040827 0.196019
0.570771 -0.016803 0.245851
0.557696 0.101673 0.222596
0.619294 0.049065 0.219768
0.502621 0.037871 0.208523
0.594303 0.024451 0.254778
0.560115 -0.035731 0.224294
0.476793 0.019387 0.221494
0.595386 0.013730 0.227640
0.572897 0.046100 0.252891
0.556995 0.002856 0.252666
0.613779 0.034359 0.201311
0.592867 0.054730 0.275662
0.616205 0.052534 0.232223
0.552933 -0.004605 0.241142
0.482995 0.000765 0.238886
0.538725 0.088504 0.211376
0.599864 0.011778 0.240637
0.539953 0.009417 0.274349
0.547256 -0.009417 0.197160
0.508330 -0.020182 0.183237
0.606727 0.050391 0.269301
0.573641 0.028055 0.264503
0.535553 -0.040405 0.217184
0.531367 0.079550 0.191934
0.554712 0.009594 0.216884
0.594390 0.000871 0.229119
0.613555 0.057491 0.249510
0.565256 0.003201 0.210220
0.612831 0.071737 0.209549
0.530282 0.016383 0.227456
0.587134 0.006501 0.220387
0.612046 0.049448 0.208804
0.537071 -0.003961 0.263206
0.578596 0.011464 0.249656
0.548831 0.022707 0.246461
0.608567 0.035258 0.238397
0.604019 0.058629 0.198164
0.537678 0.009931 0.260213
0.571175 0.033792 0.253353
0.540688 0.079144 0.202878
0.616137 0.030090 0.224495
0.541589 0.097872 0.203794
0.517128 0.089013 0.206408
0.551484 0.008624 0.230796
0.581737 0.027704 0.235547
0.493176 0.049150 0.200893
0.505703 0.062591 0.184873
0.558091 0.016577 0.266017
0.623912 0.026942 0.207565
0.602409 0.069004 0.250706
0.516681 -0.036752 0.188122
0.603322 0.062569 0.223159
0.513191 0.083853 0.222656
0.486633 0.040328 0.221325
0.615234 0.080841 0.217389
0.570513 -0.033526 0.207340
0.484910 0.037115 0.192742
0.608822 0.091397 0.237960
0.610339 0.019719 0.224751
0.585224 0.031711 0.269558
0.583463 0.056686 0.256784
0.609059 -0.000494 0.220923
0.514031 0.013903 0.260756
0.476555 -0.017872 0.218753
0.606044 0.072993 0.267342
0.517679 0.022614 0.224593
0.511021 -0.015281 0.243623
0.519738 -0.044507 0.202765
0.556247 -0.030466 0.198791
0.590662 -0.015369 0.227934
0.596483 0.052683 0.235950
0.493617 -0.008543 0.185139
0.495123 0.047018 0.225398
0.520204 0.074580 0.197331
0.526625 0.083333 0.202183
0.492904 -0.046418 0.198237
0.568603 0.008415 0.234815
0.493699 0.056122 0.209946
0.543852 0.023040 0.258803
0.469827 -0.011503 0.208676
0.610264 0.043477 0.226424
0.552112 0.101688 0.211909
0.616516 0.060213 0.222108
0.515493 -0.005938 0.251824
0.623164 0.046359 0.209417
