ply
format ascii 1.0
element vertex 256
property float x
property float y
property float z
end_header
0.655423 -0.048616 0.153886
0.551608 0.059865 0.134525
0.676810 0.070545 0.115395
0.548511 -0.068302 0.178762
0.626936 0.034476 0.185016
0.530879 0.001934 0.173246
0.696064 0.006242 0.136564
0.603917 -0.030222 0.197460
0.601792 -0.081987 0.146504
0.649654 0.082335 0.163299
0.648501 0.026560 0.137894
0.679089 0.024312 0.092248
0.618888 -0.015057 0.152231
0.588324 -0.087132 0.194751
0.577734 -0.034342 0.159776
0.662287 -0.005650 0.167440
0.629433 -0.073881 0.179028
0.528450 0.022416 0.135927
0.536339 -0.033458 0.152718
0.595940 0.012246 0.168696
0.633209 -0.006146 0.191106
0.566796 -0.041985 0.197542
0.671810 -0.019957 0.135432
0.681230 0.039032 0.131459
0.573130 -0.094517 0.163690
0.552589 -0.002605 0.146680
0.548360 0.036974 0.159304
0.640535 -0.041536 0.183093
0.632467 0.054141 0.158548
0.619102 -0.047445 0.145260
0.540716 -0.028155 0.183472
0.575333 -0.014852 0.185988
0.599753 -0.059385 0.191710
0.652723 0.022789 0.167346
0.674003 0.011440 0.118108
0.599768 0.000232 0.193925
0.657551 0.054127 0.129956
0.650405 -0.002478 0.142347
0.525596 -0.008816 0.144338
0.638358 -0.069508 0.147616
0.676671 0.015206 0.154154
0.610509 -0.039615 0.172332
0.659890 0.093489 0.140244
0.629840 0.009066 0.160722
0.576031 -0.069636 0.174982
0.558108 0.033459 0.131648
0.563047 -0.081404 0.202672
0.669671 0.046201 0.106912
0.672209 -0.029235 0.160568
0.607549 -0.088627 0.177412
0.646186 -0.024760 0.158044
0.554411 -0.044564 0.169943
0.647323 0.047783 0.177930
0.664910 0.040667 0.150870
0.596436 -0.013229 0.163542
0.553972 -0.008033 0.174160
0.591642 -0.053908 0.153312
0.621896 0.032490 0.161170
0.683636 -0.008365 0.153049
0.554495 0.014339 0.165984
0.619107 0.011572 0.185231
0.694842 0.019131 0.110975
0.628252 -0.023508 0.175685
0.560949 -0.072879 0.157928
0.649607 0.068877 0.145207
0.620320 -0.086103 0.158390
0.537634 0.043162 0.140867
0.647353 -0.060762 0.174607
0.564469 0.046813 0.148044
0.554084 -0.021737 0.156737
0.612385 -0.009585 0.179665
0.670763 0.002240 0.138001
0.620432 -0.056375 0.188132
0.547599 0.020470 0.144796
0.576519 -0.046674 0.179311
0.525450 0.018587 0.156473
0.571148 -0.062401 0.198678
0.664748 0.029901 0.120597
0.640640 -0.005855 0.169718
0.535439 -0.014766 0.161270
0.659676 -0.037013 0.174537
0.582355 -0.027584 0.200040
0.580169 -0.003078 0.169741
0.623256 -0.033398 0.192991
0.561246 -0.026610 0.176432
0.588183 -0.098896 0.178876
0.676084 0.060433 0.132386
0.652619 0.062584 0.166178
0.633292 -0.034137 0.143582
0.658692 -0.031724 0.143409
0.585376 -0.073525 0.152131
0.686875 0.039754 0.112798
0.536172 0.003903 0.134807
0.587249 -0.045706 0.195407
0.680242 0.019907 0.133662
0.567123 0.051156 0.128562
0.615647 -0.013407 0.197545
0.620966 -0.072844 0.142211
0.591456 -0.088686 0.164182
0.611911 0.003935 0.166364
0.541331 -0.018946 0.143249
0.610445 0.022595 0.171204
0.637955 0.032602 0.170349
0.568998 -0.057133 0.164268
0.656351 0.009413 0.154331
0.636732 0.021164 0.149856
0.606539 -0.075452 0.188975
0.547417 0.053053 0.152539
0.663508 0.080983 0.151631
0.558914 -0.056083 0.185044
0.541263 0.034419 0.126564
0.641982 -0.024648 0.185893
0.604235 -0.042385 0.154579
0.661150 -0.016627 0.154399
0.537348 0.019966 0.168621
0.532800 0.003361 0.155550
0.664365 0.020208 0.139412
0.681497 -0.003575 0.126539
0.646548 0.009478 0.175389
0.651713 0.042877 0.140848
0.678781 0.025555 0.108833
0.532051 0.033267 0.153060
0.631259 0.019225 0.177184
0.649669 -0.064608 0.158421
0.645197 0.086385 0.148132
0.544042 -0.030493 0.166769
0.641547 -0.040027 0.160889
0.628041 0.045978 0.173728
0.572113 -0.020474 0.166194
0.637186 0.060066 0.172783
0.676641 0.029979 0.145692
0.603059 0.013765 0.182826
0.636835 -0.012247 0.155345
0.663598 0.060277 0.116667
0.665944 0.036524 0.135722
0.611853 -0.044134 0.194416
0.553064 0.047428 0.122646
0.658963 0.026297 0.153371
0.598204 -0.000320 0.177796
0.691331 0.007587 0.120915
0.625505 -0.002663 0.170061
0.551075 -0.039983 0.184242
0.587083 -0.008485 0.193571
0.665977 0.055093 0.142759
0.667830 -0.000736 0.153419
0.680807 0.008742 0.104627
0.564540 0.061565 0.142533
0.601907 -0.063566 0.147394
0.634563 -0.058034 0.183009
0.538292 -0.014075 0.178627
0.583359 -0.084621 0.178803
0.565721 -0.027875 0.190589
0.613547 0.004113 0.197789
0.642413 -0.073337 0.168604
0.675419 0.047061 0.120541
0.642621 0.001220 0.154222
0.638948 -0.055329 0.144270
0.688155 0.025438 0.122291
0.689810 0.004320 0.149564
0.584886 -0.058479 0.201915
0.636724 0.067966 0.159571
0.552763 0.038476 0.145612
0.623927 -0.030009 0.153768
0.645430 0.047734 0.163629
0.561615 -0.065591 0.173296
0.598330 -0.017314 0.200055
0.524286 0.010676 0.142863
0.578428 -0.080237 0.202015
0.587465 -0.024064 0.163340
0.543399 0.008336 0.173583
0.620116 -0.083922 0.173958
0.646984 0.032501 0.150284
0.658282 -0.054058 0.169472
0.644488 0.012310 0.142693
0.581506 -0.050143 0.161739
0.635035 -0.077842 0.157941
0.684977 -0.008010 0.139000
0.541303 0.016025 0.156194
0.658555 -0.013861 0.141350
0.691345 0.022840 0.097915
0.567086 -0.039761 0.170811
0.528075 -0.020602 0.150521
0.676735 -0.021206 0.150682
0.655699 0.092393 0.154071
0.549142 0.007479 0.138548
0.691353 0.017753 0.141351
0.633956 0.036874 0.157689
0.542994 0.019694 0.132395
0.539057 0.030070 0.140886
0.662132 -0.037367 0.155229
0.644029 0.058660 0.153803
0.604552 -0.090428 0.164783
0.563109 0.063622 0.129004
0.640114 0.016763 0.166645
0.524769 -0.005589 0.160634
0.659675 0.072648 0.161832
0.639107 0.038529 0.181984
0.623833 0.020725 0.166599
0.531751 -0.027426 0.164084
0.651450 -0.046928 0.178699
0.542747 -0.006679 0.138207
0.615869 -0.062137 0.147196
0.557290 0.048697 0.137247
0.677757 0.038103 0.101224
0.631229 -0.019888 0.190878
0.649532 -0.009487 0.153426
0.654053 0.082311 0.138538
0.671564 -0.016523 0.161707
0.681937 0.008050 0.139012
0.621045 0.023638 0.188370
0.620688 -0.000911 0.184387
0.536002 0.032371 0.164983
0.598348 -0.085909 0.187292
0.651815 -0.000008 0.163481
0.669602 0.049130 0.131447
0.555169 0.002219 0.162943
0.634850 0.005421 0.171894
0.563099 -0.068469 0.191321
0.658978 0.009685 0.135509
0.622289 0.009713 0.172195
0.680950 0.059090 0.121008
0.681361 0.050151 0.108157
0.599780 -0.047045 0.192322
0.571523 -0.078400 0.154736
0.623870 0.044593 0.160433
0.608703 -0.021724 0.153842
0.669081 0.008781 0.161242
0.670861 0.069587 0.126013
0.576019 -0.049878 0.198678
0.629763 -0.009680 0.179070
0.562975 -0.037601 0.183701
0.549883 -0.021291 0.179778
0.550143 -0.031632 0.151229
0.538323 0.044011 0.152769
0.618213 -0.073431 0.183084
0.676496 0.022211 0.122517
0.609600 0.003364 0.183727
0.593135 -0.000008 0.167048
0.639833 0.075602 0.151019
0.591734 -0.034633 0.160016
0.548433 0.025950 0.163618
0.605858 -0.005904 0.168741
0.582873 -0.003659 0.183685
0.550532 -0.007321 0.157951
0.555575 -0.019133 0.168025
0.612015 -0.080946 0.152040
0.631503 -0.013940 0.165571
0.542950 0.046743 0.128386
0.619453 0.032043 0.176439
0.568890 -0.056974 0.176159
0.548459 0.005853 0.153420
0.653997 0.011312 0.166624
0.631752 -0.080301 0.168748
0.526231 0.010539 0.167164
0.542840 -0.023870 0.157100
0.635100 0.009849 0.150463
