ply
format ascii 1.0
element vertex 256
property float x
property float y
property float z
end_header
0.543435 0.009413 0.209796
0.591865 0.139090 0.181014
0.457573 0.108932 0.175601
0.438288 0.021317 0.242547
0.585805 0.054541 0.135789
0.537049 0.093018 0.233317
0.523377 0.115399 0.154627
0.489478 0.046296 0.205602
0.584705 0.061908 0.201075
0.489371 -0.013997 0.220190
0.442660 0.069521 0.211885
0.524182 0.047089 0.240578
0.593538 0.093276 0.165638
0.455119 0.012712 0.199006
0.575756 0.110662 0.213451
0.466342 0.065608 0.172312
0.481591 0.067278 0.243654
0.483088 0.020701 0.243193
0.543458 0.059879 0.206792
0.484915 0.102357 0.146260
0.503651 0.082787 0.213630
0.569514 0.028340 0.188026
0.502808 0.010179 0.194012
0.597658 0.045536 0.171429
0.517054 0.011058 0.235743
0.454727 -0.012543 0.223350
0.560660 0.086297 0.193462
0.497131 0.112902 0.176130
0.472464 0.085642 0.198862
0.573330 0.066892 0.166710
0.457798 0.036048 0.221203
0.524952 0.035669 0.197263
0.511298 0.075500 0.243883
0.562331 0.032616 0.216956
0.572738 0.116105 0.183860
0.445242 0.084861 0.186695
0.543839 0.105563 0.207431
0.457798 0.087333 0.156429
0.588134 0.090552 0.196775
0.562802 0.076699 0.219137
0.520491 -0.006160 0.215009
0.580778 0.081937 0.144601
0.467465 0.044552 0.245929
0.478374 0.092192 0.172091
0.436065 0.025758 0.210986
0.561464 0.052993 0.186553
0.515908 0.058774 0.219230
0.462608 0.060636 0.225702
0.504361 0.035873 0.223366
0.443936 0.059936 0.184070
0.544760 0.030025 0.234279
0.528851 0.079062 0.213364
0.472780 -0.001055 0.235536
0.478914 0.018248 0.201319
0.499486 0.120859 0.152662
0.594409 0.070570 0.178382
0.477395 0.118961 0.163268
0.590487 0.038492 0.193987
0.497571 0.049390 0.244266
0.558924 0.099065 0.224733
0.608856 0.109996 0.170741
0.579544 0.045777 0.156923
0.581435 0.129498 0.200037
0.460042 0.058399 0.202598
0.496242 0.002813 0.233924
0.564338 0.054659 0.217249
0.592642 0.063432 0.156344
0.474795 -0.002930 0.205180
0.458123 0.015525 0.228796
0.536871 0.059336 0.228161
0.540853 0.034092 0.213578
0.493610 0.080555 0.232567
0.501259 0.097695 0.158093
0.474344 0.106080 0.187091
0.534823 0.004279 0.228058
0.572164 0.043431 0.201578
0.480887 0.064731 0.206230
0.503283 0.025832 0.241020
0.527008 0.008351 0.198049
0.562678 0.119260 0.200877
0.577312 0.080290 0.182088
0.592618 0.104600 0.181962
0.554125 0.022874 0.199292
0.510693 0.051443 0.201590
0.577800 0.045123 0.176608
0.562502 0.067568 0.199821
0.494843 -0.007680 0.196469
0.457707 0.097919 0.194207
0.515203 0.089057 0.227976
0.458704 0.026957 0.244324
0.552099 0.044060 0.201740
0.474033 0.035853 0.206347
0.547114 0.086271 0.215918
0.495757 0.030126 0.198817
0.573450 0.086543 0.207468
0.449390 -0.001963 0.208719
0.447597 0.047203 0.210818
0.525807 0.073415 0.231834
0.584323 0.124272 0.172450
0.448827 0.048010 0.231277
0.512736 0.127760 0.162659
0.452356 0.082519 0.204187
0.458847 0.090122 0.176269
0.450171 0.071474 0.167527
0.501405 0.064709 0.208971
0.467076 0.105242 0.159193
0.592548 0.121283 0.189132
0.513949 0.023094 0.202033
0.591719 0.054718 0.184935
0.509730 0.109409 0.144678
0.597284 0.087959 0.182076
0.528736 0.024144 0.236096
0.563200 0.102545 0.197624
0.478583 0.073038 0.227985
0.463596 0.069372 0.190218
0.510587 -0.006183 0.228704
0.513920 0.110340 0.167635
0.474835 0.077896 0.180135
0.546383 0.074284 0.199026
0.467097 0.048934 0.214923
0.574635 0.064932 0.187467
0.547968 0.071303 0.225964
0.460637 0.019669 0.213062
0.470397 0.078578 0.163113
0.547822 0.048394 0.222725
0.577940 0.066249 0.149634
0.582770 0.081186 0.164828
0.594292 0.048961 0.149367
0.466665 0.002682 0.217942
0.490421 0.035535 0.240115
0.460411 0.055068 0.183605
0.455564 -0.004649 0.237316
0.557763 0.017531 0.214177
0.488388 0.107339 0.163219
0.585944 0.056953 0.169585
0.496633 0.126499 0.167234
0.560241 0.112673 0.216160
0.488360 0.078654 0.212808
0.580588 0.111020 0.198349
0.507467 -0.009791 0.205832
0.514546 -0.000580 0.194060
0.573958 0.093913 0.189753
0.531450 0.094554 0.213570
0.572883 0.027547 0.203288
0.509670 0.071746 0.228803
0.529826 0.052276 0.207272
0.514656 0.060656 0.245485
0.443216 0.059872 0.199287
0.481832 0.118399 0.177800
0.575492 0.131035 0.183257
0.483665 0.091787 0.157860
0.544117 0.101863 0.223416
0.496710 0.072471 0.245268
0.581360 0.096992 0.173450
0.454769 0.012873 0.246821
0.548789 0.093148 0.201031
0.578069 0.077144 0.197020
0.464691 0.074377 0.204276
0.547606 0.011444 0.226862
0.606260 0.094780 0.172729
0.525192 0.044649 0.226209
0.473022 0.030658 0.246788
0.468940 0.061585 0.239307
0.515592 0.033404 0.241877
0.536600 0.019787 0.216950
0.516724 0.070614 0.211219
0.441192 0.015770 0.198925
0.456593 0.067058 0.213508
0.459601 0.034209 0.207210
0.486880 0.003327 0.200642
0.557180 0.034886 0.190344
0.446490 0.028397 0.233467
0.476770 0.051681 0.203221
0.551082 0.057384 0.194839
0.573544 0.061912 0.209272
0.602416 0.102415 0.160226
0.536738 0.067972 0.215557
0.591866 0.074419 0.147176
0.534323 0.060334 0.241520
0.443941 0.072296 0.193860
0.559749 0.095847 0.208888
0.581476 0.050620 0.194341
0.536067 0.039505 0.238427
0.448950 0.028976 0.213593
0.534367 0.000284 0.213748
0.456679 0.098613 0.164409
0.484021 0.005775 0.238041
0.591363 0.071504 0.191221
0.508978 0.046841 0.238137
0.459066 0.052132 0.239146
0.573534 0.122484 0.207918
0.497450 0.106777 0.149395
0.556074 0.080688 0.208117
0.536498 0.080485 0.229101
0.595057 0.108165 0.169604
0.530538 0.020770 0.200053
0.480910 -0.008755 0.228651
0.451698 0.054940 0.220590
0.475832 0.104728 0.169577
0.562352 0.074123 0.188557
0.493857 -0.007509 0.209405
0.535477 0.046032 0.217129
0.576888 0.053713 0.146546
0.447694 0.086111 0.171118
0.455227 0.065905 0.178921
0.487021 0.117320 0.154860
0.520749 0.083924 0.241601
0.558028 0.044231 0.213321
0.595743 0.127083 0.177468
0.554703 0.062996 0.216504
0.598171 0.057038 0.165943
0.572901 0.077008 0.153770
0.548880 0.091358 0.229452
0.478928 0.091787 0.184614
0.501984 0.012892 0.238675
0.437372 0.027696 0.223281
0.489518 0.014610 0.195810
0.467513 0.043539 0.226176
0.582329 0.036402 0.203291
0.513622 0.103936 0.155174
0.476295 0.109666 0.151438
0.522765 -0.003808 0.228008
0.502633 0.102745 0.169277
0.579419 0.034390 0.182465
0.526216 0.086835 0.222550
0.567308 0.041640 0.181948
0.525855 0.072931 0.244063
0.468273 0.090403 0.165453
0.517581 0.078218 0.222129
0.503049 0.116616 0.164143
0.583686 0.071560 0.172186
0.514416 0.121376 0.149008
0.479626 -0.009607 0.214428
0.537279 0.014740 0.233629
0.568298 0.101417 0.215640
0.587943 0.132804 0.190588
0.580086 0.058554 0.158489
0.472143 0.092084 0.154348
0.598209 0.044236 0.183189
0.451360 0.098275 0.184264
0.532171 0.040927 0.204968
0.574436 0.120462 0.194877
0.588840 0.064088 0.141985
0.573562 0.035948 0.211515
0.464329 0.003769 0.206478
0.552777 0.031578 0.210220
0.516713 0.063359 0.232836
0.475441 0.053065 0.245641
0.592888 0.075570 0.164442
0.551911 0.108129 0.199573
0.572600 0.053529 0.183605
0.593793 0.045948 0.160577
0.453985 0.067663 0.197086
0.492098 0.102589 0.173862
0.571114 0.072972 0.212168
0.587757 0.040155 0.173333
