ply
format ascii 1.0
element vertex 256
property float x
property float y
property float z
end_header
0.633921 -0.027374 0.218230
0.598040 0.095019 0.164005
0.523771 -0.028757 0.144004
0.546512 -0.093825 0.232866
0.652445 0.024718 0.141075
0.567618 0.028647 0.213719
0.571867 0.020756 0.135646
0.565205 -0.035676 0.195437
0.628521 0.031356 0.198533
0.606183 -0.081888 0.200817
0.590644 -0.049275 0.239789
0.546408 -0.071751 0.164943
0.615660 0.057288 0.137858
0.593077 0.064783 0.200163
0.598274 -0.002287 0.227855
0.565923 -0.100609 0.193676
0.559715 -0.017213 0.232695
0.557411 -0.016450 0.124414
0.539159 -0.055074 0.224502
0.586435 -0.106174 0.226629
0.594368 0.016533 0.189284
0.601066 -0.024957 0.195937
0.531374 -0.039165 0.178079
0.556013 0.000817 0.193791
0.622710 0.027246 0.160731
0.558556 -0.041617 0.149531
0.626582 -0.062268 0.222078
0.643831 -0.000232 0.195539
0.655931 0.029832 0.175395
0.619288 0.060557 0.172234
0.547531 0.002457 0.150824
0.559151 -0.068249 0.197020
0.601361 -0.078267 0.234763
0.575303 0.044706 0.187054
0.628256 0.002766 0.220569
0.530553 -0.064050 0.195272
0.586396 0.068751 0.172302
0.613348 -0.031788 0.237602
0.602455 0.037180 0.207435
0.578916 -0.014036 0.209299
0.612414 -0.050433 0.201250
0.570898 -0.084951 0.217812
0.562911 -0.044817 0.233251
0.541828 -0.031287 0.208826
0.615782 0.001211 0.196443
0.534957 -0.054377 0.147018
0.543401 -0.091464 0.206601
0.585514 -0.038806 0.216013
0.584312 -0.061042 0.195830
0.600845 0.039840 0.179772
0.545508 -0.022450 0.160951
0.630420 0.035975 0.134208
0.563885 0.003470 0.218852
0.584695 -0.025496 0.237434
0.553076 0.007420 0.127071
0.535334 -0.008562 0.132895
0.586275 0.010751 0.211372
0.605945 0.046998 0.156907
0.602393 0.082238 0.183480
0.638079 0.044657 0.165081
0.651070 0.024390 0.197849
0.575801 -0.088924 0.240352
0.627496 0.015982 0.180505
0.541282 -0.039064 0.130885
0.609261 0.014770 0.213852
0.579411 0.049839 0.210508
0.586642 -0.098228 0.205748
0.614152 0.050688 0.194050
0.560215 -0.064440 0.218943
0.612350 -0.054030 0.238386
0.546753 -0.057094 0.181920
0.528384 -0.059461 0.168365
0.570124 0.023491 0.192905
0.614069 -0.012379 0.214701
0.578435 -0.066818 0.239460
0.643679 0.019124 0.161740
0.643926 0.041965 0.187899
0.623850 -0.013582 0.235187
0.576167 -0.080734 0.197119
0.622243 0.039613 0.178142
0.566834 -0.006963 0.140228
0.548512 -0.019865 0.192988
0.631983 -0.048922 0.206422
0.521259 -0.043104 0.158766
0.549091 -0.008455 0.210404
0.555572 -0.074766 0.235402
0.595854 -0.002904 0.200492
0.547201 -0.054781 0.205263
0.620494 -0.030469 0.204075
0.547356 -0.041625 0.166810
0.576164 -0.006465 0.232023
0.630025 -0.045581 0.231837
0.655966 0.036341 0.156213
0.584496 0.078130 0.189371
0.629783 0.012187 0.203938
0.542928 -0.072470 0.211124
0.625233 0.044474 0.150475
0.646644 0.014513 0.181851
0.574225 0.001731 0.199193
0.612490 0.021385 0.196272
0.545930 -0.029337 0.228244
0.585150 0.028750 0.202955
0.545536 -0.024951 0.142399
0.557772 -0.056595 0.162935
0.612968 -0.075366 0.216738
0.614002 0.065090 0.154472
0.531852 -0.013928 0.152522
0.591019 0.054304 0.184603
0.577300 -0.019410 0.192058
0.553808 0.022604 0.136666
0.638235 -0.013575 0.207638
0.596170 -0.089653 0.217978
0.638508 0.032727 0.152253
0.570272 0.005932 0.125707
0.601323 0.076896 0.167153
0.528576 -0.028004 0.165332
0.638627 0.030023 0.174009
0.589639 -0.045002 0.198535
0.620224 -0.065397 0.201581
0.563712 0.011767 0.147348
0.644844 0.009812 0.210188
0.578049 0.060406 0.195667
0.564145 0.014987 0.205579
0.595296 0.023208 0.216657
0.587952 0.084774 0.174965
0.590840 0.047029 0.199106
0.607461 0.060746 0.183323
0.631396 -0.029734 0.234624
0.592691 -0.015754 0.221203
0.550101 -0.039234 0.191442
0.550104 -0.008874 0.139033
0.542007 0.010736 0.137971
0.544929 -0.070267 0.190530
0.556929 -0.084011 0.204479
0.610470 0.027714 0.181379
0.587661 0.035307 0.189113
0.599564 -0.021579 0.236168
0.598927 -0.065410 0.196822
0.571722 0.039538 0.200951
0.563388 -0.009229 0.202497
0.576789 -0.038412 0.238453
0.625640 -0.005422 0.206279
0.557933 -0.053546 0.191303
0.549656 -0.057286 0.147613
0.561738 -0.061435 0.238411
0.536506 -0.039692 0.149122
0.619130 0.044165 0.164301
0.537495 -0.050528 0.191515
0.548238 -0.044922 0.231042
0.622982 0.030242 0.146221
0.578123 -0.000402 0.216093
0.613652 0.013002 0.183918
0.535323 -0.067000 0.180146
0.600408 0.003309 0.214440
0.636470 -0.010918 0.221771
0.600100 -0.064082 0.237243
0.536891 -0.046865 0.212844
0.636706 0.024592 0.187422
0.620122 -0.024784 0.221127
0.606616 0.059162 0.165684
0.591863 -0.018159 0.204539
0.604369 0.010198 0.199952
0.544404 -0.022318 0.124708
0.549763 -0.084048 0.223187
0.561933 -0.086740 0.241422
0.565791 -0.031108 0.233536
0.558787 -0.023366 0.138142
0.580295 0.023912 0.217207
0.603011 0.042396 0.194216
0.545618 -0.019732 0.218218
0.578815 0.015352 0.200612
0.621760 0.023715 0.207914
0.641459 0.023731 0.207801
0.568997 -0.009799 0.220654
0.586707 -0.089552 0.228074
0.565564 -0.058822 0.207501
0.548900 -0.062564 0.233664
0.536365 -0.049693 0.159796
0.629644 0.005930 0.191803
0.554029 -0.038874 0.135759
0.526434 -0.053424 0.180426
0.606572 -0.011113 0.202271
0.595003 0.067753 0.182801
0.600269 -0.035164 0.237494
0.573480 -0.051604 0.238124
0.618338 0.037241 0.190732
0.608491 -0.035955 0.196750
0.579831 0.061017 0.182175
0.630673 0.041660 0.188232
0.562648 -0.022733 0.195486
0.554941 -0.029105 0.151611
0.639267 0.041727 0.142648
0.618340 0.005131 0.209212
0.561859 -0.004167 0.128392
0.581345 0.036735 0.214594
0.604864 0.091726 0.174849
0.650366 0.040064 0.169547
0.624801 0.057287 0.152778
0.613029 -0.072536 0.234198
0.556976 -0.003679 0.227193
0.545598 -0.055874 0.167213
0.655329 0.034953 0.187213
0.554968 0.006461 0.208613
0.546076 -0.003685 0.127710
0.533745 0.000649 0.141735
0.574631 0.012367 0.217293
0.617196 0.050981 0.180982
0.606367 0.048199 0.171985
0.630494 -0.049433 0.219816
0.589806 -0.077204 0.239703
0.555905 -0.064685 0.172425
0.640661 0.001324 0.219074
0.647446 0.012366 0.197862
0.621629 0.027548 0.173143
0.572333 0.005886 0.137996
0.632000 0.047118 0.176340
0.521888 -0.046585 0.171116
0.608711 -0.006351 0.233208
0.547703 -0.049327 0.137745
0.602181 0.025001 0.205271
0.655318 0.021396 0.152639
0.560283 -0.001386 0.149085
0.526359 -0.009782 0.142279
0.555126 -0.071805 0.209622
0.596404 0.028829 0.182953
0.586047 -0.013316 0.233984
0.553761 0.008094 0.139783
0.589697 0.002845 0.220176
0.564205 0.018025 0.126621
0.641107 0.034120 0.196733
0.540222 -0.031130 0.176082
0.622636 -0.059022 0.234423
0.588038 0.006898 0.200051
0.540997 -0.063948 0.152769
0.568303 0.005426 0.229906
0.583333 0.003076 0.232235
0.628527 0.037122 0.166397
0.635787 0.028090 0.141359
0.608510 0.056897 0.147807
0.571389 -0.061399 0.197458
0.535769 -0.018283 0.139731
0.574139 -0.043376 0.196797
0.593311 -0.088528 0.204217
0.633751 0.011577 0.215046
0.565828 -0.076891 0.201361
0.598594 0.073723 0.192252
0.521378 -0.031257 0.156657
0.632122 -0.005232 0.196640
0.634753 0.026541 0.161440
0.609881 0.032957 0.199685
0.543759 -0.046040 0.180623
0.649143 0.025274 0.186476
0.617604 -0.076161 0.204646
0.551528 -0.008530 0.151176
0.631872 -0.037133 0.223853
0.583555 -0.098932 0.235004
