ply
format ascii 1.0
element vertex 256
property float x
property float y
property float z
end_header
0.490055 0.199565 0.202574
0.423490 0.347758 0.161201
0.551489 0.308814 0.138442
0.413110 0.271694 0.244355
0.525700 0.220269 0.116981
0.496321 0.287123 0.203465
0.416992 0.196310 0.259019
0.387733 0.305705 0.197118
0.528993 0.243271 0.174383
0.469695 0.243258 0.241109
0.436035 0.210090 0.212612
0.446107 0.277216 0.207780
0.523137 0.268195 0.132446
0.482429 0.246055 0.190609
0.516931 0.303969 0.167104
0.419075 0.335405 0.203556
0.467398 0.199709 0.240423
0.411262 0.237017 0.271333
0.400849 0.225203 0.232831
0.409430 0.308266 0.228622
0.511082 0.209817 0.170159
0.404362 0.272627 0.205926
0.497925 0.231302 0.220414
0.502680 0.265407 0.164514
0.432577 0.240805 0.230366
0.540343 0.221209 0.149622
0.411897 0.318336 0.174791
0.453167 0.273141 0.241886
0.543748 0.248591 0.115062
0.449307 0.223230 0.256099
0.476106 0.269123 0.219958
0.510233 0.258982 0.197232
0.461555 0.217938 0.196921
0.436898 0.250748 0.259669
0.417487 0.300505 0.198461
0.518540 0.242382 0.145429
0.507772 0.228004 0.193248
0.532378 0.271088 0.159840
0.547603 0.278379 0.120671
0.463338 0.191662 0.209025
0.451293 0.249576 0.206853
0.517111 0.282953 0.184086
0.442769 0.196891 0.251070
0.434646 0.331674 0.181911
0.501110 0.238668 0.166242
0.395421 0.284344 0.229023
0.526857 0.300411 0.142895
0.476963 0.271794 0.192782
0.492333 0.287646 0.177301
0.489417 0.208299 0.228569
0.421248 0.221458 0.248111
0.423317 0.282827 0.223857
0.420742 0.201778 0.230436
0.498599 0.257327 0.219097
0.414133 0.247467 0.248446
0.447994 0.186906 0.229564
0.398466 0.328895 0.192029
0.533064 0.218810 0.173174
0.539845 0.251074 0.138964
0.518338 0.219365 0.139077
0.460599 0.234172 0.221896
0.539452 0.300562 0.161812
0.419070 0.258511 0.226010
0.522990 0.247627 0.123357
0.432513 0.213463 0.267007
0.413742 0.341254 0.182147
0.402135 0.318548 0.210806
0.468877 0.221305 0.241769
0.437927 0.231595 0.211360
0.542242 0.272691 0.140862
0.513433 0.207856 0.191550
0.474810 0.250202 0.211340
0.399644 0.297885 0.213473
0.478686 0.190427 0.222951
0.459163 0.281262 0.223399
0.489729 0.216987 0.191691
0.524452 0.264791 0.177939
0.424519 0.314828 0.211011
0.532975 0.231751 0.131973
0.492567 0.261816 0.181291
0.405337 0.201684 0.243860
0.399150 0.289672 0.194486
0.433824 0.269168 0.242619
0.476466 0.284773 0.207656
0.509254 0.245264 0.183275
0.518878 0.227323 0.157930
0.505021 0.214134 0.214529
0.532383 0.252090 0.156731
0.398580 0.234054 0.249717
0.435098 0.261972 0.210963
0.468756 0.263183 0.237999
0.537145 0.315206 0.150326
0.412489 0.332701 0.162401
0.506971 0.284289 0.166353
0.432709 0.331656 0.163552
0.418259 0.229777 0.227154
0.430069 0.234370 0.264247
0.517373 0.227224 0.177504
0.498547 0.244910 0.199008
0.417793 0.317625 0.192490
0.389975 0.282288 0.211243
0.464527 0.260292 0.200395
0.516121 0.253030 0.166734
0.524266 0.290466 0.158084
0.513709 0.261162 0.151133
0.490747 0.270366 0.204845
0.536030 0.265165 0.120015
0.536218 0.233095 0.162068
0.429799 0.348147 0.179023
0.501629 0.275916 0.187782
0.409523 0.244710 0.232022
0.524718 0.298347 0.183080
0.506999 0.296688 0.182092
0.406295 0.306344 0.185588
0.410509 0.292147 0.234149
0.409272 0.273266 0.224800
0.497514 0.226728 0.179745
0.443455 0.275448 0.228171
0.516539 0.232212 0.125596
0.471096 0.233758 0.192086
0.488690 0.246085 0.226486
0.455082 0.240908 0.248809
0.483442 0.215440 0.207002
0.536173 0.314378 0.133758
0.448490 0.257376 0.249882
0.429028 0.254095 0.238691
0.500451 0.207320 0.181919
0.414071 0.289475 0.209591
0.461815 0.277797 0.205145
0.447547 0.191862 0.209236
0.455033 0.206500 0.205400
0.487501 0.282167 0.218341
0.481177 0.234697 0.235239
0.529897 0.262078 0.145290
0.496076 0.199146 0.218203
0.517090 0.270322 0.162903
0.509288 0.289937 0.195891
0.494327 0.241608 0.180324
0.430038 0.204924 0.253186
0.489327 0.245907 0.211143
0.420635 0.302565 0.218848
0.533449 0.238836 0.145235
0.488308 0.281847 0.192023
0.526359 0.215607 0.152516
0.483039 0.261803 0.230950
0.429178 0.194818 0.220350
0.463519 0.186630 0.222941
0.474545 0.210257 0.196625
0.542338 0.300097 0.145766
0.454015 0.194124 0.242166
0.398139 0.317548 0.181031
0.520988 0.220259 0.190625
0.521737 0.273358 0.149432
0.486643 0.258659 0.197333
0.506836 0.265961 0.178368
0.530308 0.252785 0.112010
0.519458 0.289990 0.171752
0.435006 0.192924 0.239726
0.547353 0.265892 0.128703
0.453683 0.214328 0.245821
0.409558 0.260280 0.236574
0.425006 0.337810 0.190828
0.418468 0.235703 0.241733
0.392821 0.272372 0.220988
0.436734 0.346829 0.166043
0.420487 0.329027 0.180115
0.422062 0.270792 0.233498
0.534408 0.278797 0.125568
0.451288 0.263619 0.206187
0.404063 0.332954 0.176249
0.509432 0.244962 0.155810
0.527974 0.234459 0.117812
0.429570 0.249438 0.213909
0.489786 0.222305 0.227225
0.540582 0.242634 0.127838
0.497666 0.251390 0.171070
0.532141 0.218427 0.138544
0.432369 0.241383 0.244176
0.522242 0.253923 0.137201
0.445667 0.240219 0.258742
0.476240 0.191132 0.204549
0.532596 0.294900 0.172484
0.408635 0.324872 0.200625
0.503656 0.275785 0.201602
0.486660 0.237512 0.200749
0.419283 0.214586 0.234736
0.517724 0.236080 0.188436
0.523252 0.213451 0.165582
0.386547 0.295862 0.206282
0.528291 0.307938 0.157320
0.458836 0.243254 0.197821
0.489426 0.266876 0.219901
0.478792 0.211607 0.235742
0.418738 0.199551 0.243328
0.525541 0.228295 0.146078
0.467493 0.276013 0.235203
0.400040 0.297079 0.227856
0.477001 0.262637 0.205380
0.459591 0.228607 0.249263
0.446619 0.208076 0.256714
0.420736 0.239258 0.256464
0.506764 0.225267 0.170092
0.519960 0.211453 0.180846
0.392361 0.308048 0.209770
0.518032 0.256296 0.185451
0.500162 0.206029 0.197541
0.497974 0.227325 0.201728
0.531230 0.260834 0.167599
0.409405 0.337704 0.195320
0.402597 0.278287 0.237833
0.430572 0.261269 0.252162
0.408580 0.311922 0.202094
0.488875 0.232036 0.187288
0.408578 0.282219 0.198296
0.500435 0.252757 0.189433
0.429338 0.216618 0.220893
0.404270 0.280715 0.215378
0.523986 0.234275 0.166772
0.406994 0.214677 0.230854
0.428717 0.326158 0.192503
0.529799 0.257026 0.127479
0.518254 0.229004 0.112563
0.408243 0.324552 0.185998
0.529683 0.276388 0.140573
0.409548 0.319101 0.220565
0.475082 0.253292 0.234720
0.535307 0.219825 0.160619
0.531570 0.306432 0.168933
0.398979 0.307497 0.220729
0.421928 0.334877 0.169586
0.471770 0.240873 0.201770
0.521356 0.241065 0.133253
0.498370 0.261691 0.197122
0.470869 0.190735 0.233317
0.415913 0.278001 0.215209
0.486008 0.192464 0.213722
0.515523 0.220457 0.123216
0.472719 0.222122 0.197195
0.427743 0.235306 0.220995
0.541513 0.255527 0.126239
0.532936 0.220004 0.126814
0.501840 0.237519 0.189386
0.419032 0.259814 0.243686
0.520911 0.249308 0.156112
0.419990 0.346780 0.172434
0.441723 0.242758 0.211949
0.481402 0.199907 0.230563
0.538121 0.262713 0.136392
0.440362 0.192802 0.223015
0.489047 0.270336 0.190727
0.533327 0.295138 0.152666
0.421225 0.293573 0.227493
0.503105 0.296871 0.171244
0.413545 0.280886 0.235496
0.491737 0.205779 0.189731
0.423299 0.318179 0.177731
