ply
format ascii 1.0
element vertex 256
property float x
property float y
property float z
end_header
0.654835 -0.045117 0.147719
0.550933 0.065461 0.131691
0.676451 0.075010 0.110166
0.548214 -0.063199 0.174951
0.628728 0.037224 0.180518
0.531302 0.007187 0.170446
0.696385 0.011098 0.133719
0.604658 -0.026146 0.192577
0.600504 -0.077560 0.141391
0.649248 0.084509 0.158233
0.680173 0.028063 0.086683
0.648875 0.030297 0.132402
0.618832 -0.010955 0.147100
0.588069 -0.082776 0.189906
0.577549 -0.029608 0.155486
0.662718 -0.002368 0.161382
0.629018 -0.070106 0.173312
0.527956 0.028009 0.133388
0.535984 -0.028053 0.149469
0.596724 0.016620 0.164247
0.634189 -0.002516 0.185684
0.567359 -0.037300 0.193451
0.671575 -0.016495 0.129402
0.681633 0.042240 0.125308
0.572043 -0.089722 0.159164
0.552239 0.002761 0.143248
0.548495 0.042313 0.156324
0.640744 -0.037972 0.177302
0.618350 -0.043299 0.139943
0.632064 0.053259 0.152419
0.541206 -0.022965 0.180116
0.576076 -0.010241 0.181857
0.599882 -0.055202 0.186759
0.653651 0.026218 0.161729
0.675073 0.013325 0.112820
0.660375 0.097264 0.134109
0.600933 0.004392 0.189312
0.658255 0.057776 0.124498
0.650340 0.001180 0.136580
0.525157 -0.003280 0.141605
0.637288 -0.065689 0.141726
0.610513 -0.035494 0.167250
0.630396 0.012948 0.155488
0.575614 -0.064961 0.170527
0.557404 0.039102 0.128349
0.669685 0.049806 0.101068
0.563080 -0.076683 0.198443
0.671149 0.015715 0.143897
0.672024 -0.026248 0.154357
0.606862 -0.084480 0.172119
0.646090 -0.021138 0.152218
0.643898 0.057380 0.174959
0.554296 -0.039501 0.166150
0.665799 0.044013 0.145134
0.596680 -0.008828 0.158939
0.554353 -0.002916 0.170631
0.590979 -0.049360 0.148591
0.683852 -0.005508 0.147099
0.554778 0.019524 0.162638
0.616138 0.033648 0.160914
0.695324 0.022554 0.105472
0.620172 0.015522 0.180275
0.628593 -0.019700 0.170283
0.560091 -0.067854 0.153809
0.650972 0.075494 0.137705
0.619231 -0.082051 0.152821
0.537198 0.048658 0.138286
0.647046 -0.057255 0.168551
0.564231 0.052307 0.144679
0.664768 0.033485 0.114730
0.553902 -0.016467 0.153095
0.613094 -0.005516 0.174700
0.620520 -0.052510 0.182720
0.576584 -0.042041 0.174965
0.547332 0.025878 0.141703
0.525505 0.024017 0.153975
0.571399 -0.057791 0.194370
0.655301 0.063286 0.158860
0.641120 -0.002230 0.164138
0.535431 -0.009433 0.158205
0.561580 -0.021708 0.172563
0.583208 -0.023171 0.195671
0.580730 0.001550 0.165570
0.623834 -0.029611 0.187643
0.659755 -0.033711 0.168331
0.587368 -0.094440 0.173972
0.676944 0.063728 0.126604
0.632715 -0.030216 0.138012
0.658141 -0.028218 0.137265
0.668054 0.003114 0.128710
0.584365 -0.068864 0.147445
0.686894 0.043014 0.106538
0.535537 0.009464 0.131894
0.587694 -0.041343 0.190822
0.566279 0.056853 0.125170
0.616663 -0.009527 0.192486
0.637658 0.071093 0.152812
0.684355 0.023142 0.125503
0.641836 0.039846 0.167695
0.619723 -0.068707 0.136707
0.590470 -0.084196 0.159264
0.612478 0.008111 0.161515
0.540796 -0.013487 0.139991
0.568543 -0.052280 0.160050
0.637268 0.025011 0.144570
0.652643 0.014992 0.148202
0.632182 0.025134 0.168182
0.606336 -0.071361 0.183777
0.686764 0.003165 0.121056
0.547309 0.058457 0.149754
0.680449 0.031233 0.140414
0.663262 0.081547 0.148510
0.677549 0.028009 0.103728
0.558960 -0.051191 0.181060
0.540409 0.040069 0.123791
0.642533 -0.021127 0.180164
0.603787 -0.038053 0.149632
0.537744 0.025222 0.165799
0.532739 0.008758 0.152717
0.661196 -0.013277 0.148542
0.647415 0.012952 0.169799
0.652435 0.046535 0.135409
0.665475 0.026527 0.129779
0.647770 0.092395 0.143543
0.648924 -0.061040 0.152294
0.532013 0.038626 0.150542
0.629066 0.049961 0.168426
0.544089 -0.025239 0.163321
0.641268 -0.036345 0.155089
0.572307 -0.015689 0.162111
0.604190 0.017937 0.178216
0.636896 -0.008450 0.149812
0.664142 0.063936 0.111141
0.661011 0.028311 0.146810
0.612291 -0.040168 0.189271
0.598979 0.003918 0.173215
0.552054 0.053147 0.119647
0.626054 0.001222 0.164827
0.551382 -0.034967 0.180556
0.588100 -0.004113 0.189203
0.666953 0.058477 0.137134
0.564099 0.067115 0.139317
0.600944 -0.059149 0.142382
0.665783 0.041637 0.129108
0.634500 -0.054368 0.177262
0.631327 0.038211 0.151868
0.582780 -0.080087 0.174092
0.680990 0.012651 0.099018
0.538769 -0.008910 0.175481
0.566358 -0.023132 0.186606
0.646164 0.051583 0.157820
0.614859 0.008024 0.192878
0.684639 0.009576 0.143614
0.641761 -0.069711 0.162593
0.675735 0.050457 0.114578
0.667166 0.002149 0.148132
0.644988 0.071799 0.165448
0.638034 -0.051501 0.138448
0.585271 -0.054115 0.197311
0.647876 0.033350 0.150328
0.552476 0.043965 0.142520
0.623657 -0.025996 0.148435
0.561232 -0.060671 0.169198
0.617018 0.028667 0.174320
0.599347 -0.013165 0.195374
0.523918 0.016232 0.140335
0.685053 -0.004922 0.133045
0.578459 -0.075764 0.197437
0.587528 -0.019513 0.158882
0.543863 0.013516 0.170490
0.650389 -0.003925 0.153763
0.638576 0.011203 0.143228
0.619422 -0.079961 0.168402
0.657963 -0.050700 0.163203
0.581104 -0.045481 0.157271
0.634066 -0.074029 0.152079
0.658966 0.013245 0.129635
0.541330 0.021369 0.153233
0.658528 -0.010208 0.135576
0.683533 0.032723 0.115803
0.567066 -0.034914 0.166742
0.527738 -0.015133 0.147614
0.676630 -0.018142 0.144572
0.548627 0.012935 0.135303
0.695717 0.012895 0.119574
0.542352 0.025290 0.129417
0.662114 0.010623 0.156941
0.538741 0.035560 0.138116
0.660963 0.094404 0.147109
0.677762 0.011228 0.132173
0.691820 0.026629 0.092523
0.603546 -0.086155 0.159553
0.562251 0.069304 0.125860
0.661707 -0.034046 0.148979
0.623045 0.013729 0.167158
0.524800 -0.000191 0.157945
0.651673 0.066047 0.146544
0.651464 -0.043515 0.172626
0.531749 -0.022096 0.161011
0.542143 -0.001184 0.135017
0.614919 -0.057948 0.141869
0.556721 0.054281 0.134125
0.677506 0.041615 0.095148
0.631978 -0.016222 0.185423
0.671686 -0.013548 0.155737
0.626343 0.026406 0.156981
0.634618 0.062701 0.161746
0.621595 0.003029 0.179302
0.536327 0.037620 0.162330
0.641564 0.081647 0.147164
0.597937 -0.081672 0.182225
0.685888 0.020186 0.113349
0.555297 0.007427 0.159474
0.635578 0.009139 0.166504
0.622545 0.046708 0.157137
0.563084 -0.063681 0.187167
0.676111 0.061806 0.108414
0.628196 0.024390 0.183710
0.611547 0.022255 0.162835
0.649882 0.007612 0.158254
0.600127 -0.042868 0.187441
0.570496 -0.073528 0.150341
0.654400 0.086139 0.132533
0.608577 -0.017464 0.148909
0.670241 0.052552 0.125700
0.639082 0.045580 0.178161
0.630409 -0.005919 0.173710
0.576476 -0.045350 0.194329
0.563304 -0.032778 0.179742
0.640926 0.020417 0.161250
0.550394 -0.016227 0.176246
0.549752 -0.026291 0.147614
0.538247 0.049388 0.150170
0.617904 -0.069496 0.177629
0.668781 0.070959 0.119565
0.610544 0.007430 0.178920
0.593679 0.004424 0.162595
0.591544 -0.030130 0.155400
0.548726 0.031246 0.160522
0.606369 -0.001678 0.163951
0.583744 0.000841 0.179444
0.550469 -0.002043 0.154532
0.681466 0.053542 0.102095
0.555721 -0.013970 0.164359
0.658699 0.035257 0.155906
0.631767 -0.010125 0.160151
0.610868 -0.076720 0.146694
0.542122 0.052378 0.125686
0.568711 -0.052192 0.171931
0.658000 0.074571 0.158731
0.548347 0.011183 0.150174
0.682383 0.068170 0.117352
0.630994 -0.076500 0.162945
0.667308 0.034828 0.138287
0.526537 0.015871 0.164570
0.641264 0.059311 0.149054
