ply
format ascii 1.0
element vertex 256
property float x
property float y
property float z
end_header
0.635074 -0.033246 0.208439
0.649270 0.104555 0.180852
0.525791 0.039651 0.172299
0.530121 -0.049375 0.239984
0.665726 0.021531 0.134938
0.605897 0.046504 0.229045
0.588309 0.062643 0.152404
0.573335 -0.011997 0.203314
0.661083 0.028240 0.199607
0.589007 -0.070060 0.218515
0.521964 -0.001954 0.208878
0.642930 0.057494 0.161984
0.606148 -0.001794 0.238635
0.549177 -0.053527 0.196709
0.640010 0.072635 0.212735
0.546107 0.000357 0.169481
0.559697 0.006418 0.241066
0.573474 -0.038101 0.241097
0.621644 0.015302 0.204863
0.554512 0.040403 0.143313
0.578559 0.027394 0.206980
0.655683 -0.008128 0.186967
0.595895 -0.043377 0.192232
0.608872 -0.038459 0.234095
0.678688 0.015868 0.170878
0.555177 -0.077810 0.221305
0.562996 0.053784 0.173339
0.546349 0.021537 0.195846
0.631131 0.045116 0.190981
0.545304 -0.030156 0.218692
0.610459 -0.012910 0.195450
0.586162 0.022215 0.241517
0.647018 -0.005897 0.215720
0.667916 0.040781 0.158184
0.657601 0.058486 0.189007
0.520455 0.013223 0.183596
0.636556 0.077431 0.183076
0.532037 0.018770 0.153349
0.615413 0.065259 0.201898
0.635774 0.036916 0.216810
0.617006 -0.054301 0.213575
0.552062 -0.019220 0.243429
0.550402 0.029216 0.169029
0.643188 0.020097 0.182153
0.527200 -0.045907 0.208358
0.595346 0.007130 0.217084
0.543377 -0.005141 0.222989
0.590221 -0.017980 0.221336
0.526039 -0.011129 0.181220
0.612220 0.038858 0.206152
0.626717 -0.021356 0.232202
0.569390 -0.061865 0.233558
0.656670 0.018977 0.159145
0.570628 -0.041871 0.199209
0.662167 0.066835 0.149969
0.653098 0.042925 0.138756
0.563864 0.061977 0.149850
0.542690 0.054686 0.159980
0.673126 0.007172 0.193305
0.579832 -0.006595 0.242026
0.626360 0.057020 0.223454
0.567717 0.022881 0.227561
0.641093 0.092439 0.199534
0.541786 -0.008143 0.199884
0.591010 -0.051933 0.232147
0.635893 0.000004 0.196845
0.643159 0.015972 0.215644
0.652087 0.038714 0.174018
0.572213 -0.063355 0.203244
0.550954 -0.049806 0.226498
0.605682 0.025145 0.224572
0.586540 0.036208 0.225513
0.626763 -0.011348 0.212952
0.648252 0.049776 0.205910
0.571212 0.040006 0.155554
0.542633 0.041602 0.183874
0.661958 0.059914 0.169137
0.560164 0.003509 0.203665
0.591617 -0.027822 0.239079
0.619663 -0.038703 0.196536
0.669991 0.036898 0.183859
0.677951 0.021626 0.151810
0.654898 0.009187 0.200875
0.627898 -0.040346 0.226663
0.592481 -0.001445 0.199468
0.592911 -0.062690 0.194789
0.528823 0.029261 0.191016
0.548292 -0.038518 0.241913
0.662990 0.005797 0.175000
0.646491 0.035805 0.156295
0.561197 -0.026151 0.204007
0.583755 -0.025976 0.196760
0.641950 -0.017510 0.197908
0.653183 0.086824 0.184697
0.547415 -0.069125 0.206512
0.628823 0.005597 0.221014
0.532646 -0.022175 0.208090
0.640102 0.029672 0.197304
0.533360 -0.020925 0.228551
0.574736 0.072001 0.160071
0.532163 0.021915 0.173162
0.536040 0.038559 0.155961
0.527832 0.013073 0.201135
0.634940 0.064918 0.195718
0.528977 0.001528 0.164582
0.579920 0.008940 0.206617
0.595758 0.024166 0.209536
0.603118 -0.027916 0.200234
0.576824 0.053403 0.142214
0.603480 0.015235 0.239561
0.622931 0.027867 0.223807
0.628837 0.080666 0.201768
0.563602 0.018961 0.210177
0.542327 0.003383 0.187338
0.555469 0.011064 0.225309
0.607289 -0.056847 0.227167
0.580095 0.055445 0.165248
0.597526 0.043079 0.214736
0.550864 0.014570 0.177207
0.644090 0.054526 0.179982
0.662632 -0.005582 0.201985
0.662782 0.020629 0.184964
0.550938 -0.015314 0.212377
0.552479 -0.045257 0.210749
0.624187 0.050516 0.204898
0.546512 0.013860 0.160163
0.613880 0.004515 0.214452
0.624117 0.030662 0.194028
0.638440 0.091253 0.174835
0.562726 -0.060006 0.215864
0.576657 -0.021878 0.237943
0.543220 -0.011304 0.180860
0.553719 -0.069877 0.235197
0.649693 0.043514 0.191201
0.646630 -0.021652 0.212927
0.556226 0.046165 0.160294
0.559348 0.066792 0.164298
0.624422 0.070607 0.214967
0.605524 -0.061316 0.204302
0.610060 -0.050643 0.192510
0.668834 0.027390 0.166553
0.585770 0.018077 0.226464
0.620558 -0.006356 0.234943
0.648774 0.079128 0.198426
0.663811 0.030529 0.147441
0.619006 0.042315 0.220478
0.655705 0.049064 0.154006
0.613277 0.059587 0.215896
0.546776 0.055307 0.174611
0.524557 -0.002028 0.193300
0.555688 0.030150 0.154822
0.572880 0.015441 0.242783
0.652616 0.071570 0.160303
0.548194 -0.053123 0.244513
0.615298 0.013287 0.226224
0.605689 0.051960 0.204541
0.541924 0.008622 0.201348
0.638342 -0.030061 0.225526
0.561087 -0.031140 0.244487
0.549060 -0.002452 0.236648
0.601471 -0.017255 0.239985
0.630602 0.015612 0.193550
0.609770 0.021255 0.211255
0.677029 0.021015 0.187078
0.652375 0.067020 0.177202
0.607948 -0.003981 0.224303
0.534939 -0.054266 0.196454
0.536031 -0.000628 0.210669
0.547706 -0.031552 0.204739
0.582266 -0.054154 0.198767
0.618377 -0.002313 0.202829
0.650194 0.004129 0.180776
0.536270 -0.040441 0.230917
0.559686 -0.010187 0.200747
0.668988 0.011501 0.155296
0.625647 -0.025001 0.215416
0.663394 0.046125 0.170778
0.650217 0.025347 0.207688
0.602904 -0.001522 0.208407
0.657088 0.018373 0.145489
0.625487 0.035907 0.207553
0.538739 -0.039373 0.211065
0.628696 -0.044421 0.212391
0.598471 0.034873 0.231475
0.527825 0.029383 0.161210
0.635743 0.006755 0.209402
0.578390 -0.052284 0.236108
0.591584 -0.006076 0.236041
0.542043 -0.014184 0.236483
0.633363 0.089519 0.187164
0.565474 0.047817 0.146682
0.528057 -0.012876 0.199790
0.640617 0.038056 0.183495
0.636319 0.019028 0.204810
0.652914 0.028553 0.188260
0.619754 -0.025778 0.198448
0.579354 -0.067186 0.226836
0.534429 -0.013559 0.217824
0.544564 0.040538 0.166396
0.591752 -0.062694 0.207712
0.649078 0.059507 0.150248
0.522566 0.014958 0.168015
0.636259 0.044487 0.206360
0.535295 -0.002343 0.176049
0.552622 0.055456 0.151805
0.520274 0.000643 0.180825
0.642437 0.054622 0.194000
0.634809 0.060933 0.212405
0.631481 0.019248 0.220114
0.643390 -0.004263 0.187648
0.651180 0.014210 0.189922
0.593309 0.008802 0.243305
0.656195 -0.012825 0.210623
0.619342 -0.031541 0.232264
0.550970 0.029090 0.181558
0.593819 -0.040661 0.236854
0.527793 -0.043603 0.220646
0.581885 -0.042611 0.193847
0.552626 -0.020325 0.223689
0.581700 0.049116 0.152850
0.660051 0.028421 0.175331
0.544222 0.045359 0.148222
0.618412 -0.051337 0.226572
0.571016 0.045287 0.166714
0.602727 0.012457 0.206294
0.664097 0.016242 0.196799
0.651669 0.097747 0.170926
0.665695 0.000868 0.185912
0.541217 0.024671 0.162377
0.568093 0.058803 0.161451
0.638081 0.084075 0.208919
0.578280 0.066178 0.146526
0.578521 -0.068449 0.212609
0.587773 0.016542 0.214443
0.613228 -0.015880 0.235952
0.648733 0.097070 0.190283
0.661147 0.038371 0.193178
0.650896 -0.002222 0.205002
0.656318 0.047581 0.182148
0.544505 0.027309 0.151217
0.655639 0.033228 0.164053
0.596810 0.014446 0.228848
0.664320 0.017090 0.170324
0.652183 0.053501 0.170973
0.649279 0.038011 0.205451
0.665680 0.042068 0.145776
0.522682 0.027777 0.181048
0.616981 0.050463 0.229127
0.592128 0.027165 0.220313
0.650470 0.033546 0.145329
0.560331 -0.059658 0.204366
0.638217 -0.009405 0.208795
0.616680 0.027157 0.203886
0.613540 0.037287 0.229496
0.640980 0.007148 0.188197
0.557503 -0.008902 0.243136
