ply
format ascii 1.0
element vertex 256
property float x
property float y
property float z
end_header
0.496532 0.036868 0.204130
0.559687 0.159826 0.175128
0.422731 0.147114 0.172186
0.393878 0.061314 0.237816
0.542924 0.076982 0.129708
0.500668 0.120451 0.228323
0.488533 0.146261 0.150202
0.447493 0.080142 0.200666
0.543627 0.084058 0.194749
0.440073 0.020191 0.214767
0.403910 0.108961 0.207906
0.482274 0.076347 0.235368
0.565873 0.114065 0.163416
0.409219 0.051096 0.194074
0.541017 0.133402 0.208115
0.426357 0.103150 0.167866
0.442512 0.101591 0.238948
0.438265 0.055189 0.238099
0.502741 0.086974 0.201534
0.448680 0.138039 0.142231
0.466103 0.114540 0.208874
0.524384 0.052617 0.182116
0.456199 0.042766 0.188679
0.531410 0.094619 0.161069
0.470735 0.041511 0.230300
0.554134 0.066385 0.165117
0.405894 0.025863 0.218216
0.511989 0.119387 0.195905
0.462490 0.146413 0.172093
0.435192 0.121750 0.194694
0.414914 0.073690 0.216349
0.481332 0.065310 0.191958
0.540370 0.117111 0.180990
0.473005 0.106096 0.239005
0.518247 0.057561 0.211180
0.407870 0.124393 0.183023
0.546275 0.104803 0.137850
0.535145 0.146629 0.181013
0.524092 0.101177 0.213859
0.420137 0.126063 0.152584
0.471884 0.024188 0.209400
0.425714 0.080754 0.241153
0.441388 0.128161 0.167954
0.391999 0.066277 0.206311
0.519159 0.078030 0.180768
0.475352 0.089152 0.214182
0.422732 0.097494 0.221095
0.461105 0.067808 0.218226
0.403637 0.099851 0.179924
0.553769 0.091581 0.171842
0.500553 0.056941 0.228767
0.490650 0.107755 0.208379
0.425306 0.034935 0.230350
0.433531 0.053644 0.196241
0.465431 0.154547 0.148752
0.443426 0.155040 0.159693
0.517744 0.133588 0.214464
0.546526 0.060126 0.187759
0.456174 0.081869 0.239288
0.521693 0.101442 0.184162
0.535966 0.068908 0.150899
0.555883 0.141412 0.189886
0.542603 0.108361 0.202074
0.419686 0.095988 0.198163
0.449055 0.035904 0.228581
0.522921 0.079233 0.211389
0.551096 0.084850 0.150192
0.426865 0.033100 0.199964
0.412754 0.053251 0.223861
0.496286 0.087053 0.222949
0.497071 0.061628 0.208253
0.455995 0.113389 0.227873
0.559572 0.109388 0.183525
0.464526 0.131222 0.153689
0.439242 0.142087 0.183302
0.487482 0.032669 0.222418
0.529061 0.067199 0.195679
0.441240 0.099487 0.201511
0.458922 0.057818 0.235806
0.480018 0.037940 0.192507
0.522570 0.136122 0.193323
0.469152 0.082677 0.196526
0.534450 0.068342 0.170623
0.508723 0.049007 0.193650
0.446116 0.025999 0.191055
0.421886 0.135751 0.190561
0.478437 0.119213 0.223178
0.414844 0.064385 0.239475
0.509149 0.070225 0.196163
0.549431 0.123456 0.165903
0.550229 0.146001 0.166809
0.430887 0.071671 0.201450
0.451688 0.063383 0.193701
0.496460 0.125306 0.206447
0.401796 0.037150 0.203714
0.548570 0.102087 0.157532
0.406079 0.086143 0.206224
0.487064 0.102357 0.226826
0.507590 0.110819 0.214483
0.533746 0.092554 0.143112
0.407541 0.086609 0.226678
0.479549 0.159615 0.158660
0.421823 0.128273 0.172453
0.414945 0.120857 0.200329
0.563679 0.126849 0.176194
0.410901 0.110952 0.163502
0.461618 0.096917 0.204088
0.431474 0.142712 0.155533
0.537117 0.094061 0.180607
0.468900 0.054140 0.196714
0.549562 0.076136 0.178749
0.474130 0.142144 0.140369
0.483939 0.053058 0.230666
0.522877 0.087654 0.196473
0.424356 0.106809 0.185892
0.440126 0.107817 0.223350
0.525973 0.109640 0.199291
0.462148 0.025260 0.223174
0.540600 0.134038 0.190826
0.478733 0.142072 0.163266
0.436344 0.114197 0.175775
0.571673 0.128681 0.157668
0.507362 0.100979 0.193861
0.425658 0.085467 0.210200
0.415649 0.057196 0.208141
0.431741 0.115763 0.158855
0.505770 0.074896 0.217338
0.527901 0.121180 0.210676
0.510079 0.093093 0.215741
0.550876 0.070330 0.143126
0.419575 0.039554 0.212835
0.447345 0.069036 0.235083
0.419425 0.093120 0.179054
0.407792 0.033468 0.232238
0.511844 0.043154 0.208422
0.543863 0.079147 0.163507
0.452964 0.142205 0.159224
0.463478 0.160165 0.163481
0.450414 0.112325 0.208141
0.458448 0.022268 0.200299
0.466525 0.030645 0.188546
0.548147 0.154623 0.186559
0.527883 0.051334 0.197316
0.470823 0.102704 0.223909
0.488282 0.081100 0.202061
0.474523 0.090938 0.240461
0.549294 0.106171 0.172333
0.536610 0.146426 0.198720
0.447976 0.153640 0.174132
0.403133 0.099589 0.195112
0.446366 0.127460 0.153622
0.517981 0.118786 0.222095
0.534642 0.095483 0.201732
0.458165 0.104871 0.240483
0.409224 0.050869 0.241890
0.426251 0.111343 0.200024
0.501040 0.038218 0.221178
0.531355 0.082310 0.173687
0.561799 0.145411 0.176302
0.482876 0.073931 0.220973
0.429526 0.066275 0.241855
0.508655 0.132264 0.202434
0.429227 0.097535 0.234656
0.548280 0.102771 0.189819
0.472075 0.063811 0.236626
0.491075 0.047940 0.211422
0.477564 0.100875 0.206261
0.395774 0.055844 0.194130
0.417451 0.104771 0.209289
0.439596 0.037864 0.195380
0.512972 0.060591 0.184669
0.402825 0.067413 0.228729
0.416369 0.071805 0.202416
0.435528 0.087069 0.198430
0.509570 0.083599 0.189298
0.553402 0.121971 0.184230
0.505209 0.127124 0.217068
0.497129 0.095753 0.210417
0.493973 0.088236 0.236336
0.533717 0.079053 0.202545
0.405235 0.111908 0.189958
0.493121 0.067380 0.233061
0.405199 0.067864 0.208841
0.486438 0.028889 0.208081
0.420464 0.137217 0.160808
0.539054 0.073251 0.188312
0.534136 0.077172 0.140599
0.527411 0.113405 0.184609
0.514212 0.104440 0.204680
0.524888 0.123315 0.195829
0.437319 0.040308 0.232819
0.467138 0.077992 0.233047
0.551098 0.088193 0.184310
0.418264 0.089369 0.234499
0.461694 0.140878 0.145240
0.498521 0.108088 0.224066
0.484938 0.119152 0.211348
0.493241 0.074111 0.211938
0.485063 0.049812 0.194582
0.544628 0.138316 0.175766
0.432380 0.026356 0.223338
0.440280 0.140957 0.165741
0.536586 0.103045 0.150300
0.528577 0.136632 0.206072
0.445248 0.026174 0.204000
0.410198 0.125694 0.167431
0.411181 0.093197 0.216195
0.415459 0.104585 0.174686
0.452668 0.152458 0.151091
0.483404 0.113314 0.236716
0.515322 0.069647 0.207602
0.555954 0.077774 0.159674
0.502455 0.112353 0.202975
0.538076 0.081515 0.152512
0.442094 0.127418 0.180454
0.545736 0.085307 0.138647
0.456026 0.045157 0.233367
0.393620 0.067930 0.218610
0.443568 0.048780 0.190618
0.425533 0.079822 0.221337
0.538329 0.058982 0.197193
0.477498 0.136022 0.150686
0.441062 0.146201 0.147699
0.474520 0.026126 0.222400
0.466650 0.135829 0.164947
0.534855 0.057458 0.176412
0.543221 0.093902 0.165910
0.559621 0.126330 0.157802
0.523703 0.066121 0.176128
0.487136 0.101755 0.239048
0.567550 0.115113 0.175475
0.431042 0.127700 0.161471
0.548647 0.148111 0.197556
0.479422 0.108218 0.217225
0.468632 0.149662 0.160085
0.480262 0.153376 0.144857
0.430902 0.025796 0.209119
0.559862 0.153147 0.164980
0.491244 0.042697 0.228054
0.545995 0.155794 0.172500
0.497724 0.117796 0.216213
0.434899 0.129173 0.150328
0.550591 0.096265 0.147039
0.554700 0.064953 0.176861
0.415464 0.137059 0.180747
0.489196 0.069571 0.199647
0.529707 0.059543 0.205562
0.417311 0.041022 0.201400
0.508528 0.057724 0.204603
0.528872 0.131079 0.217007
0.476813 0.093482 0.227818
0.434674 0.088224 0.240869
0.521213 0.089807 0.184832
0.574761 0.120243 0.167694
0.524756 0.090441 0.209044
0.489218 0.116892 0.226601
