ply
format ascii 1.0
element vertex 256
property float x
property float y
property float z
end_header
0.655633 -0.049433 0.152286
0.551211 0.059935 0.133618
0.676827 0.070375 0.113857
0.548809 -0.068337 0.178128
0.627946 0.034053 0.183511
0.531369 0.001861 0.172557
0.696648 0.007134 0.138078
0.604680 -0.030720 0.196372
0.601679 -0.082375 0.145349
0.650236 0.081715 0.160913
0.680426 0.023256 0.090723
0.649144 0.025823 0.136489
0.619346 -0.015590 0.151031
0.588623 -0.087503 0.193711
0.578115 -0.034570 0.158927
0.662955 -0.006561 0.165877
0.629685 -0.074542 0.177627
0.528622 0.022276 0.135224
0.536765 -0.033551 0.152045
0.596765 0.011860 0.167757
0.634097 -0.006860 0.189786
0.567472 -0.042196 0.196781
0.672210 -0.020808 0.133891
0.573083 -0.094714 0.162781
0.681242 0.039151 0.129545
0.552898 -0.002669 0.145842
0.548537 0.037001 0.158427
0.641074 -0.042291 0.181643
0.633000 0.053466 0.156763
0.619244 -0.047966 0.144002
0.541317 -0.028119 0.182741
0.576111 -0.015109 0.185194
0.600238 -0.059839 0.190610
0.653612 0.021967 0.165894
0.674430 0.012271 0.118228
0.600735 -0.000229 0.192928
0.650889 -0.003223 0.140893
0.525904 -0.008949 0.143705
0.638350 -0.070181 0.146139
0.610964 -0.040119 0.171167
0.660036 0.092631 0.137557
0.630562 0.008432 0.159461
0.576282 -0.069877 0.174088
0.558030 0.033618 0.130665
0.670297 0.045427 0.105447
0.563467 -0.081595 0.201878
0.675689 0.020617 0.148490
0.658419 0.053388 0.128578
0.672600 -0.030283 0.158954
0.607673 -0.089115 0.176190
0.646619 -0.025513 0.156565
0.554840 -0.044667 0.169209
0.648196 0.047302 0.175942
0.597015 -0.013609 0.162555
0.554492 -0.008050 0.173320
0.591811 -0.054231 0.152300
0.622491 0.031835 0.159777
0.684224 -0.009479 0.151551
0.659525 0.040985 0.151955
0.554902 0.014310 0.165105
0.695571 0.018218 0.109648
0.620039 0.011005 0.184091
0.628862 -0.024155 0.174381
0.561016 -0.072973 0.157170
0.649667 0.068721 0.142568
0.620285 -0.086656 0.157054
0.537530 0.043048 0.140108
0.647664 -0.061554 0.173060
0.564391 0.047054 0.146994
0.554511 -0.021782 0.155919
0.671411 0.001378 0.136633
0.613162 -0.010103 0.178530
0.620905 -0.056983 0.186844
0.547839 0.020390 0.143957
0.577563 -0.045578 0.176977
0.525779 0.018474 0.155797
0.571676 -0.062647 0.197841
0.641330 -0.006588 0.168329
0.535883 -0.014848 0.160575
0.561845 -0.026741 0.175750
0.583165 -0.027920 0.199158
0.660169 -0.037900 0.172916
0.580886 -0.003344 0.168923
0.623952 -0.034037 0.191716
0.656546 0.062587 0.160136
0.588243 -0.099237 0.177817
0.677027 0.059489 0.130964
0.665140 0.033182 0.119881
0.633520 -0.034765 0.142214
0.658935 -0.032548 0.141808
0.585383 -0.073797 0.151144
0.687487 0.038808 0.111180
0.536381 0.003781 0.134078
0.587875 -0.046072 0.194448
0.566774 0.051433 0.127485
0.616541 -0.013997 0.196376
0.620882 -0.073373 0.140893
0.687009 0.020485 0.130031
0.638707 0.032044 0.168672
0.591457 -0.089026 0.163111
0.612638 0.003454 0.165269
0.541654 -0.019043 0.142518
0.611309 0.022109 0.170171
0.569245 -0.057300 0.163462
0.657034 0.008586 0.152860
0.688182 0.000458 0.123824
0.637446 0.020496 0.148551
0.606873 -0.075953 0.187785
0.547307 0.053067 0.151676
0.665795 0.031032 0.138652
0.644334 0.063951 0.173246
0.663875 0.080251 0.149009
0.559365 -0.056210 0.184333
0.541118 0.034355 0.125765
0.642678 -0.025419 0.184459
0.604503 -0.042808 0.153469
0.537761 0.019900 0.167857
0.681403 0.008029 0.103273
0.661656 -0.017510 0.152922
0.533159 0.003263 0.154845
0.647410 0.008689 0.173971
0.628420 0.019498 0.172707
0.679572 0.024830 0.107614
0.649798 -0.065388 0.156847
0.672591 0.003691 0.154211
0.532212 0.033079 0.152359
0.645497 0.085597 0.145788
0.544560 -0.030532 0.166032
0.641890 -0.040750 0.159433
0.628845 0.045447 0.172096
0.572662 -0.020670 0.165421
0.604026 0.013298 0.181822
0.683688 -0.009675 0.135157
0.637349 -0.012916 0.153979
0.666564 0.053175 0.142169
0.664468 0.059565 0.115302
0.612480 -0.044688 0.193230
0.552702 0.047519 0.121722
0.599011 -0.000762 0.176811
0.659748 0.025451 0.151867
0.626224 -0.003279 0.168819
0.551594 -0.040018 0.183507
0.587980 -0.008847 0.192678
0.652069 0.042677 0.137510
0.564205 0.061807 0.141485
0.601944 -0.063958 0.146269
0.659926 0.015403 0.133821
0.641509 0.068850 0.159195
0.634974 -0.058741 0.181586
0.583529 -0.084925 0.177814
0.538859 -0.014123 0.177910
0.566441 -0.028066 0.189863
0.614578 0.003539 0.196670
0.642570 -0.074079 0.167082
0.643221 0.000500 0.152827
0.639018 -0.056001 0.142813
0.585474 -0.058837 0.200956
0.646196 0.050603 0.161959
0.685856 0.005178 0.147507
0.552771 0.038563 0.144688
0.624282 -0.030583 0.152495
0.561882 -0.065718 0.172544
0.599219 -0.017774 0.199041
0.524536 0.010538 0.142209
0.676589 0.052798 0.118519
0.578849 -0.080545 0.201079
0.587959 -0.024374 0.162418
0.543875 0.008293 0.172793
0.620243 -0.084501 0.172627
0.673833 0.017342 0.132858
0.647789 0.031753 0.148903
0.658596 -0.054925 0.167835
0.678512 0.028586 0.120853
0.645066 0.011596 0.141300
0.581783 -0.050403 0.160827
0.635058 -0.078508 0.156481
0.541636 0.015949 0.155407
0.659043 -0.014616 0.139904
0.682519 0.030448 0.139864
0.637431 0.040732 0.155417
0.528455 -0.020719 0.149888
0.677176 -0.022227 0.149112
0.656099 0.091679 0.151469
0.567828 -0.040965 0.168936
0.549369 0.007393 0.137719
0.543108 0.019654 0.131574
0.693641 0.012445 0.121387
0.539246 0.029964 0.140094
0.662418 -0.038265 0.153589
0.692067 0.022065 0.096629
0.604545 -0.090870 0.163586
0.562600 0.063845 0.127973
0.631126 0.021516 0.185498
0.640950 0.016039 0.165301
0.670425 0.048259 0.129979
0.525186 -0.005697 0.160001
0.640059 0.038082 0.180228
0.651906 -0.047759 0.177138
0.532245 -0.027512 0.163435
0.664416 -0.005799 0.148155
0.543005 -0.006781 0.137446
0.615915 -0.062636 0.145943
0.557070 0.048844 0.136277
0.678270 0.037280 0.099669
0.632009 -0.020586 0.189552
0.650052 -0.010255 0.151961
0.654181 0.081429 0.136078
0.672096 -0.017574 0.160192
0.644474 0.057945 0.151773
0.621550 -0.001484 0.183201
0.536303 0.032234 0.164239
0.671814 0.041817 0.141059
0.598586 -0.086344 0.186161
0.652497 -0.000823 0.162022
0.555583 0.002186 0.162078
0.635648 0.004729 0.170578
0.563513 -0.068639 0.190549
0.674098 -0.007031 0.127652
0.682030 0.049270 0.106619
0.600366 -0.047501 0.191244
0.571517 -0.078570 0.153870
0.620584 0.013282 0.164843
0.637240 0.053157 0.176723
0.624443 0.043932 0.158890
0.609124 -0.022181 0.152726
0.576644 -0.050163 0.197817
0.630512 -0.010345 0.177776
0.563509 -0.037723 0.182911
0.619629 0.023440 0.182238
0.550519 -0.021332 0.178989
0.671868 0.068738 0.124676
0.640200 0.074840 0.148887
0.550554 -0.031695 0.150455
0.538336 0.043904 0.152003
0.618507 -0.074012 0.181788
0.690263 0.023915 0.118651
0.610478 0.002848 0.182651
0.593849 -0.000369 0.166115
0.592115 -0.034969 0.159036
0.548803 0.025979 0.162737
0.606557 -0.006360 0.167674
0.583715 -0.003970 0.182840
0.668938 0.033646 0.149671
0.550933 -0.007373 0.157135
0.669470 0.030809 0.109251
0.677526 0.006837 0.128095
0.556077 -0.019156 0.167191
0.666241 0.015324 0.155319
0.632092 -0.014594 0.164254
0.611961 -0.081424 0.150791
0.569255 -0.057161 0.175407
0.542661 0.046699 0.127571
0.682575 0.063952 0.121787
0.663677 0.004194 0.161624
0.548796 0.005790 0.152599
0.660776 0.073740 0.158055
