ply
format ascii 1.0
element vertex 256
property float x
property float y
property float z
end_header
0.513888 0.017440 0.182244
0.445970 0.156176 0.171320
0.577539 0.126077 0.156926
0.406237 0.031427 0.207781
0.513550 0.101437 0.217260
0.412243 0.104584 0.209492
0.569651 0.056533 0.164509
0.470809 0.049786 0.226830
0.452500 0.002689 0.174607
0.547692 0.136432 0.199682
0.534585 0.091738 0.172242
0.489655 0.060756 0.181838
0.562711 0.082909 0.125343
0.438218 0.000681 0.222852
0.444555 0.055079 0.189342
0.531818 0.054621 0.201975
0.413498 0.126692 0.171533
0.481371 0.000867 0.207022
0.404975 0.069885 0.184427
0.476422 0.093395 0.199239
0.572373 0.092094 0.175511
0.431872 0.050197 0.227020
0.530593 0.048036 0.166865
0.429451 0.094957 0.179454
0.421402 -0.000738 0.191782
0.500331 0.035164 0.214459
0.437390 0.133185 0.194695
0.559424 0.151139 0.171776
0.490680 0.079378 0.227923
0.479728 0.030124 0.174048
0.524062 0.116438 0.190385
0.425567 0.075929 0.209775
0.558934 0.069846 0.193103
0.507454 0.074778 0.202477
0.457733 0.023548 0.220390
0.461745 0.079520 0.221586
0.574689 0.098854 0.146666
0.552425 0.112536 0.162938
0.534122 0.084316 0.201296
0.401771 0.097145 0.178148
0.491137 0.003097 0.175634
0.538184 0.030778 0.187105
0.474076 0.039498 0.201402
0.431955 0.021675 0.203668
0.444743 0.129313 0.166355
0.552352 0.070260 0.147247
0.416015 0.013791 0.231192
0.509759 0.043416 0.182888
0.551674 0.103226 0.188142
0.419123 0.052637 0.200083
0.455972 -0.006262 0.205272
0.535157 0.115120 0.213629
0.468925 0.069188 0.193437
0.525661 0.069086 0.179679
0.436152 0.102821 0.202115
0.451642 0.032334 0.182234
0.556528 0.046200 0.181931
0.550397 0.072292 0.170993
0.543774 0.130687 0.176980
0.501758 0.103407 0.196945
0.521603 0.026564 0.203134
0.505123 0.009197 0.202342
0.493798 0.057449 0.221265
0.416571 0.023770 0.186704
0.574818 0.071788 0.141339
0.557317 0.090400 0.158569
0.468846 -0.007329 0.186182
0.428140 0.143518 0.177348
0.455176 0.139066 0.183197
0.421654 0.113852 0.187446
0.405425 0.081464 0.203225
0.442760 0.068736 0.221351
0.425518 0.075540 0.188226
0.439666 0.043055 0.208275
0.570652 0.115868 0.174479
0.478309 0.020051 0.216663
0.510933 0.052659 0.209513
0.429634 0.029420 0.227591
0.517427 0.086432 0.188313
0.479353 0.074459 0.210208
0.456656 0.083735 0.200068
0.434372 -0.010012 0.206687
0.561445 0.132541 0.185548
0.551981 0.048040 0.162917
0.499142 0.028818 0.175660
0.439562 0.015693 0.180626
0.539107 0.055991 0.184377
0.415338 0.106864 0.168877
0.494683 0.092445 0.214602
0.546515 0.084408 0.186847
0.525688 0.029380 0.172943
0.450135 0.040338 0.224568
0.494519 0.086042 0.194862
0.458211 0.144031 0.163920
0.487521 0.059156 0.203168
0.473559 0.005505 0.170338
0.415999 0.060923 0.216093
0.544680 0.120060 0.191832
0.440633 -0.000933 0.192221
0.567256 0.075261 0.160240
0.530376 0.103015 0.201069
0.504489 0.058406 0.191898
0.429382 0.118576 0.168737
0.429057 0.039001 0.193665
0.457673 0.064996 0.231488
0.413747 0.082948 0.175619
0.568876 0.074649 0.178194
0.411935 0.096466 0.193632
0.459156 0.006247 0.217175
0.410430 0.120401 0.199184
0.440716 0.149384 0.189062
0.523098 0.069506 0.196831
0.419951 0.039612 0.214257
0.428656 0.135269 0.162319
0.467207 0.039313 0.183654
0.578950 0.088604 0.160131
0.540087 0.069181 0.196350
0.420867 0.133263 0.191003
0.527252 0.044075 0.185781
0.425113 0.092830 0.209842
0.493846 -0.002381 0.196473
0.551102 0.093774 0.173509
0.573438 0.110017 0.159287
0.542534 0.038492 0.172959
0.475760 0.034222 0.224411
0.519102 0.113733 0.206011
0.443562 0.069827 0.196170
0.562095 0.082226 0.141557
0.549935 0.144855 0.185985
0.495808 0.072399 0.214228
0.509733 0.090497 0.205493
0.492355 0.043476 0.175418
0.431185 0.060318 0.210655
0.407299 0.115124 0.180608
0.532102 0.126082 0.200214
0.426267 0.122455 0.201319
0.408961 0.064828 0.200519
0.541827 0.059846 0.165172
0.443461 0.144794 0.158590
0.563066 0.068279 0.131926
0.562328 0.058608 0.151137
0.459150 0.153616 0.178667
0.458363 0.020122 0.175961
0.503439 0.003924 0.186435
0.558301 0.059827 0.175388
0.476457 0.063481 0.230183
0.491203 0.014207 0.211345
0.542961 0.106367 0.175355
0.518115 0.102669 0.188866
0.434246 0.005053 0.207028
0.533601 0.094930 0.188896
0.482425 0.075436 0.194113
0.476369 0.080098 0.224113
0.563092 0.122469 0.160239
0.562478 0.084910 0.186763
0.479793 0.090393 0.213329
0.419788 0.029345 0.200362
0.503405 0.029734 0.189613
0.558834 0.106334 0.175824
0.443918 0.028767 0.230777
0.441529 0.134491 0.180901
0.546407 0.123945 0.206736
0.488179 0.040857 0.222071
0.448120 0.052607 0.231429
0.430989 0.010117 0.230397
0.542695 0.110979 0.202393
0.457019 0.061705 0.193059
0.512401 0.068479 0.186107
0.553205 0.138727 0.169778
0.433081 0.121318 0.184332
0.469372 -0.005621 0.201801
0.506139 0.063682 0.220768
0.527022 0.103055 0.215150
0.544788 0.043472 0.188474
0.443210 0.038842 0.190863
0.485403 -0.004063 0.185781
0.400835 0.084727 0.183458
0.411995 0.090781 0.212476
0.432610 0.052178 0.199488
0.425977 0.064088 0.198032
0.573796 0.065457 0.153689
0.522221 0.057147 0.191536
0.525256 0.082511 0.175240
0.516353 0.043466 0.194515
0.556029 0.066566 0.160458
0.508338 0.089502 0.219621
0.426051 0.130502 0.176392
0.526445 0.024721 0.186643
0.495970 0.049165 0.204967
0.536801 0.076132 0.180139
0.518932 0.015528 0.196465
0.562892 0.145417 0.183387
0.452532 -0.006690 0.192635
0.457850 0.157046 0.165406
0.496117 0.016470 0.172642
0.418144 0.074378 0.199098
0.558267 0.083278 0.170986
0.501732 0.061733 0.208684
0.418580 0.094595 0.171272
0.435636 0.111824 0.192699
0.497997 0.072855 0.193921
0.523909 0.054837 0.178990
0.428897 0.106182 0.172148
0.472073 0.017127 0.175647
0.448411 0.143698 0.172976
0.424781 0.106092 0.207421
0.510703 0.019601 0.207134
0.432767 0.089718 0.200151
0.518809 0.080819 0.200677
0.469926 0.082678 0.197313
0.545471 0.094480 0.194852
0.413250 0.074212 0.212003
0.448104 -0.001081 0.215318
0.561251 0.104729 0.158699
0.573469 0.078206 0.130671
0.512573 0.113494 0.194270
0.420075 0.026371 0.220172
0.516304 0.041478 0.209044
0.555700 0.124484 0.195258
0.461614 0.035241 0.221314
0.424885 0.015315 0.183257
0.477901 0.057559 0.183392
0.406070 0.106839 0.196392
0.486233 0.066811 0.223319
0.438172 0.039791 0.227856
0.488517 0.094683 0.200977
0.487675 0.081124 0.203610
0.547214 0.059853 0.193290
0.575209 0.098740 0.165591
0.563708 0.096319 0.168290
0.418645 0.067677 0.182335
0.429477 0.143204 0.189221
0.502675 0.100949 0.208604
0.468583 0.086295 0.213892
0.470863 0.004685 0.211210
0.563793 0.094348 0.148455
0.522858 0.095264 0.206047
0.468723 0.072482 0.230705
0.457766 0.050427 0.189422
0.422302 0.051199 0.213187
0.508986 0.093191 0.193014
0.554064 0.075486 0.134361
0.524663 0.092976 0.180626
0.551244 0.074384 0.182955
0.532398 0.060570 0.173244
0.575451 0.081567 0.171397
0.559448 0.117179 0.171073
0.512634 0.061790 0.199565
0.462550 0.000335 0.180055
0.429092 0.035912 0.204898
0.433777 0.146469 0.164844
0.581158 0.116242 0.165378
0.548939 0.133079 0.188623
0.428234 0.103732 0.186908
0.481544 -0.005671 0.196558
0.426445 0.090232 0.190507
