ply
format ascii 1.0
element vertex 256
property float x
property float y
property float z
end_header
0.653667 -0.052505 0.194296
0.535992 0.051425 0.173100
0.666016 0.069330 0.156899
0.545061 -0.049630 0.223031
0.618981 0.027183 0.223169
0.586731 -0.112351 0.216038
0.687543 0.003974 0.170138
0.517189 -0.012813 0.176728
0.604666 -0.033995 0.236903
0.590631 -0.063360 0.192067
0.638852 0.072479 0.202657
0.641810 0.022175 0.177838
0.668279 0.019179 0.128080
0.586662 -0.004437 0.202839
0.624901 -0.076824 0.222294
0.655078 -0.008902 0.210174
0.526513 0.020751 0.201952
0.557977 -0.088794 0.237482
0.620958 -0.029282 0.188877
0.558976 -0.093067 0.195081
0.548785 -0.012527 0.208666
0.627092 -0.076024 0.181388
0.676216 0.038754 0.179467
0.538079 -0.043311 0.186707
0.586497 -0.065716 0.240028
0.655739 -0.019941 0.175736
0.536714 0.015602 0.169636
0.623277 0.003080 0.199456
0.634689 -0.034931 0.221066
0.603340 -0.000882 0.234890
0.572265 -0.032195 0.230383
0.624259 0.042132 0.196159
0.579710 -0.034365 0.197756
0.648436 0.086172 0.176447
0.672786 0.013843 0.199089
0.567557 -0.067989 0.214135
0.520238 -0.025048 0.204287
0.671265 0.040149 0.149482
0.591115 -0.093403 0.194068
0.607198 -0.047665 0.211514
0.649202 0.050415 0.170628
0.669975 -0.029610 0.197653
0.645104 0.020166 0.205318
0.665770 0.012158 0.155207
0.544991 -0.017636 0.182290
0.619087 -0.096899 0.205414
0.603257 -0.093798 0.226217
0.626764 -0.011459 0.229988
0.546636 0.033060 0.188152
0.644569 -0.058864 0.217710
0.608361 -0.021032 0.209788
0.639073 0.045649 0.216751
0.603247 0.014605 0.208518
0.620462 -0.053606 0.190682
0.515327 0.013411 0.180895
0.678917 -0.008280 0.190741
0.645120 -0.030390 0.199859
0.641007 -0.076817 0.200986
0.650680 0.039463 0.191914
0.521352 -0.001458 0.209269
0.642223 -0.002038 0.186296
0.548183 -0.080995 0.216609
0.607664 -0.062066 0.231150
0.579907 -0.011273 0.224498
0.664520 0.004914 0.178640
0.559773 -0.045915 0.206005
0.684534 0.015996 0.143453
0.563553 -0.052839 0.235332
0.577833 -0.085828 0.222848
0.533561 0.003189 0.188388
0.524791 0.033265 0.180976
0.637547 0.067558 0.180506
0.656288 -0.040195 0.214808
0.634736 -0.013266 0.206918
0.537654 -0.027848 0.217822
0.547652 0.035744 0.165901
0.622804 0.007144 0.220404
0.662440 0.029376 0.165868
0.669535 0.056110 0.171679
0.576796 -0.079309 0.195230
0.546254 -0.029710 0.198857
0.671849 -0.006691 0.164215
0.576452 -0.106257 0.200173
0.625986 -0.055547 0.227633
0.534939 -0.046101 0.205948
0.620174 0.022211 0.197163
0.663293 0.025866 0.187040
0.638127 -0.060808 0.184370
0.526796 -0.028769 0.179747
0.685038 0.040640 0.162361
0.659574 -0.037898 0.184215
0.569627 -0.072772 0.237016
0.659637 -0.008232 0.192227
0.578327 -0.089839 0.240927
0.580799 -0.047101 0.238666
0.601574 -0.002985 0.213684
0.643835 0.054924 0.200328
0.514749 -0.001192 0.192202
0.652491 0.075625 0.190867
0.538225 0.004875 0.206294
0.614035 -0.088632 0.190006
0.598773 -0.021829 0.194420
0.588512 -0.017700 0.238582
0.680146 0.020795 0.160696
0.552045 -0.062226 0.208171
0.656130 0.006925 0.202402
0.574259 -0.015739 0.207686
0.672305 0.003813 0.141107
0.639087 0.004533 0.215025
0.679365 0.021297 0.182485
0.570113 -0.051856 0.219295
0.602133 -0.050759 0.193440
0.672065 -0.020317 0.180529
0.633198 0.029954 0.214344
0.629901 0.011433 0.186429
0.599155 -0.076151 0.233722
0.531069 0.035165 0.164851
0.628350 0.060223 0.197875
0.576174 -0.057486 0.204741
0.589783 -0.093332 0.210334
0.526168 0.000293 0.173046
0.659395 0.051585 0.183550
0.658741 0.050327 0.157472
0.619165 -0.039436 0.232167
0.607139 -0.016321 0.231917
0.525928 -0.013326 0.194779
0.585691 -0.105034 0.230301
0.616075 0.034054 0.208985
0.681274 0.003620 0.155450
0.638898 -0.045034 0.200730
0.623826 -0.014159 0.195576
0.630675 -0.040208 0.183081
0.529299 0.018841 0.186597
0.553252 -0.037407 0.217679
0.595244 -0.052224 0.235712
0.629954 -0.085888 0.193075
0.677442 0.052788 0.156351
0.637281 -0.020764 0.190633
0.601865 -0.072191 0.186639
0.651851 0.016465 0.190755
0.638858 0.081776 0.187827
0.615203 -0.009611 0.217232
0.534477 -0.011788 0.213813
0.606106 0.009626 0.222602
0.670918 0.023069 0.142535
0.572966 -0.086367 0.208100
0.645263 0.036918 0.177980
0.543886 0.017982 0.183010
0.637985 0.040946 0.202562
0.583684 -0.032120 0.240013
0.632410 -0.085857 0.209158
0.638685 -0.000267 0.200642
0.553948 -0.081498 0.202933
0.558697 -0.065443 0.229322
0.532679 -0.016116 0.174584
0.550501 0.047409 0.174058
0.533042 0.031485 0.192927
0.524625 -0.038431 0.199319
0.658762 -0.021317 0.201433
0.655764 0.027829 0.199320
0.635973 -0.020170 0.219478
0.638965 0.027172 0.190924
0.677334 0.004889 0.185414
0.609152 -0.076486 0.223527
0.672557 0.011182 0.168035
0.656528 -0.057387 0.210065
0.535506 0.046335 0.186401
0.630199 0.055121 0.211039
0.522724 0.024615 0.170100
0.615650 -0.069552 0.186798
0.625667 0.016879 0.210722
0.608592 0.003192 0.202539
0.625993 -0.025323 0.229994
0.660277 0.037979 0.180984
0.642376 -0.074310 0.214543
0.655993 0.062301 0.163777
0.586235 -0.021046 0.203344
0.667156 0.042549 0.165123
0.541125 -0.009931 0.193009
0.623790 -0.029469 0.214803
0.624852 0.042323 0.215428
0.649167 -0.028023 0.187130
0.596717 -0.008992 0.226267
0.567903 -0.031528 0.203700
0.601496 -0.011150 0.202197
0.577069 -0.063877 0.222763
0.650236 -0.064778 0.198628
0.658078 0.017205 0.178278
0.542624 -0.031541 0.182359
0.638673 -0.074920 0.187994
0.588852 -0.044029 0.198365
0.519060 -0.023911 0.190521
0.527616 -0.035085 0.213105
0.681359 0.029582 0.170500
0.600341 -0.087941 0.186549
0.647700 -0.013699 0.200481
0.607959 -0.049131 0.235458
0.539879 -0.005366 0.176502
0.632147 0.014502 0.198903
0.588360 -0.092310 0.229452
0.561463 -0.039008 0.228059
0.660267 -0.006619 0.170059
0.683769 -0.004847 0.179301
0.606320 -0.098393 0.204654
0.547240 -0.043472 0.203565
0.667283 -0.000146 0.198483
0.640595 0.064485 0.192563
0.557454 -0.051953 0.221844
0.550762 -0.026915 0.211059
0.593792 -0.032271 0.199532
0.662657 -0.039891 0.198231
0.592392 0.002364 0.220481
0.674235 0.025580 0.193188
0.535200 0.026471 0.178567
0.616501 -0.007670 0.203391
0.627960 -0.000149 0.210590
0.679902 0.016390 0.131669
0.562355 -0.079655 0.229568
0.652349 -0.007054 0.181014
0.650967 0.066580 0.199245
0.645316 -0.028339 0.219755
0.573385 -0.061730 0.240931
0.543245 0.048753 0.163578
0.673264 0.032360 0.158715
0.669563 0.021930 0.172931
0.518812 0.010777 0.169541
0.630144 -0.023549 0.202439
0.652452 0.028650 0.172861
0.684363 0.015690 0.173030
0.541258 0.022333 0.193963
0.540540 0.026038 0.164907
0.669449 -0.016450 0.198761
0.616189 -0.027890 0.199840
0.518968 0.023900 0.190105
0.540360 0.037313 0.175330
0.604785 -0.015121 0.219624
0.571562 -0.043725 0.206382
0.627783 -0.011099 0.216394
0.663514 0.013693 0.143613
0.514479 -0.012742 0.189388
0.612816 -0.092928 0.219209
0.641498 0.058655 0.212059
0.599171 -0.022938 0.238738
0.631161 0.000498 0.191017
0.666649 0.068157 0.168652
0.609002 0.025382 0.205172
0.523057 -0.013644 0.211384
0.570908 -0.073417 0.203613
0.629401 0.028329 0.201217
0.646573 0.074584 0.177513
0.655487 0.041146 0.165951
0.637369 -0.046215 0.222925
0.647298 -0.015048 0.187979
0.522991 0.010752 0.192194
0.536073 -0.034795 0.201331
0.619070 -0.068381 0.227691
