ply
format ascii 1.0
element vertex 256
property float x
property float y
property float z
end_header
0.653656 -0.052467 0.194314
0.639078 0.085514 0.166485
0.525524 -0.001599 0.180328
0.559398 -0.089695 0.239035
0.668770 0.008310 0.123248
0.615779 0.021601 0.223256
0.577268 0.036312 0.153190
0.583577 -0.033766 0.201365
0.669577 0.013418 0.187901
0.603359 -0.090519 0.186147
0.616235 -0.063768 0.230221
0.538861 -0.051602 0.182687
0.639119 0.037908 0.159701
0.639387 0.056401 0.203605
0.631059 -0.010612 0.194989
0.559376 -0.093710 0.194961
0.609710 -0.020065 0.236109
0.573789 -0.050900 0.240150
0.547039 0.008312 0.148540
0.663666 -0.018330 0.165007
0.586709 -0.112304 0.216050
0.617640 -0.054628 0.184662
0.545154 -0.021275 0.205073
0.588713 0.003237 0.206194
0.551529 -0.022312 0.166110
0.640188 -0.032555 0.222767
0.635766 -0.083281 0.198412
0.672060 0.027632 0.155265
0.558877 -0.063389 0.211297
0.545586 0.025872 0.178094
0.665844 -0.019785 0.198976
0.637418 0.024519 0.192402
0.612797 -0.092886 0.219223
0.575684 -0.021416 0.231422
0.655494 0.054980 0.140065
0.588219 -0.064775 0.192700
0.683595 0.002533 0.163399
0.625650 0.062293 0.179708
0.643800 -0.061659 0.219034
0.553221 -0.001011 0.184015
0.577743 -0.085161 0.214066
0.606576 -0.044692 0.212467
0.650908 0.028263 0.134122
0.659730 0.039125 0.178153
0.615470 0.040866 0.196183
0.567204 0.013474 0.166168
0.650160 0.003869 0.171987
0.527078 -0.027692 0.176072
0.659584 0.002138 0.147129
0.638892 0.006522 0.212844
0.537793 -0.044248 0.214138
0.611813 -0.004584 0.213859
0.588973 -0.095931 0.234099
0.553406 0.030836 0.155449
0.647464 -0.030152 0.187226
0.632180 0.036914 0.215447
0.647850 0.070233 0.182331
0.593822 -0.063097 0.238613
0.604803 -0.029759 0.192413
0.617559 0.014124 0.198593
0.678467 -0.008128 0.183558
0.559033 -0.041868 0.222370
0.582331 -0.100569 0.197549
0.604180 0.003467 0.233066
0.656714 0.000592 0.200589
0.552938 -0.043136 0.198065
0.591466 -0.036368 0.235441
0.634160 -0.068690 0.180464
0.532907 -0.011407 0.161444
0.574305 -0.013383 0.207122
0.619154 -0.039396 0.232185
0.650649 0.019478 0.156444
0.577055 -0.063829 0.222778
0.528195 -0.032852 0.196716
0.548166 -0.080942 0.216622
0.629225 -0.079437 0.219249
0.534968 0.012513 0.165441
0.679633 0.011030 0.141211
0.651678 0.054766 0.160584
0.566096 0.033030 0.171955
0.633945 0.044543 0.188181
0.626759 -0.011419 0.230009
0.575160 -0.075436 0.238927
0.528874 -0.011877 0.197084
0.551287 -0.024357 0.186597
0.601017 -0.080104 0.232024
0.630666 -0.040166 0.183100
0.656278 -0.040160 0.214828
0.667540 0.013817 0.168618
0.659183 -0.010823 0.183165
0.585316 -0.006714 0.223496
0.612175 -0.023660 0.212279
0.629154 0.008747 0.184590
0.650782 0.022890 0.175474
0.648612 -0.069735 0.199644
0.586113 -0.083419 0.191139
0.552246 -0.039746 0.176116
0.657067 0.037792 0.148837
0.576161 -0.057437 0.204757
0.617321 -0.089999 0.198265
0.641690 -0.015818 0.209133
0.655346 0.028342 0.193131
0.602122 -0.050713 0.193457
0.558683 -0.065393 0.229336
0.599829 -0.015232 0.202085
0.611265 -0.074329 0.187474
0.633586 0.071898 0.193098
0.663182 -0.037628 0.197313
0.638888 -0.044995 0.200749
0.603627 0.011620 0.215049
0.598076 -0.098222 0.205326
0.665059 -0.028497 0.179442
0.553784 -0.005166 0.162580
0.565781 0.025647 0.144507
0.628898 -0.053236 0.225148
0.640757 0.046993 0.144013
0.638453 0.066928 0.168295
0.538941 0.007555 0.186847
0.570893 -0.073366 0.203627
0.666129 0.019971 0.134994
0.649149 0.012857 0.191272
0.551907 0.009904 0.171168
0.642779 -0.010816 0.181792
0.622895 0.055128 0.194138
0.625585 -0.000143 0.206536
0.656516 -0.057352 0.210083
0.642536 0.036720 0.176278
0.540650 -0.003245 0.174222
0.567894 -0.031477 0.203717
0.674936 -0.001752 0.150662
0.604501 -0.045525 0.236631
0.537475 -0.048542 0.198199
0.670115 -0.002183 0.170090
0.620950 -0.029239 0.188896
0.670820 0.028814 0.171712
0.615848 0.032540 0.212103
0.626569 0.017197 0.213105
0.621964 0.027712 0.191436
0.563429 0.041752 0.159502
0.550260 -0.009394 0.196491
0.649539 -0.017651 0.195825
0.589267 -0.017875 0.237291
0.598347 -0.012504 0.218278
0.629799 -0.024024 0.201979
0.656043 0.007750 0.131334
0.661054 0.043350 0.163617
0.668329 0.012992 0.152839
0.638371 0.082873 0.181256
0.537951 -0.034161 0.168020
0.607179 0.024416 0.203022
0.625931 0.047972 0.206874
0.641095 0.057019 0.184386
0.626522 -0.020656 0.216070
0.553932 -0.081445 0.202946
0.541671 -0.036141 0.191398
0.634292 0.036944 0.200915
0.643864 0.018982 0.204319
0.535465 -0.016384 0.179979
0.664298 0.034416 0.134067
0.636440 0.020863 0.176139
0.567082 -0.077174 0.219678
0.548019 -0.054600 0.214902
0.559147 0.021029 0.177595
0.574882 -0.044918 0.197748
0.567889 -0.050587 0.214341
0.652469 -0.022903 0.175458
0.642554 -0.031271 0.201973
0.586476 -0.095301 0.218949
0.605263 0.003356 0.203580
0.642114 -0.074104 0.212483
0.578308 -0.089793 0.240940
0.574945 0.024850 0.161028
0.572664 -0.089435 0.193460
0.566514 -0.031721 0.228895
0.658637 0.029340 0.162411
0.577713 -0.037043 0.237975
0.618195 0.007514 0.218681
0.625985 -0.025284 0.230013
0.536235 0.002032 0.154558
0.564814 0.013642 0.151345
0.664846 0.000477 0.188679
0.559489 -0.051677 0.232047
0.610632 -0.009807 0.227025
0.612958 -0.014163 0.198340
0.629477 0.076515 0.172138
0.631065 0.013551 0.198212
0.543278 0.020758 0.158718
0.665925 -0.001465 0.135904
0.644239 -0.003630 0.198226
0.657387 -0.007024 0.168142
0.548194 -0.037328 0.209030
0.591817 -0.049561 0.236026
0.586228 -0.020998 0.203362
0.646630 0.037333 0.188797
0.658351 0.020428 0.145626
0.673287 -0.015300 0.173871
0.661769 0.024963 0.182249
0.648770 0.079596 0.173270
0.675714 0.006955 0.177546
0.663682 0.003297 0.160172
0.624710 -0.091118 0.214297
0.621787 -0.079820 0.182197
0.578507 -0.062946 0.239549
0.598952 -0.070397 0.187895
0.655874 -0.043209 0.185623
0.653136 -0.009373 0.207907
0.599881 -0.008339 0.235827
0.555941 0.019802 0.161531
0.527058 -0.022468 0.187792
0.648692 0.045833 0.169783
0.658734 0.013246 0.178463
0.640674 0.004237 0.187356
0.525915 -0.015635 0.171689
0.601671 -0.095047 0.224864
0.637275 -0.020724 0.190653
0.552615 -0.049432 0.184180
0.557039 0.006707 0.159905
0.674273 -0.019772 0.185882
0.680080 0.014391 0.165204
0.646585 0.057444 0.149492
0.670578 -0.009492 0.159381
0.660041 0.049653 0.151000
0.558767 -0.051157 0.205945
0.550294 -0.012204 0.179547
0.623676 0.003446 0.194918
0.629018 0.026174 0.205050
0.609136 -0.076443 0.223542
0.533091 -0.023470 0.204517
0.536447 -0.002710 0.194080
0.607219 -0.031838 0.233839
0.534328 -0.023556 0.161779
0.644138 0.065160 0.192966
0.533808 0.017144 0.181323
0.646558 -0.065882 0.188353
0.549496 0.015206 0.182224
0.598331 0.000906 0.213168
0.531301 -0.039657 0.176479
0.648823 -0.050676 0.218967
0.616182 -0.027847 0.199858
0.551289 0.033611 0.170945
0.668740 -0.010585 0.191136
0.644414 0.012824 0.179801
0.588842 -0.043982 0.198382
0.587029 -0.009244 0.204726
0.553755 -0.031402 0.199540
0.623764 -0.065321 0.184934
0.554741 0.022195 0.147686
0.638229 0.045617 0.207962
0.669230 0.029501 0.144143
0.669615 -0.029537 0.192023
0.591097 -0.093356 0.194082
0.616640 -0.089613 0.185314
0.536905 -0.034367 0.208345
0.589955 -0.106484 0.225349
0.641595 0.008707 0.199875
0.655899 -0.026953 0.197266
