ply
format ascii 1.0
element vertex 256
property float x
property float y
property float z
end_header
0.624570 -0.028086 0.191135
0.643041 0.108872 0.161520
0.517810 0.050219 0.156806
0.519108 -0.039789 0.222932
0.655885 0.024428 0.116645
0.599383 0.052109 0.213819
0.580061 0.072004 0.135332
0.563766 -0.004263 0.186152
0.651836 0.031810 0.181141
0.577022 -0.062932 0.201328
0.512773 0.008058 0.192624
0.662270 0.066821 0.147152
0.597062 0.004557 0.221393
0.537870 -0.044743 0.179613
0.633414 0.077826 0.194206
0.536306 0.010133 0.152842
0.551003 0.014713 0.223933
0.562898 -0.030346 0.223940
0.613047 0.020888 0.187527
0.545575 0.050485 0.127140
0.569326 0.034537 0.193935
0.645807 -0.004047 0.169224
0.584962 -0.036564 0.175023
0.635966 0.040155 0.144943
0.669390 0.018835 0.152395
0.598234 -0.032191 0.216855
0.542904 -0.069253 0.204200
0.611181 0.054667 0.181656
0.555375 0.063236 0.157040
0.537940 0.030730 0.179615
0.531320 -0.016582 0.204224
0.600800 -0.006736 0.178200
0.636997 0.063166 0.166175
0.578109 0.029383 0.224317
0.637750 -0.001125 0.198092
0.511496 0.023823 0.167668
0.522797 0.029479 0.137335
0.624216 0.088167 0.166816
0.628185 0.042066 0.199009
0.605646 -0.048363 0.196318
0.645848 0.049688 0.121631
0.541872 0.038778 0.152889
0.637530 0.019955 0.161709
0.516260 -0.036205 0.191313
0.586594 0.013924 0.199866
0.580429 -0.010949 0.204135
0.658215 0.043942 0.159745
0.542304 -0.010582 0.226319
0.515950 -0.000697 0.164707
0.621001 -0.007510 0.215425
0.539872 -0.041096 0.209397
0.594725 0.036544 0.193904
0.559797 -0.033998 0.182060
0.648541 0.018443 0.139211
0.555533 0.071790 0.133664
0.534616 0.064695 0.144447
0.611313 0.070145 0.200086
0.663928 0.010653 0.175052
0.570576 0.000865 0.224847
0.536498 -0.001514 0.186565
0.625634 0.040435 0.169368
0.645197 0.090269 0.176374
0.557802 -0.053918 0.216415
0.643901 0.053370 0.185740
0.579817 -0.044904 0.214951
0.625997 0.004598 0.179108
0.634699 0.021104 0.196800
0.560488 -0.055529 0.186096
0.657122 0.038733 0.138559
0.606808 0.019239 0.208958
0.534771 0.008460 0.211735
0.559852 0.030259 0.212813
0.562698 0.049610 0.138755
0.616648 -0.004573 0.195121
0.534917 0.051184 0.168115
0.617146 -0.034876 0.209378
0.653990 0.075230 0.163871
0.581452 -0.020838 0.221877
0.608915 -0.032892 0.179270
0.644938 0.011429 0.182572
0.549940 -0.014994 0.197124
0.615507 0.073980 0.179006
0.532567 0.012828 0.172651
0.551259 0.011783 0.186531
0.583329 0.005475 0.182259
0.581176 -0.055734 0.177591
0.667793 0.022919 0.132251
0.520695 0.039319 0.175256
0.579036 0.043347 0.208310
0.537723 -0.029705 0.224816
0.538724 -0.028272 0.189243
0.653421 0.009437 0.156948
0.642375 0.032253 0.128185
0.639080 0.092656 0.153084
0.594311 0.055048 0.191786
0.573575 -0.018668 0.179576
0.535477 -0.060252 0.189423
0.643950 0.067493 0.148530
0.632076 -0.012654 0.180585
0.592839 0.030504 0.212404
0.609502 0.045282 0.200283
0.656582 0.026227 0.163162
0.566941 0.081464 0.143634
0.523399 0.032205 0.157202
0.519157 0.022984 0.185065
0.519165 0.012160 0.148275
0.571233 0.016379 0.189435
0.527720 0.049013 0.140269
0.653091 0.058231 0.171419
0.643189 0.041250 0.169239
0.628888 0.026751 0.179740
0.592847 -0.021419 0.183005
0.568056 0.063123 0.125428
0.519739 -0.003836 0.182235
0.606684 -0.016818 0.217173
0.664337 0.083599 0.148514
0.595864 -0.050497 0.209934
0.633277 0.078168 0.176939
0.572195 0.064739 0.148355
0.546937 0.019530 0.208185
0.541821 0.023959 0.160763
0.623081 0.060865 0.192580
0.612435 0.035347 0.179345
0.648625 0.050669 0.146917
0.533098 -0.001623 0.164036
0.537152 0.023795 0.143790
0.619986 0.010986 0.203717
0.617888 0.029677 0.201401
0.551180 -0.051783 0.198737
0.566753 -0.014271 0.220776
0.541812 -0.061265 0.218093
0.636714 -0.016887 0.195516
0.548004 0.055943 0.144134
0.551628 0.076448 0.148340
0.555358 0.027076 0.193032
0.593858 -0.054890 0.187074
0.529029 0.010988 0.192821
0.598810 -0.044419 0.175269
0.633569 0.100088 0.172657
0.649218 -0.003860 0.184496
0.577513 0.025245 0.209263
0.523504 -0.003870 0.200379
0.540061 -0.003523 0.201378
0.584691 0.015683 0.226092
0.601732 0.010618 0.188084
0.625087 0.088489 0.184560
0.539240 0.065012 0.158927
0.546952 0.039771 0.138610
0.616379 0.056374 0.207967
0.624789 0.048492 0.184013
0.647994 0.032582 0.149880
0.639417 0.039092 0.185820
0.564557 0.023174 0.225616
0.528269 -0.017591 0.188576
0.537018 -0.044293 0.227420
0.516952 0.009685 0.175093
0.628010 -0.025039 0.208213
0.665347 0.032618 0.149416
0.649855 0.096018 0.162929
0.598735 0.002294 0.207057
0.550823 -0.022871 0.227358
0.603512 0.065702 0.187901
0.591744 -0.010695 0.222758
0.615514 -0.019451 0.198133
0.584815 0.025581 0.191747
0.670350 0.020517 0.166546
0.523613 -0.044884 0.179392
0.570908 -0.046759 0.181592
0.525605 -0.031123 0.213849
0.550200 -0.001882 0.183617
0.536986 -0.041126 0.194128
0.601661 0.059827 0.202548
0.544455 -0.019620 0.208939
0.656519 0.060279 0.158211
0.624291 0.013760 0.190994
0.604786 0.027467 0.196243
0.635905 0.008509 0.170511
0.652019 0.075869 0.141312
0.660338 0.032848 0.126548
0.624449 0.069724 0.203743
0.603969 0.019744 0.222286
0.610365 -0.000188 0.219411
0.529292 -0.003236 0.215556
0.617738 -0.038983 0.195105
0.608737 0.005922 0.198490
0.519195 0.040102 0.145480
0.527822 -0.029852 0.196826
0.634076 0.049016 0.163470
0.567202 -0.044724 0.218942
0.647143 0.017441 0.171029
0.582325 0.000889 0.218834
0.657457 0.016391 0.127391
0.556780 0.057658 0.130220
0.636790 0.033197 0.161093
0.656351 0.022066 0.149100
0.601705 0.039763 0.209686
0.642567 0.047982 0.134200
0.585412 0.045346 0.196570
0.609554 -0.019982 0.181179
0.636113 0.083540 0.161958
0.567518 -0.059654 0.209671
0.536475 0.050416 0.150571
0.620670 0.076616 0.191862
0.580048 -0.055688 0.190517
0.513416 0.025786 0.152090
0.644545 0.023522 0.187813
0.525498 0.007777 0.159547
0.544257 0.065429 0.135928
0.626741 0.019752 0.168732
0.585456 0.039693 0.222028
0.616105 0.039844 0.190794
0.604433 0.044874 0.188651
0.658813 0.022214 0.176656
0.554584 -0.016133 0.185450
0.645584 0.043451 0.157095
0.542647 0.038367 0.165400
0.583108 -0.033758 0.219649
0.516978 -0.033927 0.203598
0.571000 -0.035210 0.176671
0.656422 0.006898 0.184383
0.623530 0.064587 0.180692
0.573239 0.058584 0.135810
0.535558 0.055534 0.132499
0.607206 -0.045459 0.209311
0.656150 0.037235 0.170868
0.562999 0.054713 0.149995
0.633973 0.056309 0.179095
0.510708 0.011323 0.164651
0.592870 0.030143 0.224638
0.656132 0.004545 0.167875
0.532383 0.034781 0.146313
0.635879 0.094139 0.183741
0.583843 0.033269 0.202588
0.636599 0.008977 0.191127
0.560123 0.068359 0.145052
0.569890 0.075800 0.129880
0.566599 -0.060882 0.195446
0.645789 0.102633 0.151462
0.617141 -0.024089 0.214865
0.631607 0.100450 0.158527
0.547278 0.000338 0.225768
0.597796 0.048505 0.201633
0.644224 0.062732 0.178352
0.535634 0.037436 0.135202
0.653765 0.044499 0.128717
0.663927 0.073833 0.156517
0.514324 0.038314 0.165372
0.606581 0.000065 0.185910
0.647957 0.004584 0.192610
0.548774 -0.051336 0.187245
0.628699 -0.004381 0.191369
0.631429 0.031988 0.190556
0.625776 0.052592 0.170869
0.640542 0.030578 0.140083
0.586213 0.018677 0.213433
0.589909 0.044896 0.211922
