ply
format ascii 1.0
element vertex 256
property float x
property float y
property float z
end_header
0.631922 -0.040682 0.213320
0.532871 0.060799 0.162562
0.658352 0.078137 0.175886
0.523478 -0.059566 0.231204
0.603017 0.042260 0.239191
0.513690 -0.010742 0.174908
0.577410 -0.020604 0.252247
0.663690 0.009381 0.175916
0.578944 -0.074460 0.203485
0.627668 0.085231 0.218921
0.635794 0.010774 0.217606
0.640338 0.042246 0.146762
0.569009 0.013113 0.217931
0.528294 -0.012392 0.220163
0.562018 -0.077615 0.250804
0.524758 0.028890 0.193578
0.632145 0.048828 0.195312
0.604165 -0.064935 0.237554
0.557629 -0.042056 0.215865
0.601618 -0.014863 0.205998
0.616216 -0.015428 0.243239
0.522558 0.024587 0.156286
0.540373 -0.032442 0.250138
0.549106 -0.086329 0.219063
0.587013 0.013737 0.251833
0.651570 -0.011906 0.197926
0.601481 -0.051128 0.202788
0.604331 0.012943 0.222232
0.504577 0.001618 0.204236
0.640014 0.097201 0.192811
0.631206 0.013147 0.186914
0.518057 -0.031588 0.197963
0.666642 0.027285 0.150664
0.607709 0.056369 0.212987
0.573655 -0.049992 0.247438
0.653323 0.041594 0.173714
0.555342 -0.002310 0.246243
0.665589 0.012501 0.205653
0.573847 -0.015292 0.215433
0.533754 0.002792 0.193253
0.626205 0.036524 0.219543
0.542240 0.034899 0.172107
0.536238 -0.071622 0.256630
0.656420 0.059615 0.195567
0.621200 -0.044724 0.238243
0.627079 -0.014969 0.215787
0.624904 0.058790 0.233394
0.582446 -0.079788 0.234979
0.531892 -0.038147 0.218880
0.586063 -0.031664 0.230884
0.505061 0.013144 0.181589
0.586919 0.030777 0.224045
0.537387 -0.064981 0.211534
0.647196 0.028686 0.197490
0.546883 -0.065437 0.234871
0.518689 0.046306 0.177606
0.585140 -0.000256 0.230780
0.579243 -0.039286 0.206557
0.615187 0.023582 0.203104
0.630703 0.075499 0.197959
0.607565 -0.072142 0.215828
0.536593 0.041398 0.150393
0.640495 0.064535 0.180279
0.600460 -0.040687 0.246144
0.648488 -0.020295 0.219393
0.639286 0.027845 0.164036
0.618521 0.001997 0.203887
0.532081 -0.019049 0.186928
0.532007 0.012668 0.171797
0.553432 -0.044857 0.238397
0.634678 -0.028215 0.233720
0.597290 -0.006494 0.247362
0.553212 -0.012706 0.216019
0.621401 0.017771 0.232451
0.557218 -0.067559 0.215818
0.541985 -0.015839 0.238575
0.610153 -0.033265 0.206296
0.622185 -0.061066 0.224168
0.671303 0.023778 0.187615
0.626626 0.062940 0.213618
0.549823 -0.055919 0.254637
0.512895 -0.024415 0.216300
0.563018 -0.090033 0.235468
0.574511 0.019767 0.235702
0.651612 -0.000985 0.214309
0.604932 0.036657 0.213357
0.621671 -0.054139 0.204390
0.521677 0.007405 0.210533
0.636176 0.032855 0.182193
0.652693 0.015875 0.156870
0.643838 0.040171 0.213307
0.510186 0.029047 0.172737
0.650069 0.010645 0.188912
0.515307 -0.012975 0.198561
0.607241 -0.005604 0.221782
0.532930 -0.043458 0.236918
0.639530 -0.026835 0.203285
0.667311 0.026890 0.169679
0.604589 0.023037 0.238439
0.557883 -0.028133 0.254168
0.545784 -0.031037 0.229113
0.633953 -0.007494 0.200566
0.642071 0.086963 0.207766
0.510049 0.019672 0.197324
0.548725 0.050080 0.160004
0.530730 -0.004249 0.176665
0.656314 0.040517 0.156011
0.520882 0.041575 0.160459
0.580610 -0.066143 0.245877
0.597020 -0.023918 0.249325
0.514791 0.012643 0.165972
0.555471 0.003018 0.222390
0.572617 -0.054811 0.209208
0.567352 -0.080439 0.220634
0.586653 0.011792 0.218818
0.650982 0.025065 0.178944
0.523938 -0.027735 0.229676
0.534198 -0.013255 0.204327
0.509445 0.034151 0.188912
0.514100 0.001763 0.189812
0.540142 0.050657 0.177178
0.643981 0.055164 0.205997
0.646739 0.047012 0.187830
0.541652 -0.050815 0.222686
0.631264 0.026053 0.200303
0.641560 0.045686 0.163109
0.622514 -0.002841 0.226941
0.625590 0.090563 0.201667
0.621040 0.038793 0.201776
0.587942 -0.059972 0.201140
0.662376 0.001235 0.193768
0.615052 0.067614 0.223975
0.513433 -0.008072 0.215364
0.618972 0.043005 0.232487
0.650562 0.073651 0.189275
0.642630 0.013201 0.202883
0.526607 0.031681 0.172341
0.614420 0.025021 0.218835
0.593171 -0.081711 0.223578
0.564142 -0.012739 0.255490
0.638297 0.073608 0.218371
0.585537 -0.034613 0.250371
0.658267 0.062942 0.179528
0.522050 0.015243 0.183481
0.633643 -0.045460 0.229286
0.562436 -0.044256 0.256074
0.527858 -0.026070 0.210462
0.537120 -0.059172 0.244781
0.601355 0.049055 0.224772
0.595196 0.007628 0.239106
0.548114 -0.028061 0.214367
0.590737 -0.054791 0.246419
0.588702 0.025868 0.238329
0.578255 -0.005635 0.254680
0.558221 -0.075785 0.234448
0.592393 -0.074879 0.210076
0.515882 -0.021233 0.185257
0.567564 0.004881 0.250736
0.608753 0.003241 0.233488
0.532662 0.040036 0.184124
0.617581 -0.031841 0.218936
0.533138 -0.029728 0.196870
0.618123 -0.029830 0.241828
0.636286 -0.004075 0.222481
0.636455 0.026517 0.217183
0.617883 0.009074 0.218751
0.627625 0.072858 0.228501
0.603261 -0.014749 0.232026
0.619160 0.048704 0.216363
0.640373 0.062824 0.194361
0.571286 -0.033910 0.252220
0.551627 -0.070446 0.257039
0.649061 -0.003664 0.186855
0.625769 0.016508 0.209674
0.600598 0.026870 0.222393
0.594543 0.001035 0.214803
0.526210 0.016984 0.201501
0.658247 0.022185 0.192121
0.506479 -0.010314 0.186723
0.567125 -0.003384 0.218699
0.533008 0.000144 0.207371
0.538982 0.055423 0.151508
0.610522 0.056673 0.231472
0.607101 0.003254 0.247025
0.653178 0.027980 0.163101
0.630615 0.045338 0.208783
0.549139 -0.042024 0.256336
0.577576 0.008208 0.241875
0.665604 0.017661 0.160018
0.536057 -0.022880 0.223222
0.585345 -0.013927 0.208772
0.621529 0.076039 0.207614
0.533583 0.043227 0.163846
0.648111 0.051767 0.151665
0.653459 0.027151 0.149536
0.557436 0.005309 0.235886
0.642658 0.043380 0.200545
0.533136 0.024529 0.163740
0.580369 -0.082122 0.222253
0.609004 -0.048923 0.241227
0.567966 -0.026606 0.214238
0.598940 -0.039012 0.208191
0.651425 0.014251 0.169413
0.545999 -0.019987 0.249808
0.667549 0.011798 0.188617
0.641414 0.020208 0.188859
0.572556 -0.076681 0.244045
0.638337 -0.000489 0.209980
0.611883 0.032917 0.236131
0.520982 0.001923 0.167469
0.662530 0.000742 0.208318
0.575960 0.006509 0.225830
0.634569 0.085474 0.191846
0.527915 0.051510 0.170982
0.551101 -0.052406 0.214709
0.587061 0.000131 0.248125
0.552654 -0.040854 0.226866
0.653600 0.009946 0.206902
0.625429 0.000674 0.214510
0.596502 -0.012838 0.216702
0.637493 0.097755 0.205098
0.662350 0.030358 0.180022
0.598885 -0.076290 0.232599
0.503165 0.008697 0.194684
0.640373 0.040544 0.174046
0.613095 -0.068076 0.230240
0.629453 -0.052778 0.219539
0.656686 -0.010392 0.208980
0.626556 0.026549 0.226255
0.607660 -0.060778 0.199552
0.504667 0.001261 0.181371
0.593732 0.040946 0.220784
0.640159 -0.012626 0.215354
0.618103 -0.055454 0.234514
0.593593 0.019963 0.228854
0.614883 0.065561 0.211804
0.631787 0.061540 0.224328
0.652625 0.037017 0.186590
0.635995 0.036665 0.157150
0.663267 0.072110 0.184667
0.520833 0.036275 0.185500
0.638726 -0.029138 0.214629
0.509648 -0.021352 0.204222
0.578070 0.019079 0.224701
0.614828 -0.060139 0.215311
0.548161 -0.070605 0.209349
0.597874 0.032160 0.235275
0.518039 0.025688 0.180723
0.524087 -0.021803 0.198692
0.642496 -0.018957 0.195432
0.535364 -0.008135 0.190067
0.651533 0.069774 0.172029
0.629045 0.000157 0.193617
0.618725 0.032638 0.211137
0.531014 0.032651 0.156012
0.650056 0.055105 0.179361
