ply
format ascii 1.0
element vertex 256
property float x
property float y
property float z
end_header
0.635091 -0.033362 0.208375
0.649118 0.104317 0.180429
0.525776 0.039619 0.172432
0.530149 -0.049507 0.239947
0.665537 0.021294 0.134729
0.605928 0.046399 0.228941
0.588290 0.062595 0.152508
0.573348 -0.012124 0.203263
0.661108 0.028130 0.199594
0.589033 -0.070184 0.218466
0.521963 -0.002076 0.208926
0.643057 0.057460 0.162044
0.606167 -0.001912 0.238575
0.549196 -0.053659 0.196667
0.639998 0.072503 0.212495
0.546049 0.000311 0.169496
0.559715 0.006292 0.241017
0.573500 -0.038226 0.241048
0.621674 0.015200 0.204807
0.554460 0.040410 0.143410
0.578566 0.027268 0.206925
0.655641 -0.008271 0.186840
0.595910 -0.043501 0.192178
0.608897 -0.038578 0.234038
0.678590 0.015710 0.170649
0.555206 -0.077939 0.221264
0.562996 0.053712 0.173456
0.546347 0.021429 0.195909
0.631198 0.045035 0.190997
0.545329 -0.030294 0.218631
0.610470 -0.013032 0.195390
0.586178 0.022093 0.241460
0.647044 -0.005990 0.215610
0.651528 0.028320 0.160314
0.657677 0.058399 0.189097
0.520429 0.013169 0.183674
0.636437 0.077194 0.182822
0.531977 0.018776 0.153425
0.615378 0.065095 0.201731
0.635789 0.036787 0.216820
0.617028 -0.054419 0.213517
0.552086 -0.019348 0.243384
0.660678 0.047466 0.144025
0.550372 0.029167 0.169106
0.527220 -0.046042 0.208321
0.641251 0.013290 0.184897
0.595359 0.007008 0.217026
0.543393 -0.005272 0.222945
0.590239 -0.018103 0.221281
0.668479 0.038909 0.176930
0.525986 -0.011183 0.181235
0.612201 0.038704 0.206050
0.626738 -0.021472 0.232139
0.569418 -0.061991 0.233512
0.570644 -0.042000 0.199161
0.563842 0.061959 0.149985
0.542673 0.054665 0.160126
0.673088 0.007054 0.193106
0.579853 -0.006718 0.241972
0.659572 0.071201 0.151596
0.626376 0.056908 0.223281
0.567729 0.022755 0.227509
0.641031 0.092276 0.199197
0.541767 -0.008242 0.199876
0.591036 -0.052055 0.232095
0.643169 0.015850 0.215606
0.572234 -0.063483 0.203198
0.550979 -0.049935 0.226456
0.605695 0.025017 0.224508
0.626015 -0.010222 0.211868
0.586549 0.036085 0.225455
0.672726 0.027357 0.153928
0.664178 0.059909 0.168891
0.648292 0.049662 0.205967
0.571175 0.039968 0.155628
0.659432 0.010082 0.175462
0.542635 0.041526 0.183990
0.653971 0.007007 0.200339
0.560173 0.003380 0.203616
0.591641 -0.027943 0.239025
0.619678 -0.038823 0.196476
0.648950 0.042260 0.180798
0.641962 -0.017626 0.197841
0.627921 -0.040461 0.226601
0.661356 0.011187 0.155778
0.592490 -0.001570 0.199412
0.592931 -0.062814 0.194738
0.528823 0.029182 0.191121
0.637975 0.027591 0.197657
0.548318 -0.038647 0.241870
0.634381 0.002293 0.200062
0.561212 -0.026281 0.203960
0.583769 -0.026102 0.196708
0.653062 0.086607 0.184333
0.547438 -0.069257 0.206472
0.628836 0.005481 0.220948
0.532661 -0.022309 0.208050
0.533380 -0.021058 0.228510
0.574737 0.071949 0.160215
0.532131 0.021874 0.173246
0.527829 0.012971 0.201203
0.536003 0.038554 0.156079
0.634884 0.064734 0.195526
0.528914 0.001510 0.164622
0.579930 0.008814 0.206563
0.595766 0.024040 0.209475
0.663698 0.042688 0.160646
0.603132 -0.028038 0.200177
0.670176 0.023017 0.183972
0.576783 0.053390 0.142312
0.603496 0.015116 0.239500
0.622930 0.027731 0.223776
0.628794 0.080503 0.201534
0.563610 0.018832 0.210126
0.542296 0.003299 0.187364
0.555483 0.010935 0.225261
0.607316 -0.056966 0.227111
0.651483 0.025106 0.176903
0.597542 0.042952 0.214673
0.580086 0.055375 0.165347
0.550830 0.014501 0.177249
0.650197 0.065753 0.176039
0.650489 0.034151 0.144691
0.550947 -0.015437 0.212334
0.552499 -0.045387 0.210706
0.546455 0.013835 0.160209
0.613893 0.004395 0.214390
0.624163 0.050362 0.204744
0.638275 0.090981 0.174514
0.562750 -0.060134 0.215819
0.576680 -0.022002 0.237892
0.543166 -0.011374 0.180851
0.553749 -0.070005 0.235155
0.646661 -0.021751 0.212848
0.556202 0.046130 0.160402
0.559349 0.066745 0.164450
0.624415 0.070475 0.214767
0.605545 -0.061438 0.204247
0.610077 -0.050765 0.192454
0.639750 0.054996 0.182228
0.658813 -0.008124 0.202164
0.664992 0.024064 0.169132
0.585782 0.017955 0.226408
0.620577 -0.006472 0.234880
0.623326 0.032017 0.194108
0.648718 0.078967 0.198114
0.619019 0.042194 0.220354
0.613275 0.059455 0.215746
0.546779 0.055248 0.174754
0.524528 -0.002108 0.193338
0.555640 0.030128 0.154893
0.651546 0.058625 0.149303
0.572897 0.015317 0.242729
0.548224 -0.053251 0.244472
0.649316 0.037462 0.197698
0.615312 0.013169 0.226161
0.605664 0.051800 0.204425
0.541917 0.008505 0.201387
0.638363 -0.030175 0.225460
0.561113 -0.031266 0.244440
0.660688 0.041393 0.189479
0.549078 -0.002581 0.236602
0.601493 -0.017375 0.239928
0.609790 0.021146 0.211187
0.625664 -0.025118 0.215353
0.607964 -0.004101 0.224243
0.534958 -0.054402 0.196416
0.536033 -0.000751 0.210690
0.651688 0.047642 0.167624
0.582285 -0.054280 0.198717
0.547722 -0.031684 0.204696
0.618388 -0.002432 0.202766
0.641978 -0.005199 0.188897
0.536294 -0.040573 0.230878
0.559698 -0.010317 0.200699
0.629967 0.014828 0.193023
0.670807 0.015460 0.146148
0.650234 0.025231 0.207664
0.602916 -0.001644 0.208348
0.625519 0.035798 0.207541
0.538758 -0.039506 0.211025
0.628716 -0.044538 0.212329
0.649093 0.043066 0.154663
0.598489 0.034748 0.231412
0.527785 0.029374 0.161316
0.664194 0.030985 0.144283
0.661197 0.016382 0.193221
0.656928 0.018150 0.145307
0.578417 -0.052408 0.236059
0.591603 -0.006198 0.235985
0.542063 -0.014314 0.236440
0.633251 0.089296 0.186872
0.565433 0.047805 0.146782
0.528038 -0.012977 0.199802
0.638361 0.033053 0.185749
0.619768 -0.025898 0.198387
0.579382 -0.067310 0.226788
0.534450 -0.013697 0.217820
0.653859 0.070631 0.163280
0.544542 0.040501 0.166506
0.591775 -0.062818 0.207661
0.522521 0.014939 0.168095
0.636297 0.044377 0.206385
0.535244 -0.002393 0.176072
0.552596 0.055445 0.151940
0.520232 0.000596 0.180875
0.631658 0.021374 0.214434
0.634799 0.060798 0.212203
0.639897 0.004100 0.211707
0.643995 0.053256 0.194480
0.593327 0.008681 0.243247
0.619365 -0.031658 0.232203
0.550956 0.029011 0.181633
0.593845 -0.040782 0.236800
0.527815 -0.043738 0.220608
0.674168 0.015932 0.158965
0.581900 -0.042738 0.193797
0.552660 -0.020472 0.223632
0.665594 0.002905 0.202278
0.581669 0.049073 0.152931
0.544181 0.045364 0.148345
0.618437 -0.051454 0.226513
0.570999 0.045222 0.166801
0.663708 0.000164 0.181417
0.602735 0.012335 0.206234
0.658082 0.037087 0.170624
0.650128 0.003969 0.180638
0.651481 0.097469 0.170522
0.541174 0.024647 0.162455
0.568082 0.058754 0.161573
0.638057 0.083934 0.208658
0.662683 0.060244 0.155851
0.578257 0.066153 0.146651
0.578546 -0.068575 0.212562
0.587781 0.016418 0.214387
0.613249 -0.015998 0.235891
0.648627 0.096873 0.189894
0.660425 0.052216 0.177366
0.544450 0.027308 0.151297
0.652949 0.028453 0.188241
0.596822 0.014322 0.228789
0.679216 0.014597 0.182424
0.522667 0.027727 0.181158
0.657102 0.000172 0.210348
0.617012 0.050361 0.228989
0.592140 0.027041 0.220254
0.560352 -0.059788 0.204322
0.638228 -0.009518 0.208712
0.676179 0.026944 0.165114
0.616716 0.027059 0.203842
0.613575 0.037185 0.229395
0.652607 0.016510 0.185316
0.557525 -0.009028 0.243088
0.618404 0.006428 0.235146
0.624575 0.069938 0.195712
0.610404 0.032221 0.216861
