ply
format ascii 1.0
element vertex 1024
property float x
property float y
property float z
property uchar red
property uchar green
property uchar blue
end_header
0.424617 0.140925 0.025455 255 220 0
0.366823 0.108319 0.043943 255 220 0
0.450724 0.149746 0.056621 255 220 0
0.415290 0.190973 0.019582 255 220 0
0.372549 0.143526 0.089401 255 220 0
0.349215 0.141798 0.010570 255 220 0
0.372886 0.177918 0.085058 255 220 0
0.365760 0.114301 0.015720 255 220 0
0.450674 0.176881 0.092879 255 220 0
0.433153 0.150777 0.088267 255 220 0
0.451730 0.150729 0.055936 255 220 0
0.395135 0.119153 0.062622 255 220 0
0.428447 0.164740 0.012917 255 220 0
0.362648 0.117055 0.010690 255 220 0
0.454782 0.175554 0.089749 255 220 0
0.357055 0.142440 0.082349 255 220 0
0.375400 0.120389 0.072167 255 220 0
0.358646 0.171834 0.061485 255 220 0
0.433446 0.220377 0.044715 255 220 0
0.443886 0.191157 0.019997 255 220 0
0.416364 0.218244 0.076443 255 220 0
0.342950 0.149045 0.059888 255 220 0
0.358452 0.170981 0.064755 255 220 0
0.341246 0.126372 0.064252 255 220 0
0.399772 0.157089 0.008836 255 220 0
0.468955 0.176568 0.066790 255 220 0
0.464216 0.176671 0.039207 255 220 0
0.434840 0.198669 0.021974 255 220 0
0.371232 0.180015 0.078908 255 220 0
0.393656 0.188038 0.028196 255 220 0
0.448193 0.171754 0.092555 255 220 0
0.458193 0.168862 0.035000 255 220 0
0.428738 0.143213 0.083521 255 220 0
0.384836 0.181952 0.092682 255 220 0
0.421134 0.177002 0.012124 255 220 0
0.364846 0.177098 0.050655 255 220 0
0.420056 0.219734 0.051811 255 220 0
0.406317 0.200635 0.032716 255 220 0
0.446614 0.152166 0.078313 255 220 0
0.365854 0.127778 0.006739 255 220 0
0.428254 0.146958 0.021553 255 220 0
0.395825 0.121932 0.029737 255 220 0
0.369763 0.174786 0.084288 255 220 0
0.381096 0.143188 0.008578 255 220 0
0.384341 0.150229 0.009053 255 220 0
0.397251 0.201887 0.084127 255 220 0
0.359853 0.161977 0.028240 255 220 0
0.389817 0.189889 0.090814 255 220 0
0.464190 0.175512 0.078644 255 220 0
0.467266 0.216983 0.075551 255 220 0
0.327492 0.131308 0.032285 255 220 0
0.473610 0.198119 0.050964 255 220 0
0.460970 0.165458 0.045268 255 220 0
0.404634 0.121991 0.044229 255 220 0
0.463125 0.165732 0.052768 255 220 0
0.468683 0.211864 0.050708 255 220 0
0.367441 0.180483 0.053439 255 220 0
0.363812 0.175477 0.048937 255 220 0
0.352583 0.140635 0.008256 255 220 0
0.420070 0.159557 0.011098 255 220 0
0.326777 0.130384 0.029488 255 220 0
0.336998 0.137287 0.012677 255 220 0
0.435780 0.226562 0.068480 255 220 0
0.395116 0.195155 0.035535 255 220 0
0.454085 0.154409 0.048041 255 220 0
0.449364 0.148708 0.061146 255 220 0
0.353001 0.160752 0.038250 255 220 0
0.362314 0.173723 0.070475 255 220 0
0.457306 0.179250 0.089159 255 220 0
0.407503 0.133312 0.021991 255 220 0
0.382257 0.112533 0.043579 255 220 0
0.423220 0.135797 0.077253 255 220 0
0.366638 0.175221 0.042051 255 220 0
0.466763 0.190396 0.036895 255 220 0
0.467256 0.200592 0.039166 255 220 0
0.387947 0.141230 0.090457 255 220 0
0.383523 0.156810 0.096489 255 220 0
0.367399 0.127218 0.077467 255 220 0
0.405419 0.144827 0.012184 255 220 0
0.338362 0.145171 0.033661 255 220 0
0.377679 0.115227 0.024188 255 220 0
0.387576 0.198067 0.074178 255 220 0
0.437076 0.143105 0.037705 255 220 0
0.445573 0.225564 0.056112 255 220 0
0.355217 0.151487 0.018329 255 220 0
0.421585 0.139361 0.083316 255 220 0
0.375245 0.178619 0.034060 255 220 0
0.332529 0.124651 0.052057 255 220 0
0.358555 0.164467 0.077732 255 220 0
0.449804 0.188233 0.021730 255 220 0
0.475795 0.196695 0.061840 255 220 0
0.343915 0.124505 0.065353 255 220 0
0.449287 0.183416 0.095137 255 220 0
0.363812 0.111517 0.056773 255 220 0
0.370115 0.180501 0.075309 255 220 0
0.448018 0.163518 0.088474 255 220 0
0.404953 0.194914 0.095955 255 220 0
0.418804 0.164451 0.010239 255 220 0
0.438414 0.171608 0.097047 255 220 0
0.352393 0.131601 0.003758 255 220 0
0.393953 0.189666 0.093704 255 220 0
0.361949 0.106778 0.035061 255 220 0
0.410071 0.154101 0.009881 255 220 0
0.367145 0.170911 0.084708 255 220 0
0.425408 0.215176 0.039501 255 220 0
0.423527 0.133433 0.039479 255 220 0
0.465868 0.174304 0.045776 255 220 0
0.392926 0.197716 0.085444 255 220 0
0.424014 0.208263 0.031511 255 220 0
0.363543 0.108953 0.049335 255 220 0
0.359403 0.168887 0.072994 255 220 0
0.387722 0.155259 0.009562 255 220 0
0.426213 0.131981 0.053419 255 220 0
0.356823 0.149745 0.083125 255 220 0
0.453853 0.167691 0.086297 255 220 0
0.381738 0.114203 0.057871 255 220 0
0.460021 0.165293 0.073288 255 220 0
0.392826 0.182557 0.023450 255 220 0
0.385126 0.115289 0.033463 255 220 0
0.415853 0.185051 0.015828 255 220 0
0.367697 0.173075 0.083176 255 220 0
0.424343 0.171065 0.011427 255 220 0
0.336062 0.115496 0.006385 255 220 0
0.444790 0.157283 0.085958 255 220 0
0.345738 0.142875 0.014095 255 220 0
0.384830 0.190387 0.040653 255 220 0
0.334849 0.107839 0.022832 255 220 0
0.449719 0.165778 0.088670 255 220 0
0.466434 0.173500 0.070116 255 220 0
0.468601 0.216743 0.073028 255 220 0
0.386208 0.158715 0.097380 255 220 0
0.418603 0.217771 0.048843 255 220 0
0.470347 0.185231 0.045792 255 220 0
0.441564 0.158675 0.089398 255 220 0
0.447365 0.146768 0.054204 255 220 0
0.389009 0.200273 0.069831 255 220 0
0.371750 0.162502 0.019008 255 220 0
0.342885 0.148207 0.060901 255 220 0
0.421460 0.129411 0.051999 255 220 0
0.456152 0.176607 0.089109 255 220 0
0.434706 0.175123 0.099074 255 220 0
0.409804 0.210709 0.083468 255 220 0
0.404809 0.174846 0.101391 255 220 0
0.439743 0.193578 0.098609 255 220 0
0.354141 0.164139 0.044477 255 220 0
0.336905 0.107038 0.022022 255 220 0
0.373491 0.127903 0.009403 255 220 0
0.356097 0.149731 0.082437 255 220 0
0.474257 0.209642 0.067069 255 220 0
0.413194 0.125245 0.050892 255 220 0
0.364248 0.165539 0.085385 255 220 0
0.462024 0.208528 0.038735 255 220 0
0.368686 0.173603 0.084061 255 220 0
0.458337 0.181058 0.088942 255 220 0
0.409262 0.214549 0.074610 255 220 0
0.450970 0.192747 0.023563 255 220 0
0.376906 0.127090 0.079315 255 220 0
0.387243 0.114410 0.043132 255 220 0
0.395981 0.153641 0.008835 255 220 0
0.458992 0.175140 0.031596 255 220 0
0.405310 0.127510 0.028953 255 220 0
0.456145 0.210250 0.090158 255 220 0
0.345109 0.155327 0.052482 255 220 0
0.351566 0.158188 0.034997 255 220 0
0.339865 0.109770 0.010982 255 220 0
0.417816 0.170241 0.101452 255 220 0
0.377917 0.161182 0.095603 255 220 0
0.407424 0.166312 0.101139 255 220 0
0.348563 0.148418 0.020091 255 220 0
0.430371 0.141552 0.080138 255 220 0
0.402156 0.200779 0.089979 255 220 0
0.376488 0.186726 0.076299 255 220 0
0.390190 0.140402 0.010335 255 220 0
0.457626 0.164683 0.077910 255 220 0
0.373254 0.183052 0.077072 255 220 0
0.444371 0.216636 0.089376 255 220 0
0.459463 0.161333 0.065945 255 220 0
0.339209 0.147497 0.045453 255 220 0
0.475931 0.198101 0.062612 255 220 0
0.455337 0.224387 0.073697 255 220 0
0.410645 0.211773 0.045962 255 220 0
0.366685 0.139978 0.085885 255 220 0
0.352542 0.117948 0.005132 255 220 0
0.391146 0.143988 0.009608 255 220 0
0.413645 0.125859 0.047902 255 220 0
0.446849 0.183048 0.096143 255 220 0
0.399497 0.122878 0.032062 255 220 0
0.329848 0.132971 0.040052 255 220 0
0.421397 0.135282 0.031716 255 220 0
0.346250 0.107360 0.016121 255 220 0
0.466780 0.182433 0.039827 255 220 0
0.355728 0.140665 0.007601 255 220 0
0.345161 0.134602 0.005738 255 220 0
0.385961 0.119482 0.024296 255 220 0
0.413313 0.143728 0.090363 255 220 0
0.356891 0.145890 0.011230 255 220 0
0.331617 0.109958 0.030759 255 220 0
0.410992 0.214897 0.076867 255 220 0
0.389746 0.187414 0.030650 255 220 0
0.391096 0.131548 0.014657 255 220 0
0.468113 0.211475 0.080707 255 220 0
0.399269 0.121247 0.036396 255 220 0
0.405622 0.139394 0.015443 255 220 0
0.365648 0.117122 0.066884 255 220 0
0.461809 0.166567 0.070721 255 220 0
0.381814 0.187193 0.085527 255 220 0
0.435301 0.166201 0.015525 255 220 0
0.370234 0.182370 0.050709 255 220 0
0.391185 0.116012 0.043009 255 220 0
0.345348 0.155155 0.045306 255 220 0
0.414057 0.151270 0.095364 255 220 0
0.467138 0.188018 0.082579 255 220 0
0.417310 0.191516 0.019394 255 220 0
0.408068 0.129029 0.028985 255 220 0
0.464920 0.170622 0.069331 255 220 0
0.367940 0.119281 0.011811 255 220 0
0.380258 0.113131 0.055038 255 220 0
0.460327 0.184582 0.088420 255 220 0
0.382519 0.115960 0.062826 255 220 0
0.405899 0.149278 0.095115 255 220 0
0.453671 0.155105 0.069063 255 220 0
0.427327 0.181356 0.013726 255 220 0
0.426692 0.178480 0.101203 255 220 0
0.445074 0.200586 0.024746 255 220 0
0.343751 0.112724 0.052480 255 220 0
0.342405 0.110810 0.047741 255 220 0
0.405353 0.147426 0.011036 255 220 0
0.372869 0.186043 0.055068 255 220 0
0.411238 0.206542 0.036575 255 220 0
0.374227 0.186369 0.051443 255 220 0
0.368884 0.144656 0.088871 255 220 0
0.409043 0.209157 0.042830 255 220 0
0.471932 0.184300 0.069436 255 220 0
0.369036 0.166499 0.089746 255 220 0
0.405604 0.190251 0.098433 255 220 0
0.473655 0.190101 0.070900 255 220 0
0.451241 0.199362 0.095069 255 220 0
0.387966 0.189192 0.034701 255 220 0
0.363952 0.177128 0.053940 255 220 0
0.418155 0.169609 0.010425 255 220 0
0.417289 0.133549 0.030317 255 220 0
0.444689 0.223911 0.051048 255 220 0
0.398803 0.127037 0.023642 255 220 0
0.386456 0.195711 0.048588 255 220 0
0.450764 0.169468 0.024791 255 220 0
0.392102 0.133198 0.014065 255 220 0
0.425266 0.136651 0.034008 255 220 0
0.461845 0.177672 0.083979 255 220 0
0.339768 0.147265 0.036803 255 220 0
0.419334 0.189023 0.017417 255 220 0
0.395362 0.182659 0.097405 255 220 0
0.436748 0.158127 0.091806 255 220 0
0.444189 0.167133 0.092851 255 220 0
0.461204 0.163866 0.066359 255 220 0
0.396932 0.179985 0.098718 255 220 0
0.469603 0.188187 0.079057 255 220 0
0.362603 0.166706 0.032370 255 220 0
0.328722 0.129417 0.013061 255 220 0
0.338804 0.141359 0.019380 255 220 0
0.370858 0.155371 0.092505 255 220 0
0.436661 0.138817 0.062632 255 220 0
0.355532 0.167570 0.050713 255 220 0
0.400192 0.148858 0.095041 255 220 0
0.347583 0.110730 0.009776 255 220 0
0.371359 0.125768 0.077214 255 220 0
0.329919 0.132486 0.040984 255 220 0
0.362136 0.122701 0.072072 255 220 0
0.340483 0.137898 0.063779 255 220 0
0.394812 0.205658 0.062033 255 220 0
0.428401 0.133419 0.061316 255 220 0
0.455680 0.177288 0.089737 255 220 0
0.417429 0.129223 0.041752 255 220 0
0.462194 0.207330 0.088006 255 220 0
0.442426 0.224521 0.052208 255 220 0
0.468703 0.216693 0.057964 255 220 0
0.402908 0.169427 0.101081 255 220 0
0.460929 0.223099 0.070713 255 220 0
0.397626 0.205206 0.077813 255 220 0
0.431572 0.156061 0.017311 255 220 0
0.352361 0.105512 0.034247 255 220 0
0.380772 0.112142 0.040970 255 220 0
0.426716 0.137206 0.034857 255 220 0
0.402861 0.120637 0.056399 255 220 0
0.424001 0.138267 0.029043 255 220 0
0.338262 0.117937 0.004098 255 220 0
0.432094 0.207476 0.028774 255 220 0
0.325391 0.120411 0.022021 255 220 0
0.444503 0.153036 0.031640 255 220 0
0.387766 0.184949 0.092715 255 220 0
0.407899 0.164603 0.100838 255 220 0
0.405220 0.193879 0.026252 255 220 0
0.433322 0.162526 0.095704 255 220 0
0.400724 0.153955 0.097434 255 220 0
0.398469 0.199565 0.038513 255 220 0
0.422753 0.221870 0.054701 255 220 0
0.445567 0.163763 0.023161 255 220 0
0.326511 0.116034 0.031546 255 220 0
0.409938 0.129241 0.075117 255 220 0
0.472377 0.212107 0.059865 255 220 0
0.450022 0.216523 0.039898 255 220 0
0.415833 0.137791 0.022313 255 220 0
0.471388 0.209623 0.077302 255 220 0
0.451975 0.177410 0.022973 255 220 0
0.409178 0.152172 0.010205 255 220 0
0.382585 0.135848 0.086674 255 220 0
0.358368 0.171601 0.056075 255 220 0
0.473223 0.191909 0.050106 255 220 0
0.467972 0.194752 0.038540 255 220 0
0.454164 0.163237 0.033867 255 220 0
0.430170 0.176564 0.013116 255 220 0
0.356272 0.128271 0.003871 255 220 0
0.470096 0.184732 0.075566 255 220 0
0.455641 0.214208 0.039711 255 220 0
0.409614 0.207931 0.040096 255 220 0
0.344201 0.141169 0.068863 255 220 0
0.332356 0.131812 0.009872 255 220 0
0.336233 0.135946 0.056118 255 220 0
0.441434 0.180375 0.016703 255 220 0
0.332017 0.136689 0.020891 255 220 0
0.373176 0.118820 0.015385 255 220 0
0.361928 0.167022 0.034065 255 220 0
0.329256 0.131817 0.039460 255 220 0
0.408108 0.215376 0.064115 255 220 0
0.388932 0.145045 0.092630 255 220 0
0.457733 0.219884 0.081381 255 220 0
0.401646 0.199587 0.090829 255 220 0
0.409725 0.126754 0.036423 255 220 0
0.358641 0.157887 0.082971 255 220 0
0.451813 0.159442 0.080986 255 220 0
0.469402 0.192322 0.081332 255 220 0
0.423091 0.158193 0.097052 255 220 0
0.373345 0.153938 0.012039 255 220 0
0.343321 0.111389 0.049689 255 220 0
0.419039 0.147088 0.091520 255 220 0
0.448917 0.161529 0.086256 255 220 0
0.446083 0.168136 0.092260 255 220 0
0.426751 0.132376 0.060577 255 220 0
0.360740 0.109134 0.021098 255 220 0
0.440546 0.144977 0.074323 255 220 0
0.353402 0.152862 0.021841 255 220 0
0.410612 0.209753 0.085489 255 220 0
0.452708 0.188901 0.094325 255 220 0
0.468366 0.195655 0.039209 255 220 0
0.406916 0.122811 0.045902 255 220 0
0.409693 0.131499 0.078762 255 220 0
0.352107 0.160058 0.069345 255 220 0
0.420795 0.161378 0.098856 255 220 0
0.458601 0.223478 0.073299 255 220 0
0.381158 0.152212 0.009752 255 220 0
0.445255 0.225610 0.075261 255 220 0
0.390958 0.200951 0.052546 255 220 0
0.371694 0.185412 0.061557 255 220 0
0.443652 0.217798 0.040181 255 220 0
0.464135 0.212407 0.083984 255 220 0
0.332397 0.138850 0.034662 255 220 0
0.354723 0.165911 0.047942 255 220 0
0.349602 0.111576 0.009402 255 220 0
0.332958 0.113161 0.011312 255 220 0
0.365628 0.179424 0.058571 255 220 0
0.341419 0.146770 0.058599 255 220 0
0.376609 0.163109 0.095077 255 220 0
0.472594 0.213064 0.066664 255 220 0
0.405387 0.154076 0.097512 255 220 0
0.388603 0.200492 0.064872 255 220 0
0.419024 0.194229 0.099230 255 220 0
0.381513 0.188678 0.082912 255 220 0
0.385201 0.197596 0.064584 255 220 0
0.376833 0.114852 0.062438 255 220 0
0.412041 0.138057 0.085659 255 220 0
0.343979 0.152299 0.039490 255 220 0
0.342107 0.125882 0.002503 255 220 0
0.438131 0.143212 0.039335 255 220 0
0.351526 0.153500 0.075083 255 220 0
0.448664 0.147834 0.057220 255 220 0
0.395413 0.156320 0.097976 255 220 0
0.326146 0.120814 0.016854 255 220 0
0.381839 0.167520 0.017394 255 220 0
0.413205 0.196455 0.097430 255 220 0
0.382113 0.113311 0.036177 255 220 0
0.358560 0.122561 0.005493 255 220 0
0.361809 0.110947 0.018051 255 220 0
0.419554 0.149114 0.014776 255 220 0
0.360741 0.114669 0.062433 255 220 0
0.443506 0.196725 0.022267 255 220 0
0.406921 0.122640 0.059153 255 220 0
0.452467 0.199102 0.094636 255 220 0
0.334421 0.108433 0.020596 255 220 0
0.398973 0.204958 0.048197 255 220 0
0.354029 0.111718 0.055733 255 220 0
0.447429 0.219541 0.043378 255 220 0
0.330580 0.110409 0.028361 255 220 0
0.352887 0.121128 0.067348 255 220 0
0.446621 0.146028 0.057300 255 220 0
0.332045 0.117535 0.008211 255 220 0
0.425915 0.195282 0.099257 255 220 0
0.350558 0.118350 0.063669 255 220 0
0.408971 0.173468 0.101858 255 220 0
0.357545 0.153238 0.018721 255 220 0
0.446666 0.216391 0.038828 255 220 0
0.457086 0.170821 0.085102 255 220 0
0.371553 0.181807 0.075807 255 220 0
0.416933 0.219144 0.074542 255 220 0
0.438380 0.161912 0.093224 255 220 0
0.468997 0.201689 0.042286 255 220 0
0.429010 0.151136 0.090827 255 220 0
0.424574 0.143199 0.022563 255 220 0
0.455771 0.213996 0.039544 255 220 0
0.332498 0.109028 0.026716 255 220 0
0.467610 0.216651 0.075484 255 220 0
0.386084 0.194518 0.046765 255 220 0
0.352836 0.125924 0.071198 255 220 0
0.394035 0.187986 0.027861 255 220 0
0.452004 0.223832 0.077756 255 220 0
0.402228 0.206926 0.047530 255 220 0
0.393063 0.154514 0.097139 255 220 0
0.369333 0.110990 0.054297 255 220 0
0.453538 0.173300 0.025781 255 220 0
0.418369 0.179846 0.101984 255 220 0
0.373793 0.137312 0.007682 255 220 0
0.417731 0.127330 0.053641 255 220 0
0.367978 0.180531 0.068766 255 220 0
0.374765 0.185997 0.049114 255 220 0
0.451201 0.224310 0.054696 255 220 0
0.325354 0.123867 0.028112 255 220 0
0.451436 0.156191 0.038158 255 220 0
0.392958 0.116748 0.043218 255 220 0
0.345517 0.150798 0.029979 255 220 0
0.402648 0.197852 0.032188 255 220 0
0.355639 0.167719 0.050857 255 220 0
0.369632 0.181444 0.071389 255 220 0
0.370204 0.129392 0.079933 255 220 0
0.380717 0.117058 0.066180 255 220 0
0.388390 0.197686 0.077717 255 220 0
0.356369 0.163384 0.037038 255 220 0
0.408491 0.162504 0.009118 255 220 0
0.403520 0.130123 0.023134 255 220 0
0.434793 0.215264 0.036934 255 220 0
0.418528 0.129431 0.043233 255 220 0
0.395391 0.119237 0.036640 255 220 0
0.416734 0.220125 0.068957 255 220 0
0.428952 0.133600 0.059762 255 220 0
0.404672 0.121415 0.048274 255 220 0
0.403414 0.184402 0.099716 255 220 0
0.420531 0.218671 0.080611 255 220 0
0.351352 0.160777 0.042696 255 220 0
0.472779 0.207897 0.055333 255 220 0
0.335591 0.141527 0.028700 255 220 0
0.469556 0.215103 0.074049 255 220 0
0.394860 0.136966 0.013047 255 220 0
0.438226 0.226931 0.066461 255 220 0
0.464264 0.170234 0.047238 255 220 0
0.426408 0.216002 0.087446 255 220 0
0.375980 0.110687 0.038015 255 220 0
0.448510 0.148790 0.047954 255 220 0
0.459825 0.210212 0.038370 255 220 0
0.338037 0.111302 0.009438 255 220 0
0.443339 0.148116 0.037800 255 220 0
0.379497 0.132292 0.009937 255 220 0
0.450481 0.174097 0.022607 255 220 0
0.444414 0.211744 0.033179 255 220 0
0.369374 0.183195 0.059921 255 220 0
0.393313 0.118921 0.034284 255 220 0
0.399329 0.125301 0.026884 255 220 0
0.434097 0.190710 0.099759 255 220 0
0.410821 0.208518 0.087144 255 220 0
0.370888 0.114879 0.063615 255 220 0
0.427447 0.208796 0.030994 255 220 0
0.430389 0.225729 0.065748 255 220 0
0.333965 0.119087 0.005862 255 220 0
0.420561 0.218963 0.080069 255 220 0
0.380863 0.158493 0.096218 255 220 0
0.438469 0.218930 0.087301 255 220 0
0.341553 0.146611 0.059230 255 220 0
0.449207 0.156685 0.081074 255 220 0
0.432757 0.139756 0.038322 255 220 0
0.354116 0.135386 0.077673 255 220 0
0.381926 0.174709 0.023422 255 220 0
0.469665 0.205067 0.082120 255 220 0
0.402926 0.120509 0.049832 255 220 0
0.437875 0.170905 0.015753 255 220 0
0.359344 0.106982 0.026924 255 220 0
0.444623 0.170687 0.019431 255 220 0
0.459132 0.201274 0.091231 255 220 0
0.441904 0.150795 0.031170 255 220 0
0.366631 0.158947 0.090088 255 220 0
0.400673 0.166666 0.010567 255 220 0
0.340673 0.139444 0.063426 255 220 0
0.372983 0.185627 0.052790 255 220 0
0.378506 0.182272 0.087230 255 220 0
0.456395 0.191688 0.092641 255 220 0
0.350731 0.113350 0.057273 255 220 0
0.383872 0.168471 0.097095 255 220 0
0.440772 0.215348 0.036792 255 220 0
0.421921 0.159009 0.011808 255 220 0
0.406450 0.139621 0.088356 255 220 0
0.375127 0.185904 0.074816 255 220 0
0.373345 0.181188 0.041565 255 220 0
0.462106 0.163951 0.062356 255 220 0
0.449147 0.177780 0.093967 255 220 0
0.370245 0.165161 0.022552 255 220 0
0.408655 0.177447 0.101775 255 220 0
0.403961 0.122729 0.039528 255 220 0
0.358288 0.107468 0.023714 255 220 0
0.433735 0.225296 0.074229 255 220 0
0.393905 0.117211 0.042860 255 220 0
0.368754 0.115649 0.065017 255 220 0
0.383871 0.135172 0.010322 255 220 0
0.415011 0.180282 0.101989 255 220 0
0.389512 0.160498 0.010701 255 220 0
0.385264 0.197710 0.059603 255 220 0
0.430905 0.187499 0.016152 255 220 0
0.432093 0.158424 0.016491 255 220 0
0.464021 0.179986 0.082515 255 220 0
0.394455 0.128490 0.080072 255 220 0
0.452176 0.152959 0.046152 255 220 0
0.460544 0.200405 0.032327 255 220 0
0.415431 0.214207 0.083304 255 220 0
0.338387 0.141423 0.056618 255 220 0
0.462549 0.164368 0.054511 255 220 0
0.415133 0.179304 0.013176 255 220 0
0.342526 0.114139 0.053958 255 220 0
0.368651 0.108523 0.042278 255 220 0
0.368800 0.175992 0.081126 255 220 0
0.415616 0.214695 0.082743 255 220 0
0.419586 0.170671 0.101335 255 220 0
0.457212 0.159777 0.069654 255 220 0
0.469370 0.177646 0.067454 255 220 0
0.403626 0.211420 0.071963 255 220 0
0.375240 0.110770 0.048566 255 220 0
0.439688 0.150770 0.083513 255 220 0
0.426643 0.152828 0.016229 255 220 0
0.337577 0.135719 0.009918 255 220 0
0.456939 0.222924 0.054890 255 220 0
0.445244 0.221648 0.083749 255 220 0
0.349831 0.122388 0.002805 255 220 0
0.436168 0.226736 0.064067 255 220 0
0.470824 0.179402 0.062204 255 220 0
0.429015 0.136621 0.072496 255 220 0
0.430252 0.199186 0.098131 255 220 0
0.360596 0.106522 0.035667 255 220 0
0.416216 0.131467 0.033526 255 220 0
0.334112 0.115589 0.048429 255 220 0
0.355067 0.106196 0.026086 255 220 0
0.428770 0.187400 0.015992 255 220 0
0.365470 0.127783 0.006606 255 220 0
0.357453 0.158830 0.026284 255 220 0
0.415364 0.130626 0.034379 255 220 0
0.407861 0.147612 0.011540 255 220 0
0.433210 0.218329 0.087129 255 220 0
0.361563 0.157532 0.020764 255 220 0
0.441945 0.222899 0.082054 255 220 0
0.351589 0.146192 0.077917 255 220 0
0.385370 0.181184 0.027301 255 220 0
0.442754 0.223060 0.048872 255 220 0
0.430909 0.140775 0.033136 255 220 0
0.458062 0.224385 0.068965 255 220 0
0.367215 0.180710 0.055614 255 220 0
0.341065 0.141569 0.016477 255 220 0
0.349628 0.105384 0.033085 255 220 0
0.381534 0.194451 0.059437 255 220 0
0.333003 0.135503 0.014579 255 220 0
0.411574 0.124455 0.057572 255 220 0
0.378559 0.191628 0.064671 255 220 0
0.362237 0.175617 0.063319 255 220 0
0.419389 0.213568 0.040624 255 220 0
0.340391 0.147633 0.035564 255 220 0
0.346985 0.111093 0.009078 255 220 0
0.434094 0.141814 0.035695 255 220 0
0.348196 0.152376 0.069438 255 220 0
0.383757 0.146941 0.093033 255 220 0
0.346756 0.145980 0.018025 255 220 0
0.441210 0.222169 0.047021 255 220 0
0.407852 0.188967 0.020807 255 220 0
0.399240 0.197340 0.034475 255 220 0
0.462381 0.200094 0.089272 255 220 0
0.335967 0.110254 0.039748 255 220 0
0.458370 0.194357 0.091743 255 220 0
0.451403 0.150868 0.050746 255 220 0
0.401024 0.191312 0.026364 255 220 0
0.381788 0.190441 0.045561 255 220 0
0.437920 0.179411 0.015423 255 220 0
0.403260 0.169096 0.101105 255 220 0
0.453860 0.202964 0.029410 255 220 0
0.384051 0.196401 0.066578 255 220 0
0.425284 0.207791 0.030587 255 220 0
0.358945 0.164686 0.034667 255 220 0
0.473359 0.188981 0.052812 255 220 0
0.337282 0.111832 0.045175 255 220 0
0.440071 0.195524 0.098326 255 220 0
0.359576 0.106657 0.039863 255 220 0
0.402520 0.123677 0.034238 255 220 0
0.350669 0.126617 0.070656 255 220 0
0.400208 0.133115 0.017853 255 220 0
0.381511 0.133436 0.010178 255 220 0
0.474875 0.202972 0.073125 255 220 0
0.451726 0.181451 0.022307 255 220 0
0.423944 0.221408 0.077874 255 220 0
0.442922 0.152223 0.030599 255 220 0
0.405626 0.173362 0.101540 255 220 0
0.367864 0.127916 0.007385 255 220 0
0.371831 0.184884 0.066940 255 220 0
0.432514 0.199304 0.098138 255 220 0
0.475637 0.204822 0.066210 255 220 0
0.472200 0.206214 0.052093 255 220 0
0.460111 0.161748 0.064478 255 220 0
0.423493 0.145511 0.019476 255 220 0
0.386980 0.118416 0.066647 255 220 0
0.395781 0.199641 0.085941 255 220 0
0.338772 0.134706 0.008127 255 220 0
0.418149 0.155108 0.096687 255 220 0
0.411709 0.204020 0.032995 255 220 0
0.417394 0.127601 0.049103 255 220 0
0.400413 0.175292 0.014478 255 220 0
0.442645 0.225565 0.075772 255 220 0
0.373477 0.164671 0.019882 255 220 0
0.429385 0.181699 0.100896 255 220 0
0.377090 0.179667 0.033353 255 220 0
0.434453 0.205838 0.095736 255 220 0
0.332841 0.131514 0.050738 255 220 0
0.330682 0.133169 0.014348 255 220 0
0.382696 0.134319 0.085634 255 220 0
0.427816 0.189066 0.016712 255 220 0
0.379135 0.126334 0.012544 255 220 0
0.415371 0.136676 0.023375 255 220 0
0.428629 0.218032 0.086123 255 220 0
0.361020 0.133504 0.005190 255 220 0
0.383633 0.188814 0.039514 255 220 0
0.416477 0.133734 0.078665 255 220 0
0.349697 0.154034 0.071124 255 220 0
0.421609 0.186667 0.015852 255 220 0
0.364928 0.131216 0.079789 255 220 0
0.386383 0.162075 0.012166 255 220 0
0.459559 0.186804 0.028938 255 220 0
0.376702 0.186626 0.077071 255 220 0
0.461523 0.170261 0.040031 255 220 0
0.475179 0.193230 0.067248 255 220 0
0.396596 0.206763 0.068048 255 220 0
0.345818 0.150379 0.028258 255 220 0
0.431555 0.209942 0.031287 255 220 0
0.357900 0.163986 0.077058 255 220 0
0.461734 0.222332 0.059263 255 220 0
0.413924 0.127145 0.066470 255 220 0
0.470585 0.193389 0.080011 255 220 0
0.354728 0.167508 0.057935 255 220 0
0.386460 0.181714 0.027016 255 220 0
0.371388 0.111631 0.025698 255 220 0
0.434434 0.137248 0.052102 255 220 0
0.390892 0.174646 0.018024 255 220 0
0.368099 0.178457 0.046064 255 220 0
0.372852 0.170721 0.026341 255 220 0
0.432988 0.217240 0.088173 255 220 0
0.428384 0.172810 0.100252 255 220 0
0.415355 0.176810 0.102098 255 220 0
0.405751 0.126839 0.030839 255 220 0
0.347565 0.152199 0.068186 255 220 0
0.328963 0.127604 0.042355 255 220 0
0.443603 0.226978 0.064786 255 220 0
0.393771 0.184874 0.024963 255 220 0
0.426130 0.223603 0.056611 255 220 0
0.332386 0.137230 0.042389 255 220 0
0.396252 0.204779 0.052114 255 220 0
0.365629 0.165633 0.086907 255 220 0
0.396266 0.122719 0.070928 255 220 0
0.387566 0.114410 0.048637 255 220 0
0.375089 0.186692 0.050123 255 220 0
0.399448 0.152429 0.096751 255 220 0
0.413905 0.213777 0.045997 255 220 0
0.358685 0.110373 0.053936 255 220 0
0.390895 0.120194 0.068636 255 220 0
0.469881 0.203315 0.082283 255 220 0
0.362332 0.120928 0.070468 255 220 0
0.411014 0.214639 0.051639 255 220 0
0.408824 0.125127 0.039952 255 220 0
0.475896 0.201084 0.062638 255 220 0
0.389345 0.162179 0.098463 255 220 0
0.338728 0.125837 0.003264 255 220 0
0.427484 0.150907 0.091348 255 220 0
0.432416 0.218679 0.042210 255 220 0
0.434115 0.142993 0.033340 255 220 0
0.425358 0.148957 0.090769 255 220 0
0.395600 0.122398 0.028517 255 220 0
0.427854 0.134876 0.043270 255 220 0
0.394474 0.156484 0.097944 255 220 0
0.355658 0.107308 0.044584 255 220 0
0.365725 0.140913 0.007211 255 220 0
0.443797 0.170998 0.018826 255 220 0
0.465470 0.210320 0.084173 255 220 0
0.415898 0.154798 0.011062 255 220 0
0.436140 0.141333 0.040398 255 220 0
0.405688 0.131117 0.079854 255 220 0
0.354779 0.132323 0.076370 255 220 0
0.451503 0.151473 0.064997 255 220 0
0.332856 0.122042 0.052178 255 220 0
0.463659 0.188429 0.033167 255 220 0
0.353936 0.165189 0.048267 255 220 0
0.449701 0.225754 0.059511 255 220 0
0.377151 0.170849 0.023137 255 220 0
0.337049 0.140377 0.020048 255 220 0
0.450760 0.153710 0.041035 255 220 0
0.358956 0.134837 0.005127 255 220 0
0.342964 0.106155 0.020438 255 220 0
0.379759 0.120485 0.017901 255 220 0
0.335099 0.139689 0.022648 255 220 0
0.464695 0.175285 0.077387 255 220 0
0.417138 0.166178 0.010001 255 220 0
0.473185 0.202876 0.077354 255 220 0
0.330948 0.136948 0.034611 255 220 0
0.380229 0.192031 0.071270 255 220 0
0.387671 0.152143 0.095696 255 220 0
0.423819 0.222728 0.073182 255 220 0
0.402067 0.210204 0.055677 255 220 0
0.365972 0.169090 0.084800 255 220 0
0.457541 0.216330 0.043501 255 220 0
0.373684 0.166871 0.092960 255 220 0
0.438635 0.155935 0.089125 255 220 0
0.420296 0.214800 0.041904 255 220 0
0.371793 0.179848 0.080400 255 220 0
0.363789 0.167654 0.083079 255 220 0
0.429753 0.134348 0.051143 255 220 0
0.340994 0.147627 0.033174 255 220 0
0.472959 0.185068 0.058135 255 220 0
0.353586 0.145151 0.080063 255 220 0
0.358605 0.170318 0.067526 255 220 0
0.404767 0.197498 0.030221 255 220 0
0.449347 0.197614 0.095897 255 220 0
0.443634 0.180575 0.097008 255 220 0
0.414758 0.130178 0.073621 255 220 0
0.432169 0.203432 0.025309 255 220 0
0.389975 0.138937 0.089134 255 220 0
0.433252 0.150649 0.088092 255 220 0
0.397445 0.179334 0.018287 255 220 0
0.457320 0.161711 0.041868 255 220 0
0.402107 0.197300 0.031960 255 220 0
0.412311 0.216793 0.055302 255 220 0
0.434898 0.222730 0.081431 255 220 0
0.438968 0.163442 0.018447 255 220 0
0.432490 0.208517 0.029724 255 220 0
0.369718 0.165631 0.023438 255 220 0
0.380925 0.124341 0.076924 255 220 0
0.469022 0.189142 0.080498 255 220 0
0.344492 0.106435 0.036729 255 220 0
0.351266 0.155315 0.028845 255 220 0
0.409096 0.179888 0.014516 255 220 0
0.399239 0.118967 0.048596 255 220 0
0.426033 0.183335 0.014314 255 220 0
0.400307 0.120699 0.061972 255 220 0
0.370766 0.184112 0.055368 255 220 0
0.371271 0.179016 0.080838 255 220 0
0.396129 0.205068 0.053085 255 220 0
0.347085 0.157658 0.056102 255 220 0
0.418577 0.130903 0.071682 255 220 0
0.472274 0.201492 0.048770 255 220 0
0.419635 0.131627 0.072260 255 220 0
0.466331 0.220139 0.062186 255 220 0
0.363707 0.160524 0.087342 255 220 0
0.473933 0.196498 0.075003 255 220 0
0.388244 0.118605 0.066423 255 220 0
0.339818 0.132974 0.006158 255 220 0
0.359921 0.171629 0.049080 255 220 0
0.452435 0.209322 0.092081 255 220 0
0.354260 0.108788 0.016764 255 220 0
0.409407 0.147078 0.093466 255 220 0
0.466190 0.172776 0.069494 255 220 0
0.458738 0.171792 0.083839 255 220 0
0.358053 0.169890 0.049580 255 220 0
0.472425 0.212594 0.061202 255 220 0
0.346755 0.114639 0.057272 255 220 0
0.400655 0.210027 0.060256 255 220 0
0.341944 0.149107 0.056398 255 220 0
0.457992 0.206936 0.090603 255 220 0
0.369738 0.171876 0.030970 255 220 0
0.462814 0.180553 0.084357 255 220 0
0.340688 0.140686 0.015171 255 220 0
0.409503 0.191735 0.098812 255 220 0
0.460293 0.203395 0.090254 255 220 0
0.397826 0.182839 0.020828 255 220 0
0.418944 0.214073 0.041749 255 220 0
0.347958 0.147698 0.072369 255 220 0
0.363152 0.107948 0.045246 255 220 0
0.451715 0.217899 0.086524 255 220 0
0.359234 0.158628 0.024106 255 220 0
0.339404 0.110214 0.043652 255 220 0
0.439432 0.149614 0.082426 255 220 0
0.436435 0.205742 0.095852 255 220 0
0.388035 0.181208 0.025349 255 220 0
0.377825 0.183173 0.037947 255 220 0
0.390936 0.119038 0.030581 255 220 0
0.390171 0.180286 0.023078 255 220 0
0.433915 0.147255 0.026350 255 220 0
0.409778 0.167420 0.101367 255 220 0
0.403244 0.161885 0.100064 255 220 0
0.395702 0.191746 0.093465 255 220 0
0.442323 0.153265 0.083993 255 220 0
0.419326 0.133825 0.076954 255 220 0
0.397885 0.154759 0.097610 255 220 0
0.393279 0.193903 0.035684 255 220 0
0.343509 0.122854 0.002195 255 220 0
0.367591 0.174808 0.080702 255 220 0
0.343441 0.144223 0.066016 255 220 0
0.457229 0.170268 0.032266 255 220 0
0.468046 0.216774 0.056568 255 220 0
0.418671 0.219639 0.053395 255 220 0
0.473505 0.197023 0.050423 255 220 0
0.424771 0.131881 0.064637 255 220 0
0.416354 0.218497 0.075664 255 220 0
0.414723 0.138072 0.084828 255 220 0
0.422925 0.147342 0.017665 255 220 0
0.356623 0.169405 0.053921 255 220 0
0.426623 0.146919 0.020369 255 220 0
0.405911 0.183979 0.100430 255 220 0
0.389123 0.134708 0.086152 255 220 0
0.387688 0.191482 0.087419 255 220 0
0.343791 0.123593 0.002165 255 220 0
0.457448 0.157441 0.060788 255 220 0
0.374364 0.187568 0.065701 255 220 0
0.449399 0.184628 0.020884 255 220 0
0.406934 0.134461 0.083363 255 220 0
0.471701 0.194218 0.045251 255 220 0
0.362763 0.107384 0.029933 255 220 0
0.390595 0.166652 0.013078 255 220 0
0.396295 0.130636 0.017929 255 220 0
0.458164 0.215128 0.086014 255 220 0
0.391398 0.117090 0.037526 255 220 0
0.370618 0.132693 0.007318 255 220 0
0.401586 0.154506 0.097673 255 220 0
0.395841 0.206169 0.068014 255 220 0
0.392588 0.138273 0.088703 255 220 0
0.334467 0.139075 0.047239 255 220 0
0.428133 0.149180 0.019525 255 220 0
0.358479 0.106755 0.026963 255 220 0
0.386854 0.140169 0.009689 255 220 0
0.443929 0.187660 0.018874 255 220 0
0.359776 0.156102 0.084908 255 220 0
0.472349 0.185296 0.053142 255 220 0
0.418798 0.219517 0.052864 255 220 0
0.437170 0.224017 0.051129 255 220 0
0.362421 0.108943 0.049643 255 220 0
0.385646 0.114045 0.040616 255 220 0
0.405048 0.199621 0.092712 255 220 0
0.326615 0.116738 0.020060 255 220 0
0.371409 0.179860 0.042433 255 220 0
0.325399 0.120272 0.028573 255 220 0
0.337123 0.136387 0.057877 255 220 0
0.438106 0.220085 0.085959 255 220 0
0.396187 0.117714 0.048116 255 220 0
0.365683 0.122970 0.008322 255 220 0
0.389354 0.115424 0.041564 255 220 0
0.409560 0.147514 0.012026 255 220 0
0.362210 0.149146 0.087198 255 220 0
0.433580 0.225954 0.070767 255 220 0
0.352278 0.160458 0.039292 255 220 0
0.405637 0.213361 0.058791 255 220 0
0.349877 0.158213 0.066126 255 220 0
0.368494 0.115199 0.016495 255 220 0
0.376639 0.174749 0.027544 255 220 0
0.330848 0.118470 0.046660 255 220 0
0.396377 0.164599 0.099830 255 220 0
0.375087 0.186767 0.050326 255 220 0
0.364380 0.128143 0.006181 255 220 0
0.443568 0.226920 0.067887 255 220 0
0.428908 0.175625 0.100545 255 220 0
0.431505 0.224398 0.075865 255 220 0
0.420517 0.220714 0.075452 255 220 0
0.437936 0.150283 0.084422 255 220 0
0.449396 0.195141 0.096028 255 220 0
0.470845 0.203449 0.081022 255 220 0
0.398153 0.208259 0.062836 255 220 0
0.452587 0.224249 0.055453 255 220 0
0.451282 0.226115 0.066208 255 220 0
0.376306 0.119448 0.016770 255 220 0
0.389930 0.189823 0.033515 255 220 0
0.394638 0.119594 0.034231 255 220 0
0.381075 0.185189 0.087000 255 220 0
0.373144 0.109675 0.042565 255 220 0
0.402200 0.132747 0.019280 255 220 0
0.472371 0.194562 0.046933 255 220 0
0.435403 0.160277 0.093731 255 220 0
0.449864 0.150793 0.068960 255 220 0
0.350197 0.138234 0.075956 255 220 0
0.408866 0.123652 0.046630 255 220 0
0.372974 0.180564 0.081415 255 220 0
0.333702 0.116851 0.049579 255 220 0
0.363908 0.118678 0.068486 255 220 0
0.393343 0.194729 0.089440 255 220 0
0.390425 0.201738 0.068015 255 220 0
0.411080 0.134932 0.082600 255 220 0
0.398188 0.118856 0.056406 255 220 0
0.346365 0.109626 0.047903 255 220 0
0.352471 0.133822 0.075912 255 220 0
0.469607 0.205704 0.046162 255 220 0
0.338389 0.134695 0.008310 255 220 0
0.362067 0.174976 0.065561 255 220 0
0.336521 0.112124 0.044960 255 220 0
0.335993 0.132658 0.007741 255 220 0
0.410472 0.127969 0.072321 255 220 0
0.469272 0.214243 0.076115 255 220 0
0.402229 0.121752 0.039882 255 220 0
0.373747 0.176962 0.087198 255 220 0
0.456306 0.182148 0.026164 255 220 0
0.437560 0.181460 0.015566 255 220 0
0.346383 0.105296 0.029590 255 220 0
0.413447 0.140402 0.087517 255 220 0
0.421131 0.145399 0.018105 255 220 0
0.457363 0.193026 0.092214 255 220 0
0.340797 0.147810 0.034620 255 220 0
0.377858 0.188659 0.074803 255 220 0
0.420639 0.192727 0.019431 255 220 0
0.342485 0.139272 0.011401 255 220 0
0.435593 0.139704 0.069655 255 220 0
0.403388 0.120787 0.048735 255 220 0
0.460096 0.190255 0.029482 255 220 0
0.472290 0.200777 0.079121 255 220 0
0.404624 0.147956 0.010682 255 220 0
0.406728 0.210706 0.080062 255 220 0
0.361183 0.138890 0.006420 255 220 0
0.405687 0.132889 0.081994 255 220 0
0.370664 0.144605 0.089401 255 220 0
0.374423 0.110105 0.044190 255 220 0
0.425539 0.183151 0.014234 255 220 0
0.473791 0.187503 0.058747 255 220 0
0.384690 0.165529 0.097597 255 220 0
0.428138 0.146403 0.087245 255 220 0
0.364430 0.169440 0.034460 255 220 0
0.380163 0.192755 0.055372 255 220 0
0.353547 0.111685 0.011209 255 220 0
0.411732 0.152773 0.096493 255 220 0
0.392344 0.203681 0.062017 255 220 0
0.448273 0.184185 0.095711 255 220 0
0.420649 0.221395 0.073004 255 220 0
0.417283 0.132758 0.076577 255 220 0
0.389620 0.148102 0.094187 255 220 0
0.421185 0.134216 0.076181 255 220 0
0.451430 0.151556 0.048065 255 220 0
0.400726 0.126306 0.026494 255 220 0
0.453072 0.175971 0.024320 255 220 0
0.441943 0.226344 0.072634 255 220 0
0.402796 0.180432 0.100382 255 220 0
0.376975 0.154215 0.011247 255 220 0
0.367102 0.127599 0.077689 255 220 0
0.475816 0.200755 0.061764 255 220 0
0.466606 0.171001 0.057770 255 220 0
0.389137 0.179962 0.023442 255 220 0
0.403227 0.203988 0.040379 255 220 0
0.395632 0.183288 0.097314 255 220 0
0.382482 0.141263 0.089977 255 220 0
0.446128 0.199091 0.024242 255 220 0
0.414659 0.126088 0.049827 255 220 0
0.378475 0.186146 0.042538 255 220 0
0.402189 0.208161 0.050214 255 220 0
0.434090 0.225494 0.073646 255 220 0
0.449763 0.155094 0.078185 255 220 0
0.325796 0.127336 0.028028 255 220 0
0.349994 0.161634 0.052444 255 220 0
0.460076 0.175830 0.032743 255 220 0
0.409564 0.173992 0.011762 255 220 0
0.450402 0.155930 0.036695 255 220 0
0.456115 0.160894 0.040394 255 220 0
0.408923 0.156537 0.098420 255 220 0
0.466371 0.176941 0.043797 255 220 0
0.381222 0.192920 0.071476 255 220 0
0.334671 0.127428 0.056009 255 220 0
0.431593 0.220274 0.045081 255 220 0
0.386210 0.149461 0.094446 255 220 0
0.445532 0.148219 0.072966 255 220 0
0.456818 0.174115 0.029194 255 220 0
0.378984 0.115066 0.062143 255 220 0
0.435766 0.184470 0.099717 255 220 0
0.430563 0.225343 0.059076 255 220 0
0.438427 0.148450 0.081937 255 220 0
0.404822 0.193021 0.096938 255 220 0
0.430259 0.217841 0.041553 255 220 0
0.337357 0.139090 0.015941 255 220 0
0.337616 0.108262 0.035886 255 220 0
0.398055 0.193129 0.093915 255 220 0
0.383964 0.156767 0.010630 255 220 0
0.389650 0.145209 0.092765 255 220 0
0.356731 0.169827 0.057161 255 220 0
0.399470 0.126119 0.075290 255 220 0
0.474317 0.192163 0.054757 255 220 0
0.358359 0.167621 0.072698 255 220 0
0.439488 0.142909 0.071311 255 220 0
0.454926 0.172932 0.027480 255 220 0
0.359926 0.152666 0.016463 255 220 0
0.422304 0.141962 0.085829 255 220 0
0.471419 0.183480 0.070150 255 220 0
0.415270 0.175645 0.102076 255 220 0
0.363155 0.120479 0.008468 255 220 0
0.373006 0.148418 0.091606 255 220 0
0.392535 0.203149 0.055773 255 220 0
0.366893 0.151067 0.090075 255 220 0
0.445038 0.156609 0.028173 255 220 0
0.469756 0.198164 0.041970 255 220 0
0.357271 0.134089 0.004780 255 220 0
0.330826 0.121301 0.007931 255 220 0
0.356288 0.164921 0.072220 255 220 0
0.431218 0.224347 0.075817 255 220 0
0.367409 0.148683 0.089762 255 220 0
0.364320 0.159143 0.088281 255 220 0
0.407777 0.182382 0.101093 255 220 0
0.412976 0.152991 0.010812 255 220 0
0.373013 0.126935 0.078550 255 220 0
0.396850 0.193860 0.032188 255 220 0
0.364748 0.136624 0.006174 255 220 0
0.470280 0.181837 0.049384 255 220 0
0.364831 0.175521 0.046537 255 220 0
0.374747 0.160992 0.094392 255 220 0
0.434938 0.226412 0.061356 255 220 0
0.374580 0.180566 0.038269 255 220 0
0.427716 0.223311 0.076177 255 220 0
0.451014 0.191785 0.023306 255 220 0
0.465282 0.207701 0.041446 255 220 0
0.355154 0.143032 0.009404 255 220 0
0.412162 0.138017 0.019696 255 220 0
0.345506 0.155932 0.050266 255 220 0
0.347224 0.107016 0.041013 255 220 0
0.336383 0.131239 0.058516 255 220 0
0.412364 0.217965 0.065810 255 220 0
0.424620 0.131326 0.061831 255 220 0
0.437520 0.139161 0.060357 255 220 0
0.343162 0.152733 0.050729 255 220 0
0.373774 0.127497 0.079168 255 220 0
0.466090 0.172439 0.049712 255 220 0
0.400017 0.122968 0.032537 255 220 0
0.369451 0.178274 0.042901 255 220 0
