ply
format ascii 1.0
element vertex 1024
property float x
property float y
property float z
property uchar red
property uchar green
property uchar blue
end_header
0.425348 0.138573 0.027984 255 220 0
0.365679 0.108365 0.044482 255 220 0
0.449886 0.148094 0.060202 255 220 0
0.417819 0.188535 0.019417 255 220 0
0.369827 0.145415 0.088627 255 220 0
0.350971 0.140764 0.008724 255 220 0
0.371403 0.179556 0.082825 255 220 0
0.366395 0.113099 0.016012 255 220 0
0.448559 0.176823 0.095187 255 220 0
0.430582 0.151008 0.090700 255 220 0
0.450957 0.149018 0.059535 255 220 0
0.393185 0.119277 0.064286 255 220 0
0.430570 0.161691 0.014670 255 220 0
0.363655 0.115706 0.010695 255 220 0
0.452798 0.175248 0.092360 255 220 0
0.354734 0.144422 0.080741 255 220 0
0.372983 0.121460 0.072607 255 220 0
0.358357 0.172797 0.058751 255 220 0
0.435360 0.218550 0.044264 255 220 0
0.446339 0.187984 0.021483 255 220 0
0.416448 0.218295 0.075009 255 220 0
0.342124 0.150381 0.057234 255 220 0
0.357953 0.172097 0.062038 255 220 0
0.339521 0.127980 0.062470 255 220 0
0.401965 0.154624 0.009266 255 220 0
0.468276 0.174856 0.070240 255 220 0
0.465118 0.173845 0.042450 255 220 0
0.437416 0.195814 0.022605 255 220 0
0.370163 0.181418 0.076505 255 220 0
0.395655 0.186561 0.026880 255 220 0
0.445953 0.171753 0.094941 255 220 0
0.459120 0.166016 0.038244 255 220 0
0.426227 0.143358 0.086038 255 220 0
0.383012 0.183613 0.090948 255 220 0
0.423671 0.174094 0.012924 255 220 0
0.365311 0.177404 0.048082 255 220 0
0.421575 0.218579 0.050592 255 220 0
0.408397 0.199011 0.031577 255 220 0
0.444621 0.151593 0.081493 255 220 0
0.367389 0.126152 0.006476 255 220 0
0.429374 0.144327 0.024042 255 220 0
0.395823 0.120557 0.031406 255 220 0
0.368240 0.176477 0.082012 255 220 0
0.382940 0.141222 0.008527 255 220 0
0.386355 0.148190 0.008885 255 220 0
0.396464 0.202809 0.082273 255 220 0
0.361166 0.161428 0.026090 255 220 0
0.388319 0.191323 0.089030 255 220 0
0.462817 0.174459 0.081833 255 220 0
0.467260 0.215655 0.077129 255 220 0
0.327754 0.131835 0.029575 255 220 0
0.474444 0.195544 0.053792 255 220 0
0.461210 0.163005 0.048793 255 220 0
0.403792 0.121035 0.046370 255 220 0
0.462941 0.163559 0.056387 255 220 0
0.469939 0.209389 0.052656 255 220 0
0.367840 0.180842 0.050862 255 220 0
0.364330 0.175735 0.046378 255 220 0
0.354429 0.139409 0.006662 255 220 0
0.422164 0.156655 0.012594 255 220 0
0.327174 0.130806 0.026784 255 220 0
0.338528 0.136675 0.010311 255 220 0
0.436517 0.225732 0.067834 255 220 0
0.396900 0.193960 0.033976 255 220 0
0.453862 0.152277 0.051637 255 220 0
0.448241 0.147297 0.064681 255 220 0
0.353723 0.160835 0.035729 255 220 0
0.361561 0.174991 0.067849 255 220 0
0.455458 0.178846 0.091758 255 220 0
0.408246 0.131266 0.023866 255 220 0
0.381223 0.112150 0.044832 255 220 0
0.420862 0.135816 0.079788 255 220 0
0.367534 0.175096 0.039685 255 220 0
0.468187 0.187380 0.039698 255 220 0
0.468845 0.197652 0.041549 255 220 0
0.385067 0.142763 0.090674 255 220 0
0.380760 0.158710 0.095758 255 220 0
0.364894 0.128729 0.077133 255 220 0
0.407056 0.142380 0.013465 255 220 0
0.338925 0.145455 0.030978 255 220 0
0.377835 0.114090 0.025109 255 220 0
0.387264 0.198802 0.071953 255 220 0
0.437149 0.140972 0.040831 255 220 0
0.446964 0.223923 0.056111 255 220 0
0.356799 0.150630 0.016391 255 220 0
0.418988 0.139690 0.085585 255 220 0
0.376676 0.177903 0.032067 255 220 0
0.331465 0.125943 0.049876 255 220 0
0.357129 0.166173 0.075269 255 220 0
0.452062 0.184987 0.023682 255 220 0
0.475965 0.194553 0.064828 255 220 0
0.342068 0.126094 0.063805 255 220 0
0.447235 0.183486 0.097075 255 220 0
0.362037 0.112214 0.056965 255 220 0
0.369267 0.181771 0.072829 255 220 0
0.445772 0.163350 0.091218 255 220 0
0.403277 0.196173 0.094819 255 220 0
0.421091 0.161537 0.011452 255 220 0
0.435935 0.172066 0.098860 255 220 0
0.354234 0.130191 0.002556 255 220 0
0.392276 0.191122 0.092162 255 220 0
0.361275 0.106555 0.035407 255 220 0
0.412097 0.151416 0.011036 255 220 0
0.365491 0.172695 0.082447 255 220 0
0.427484 0.213334 0.038823 255 220 0
0.423246 0.131750 0.042233 255 220 0
0.466325 0.171733 0.049201 255 220 0
0.391953 0.198817 0.083516 255 220 0
0.426348 0.206108 0.031073 255 220 0
0.362118 0.109327 0.049642 255 220 0
0.358373 0.170352 0.070402 255 220 0
0.389846 0.153147 0.009371 255 220 0
0.425093 0.130856 0.056355 255 220 0
0.354669 0.151759 0.081186 255 220 0
0.451840 0.167266 0.089204 255 220 0
0.379942 0.114473 0.058984 255 220 0
0.458666 0.164124 0.076691 255 220 0
0.394938 0.180897 0.022336 255 220 0
0.384741 0.114373 0.034790 255 220 0
0.418424 0.182438 0.015962 255 220 0
0.366192 0.174772 0.080857 255 220 0
0.426743 0.168049 0.012671 255 220 0
0.337322 0.114656 0.004926 255 220 0
0.442514 0.157095 0.088790 255 220 0
0.347331 0.142089 0.011990 255 220 0
0.386207 0.189699 0.038690 255 220 0
0.334956 0.107780 0.021590 255 220 0
0.447524 0.165570 0.091414 255 220 0
0.465483 0.172008 0.073544 255 220 0
0.468729 0.215267 0.074701 255 220 0
0.383444 0.160582 0.096720 255 220 0
0.420237 0.216524 0.047632 255 220 0
0.471109 0.182528 0.049003 255 220 0
0.439139 0.158725 0.091974 255 220 0
0.446584 0.145100 0.057725 255 220 0
0.389005 0.200772 0.067606 255 220 0
0.373578 0.161224 0.017551 255 220 0
0.341978 0.149592 0.058277 255 220 0
0.420356 0.128350 0.054774 255 220 0
0.454232 0.176234 0.091756 255 220 0
0.432221 0.175766 0.100514 255 220 0
0.409285 0.211259 0.081962 255 220 0
0.402245 0.176381 0.101101 255 220 0
0.437806 0.194042 0.099543 255 220 0
0.354605 0.164467 0.041859 255 220 0
0.337030 0.106890 0.020937 255 220 0
0.374862 0.126196 0.009571 255 220 0
0.353983 0.151732 0.080457 255 220 0
0.474508 0.207758 0.069394 255 220 0
0.412049 0.124359 0.053371 255 220 0
0.362406 0.167437 0.083186 255 220 0
0.463877 0.205695 0.040472 255 220 0
0.367144 0.175313 0.081774 255 220 0
0.456550 0.180615 0.091523 255 220 0
0.409357 0.214710 0.072929 255 220 0
0.453252 0.189545 0.025382 255 220 0
0.374273 0.128434 0.079533 255 220 0
0.386279 0.113873 0.044594 255 220 0
0.398082 0.151280 0.009195 255 220 0
0.460292 0.172112 0.034623 255 220 0
0.405494 0.125842 0.030934 255 220 0
0.455137 0.209880 0.091344 255 220 0
0.344881 0.156264 0.049701 255 220 0
0.352402 0.158166 0.032513 255 220 0
0.340691 0.109044 0.009979 255 220 0
0.415089 0.171442 0.102117 255 220 0
0.375341 0.163184 0.094360 255 220 0
0.404623 0.167778 0.101371 255 220 0
0.349970 0.147819 0.017895 255 220 0
0.428001 0.141504 0.082831 255 220 0
0.400995 0.201836 0.088442 255 220 0
0.375751 0.187864 0.073916 255 220 0
0.391835 0.138279 0.010928 255 220 0
0.455995 0.163786 0.081189 255 220 0
0.372373 0.184315 0.074659 255 220 0
0.443617 0.216532 0.089604 255 220 0
0.458412 0.159854 0.069507 255 220 0
0.339167 0.148285 0.042688 255 220 0
0.476098 0.195989 0.065545 255 220 0
0.455675 0.223280 0.074267 255 220 0
0.412286 0.210615 0.044557 255 220 0
0.364072 0.141869 0.084934 255 220 0
0.353911 0.116614 0.004526 255 220 0
0.392934 0.141803 0.010103 255 220 0
0.412687 0.124825 0.050389 255 220 0
0.444735 0.183228 0.097952 255 220 0
0.399382 0.121509 0.033898 255 220 0
0.329712 0.133783 0.037386 255 220 0
0.421616 0.133304 0.034287 255 220 0
0.346701 0.106700 0.015580 255 220 0
0.467808 0.179560 0.042967 255 220 0
0.357606 0.139327 0.006190 255 220 0
0.346991 0.133467 0.003981 255 220 0
0.386217 0.118126 0.025514 255 220 0
0.410459 0.144586 0.091945 255 220 0
0.358711 0.144677 0.009651 255 220 0
0.331341 0.110337 0.029217 255 220 0
0.410966 0.215113 0.075266 255 220 0
0.391596 0.186152 0.029127 255 220 0
0.392238 0.129607 0.015675 255 220 0
0.467653 0.210363 0.082559 255 220 0
0.398861 0.120082 0.038278 255 220 0
0.406916 0.137095 0.016963 255 220 0
0.363456 0.118217 0.066913 255 220 0
0.460633 0.165233 0.074180 255 220 0
0.380555 0.188605 0.083409 255 220 0
0.437304 0.163087 0.017605 255 220 0
0.370837 0.182529 0.048220 255 220 0
0.390266 0.115364 0.044631 255 220 0
0.345523 0.155764 0.042566 255 220 0
0.411136 0.152323 0.096648 255 220 0
0.465897 0.187047 0.085386 255 220 0
0.419862 0.189016 0.019324 255 220 0
0.408288 0.127288 0.031060 255 220 0
0.463934 0.169139 0.072798 255 220 0
0.368936 0.117840 0.012024 255 220 0
0.378595 0.113314 0.056119 255 220 0
0.458668 0.184058 0.090966 255 220 0
0.380490 0.116430 0.063895 255 220 0
0.402950 0.150537 0.096013 255 220 0
0.452274 0.153927 0.072550 255 220 0
0.429887 0.178351 0.014692 255 220 0
0.424199 0.179424 0.102027 255 220 0
0.447527 0.197582 0.025880 255 220 0
0.342296 0.113755 0.051466 255 220 0
0.341167 0.111666 0.046744 255 220 0
0.407130 0.144926 0.012204 255 220 0
0.373325 0.186324 0.052561 255 220 0
0.413259 0.204953 0.035456 255 220 0
0.374896 0.186451 0.049010 255 220 0
0.366232 0.146617 0.087837 255 220 0
0.410789 0.207904 0.041453 255 220 0
0.471321 0.182618 0.072717 255 220 0
0.366965 0.168465 0.087773 255 220 0
0.403651 0.191611 0.097530 255 220 0
0.473124 0.188431 0.074026 255 220 0
0.449650 0.199356 0.096429 255 220 0
0.389640 0.188156 0.032988 255 220 0
0.364234 0.177605 0.051305 255 220 0
0.420582 0.166714 0.011376 255 220 0
0.417546 0.131618 0.032728 255 220 0
0.446322 0.222068 0.051080 255 220 0
0.399288 0.125303 0.025279 255 220 0
0.387533 0.195329 0.046468 255 220 0
0.452304 0.166359 0.027603 255 220 0
0.393323 0.131202 0.015072 255 220 0
0.425386 0.134672 0.036738 255 220 0
0.460236 0.176918 0.086924 255 220 0
0.340209 0.147650 0.034103 255 220 0
0.421922 0.186385 0.017577 255 220 0
0.393269 0.184253 0.096239 255 220 0
0.434180 0.158412 0.094120 255 220 0
0.441807 0.167257 0.095204 255 220 0
0.460199 0.162357 0.069911 255 220 0
0.394684 0.181600 0.097756 255 220 0
0.468562 0.186993 0.082009 255 220 0
0.363812 0.166264 0.030165 255 220 0
0.330020 0.129051 0.010554 255 220 0
0.340067 0.140995 0.016926 255 220 0
0.368305 0.157428 0.091112 255 220 0
0.435194 0.137821 0.065854 255 220 0
0.355738 0.168137 0.048011 255 220 0
0.397247 0.150264 0.095626 255 220 0
0.348489 0.109745 0.009183 255 220 0
0.368818 0.127166 0.077173 255 220 0
0.329716 0.133339 0.038341 255 220 0
0.359818 0.124114 0.071641 255 220 0
0.339119 0.139489 0.061455 255 220 0
0.395394 0.205647 0.059932 255 220 0
0.426869 0.132588 0.064296 255 220 0
0.453745 0.176956 0.092325 255 220 0
0.416910 0.127808 0.044328 255 220 0
0.461212 0.206708 0.089676 255 220 0
0.444015 0.222788 0.052079 255 220 0
0.469686 0.214537 0.059685 255 220 0
0.400208 0.171005 0.100917 255 220 0
0.461388 0.221711 0.071671 255 220 0
0.397294 0.205830 0.075853 255 220 0
0.433189 0.153139 0.019609 255 220 0
0.351716 0.105508 0.034093 255 220 0
0.379879 0.111681 0.042161 255 220 0
0.426801 0.135226 0.037645 255 220 0
0.401291 0.120276 0.058463 255 220 0
0.424453 0.136096 0.031643 255 220 0
0.339718 0.116933 0.002666 255 220 0
0.434544 0.204986 0.028845 255 220 0
0.325926 0.120548 0.019688 255 220 0
0.445191 0.150421 0.034783 255 220 0
0.386021 0.186530 0.091022 255 220 0
0.405064 0.166046 0.101173 255 220 0
0.407475 0.192002 0.025359 255 220 0
0.430667 0.163071 0.097619 255 220 0
0.397789 0.155448 0.097823 255 220 0
0.400205 0.198409 0.036949 255 220 0
0.424165 0.220771 0.053538 255 220 0
0.447045 0.160725 0.025923 255 220 0
0.326377 0.116575 0.029443 255 220 0
0.407539 0.129523 0.077170 255 220 0
0.473112 0.209946 0.061992 255 220 0
0.452065 0.214048 0.040589 255 220 0
0.416669 0.135534 0.024476 255 220 0
0.471062 0.208274 0.079434 255 220 0
0.453846 0.174176 0.025517 255 220 0
0.411131 0.149527 0.011391 255 220 0
0.379776 0.137360 0.086823 255 220 0
0.358380 0.172329 0.053349 255 220 0
0.473927 0.189314 0.053183 255 220 0
0.469426 0.191773 0.041220 255 220 0
0.455001 0.160454 0.037123 255 220 0
0.432621 0.173464 0.014457 255 220 0
0.358003 0.126768 0.003038 255 220 0
0.469152 0.183373 0.078706 255 220 0
0.457615 0.211580 0.040829 255 220 0
0.411479 0.206541 0.038813 255 220 0
0.342636 0.142886 0.066600 255 220 0
0.333896 0.131204 0.007482 255 220 0
0.335258 0.137307 0.053652 255 220 0
0.443768 0.177133 0.018523 255 220 0
0.333073 0.136578 0.018241 255 220 0
0.373945 0.117401 0.015912 255 220 0
0.363051 0.166674 0.031802 255 220 0
0.329121 0.132619 0.036812 255 220 0
0.408826 0.215095 0.062358 255 220 0
0.386037 0.146646 0.092733 255 220 0
0.457500 0.219065 0.082265 255 220 0
0.400403 0.200697 0.089312 255 220 0
0.409453 0.125306 0.038673 255 220 0
0.356727 0.159835 0.080784 255 220 0
0.449868 0.158843 0.084146 255 220 0
0.468351 0.191231 0.084088 255 220 0
0.420255 0.159074 0.098556 255 220 0
0.375319 0.152317 0.011063 255 220 0
0.341987 0.112308 0.048715 255 220 0
0.416205 0.147842 0.093285 255 220 0
0.446738 0.161240 0.089144 255 220 0
0.443760 0.168183 0.094681 255 220 0
0.425234 0.131557 0.063508 255 220 0
0.360930 0.108313 0.021308 255 220 0
0.438584 0.144395 0.077474 255 220 0
0.354828 0.152209 0.019729 255 220 0
0.409948 0.210373 0.084066 255 220 0
0.450854 0.188837 0.096225 255 220 0
0.469808 0.192694 0.041871 255 220 0
0.405997 0.121868 0.048135 255 220 0
0.407153 0.131948 0.080694 255 220 0
0.351044 0.161562 0.066721 255 220 0
0.417953 0.162396 0.100084 255 220 0
0.458929 0.222267 0.074099 255 220 0
0.383196 0.150285 0.009311 255 220 0
0.445560 0.224837 0.075189 255 220 0
0.391952 0.200621 0.050450 255 220 0
0.371766 0.186016 0.058992 255 220 0
0.445728 0.215502 0.040446 255 220 0
0.463524 0.211546 0.085557 255 220 0
0.332732 0.139345 0.031904 255 220 0
0.355040 0.166377 0.045272 255 220 0
0.350550 0.110520 0.008891 255 220 0
0.333877 0.112627 0.009760 255 220 0
0.365709 0.180062 0.055922 255 220 0
0.340604 0.148091 0.055958 255 220 0
0.374122 0.165119 0.093675 255 220 0
0.472970 0.211201 0.068745 255 220 0
0.402442 0.155450 0.098166 255 220 0
0.388888 0.200779 0.062626 255 220 0
0.417114 0.195266 0.098931 255 220 0
0.380446 0.189978 0.080719 255 220 0
0.385426 0.197963 0.062267 255 220 0
0.374807 0.115456 0.063226 255 220 0
0.409293 0.138745 0.087424 255 220 0
0.344405 0.152687 0.036809 255 220 0
0.343875 0.124694 0.000955 255 220 0
0.438112 0.141125 0.042513 255 220 0
0.349948 0.155287 0.072694 255 220 0
0.447741 0.146266 0.060762 255 220 0
0.392527 0.157974 0.097953 255 220 0
0.326985 0.120698 0.014562 255 220 0
0.383884 0.165898 0.016310 255 220 0
0.411473 0.197562 0.096702 255 220 0
0.381523 0.112598 0.037407 255 220 0
0.360029 0.121078 0.005036 255 220 0
0.362223 0.109959 0.018253 255 220 0
0.421138 0.146405 0.016684 255 220 0
0.358742 0.115697 0.062295 255 220 0
0.445991 0.193657 0.023483 255 220 0
0.405245 0.122293 0.061359 255 220 0
0.450890 0.199044 0.096080 255 220 0
0.334673 0.108284 0.019310 255 220 0
0.400313 0.204216 0.046404 255 220 0
0.352339 0.112626 0.055351 255 220 0
0.449366 0.217286 0.043778 255 220 0
0.330456 0.110707 0.026746 255 220 0
0.350811 0.122575 0.066461 255 220 0
0.445644 0.144519 0.060802 255 220 0
0.333269 0.116880 0.006426 255 220 0
0.424019 0.196137 0.099312 255 220 0
0.348616 0.119697 0.062777 255 220 0
0.406332 0.174916 0.101868 255 220 0
0.359151 0.152335 0.016841 255 220 0
0.448772 0.213957 0.039333 255 220 0
0.455225 0.170252 0.088064 255 220 0
0.370711 0.183060 0.073352 255 220 0
0.417150 0.219093 0.073108 255 220 0
0.435837 0.162213 0.095465 255 220 0
0.470437 0.198841 0.044715 255 220 0
0.426312 0.151590 0.092998 255 220 0
0.425535 0.140715 0.024999 255 220 0
0.457748 0.211357 0.040679 255 220 0
0.332424 0.109204 0.025276 255 220 0
0.467598 0.215310 0.077097 255 220 0
0.387230 0.194067 0.044680 255 220 0
0.350680 0.127539 0.070090 255 220 0
0.396051 0.186484 0.026570 255 220 0
0.452102 0.222995 0.078146 255 220 0
0.403656 0.206066 0.045842 255 220 0
0.390177 0.156195 0.097060 255 220 0
0.367672 0.111431 0.054839 255 220 0
0.455127 0.170157 0.028586 255 220 0
0.415888 0.181044 0.102264 255 220 0
0.375533 0.135506 0.007465 255 220 0
0.416482 0.126444 0.056285 255 220 0
0.367507 0.181563 0.066178 255 220 0
0.375555 0.185961 0.046735 255 220 0
0.452625 0.222458 0.055079 255 220 0
0.325643 0.124274 0.025611 255 220 0
0.451832 0.153683 0.041549 255 220 0
0.392045 0.116061 0.044911 255 220 0
0.346437 0.150721 0.027477 255 220 0
0.404685 0.196305 0.030958 255 220 0
0.355840 0.168290 0.048155 255 220 0
0.369035 0.182549 0.068850 255 220 0
0.367616 0.130937 0.079661 255 220 0
0.378533 0.117724 0.067088 255 220 0
0.387864 0.198560 0.075547 255 220 0
0.357229 0.163320 0.034603 255 220 0
0.410806 0.159814 0.009819 255 220 0
0.404114 0.128238 0.024913 255 220 0
0.436998 0.213059 0.036803 255 220 0
0.417929 0.128054 0.045860 255 220 0
0.394919 0.118187 0.038384 255 220 0
0.417297 0.219828 0.067483 255 220 0
0.427513 0.132685 0.062770 255 220 0
0.403583 0.120640 0.050431 255 220 0
0.401224 0.185885 0.098935 255 220 0
0.420382 0.218799 0.079390 255 220 0
0.351826 0.161104 0.040067 255 220 0
0.473649 0.205527 0.057678 255 220 0
0.336336 0.141666 0.026027 255 220 0
0.469577 0.213649 0.075846 255 220 0
0.396242 0.134846 0.014053 255 220 0
0.439084 0.225946 0.065947 255 220 0
0.464523 0.167776 0.050742 255 220 0
0.425781 0.216285 0.086664 255 220 0
0.375222 0.110222 0.038998 255 220 0
0.448141 0.146809 0.051471 255 220 0
0.461752 0.207419 0.039908 255 220 0
0.338999 0.110553 0.008267 255 220 0
0.443538 0.145816 0.041072 255 220 0
0.380952 0.130444 0.010263 255 220 0
0.452280 0.170891 0.025208 255 220 0
0.446712 0.209122 0.033769 255 220 0
0.369480 0.183789 0.057321 255 220 0
0.392970 0.117821 0.035926 255 220 0
0.399578 0.123701 0.028618 255 220 0
0.432024 0.191378 0.100486 255 220 0
0.410027 0.209209 0.085782 255 220 0
0.368807 0.115693 0.064053 255 220 0
0.429818 0.206526 0.030732 255 220 0
0.431268 0.224920 0.064832 255 220 0
0.335363 0.118274 0.004127 255 220 0
0.420451 0.219065 0.078839 255 220 0
0.378169 0.160448 0.095261 255 220 0
0.437911 0.218885 0.087093 255 220 0
0.340698 0.147957 0.056603 255 220 0
0.447182 0.156162 0.084202 255 220 0
0.432706 0.137769 0.041341 255 220 0
0.351863 0.137245 0.076212 255 220 0
0.383835 0.173345 0.022015 255 220 0
0.468937 0.203986 0.084337 255 220 0
0.401726 0.119852 0.051922 255 220 0
0.439997 0.167727 0.017779 255 220 0
0.359143 0.106463 0.027132 255 220 0
0.446515 0.167497 0.021848 255 220 0
0.457798 0.200885 0.092977 255 220 0
0.442560 0.148231 0.034260 255 220 0
0.364327 0.161002 0.088300 255 220 0
0.403042 0.164242 0.010630 255 220 0
0.339374 0.141012 0.061047 255 220 0
0.373557 0.185803 0.050314 255 220 0
0.377015 0.183854 0.085129 255 220 0
0.454710 0.191448 0.094639 255 220 0
0.349008 0.114412 0.056625 255 220 0
0.381410 0.170373 0.095877 255 220 0
0.442976 0.212979 0.037005 255 220 0
0.423955 0.156091 0.013433 255 220 0
0.403606 0.140575 0.089722 255 220 0
0.374453 0.187012 0.072395 255 220 0
0.374428 0.180856 0.039331 255 220 0
0.461329 0.162237 0.065967 255 220 0
0.446999 0.177809 0.096144 255 220 0
0.371951 0.164079 0.020882 255 220 0
0.406136 0.178894 0.101595 255 220 0
0.403408 0.121578 0.041610 255 220 0
0.358286 0.106831 0.023847 255 220 0
0.434112 0.224781 0.073504 255 220 0
0.393025 0.116483 0.044588 255 220 0
0.366620 0.116581 0.065295 255 220 0
0.385379 0.133222 0.010775 255 220 0
0.412549 0.181567 0.102055 255 220 0
0.391718 0.158382 0.010384 255 220 0
0.385774 0.197852 0.057298 255 220 0
0.433497 0.184500 0.017053 255 220 0
0.433824 0.155449 0.018720 255 220 0
0.462558 0.179106 0.085489 255 220 0
0.391784 0.129404 0.081246 255 220 0
0.452023 0.150794 0.049705 255 220 0
0.462529 0.197334 0.034347 255 220 0
0.415010 0.214596 0.081974 255 220 0
0.337537 0.142742 0.054038 255 220 0
0.462229 0.162290 0.058150 255 220 0
0.417689 0.176598 0.013525 255 220 0
0.341030 0.115268 0.052807 255 220 0
0.367604 0.108446 0.042919 255 220 0
0.367493 0.177564 0.078750 255 220 0
0.415241 0.215053 0.081403 255 220 0
0.416874 0.171820 0.102084 255 220 0
0.455910 0.158526 0.073142 255 220 0
0.468684 0.175952 0.070880 255 220 0
0.403793 0.211615 0.070097 255 220 0
0.373886 0.110798 0.049475 255 220 0
0.437374 0.150615 0.086339 255 220 0
0.428238 0.149992 0.018385 255 220 0
0.339217 0.134970 0.007661 255 220 0
0.458300 0.220931 0.055665 255 220 0
0.444952 0.221262 0.083826 255 220 0
0.351466 0.121015 0.001856 255 220 0
0.437160 0.225698 0.063447 255 220 0
0.470484 0.177431 0.065653 255 220 0
0.426939 0.136272 0.075343 255 220 0
0.428524 0.199871 0.098272 255 220 0
0.359883 0.106363 0.035944 255 220 0
0.416232 0.129712 0.035957 255 220 0
0.332989 0.116689 0.046742 255 220 0
0.354900 0.105753 0.026081 255 220 0
0.431373 0.184451 0.016773 255 220 0
0.367013 0.126161 0.006321 255 220 0
0.358791 0.158261 0.024137 255 220 0
0.415309 0.128933 0.036794 255 220 0
0.409610 0.145068 0.012843 255 220 0
0.432655 0.218416 0.086642 255 220 0
0.363168 0.156608 0.018926 255 220 0
0.441792 0.222522 0.081889 255 220 0
0.349639 0.148114 0.075841 255 220 0
0.387239 0.179894 0.025803 255 220 0
0.444490 0.221171 0.048834 255 220 0
0.431186 0.138603 0.036017 255 220 0
0.458664 0.222993 0.069705 255 220 0
0.367498 0.181172 0.053008 255 220 0
0.342494 0.141015 0.014152 255 220 0
0.349051 0.105399 0.032782 255 220 0
0.381967 0.194688 0.057057 255 220 0
0.334381 0.135085 0.012053 255 220 0
0.410030 0.123912 0.059974 255 220 0
0.378620 0.192183 0.062227 255 220 0
0.361945 0.176563 0.060625 255 220 0
0.421367 0.211937 0.039662 255 220 0
0.340912 0.147946 0.032887 255 220 0
0.347943 0.110092 0.008436 255 220 0
0.434249 0.139672 0.038709 255 220 0
0.346914 0.153998 0.066919 255 220 0
0.380904 0.148693 0.092752 255 220 0
0.348213 0.145339 0.015835 255 220 0
0.443028 0.220238 0.046937 255 220 0
0.410269 0.186783 0.020294 255 220 0
0.401139 0.195985 0.033063 255 220 0
0.461118 0.199533 0.091262 255 220 0
0.335180 0.110922 0.038423 255 220 0
0.456809 0.194020 0.093743 255 220 0
0.450929 0.148932 0.054333 255 220 0
0.403207 0.189554 0.025338 255 220 0
0.382894 0.190054 0.043406 255 220 0
0.440306 0.176206 0.017083 255 220 0
0.400549 0.170666 0.100975 255 220 0
0.456098 0.199935 0.030939 255 220 0
0.384130 0.196890 0.064241 255 220 0
0.427653 0.205561 0.030244 255 220 0
0.359972 0.164447 0.032330 255 220 0
0.473824 0.186508 0.056017 255 220 0
0.336229 0.112706 0.043844 255 220 0
0.438206 0.195964 0.099196 255 220 0
0.358630 0.106713 0.040064 255 220 0
0.402298 0.122325 0.036209 255 220 0
0.348568 0.128264 0.069394 255 220 0
0.401194 0.131076 0.019324 255 220 0
0.382981 0.131544 0.010569 255 220 0
0.474587 0.201352 0.075758 255 220 0
0.453752 0.178188 0.024662 255 220 0
0.424022 0.221319 0.076740 255 220 0
0.443650 0.149605 0.033688 255 220 0
0.403009 0.174884 0.101361 255 220 0
0.369361 0.126266 0.007231 255 220 0
0.371582 0.185727 0.064392 255 220 0
0.430785 0.199929 0.098405 255 220 0
0.475794 0.202869 0.068826 255 220 0
0.473206 0.203716 0.054486 255 220 0
0.459153 0.160186 0.068063 255 220 0
0.424699 0.142914 0.021757 255 220 0
0.384796 0.118936 0.067859 255 220 0
0.394830 0.200686 0.084094 255 220 0
0.340482 0.133846 0.005988 255 220 0
0.415255 0.156106 0.098039 255 220 0
0.413860 0.202262 0.032021 255 220 0
0.416411 0.126520 0.051728 255 220 0
0.402810 0.173039 0.014143 255 220 0
0.442925 0.224883 0.075548 255 220 0
0.375314 0.163385 0.018429 255 220 0
0.426997 0.182555 0.101738 255 220 0
0.378588 0.178870 0.031424 255 220 0
0.433045 0.206296 0.095840 255 220 0
0.332050 0.132729 0.048281 255 220 0
0.332011 0.132804 0.011790 255 220 0
0.379901 0.135784 0.085858 255 220 0
0.430428 0.186172 0.017364 255 220 0
0.380271 0.124620 0.013099 255 220 0
0.416117 0.134481 0.025557 255 220 0
0.428131 0.218195 0.085385 255 220 0
0.362818 0.131928 0.004402 255 220 0
0.385032 0.188109 0.037553 255 220 0
0.413993 0.133997 0.080894 255 220 0
0.348364 0.155690 0.068616 255 220 0
0.424213 0.183901 0.016250 255 220 0
0.362412 0.132891 0.079132 255 220 0
0.388558 0.160105 0.011595 255 220 0
0.461346 0.183625 0.031499 255 220 0
0.375918 0.187794 0.074704 255 220 0
0.462198 0.167552 0.043394 255 220 0
0.474943 0.191352 0.070337 255 220 0
0.396866 0.206973 0.065987 255 220 0
0.346823 0.150217 0.025796 255 220 0
0.433935 0.207576 0.031213 255 220 0
0.356500 0.165678 0.074580 255 220 0
0.462820 0.220410 0.060331 255 220 0
0.411948 0.126936 0.068868 255 220 0
0.469638 0.192205 0.082792 255 220 0
0.354524 0.168421 0.055171 255 220 0
0.388358 0.180383 0.025559 255 220 0
0.371367 0.110733 0.026406 255 220 0
0.433525 0.135839 0.055290 255 220 0
0.393088 0.172804 0.017155 255 220 0
0.368858 0.178469 0.043632 255 220 0
0.374498 0.169733 0.024573 255 220 0
0.432342 0.217381 0.087718 255 220 0
0.425777 0.173675 0.101422 255 220 0
0.412786 0.178096 0.102334 255 220 0
0.405807 0.125245 0.032870 255 220 0
0.346349 0.153782 0.065642 255 220 0
0.328543 0.128550 0.039864 255 220 0
0.444546 0.225776 0.064586 255 220 0
0.395862 0.183253 0.023799 255 220 0
0.427476 0.222498 0.055564 255 220 0
0.332236 0.138074 0.039680 255 220 0
0.397370 0.204286 0.050160 255 220 0
0.363702 0.167562 0.084781 255 220 0
0.393944 0.123182 0.072481 255 220 0
0.386289 0.114111 0.050104 255 220 0
0.375841 0.186691 0.047730 255 220 0
0.396511 0.153927 0.097134 255 220 0
0.415595 0.212531 0.044694 255 220 0
0.357048 0.111080 0.053887 255 220 0
0.388641 0.120699 0.069993 255 220 0
0.469093 0.202239 0.084588 255 220 0
0.360054 0.122266 0.070130 255 220 0
0.412414 0.213722 0.050117 255 220 0
0.408307 0.123864 0.042211 255 220 0
0.476148 0.198969 0.065440 255 220 0
0.386612 0.164007 0.097833 255 220 0
0.340458 0.124772 0.001520 255 220 0
0.424753 0.151426 0.093438 255 220 0
0.434425 0.216769 0.041780 255 220 0
0.434439 0.140742 0.036311 255 220 0
0.422608 0.149508 0.092822 255 220 0
0.395680 0.120973 0.030157 255 220 0
0.427391 0.133247 0.046202 255 220 0
0.391596 0.158161 0.097859 255 220 0
0.354471 0.107679 0.044517 255 220 0
0.367612 0.139294 0.006371 255 220 0
0.445735 0.167803 0.021184 255 220 0
0.464785 0.209435 0.085913 255 220 0
0.417866 0.152011 0.012522 255 220 0
0.436010 0.139348 0.043539 255 220 0
0.403083 0.131721 0.081567 255 220 0
0.352510 0.134110 0.075084 255 220 0
0.450236 0.150175 0.068526 255 220 0
0.331709 0.123334 0.050129 255 220 0
0.465244 0.185330 0.035885 255 220 0
0.354215 0.165691 0.045583 255 220 0
0.450896 0.224156 0.059732 255 220 0
0.378975 0.169603 0.021620 255 220 0
0.338250 0.140090 0.017532 255 220 0
0.450922 0.151352 0.044487 255 220 0
0.360800 0.133311 0.004162 255 220 0
0.343142 0.105777 0.019747 255 220 0
0.380420 0.119004 0.018732 255 220 0
0.336136 0.139572 0.020042 255 220 0
0.463386 0.174163 0.080618 255 220 0
0.419491 0.163295 0.011042 255 220 0
0.472658 0.201491 0.079883 255 220 0
0.331234 0.137481 0.031851 255 220 0
0.379923 0.192838 0.068888 255 220 0
0.384810 0.153904 0.095410 255 220 0
0.424203 0.222430 0.071996 255 220 0
0.403128 0.209710 0.053816 255 220 0
0.364264 0.170911 0.082549 255 220 0
0.459358 0.213819 0.044628 255 220 0
0.371432 0.168858 0.091232 255 220 0
0.436153 0.156053 0.091650 255 220 0
0.422235 0.213201 0.040939 255 220 0
0.370633 0.181303 0.078032 255 220 0
0.362141 0.169457 0.080768 255 220 0
0.428823 0.133024 0.054188 255 220 0
0.341650 0.147816 0.030538 255 220 0
0.473010 0.182850 0.061472 255 220 0
0.351480 0.147118 0.078143 255 220 0
0.357929 0.171555 0.064840 255 220 0
0.406902 0.195807 0.029135 255 220 0
0.447662 0.197698 0.097221 255 220 0
0.441405 0.180882 0.098736 255 220 0
0.412461 0.130264 0.075918 255 220 0
0.434698 0.200790 0.025569 255 220 0
0.387100 0.140361 0.089571 255 220 0
0.430687 0.150870 0.090537 255 220 0
0.399748 0.177324 0.017594 255 220 0
0.457652 0.159207 0.045352 255 220 0
0.404142 0.195757 0.030723 255 220 0
0.413562 0.216004 0.053751 255 220 0
0.434790 0.222510 0.080866 255 220 0
0.440719 0.160367 0.020852 255 220 0
0.434915 0.206058 0.029771 255 220 0
0.371389 0.164602 0.021715 255 220 0
0.378340 0.125475 0.077500 255 220 0
0.467927 0.188027 0.083372 255 220 0
0.343749 0.106748 0.036072 255 220 0
0.352369 0.155029 0.026484 255 220 0
0.411605 0.177401 0.014486 255 220 0
0.398072 0.118353 0.050543 255 220 0
0.428620 0.180388 0.015117 255 220 0
0.398428 0.120656 0.063871 255 220 0
0.371154 0.184465 0.052822 255 220 0
0.370064 0.180506 0.078475 255 220 0
0.397201 0.204621 0.051109 255 220 0
0.346716 0.158703 0.053325 255 220 0
0.416403 0.130801 0.074174 255 220 0
0.473332 0.198850 0.051380 255 220 0
0.417447 0.131521 0.074780 255 220 0
0.467178 0.218230 0.063608 255 220 0
0.361611 0.162531 0.085324 255 220 0
0.473353 0.194997 0.077858 255 220 0
0.386076 0.119083 0.067701 255 220 0
0.341588 0.132001 0.004160 255 220 0
0.360328 0.172001 0.046462 255 220 0
0.451299 0.209137 0.093086 255 220 0
0.354699 0.107943 0.016624 255 220 0
0.406481 0.148173 0.094667 255 220 0
0.465254 0.171263 0.072941 255 220 0
0.456973 0.171121 0.086858 255 220 0
0.358385 0.170336 0.046927 255 220 0
0.473098 0.210491 0.063307 255 220 0
0.345077 0.115804 0.056337 255 220 0
0.401453 0.209776 0.058310 255 220 0
0.341321 0.150313 0.053693 255 220 0
0.456860 0.206542 0.092039 255 220 0
0.371161 0.171176 0.028958 255 220 0
0.461264 0.179786 0.087232 255 220 0
0.342167 0.140084 0.012866 255 220 0
0.407564 0.193007 0.098070 255 220 0
0.459073 0.202928 0.091978 255 220 0
0.400086 0.180928 0.019998 255 220 0
0.420874 0.212504 0.040737 255 220 0
0.346375 0.149465 0.070032 255 220 0
0.361930 0.108150 0.045584 255 220 0
0.451144 0.217472 0.087131 255 220 0
0.360686 0.157914 0.022077 255 220 0
0.338386 0.110966 0.042518 255 220 0
0.437146 0.149419 0.085289 255 220 0
0.435014 0.206153 0.096075 255 220 0
0.390010 0.179761 0.024010 255 220 0
0.379162 0.182558 0.035897 255 220 0
0.390812 0.117833 0.032090 255 220 0
0.392244 0.178682 0.021909 255 220 0
0.434759 0.144690 0.029143 255 220 0
0.406991 0.168833 0.101687 255 220 0
0.400384 0.163419 0.100249 255 220 0
0.394095 0.193142 0.091936 255 220 0
0.440048 0.153059 0.086862 255 220 0
0.416936 0.133935 0.079348 255 220 0
0.394970 0.156333 0.097798 255 220 0
0.395023 0.192765 0.034072 255 220 0
0.345205 0.121620 0.000860 255 220 0
0.366277 0.176395 0.078308 255 220 0
0.342127 0.145828 0.063584 255 220 0
0.458354 0.167323 0.035399 255 220 0
0.469111 0.214572 0.058251 255 220 0
0.420101 0.218592 0.052096 255 220 0
0.474338 0.194428 0.053294 255 220 0
0.423014 0.131298 0.067465 255 220 0
0.416490 0.218513 0.074221 255 220 0
0.412018 0.138652 0.086750 255 220 0
0.424287 0.144677 0.019839 255 220 0
0.356697 0.170085 0.051194 255 220 0
0.427812 0.144277 0.022769 255 220 0
0.403663 0.185429 0.099811 255 220 0
0.386297 0.136026 0.086731 255 220 0
0.386433 0.192818 0.085451 255 220 0
0.345509 0.122349 0.000814 255 220 0
0.456581 0.155788 0.064415 255 220 0
0.374257 0.188285 0.063187 255 220 0
0.451602 0.181359 0.022971 255 220 0
0.404223 0.135185 0.084994 255 220 0
0.472751 0.191442 0.048152 255 220 0
0.362396 0.106909 0.030314 255 220 0
0.392841 0.164606 0.012550 255 220 0
0.397213 0.128706 0.019280 255 220 0
0.457529 0.214512 0.087117 255 220 0
0.390822 0.116188 0.039128 255 220 0
0.372251 0.130961 0.007117 255 220 0
0.398652 0.155987 0.098087 255 220 0
0.396096 0.206399 0.065934 255 220 0
0.389713 0.139610 0.089322 255 220 0
0.334090 0.140080 0.044558 255 220 0
0.429432 0.146459 0.021916 255 220 0
0.358272 0.106260 0.027129 255 220 0
0.388535 0.138105 0.010101 255 220 0
0.446345 0.184441 0.020517 255 220 0
0.357699 0.158109 0.082860 255 220 0
0.472692 0.182870 0.056447 255 220 0
0.420253 0.218443 0.051578 255 220 0
0.438817 0.222375 0.050720 255 220 0
0.360980 0.109361 0.049885 255 220 0
0.384818 0.113438 0.042008 255 220 0
0.403693 0.200726 0.091385 255 220 0
0.327153 0.116759 0.017962 255 220 0
0.372408 0.179620 0.040142 255 220 0
0.325557 0.120703 0.026229 255 220 0
0.336058 0.137803 0.055439 255 220 0
0.437658 0.219988 0.085683 255 220 0
0.395017 0.117160 0.049941 255 220 0
0.366989 0.121426 0.008253 255 220 0
0.388505 0.114760 0.043109 255 220 0
0.411275 0.144947 0.013431 255 220 0
0.359796 0.151200 0.085587 255 220 0
0.434174 0.225286 0.070014 255 220 0
0.352934 0.160608 0.036739 255 220 0
0.406605 0.212908 0.056992 255 220 0
0.348948 0.159634 0.063461 255 220 0
0.369105 0.113958 0.016905 255 220 0
0.378326 0.173710 0.025817 255 220 0
0.329915 0.119572 0.044663 255 220 0
0.393622 0.166300 0.099499 255 220 0
0.375830 0.186775 0.047929 255 220 0
0.365959 0.126531 0.005818 255 220 0
0.444334 0.225858 0.067679 255 220 0
0.426365 0.176486 0.101623 255 220 0
0.431769 0.224016 0.075045 255 220 0
0.420720 0.220607 0.074155 255 220 0
0.435559 0.150216 0.087164 255 220 0
0.447633 0.195232 0.097461 255 220 0
0.470131 0.202290 0.083380 255 220 0
0.398759 0.208192 0.060814 255 220 0
0.453963 0.222394 0.055918 255 220 0
0.452104 0.224776 0.066488 255 220 0
0.377008 0.118008 0.017449 255 220 0
0.391686 0.188681 0.031892 255 220 0
0.394315 0.118456 0.035922 255 220 0
0.379676 0.186689 0.084922 255 220 0
0.372104 0.109491 0.043415 255 220 0
0.403091 0.130720 0.020878 255 220 0
0.473334 0.191844 0.049855 255 220 0
0.432790 0.160681 0.095869 255 220 0
0.448356 0.149716 0.072413 255 220 0
0.348132 0.140115 0.074149 255 220 0
0.407926 0.122690 0.048938 255 220 0
0.371775 0.182033 0.079082 255 220 0
0.332551 0.118012 0.047810 255 220 0
0.361674 0.119889 0.068342 255 220 0
0.392055 0.196002 0.087655 255 220 0
0.390564 0.202117 0.065813 255 220 0
0.408418 0.135511 0.084453 255 220 0
0.396576 0.118621 0.058276 255 220 0
0.345075 0.110387 0.047187 255 220 0
0.350276 0.135647 0.074429 255 220 0
0.470941 0.203009 0.048442 255 220 0
0.340089 0.133854 0.006149 255 220 0
0.361629 0.176027 0.062879 255 220 0
0.335491 0.113008 0.043572 255 220 0
0.337672 0.131858 0.005530 255 220 0
0.408194 0.128112 0.074468 255 220 0
0.469151 0.212890 0.077927 255 220 0
0.401632 0.120665 0.041904 255 220 0
0.372113 0.178675 0.085051 255 220 0
0.458123 0.178937 0.028745 255 220 0
0.439997 0.178268 0.017116 255 220 0
0.346008 0.105240 0.029111 255 220 0
0.410659 0.141133 0.089257 255 220 0
0.422416 0.142803 0.020257 255 220 0
0.455739 0.192739 0.094211 255 220 0
0.341377 0.148069 0.031961 255 220 0
0.377258 0.189691 0.072421 255 220 0
0.423217 0.190139 0.019501 255 220 0
0.344134 0.138456 0.009271 255 220 0
0.433754 0.139050 0.072758 255 220 0
0.402257 0.120068 0.050843 255 220 0
0.461951 0.187082 0.031923 255 220 0
0.471603 0.199498 0.081683 255 220 0
0.406438 0.145458 0.011785 255 220 0
0.406408 0.211184 0.078386 255 220 0
0.363066 0.137358 0.005405 255 220 0
0.403011 0.133586 0.083624 255 220 0
0.367977 0.146542 0.088471 255 220 0
0.373301 0.109959 0.045092 255 220 0
0.428126 0.180214 0.015017 255 220 0
0.473876 0.185287 0.062025 255 220 0
0.382113 0.167437 0.096553 255 220 0
0.425508 0.146726 0.089579 255 220 0
0.365596 0.169040 0.032236 255 220 0
0.380782 0.192848 0.052997 255 220 0
0.354387 0.110606 0.010917 255 220 0
0.408795 0.153935 0.097574 255 220 0
0.392875 0.203737 0.059858 255 220 0
0.446213 0.184306 0.097555 255 220 0
0.421010 0.221174 0.071691 255 220 0
0.414887 0.132906 0.078900 255 220 0
0.386723 0.149750 0.094194 255 220 0
0.418846 0.134242 0.078669 255 220 0
0.451128 0.149499 0.051631 255 220 0
0.401024 0.124651 0.028267 255 220 0
0.454822 0.172771 0.026986 255 220 0
0.442425 0.225539 0.072344 255 220 0
0.400454 0.181967 0.099736 255 220 0
0.378994 0.152462 0.010472 255 220 0
0.364596 0.129127 0.077320 255 220 0
0.476108 0.198604 0.064578 255 220 0
0.466284 0.168953 0.061349 255 220 0
0.391182 0.178402 0.022226 255 220 0
0.404975 0.202785 0.038896 255 220 0
0.393562 0.184870 0.096137 255 220 0
0.379641 0.142919 0.089877 255 220 0
0.448565 0.196039 0.025503 255 220 0
0.413597 0.125114 0.052357 255 220 0
0.379635 0.185716 0.040385 255 220 0
0.403500 0.207421 0.048463 255 220 0
0.434506 0.224942 0.072935 255 220 0
0.447856 0.154429 0.081421 255 220 0
0.326189 0.127723 0.025403 255 220 0
0.349941 0.162433 0.049673 255 220 0
0.461329 0.172824 0.035799 255 220 0
0.412059 0.171378 0.012021 255 220 0
0.450875 0.153384 0.040042 255 220 0
0.456509 0.158356 0.043848 255 220 0
0.405990 0.157854 0.099170 255 220 0
0.467015 0.174264 0.047142 255 220 0
0.380928 0.193708 0.069112 255 220 0
0.333458 0.128837 0.053822 255 220 0
0.433487 0.218512 0.044526 255 220 0
0.383345 0.151209 0.094195 255 220 0
0.443731 0.147440 0.076269 255 220 0
0.458230 0.171038 0.032145 255 220 0
0.376976 0.115599 0.063047 255 220 0
0.433512 0.185101 0.100812 255 220 0
0.431810 0.224230 0.058205 255 220 0
0.436137 0.148261 0.084794 255 220 0
0.403035 0.194331 0.095874 255 220 0
0.432286 0.215959 0.041036 255 220 0
0.338753 0.138613 0.013509 255 220 0
0.336988 0.108716 0.034753 255 220 0
0.396458 0.194481 0.092461 255 220 0
0.386078 0.154799 0.010152 255 220 0
0.386750 0.146796 0.092902 255 220 0
0.356633 0.170649 0.054414 255 220 0
0.396992 0.126689 0.076870 255 220 0
0.474762 0.189748 0.057875 255 220 0
0.357311 0.169101 0.070100 255 220 0
0.437640 0.142223 0.074497 255 220 0
0.456405 0.169829 0.030377 255 220 0
0.361639 0.151599 0.014753 255 220 0
0.419639 0.142381 0.088021 255 220 0
0.470745 0.181845 0.073435 255 220 0
0.412669 0.176934 0.102357 255 220 0
0.364385 0.119012 0.008360 255 220 0
0.370298 0.150387 0.090641 255 220 0
0.393406 0.202920 0.053664 255 220 0
0.364362 0.153125 0.088645 255 220 0
0.446026 0.153820 0.031201 255 220 0
0.471110 0.195287 0.044597 255 220 0
0.359116 0.132593 0.003751 255 220 0
0.332176 0.120660 0.005912 255 220 0
0.355194 0.166438 0.069620 255 220 0
0.431483 0.223971 0.074983 255 220 0
0.364826 0.150717 0.088465 255 220 0
0.362129 0.161177 0.086356 255 220 0
0.405441 0.183815 0.100650 255 220 0
0.414911 0.150272 0.012182 255 220 0
0.370428 0.128347 0.078551 255 220 0
0.398784 0.192470 0.030795 255 220 0
0.366572 0.134990 0.005466 255 220 0
0.470740 0.179301 0.052729 255 220 0
0.365485 0.175645 0.044041 255 220 0
0.372241 0.163024 0.092976 255 220 0
0.436077 0.225285 0.060686 255 220 0
0.375830 0.180055 0.036143 255 220 0
0.427938 0.223044 0.075184 255 220 0
0.453283 0.188572 0.025170 255 220 0
0.466951 0.204905 0.043401 255 220 0
0.357000 0.141787 0.007852 255 220 0
0.413161 0.135739 0.021643 255 220 0
0.345421 0.156759 0.047488 255 220 0
0.346249 0.107449 0.040478 255 220 0
0.335134 0.132710 0.056257 255 220 0
0.413052 0.217644 0.064184 255 220 0
0.423006 0.130621 0.064681 255 220 0
0.436190 0.138039 0.063620 255 220 0
0.342964 0.153647 0.047952 255 220 0
0.371167 0.128916 0.079187 255 220 0
0.466268 0.170041 0.053220 255 220 0
0.399877 0.121607 0.034398 255 220 0
0.370382 0.178109 0.040565 255 220 0
