ply
format ascii 1.0
element vertex 1024
property float x
property float y
property float z
property uchar red
property uchar green
property uchar blue
end_header
0.424056 0.141971 0.025174 255 220 0
0.367041 0.108523 0.044556 255 220 0
0.450878 0.150487 0.055814 255 220 0
0.414147 0.192027 0.020425 255 220 0
0.373628 0.142984 0.090466 255 220 0
0.348292 0.142415 0.012239 255 220 0
0.373555 0.177448 0.086722 255 220 0
0.365201 0.114985 0.016479 255 220 0
0.451525 0.176986 0.092534 255 220 0
0.434118 0.150807 0.087912 255 220 0
0.451857 0.151490 0.055121 255 220 0
0.395729 0.119289 0.062694 255 220 0
0.427355 0.166034 0.012965 255 220 0
0.361937 0.117798 0.011580 255 220 0
0.455562 0.175751 0.089277 255 220 0
0.357968 0.141880 0.083794 255 220 0
0.376236 0.120178 0.072760 255 220 0
0.358767 0.171646 0.063418 255 220 0
0.432688 0.221154 0.045599 255 220 0
0.442742 0.192465 0.020112 255 220 0
0.416446 0.218314 0.077711 255 220 0
0.343233 0.148746 0.061821 255 220 0
0.358665 0.170734 0.066675 255 220 0
0.341839 0.125986 0.065826 255 220 0
0.398653 0.158195 0.009483 255 220 0
0.469131 0.177293 0.065985 255 220 0
0.463684 0.177833 0.038538 255 220 0
0.433684 0.199859 0.022452 255 220 0
0.371725 0.179637 0.080655 255 220 0
0.392768 0.188745 0.029535 255 220 0
0.449081 0.171843 0.092183 255 220 0
0.457622 0.170043 0.034350 255 220 0
0.429648 0.143287 0.083147 255 220 0
0.385661 0.181459 0.094108 255 220 0
0.419918 0.178242 0.012575 255 220 0
0.364640 0.177154 0.052527 255 220 0
0.419491 0.220265 0.053023 255 220 0
0.405431 0.201377 0.033952 255 220 0
0.447305 0.152491 0.077643 255 220 0
0.364948 0.128617 0.007738 255 220 0
0.427539 0.148105 0.021288 255 220 0
0.395550 0.122645 0.029855 255 220 0
0.370440 0.174303 0.085978 255 220 0
0.380098 0.144131 0.009458 255 220 0
0.383292 0.151192 0.009974 255 220 0
0.397679 0.201651 0.085592 255 220 0
0.359205 0.162380 0.029983 255 220 0
0.390524 0.189472 0.092253 255 220 0
0.464682 0.175988 0.077937 255 220 0
0.467317 0.217533 0.075497 255 220 0
0.327225 0.131351 0.034313 255 220 0
0.473190 0.199158 0.050427 255 220 0
0.460692 0.166487 0.044482 255 220 0
0.404727 0.122532 0.044117 255 220 0
0.463036 0.166650 0.051928 255 220 0
0.468139 0.212860 0.050539 255 220 0
0.367276 0.180514 0.055303 255 220 0
0.363577 0.175553 0.050808 255 220 0
0.351608 0.141323 0.009819 255 220 0
0.418980 0.160808 0.011269 255 220 0
0.326447 0.130470 0.031519 255 220 0
0.336172 0.137757 0.014577 255 220 0
0.435578 0.226945 0.069402 255 220 0
0.394354 0.195746 0.036959 255 220 0
0.453977 0.155329 0.047234 255 220 0
0.449643 0.149358 0.060353 255 220 0
0.352623 0.160918 0.040142 255 220 0
0.362649 0.173412 0.072343 255 220 0
0.458038 0.179479 0.088688 255 220 0
0.406925 0.134264 0.022015 255 220 0
0.382423 0.112883 0.043872 255 220 0
0.424036 0.135931 0.076893 255 220 0
0.366227 0.175443 0.043848 255 220 0
0.466051 0.191619 0.036404 255 220 0
0.466514 0.201778 0.038840 255 220 0
0.389067 0.140811 0.091088 255 220 0
0.384666 0.156244 0.097504 255 220 0
0.368315 0.126840 0.078382 255 220 0
0.404490 0.145928 0.012470 255 220 0
0.338007 0.145287 0.035655 255 220 0
0.377325 0.115872 0.024655 255 220 0
0.387785 0.197917 0.075827 255 220 0
0.436807 0.144052 0.037139 255 220 0
0.445058 0.226253 0.056773 255 220 0
0.354407 0.152022 0.020011 255 220 0
0.422525 0.139374 0.083058 255 220 0
0.374596 0.179058 0.035701 255 220 0
0.332827 0.124398 0.053830 255 220 0
0.359157 0.163997 0.079529 255 220 0
0.448728 0.189565 0.021641 255 220 0
0.475667 0.197565 0.061217 255 220 0
0.344552 0.124125 0.066826 255 220 0
0.450139 0.183467 0.094942 255 220 0
0.364333 0.111470 0.057513 255 220 0
0.370512 0.180175 0.077095 255 220 0
0.448872 0.163678 0.087964 255 220 0
0.405743 0.194544 0.097094 255 220 0
0.417649 0.165705 0.010529 255 220 0
0.439422 0.171529 0.096920 255 220 0
0.351381 0.132368 0.005169 255 220 0
0.394735 0.189236 0.095033 255 220 0
0.361954 0.107092 0.035776 255 220 0
0.409000 0.155283 0.010212 255 220 0
0.367868 0.170397 0.086396 255 220 0
0.424563 0.215971 0.040502 255 220 0
0.423391 0.134227 0.039088 255 220 0
0.465525 0.175368 0.045020 255 220 0
0.393426 0.197419 0.086945 255 220 0
0.423025 0.209185 0.032430 255 220 0
0.363896 0.109033 0.050041 255 220 0
0.359845 0.168507 0.074850 255 220 0
0.386642 0.156243 0.010485 255 220 0
0.426447 0.132558 0.052927 255 220 0
0.357692 0.149169 0.084705 255 220 0
0.454613 0.167941 0.085712 255 220 0
0.382258 0.114299 0.058200 255 220 0
0.460465 0.165826 0.072509 255 220 0
0.391863 0.183340 0.024717 255 220 0
0.385007 0.115841 0.033736 255 220 0
0.414665 0.186176 0.016553 255 220 0
0.368362 0.172592 0.084888 255 220 0
0.423160 0.172347 0.011691 255 220 0
0.335263 0.116071 0.007928 255 220 0
0.445634 0.157459 0.085421 255 220 0
0.344896 0.143398 0.015869 255 220 0
0.384245 0.190796 0.042253 255 220 0
0.334541 0.108119 0.024263 255 220 0
0.450558 0.165949 0.088155 255 220 0
0.466723 0.174145 0.069320 255 220 0
0.468588 0.217349 0.072937 255 220 0
0.387356 0.158157 0.098359 255 220 0
0.417979 0.218341 0.050059 255 220 0
0.469907 0.186333 0.045114 255 220 0
0.442486 0.158761 0.088967 255 220 0
0.447483 0.147521 0.053431 255 220 0
0.389087 0.200211 0.071485 255 220 0
0.370855 0.163174 0.020462 255 220 0
0.343202 0.147890 0.062820 255 220 0
0.421682 0.129969 0.051584 255 220 0
0.456906 0.176827 0.088621 255 220 0
0.435737 0.174975 0.099103 255 220 0
0.410134 0.210598 0.084768 255 220 0
0.405913 0.174385 0.102178 255 220 0
0.440599 0.193480 0.098835 255 220 0
0.353894 0.164207 0.046397 255 220 0
0.336582 0.107351 0.023387 255 220 0
0.372649 0.128765 0.010207 255 220 0
0.356949 0.149160 0.084035 255 220 0
0.474151 0.210404 0.066711 255 220 0
0.413427 0.125748 0.050615 255 220 0
0.365036 0.164988 0.087052 255 220 0
0.461204 0.209671 0.038683 255 220 0
0.369368 0.173113 0.085757 255 220 0
0.459047 0.181301 0.088476 255 220 0
0.409331 0.214586 0.075995 255 220 0
0.449901 0.194057 0.023523 255 220 0
0.377867 0.126767 0.079984 255 220 0
0.387380 0.114813 0.043331 255 220 0
0.394893 0.154712 0.009519 255 220 0
0.458279 0.176386 0.031037 255 220 0
0.404962 0.128322 0.028928 255 220 0
0.456634 0.210446 0.090262 255 220 0
0.345146 0.155175 0.054474 255 220 0
0.351127 0.158398 0.036883 255 220 0
0.339233 0.110301 0.012325 255 220 0
0.418957 0.169898 0.101826 255 220 0
0.379000 0.160578 0.096839 255 220 0
0.408595 0.165881 0.101708 255 220 0
0.347827 0.148862 0.021889 255 220 0
0.431208 0.141700 0.079695 255 220 0
0.402743 0.200487 0.091296 255 220 0
0.376854 0.186440 0.078030 255 220 0
0.389258 0.141397 0.010932 255 220 0
0.458194 0.165114 0.077180 255 220 0
0.373673 0.182724 0.078821 255 220 0
0.444789 0.216737 0.089894 255 220 0
0.459753 0.161989 0.065114 255 220 0
0.339136 0.147415 0.047461 255 220 0
0.475810 0.198959 0.062010 255 220 0
0.455280 0.224859 0.074079 255 220 0
0.410002 0.212322 0.047277 255 220 0
0.367707 0.139446 0.087039 255 220 0
0.351684 0.118695 0.006298 255 220 0
0.390163 0.145004 0.010244 255 220 0
0.413795 0.126418 0.047626 255 220 0
0.447731 0.183060 0.096003 255 220 0
0.399271 0.123584 0.032102 255 220 0
0.329766 0.132900 0.042045 255 220 0
0.421047 0.136191 0.031416 255 220 0
0.345769 0.107860 0.017257 255 220 0
0.466213 0.183607 0.039193 255 220 0
0.354735 0.141394 0.009085 255 220 0
0.344177 0.135268 0.007386 255 220 0
0.385570 0.120200 0.024626 255 220 0
0.414400 0.143542 0.090390 255 220 0
0.355945 0.146565 0.012775 255 220 0
0.331495 0.110070 0.032307 255 220 0
0.411116 0.214911 0.078213 255 220 0
0.388928 0.188043 0.032077 255 220 0
0.390351 0.132478 0.015073 255 220 0
0.468344 0.211944 0.080531 255 220 0
0.399169 0.121876 0.036411 255 220 0
0.404823 0.140442 0.015626 255 220 0
0.366380 0.116915 0.067671 255 220 0
0.462176 0.167160 0.069920 255 220 0
0.382411 0.186795 0.087126 255 220 0
0.434261 0.167513 0.015421 255 220 0
0.369982 0.182473 0.052536 255 220 0
0.391303 0.116453 0.043136 255 220 0
0.345203 0.155130 0.047292 255 220 0
0.415207 0.151003 0.095502 255 220 0
0.467621 0.188450 0.082014 255 220 0
0.416157 0.192592 0.020195 255 220 0
0.407707 0.129865 0.028916 255 220 0
0.465215 0.171268 0.068522 255 220 0
0.367236 0.120052 0.012604 255 220 0
0.380715 0.113263 0.055387 255 220 0
0.460992 0.184850 0.087966 255 220 0
0.383150 0.115977 0.063163 255 220 0
0.407062 0.148940 0.095426 255 220 0
0.454097 0.155656 0.068269 255 220 0
0.426112 0.182623 0.014094 255 220 0
0.427752 0.178220 0.101495 255 220 0
0.443970 0.201820 0.024994 255 220 0
0.344159 0.112568 0.053756 255 220 0
0.342708 0.110724 0.049020 255 220 0
0.404372 0.148546 0.011370 255 220 0
0.372696 0.186094 0.056891 255 220 0
0.410398 0.207260 0.037788 255 220 0
0.373958 0.186495 0.053238 255 220 0
0.369941 0.144091 0.090050 255 220 0
0.408342 0.209746 0.044141 255 220 0
0.472108 0.185005 0.068689 255 220 0
0.369926 0.165915 0.091306 255 220 0
0.406497 0.189845 0.099472 255 220 0
0.473817 0.190795 0.070211 255 220 0
0.451953 0.199430 0.095104 255 220 0
0.387237 0.189734 0.036203 255 220 0
0.363832 0.177118 0.055834 255 220 0
0.416961 0.170852 0.010822 255 220 0
0.416920 0.134445 0.030091 255 220 0
0.444059 0.224680 0.051704 255 220 0
0.398325 0.127882 0.023777 255 220 0
0.386028 0.195996 0.050237 255 220 0
0.449929 0.170759 0.024345 255 220 0
0.391327 0.134147 0.014485 255 220 0
0.424961 0.137555 0.033632 255 220 0
0.462455 0.178033 0.083366 255 220 0
0.339474 0.147339 0.038797 255 220 0
0.418151 0.190152 0.018123 255 220 0
0.396299 0.182179 0.098572 255 220 0
0.437738 0.158127 0.091486 255 220 0
0.445126 0.167181 0.092500 255 220 0
0.461482 0.164531 0.065528 255 220 0
0.397925 0.179497 0.099798 255 220 0
0.469993 0.188702 0.078434 255 220 0
0.362019 0.167061 0.034125 255 220 0
0.327977 0.129806 0.015034 255 220 0
0.338115 0.141728 0.021303 255 220 0
0.371915 0.154758 0.093821 255 220 0
0.437069 0.139327 0.061989 255 220 0
0.355415 0.167542 0.052655 255 220 0
0.401359 0.148470 0.095491 255 220 0
0.346909 0.111352 0.010940 255 220 0
0.372279 0.125432 0.078003 255 220 0
0.329864 0.132400 0.042967 255 220 0
0.362954 0.122370 0.073044 255 220 0
0.340964 0.137511 0.065577 255 220 0
0.394640 0.205784 0.063637 255 220 0
0.428825 0.133878 0.060790 255 220 0
0.456444 0.177493 0.089272 255 220 0
0.417391 0.129922 0.041441 255 220 0
0.462650 0.207619 0.087905 255 220 0
0.441821 0.225248 0.052933 255 220 0
0.468304 0.217562 0.057877 255 220 0
0.404051 0.168955 0.101821 255 220 0
0.460805 0.223674 0.070931 255 220 0
0.397863 0.205084 0.079330 255 220 0
0.430668 0.157309 0.017123 255 220 0
0.352359 0.105754 0.035185 255 220 0
0.380875 0.112524 0.041296 255 220 0
0.426428 0.138109 0.034453 255 220 0
0.403279 0.120951 0.056302 255 220 0
0.423556 0.139246 0.028730 255 220 0
0.337383 0.118571 0.005629 255 220 0
0.431038 0.208520 0.029473 255 220 0
0.324956 0.120616 0.023916 255 220 0
0.443988 0.154154 0.031062 255 220 0
0.388565 0.184481 0.094120 255 220 0
0.409076 0.164181 0.101366 255 220 0
0.404227 0.194724 0.027399 255 220 0
0.434376 0.162426 0.095548 255 220 0
0.401909 0.153529 0.097959 255 220 0
0.397745 0.200135 0.039927 255 220 0
0.422242 0.222375 0.055880 255 220 0
0.444741 0.165036 0.022749 255 220 0
0.326359 0.116084 0.033331 255 220 0
0.410760 0.129293 0.074982 255 220 0
0.472065 0.212977 0.059601 255 220 0
0.449167 0.217536 0.040293 255 220 0
0.415221 0.138813 0.022203 255 220 0
0.471547 0.210181 0.077012 255 220 0
0.451024 0.178742 0.022638 255 220 0
0.408132 0.153341 0.010525 255 220 0
0.383657 0.135447 0.087349 255 220 0
0.358352 0.171504 0.058013 255 220 0
0.472835 0.192961 0.049470 255 220 0
0.467264 0.195956 0.038094 255 220 0
0.453615 0.164403 0.033221 255 220 0
0.428981 0.177869 0.013328 255 220 0
0.355291 0.129072 0.005124 255 220 0
0.470426 0.185313 0.074872 255 220 0
0.454799 0.215276 0.039922 255 220 0
0.408854 0.208573 0.041372 255 220 0
0.344783 0.140727 0.070621 255 220 0
0.331507 0.132289 0.011796 255 220 0
0.336536 0.135653 0.057994 255 220 0
0.440299 0.181719 0.016692 255 220 0
0.331409 0.136971 0.022905 255 220 0
0.372566 0.119576 0.016034 255 220 0
0.361385 0.167342 0.035842 255 220 0
0.329168 0.131751 0.041449 255 220 0
0.407901 0.215585 0.065549 255 220 0
0.390075 0.144597 0.093302 255 220 0
0.457912 0.220245 0.081618 255 220 0
0.402265 0.199275 0.092137 255 220 0
0.409574 0.127476 0.036268 255 220 0
0.359435 0.157328 0.084647 255 220 0
0.452509 0.159767 0.080310 255 220 0
0.469815 0.192796 0.080786 255 220 0
0.424221 0.157977 0.097080 255 220 0
0.372345 0.154747 0.013304 255 220 0
0.343669 0.111278 0.050953 255 220 0
0.420125 0.146934 0.091459 255 220 0
0.449731 0.161736 0.085688 255 220 0
0.446995 0.168212 0.091878 255 220 0
0.427166 0.132833 0.060074 255 220 0
0.360366 0.109679 0.021891 255 220 0
0.441200 0.145318 0.073684 255 220 0
0.352670 0.153319 0.023593 255 220 0
0.411002 0.209614 0.086750 255 220 0
0.453491 0.188997 0.094139 255 220 0
0.467668 0.196851 0.038769 255 220 0
0.407044 0.123344 0.045745 255 220 0
0.410590 0.131484 0.078671 255 220 0
0.352535 0.159676 0.071233 255 220 0
0.421944 0.161110 0.098998 255 220 0
0.458541 0.223986 0.073582 255 220 0
0.380111 0.153132 0.010788 255 220 0
0.445232 0.225962 0.075921 255 220 0
0.390585 0.201207 0.054170 255 220 0
0.371695 0.185339 0.063395 255 220 0
0.442795 0.218747 0.040762 255 220 0
0.464443 0.212783 0.083925 255 220 0
0.332124 0.138895 0.036697 255 220 0
0.354549 0.165924 0.049876 255 220 0
0.348910 0.112223 0.010529 255 220 0
0.332308 0.113622 0.012891 255 220 0
0.365605 0.179349 0.060461 255 220 0
0.341689 0.146480 0.060531 255 220 0
0.377663 0.162502 0.096380 255 220 0
0.472449 0.213818 0.066409 255 220 0
0.406571 0.153691 0.097920 255 220 0
0.388551 0.200513 0.066542 255 220 0
0.419899 0.193931 0.099996 255 220 0
0.382031 0.188322 0.084546 255 220 0
0.385169 0.197591 0.066290 255 220 0
0.377467 0.114824 0.062901 255 220 0
0.413057 0.137943 0.085620 255 220 0
0.343710 0.152363 0.041464 255 220 0
0.341116 0.126578 0.004077 255 220 0
0.437902 0.144140 0.038742 255 220 0
0.352158 0.153015 0.076868 255 220 0
0.448851 0.148546 0.056431 255 220 0
0.396593 0.155836 0.098678 255 220 0
0.325574 0.121115 0.018740 255 220 0
0.380856 0.168312 0.018679 255 220 0
0.414016 0.196135 0.098385 255 220 0
0.382083 0.113788 0.036490 255 220 0
0.357669 0.123355 0.006587 255 220 0
0.361341 0.111555 0.018851 255 220 0
0.418649 0.150299 0.014774 255 220 0
0.361382 0.114494 0.063304 255 220 0
0.442371 0.197988 0.022488 255 220 0
0.407392 0.122942 0.058987 255 220 0
0.453169 0.199188 0.094636 255 220 0
0.334050 0.108748 0.022050 255 220 0
0.398450 0.205362 0.049689 255 220 0
0.354526 0.111599 0.056727 255 220 0
0.446638 0.220469 0.043891 255 220 0
0.330393 0.110553 0.029944 255 220 0
0.353601 0.120796 0.068531 255 220 0
0.446826 0.146720 0.056532 255 220 0
0.331278 0.118041 0.009892 255 220 0
0.426779 0.195046 0.099865 255 220 0
0.351202 0.118060 0.064865 255 220 0
0.410097 0.173037 0.102514 255 220 0
0.356728 0.153787 0.020374 255 220 0
0.445785 0.217392 0.039308 255 220 0
0.457787 0.171120 0.084490 255 220 0
0.371951 0.181486 0.077578 255 220 0
0.416958 0.219251 0.075812 255 220 0
0.439373 0.161901 0.092929 255 220 0
0.468325 0.202836 0.041934 255 220 0
0.430039 0.151083 0.090583 255 220 0
0.423919 0.144295 0.022325 255 220 0
0.454926 0.215067 0.039749 255 220 0
0.332280 0.109218 0.028226 255 220 0
0.467662 0.217205 0.075415 255 220 0
0.385620 0.194832 0.048403 255 220 0
0.353607 0.125523 0.072465 255 220 0
0.393138 0.188702 0.029190 255 220 0
0.452058 0.224203 0.078211 255 220 0
0.401669 0.207372 0.048974 255 220 0
0.394238 0.154023 0.097870 255 220 0
0.369793 0.111036 0.054888 255 220 0
0.452694 0.174599 0.025332 255 220 0
0.419439 0.179498 0.102512 255 220 0
0.372825 0.138204 0.008645 255 220 0
0.418015 0.127826 0.053283 255 220 0
0.368207 0.180299 0.070609 255 220 0
0.374439 0.186169 0.050890 255 220 0
0.450658 0.225075 0.055192 255 220 0
0.325046 0.123965 0.030066 255 220 0
0.451059 0.157259 0.037455 255 220 0
0.393075 0.117201 0.043312 255 220 0
0.345015 0.151042 0.031891 255 220 0
0.401774 0.198570 0.033469 255 220 0
0.355523 0.167690 0.052799 255 220 0
0.369920 0.181182 0.073205 255 220 0
0.371163 0.128997 0.080814 255 220 0
0.381426 0.117000 0.066581 255 220 0
0.388693 0.197482 0.079337 255 220 0
0.355936 0.163602 0.038892 255 220 0
0.407328 0.163683 0.009638 255 220 0
0.403000 0.131020 0.023203 255 220 0
0.433878 0.216189 0.037698 255 220 0
0.418526 0.130115 0.042897 255 220 0
0.395317 0.119826 0.036719 255 220 0
0.416607 0.220328 0.070252 255 220 0
0.429335 0.134091 0.059225 255 220 0
0.404874 0.121886 0.048148 255 220 0
0.404392 0.183955 0.100707 255 220 0
0.420715 0.218706 0.081778 255 220 0
0.351089 0.160851 0.044629 255 220 0
0.472387 0.208850 0.054987 255 220 0
0.335141 0.141704 0.030703 255 220 0
0.469584 0.215700 0.073904 255 220 0
0.394025 0.137957 0.013463 255 220 0
0.437968 0.227372 0.067328 255 220 0
0.463994 0.171257 0.046451 255 220 0
0.426788 0.215972 0.088413 255 220 0
0.376022 0.111077 0.038438 255 220 0
0.448450 0.149662 0.047191 255 220 0
0.458981 0.211342 0.038405 255 220 0
0.337353 0.111843 0.010856 255 220 0
0.443025 0.149117 0.037162 255 220 0
0.378628 0.133198 0.010665 255 220 0
0.449549 0.175423 0.022252 255 220 0
0.443430 0.212823 0.033637 255 220 0
0.369352 0.183129 0.061780 255 220 0
0.393181 0.119533 0.034411 255 220 0
0.398949 0.126095 0.026974 255 220 0
0.435010 0.190541 0.100077 255 220 0
0.411264 0.208353 0.088377 255 220 0
0.371554 0.114777 0.064230 255 220 0
0.426438 0.209759 0.031834 255 220 0
0.430125 0.226111 0.066794 255 220 0
0.333123 0.119651 0.007523 255 220 0
0.420728 0.219007 0.081241 255 220 0
0.381984 0.157906 0.097331 255 220 0
0.438816 0.219012 0.088011 255 220 0
0.341841 0.146311 0.061156 255 220 0
0.449929 0.156986 0.080416 255 220 0
0.432533 0.140653 0.037807 255 220 0
0.354971 0.134883 0.079071 255 220 0
0.381035 0.175394 0.024829 255 220 0
0.469987 0.205526 0.081791 255 220 0
0.403176 0.120938 0.049734 255 220 0
0.436800 0.172235 0.015667 255 220 0
0.359139 0.107414 0.027713 255 220 0
0.443641 0.172015 0.019167 255 220 0
0.459726 0.201480 0.091101 255 220 0
0.441397 0.151898 0.030619 255 220 0
0.367596 0.158337 0.091575 255 220 0
0.399514 0.167748 0.011359 255 220 0
0.341131 0.139065 0.065246 255 220 0
0.372756 0.185719 0.054604 255 220 0
0.379191 0.181815 0.088826 255 220 0
0.457109 0.191846 0.092410 255 220 0
0.351254 0.113174 0.058379 255 220 0
0.384928 0.167894 0.098306 255 220 0
0.439851 0.216331 0.037404 255 220 0
0.420853 0.160265 0.011921 255 220 0
0.407524 0.139408 0.088487 255 220 0
0.375463 0.185632 0.076569 255 220 0
0.372867 0.181479 0.043296 255 220 0
0.462280 0.164693 0.061506 255 220 0
0.450018 0.177852 0.093677 255 220 0
0.369419 0.165757 0.024089 255 220 0
0.409745 0.177013 0.102509 255 220 0
0.403927 0.123345 0.039448 255 220 0
0.357997 0.107946 0.024540 255 220 0
0.433692 0.225562 0.075179 255 220 0
0.394009 0.117680 0.042938 255 220 0
0.369449 0.115503 0.065699 255 220 0
0.382986 0.136111 0.010989 255 220 0
0.416079 0.179902 0.102610 255 220 0
0.388415 0.161477 0.011670 255 220 0
0.385102 0.197793 0.061313 255 220 0
0.429698 0.188756 0.016536 255 220 0
0.431147 0.159691 0.016332 255 220 0
0.464573 0.180392 0.081888 255 220 0
0.395417 0.128314 0.080317 255 220 0
0.452033 0.153895 0.045369 255 220 0
0.459630 0.201648 0.032173 255 220 0
0.415724 0.214149 0.084522 255 220 0
0.338654 0.141140 0.058535 255 220 0
0.462517 0.165251 0.053660 255 220 0
0.413926 0.180470 0.013820 255 220 0
0.342960 0.113946 0.055289 255 220 0
0.368824 0.108773 0.042849 255 220 0
0.369386 0.175554 0.082863 255 220 0
0.415891 0.214648 0.083964 255 220 0
0.420719 0.170346 0.101671 255 220 0
0.457612 0.160348 0.068851 255 220 0
0.469554 0.178364 0.066656 255 220 0
0.403656 0.211453 0.073438 255 220 0
0.375552 0.110969 0.049005 255 220 0
0.440529 0.150942 0.082993 255 220 0
0.425740 0.154051 0.016111 255 220 0
0.336693 0.136242 0.011777 255 220 0
0.456411 0.223737 0.055214 255 220 0
0.445473 0.221853 0.084336 255 220 0
0.348876 0.123149 0.004120 255 220 0
0.435850 0.227200 0.064984 255 220 0
0.470856 0.180224 0.061404 255 220 0
0.429699 0.136890 0.072004 255 220 0
0.431051 0.199009 0.098698 255 220 0
0.360619 0.106813 0.036411 255 220 0
0.415947 0.132298 0.033290 255 220 0
0.334394 0.115415 0.050003 255 220 0
0.354849 0.106604 0.026971 255 220 0
0.427561 0.188640 0.016428 255 220 0
0.364560 0.128620 0.007614 255 220 0
0.356783 0.159246 0.028035 255 220 0
0.415125 0.131435 0.034149 255 220 0
0.406891 0.148746 0.011812 255 220 0
0.433560 0.218366 0.087963 255 220 0
0.360760 0.158081 0.022390 255 220 0
0.442121 0.223104 0.082747 255 220 0
0.352358 0.145659 0.079570 255 220 0
0.384521 0.181832 0.028732 255 220 0
0.442075 0.223849 0.049564 255 220 0
0.430544 0.141746 0.032689 255 220 0
0.457883 0.224964 0.069279 255 220 0
0.367105 0.180701 0.057486 255 220 0
0.340298 0.142009 0.018347 255 220 0
0.349599 0.105620 0.034091 255 220 0
0.381397 0.194503 0.061184 255 220 0
0.332242 0.135904 0.016549 255 220 0
0.411986 0.124827 0.057319 255 220 0
0.378583 0.191562 0.066441 255 220 0
0.362371 0.175429 0.065225 255 220 0
0.418589 0.214289 0.041749 255 220 0
0.340062 0.147734 0.037549 255 220 0
0.346290 0.111721 0.010263 255 220 0
0.433785 0.142769 0.035183 255 220 0
0.348694 0.151958 0.071291 255 220 0
0.384895 0.146438 0.093870 255 220 0
0.345988 0.146444 0.019826 255 220 0
0.440492 0.222976 0.047738 255 220 0
0.406761 0.189932 0.021804 255 220 0
0.398430 0.197987 0.035832 255 220 0
0.462933 0.200364 0.089038 255 220 0
0.336072 0.110249 0.041185 255 220 0
0.459037 0.194548 0.091510 255 220 0
0.451395 0.151717 0.049944 255 220 0
0.400058 0.192117 0.027574 255 220 0
0.381330 0.190737 0.047237 255 220 0
0.436762 0.180746 0.015485 255 220 0
0.404407 0.168626 0.101830 255 220 0
0.452851 0.204197 0.029474 255 220 0
0.384080 0.196352 0.068292 255 220 0
0.424274 0.208741 0.031465 255 220 0
0.358439 0.164969 0.036478 255 220 0
0.473066 0.189987 0.052120 255 220 0
0.337512 0.111744 0.046604 255 220 0
0.440903 0.195434 0.098578 255 220 0
0.359706 0.106866 0.040634 255 220 0
0.402342 0.124372 0.034214 255 220 0
0.351421 0.126206 0.071992 255 220 0
0.399528 0.134073 0.018062 255 220 0
0.380637 0.134356 0.010874 255 220 0
0.474982 0.203636 0.072630 255 220 0
0.450722 0.182792 0.022049 255 220 0
0.424032 0.221521 0.079004 255 220 0
0.442388 0.153345 0.030047 255 220 0
0.406746 0.172905 0.102279 255 220 0
0.366972 0.128761 0.008334 255 220 0
0.371974 0.184719 0.068763 255 220 0
0.433312 0.199147 0.098649 255 220 0
0.475551 0.205613 0.065732 255 220 0
0.471739 0.207219 0.051734 255 220 0
0.460359 0.162436 0.063639 255 220 0
0.422739 0.146650 0.019308 255 220 0
0.387687 0.118407 0.066912 255 220 0
0.396276 0.199361 0.087402 255 220 0
0.337851 0.135271 0.009938 255 220 0
0.419298 0.154854 0.096787 255 220 0
0.410799 0.204805 0.034152 255 220 0
0.417559 0.128173 0.048761 255 220 0
0.399280 0.176302 0.015427 255 220 0
0.442636 0.225884 0.076498 255 220 0
0.372585 0.165343 0.021330 255 220 0
0.430408 0.181469 0.101176 255 220 0
0.376413 0.180135 0.034966 255 220 0
0.435131 0.205739 0.096314 255 220 0
0.333045 0.131285 0.052625 255 220 0
0.329937 0.133553 0.016336 255 220 0
0.383754 0.133938 0.086279 255 220 0
0.426612 0.190285 0.017202 255 220 0
0.378386 0.127192 0.013175 255 220 0
0.414797 0.137676 0.023257 255 220 0
0.428956 0.218045 0.087069 255 220 0
0.360026 0.134324 0.006413 255 220 0
0.383033 0.189233 0.041118 255 220 0
0.417349 0.133782 0.078441 255 220 0
0.350224 0.153600 0.072967 255 220 0
0.420405 0.187844 0.016459 255 220 0
0.365869 0.130775 0.080837 255 220 0
0.385311 0.162999 0.013242 255 220 0
0.458676 0.188099 0.028571 255 220 0
0.377089 0.186329 0.078796 255 220 0
0.461068 0.171385 0.039318 255 220 0
0.475220 0.194001 0.066577 255 220 0
0.396569 0.206800 0.069623 255 220 0
0.345276 0.150656 0.030156 255 220 0
0.430543 0.210938 0.032042 255 220 0
0.358490 0.163521 0.078863 255 220 0
0.461322 0.223113 0.059452 255 220 0
0.414541 0.127383 0.066201 255 220 0
0.470954 0.193896 0.079454 255 220 0
0.354797 0.167347 0.059893 255 220 0
0.385599 0.182377 0.028428 255 220 0
0.371107 0.112194 0.026261 255 220 0
0.434586 0.137921 0.051493 255 220 0
0.389859 0.175508 0.019203 255 220 0
0.367763 0.178622 0.047879 255 220 0
0.372074 0.171274 0.027908 255 220 0
0.433374 0.217257 0.088993 255 220 0
0.429467 0.172584 0.100401 255 220 0
0.416456 0.176432 0.102649 255 220 0
0.405457 0.127622 0.030790 255 220 0
0.348032 0.151797 0.070053 255 220 0
0.328986 0.127486 0.044275 255 220 0
0.443299 0.227497 0.065517 255 220 0
0.392827 0.185639 0.026246 255 220 0
0.425652 0.224105 0.057733 255 220 0
0.332326 0.137141 0.044392 255 220 0
0.395833 0.205091 0.053671 255 220 0
0.366455 0.165068 0.088540 255 220 0
0.397042 0.122720 0.071030 255 220 0
0.387844 0.114720 0.048825 255 220 0
0.374783 0.186849 0.051902 255 220 0
0.400629 0.152003 0.097282 255 220 0
0.413243 0.214354 0.047264 255 220 0
0.359145 0.110329 0.054788 255 220 0
0.391636 0.120186 0.068832 255 220 0
0.470223 0.203774 0.081918 255 220 0
0.363125 0.120627 0.071405 255 220 0
0.410492 0.215092 0.052992 255 220 0
0.408779 0.125780 0.039790 255 220 0
0.475750 0.201940 0.062089 255 220 0
0.390489 0.161629 0.099423 255 220 0
0.337758 0.126488 0.004923 255 220 0
0.428529 0.150832 0.091138 255 220 0
0.431608 0.219490 0.043092 255 220 0
0.433735 0.143988 0.032850 255 220 0
0.426406 0.148873 0.090579 255 220 0
0.395289 0.123130 0.028650 255 220 0
0.427802 0.135643 0.042791 255 220 0
0.395652 0.155992 0.098673 255 220 0
0.355905 0.107399 0.045464 255 220 0
0.364716 0.141739 0.008444 255 220 0
0.442798 0.172329 0.018589 255 220 0
0.465801 0.210705 0.084043 255 220 0
0.414850 0.156013 0.011255 255 220 0
0.435955 0.142225 0.039823 255 220 0
0.406618 0.131047 0.079858 255 220 0
0.355627 0.131848 0.077697 255 220 0
0.451857 0.152075 0.064196 255 220 0
0.333179 0.121790 0.053897 255 220 0
0.462869 0.189688 0.032722 255 220 0
0.353777 0.165189 0.050209 255 220 0
0.449270 0.226421 0.060068 255 220 0
0.376288 0.171497 0.024597 255 220 0
0.336386 0.140718 0.021998 255 220 0
0.450479 0.154722 0.040304 255 220 0
0.357949 0.135639 0.006427 255 220 0
0.342606 0.106550 0.021634 255 220 0
0.379198 0.121258 0.018410 255 220 0
0.334510 0.139968 0.024634 255 220 0
0.465156 0.175788 0.076663 255 220 0
0.415963 0.167420 0.010364 255 220 0
0.473403 0.203451 0.076899 255 220 0
0.330691 0.136981 0.036649 255 220 0
0.380419 0.191866 0.073002 255 220 0
0.388832 0.151628 0.096523 255 220 0
0.423776 0.222922 0.074340 255 220 0
0.401690 0.210506 0.057179 255 220 0
0.366714 0.168564 0.086485 255 220 0
0.456777 0.217349 0.043699 255 220 0
0.374652 0.166273 0.094406 255 220 0
0.439575 0.155999 0.088720 255 220 0
0.419519 0.215507 0.043027 255 220 0
0.372326 0.179449 0.082129 255 220 0
0.364499 0.167138 0.084796 255 220 0
0.429907 0.134996 0.050603 255 220 0
0.340604 0.147775 0.035144 255 220 0
0.472837 0.185979 0.057381 255 220 0
0.354418 0.144599 0.081646 255 220 0
0.358895 0.170025 0.069430 255 220 0
0.403845 0.198270 0.031443 255 220 0
0.450096 0.197651 0.095950 255 220 0
0.444561 0.180543 0.096906 255 220 0
0.415532 0.130299 0.073380 255 220 0
0.431058 0.204538 0.025937 255 220 0
0.391080 0.138560 0.089673 255 220 0
0.434214 0.150683 0.087732 255 220 0
0.396376 0.180249 0.019381 255 220 0
0.456988 0.162767 0.041111 255 220 0
0.401232 0.198017 0.033244 255 220 0
0.411863 0.217194 0.056658 255 220 0
0.435062 0.222881 0.082302 255 220 0
0.438026 0.164737 0.018200 255 220 0
0.431449 0.209548 0.030431 255 220 0
0.368910 0.166207 0.024996 255 220 0
0.381846 0.124097 0.077443 255 220 0
0.469441 0.189628 0.079906 255 220 0
0.344549 0.106561 0.037883 255 220 0
0.350694 0.155630 0.030691 255 220 0
0.407921 0.180975 0.015324 255 220 0
0.399473 0.119383 0.048566 255 220 0
0.424817 0.184580 0.014750 255 220 0
0.400869 0.120893 0.061939 255 220 0
0.370619 0.184139 0.057210 255 220 0
0.371823 0.178605 0.082565 255 220 0
0.395732 0.205361 0.054649 255 220 0
0.347195 0.157461 0.058082 255 220 0
0.419293 0.131093 0.071357 255 220 0
0.471769 0.202556 0.048328 255 220 0
0.420359 0.131815 0.071920 255 220 0
0.466012 0.220912 0.062218 255 220 0
0.364589 0.159935 0.088934 255 220 0
0.474145 0.197122 0.074418 255 220 0
0.388943 0.118612 0.066659 255 220 0
0.338861 0.133583 0.007914 255 220 0
0.359725 0.171668 0.050983 255 220 0
0.452983 0.209450 0.092262 255 220 0
0.353780 0.109349 0.017719 255 220 0
0.410546 0.146802 0.093649 255 220 0
0.466469 0.173430 0.068691 255 220 0
0.459397 0.172128 0.083202 255 220 0
0.357885 0.169904 0.051499 255 220 0
0.472143 0.213442 0.060945 255 220 0
0.347268 0.114427 0.058503 255 220 0
0.400398 0.210236 0.061789 255 220 0
0.342138 0.148860 0.058359 255 220 0
0.458521 0.207142 0.090602 255 220 0
0.369070 0.172320 0.032634 255 220 0
0.463409 0.180916 0.083770 255 220 0
0.339895 0.141145 0.017036 255 220 0
0.410392 0.191358 0.099778 255 220 0
0.460842 0.203628 0.090131 255 220 0
0.396792 0.183713 0.021973 255 220 0
0.418169 0.214770 0.042895 255 220 0
0.348573 0.147228 0.074144 255 220 0
0.363408 0.108096 0.045946 255 220 0
0.452045 0.218116 0.086878 255 220 0
0.358509 0.159098 0.025809 255 220 0
0.339608 0.110172 0.044999 255 220 0
0.440254 0.149804 0.081892 255 220 0
0.437117 0.205659 0.096378 255 220 0
0.387135 0.181915 0.026713 255 220 0
0.377236 0.183567 0.039600 255 220 0
0.390709 0.119692 0.030773 255 220 0
0.389220 0.181052 0.024372 255 220 0
0.433319 0.148370 0.025943 255 220 0
0.410944 0.167006 0.101896 255 220 0
0.404427 0.161435 0.100663 255 220 0
0.396459 0.191336 0.094786 255 220 0
0.443153 0.153452 0.083450 255 220 0
0.420152 0.133929 0.076658 255 220 0
0.399069 0.154304 0.098221 255 220 0
0.392532 0.194475 0.037133 255 220 0
0.342537 0.123569 0.003680 255 220 0
0.368177 0.174367 0.082449 255 220 0
0.343923 0.143823 0.067848 255 220 0
0.456576 0.171488 0.031666 255 220 0
0.467610 0.217661 0.056500 255 220 0
0.418148 0.220130 0.054640 255 220 0
0.473081 0.198070 0.049870 255 220 0
0.425295 0.132250 0.064175 255 220 0
0.416414 0.218580 0.076937 255 220 0
0.415717 0.137996 0.084721 255 220 0
0.422108 0.148508 0.017545 255 220 0
0.356571 0.169331 0.055865 255 220 0
0.425878 0.148071 0.020145 255 220 0
0.406911 0.183543 0.101350 255 220 0
0.390189 0.134376 0.086640 255 220 0
0.388294 0.191104 0.088943 255 220 0
0.342811 0.124310 0.003655 255 220 0
0.457639 0.158169 0.059943 255 220 0
0.374451 0.187447 0.067507 255 220 0
0.448332 0.185972 0.020743 255 220 0
0.407923 0.134340 0.083393 255 220 0
0.471169 0.195339 0.044697 255 220 0
0.362630 0.107794 0.030640 255 220 0
0.389504 0.167598 0.014126 255 220 0
0.395640 0.131557 0.018195 255 220 0
0.458504 0.215413 0.086154 255 220 0
0.391366 0.117628 0.037669 255 220 0
0.369681 0.133564 0.008281 255 220 0
0.402772 0.154084 0.098185 255 220 0
0.395818 0.206201 0.069597 255 220 0
0.393687 0.137928 0.089164 255 220 0
0.334515 0.138921 0.049219 255 220 0
0.427347 0.150361 0.019303 255 220 0
0.358277 0.107178 0.027769 255 220 0
0.385908 0.141145 0.010368 255 220 0
0.442786 0.188988 0.018927 255 220 0
0.360636 0.155520 0.086523 255 220 0
0.472097 0.186288 0.052410 255 220 0
0.418261 0.220019 0.054103 255 220 0
0.436544 0.224716 0.051979 255 220 0
0.362782 0.109008 0.050377 255 220 0
0.385722 0.114478 0.040851 255 220 0
0.405714 0.199308 0.093933 255 220 0
0.326161 0.116989 0.021860 255 220 0
0.370966 0.180118 0.044189 255 220 0
0.325133 0.120363 0.030462 255 220 0
0.337467 0.136072 0.059737 255 220 0
0.438409 0.220187 0.086700 255 220 0
0.396420 0.118111 0.048142 255 220 0
0.364859 0.123780 0.009239 255 220 0
0.389441 0.115874 0.041728 255 220 0
0.408602 0.148655 0.012253 255 220 0
0.363187 0.148547 0.088627 255 220 0
0.433442 0.226277 0.071734 255 220 0
0.351929 0.160600 0.041197 255 220 0
0.405311 0.213641 0.060255 255 220 0
0.350239 0.157866 0.068040 255 220 0
0.367947 0.115894 0.017200 255 220 0
0.375855 0.175315 0.029084 255 220 0
0.331061 0.118296 0.048370 255 220 0
0.397532 0.164090 0.100653 255 220 0
0.374786 0.186920 0.052107 255 220 0
0.363456 0.128978 0.007224 255 220 0
0.443345 0.227385 0.068617 255 220 0
0.429974 0.175398 0.100731 255 220 0
0.431513 0.224615 0.076854 255 220 0
0.420550 0.220838 0.076658 255 220 0
0.438805 0.150423 0.083937 255 220 0
0.450170 0.195176 0.096036 255 220 0
0.471153 0.203939 0.080635 255 220 0
0.397978 0.208401 0.064400 255 220 0
0.452064 0.225013 0.055912 255 220 0
0.451019 0.226680 0.066728 255 220 0
0.375725 0.120208 0.017350 255 220 0
0.389165 0.190403 0.034979 255 220 0
0.394499 0.120219 0.034337 255 220 0
0.381728 0.184760 0.088582 255 220 0
0.373312 0.109960 0.043041 255 220 0
0.401559 0.133698 0.019431 255 220 0
0.471879 0.195660 0.046367 255 220 0
0.436425 0.160231 0.093483 255 220 0
0.450326 0.151311 0.068187 255 220 0
0.350985 0.137723 0.077505 255 220 0
0.409005 0.124190 0.046437 255 220 0
0.373526 0.180158 0.083126 255 220 0
0.334003 0.116653 0.051185 255 220 0
0.364668 0.118427 0.069344 255 220 0
0.393971 0.194367 0.090876 255 220 0
0.390443 0.201721 0.069659 255 220 0
0.412045 0.134862 0.082532 255 220 0
0.398623 0.119127 0.056397 255 220 0
0.346681 0.109574 0.049060 255 220 0
0.353295 0.133334 0.077326 255 220 0
0.469000 0.206789 0.045863 255 220 0
0.337473 0.135254 0.010131 255 220 0
0.362264 0.174747 0.067459 255 220 0
0.336744 0.112033 0.046414 255 220 0
0.335080 0.133206 0.009588 255 220 0
0.411233 0.128073 0.072152 255 220 0
0.469360 0.214802 0.075960 255 220 0
0.402213 0.122347 0.039829 255 220 0
0.374479 0.176464 0.088822 255 220 0
0.455394 0.183463 0.025800 255 220 0
0.436388 0.182789 0.015674 255 220 0
0.346266 0.105564 0.030679 255 220 0
0.414490 0.140267 0.087483 255 220 0
0.420343 0.146541 0.017996 255 220 0
0.458054 0.193200 0.091982 255 220 0
0.340443 0.147931 0.036598 255 220 0
0.378168 0.188411 0.076535 255 220 0
0.419475 0.193832 0.020168 255 220 0
0.341607 0.139814 0.013197 255 220 0
0.436174 0.140082 0.069051 255 220 0
0.403608 0.121239 0.048631 255 220 0
0.459197 0.191545 0.029162 255 220 0
0.472572 0.201314 0.078651 255 220 0
0.403629 0.149076 0.011043 255 220 0
0.406972 0.210626 0.081442 255 220 0
0.360174 0.139689 0.007733 255 220 0
0.406655 0.132781 0.082028 255 220 0
0.371734 0.144046 0.090533 255 220 0
0.374629 0.110373 0.044640 255 220 0
0.424323 0.184393 0.014679 255 220 0
0.473663 0.188410 0.058014 255 220 0
0.385785 0.164952 0.098735 255 220 0
0.429116 0.146406 0.086941 255 220 0
0.363875 0.169775 0.036215 255 220 0
0.379938 0.192866 0.057126 255 220 0
0.352899 0.112337 0.012236 255 220 0
0.412899 0.152464 0.096716 255 220 0
0.392190 0.203785 0.063650 255 220 0
0.449134 0.184217 0.095555 255 220 0
0.420613 0.221563 0.074219 255 220 0
0.418109 0.132850 0.076315 255 220 0
0.390776 0.147632 0.094894 255 220 0
0.421987 0.134350 0.075846 255 220 0
0.451348 0.152452 0.047276 255 220 0
0.400327 0.127119 0.026566 255 220 0
0.452167 0.177290 0.023930 255 220 0
0.441847 0.226712 0.073393 255 220 0
0.403826 0.179969 0.101319 255 220 0
0.375950 0.155071 0.012425 255 220 0
0.368020 0.127215 0.078619 255 220 0
0.475651 0.201626 0.061212 255 220 0
0.466599 0.171862 0.056931 255 220 0
0.388198 0.180712 0.024757 255 220 0
0.402510 0.204568 0.041749 255 220 0
0.396561 0.182812 0.098486 255 220 0
0.383592 0.140803 0.090748 255 220 0
0.445023 0.200343 0.024437 255 220 0
0.414857 0.126623 0.049527 255 220 0
0.377978 0.186466 0.044225 255 220 0
0.401689 0.208559 0.051679 255 220 0
0.434030 0.225772 0.074591 255 220 0
0.450426 0.155451 0.077486 255 220 0
0.325455 0.127439 0.030032 255 220 0
0.349975 0.161526 0.054422 255 220 0
0.459386 0.177067 0.032168 255 220 0
0.408370 0.175133 0.012456 255 220 0
0.449990 0.157014 0.036015 255 220 0
0.455752 0.161965 0.039654 255 220 0
0.410108 0.156168 0.098781 255 220 0
0.465954 0.178042 0.043075 255 220 0
0.381409 0.192760 0.073198 255 220 0
0.335045 0.127125 0.057774 255 220 0
0.430845 0.221028 0.046011 255 220 0
0.387362 0.148956 0.095264 255 220 0
0.446121 0.148628 0.072257 255 220 0
0.456053 0.175384 0.028674 255 220 0
0.379607 0.115063 0.062555 255 220 0
0.436732 0.184319 0.099883 255 220 0
0.430132 0.225843 0.060115 255 220 0
0.439247 0.148639 0.081409 255 220 0
0.405653 0.192634 0.098047 255 220 0
0.429442 0.218644 0.042476 255 220 0
0.336599 0.139506 0.017862 255 220 0
0.337639 0.108339 0.037248 255 220 0
0.398811 0.192732 0.095200 255 220 0
0.382899 0.157697 0.011674 255 220 0
0.390794 0.144765 0.093421 255 220 0
0.356759 0.169697 0.059109 255 220 0
0.400327 0.126072 0.075367 255 220 0
0.474047 0.193143 0.054095 255 220 0
0.358805 0.167236 0.074558 255 220 0
0.440083 0.143294 0.070663 255 220 0
0.454128 0.174214 0.026988 255 220 0
0.359056 0.153276 0.018047 255 220 0
0.423287 0.141937 0.085597 255 220 0
0.471621 0.184168 0.069402 255 220 0
0.416381 0.175267 0.102609 255 220 0
0.362357 0.121264 0.009406 255 220 0
0.374099 0.147842 0.092744 255 220 0
0.392225 0.203364 0.057394 255 220 0
0.367926 0.150461 0.091417 255 220 0
0.444403 0.157791 0.027645 255 220 0
0.469106 0.199325 0.041537 255 220 0
0.356263 0.134882 0.006110 255 220 0
0.330019 0.121800 0.009710 255 220 0
0.356746 0.164526 0.074086 255 220 0
0.431225 0.224562 0.076813 255 220 0
0.368454 0.148088 0.091049 255 220 0
0.365238 0.158543 0.089832 255 220 0
0.408806 0.181951 0.101936 255 220 0
0.411937 0.154184 0.011049 255 220 0
0.373957 0.126590 0.079316 255 220 0
0.396013 0.194525 0.033547 255 220 0
0.363750 0.137460 0.007357 255 220 0
0.469962 0.182876 0.048646 255 220 0
0.364534 0.175649 0.048383 255 220 0
0.375802 0.160381 0.095707 255 220 0
0.434554 0.226912 0.062300 255 220 0
0.374023 0.180926 0.039959 255 220 0
0.427743 0.223488 0.077244 255 220 0
0.449947 0.193100 0.023248 255 220 0
0.464538 0.208828 0.041295 255 220 0
0.354188 0.143724 0.010943 255 220 0
0.411482 0.139051 0.019685 255 220 0
0.345481 0.155822 0.052260 255 220 0
0.347386 0.107093 0.042105 255 220 0
0.336788 0.130907 0.060304 255 220 0
0.412176 0.218183 0.067180 255 220 0
0.425077 0.131742 0.061364 255 220 0
0.437866 0.139719 0.059699 255 220 0
0.343178 0.152594 0.052726 255 220 0
0.374728 0.127148 0.079925 255 220 0
0.465863 0.173436 0.048915 255 220 0
0.399803 0.123670 0.032565 255 220 0
0.369035 0.178506 0.044680 255 220 0
