ply
format ascii 1.0
element vertex 1024
property float x
property float y
property float z
property uchar red
property uchar green
property uchar blue
end_header
0.424719 0.140103 0.026401 255 220 0
0.366529 0.108529 0.045431 255 220 0
0.450787 0.149423 0.057455 255 220 0
0.415914 0.190083 0.019275 255 220 0
0.372423 0.144773 0.090044 255 220 0
0.349389 0.141357 0.011180 255 220 0
0.373120 0.179044 0.084868 255 220 0
0.365639 0.113832 0.017067 255 220 0
0.450862 0.177431 0.093042 255 220 0
0.433101 0.151396 0.088992 255 220 0
0.451806 0.150378 0.056751 255 220 0
0.394873 0.119534 0.063962 255 220 0
0.428835 0.163567 0.013305 255 220 0
0.362575 0.116494 0.011958 255 220 0
0.454969 0.175988 0.089963 255 220 0
0.356948 0.143668 0.082955 255 220 0
0.375113 0.121196 0.073390 255 220 0
0.358915 0.172529 0.061390 255 220 0
0.434261 0.219910 0.043763 255 220 0
0.444509 0.189996 0.019806 255 220 0
0.417032 0.218718 0.075460 255 220 0
0.342999 0.149863 0.060281 255 220 0
0.358699 0.171758 0.064679 255 220 0
0.341052 0.127322 0.065187 255 220 0
0.400102 0.156102 0.009289 255 220 0
0.469244 0.176303 0.067046 255 220 0
0.464616 0.175782 0.039449 255 220 0
0.435529 0.197643 0.021563 255 220 0
0.371512 0.181007 0.078662 255 220 0
0.394217 0.187572 0.027866 255 220 0
0.448332 0.172322 0.092832 255 220 0
0.458532 0.167932 0.035408 255 220 0
0.428630 0.143763 0.084412 255 220 0
0.385079 0.183145 0.092442 255 220 0
0.421648 0.175878 0.012184 255 220 0
0.365210 0.177467 0.050462 255 220 0
0.420837 0.219572 0.050816 255 220 0
0.406984 0.200150 0.032132 255 220 0
0.446614 0.152410 0.079064 255 220 0
0.365903 0.127085 0.007762 255 220 0
0.428431 0.146004 0.022370 255 220 0
0.395722 0.121505 0.031021 255 220 0
0.369969 0.175926 0.084162 255 220 0
0.381290 0.142384 0.009290 255 220 0
0.384603 0.149403 0.009608 255 220 0
0.397726 0.202742 0.083459 255 220 0
0.360157 0.161854 0.028399 255 220 0
0.390147 0.190984 0.090403 255 220 0
0.464421 0.175583 0.078902 255 220 0
0.467922 0.216934 0.074815 255 220 0
0.327476 0.131613 0.033051 255 220 0
0.474176 0.197415 0.050721 255 220 0
0.461235 0.164752 0.045767 255 220 0
0.404473 0.121830 0.045545 255 220 0
0.463361 0.165187 0.053267 255 220 0
0.469387 0.211198 0.050110 255 220 0
0.367827 0.180893 0.053173 255 220 0
0.364167 0.175814 0.048779 255 220 0
0.352754 0.140105 0.008910 255 220 0
0.420415 0.158424 0.011577 255 220 0
0.326763 0.130629 0.030274 255 220 0
0.337119 0.137019 0.013344 255 220 0
0.436562 0.226648 0.067380 255 220 0
0.395718 0.194851 0.035037 255 220 0
0.454229 0.153842 0.048778 255 220 0
0.449398 0.148509 0.061997 255 220 0
0.353253 0.160941 0.038407 255 220 0
0.362566 0.174600 0.070347 255 220 0
0.457533 0.179643 0.089294 255 220 0
0.407543 0.132577 0.023051 255 220 0
0.382005 0.112580 0.045030 255 220 0
0.423064 0.136252 0.078303 255 220 0
0.367017 0.175363 0.041913 255 220 0
0.467309 0.189420 0.036815 255 220 0
0.467894 0.199663 0.038839 255 220 0
0.387793 0.142351 0.091221 255 220 0
0.383501 0.158117 0.096854 255 220 0
0.367159 0.128231 0.078489 255 220 0
0.405613 0.143870 0.012959 255 220 0
0.338478 0.145398 0.034136 255 220 0
0.377532 0.114847 0.025560 255 220 0
0.388054 0.198776 0.073564 255 220 0
0.437150 0.142458 0.038648 255 220 0
0.446393 0.225253 0.055082 255 220 0
0.355456 0.151173 0.018727 255 220 0
0.421439 0.139978 0.084270 255 220 0
0.375690 0.178480 0.033879 255 220 0
0.332367 0.125390 0.053000 255 220 0
0.358685 0.165561 0.077811 255 220 0
0.450390 0.187057 0.021635 255 220 0
0.476303 0.196235 0.061637 255 220 0
0.343698 0.125456 0.066344 255 220 0
0.449531 0.184032 0.095135 255 220 0
0.363499 0.112067 0.058167 255 220 0
0.370414 0.181416 0.075048 255 220 0
0.448091 0.163992 0.088952 255 220 0
0.405311 0.195983 0.095485 255 220 0
0.419200 0.163309 0.010594 255 220 0
0.438534 0.172382 0.097285 255 220 0
0.352492 0.130967 0.004632 255 220 0
0.394269 0.190791 0.093315 255 220 0
0.361676 0.106819 0.036569 255 220 0
0.410366 0.153040 0.010451 255 220 0
0.367311 0.172088 0.084665 255 220 0
0.426192 0.214663 0.038643 255 220 0
0.423497 0.132966 0.040599 255 220 0
0.466218 0.173559 0.046081 255 220 0
0.393355 0.198647 0.084859 255 220 0
0.424762 0.207571 0.030818 255 220 0
0.363234 0.109326 0.050793 255 220 0
0.359596 0.169856 0.072971 255 220 0
0.388032 0.154410 0.010009 255 220 0
0.426113 0.131828 0.054581 255 220 0
0.356785 0.150993 0.083553 255 220 0
0.453976 0.168053 0.086699 255 220 0
0.381446 0.114602 0.059275 255 220 0
0.460172 0.165278 0.073778 255 220 0
0.393351 0.181986 0.023251 255 220 0
0.384942 0.115061 0.034863 255 220 0
0.416433 0.184066 0.015668 255 220 0
0.367891 0.174208 0.083083 255 220 0
0.424801 0.169894 0.011644 255 220 0
0.335991 0.115093 0.007580 255 220 0
0.444811 0.157730 0.086574 255 220 0
0.345908 0.142554 0.014663 255 220 0
0.385366 0.190310 0.040225 255 220 0
0.334637 0.107850 0.024202 255 220 0
0.449813 0.166238 0.089100 255 220 0
0.466679 0.173342 0.070435 255 220 0
0.469264 0.216620 0.072305 255 220 0
0.386201 0.160017 0.097709 255 220 0
0.419377 0.217551 0.047890 255 220 0
0.470805 0.184438 0.045849 255 220 0
0.441585 0.159236 0.089966 255 220 0
0.447408 0.146420 0.055096 255 220 0
0.389526 0.200861 0.069171 255 220 0
0.372095 0.162037 0.019208 255 220 0
0.342922 0.149052 0.061313 255 220 0
0.421341 0.129270 0.053204 255 220 0
0.456352 0.177011 0.089303 255 220 0
0.434853 0.175982 0.099211 255 220 0
0.410370 0.211421 0.082639 255 220 0
0.404946 0.176056 0.101406 255 220 0
0.440075 0.194369 0.098319 255 220 0
0.354402 0.164467 0.044555 255 220 0
0.336688 0.107010 0.023421 255 220 0
0.373529 0.127200 0.010454 255 220 0
0.356062 0.150969 0.082862 255 220 0
0.474874 0.209320 0.066544 255 220 0
0.413038 0.125161 0.052164 255 220 0
0.364358 0.166763 0.085460 255 220 0
0.462743 0.207637 0.038194 255 220 0
0.368881 0.174747 0.083959 255 220 0
0.458582 0.181436 0.089037 255 220 0
0.409901 0.215049 0.073688 255 220 0
0.451594 0.191602 0.023363 255 220 0
0.376657 0.128054 0.080379 255 220 0
0.387011 0.114396 0.044559 255 220 0
0.396277 0.152693 0.009357 255 220 0
0.459407 0.174117 0.031855 255 220 0
0.405265 0.126968 0.030143 255 220 0
0.456676 0.210669 0.089535 255 220 0
0.345250 0.155942 0.052733 255 220 0
0.351805 0.158313 0.035212 255 220 0
0.339719 0.109443 0.012331 255 220 0
0.417906 0.171325 0.101635 255 220 0
0.377942 0.162521 0.095838 255 220 0
0.407477 0.167493 0.101372 255 220 0
0.348765 0.148213 0.020535 255 220 0
0.430260 0.142004 0.081077 255 220 0
0.402597 0.201728 0.089357 255 220 0
0.376845 0.187600 0.075913 255 220 0
0.390349 0.139552 0.011153 255 220 0
0.457752 0.164805 0.078404 255 220 0
0.373571 0.183979 0.076762 255 220 0
0.444970 0.217150 0.088548 255 220 0
0.459604 0.161146 0.066531 255 220 0
0.339301 0.148002 0.045872 255 220 0
0.476450 0.197659 0.062375 255 220 0
0.456075 0.224408 0.072732 255 220 0
0.411371 0.211564 0.045122 255 220 0
0.366538 0.141199 0.086591 255 220 0
0.352500 0.117351 0.006337 255 220 0
0.391343 0.143110 0.010343 255 220 0
0.413507 0.125697 0.049162 255 220 0
0.447086 0.183713 0.096139 255 220 0
0.399393 0.122471 0.033339 255 220 0
0.329817 0.133442 0.040785 255 220 0
0.421417 0.134646 0.032784 255 220 0
0.346059 0.107096 0.017554 255 220 0
0.467235 0.181532 0.039939 255 220 0
0.355902 0.140089 0.008268 255 220 0
0.345283 0.134086 0.006507 255 220 0
0.385856 0.119020 0.025600 255 220 0
0.413184 0.144597 0.091174 255 220 0
0.357102 0.145388 0.011774 255 220 0
0.331394 0.110193 0.032062 255 220 0
0.411626 0.215435 0.075943 255 220 0
0.390292 0.187047 0.030318 255 220 0
0.391149 0.130797 0.015692 255 220 0
0.468693 0.211545 0.080107 255 220 0
0.399132 0.120949 0.037710 255 220 0
0.405749 0.138517 0.016350 255 220 0
0.365350 0.117898 0.068146 255 220 0
0.461983 0.166471 0.071189 255 220 0
0.382138 0.188239 0.085150 255 220 0
0.435693 0.165024 0.015906 255 220 0
0.370650 0.182685 0.050411 255 220 0
0.390970 0.115956 0.044414 255 220 0
0.345516 0.155593 0.045565 255 220 0
0.413983 0.152251 0.095993 255 220 0
0.467478 0.188151 0.082544 255 220 0
0.417940 0.190602 0.019083 255 220 0
0.408038 0.128461 0.030149 255 220 0
0.465140 0.170461 0.069713 255 220 0
0.367883 0.118694 0.013047 255 220 0
0.379967 0.113476 0.056463 255 220 0
0.460609 0.184925 0.088438 255 220 0
0.382224 0.116471 0.064189 255 220 0
0.405806 0.150333 0.095758 255 220 0
0.453738 0.155054 0.069775 255 220 0
0.427878 0.180208 0.013705 255 220 0
0.426865 0.179468 0.101223 255 220 0
0.445771 0.199525 0.024330 255 220 0
0.343468 0.113367 0.053761 255 220 0
0.342122 0.111351 0.049064 255 220 0
0.405578 0.146442 0.011748 255 220 0
0.373304 0.186437 0.054690 255 220 0
0.411949 0.206101 0.035868 255 220 0
0.374680 0.186661 0.051064 255 220 0
0.368772 0.145926 0.089472 255 220 0
0.409755 0.208889 0.042048 255 220 0
0.472287 0.184068 0.069516 255 220 0
0.369138 0.167781 0.089817 255 220 0
0.405905 0.191376 0.098078 255 220 0
0.474061 0.189885 0.070846 255 220 0
0.451645 0.199952 0.094688 255 220 0
0.388513 0.188941 0.034317 255 220 0
0.364304 0.177585 0.053742 255 220 0
0.418602 0.168476 0.010652 255 220 0
0.417298 0.132920 0.031410 255 220 0
0.445514 0.223486 0.050055 255 220 0
0.398775 0.126431 0.024817 255 220 0
0.387013 0.195810 0.048035 255 220 0
0.451151 0.168363 0.025155 255 220 0
0.392174 0.132422 0.015065 255 220 0
0.425290 0.136033 0.035059 255 220 0
0.462076 0.177895 0.084173 255 220 0
0.339891 0.147554 0.037233 255 220 0
0.419947 0.188042 0.017175 255 220 0
0.395593 0.183862 0.097191 255 220 0
0.436754 0.158795 0.092366 255 220 0
0.444281 0.167749 0.093223 255 220 0
0.461368 0.163672 0.066891 255 220 0
0.397131 0.181206 0.098576 255 220 0
0.469958 0.188210 0.079029 255 220 0
0.362937 0.166655 0.032426 255 220 0
0.328764 0.129243 0.013884 255 220 0
0.338939 0.141236 0.019954 255 220 0
0.370838 0.156706 0.092853 255 220 0
0.436592 0.138782 0.063669 255 220 0
0.355802 0.168035 0.050711 255 220 0
0.400095 0.149968 0.095670 255 220 0
0.347450 0.110297 0.011135 255 220 0
0.371105 0.126737 0.078288 255 220 0
0.329879 0.132979 0.041729 255 220 0
0.361873 0.123636 0.073182 255 220 0
0.340406 0.138840 0.064431 255 220 0
0.395413 0.205998 0.061269 255 220 0
0.428284 0.133435 0.062450 255 220 0
0.455885 0.177712 0.089912 255 220 0
0.417349 0.128873 0.042947 255 220 0
0.462704 0.207638 0.087480 255 220 0
0.443252 0.224146 0.051191 255 220 0
0.469427 0.216202 0.057247 255 220 0
0.402992 0.170650 0.101220 255 220 0
0.461666 0.222992 0.069804 255 220 0
0.398160 0.205903 0.077068 255 220 0
0.431856 0.154967 0.017921 255 220 0
0.352078 0.105629 0.035745 255 220 0
0.380527 0.112140 0.042426 255 220 0
0.426743 0.136594 0.035900 255 220 0
0.402637 0.120790 0.057737 255 220 0
0.424062 0.137539 0.030051 255 220 0
0.338224 0.117455 0.005243 255 220 0
0.432844 0.206639 0.028134 255 220 0
0.325307 0.120492 0.023046 255 220 0
0.444699 0.152164 0.032375 255 220 0
0.388039 0.186113 0.092416 255 220 0
0.407935 0.165773 0.101116 255 220 0
0.405847 0.193250 0.025829 255 220 0
0.433357 0.163321 0.096142 255 220 0
0.400668 0.155116 0.097941 255 220 0
0.399104 0.199299 0.037920 255 220 0
0.423544 0.221750 0.053664 255 220 0
0.445904 0.162671 0.023642 255 220 0
0.326346 0.116336 0.032679 255 220 0
0.409725 0.129777 0.076270 255 220 0
0.473047 0.211628 0.059274 255 220 0
0.450817 0.215777 0.039111 255 220 0
0.415916 0.136981 0.023299 255 220 0
0.471964 0.209578 0.076762 255 220 0
0.452448 0.176245 0.023150 255 220 0
0.409453 0.151128 0.010818 255 220 0
0.382394 0.136932 0.087548 255 220 0
0.358656 0.172167 0.055986 255 220 0
0.473731 0.191191 0.050012 255 220 0
0.468554 0.193803 0.038359 255 220 0
0.454452 0.162321 0.034394 255 220 0
0.430676 0.175376 0.013224 255 220 0
0.356338 0.127603 0.004842 255 220 0
0.470430 0.184666 0.075626 255 220 0
0.456413 0.213403 0.039005 255 220 0
0.410325 0.207591 0.039346 255 220 0
0.344136 0.142196 0.069450 255 220 0
0.332434 0.131524 0.010654 255 220 0
0.336168 0.136743 0.056802 255 220 0
0.441962 0.179161 0.016765 255 220 0
0.332100 0.136671 0.021550 255 220 0
0.373100 0.118268 0.016653 255 220 0
0.362259 0.167019 0.034109 255 220 0
0.329216 0.132279 0.040219 255 220 0
0.408797 0.215632 0.063171 255 220 0
0.388808 0.146209 0.093305 255 220 0
0.458395 0.220070 0.080532 255 220 0
0.402072 0.200562 0.090233 255 220 0
0.409642 0.126351 0.037647 255 220 0
0.358685 0.159110 0.083208 255 220 0
0.451875 0.159697 0.081581 255 220 0
0.469789 0.192401 0.081203 255 220 0
0.423078 0.159123 0.097550 255 220 0
0.373633 0.153291 0.012456 255 220 0
0.343036 0.111969 0.051001 255 220 0
0.418938 0.147927 0.092273 255 220 0
0.448978 0.161941 0.086787 255 220 0
0.446187 0.168720 0.092616 255 220 0
0.426626 0.132391 0.061729 255 220 0
0.360546 0.108847 0.022547 255 220 0
0.440491 0.145186 0.075224 255 220 0
0.353640 0.152651 0.022197 255 220 0
0.411160 0.210507 0.084686 255 220 0
0.453010 0.189462 0.094204 255 220 0
0.468955 0.194718 0.039007 255 220 0
0.406756 0.122667 0.047207 255 220 0
0.409489 0.132125 0.079858 255 220 0
0.352228 0.161013 0.069506 255 220 0
0.420806 0.162374 0.099267 255 220 0
0.459331 0.223457 0.072370 255 220 0
0.381437 0.151433 0.010245 255 220 0
0.445999 0.225768 0.074223 255 220 0
0.391551 0.201100 0.051884 255 220 0
0.372097 0.185975 0.061187 255 220 0
0.444459 0.217121 0.039336 255 220 0
0.464712 0.212596 0.083344 255 220 0
0.332446 0.139163 0.035266 255 220 0
0.354987 0.166317 0.047978 255 220 0
0.349479 0.111114 0.010749 255 220 0
0.332845 0.112908 0.012548 255 220 0
0.365983 0.179977 0.058323 255 220 0
0.341450 0.147573 0.059041 255 220 0
0.376656 0.164447 0.095260 255 220 0
0.473246 0.212747 0.066049 255 220 0
0.405333 0.155193 0.098036 255 220 0
0.389142 0.200964 0.064206 255 220 0
0.419362 0.195239 0.098835 255 220 0
0.381863 0.189663 0.082498 255 220 0
0.385713 0.198095 0.063974 255 220 0
0.376530 0.115410 0.063804 255 220 0
0.411873 0.138826 0.086603 255 220 0
0.344142 0.152610 0.039814 255 220 0
0.342155 0.125321 0.003472 255 220 0
0.438199 0.142594 0.040279 255 220 0
0.351558 0.154603 0.075399 255 220 0
0.448706 0.147546 0.058091 255 220 0
0.395380 0.157546 0.098403 255 220 0
0.326087 0.120761 0.017875 255 220 0
0.382240 0.166915 0.017516 255 220 0
0.413572 0.197479 0.096957 255 220 0
0.381899 0.113179 0.037611 255 220 0
0.358562 0.121911 0.006612 255 220 0
0.361645 0.110575 0.019462 255 220 0
0.419780 0.148080 0.015505 255 220 0
0.360437 0.115386 0.063736 255 220 0
0.444174 0.195620 0.021939 255 220 0
0.406707 0.122819 0.060459 255 220 0
0.452869 0.199669 0.094267 255 220 0
0.334223 0.108394 0.021951 255 220 0
0.399622 0.204920 0.047472 255 220 0
0.353723 0.112339 0.057081 255 220 0
0.448240 0.218904 0.042506 255 220 0
0.330371 0.110596 0.029649 255 220 0
0.352628 0.122040 0.068458 255 220 0
0.446644 0.145762 0.058206 255 220 0
0.331988 0.117215 0.009339 255 220 0
0.426262 0.196225 0.098866 255 220 0
0.350286 0.119196 0.064839 255 220 0
0.409092 0.174649 0.101924 255 220 0
0.357800 0.152910 0.019086 255 220 0
0.447464 0.215652 0.038031 255 220 0
0.457245 0.171120 0.085442 255 220 0
0.371863 0.182720 0.075520 255 220 0
0.417618 0.219565 0.073541 255 220 0
0.438418 0.162596 0.093698 255 220 0
0.469634 0.200818 0.041939 255 220 0
0.428952 0.151858 0.091524 255 220 0
0.424710 0.142307 0.023455 255 220 0
0.456541 0.213185 0.038844 255 220 0
0.332282 0.109156 0.028046 255 220 0
0.468263 0.216597 0.074758 255 220 0
0.386636 0.194577 0.046240 255 220 0
0.352609 0.126929 0.072191 255 220 0
0.394597 0.187508 0.027534 255 220 0
0.452720 0.223985 0.076788 255 220 0
0.402899 0.206840 0.046772 255 220 0
0.393015 0.155743 0.097600 255 220 0
0.369024 0.111425 0.055728 255 220 0
0.453959 0.172190 0.026064 255 220 0
0.418552 0.180935 0.101936 255 220 0
0.373932 0.136560 0.008507 255 220 0
0.417585 0.127267 0.054880 255 220 0
0.368304 0.181308 0.068497 255 220 0
0.375223 0.186227 0.048747 255 220 0
0.452014 0.223910 0.053721 255 220 0
0.325281 0.124095 0.029051 255 220 0
0.451637 0.155409 0.038843 255 220 0
0.392749 0.116679 0.044613 255 220 0
0.345703 0.150863 0.030349 255 220 0
0.403290 0.197392 0.031657 255 220 0
0.355909 0.168187 0.050853 255 220 0
0.369957 0.182268 0.071104 255 220 0
0.369976 0.130437 0.080913 255 220 0
0.380420 0.117668 0.067508 255 220 0
0.388850 0.198474 0.077115 255 220 0
0.356651 0.163509 0.037147 255 220 0
0.408873 0.161436 0.009477 255 220 0
0.403524 0.129457 0.024254 255 220 0
0.435588 0.214596 0.036114 255 220 0
0.418444 0.129106 0.044427 255 220 0
0.395234 0.118983 0.037987 255 220 0
0.417450 0.220413 0.067933 255 220 0
0.428843 0.133573 0.060894 255 220 0
0.404489 0.121352 0.049603 255 220 0
0.403653 0.185581 0.099493 255 220 0
0.421187 0.219205 0.079635 255 220 0
0.351586 0.161091 0.042845 255 220 0
0.473425 0.207305 0.054847 255 220 0
0.335690 0.141661 0.029253 255 220 0
0.470199 0.214995 0.073370 255 220 0
0.394973 0.136137 0.013967 255 220 0
0.439019 0.226943 0.065364 255 220 0
0.464568 0.169541 0.047634 255 220 0
0.427009 0.216645 0.086557 255 220 0
0.375733 0.110661 0.039486 255 220 0
0.448598 0.148278 0.048804 255 220 0
0.460562 0.209334 0.037779 255 220 0
0.337913 0.110954 0.010742 255 220 0
0.443461 0.147408 0.038647 255 220 0
0.379577 0.131540 0.010907 255 220 0
0.450923 0.172940 0.022858 255 220 0
0.445189 0.210891 0.032487 255 220 0
0.369761 0.183742 0.059596 255 220 0
0.393161 0.118631 0.035630 255 220 0
0.399270 0.124769 0.028102 255 220 0
0.434396 0.191586 0.099513 255 220 0
0.411349 0.209311 0.086371 255 220 0
0.370581 0.115525 0.064954 255 220 0
0.428202 0.208058 0.030302 255 220 0
0.431173 0.225802 0.064646 255 220 0
0.333932 0.118690 0.006961 255 220 0
0.421221 0.219483 0.079086 255 220 0
0.380859 0.159818 0.096531 255 220 0
0.439099 0.219450 0.086392 255 220 0
0.341581 0.147428 0.059676 255 220 0
0.449241 0.156969 0.081725 255 220 0
0.432795 0.139168 0.039328 255 220 0
0.353957 0.136533 0.078439 255 220 0
0.382374 0.174247 0.023368 255 220 0
0.470176 0.205158 0.081682 255 220 0
0.402728 0.120502 0.051175 255 220 0
0.438313 0.169706 0.016031 255 220 0
0.359105 0.106852 0.028418 255 220 0
0.445044 0.169511 0.019741 255 220 0
0.459570 0.201692 0.090838 255 220 0
0.442079 0.149939 0.031948 255 220 0
0.366657 0.160264 0.090331 255 220 0
0.401091 0.165710 0.010791 255 220 0
0.340612 0.140375 0.064041 255 220 0
0.373423 0.185965 0.052424 255 220 0
0.378775 0.183394 0.086958 255 220 0
0.456731 0.192171 0.092469 255 220 0
0.350435 0.114041 0.058567 255 220 0
0.383963 0.169785 0.097178 255 220 0
0.441568 0.214618 0.035995 255 220 0
0.422257 0.157876 0.012308 255 220 0
0.406288 0.140510 0.089238 255 220 0
0.375482 0.186756 0.074446 255 220 0
0.373785 0.181250 0.041311 255 220 0
0.462287 0.163650 0.062891 255 220 0
0.449340 0.178371 0.094102 255 220 0
0.370602 0.164796 0.022680 255 220 0
0.408816 0.178627 0.101743 255 220 0
0.403826 0.122459 0.040825 255 220 0
0.358067 0.107269 0.025193 255 220 0
0.434480 0.225543 0.073150 255 220 0
0.393703 0.117124 0.044247 255 220 0
0.368448 0.116350 0.066329 255 220 0
0.383978 0.134385 0.011240 255 220 0
0.415198 0.181404 0.101915 255 220 0
0.389869 0.159657 0.011028 255 220 0
0.385796 0.198088 0.058993 255 220 0
0.431507 0.186373 0.015997 255 220 0
0.432404 0.157305 0.017047 255 220 0
0.464281 0.180151 0.082662 255 220 0
0.394216 0.129300 0.081176 255 220 0
0.452313 0.152365 0.046917 255 220 0
0.461208 0.199376 0.031979 255 220 0
0.416031 0.214858 0.082414 255 220 0
0.338374 0.142210 0.057177 255 220 0
0.462765 0.163871 0.055040 255 220 0
0.415666 0.178264 0.013154 255 220 0
0.342251 0.114830 0.055198 255 220 0
0.368366 0.108674 0.043770 255 220 0
0.369031 0.177063 0.080967 255 220 0
0.416223 0.215330 0.081842 255 220 0
0.419680 0.171736 0.101515 255 220 0
0.457323 0.159703 0.070267 255 220 0
0.469667 0.177393 0.067685 255 220 0
0.404244 0.211913 0.071093 255 220 0
0.374951 0.111008 0.050029 255 220 0
0.439655 0.151209 0.084267 255 220 0
0.426899 0.151758 0.016898 255 220 0
0.337693 0.135379 0.010627 255 220 0
0.457737 0.222472 0.053972 255 220 0
0.445915 0.222014 0.082804 255 220 0
0.349843 0.121759 0.003892 255 220 0
0.436969 0.226711 0.062966 255 220 0
0.471159 0.179006 0.062401 255 220 0
0.428885 0.136902 0.073551 255 220 0
0.430642 0.200057 0.097664 255 220 0
0.360317 0.106592 0.037175 255 220 0
0.416191 0.130928 0.034664 255 220 0
0.333874 0.116228 0.049600 255 220 0
0.354824 0.106087 0.027582 255 220 0
0.429372 0.186291 0.015830 255 220 0
0.365520 0.127090 0.007627 255 220 0
0.357734 0.158685 0.026511 255 220 0
0.415327 0.130116 0.035534 255 220 0
0.408086 0.146615 0.012257 255 220 0
0.433836 0.218897 0.086213 255 220 0
0.361852 0.157212 0.021041 255 220 0
0.442635 0.223256 0.081065 255 220 0
0.351537 0.147365 0.078410 255 220 0
0.385867 0.180780 0.027103 255 220 0
0.443578 0.222602 0.047893 255 220 0
0.430978 0.140079 0.034111 255 220 0
0.458819 0.224264 0.068012 255 220 0
0.367595 0.181175 0.055341 255 220 0
0.341213 0.141353 0.017057 255 220 0
0.349349 0.105500 0.034575 255 220 0
0.382034 0.194863 0.058890 255 220 0
0.333099 0.135322 0.015272 255 220 0
0.411384 0.124550 0.058854 255 220 0
0.379011 0.192197 0.064178 255 220 0
0.362536 0.176320 0.063147 255 220 0
0.420153 0.213142 0.039779 255 220 0
0.340523 0.147886 0.035988 255 220 0
0.346859 0.110648 0.010425 255 220 0
0.434163 0.141148 0.036657 255 220 0
0.348240 0.153374 0.069769 255 220 0
0.383650 0.148164 0.093640 255 220 0
0.346942 0.145744 0.018521 255 220 0
0.442033 0.221681 0.046058 255 220 0
0.408452 0.188181 0.020517 255 220 0
0.399868 0.196968 0.033941 255 220 0
0.462814 0.200433 0.088922 255 220 0
0.335711 0.110665 0.041060 255 220 0
0.458737 0.194797 0.091515 255 220 0
0.451500 0.150394 0.051557 255 220 0
0.401625 0.190728 0.025986 255 220 0
0.382304 0.190514 0.045117 255 220 0
0.438444 0.178201 0.015494 255 220 0
0.403341 0.170316 0.101253 255 220 0
0.454561 0.201929 0.028972 255 220 0
0.384542 0.196961 0.065993 255 220 0
0.426030 0.207065 0.029910 255 220 0
0.359250 0.164728 0.034755 255 220 0
0.473826 0.188328 0.052790 255 220 0
0.337020 0.112361 0.046452 255 220 0
0.440423 0.196305 0.097990 255 220 0
0.359282 0.106839 0.041362 255 220 0
0.402415 0.123293 0.035507 255 220 0
0.350451 0.127630 0.071623 255 220 0
0.400263 0.132352 0.018888 255 220 0
0.381601 0.132670 0.011128 255 220 0
0.475401 0.202793 0.072762 255 220 0
0.452242 0.180272 0.022385 255 220 0
0.424637 0.221841 0.076847 255 220 0
0.443114 0.151342 0.031347 255 220 0
0.405747 0.174568 0.101595 255 220 0
0.367911 0.127219 0.008413 255 220 0
0.372207 0.185578 0.066582 255 220 0
0.432906 0.200153 0.097677 255 220 0
0.476209 0.204467 0.065808 255 220 0
0.472842 0.205549 0.051647 255 220 0
0.460261 0.161519 0.065058 255 220 0
0.423664 0.144553 0.020308 255 220 0
0.386694 0.118975 0.067968 255 220 0
0.396227 0.200556 0.085320 255 220 0
0.338885 0.134311 0.008866 255 220 0
0.418107 0.156078 0.097240 255 220 0
0.412409 0.203488 0.032351 255 220 0
0.417269 0.127431 0.050335 255 220 0
0.400902 0.174430 0.014491 255 220 0
0.443387 0.225761 0.074723 255 220 0
0.373840 0.164210 0.020037 255 220 0
0.429591 0.182652 0.100849 255 220 0
0.377548 0.179493 0.033155 255 220 0
0.434919 0.206607 0.095126 255 220 0
0.332753 0.132215 0.051517 255 220 0
0.330756 0.133006 0.015088 255 220 0
0.382493 0.135378 0.086545 255 220 0
0.428432 0.187984 0.016505 255 220 0
0.379146 0.125651 0.013656 255 220 0
0.415439 0.135897 0.024386 255 220 0
0.429255 0.218621 0.085195 255 220 0
0.361132 0.132819 0.006053 255 220 0
0.384157 0.188722 0.039120 255 220 0
0.416295 0.134290 0.079736 255 220 0
0.349751 0.155058 0.071421 255 220 0
0.422204 0.185625 0.015678 255 220 0
0.364718 0.132309 0.080702 255 220 0
0.386750 0.161299 0.012441 255 220 0
0.460101 0.185707 0.028917 255 220 0
0.377055 0.187517 0.076689 255 220 0
0.461856 0.169420 0.040417 255 220 0
0.475632 0.192909 0.067126 255 220 0
0.397185 0.207231 0.067264 255 220 0
0.346007 0.150400 0.028640 255 220 0
0.432320 0.209171 0.030584 255 220 0
0.358029 0.165070 0.077145 255 220 0
0.462509 0.221939 0.058379 255 220 0
0.413725 0.127432 0.067694 255 220 0
0.470988 0.193424 0.079861 255 220 0
0.354969 0.168157 0.057930 255 220 0
0.386963 0.181293 0.026809 255 220 0
0.371200 0.111351 0.027131 255 220 0
0.434392 0.136979 0.053171 255 220 0
0.391361 0.173965 0.018011 255 220 0
0.368495 0.178681 0.045853 255 220 0
0.373249 0.170421 0.026344 255 220 0
0.433598 0.217836 0.087282 255 220 0
0.428503 0.173760 0.100417 255 220 0
0.415508 0.177932 0.102110 255 220 0
0.405691 0.126339 0.032046 255 220 0
0.347612 0.153173 0.068519 255 220 0
0.328869 0.128141 0.043214 255 220 0
0.444403 0.226897 0.063710 255 220 0
0.394314 0.184330 0.024712 255 220 0
0.426930 0.223496 0.055546 255 220 0
0.332388 0.137731 0.043030 255 220 0
0.396884 0.204864 0.051381 255 220 0
0.365734 0.166880 0.086985 255 220 0
0.396006 0.123290 0.072183 255 220 0
0.387313 0.114527 0.050064 255 220 0
0.375551 0.186943 0.049740 255 220 0
0.399381 0.153586 0.097290 255 220 0
0.414650 0.213536 0.045122 255 220 0
0.358372 0.110906 0.055336 255 220 0
0.390619 0.120763 0.069931 255 220 0
0.470374 0.203409 0.081889 255 220 0
0.362058 0.121822 0.071623 255 220 0
0.411746 0.214563 0.050729 255 220 0
0.408711 0.124819 0.041211 255 220 0
0.476445 0.200641 0.062329 255 220 0
0.389368 0.163474 0.098722 255 220 0
0.338772 0.125327 0.004220 255 220 0
0.427421 0.151657 0.092044 255 220 0
0.433224 0.218161 0.041296 255 220 0
0.434205 0.142269 0.034275 255 220 0
0.425278 0.149715 0.091503 255 220 0
0.395506 0.121943 0.029790 255 220 0
0.427823 0.134458 0.044372 255 220 0
0.394442 0.157718 0.098363 255 220 0
0.355352 0.107644 0.046049 255 220 0
0.365902 0.140228 0.007914 255 220 0
0.444224 0.169816 0.019126 255 220 0
0.466025 0.210501 0.083589 255 220 0
0.416196 0.153708 0.011638 255 220 0
0.436185 0.140761 0.041379 255 220 0
0.405476 0.131809 0.080942 255 220 0
0.354595 0.133432 0.077214 255 220 0
0.451549 0.151345 0.065789 255 220 0
0.332667 0.122782 0.053187 255 220 0
0.464200 0.187394 0.033123 255 220 0
0.354192 0.165611 0.048318 255 220 0
0.450509 0.225485 0.058493 255 220 0
0.377563 0.170428 0.023156 255 220 0
0.337172 0.140287 0.020638 255 220 0
0.450925 0.153006 0.041777 255 220 0
0.359082 0.134171 0.005950 255 220 0
0.342744 0.106028 0.021885 255 220 0
0.379690 0.119929 0.019156 255 220 0
0.335205 0.139682 0.023246 255 220 0
0.464928 0.175320 0.077653 255 220 0
0.417553 0.165046 0.010307 255 220 0
0.473693 0.202817 0.076986 255 220 0
0.330979 0.137274 0.035254 255 220 0
0.380659 0.192745 0.070773 255 220 0
0.387606 0.153391 0.096192 255 220 0
0.424545 0.223048 0.072124 255 220 0
0.402739 0.210317 0.054836 255 220 0
0.366120 0.170281 0.084795 255 220 0
0.458319 0.215597 0.042750 255 220 0
0.373777 0.168185 0.093040 255 220 0
0.438631 0.156519 0.089746 255 220 0
0.421068 0.214396 0.041032 255 220 0
0.372065 0.180871 0.080160 255 220 0
0.363929 0.168825 0.083101 255 220 0
0.429685 0.134104 0.052263 255 220 0
0.341136 0.147815 0.033601 255 220 0
0.473367 0.184550 0.058204 255 220 0
0.353515 0.146357 0.080590 255 220 0
0.358835 0.171161 0.067466 255 220 0
0.405414 0.196969 0.029708 255 220 0
0.449730 0.198244 0.095550 255 220 0
0.443843 0.181293 0.097051 255 220 0
0.414561 0.130630 0.074773 255 220 0
0.432892 0.202511 0.024769 255 220 0
0.389804 0.140007 0.089963 255 220 0
0.433199 0.151263 0.088820 255 220 0
0.397959 0.178592 0.018187 255 220 0
0.457560 0.160960 0.042443 255 220 0
0.402745 0.196840 0.031439 255 220 0
0.413049 0.216793 0.054344 255 220 0
0.435589 0.223141 0.080416 255 220 0
0.439321 0.162301 0.018909 255 220 0
0.433247 0.207699 0.029061 255 220 0
0.370076 0.165293 0.023552 255 220 0
0.380657 0.125209 0.078073 255 220 0
0.469381 0.189206 0.080445 255 220 0
0.344210 0.106690 0.038171 255 220 0
0.351501 0.155294 0.029130 255 220 0
0.409629 0.178939 0.014454 255 220 0
0.399031 0.118966 0.049962 255 220 0
0.426601 0.182214 0.014239 255 220 0
0.400062 0.121013 0.063296 255 220 0
0.371181 0.184535 0.055028 255 220 0
0.371534 0.180055 0.080616 255 220 0
0.396760 0.205177 0.052344 255 220 0
0.347235 0.158341 0.056304 255 220 0
0.418394 0.131270 0.072833 255 220 0
0.472882 0.200747 0.048440 255 220 0
0.419456 0.131996 0.073397 255 220 0
0.467072 0.219773 0.061374 255 220 0
0.363760 0.161803 0.087536 255 220 0
0.474386 0.196377 0.074794 255 220 0
0.387961 0.119147 0.067745 255 220 0
0.339922 0.132521 0.006944 255 220 0
0.360238 0.172009 0.049000 255 220 0
0.452949 0.209824 0.091463 255 220 0
0.354080 0.108459 0.018195 255 220 0
0.409298 0.148059 0.094178 255 220 0
0.466430 0.172605 0.069829 255 220 0
0.458911 0.172044 0.084162 255 220 0
0.358350 0.170301 0.049534 255 220 0
0.473094 0.212147 0.060599 255 220 0
0.346472 0.115368 0.058518 255 220 0
0.401307 0.210265 0.059412 255 220 0
0.342008 0.149851 0.056786 255 220 0
0.458488 0.207349 0.090068 255 220 0
0.370129 0.171719 0.030930 255 220 0
0.463072 0.180774 0.084485 255 220 0
0.340833 0.140441 0.015771 255 220 0
0.409818 0.192830 0.098438 255 220 0
0.460755 0.203777 0.089815 255 220 0
0.398365 0.182154 0.020644 255 220 0
0.419709 0.213679 0.040890 255 220 0
0.347944 0.148772 0.072812 255 220 0
0.362849 0.108225 0.046727 255 220 0
0.452337 0.218270 0.085697 255 220 0
0.359521 0.158412 0.024346 255 220 0
0.339131 0.110686 0.044978 255 220 0
0.439391 0.150030 0.083207 255 220 0
0.436900 0.206495 0.095253 255 220 0
0.388540 0.180731 0.025162 255 220 0
0.378300 0.183102 0.037665 255 220 0
0.390801 0.118680 0.031915 255 220 0
0.390676 0.179733 0.022923 255 220 0
0.434076 0.146362 0.027182 255 220 0
0.409841 0.168583 0.101584 255 220 0
0.403257 0.163083 0.100388 255 220 0
0.396039 0.192847 0.093034 255 220 0
0.442312 0.153689 0.084697 255 220 0
0.419151 0.134311 0.078035 255 220 0
0.397837 0.155952 0.098085 255 220 0
0.393869 0.193621 0.035208 255 220 0
0.343528 0.122273 0.003244 255 220 0
0.367812 0.175882 0.080567 255 220 0
0.343417 0.145187 0.066526 255 220 0
0.457593 0.169281 0.032636 255 220 0
0.468775 0.216255 0.055847 255 220 0
0.419445 0.219529 0.052396 255 220 0
0.474062 0.196307 0.050206 255 220 0
0.424626 0.132015 0.065792 255 220 0
0.417028 0.218952 0.074676 255 220 0
0.414559 0.138794 0.085784 255 220 0
0.423121 0.146346 0.018451 255 220 0
0.356898 0.169937 0.053878 255 220 0
0.426804 0.145951 0.021180 255 220 0
0.406143 0.185152 0.100228 255 220 0
0.388922 0.135715 0.087081 255 220 0
0.388047 0.192515 0.086962 255 220 0
0.343817 0.123007 0.003197 255 220 0
0.457570 0.157150 0.061462 255 220 0
0.374772 0.188206 0.065289 255 220 0
0.449952 0.183436 0.020876 255 220 0
0.406740 0.135225 0.084374 255 220 0
0.472251 0.193395 0.045096 255 220 0
0.362516 0.107293 0.031431 255 220 0
0.391004 0.165856 0.013259 255 220 0
0.396325 0.129914 0.019008 255 220 0
0.458760 0.215424 0.085282 255 220 0
0.391216 0.116898 0.038907 255 220 0
0.370712 0.131966 0.008241 255 220 0
0.401535 0.155665 0.098170 255 220 0
0.396423 0.206645 0.067240 255 220 0
0.392412 0.139307 0.089559 255 220 0
0.334468 0.139673 0.047842 255 220 0
0.428340 0.148177 0.020288 255 220 0
0.358238 0.106633 0.028458 255 220 0
0.387013 0.139336 0.010499 255 220 0
0.444521 0.186472 0.018769 255 220 0
0.359795 0.157361 0.085193 255 220 0
0.472779 0.184662 0.053205 255 220 0
0.419572 0.219393 0.051868 255 220 0
0.437996 0.223668 0.050102 255 220 0
0.362111 0.109335 0.051096 255 220 0
0.385421 0.113986 0.042046 255 220 0
0.405466 0.200609 0.092129 255 220 0
0.326503 0.116760 0.021180 255 220 0
0.371833 0.179963 0.042203 255 220 0
0.325288 0.120512 0.029600 255 220 0
0.337055 0.137218 0.058553 255 220 0
0.438753 0.220576 0.085021 255 220 0
0.395968 0.117732 0.049499 255 220 0
0.365678 0.122319 0.009460 255 220 0
0.389139 0.115351 0.042976 255 220 0
0.409781 0.146512 0.012753 255 220 0
0.362150 0.150439 0.087662 255 220 0
0.434346 0.226117 0.069673 255 220 0
0.352522 0.160680 0.039453 255 220 0
0.406328 0.213513 0.057887 255 220 0
0.349992 0.159112 0.066323 255 220 0
0.368379 0.114721 0.017832 255 220 0
0.377071 0.174440 0.027465 255 220 0
0.330646 0.119096 0.047748 255 220 0
0.396418 0.165858 0.100059 255 220 0
0.375548 0.187023 0.049942 255 220 0
0.364435 0.127451 0.007188 255 220 0
0.444355 0.226915 0.066811 255 220 0
0.429054 0.176576 0.100644 255 220 0
0.432236 0.224707 0.074797 255 220 0
0.421213 0.221122 0.074427 255 220 0
0.437894 0.150762 0.085180 255 220 0
0.449754 0.195774 0.095741 255 220 0
0.471345 0.203502 0.080629 255 220 0
0.398777 0.208584 0.062023 255 220 0
0.453396 0.223853 0.054485 255 220 0
0.452067 0.225993 0.065186 255 220 0
0.376231 0.118898 0.018037 255 220 0
0.390488 0.189523 0.033125 255 220 0
0.394494 0.119289 0.035566 255 220 0
0.381374 0.186279 0.086667 255 220 0
0.372868 0.109788 0.044047 255 220 0
0.402246 0.131999 0.020332 255 220 0
0.472918 0.193774 0.046773 255 220 0
0.435423 0.161004 0.094233 255 220 0
0.449888 0.150778 0.069761 255 220 0
0.350074 0.139376 0.076637 255 220 0
0.408711 0.123507 0.047923 255 220 0
0.373249 0.181600 0.081163 255 220 0
0.333472 0.117522 0.050717 255 220 0
0.363619 0.119510 0.069703 255 220 0
0.393726 0.195754 0.088928 255 220 0
0.390964 0.202269 0.067326 255 220 0
0.410894 0.135636 0.083617 255 220 0
0.397947 0.119056 0.057767 255 220 0
0.346070 0.110133 0.049272 255 220 0
0.352304 0.134942 0.076710 255 220 0
0.470268 0.204921 0.045719 255 220 0
0.338502 0.134308 0.009048 255 220 0
0.362350 0.175735 0.065403 255 220 0
0.336263 0.112655 0.046227 255 220 0
0.336087 0.132282 0.008518 255 220 0
0.410257 0.128431 0.073509 255 220 0
0.469898 0.214189 0.075454 255 220 0
0.402083 0.121509 0.041195 255 220 0
0.373963 0.178132 0.087034 255 220 0
0.456813 0.181017 0.026243 255 220 0
0.438103 0.180256 0.015585 255 220 0
0.346117 0.105359 0.031069 255 220 0
0.413296 0.141201 0.088410 255 220 0
0.421306 0.144432 0.018930 255 220 0
0.457714 0.193488 0.092013 255 220 0
0.340935 0.148035 0.035041 255 220 0
0.378240 0.189483 0.074377 255 220 0
0.421280 0.191780 0.019104 255 220 0
0.342631 0.138919 0.012044 255 220 0
0.435504 0.139850 0.070664 255 220 0
0.403197 0.120749 0.050073 255 220 0
0.460670 0.189164 0.029379 255 220 0
0.472770 0.200771 0.078799 255 220 0
0.404855 0.146970 0.011377 255 220 0
0.407307 0.211366 0.079221 255 220 0
0.361344 0.138232 0.007153 255 220 0
0.405483 0.133633 0.083038 255 220 0
0.370549 0.145870 0.090010 255 220 0
0.374145 0.110245 0.045667 255 220 0
0.426106 0.182033 0.014162 255 220 0
0.474220 0.186990 0.058760 255 220 0
0.384750 0.166849 0.097754 255 220 0
0.428046 0.147048 0.088055 255 220 0
0.364783 0.169421 0.034456 255 220 0
0.380664 0.193082 0.054862 255 220 0
0.353418 0.111228 0.012569 255 220 0
0.411668 0.153803 0.097075 255 220 0
0.392926 0.204046 0.061292 255 220 0
0.448523 0.184825 0.095686 255 220 0
0.421362 0.221742 0.071964 255 220 0
0.417099 0.133255 0.077675 255 220 0
0.389520 0.149296 0.094790 255 220 0
0.421017 0.134665 0.077261 255 220 0
0.451545 0.151017 0.048860 255 220 0
0.400679 0.125750 0.027694 255 220 0
0.453525 0.174829 0.024536 255 220 0
0.442705 0.226470 0.071564 255 220 0
0.402992 0.181636 0.100253 255 220 0
0.377268 0.153512 0.011673 255 220 0
0.366865 0.128620 0.078700 255 220 0
0.476365 0.200292 0.061463 255 220 0
0.466875 0.170541 0.058154 255 220 0
0.389637 0.179428 0.023290 255 220 0
0.403898 0.203719 0.039699 255 220 0
0.395870 0.184486 0.097087 255 220 0
0.382331 0.142427 0.090718 255 220 0
0.446812 0.198007 0.023867 255 220 0
0.414516 0.125963 0.051084 255 220 0
0.378961 0.186180 0.042185 255 220 0
0.402862 0.208140 0.049424 255 220 0
0.434840 0.225722 0.072564 255 220 0
0.449794 0.155303 0.078878 255 220 0
0.325757 0.127556 0.028885 255 220 0
0.350198 0.162198 0.052562 255 220 0
0.460494 0.174825 0.032990 255 220 0
0.410051 0.172975 0.011846 255 220 0
0.450606 0.155123 0.037383 255 220 0
0.456353 0.160119 0.040985 255 220 0
0.408889 0.157640 0.098899 255 220 0
0.466755 0.176142 0.044040 255 220 0
0.381660 0.193628 0.070961 255 220 0
0.334521 0.128242 0.056893 255 220 0
0.432406 0.219834 0.044123 255 220 0
0.386122 0.150694 0.095001 255 220 0
0.445515 0.148345 0.073809 255 220 0
0.457233 0.173056 0.029470 255 220 0
0.378684 0.115596 0.063513 255 220 0
0.436004 0.185331 0.099631 255 220 0
0.431370 0.225252 0.057987 255 220 0
0.438377 0.148865 0.082742 255 220 0
0.405157 0.194117 0.096514 255 220 0
0.431062 0.217329 0.040650 255 220 0
0.337483 0.138898 0.016565 255 220 0
0.337356 0.108563 0.037254 255 220 0
0.398404 0.194217 0.093460 255 220 0
0.384285 0.155980 0.011024 255 220 0
0.389526 0.146369 0.093439 255 220 0
0.356997 0.170436 0.057108 255 220 0
0.399226 0.126763 0.076474 255 220 0
0.474809 0.191547 0.054661 255 220 0
0.358541 0.168593 0.072700 255 220 0
0.439425 0.143057 0.072258 255 220 0
0.455336 0.171850 0.027777 255 220 0
0.360184 0.152259 0.016853 255 220 0
0.422175 0.142632 0.086722 255 220 0
0.471763 0.183270 0.070248 255 220 0
0.415412 0.176768 0.102116 255 220 0
0.363124 0.119857 0.009656 255 220 0
0.372920 0.149712 0.092132 255 220 0
0.393136 0.203361 0.055063 255 220 0
0.366841 0.152383 0.090511 255 220 0
0.445283 0.155647 0.028824 255 220 0
0.470359 0.197280 0.041713 255 220 0
0.357391 0.133431 0.005614 255 220 0
0.330807 0.120984 0.008962 255 220 0
0.356445 0.165903 0.072280 255 220 0
0.431948 0.224658 0.074749 255 220 0
0.367334 0.149988 0.090258 255 220 0
0.364355 0.160439 0.088510 255 220 0
0.407989 0.183553 0.100938 255 220 0
0.413256 0.151924 0.011421 255 220 0
0.372766 0.127919 0.079602 255 220 0
0.397453 0.193457 0.031729 255 220 0
0.364887 0.135925 0.006978 255 220 0
0.470690 0.181134 0.049523 255 220 0
0.365196 0.175790 0.046383 255 220 0
0.374775 0.162333 0.094619 255 220 0
0.435746 0.226333 0.060258 255 220 0
0.375028 0.180536 0.038036 255 220 0
0.428435 0.223665 0.075120 255 220 0
0.451629 0.190633 0.023130 255 220 0
0.465982 0.206845 0.040938 255 220 0
0.355345 0.142504 0.010009 255 220 0
0.412258 0.137179 0.020662 255 220 0
0.345662 0.156489 0.050505 255 220 0
0.346930 0.107348 0.042451 255 220 0
0.336261 0.132095 0.059314 255 220 0
0.413072 0.218220 0.064820 255 220 0
0.424480 0.131393 0.062999 255 220 0
0.437463 0.139062 0.061391 255 220 0
0.343285 0.153325 0.051036 255 220 0
0.373529 0.128488 0.080209 255 220 0
0.466406 0.171788 0.050061 255 220 0
0.399913 0.122568 0.033813 255 220 0
0.369858 0.178408 0.042702 255 220 0
