ply
format ascii 1.0
element vertex 1024
property float x
property float y
property float z
property uchar red
property uchar green
property uchar blue
end_header
0.424628 0.139151 0.026799 255 220 0
0.365744 0.108368 0.044969 255 220 0
0.450228 0.148394 0.058262 255 220 0
0.416525 0.189176 0.019171 255 220 0
0.371232 0.144856 0.089435 255 220 0
0.349609 0.141147 0.010186 255 220 0
0.372414 0.179080 0.084039 255 220 0
0.365434 0.113482 0.016558 255 220 0
0.449970 0.176650 0.093654 255 220 0
0.431991 0.150788 0.089454 255 220 0
0.451270 0.149333 0.057570 255 220 0
0.393867 0.119184 0.063943 255 220 0
0.429251 0.162475 0.013621 255 220 0
0.362494 0.116142 0.011376 255 220 0
0.454116 0.175138 0.090660 255 220 0
0.355878 0.143876 0.082070 255 220 0
0.373958 0.121135 0.072994 255 220 0
0.358568 0.172561 0.060349 255 220 0
0.434760 0.218966 0.043788 255 220 0
0.445103 0.188770 0.020229 255 220 0
0.416940 0.218190 0.075171 255 220 0
0.342418 0.150069 0.059101 255 220 0
0.358284 0.171815 0.063638 255 220 0
0.340125 0.127585 0.064124 255 220 0
0.400514 0.155306 0.009128 255 220 0
0.468810 0.175132 0.068008 255 220 0
0.464684 0.174469 0.040335 255 220 0
0.436180 0.196530 0.021768 255 220 0
0.370942 0.181017 0.077792 255 220 0
0.394648 0.186970 0.027378 255 220 0
0.447386 0.171568 0.093431 255 220 0
0.458586 0.166660 0.036236 255 220 0
0.427517 0.143174 0.084845 255 220 0
0.384278 0.183099 0.091804 255 220 0
0.422226 0.174858 0.012284 255 220 0
0.365118 0.177351 0.049505 255 220 0
0.421206 0.218828 0.050596 255 220 0
0.407477 0.199433 0.031793 255 220 0
0.445694 0.151580 0.079770 255 220 0
0.366019 0.126666 0.007169 255 220 0
0.428481 0.144981 0.022796 255 220 0
0.395342 0.120914 0.031011 255 220 0
0.369241 0.175993 0.083297 255 220 0
0.381549 0.141801 0.008876 255 220 0
0.384935 0.148784 0.009207 255 220 0
0.397310 0.202489 0.082922 255 220 0
0.360292 0.161641 0.027460 255 220 0
0.389471 0.190866 0.089805 255 220 0
0.463764 0.174549 0.079778 255 220 0
0.467809 0.215829 0.075475 255 220 0
0.327189 0.131804 0.031716 255 220 0
0.474281 0.196072 0.051633 255 220 0
0.461062 0.163522 0.046665 255 220 0
0.403828 0.121242 0.045691 255 220 0
0.463055 0.163987 0.054200 255 220 0
0.469662 0.209904 0.050840 255 220 0
0.367724 0.180766 0.052241 255 220 0
0.364087 0.175698 0.047815 255 220 0
0.353001 0.139841 0.007986 255 220 0
0.420806 0.157415 0.011773 255 220 0
0.326517 0.130808 0.028933 255 220 0
0.337253 0.136963 0.012153 255 220 0
0.436703 0.225842 0.067398 255 220 0
0.396100 0.194281 0.034526 255 220 0
0.453878 0.152714 0.049620 255 220 0
0.448746 0.147528 0.062785 255 220 0
0.353196 0.160876 0.037345 255 220 0
0.362078 0.174654 0.069358 255 220 0
0.456733 0.178759 0.090013 255 220 0
0.407433 0.131796 0.023184 255 220 0
0.381270 0.112242 0.044826 255 220 0
0.421979 0.135683 0.078686 255 220 0
0.367058 0.175167 0.041006 255 220 0
0.467579 0.188057 0.037658 255 220 0
0.468244 0.198307 0.039623 255 220 0
0.386550 0.142270 0.090911 255 220 0
0.382335 0.158122 0.096357 255 220 0
0.365992 0.128294 0.077898 255 220 0
0.405817 0.143039 0.012981 255 220 0
0.338326 0.145471 0.032909 255 220 0
0.377180 0.114422 0.025262 255 220 0
0.387776 0.198563 0.072878 255 220 0
0.436859 0.141452 0.039255 255 220 0
0.446742 0.224251 0.055292 255 220 0
0.355648 0.150946 0.017776 255 220 0
0.420288 0.139469 0.084597 255 220 0
0.375911 0.178130 0.033111 255 220 0
0.331643 0.125666 0.051794 255 220 0
0.357958 0.165712 0.076810 255 220 0
0.450916 0.185778 0.022186 255 220 0
0.476195 0.194944 0.062594 255 220 0
0.342728 0.125698 0.065343 255 220 0
0.448676 0.183279 0.095676 255 220 0
0.362521 0.112030 0.057623 255 220 0
0.369916 0.181414 0.074156 255 220 0
0.447121 0.163214 0.089605 255 220 0
0.404596 0.195730 0.095132 255 220 0
0.419665 0.162306 0.010735 255 220 0
0.437510 0.171769 0.097702 255 220 0
0.352713 0.130676 0.003767 255 220 0
0.393537 0.190647 0.092794 255 220 0
0.361035 0.106652 0.036031 255 220 0
0.410719 0.152136 0.010499 255 220 0
0.366531 0.172189 0.083777 255 220 0
0.426726 0.213774 0.038557 255 220 0
0.423066 0.132128 0.041020 255 220 0
0.466139 0.172275 0.047010 255 220 0
0.392867 0.198454 0.084269 255 220 0
0.425359 0.206644 0.030755 255 220 0
0.362361 0.109240 0.050264 255 220 0
0.359007 0.169962 0.071958 255 220 0
0.388414 0.153755 0.009637 255 220 0
0.425412 0.131059 0.055055 255 220 0
0.355787 0.151206 0.082615 255 220 0
0.453093 0.167192 0.087433 255 220 0
0.380473 0.114370 0.059044 255 220 0
0.459492 0.164258 0.074647 255 220 0
0.393803 0.181361 0.022787 255 220 0
0.384421 0.114618 0.034697 255 220 0
0.417042 0.183128 0.015615 255 220 0
0.367164 0.174291 0.082191 255 220 0
0.425320 0.168835 0.011843 255 220 0
0.335981 0.115010 0.006518 255 220 0
0.443814 0.156972 0.087209 255 220 0
0.346079 0.142407 0.013596 255 220 0
0.385603 0.189894 0.039553 255 220 0
0.334240 0.107900 0.023162 255 220 0
0.448866 0.165442 0.089769 255 220 0
0.466150 0.172224 0.071369 255 220 0
0.469194 0.215482 0.072992 255 220 0
0.385040 0.159997 0.097249 255 220 0
0.419776 0.216804 0.047657 255 220 0
0.470853 0.183100 0.046789 255 220 0
0.440544 0.158539 0.090531 255 220 0
0.446858 0.145413 0.055862 255 220 0
0.389352 0.200601 0.068499 255 220 0
0.372398 0.161625 0.018489 255 220 0
0.342313 0.149265 0.060138 255 220 0
0.420637 0.128546 0.053608 255 220 0
0.455522 0.176141 0.090019 255 220 0
0.433835 0.175424 0.099536 255 220 0
0.410064 0.211020 0.082276 255 220 0
0.403895 0.175851 0.101181 255 220 0
0.439281 0.193745 0.098615 255 220 0
0.354273 0.164432 0.043489 255 220 0
0.336295 0.107031 0.022425 255 220 0
0.373596 0.126713 0.010000 255 220 0
0.355077 0.151185 0.081911 255 220 0
0.474824 0.208079 0.067385 255 220 0
0.412308 0.124523 0.052443 255 220 0
0.363503 0.166903 0.084553 255 220 0
0.463197 0.206334 0.038828 255 220 0
0.368144 0.174825 0.083082 255 220 0
0.457807 0.180538 0.089763 255 220 0
0.409801 0.214590 0.073293 255 220 0
0.452139 0.190321 0.023904 255 220 0
0.375452 0.128024 0.079964 255 220 0
0.386304 0.113999 0.044434 255 220 0
0.396649 0.151940 0.009148 255 220 0
0.459596 0.172810 0.032658 255 220 0
0.404961 0.126263 0.030271 255 220 0
0.456225 0.209794 0.090027 255 220 0
0.344876 0.156068 0.051555 255 220 0
0.351777 0.158242 0.034142 255 220 0
0.339557 0.109352 0.011376 255 220 0
0.416794 0.170976 0.101680 255 220 0
0.376845 0.162581 0.095209 255 220 0
0.406329 0.167259 0.101251 255 220 0
0.348892 0.148074 0.019481 255 220 0
0.429188 0.141373 0.081553 255 220 0
0.402060 0.201462 0.088915 255 220 0
0.376400 0.187531 0.075096 255 220 0
0.390540 0.138880 0.010924 255 220 0
0.456982 0.163844 0.079230 255 220 0
0.373069 0.183952 0.075910 255 220 0
0.444613 0.216399 0.088781 255 220 0
0.459010 0.160081 0.067419 255 220 0
0.338963 0.148148 0.044640 255 220 0
0.476344 0.196371 0.063326 255 220 0
0.456088 0.223421 0.073123 255 220 0
0.411755 0.210888 0.044784 255 220 0
0.365371 0.141325 0.085899 255 220 0
0.352535 0.117073 0.005565 255 220 0
0.391589 0.142421 0.010109 255 220 0
0.412838 0.125033 0.049446 255 220 0
0.446209 0.182995 0.096637 255 220 0
0.398981 0.121854 0.033389 255 220 0
0.329409 0.133660 0.039479 255 220 0
0.421149 0.133777 0.033157 255 220 0
0.345773 0.106970 0.016731 255 220 0
0.467359 0.180192 0.040834 255 220 0
0.356160 0.139784 0.007402 255 220 0
0.345507 0.133890 0.005488 255 220 0
0.385549 0.118502 0.025426 255 220 0
0.411960 0.144229 0.091316 255 220 0
0.357356 0.145094 0.010894 255 220 0
0.330881 0.110335 0.030945 255 220 0
0.411489 0.214972 0.075577 255 220 0
0.390672 0.186506 0.029761 255 220 0
0.391157 0.130149 0.015538 255 220 0
0.468422 0.210469 0.080816 255 220 0
0.398623 0.120366 0.037765 255 220 0
0.405829 0.137708 0.016411 255 220 0
0.364255 0.117910 0.067595 255 220 0
0.461364 0.165412 0.072083 255 220 0
0.381530 0.188175 0.084424 255 220 0
0.436076 0.163872 0.016337 255 220 0
0.370617 0.182506 0.049518 255 220 0
0.390282 0.115513 0.044351 255 220 0
0.345270 0.155666 0.044396 255 220 0
0.412758 0.151907 0.096097 255 220 0
0.466896 0.187107 0.083390 255 220 0
0.418560 0.189671 0.019013 255 220 0
0.407750 0.127724 0.030318 255 220 0
0.464592 0.169355 0.070639 255 220 0
0.367807 0.118290 0.012548 255 220 0
0.379033 0.113241 0.056212 255 220 0
0.459884 0.184001 0.089179 255 220 0
0.381182 0.116265 0.063958 255 220 0
0.404565 0.150080 0.095724 255 220 0
0.453016 0.154078 0.070596 255 220 0
0.428476 0.179128 0.013890 255 220 0
0.425851 0.179014 0.101377 255 220 0
0.446391 0.198316 0.024710 255 220 0
0.342591 0.113525 0.052840 255 220 0
0.341308 0.111491 0.048133 255 220 0
0.405833 0.145602 0.011752 255 220 0
0.373235 0.186259 0.053820 255 220 0
0.412439 0.205353 0.035579 255 220 0
0.374679 0.186442 0.050219 255 220 0
0.367605 0.146047 0.088788 255 220 0
0.410165 0.208209 0.041698 255 220 0
0.471896 0.182879 0.070480 255 220 0
0.368214 0.167898 0.088991 255 220 0
0.405090 0.191135 0.097766 255 220 0
0.473712 0.188685 0.071803 255 220 0
0.450979 0.199171 0.095160 255 220 0
0.388842 0.188448 0.033714 255 220 0
0.364153 0.177502 0.052767 255 220 0
0.419125 0.167480 0.010747 255 220 0
0.417036 0.132088 0.031719 255 220 0
0.445935 0.222459 0.050263 255 220 0
0.398563 0.125761 0.024830 255 220 0
0.387169 0.195429 0.047355 255 220 0
0.451399 0.167102 0.025846 255 220 0
0.392211 0.131758 0.014918 255 220 0
0.424995 0.135135 0.035493 255 220 0
0.461349 0.176924 0.084989 255 220 0
0.339707 0.147633 0.036017 255 220 0
0.420572 0.187075 0.017160 255 220 0
0.394710 0.183731 0.096741 255 220 0
0.435665 0.158169 0.092844 255 220 0
0.443276 0.167044 0.093779 255 220 0
0.460796 0.162589 0.067794 255 220 0
0.396193 0.181068 0.098172 255 220 0
0.469441 0.187114 0.079921 255 220 0
0.363053 0.166439 0.031504 255 220 0
0.328801 0.129285 0.012592 255 220 0
0.339000 0.141204 0.018767 255 220 0
0.369732 0.156826 0.092133 255 220 0
0.435801 0.137958 0.064287 255 220 0
0.355600 0.168027 0.049646 255 220 0
0.398854 0.149779 0.095534 255 220 0
0.347318 0.110110 0.010316 255 220 0
0.369924 0.126754 0.077780 255 220 0
0.329449 0.133204 0.040427 255 220 0
0.360752 0.123722 0.072526 255 220 0
0.339624 0.139104 0.063278 255 220 0
0.395441 0.205615 0.060672 255 220 0
0.427456 0.132697 0.062952 255 220 0
0.455052 0.176852 0.090614 255 220 0
0.416829 0.128121 0.043282 255 220 0
0.462255 0.206681 0.088104 255 220 0
0.443660 0.223152 0.051352 255 220 0
0.469627 0.214956 0.057943 255 220 0
0.401884 0.170465 0.100995 255 220 0
0.461716 0.221922 0.070308 255 220 0
0.397897 0.205600 0.076518 255 220 0
0.432089 0.153874 0.018350 255 220 0
0.351441 0.105564 0.035039 255 220 0
0.379835 0.111801 0.042197 255 220 0
0.426438 0.135686 0.036357 255 220 0
0.401758 0.120309 0.057853 255 220 0
0.423875 0.136621 0.030453 255 220 0
0.338284 0.117331 0.004207 255 220 0
0.433478 0.205601 0.028228 255 220 0
0.325078 0.120637 0.021749 255 220 0
0.444631 0.151028 0.033057 255 220 0
0.387271 0.186033 0.091812 255 220 0
0.406772 0.165532 0.101015 255 220 0
0.406377 0.192502 0.025517 255 220 0
0.432252 0.162759 0.096526 255 220 0
0.399444 0.154936 0.097780 255 220 0
0.399483 0.198711 0.037440 255 220 0
0.423884 0.220996 0.053478 255 220 0
0.446116 0.161459 0.024276 255 220 0
0.325893 0.116538 0.031428 255 220 0
0.408607 0.129345 0.076452 255 220 0
0.473157 0.210356 0.060067 255 220 0
0.451350 0.214613 0.039471 255 220 0
0.415849 0.136107 0.023556 255 220 0
0.471731 0.208442 0.077546 255 220 0
0.452823 0.174955 0.023812 255 220 0
0.409777 0.150237 0.010862 255 220 0
0.381157 0.136887 0.087176 255 220 0
0.358404 0.172164 0.054943 255 220 0
0.473778 0.189848 0.050959 255 220 0
0.468846 0.192437 0.039194 255 220 0
0.454462 0.161089 0.035186 255 220 0
0.431227 0.174261 0.013494 255 220 0
0.356516 0.127270 0.004070 255 220 0
0.469935 0.183541 0.076552 255 220 0
0.456919 0.212176 0.039483 255 220 0
0.410770 0.206886 0.039017 255 220 0
0.343299 0.142454 0.068342 255 220 0
0.332556 0.131501 0.009415 255 220 0
0.335503 0.137002 0.055587 255 220 0
0.442489 0.177943 0.017216 255 220 0
0.332081 0.136728 0.020267 255 220 0
0.372952 0.117831 0.016252 255 220 0
0.362348 0.166823 0.033173 255 220 0
0.328805 0.132501 0.038910 255 220 0
0.408897 0.215111 0.062753 255 220 0
0.387570 0.146131 0.092987 255 220 0
0.458216 0.219112 0.080994 255 220 0
0.401506 0.200308 0.089790 255 220 0
0.409193 0.125649 0.037859 255 220 0
0.357786 0.159299 0.082250 255 220 0
0.450991 0.158825 0.082334 255 220 0
0.469280 0.191322 0.082063 255 220 0
0.421901 0.158687 0.097774 255 220 0
0.373960 0.152815 0.011826 255 220 0
0.342194 0.112112 0.050082 255 220 0
0.417731 0.147502 0.092498 255 220 0
0.448025 0.161138 0.087470 255 220 0
0.445204 0.167988 0.093200 255 220 0
0.425800 0.131667 0.062208 255 220 0
0.360185 0.108593 0.021977 255 220 0
0.439560 0.144399 0.075868 255 220 0
0.353786 0.152469 0.021202 255 220 0
0.410806 0.210111 0.084343 255 220 0
0.452233 0.188663 0.094772 255 220 0
0.469246 0.193352 0.039844 255 220 0
0.406090 0.122065 0.047389 255 220 0
0.408331 0.131721 0.080019 255 220 0
0.351603 0.161178 0.068419 255 220 0
0.419636 0.161976 0.099426 255 220 0
0.459340 0.222431 0.072827 255 220 0
0.381782 0.150854 0.009771 255 220 0
0.446003 0.224905 0.074419 255 220 0
0.391696 0.200695 0.051250 255 220 0
0.371904 0.185856 0.060297 255 220 0
0.445004 0.216031 0.039570 255 220 0
0.464394 0.211587 0.083972 255 220 0
0.332204 0.139312 0.033970 255 220 0
0.354816 0.166300 0.046910 255 220 0
0.349363 0.110902 0.009962 255 220 0
0.332720 0.112896 0.011443 255 220 0
0.365776 0.179907 0.057361 255 220 0
0.340866 0.147788 0.057849 255 220 0
0.375592 0.164518 0.094593 255 220 0
0.473246 0.211521 0.066837 255 220 0
0.404106 0.154961 0.097960 255 220 0
0.389060 0.200673 0.063527 255 220 0
0.418573 0.194851 0.098744 255 220 0
0.381319 0.189583 0.081758 255 220 0
0.385604 0.197842 0.063252 255 220 0
0.375484 0.115266 0.063476 255 220 0
0.410668 0.138441 0.086761 255 220 0
0.343967 0.152658 0.038641 255 220 0
0.342335 0.125139 0.002456 255 220 0
0.437880 0.141588 0.040904 255 220 0
0.350752 0.154818 0.074342 255 220 0
0.448114 0.146546 0.058873 255 220 0
0.394175 0.157428 0.098128 255 220 0
0.325956 0.120862 0.016591 255 220 0
0.382628 0.166377 0.016951 255 220 0
0.412845 0.197142 0.096745 255 220 0
0.381307 0.112790 0.037401 255 220 0
0.358643 0.121567 0.005920 255 220 0
0.361360 0.110287 0.018902 255 220 0
0.419981 0.147106 0.015759 255 220 0
0.359396 0.115422 0.063111 255 220 0
0.444793 0.194413 0.022316 255 220 0
0.405800 0.122311 0.060636 255 220 0
0.452207 0.198871 0.094763 255 220 0
0.333874 0.108433 0.020900 255 220 0
0.399890 0.204393 0.046962 255 220 0
0.352770 0.112404 0.056355 255 220 0
0.448747 0.217793 0.042796 255 220 0
0.329907 0.110732 0.028511 255 220 0
0.351578 0.122197 0.067644 255 220 0
0.446030 0.144786 0.058962 255 220 0
0.331971 0.117189 0.008189 255 220 0
0.425483 0.195759 0.098895 255 220 0
0.349271 0.119354 0.064002 255 220 0
0.408015 0.174400 0.101784 255 220 0
0.358005 0.152659 0.018166 255 220 0
0.448016 0.214519 0.038330 255 220 0
0.456419 0.170214 0.086215 255 220 0
0.371370 0.182704 0.074645 255 220 0
0.417570 0.219017 0.073257 255 220 0
0.437348 0.161961 0.094182 255 220 0
0.469940 0.199464 0.042746 255 220 0
0.427801 0.151315 0.091907 255 220 0
0.424698 0.141334 0.023838 255 220 0
0.457048 0.211955 0.039326 255 220 0
0.331831 0.109260 0.026953 255 220 0
0.468148 0.215487 0.075426 255 220 0
0.386811 0.194188 0.045562 255 220 0
0.351546 0.127112 0.071342 255 220 0
0.395033 0.186899 0.027054 255 220 0
0.452655 0.223064 0.077120 255 220 0
0.403201 0.206271 0.046309 255 220 0
0.391805 0.155647 0.097294 255 220 0
0.368082 0.111309 0.055290 255 220 0
0.454233 0.170904 0.026780 255 220 0
0.417544 0.180580 0.101927 255 220 0
0.374141 0.136055 0.007997 255 220 0
0.416828 0.126596 0.055228 255 220 0
0.367924 0.181283 0.067567 255 220 0
0.375260 0.185986 0.047915 255 220 0
0.452372 0.222835 0.054044 255 220 0
0.324983 0.124283 0.027728 255 220 0
0.451487 0.154240 0.039629 255 220 0
0.392066 0.116217 0.044578 255 220 0
0.345681 0.150828 0.029218 255 220 0
0.403761 0.196713 0.031269 255 220 0
0.355707 0.168179 0.049788 255 220 0
0.369540 0.182243 0.070198 255 220 0
0.368789 0.130485 0.080358 255 220 0
0.379331 0.117506 0.067235 255 220 0
0.388503 0.198277 0.076445 255 220 0
0.356646 0.163397 0.036130 255 220 0
0.409339 0.160542 0.009441 255 220 0
0.403357 0.128730 0.024335 255 220 0
0.436165 0.213583 0.036202 255 220 0
0.417900 0.128352 0.044781 255 220 0
0.394697 0.118446 0.037983 255 220 0
0.417515 0.219827 0.067641 255 220 0
0.428046 0.132817 0.061405 255 220 0
0.403764 0.120792 0.049751 255 220 0
0.402746 0.185376 0.099179 255 220 0
0.421023 0.218660 0.079418 255 220 0
0.351451 0.161076 0.041750 255 220 0
0.473568 0.205998 0.055677 255 220 0
0.335586 0.141732 0.028002 255 220 0
0.470090 0.213854 0.074085 255 220 0
0.395072 0.135433 0.013846 255 220 0
0.439201 0.226096 0.065425 255 220 0
0.464415 0.168287 0.048560 255 220 0
0.426687 0.216083 0.086464 255 220 0
0.375079 0.110356 0.039180 255 220 0
0.448185 0.147214 0.049581 255 220 0
0.461044 0.208052 0.038362 255 220 0
0.337797 0.110873 0.009744 255 220 0
0.443225 0.146330 0.039338 255 220 0
0.379683 0.130989 0.010535 255 220 0
0.451265 0.171665 0.023515 255 220 0
0.445788 0.209745 0.032777 255 220 0
0.369573 0.183638 0.058678 255 220 0
0.392665 0.118101 0.035591 255 220 0
0.398980 0.124117 0.028136 255 220 0
0.433551 0.191034 0.099724 255 220 0
0.410951 0.208924 0.086039 255 220 0
0.369517 0.115456 0.064516 255 220 0
0.428813 0.207088 0.030299 255 220 0
0.431356 0.225038 0.064571 255 220 0
0.333975 0.118626 0.005837 255 220 0
0.421071 0.218934 0.078868 255 220 0
0.379718 0.159851 0.095973 255 220 0
0.438810 0.218750 0.086502 255 220 0
0.340984 0.147645 0.058487 255 220 0
0.448324 0.156128 0.082448 255 220 0
0.432455 0.138216 0.039877 255 220 0
0.352889 0.136743 0.077549 255 220 0
0.382738 0.173748 0.022754 255 220 0
0.469803 0.204076 0.082462 255 220 0
0.401965 0.119973 0.051296 255 220 0
0.438747 0.168526 0.016478 255 220 0
0.358614 0.106656 0.027835 255 220 0
0.445406 0.168281 0.020313 255 220 0
0.458992 0.200795 0.091445 255 220 0
0.441995 0.148829 0.032597 255 220 0
0.365638 0.160413 0.089510 255 220 0
0.401584 0.164912 0.010582 255 220 0
0.339855 0.140634 0.062882 255 220 0
0.373390 0.185769 0.051560 255 220 0
0.378079 0.183381 0.086203 255 220 0
0.456016 0.191317 0.093087 255 220 0
0.349476 0.114154 0.057769 255 220 0
0.382924 0.169786 0.096609 255 220 0
0.442147 0.213537 0.036193 255 220 0
0.422628 0.156851 0.012541 255 220 0
0.405055 0.140207 0.089282 255 220 0
0.375054 0.186692 0.073610 255 220 0
0.373902 0.180973 0.040488 255 220 0
0.461788 0.162529 0.063812 255 220 0
0.448439 0.177614 0.094678 255 220 0
0.370874 0.164426 0.021914 255 220 0
0.407787 0.178380 0.101571 255 220 0
0.403275 0.121846 0.040955 255 220 0
0.357640 0.107062 0.024588 255 220 0
0.434504 0.224802 0.073136 255 220 0
0.393031 0.116649 0.044227 255 220 0
0.367369 0.116314 0.065845 255 220 0
0.384110 0.133786 0.010930 255 220 0
0.414197 0.181085 0.101842 255 220 0
0.390291 0.158988 0.010654 255 220 0
0.385778 0.197798 0.058273 255 220 0
0.432132 0.185267 0.016206 255 220 0
0.432679 0.156199 0.017471 255 220 0
0.463607 0.179145 0.083503 255 220 0
0.393006 0.129077 0.081075 255 220 0
0.451980 0.151246 0.047734 255 220 0
0.461682 0.198047 0.032643 255 220 0
0.415768 0.214391 0.082132 255 220 0
0.337764 0.142446 0.055966 255 220 0
0.462412 0.162690 0.055970 255 220 0
0.416255 0.177317 0.013128 255 220 0
0.341365 0.115011 0.054245 255 220 0
0.367612 0.108481 0.043341 255 220 0
0.368374 0.177118 0.080078 255 220 0
0.415976 0.214857 0.081559 255 220 0
0.418575 0.171365 0.101589 255 220 0
0.456644 0.158690 0.071122 255 220 0
0.469234 0.176221 0.068647 255 220 0
0.404158 0.211499 0.070616 255 220 0
0.374108 0.110785 0.049704 255 220 0
0.438627 0.150494 0.084852 255 220 0
0.427115 0.150714 0.017258 255 220 0
0.337858 0.135297 0.009458 255 220 0
0.458072 0.221334 0.054411 255 220 0
0.445719 0.221212 0.083023 255 220 0
0.349973 0.121494 0.003041 255 220 0
0.437192 0.225870 0.062991 255 220 0
0.470841 0.177781 0.063381 255 220 0
0.427893 0.136234 0.074038 255 220 0
0.429928 0.199534 0.097748 255 220 0
0.359663 0.106444 0.036614 255 220 0
0.415847 0.130131 0.034966 255 220 0
0.333108 0.116464 0.048484 255 220 0
0.354341 0.105934 0.026925 255 220 0
0.430000 0.185209 0.016000 255 220 0
0.365639 0.126675 0.007027 255 220 0
0.357868 0.158486 0.025549 255 220 0
0.414958 0.129335 0.035825 255 220 0
0.408333 0.145750 0.012307 255 220 0
0.433545 0.218255 0.086229 255 220 0
0.362069 0.156929 0.020167 255 220 0
0.442486 0.222479 0.081215 255 220 0
0.350594 0.147602 0.077401 255 220 0
0.386236 0.180267 0.026508 255 220 0
0.444029 0.221581 0.048071 255 220 0
0.430744 0.139110 0.034622 255 220 0
0.458917 0.223213 0.068456 255 220 0
0.367455 0.181066 0.054402 255 220 0
0.341328 0.141275 0.015911 255 220 0
0.348732 0.105457 0.033820 255 220 0
0.381982 0.194615 0.058123 255 220 0
0.333179 0.135324 0.014018 255 220 0
0.410525 0.123977 0.059105 255 220 0
0.378832 0.192021 0.063372 255 220 0
0.362199 0.176323 0.062146 255 220 0
0.420651 0.212329 0.039592 255 220 0
0.340365 0.147948 0.034781 255 220 0
0.346744 0.110463 0.009594 255 220 0
0.433894 0.140162 0.037219 255 220 0
0.347524 0.153586 0.068660 255 220 0
0.382429 0.148146 0.093213 255 220 0
0.347078 0.145612 0.017450 255 220 0
0.442507 0.220664 0.046214 255 220 0
0.409020 0.187367 0.020289 255 220 0
0.400293 0.196344 0.033492 255 220 0
0.462256 0.199485 0.089597 255 220 0
0.335038 0.110821 0.040017 255 220 0
0.458068 0.193914 0.092153 255 220 0
0.451060 0.149316 0.052372 255 220 0
0.402124 0.190028 0.025614 255 220 0
0.382455 0.190167 0.044387 255 220 0
0.438984 0.177014 0.015886 255 220 0
0.402228 0.170128 0.101037 255 220 0
0.455121 0.200654 0.029497 255 220 0
0.384384 0.196735 0.065256 255 220 0
0.426638 0.206117 0.029875 255 220 0
0.359302 0.164570 0.033778 255 220 0
0.473790 0.187004 0.053757 255 220 0
0.336267 0.112540 0.045421 255 220 0
0.439658 0.195674 0.098279 255 220 0
0.358554 0.106732 0.040779 255 220 0
0.401972 0.122657 0.035607 255 220 0
0.349407 0.127833 0.070730 255 220 0
0.400228 0.131624 0.018890 255 220 0
0.381716 0.132098 0.010786 255 220 0
0.475163 0.201591 0.073656 255 220 0
0.452676 0.178978 0.023016 255 220 0
0.424553 0.221237 0.076676 255 220 0
0.443057 0.150217 0.032005 255 220 0
0.404676 0.174354 0.101394 255 220 0
0.368017 0.126781 0.007856 255 220 0
0.371911 0.185495 0.065696 255 220 0
0.432192 0.199604 0.097803 255 220 0
0.476118 0.203206 0.066707 255 220 0
0.473023 0.204227 0.052479 255 220 0
0.459698 0.160437 0.065956 255 220 0
0.423736 0.143570 0.020657 255 220 0
0.385611 0.118745 0.067802 255 220 0
0.395752 0.200333 0.084770 255 220 0
0.339070 0.134203 0.007727 255 220 0
0.416902 0.155697 0.097393 255 220 0
0.412935 0.202710 0.032089 255 220 0
0.416597 0.126732 0.050677 255 220 0
0.401426 0.173660 0.014218 255 220 0
0.443382 0.224930 0.074871 255 220 0
0.374152 0.163784 0.019335 255 220 0
0.428620 0.182164 0.101032 255 220 0
0.377794 0.179116 0.032414 255 220 0
0.434324 0.206017 0.095245 255 220 0
0.332134 0.132476 0.050271 255 220 0
0.330814 0.133033 0.013807 255 220 0
0.381257 0.135324 0.086186 255 220 0
0.429067 0.186917 0.016647 255 220 0
0.379135 0.125124 0.013316 255 220 0
0.415340 0.135036 0.024641 255 220 0
0.428981 0.218024 0.085129 255 220 0
0.361347 0.132441 0.005334 255 220 0
0.384397 0.188312 0.038437 255 220 0
0.415163 0.133808 0.080008 255 220 0
0.349023 0.155265 0.070328 255 220 0
0.422829 0.184623 0.015720 255 220 0
0.363558 0.132414 0.080038 255 220 0
0.387166 0.160675 0.011998 255 220 0
0.460476 0.184370 0.029654 255 220 0
0.376594 0.187451 0.075876 255 220 0
0.461834 0.168146 0.041295 255 220 0
0.475385 0.191665 0.068092 255 220 0
0.397116 0.206871 0.066689 255 220 0
0.346011 0.150349 0.027518 255 220 0
0.432938 0.208156 0.030650 255 220 0
0.357309 0.165223 0.076136 255 220 0
0.462756 0.220779 0.058908 255 220 0
0.412736 0.126894 0.067967 255 220 0
0.470515 0.192322 0.080736 255 220 0
0.354636 0.168209 0.056847 255 220 0
0.387343 0.180765 0.026231 255 220 0
0.370781 0.111009 0.026739 255 220 0
0.433773 0.136106 0.053763 255 220 0
0.391817 0.173327 0.017565 255 220 0
0.368500 0.178496 0.044949 255 220 0
0.373517 0.170046 0.025588 255 220 0
0.433275 0.217204 0.087302 255 220 0
0.427439 0.173283 0.100641 255 220 0
0.414464 0.177612 0.102066 255 220 0
0.405345 0.125642 0.032186 255 220 0
0.346916 0.153384 0.067401 255 220 0
0.328357 0.128388 0.041926 255 220 0
0.444613 0.225977 0.063871 255 220 0
0.394765 0.183704 0.024249 255 220 0
0.427255 0.222716 0.055410 255 220 0
0.331988 0.137936 0.041741 255 220 0
0.397080 0.204395 0.050820 255 220 0
0.364853 0.167015 0.086103 255 220 0
0.394892 0.122984 0.072158 255 220 0
0.386506 0.114164 0.049943 255 220 0
0.375578 0.186705 0.048909 255 220 0
0.398151 0.153416 0.097116 255 220 0
0.415055 0.212822 0.044830 255 220 0
0.357434 0.110906 0.054706 255 220 0
0.389519 0.120503 0.069824 255 220 0
0.469977 0.202327 0.082684 255 220 0
0.360946 0.121895 0.070983 255 220 0
0.412061 0.213922 0.050376 255 220 0
0.408179 0.124153 0.041415 255 220 0
0.476374 0.199354 0.063259 255 220 0
0.388227 0.163426 0.098296 255 220 0
0.338940 0.125188 0.003141 255 220 0
0.426259 0.151135 0.092400 255 220 0
0.433748 0.217211 0.041315 255 220 0
0.433993 0.141265 0.034830 255 220 0
0.424105 0.149213 0.091833 255 220 0
0.395154 0.121346 0.029773 255 220 0
0.427339 0.133598 0.044861 255 220 0
0.393241 0.157611 0.098069 255 220 0
0.354548 0.107614 0.045387 255 220 0
0.366165 0.139809 0.007232 255 220 0
0.444600 0.168591 0.019681 255 220 0
0.465679 0.209479 0.084255 255 220 0
0.416533 0.152747 0.011789 255 220 0
0.435825 0.139785 0.041980 255 220 0
0.404296 0.131458 0.081031 255 220 0
0.353514 0.133627 0.076356 255 220 0
0.450859 0.150367 0.066596 255 220 0
0.331910 0.123056 0.052003 255 220 0
0.464516 0.186040 0.033923 255 220 0
0.354007 0.165605 0.047240 255 220 0
0.450797 0.224460 0.058777 255 220 0
0.377888 0.169982 0.022479 255 220 0
0.337209 0.140281 0.019425 255 220 0
0.450694 0.151865 0.042566 255 220 0
0.359314 0.133815 0.005184 255 220 0
0.342368 0.105971 0.021007 255 220 0
0.379513 0.119435 0.018864 255 220 0
0.335188 0.139716 0.022000 255 220 0
0.464291 0.174272 0.078540 255 220 0
0.418043 0.164059 0.010405 255 220 0
0.473379 0.201663 0.077847 255 220 0
0.330716 0.137440 0.033944 255 220 0
0.380365 0.192596 0.069992 255 220 0
0.386397 0.153346 0.095802 255 220 0
0.424561 0.222412 0.071944 255 220 0
0.402932 0.209806 0.054345 255 220 0
0.365317 0.170396 0.083898 255 220 0
0.458781 0.214375 0.043248 255 220 0
0.372797 0.168272 0.092296 255 220 0
0.437563 0.155854 0.090276 255 220 0
0.421556 0.213581 0.040854 255 220 0
0.371466 0.180886 0.079301 255 220 0
0.363141 0.168953 0.082173 255 220 0
0.429052 0.133278 0.052787 255 220 0
0.341021 0.147855 0.032406 255 220 0
0.473189 0.183270 0.059187 255 220 0
0.352520 0.146587 0.079624 255 220 0
0.358361 0.171236 0.066432 255 220 0
0.405915 0.196253 0.029362 255 220 0
0.449029 0.197491 0.095998 255 220 0
0.442922 0.180618 0.097506 255 220 0
0.413478 0.130133 0.075038 255 220 0
0.433541 0.201450 0.024892 255 220 0
0.388556 0.139895 0.089706 255 220 0
0.432091 0.150653 0.089285 255 220 0
0.398464 0.177881 0.017832 255 220 0
0.457406 0.159749 0.043300 255 220 0
0.403213 0.196166 0.031045 255 220 0
0.413323 0.216162 0.053999 255 220 0
0.435452 0.222439 0.080438 255 220 0
0.439617 0.161130 0.019425 255 220 0
0.433876 0.206663 0.029154 255 220 0
0.370338 0.164935 0.022773 255 220 0
0.379461 0.125117 0.077751 255 220 0
0.468849 0.188126 0.081319 255 220 0
0.343542 0.106730 0.037312 255 220 0
0.351551 0.155184 0.028076 255 220 0
0.410204 0.178070 0.014311 255 220 0
0.398274 0.118471 0.050026 255 220 0
0.427213 0.181151 0.014387 255 220 0
0.399084 0.120599 0.063363 255 220 0
0.371084 0.184383 0.054132 255 220 0
0.370917 0.180079 0.079753 255 220 0
0.396942 0.204717 0.051778 255 220 0
0.346823 0.158470 0.055145 255 220 0
0.417354 0.130716 0.073165 255 220 0
0.473068 0.199402 0.049306 255 220 0
0.418414 0.131434 0.073743 255 220 0
0.467239 0.218582 0.062001 255 220 0
0.362811 0.161965 0.086652 255 220 0
0.474039 0.195200 0.075712 255 220 0
0.386883 0.118901 0.067601 255 220 0
0.340121 0.132388 0.005837 255 220 0
0.360112 0.171940 0.047989 255 220 0
0.452454 0.209005 0.091892 255 220 0
0.353796 0.108248 0.017510 255 220 0
0.408060 0.147756 0.094224 255 220 0
0.465905 0.171485 0.070764 255 220 0
0.458118 0.171110 0.084960 255 220 0
0.358195 0.170257 0.048500 255 220 0
0.473187 0.210884 0.061389 255 220 0
0.345530 0.115525 0.057638 255 220 0
0.401416 0.209802 0.058894 255 220 0
0.341491 0.150043 0.055589 255 220 0
0.457990 0.206457 0.090616 255 220 0
0.370328 0.171411 0.030107 255 220 0
0.462372 0.179795 0.085299 255 220 0
0.340961 0.140359 0.014625 255 220 0
0.409012 0.192547 0.098188 255 220 0
0.460220 0.202859 0.090429 255 220 0
0.398865 0.181455 0.020271 255 220 0
0.420192 0.212879 0.040691 255 220 0
0.347120 0.149010 0.071729 255 220 0
0.362037 0.108116 0.046199 255 220 0
0.452044 0.217416 0.086058 255 220 0
0.359692 0.158178 0.023420 255 220 0
0.338385 0.110830 0.043997 255 220 0
0.438369 0.149311 0.083795 255 220 0
0.436301 0.205883 0.095409 255 220 0
0.388944 0.180174 0.024617 255 220 0
0.378504 0.182748 0.036913 255 220 0
0.390374 0.118151 0.031833 255 220 0
0.391109 0.179136 0.022425 255 220 0
0.434040 0.145309 0.027709 255 220 0
0.408701 0.168324 0.101499 255 220 0
0.402078 0.162890 0.100220 255 220 0
0.395336 0.192682 0.092531 255 220 0
0.441305 0.152947 0.085315 255 220 0
0.418050 0.133785 0.078359 255 220 0
0.396620 0.155804 0.097866 255 220 0
0.394234 0.193074 0.034671 255 220 0
0.343678 0.122074 0.002273 255 220 0
0.367150 0.175948 0.079663 255 220 0
0.342668 0.145432 0.065385 255 220 0
0.457713 0.168000 0.033438 255 220 0
0.469002 0.215007 0.056530 255 220 0
0.419784 0.218812 0.052150 255 220 0
0.474164 0.194962 0.051124 255 220 0
0.423721 0.131341 0.066236 255 220 0
0.416953 0.218419 0.074385 255 220 0
0.413368 0.138373 0.085991 255 220 0
0.423248 0.145355 0.018778 255 220 0
0.356660 0.169939 0.052819 255 220 0
0.426875 0.144939 0.021577 255 220 0
0.405217 0.184923 0.099963 255 220 0
0.387678 0.135593 0.086838 255 220 0
0.387452 0.192396 0.086315 255 220 0
0.343976 0.122805 0.002227 255 220 0
0.457024 0.156072 0.062341 255 220 0
0.374528 0.188085 0.064432 255 220 0
0.450451 0.182158 0.021443 255 220 0
0.405536 0.134883 0.084463 255 220 0
0.472414 0.192035 0.046001 255 220 0
0.361974 0.107079 0.030907 255 220 0
0.391455 0.165189 0.012863 255 220 0
0.396261 0.129231 0.018953 255 220 0
0.458441 0.214495 0.085781 255 220 0
0.390640 0.116413 0.038844 255 220 0
0.370875 0.131495 0.007703 255 220 0
0.400313 0.155476 0.098021 255 220 0
0.396349 0.206292 0.066656 255 220 0
0.391163 0.139163 0.089355 255 220 0
0.334001 0.139888 0.046577 255 220 0
0.428453 0.147141 0.020698 255 220 0
0.357744 0.106448 0.027860 255 220 0
0.387214 0.138697 0.010211 255 220 0
0.445094 0.185239 0.019216 255 220 0
0.358839 0.157552 0.084267 255 220 0
0.472694 0.183353 0.054177 255 220 0
0.419920 0.218671 0.051625 255 220 0
0.438420 0.222726 0.050170 255 220 0
0.361232 0.109264 0.050546 255 220 0
0.384756 0.113589 0.041895 255 220 0
0.404865 0.200330 0.091747 255 220 0
0.326265 0.116879 0.019930 255 220 0
0.371920 0.179714 0.041352 255 220 0
0.324939 0.120704 0.028300 255 220 0
0.336363 0.137479 0.057351 255 220 0
0.438502 0.219870 0.085117 255 220 0
0.395207 0.117268 0.049515 255 220 0
0.365709 0.121914 0.008896 255 220 0
0.388471 0.114919 0.042884 255 220 0
0.410018 0.145631 0.012834 255 220 0
0.361069 0.150621 0.086826 255 220 0
0.434440 0.225353 0.069653 255 220 0
0.352444 0.160631 0.038379 255 220 0
0.406501 0.212983 0.057440 255 220 0
0.349404 0.159280 0.065208 255 220 0
0.368169 0.114346 0.017367 255 220 0
0.377364 0.174029 0.026751 255 220 0
0.329947 0.119355 0.046554 255 220 0
0.395278 0.165740 0.099746 255 220 0
0.375572 0.186786 0.049110 255 220 0
0.364566 0.127044 0.006566 255 220 0
0.444509 0.226018 0.066971 255 220 0
0.428018 0.176094 0.100859 255 220 0
0.432221 0.224002 0.074747 255 220 0
0.421166 0.220539 0.074199 255 220 0
0.436845 0.150073 0.085735 255 220 0
0.449021 0.195022 0.096206 255 220 0
0.470972 0.202400 0.081441 255 220 0
0.398820 0.208169 0.061470 255 220 0
0.453739 0.222768 0.054834 255 220 0
0.452238 0.224998 0.065494 255 220 0
0.376063 0.118436 0.017688 255 220 0
0.390846 0.188999 0.032554 255 220 0
0.394006 0.118744 0.035548 255 220 0
0.380715 0.186235 0.085941 255 220 0
0.372122 0.109547 0.043693 255 220 0
0.402180 0.131258 0.020372 255 220 0
0.473054 0.192418 0.047687 255 220 0
0.434325 0.160406 0.094672 255 220 0
0.449119 0.149846 0.070540 255 220 0
0.349072 0.139617 0.075656 255 220 0
0.408041 0.122888 0.048135 255 220 0
0.372640 0.181608 0.080320 255 220 0
0.332700 0.117770 0.049585 255 220 0
0.362515 0.119552 0.069108 255 220 0
0.393131 0.195585 0.088364 255 220 0
0.390840 0.201979 0.066671 255 220 0
0.409707 0.135242 0.083780 255 220 0
0.397049 0.118628 0.057809 255 220 0
0.345237 0.110230 0.048422 255 220 0
0.351250 0.135159 0.075800 255 220 0
0.470551 0.203586 0.046509 255 220 0
0.338683 0.134206 0.007902 255 220 0
0.361966 0.175756 0.064403 255 220 0
0.335517 0.112841 0.045180 255 220 0
0.336256 0.132204 0.007341 255 220 0
0.409174 0.127974 0.073710 255 220 0
0.469742 0.213066 0.076168 255 220 0
0.401515 0.120918 0.041300 255 220 0
0.373207 0.178174 0.086227 255 220 0
0.457184 0.179699 0.026952 255 220 0
0.438665 0.179074 0.015958 255 220 0
0.345564 0.105328 0.030256 255 220 0
0.412084 0.140813 0.088578 255 220 0
0.421403 0.143465 0.019236 255 220 0
0.457022 0.192620 0.092641 255 220 0
0.340796 0.148087 0.033841 255 220 0
0.377843 0.189387 0.073573 255 220 0
0.421913 0.190811 0.019087 255 220 0
0.342809 0.138791 0.010942 255 220 0
0.434598 0.139088 0.071253 255 220 0
0.402457 0.120207 0.050202 255 220 0
0.461076 0.187824 0.030103 255 220 0
0.472399 0.199640 0.079657 255 220 0
0.405123 0.146136 0.011365 255 220 0
0.407065 0.210974 0.078802 255 220 0
0.361600 0.137858 0.006400 255 220 0
0.404286 0.133295 0.083115 255 220 0
0.369372 0.145974 0.089359 255 220 0
0.373374 0.110000 0.045334 255 220 0
0.426717 0.180976 0.014302 255 220 0
0.474060 0.185704 0.059742 255 220 0
0.383666 0.166845 0.097220 255 220 0
0.426905 0.146491 0.088454 255 220 0
0.364893 0.169198 0.033549 255 220 0
0.380666 0.192821 0.054082 255 220 0
0.353269 0.110984 0.011853 255 220 0
0.410442 0.153493 0.097125 255 220 0
0.392932 0.203691 0.060662 255 220 0
0.447667 0.184087 0.096203 255 220 0
0.421367 0.221141 0.071734 255 220 0
0.415993 0.132750 0.077969 255 220 0
0.388290 0.149219 0.094464 255 220 0
0.419933 0.134112 0.077617 255 220 0
0.451161 0.149919 0.049672 255 220 0
0.400407 0.125080 0.027747 255 220 0
0.453858 0.173537 0.025227 255 220 0
0.442767 0.225625 0.071695 255 220 0
0.402027 0.181443 0.099954 255 220 0
0.377611 0.152990 0.011109 255 220 0
0.365699 0.128688 0.078101 255 220 0
0.476306 0.198999 0.062394 255 220 0
0.466540 0.169335 0.059114 255 220 0
0.390059 0.178846 0.022775 255 220 0
0.404293 0.203089 0.039277 255 220 0
0.394996 0.184351 0.096638 255 220 0
0.381098 0.142403 0.090307 255 220 0
0.447423 0.196784 0.024277 255 220 0
0.413815 0.125301 0.051385 255 220 0
0.379117 0.185850 0.041423 255 220 0
0.403129 0.207589 0.048952 255 220 0
0.434876 0.224973 0.072555 255 220 0
0.448909 0.154436 0.079623 255 220 0
0.325502 0.127737 0.027546 255 220 0
0.349897 0.162267 0.051433 255 220 0
0.460670 0.173513 0.033807 255 220 0
0.410605 0.172083 0.011752 255 220 0
0.450479 0.153955 0.038152 255 220 0
0.456216 0.158911 0.041825 255 220 0
0.407674 0.157374 0.098871 255 220 0
0.466742 0.174837 0.044962 255 220 0
0.381373 0.193469 0.070193 255 220 0
0.333757 0.128521 0.055706 255 220 0
0.432897 0.218913 0.044116 255 220 0
0.384905 0.150658 0.094603 255 220 0
0.444645 0.147491 0.074524 255 220 0
0.457454 0.171756 0.030241 255 220 0
0.377645 0.115425 0.063223 255 220 0
0.435084 0.184762 0.099913 255 220 0
0.431670 0.224439 0.057920 255 220 0
0.437351 0.148154 0.083321 255 220 0
0.404402 0.193873 0.096170 255 220 0
0.431588 0.216399 0.040635 255 220 0
0.337579 0.138860 0.015367 255 220 0
0.336727 0.108674 0.036257 255 220 0
0.397708 0.194028 0.092992 255 220 0
0.384666 0.155374 0.010572 255 220 0
0.388287 0.146283 0.093133 255 220 0
0.356705 0.170460 0.056047 255 220 0
0.398072 0.126451 0.076484 255 220 0
0.474775 0.190225 0.055624 255 220 0
0.357942 0.168709 0.071677 255 220 0
0.438524 0.142261 0.072897 255 220 0
0.455575 0.170560 0.028521 255 220 0
0.360422 0.151966 0.015982 255 220 0
0.421008 0.142132 0.087044 255 220 0
0.471350 0.182092 0.071208 255 220 0
0.414354 0.176449 0.102078 255 220 0
0.363124 0.119483 0.009061 255 220 0
0.371747 0.149804 0.091498 255 220 0
0.393249 0.202960 0.054442 255 220 0
0.365729 0.152532 0.089747 255 220 0
0.445321 0.154479 0.029493 255 220 0
0.470628 0.195917 0.042557 255 220 0
0.357621 0.133092 0.004822 255 220 0
0.330840 0.120969 0.007765 255 220 0
0.355824 0.166040 0.071236 255 220 0
0.431933 0.223956 0.074694 255 220 0
0.366199 0.150130 0.089520 255 220 0
0.363372 0.160601 0.087647 255 220 0
0.407032 0.183309 0.100717 255 220 0
0.413578 0.150995 0.011530 255 220 0
0.371574 0.127927 0.079116 255 220 0
0.397879 0.192845 0.031260 255 220 0
0.365119 0.135511 0.006306 255 220 0
0.470633 0.179823 0.050482 255 220 0
0.365160 0.175646 0.045438 255 220 0
0.373700 0.162420 0.093933 255 220 0
0.436015 0.225487 0.060265 255 220 0
0.375196 0.180222 0.037242 255 220 0
0.428403 0.223006 0.075007 255 220 0
0.452168 0.189351 0.023679 255 220 0
0.466376 0.205524 0.041637 255 220 0
0.355598 0.142218 0.009117 255 220 0
0.412242 0.136328 0.020851 255 220 0
0.345335 0.156595 0.049332 255 220 0
0.346191 0.107388 0.041637 255 220 0
0.335496 0.132371 0.058132 255 220 0
0.413170 0.217662 0.064464 255 220 0
0.423620 0.130701 0.063445 255 220 0
0.436717 0.138212 0.062023 255 220 0
0.342913 0.153462 0.049840 255 220 0
0.372333 0.128492 0.079734 255 220 0
0.466233 0.170530 0.051005 255 220 0
0.399493 0.121949 0.033872 255 220 0
0.369918 0.178185 0.041825 255 220 0
