ply
format ascii 1.0
element vertex 1024
property float x
property float y
property float z
property uchar red
property uchar green
property uchar blue
end_header
0.611477 0.011408 0.099739 255 220 0
0.619032 0.076659 0.027585 255 220 0
0.629472 0.004621 0.085633 255 220 0
0.610015 -0.001615 0.097293 255 220 0
0.555962 -0.059258 0.023412 255 220 0
0.579861 -0.026114 0.083145 255 220 0
0.586948 0.051292 0.090403 255 220 0
0.623521 0.089715 0.086881 255 220 0
0.611424 0.001015 0.097608 255 220 0
0.587629 0.081606 0.062601 255 220 0
0.593016 -0.019782 0.091167 255 220 0
0.635841 0.023159 0.032694 255 220 0
0.630106 0.074723 0.032511 255 220 0
0.591018 -0.036118 0.022674 255 220 0
0.554394 -0.010240 0.045434 255 220 0
0.590779 -0.052855 0.046165 255 220 0
0.619540 0.020869 0.019874 255 220 0
0.598278 -0.009869 0.095835 255 220 0
0.602690 0.013881 0.100860 255 220 0
0.616410 0.031324 0.016592 255 220 0
0.648346 0.054585 0.050575 255 220 0
0.615573 -0.001245 0.023956 255 220 0
0.607380 0.065953 0.098452 255 220 0
0.629078 0.023784 0.094858 255 220 0
0.580628 0.053317 0.082007 255 220 0
0.570749 -0.062021 0.037195 255 220 0
0.578146 -0.019714 0.084298 255 220 0
0.617944 0.099582 0.057143 255 220 0
0.648604 0.033546 0.058563 255 220 0
0.625417 0.046647 0.098848 255 220 0
0.606271 0.032699 0.102522 255 220 0
0.629780 -0.006892 0.072038 255 220 0
0.617670 -0.019190 0.036587 255 220 0
0.580309 0.057381 0.078942 255 220 0
0.575192 0.045262 0.026767 255 220 0
0.650407 0.045979 0.057938 255 220 0
0.623806 0.039025 0.019975 255 220 0
0.612692 0.021850 0.016031 255 220 0
0.599379 -0.007355 0.016777 255 220 0
0.637190 0.022322 0.034732 255 220 0
0.624929 0.064323 0.024981 255 220 0
0.587046 -0.053600 0.037916 255 220 0
0.590559 0.059253 0.091354 255 220 0
0.612262 0.084327 0.090832 255 220 0
0.567966 -0.009491 0.076547 255 220 0
0.570561 0.044897 0.060896 255 220 0
0.565750 0.017752 0.066149 255 220 0
0.568660 0.005484 0.018312 255 220 0
0.624187 0.096903 0.051046 255 220 0
0.544413 -0.051665 0.040455 255 220 0
0.594015 0.087356 0.050360 255 220 0
0.624675 0.050641 0.098872 255 220 0
0.589864 -0.050026 0.034888 255 220 0
0.627528 -0.007926 0.075668 255 220 0
0.590317 -0.019471 0.016189 255 220 0
0.647919 0.050779 0.048814 255 220 0
0.647832 0.061717 0.075019 255 220 0
0.595744 -0.047508 0.040509 255 220 0
0.627275 -0.015174 0.058498 255 220 0
0.637173 0.095057 0.066688 255 220 0
0.567275 -0.050344 0.063282 255 220 0
0.631693 -0.008004 0.057633 255 220 0
0.598648 -0.046694 0.046446 255 220 0
0.625234 0.074836 0.095175 255 220 0
0.648534 0.043249 0.072063 255 220 0
0.604133 0.020807 0.012830 255 220 0
0.586196 -0.020709 0.015066 255 220 0
0.623520 -0.013674 0.040221 255 220 0
0.613683 -0.025417 0.075650 255 220 0
0.648386 0.058868 0.051811 255 220 0
0.566735 0.034763 0.042941 255 220 0
0.647263 0.076378 0.067802 255 220 0
0.584571 -0.037111 0.019274 255 220 0
0.634207 0.094907 0.055268 255 220 0
0.612734 -0.030430 0.068278 255 220 0
0.582473 0.074385 0.061515 255 220 0
0.594827 -0.048684 0.059633 255 220 0
0.584923 -0.032495 0.017698 255 220 0
0.603715 -0.013581 0.020899 255 220 0
0.642330 0.085696 0.054917 255 220 0
0.641916 0.073461 0.083692 255 220 0
0.625986 -0.016970 0.060470 255 220 0
0.607965 0.078785 0.027405 255 220 0
0.626970 0.099545 0.069215 255 220 0
0.576310 -0.048217 0.020574 255 220 0
0.544163 -0.038476 0.021587 255 220 0
0.635498 0.070158 0.034907 255 220 0
0.566724 -0.062776 0.049115 255 220 0
0.544451 -0.049302 0.020625 255 220 0
0.600215 0.031185 0.011642 255 220 0
0.564918 -0.063867 0.038705 255 220 0
0.635375 0.023446 0.032044 255 220 0
0.587486 0.063876 0.086469 255 220 0
0.602157 0.083720 0.033410 255 220 0
0.620227 -0.024878 0.060143 255 220 0
0.592791 -0.030662 0.021165 255 220 0
0.571243 0.046003 0.037566 255 220 0
0.613547 0.051082 0.101187 255 220 0
0.546554 -0.057978 0.029780 255 220 0
0.631904 -0.006558 0.065068 255 220 0
0.626828 -0.008789 0.075895 255 220 0
0.586407 -0.053232 0.061647 255 220 0
0.609689 -0.036991 0.050987 255 220 0
0.564608 0.026546 0.053785 255 220 0
0.558407 -0.027664 0.015088 255 220 0
0.548796 -0.026210 0.023849 255 220 0
0.616883 0.010410 0.020883 255 220 0
0.597102 -0.036321 0.078659 255 220 0
0.548353 -0.051292 0.018188 255 220 0
0.553707 -0.017785 0.050072 255 220 0
0.620103 0.100701 0.065356 255 220 0
0.643559 0.042459 0.082800 255 220 0
0.609169 -0.022192 0.029068 255 220 0
0.565308 -0.063567 0.046182 255 220 0
0.567000 -0.043940 0.066798 255 220 0
0.588614 0.078278 0.040416 255 220 0
0.580337 0.000245 0.089217 255 220 0
0.619858 -0.008339 0.030806 255 220 0
0.557966 0.002778 0.044404 255 220 0
0.630914 -0.009222 0.059591 255 220 0
0.574222 0.038066 0.023453 255 220 0
0.579909 0.024636 0.014203 255 220 0
0.626937 -0.011458 0.071537 255 220 0
0.562077 0.010623 0.029571 255 220 0
0.597111 0.026608 0.100281 255 220 0
0.561082 -0.034164 0.013407 255 220 0
0.605728 0.082377 0.089968 255 220 0
0.634567 0.041349 0.093241 255 220 0
0.647235 0.027604 0.061707 255 220 0
0.617227 0.046671 0.017108 255 220 0
0.637253 0.085691 0.046493 255 220 0
0.585726 -0.034941 0.018986 255 220 0
0.564867 0.027402 0.054155 255 220 0
0.613544 0.040612 0.102252 255 220 0
0.564582 -0.000046 0.069373 255 220 0
0.565693 -0.063196 0.047672 255 220 0
0.587162 0.042302 0.015128 255 220 0
0.563817 -0.052403 0.059697 255 220 0
0.570460 0.018736 0.076994 255 220 0
0.587664 -0.037433 0.021192 255 220 0
0.586960 0.030438 0.093884 255 220 0
0.564884 -0.035143 0.068801 255 220 0
0.554877 -0.011389 0.049161 255 220 0
0.599037 -0.041892 0.035948 255 220 0
0.573495 0.028793 0.019863 255 220 0
0.650553 0.048357 0.058664 255 220 0
0.574938 0.052255 0.069038 255 220 0
0.575159 0.018917 0.015965 255 220 0
0.626531 -0.012758 0.070221 255 220 0
0.612738 -0.023510 0.033982 255 220 0
0.578801 -0.039438 0.017428 255 220 0
0.596892 -0.033709 0.081665 255 220 0
0.588600 -0.040466 0.077206 255 220 0
0.571401 -0.039781 0.071840 255 220 0
0.579348 0.037970 0.018025 255 220 0
0.619744 0.094509 0.044771 255 220 0
0.638182 0.054063 0.090326 255 220 0
0.580920 0.072094 0.058508 255 220 0
0.606168 -0.039680 0.059623 255 220 0
0.618703 0.006976 0.096036 255 220 0
0.552816 -0.057001 0.047226 255 220 0
0.553172 -0.060417 0.042924 255 220 0
0.616868 0.099948 0.059169 255 220 0
0.613999 0.010439 0.019211 255 220 0
0.570942 0.026176 0.075451 255 220 0
0.572363 0.039725 0.071323 255 220 0
0.650337 0.045686 0.057495 255 220 0
0.585779 0.031290 0.092848 255 220 0
0.553119 -0.012536 0.031403 255 220 0
0.612635 0.056497 0.100533 255 220 0
0.565794 0.022657 0.063542 255 220 0
0.587523 0.003504 0.012465 255 220 0
0.646002 0.081267 0.066736 255 220 0
0.604900 -0.012539 0.021239 255 220 0
0.639374 0.081301 0.045565 255 220 0
0.643748 0.083416 0.055789 255 220 0
0.548113 -0.024409 0.028896 255 220 0
0.548683 -0.032297 0.019266 255 220 0
0.586746 -0.009982 0.091927 255 220 0
0.564556 -0.010163 0.071151 255 220 0
0.611434 -0.023495 0.032394 255 220 0
0.590105 -0.029606 0.019206 255 220 0
0.566876 -0.010924 0.074986 255 220 0
0.587084 0.068379 0.083379 255 220 0
0.567161 0.026491 0.065219 255 220 0
0.630786 -0.007739 0.049148 255 220 0
0.546339 -0.056101 0.039059 255 220 0
0.583560 0.067773 0.034182 255 220 0
0.563060 -0.028271 0.068644 255 220 0
0.597621 0.028846 0.011361 255 220 0
0.647428 0.044117 0.047033 255 220 0
0.639984 0.061032 0.036164 255 220 0
0.582637 -0.002711 0.012871 255 220 0
0.607835 0.088311 0.036311 255 220 0
0.634742 -0.001928 0.064545 255 220 0
0.572870 -0.026422 0.078362 255 220 0
0.625629 0.016501 0.095046 255 220 0
0.578801 -0.032223 0.079844 255 220 0
0.609523 0.097925 0.057699 255 220 0
0.583913 -0.014457 0.089327 255 220 0
0.603218 0.070835 0.095555 255 220 0
0.598882 -0.038737 0.031815 255 220 0
0.637384 0.032839 0.031758 255 220 0
0.575588 0.012910 0.084958 255 220 0
0.586622 -0.025085 0.016205 255 220 0
0.599249 0.082269 0.033516 255 220 0
0.599586 -0.039860 0.071287 255 220 0
0.649363 0.048504 0.070657 255 220 0
0.611165 0.032622 0.102631 255 220 0
0.558821 -0.028767 0.062762 255 220 0
0.580572 0.058353 0.078827 255 220 0
0.551068 -0.054700 0.019251 255 220 0
0.617670 -0.017852 0.079923 255 220 0
0.631125 0.000024 0.078780 255 220 0
0.594822 0.051535 0.015645 255 220 0
0.600387 -0.039375 0.034473 255 220 0
0.616240 -0.001617 0.094293 255 220 0
0.581234 0.004227 0.013008 255 220 0
0.598350 0.021119 0.100561 255 220 0
0.631821 0.038142 0.025466 255 220 0
0.574346 0.040804 0.075891 255 220 0
0.566631 -0.063331 0.047005 255 220 0
0.585626 0.060263 0.024477 255 220 0
0.630495 0.082082 0.036933 255 220 0
0.605162 0.087348 0.036180 255 220 0
0.564375 0.022171 0.058702 255 220 0
0.620360 0.001520 0.092856 255 220 0
0.621670 0.071928 0.026323 255 220 0
0.622715 0.086717 0.035725 255 220 0
0.574539 0.054104 0.065886 255 220 0
0.578078 -0.059942 0.048609 255 220 0
0.571471 0.046264 0.037026 255 220 0
0.575927 0.022234 0.016018 255 220 0
0.609519 0.095010 0.047329 255 220 0
0.563374 0.014837 0.060710 255 220 0
0.638595 0.078458 0.042588 255 220 0
0.612133 0.096145 0.075862 255 220 0
0.632157 0.022189 0.091837 255 220 0
0.601887 -0.008991 0.018386 255 220 0
0.561735 -0.002792 0.063589 255 220 0
0.626229 -0.010003 0.075404 255 220 0
0.578245 0.059698 0.071701 255 220 0
0.591072 -0.031715 0.020595 255 220 0
0.594033 0.058691 0.094206 255 220 0
0.640443 0.045886 0.087567 255 220 0
0.601862 0.044590 0.013303 255 220 0
0.587665 0.056793 0.020725 255 220 0
0.564488 -0.036333 0.068057 255 220 0
0.593191 0.079697 0.082128 255 220 0
0.586476 -0.042809 0.075235 255 220 0
0.635527 0.004873 0.075514 255 220 0
0.648447 0.044007 0.049747 255 220 0
0.636907 0.029058 0.032087 255 220 0
0.613174 0.004246 0.097820 255 220 0
0.644956 0.021474 0.052858 255 220 0
0.606804 0.074339 0.024372 255 220 0
0.623640 0.000911 0.089632 255 220 0
0.642805 0.043702 0.084150 255 220 0
0.547458 -0.045978 0.047206 255 220 0
0.605332 0.092037 0.078079 255 220 0
0.624943 -0.007743 0.036603 255 220 0
0.628054 0.038621 0.097679 255 220 0
0.634915 0.096715 0.065174 255 220 0
0.642775 0.088362 0.068871 255 220 0
0.638848 0.086605 0.079968 255 220 0
0.610334 0.077356 0.094861 255 220 0
0.600293 0.059412 0.017274 255 220 0
0.620907 -0.023978 0.052617 255 220 0
0.583017 -0.005511 0.012923 255 220 0
0.639992 0.092563 0.065749 255 220 0
0.637122 0.095184 0.065486 255 220 0
0.550599 -0.028961 0.047966 255 220 0
0.612794 0.045924 0.101816 255 220 0
0.555562 -0.007086 0.030957 255 220 0
0.604681 0.006614 0.015631 255 220 0
0.628097 -0.006277 0.040314 255 220 0
0.600096 0.013704 0.012727 255 220 0
0.557822 0.000666 0.034331 255 220 0
0.576988 0.046743 0.078486 255 220 0
0.570373 0.047571 0.051341 255 220 0
0.620571 -0.006153 0.030248 255 220 0
0.615768 0.080067 0.094195 255 220 0
0.590453 0.020816 0.011310 255 220 0
0.620183 0.033717 0.018273 255 220 0
0.595774 0.001453 0.013727 255 220 0
0.584870 0.012929 0.092889 255 220 0
0.584643 -0.014304 0.013691 255 220 0
0.630481 0.001459 0.081447 255 220 0
0.576671 0.008785 0.086278 255 220 0
0.609635 0.007296 0.017748 255 220 0
0.571221 -0.033844 0.013856 255 220 0
0.633255 0.085575 0.042015 255 220 0
0.584262 0.073521 0.072661 255 220 0
0.587473 -0.008134 0.013432 255 220 0
0.621804 -0.018749 0.071133 255 220 0
0.647474 0.036038 0.072181 255 220 0
0.561708 0.014985 0.036517 255 220 0
0.562357 0.006913 0.061722 255 220 0
0.597316 -0.013775 0.094336 255 220 0
0.582570 -0.053286 0.064429 255 220 0
0.564881 -0.032228 0.013297 255 220 0
0.649033 0.065800 0.057446 255 220 0
0.597739 -0.025648 0.022043 255 220 0
0.617611 -0.027835 0.050639 255 220 0
0.550240 -0.050112 0.049775 255 220 0
0.647929 0.030956 0.057218 255 220 0
0.624000 -0.019975 0.054577 255 220 0
0.569447 0.031545 0.068563 255 220 0
0.646575 0.025014 0.061627 255 220 0
0.603575 0.071364 0.022687 255 220 0
0.632909 0.092593 0.049785 255 220 0
0.616081 0.042721 0.016292 255 220 0
0.648267 0.069228 0.070180 255 220 0
0.650022 0.040870 0.059378 255 220 0
0.571776 0.049971 0.042792 255 220 0
0.589885 0.070256 0.028580 255 220 0
0.632169 0.079370 0.036589 255 220 0
0.622324 0.036050 0.100314 255 220 0
0.555055 -0.046271 0.055990 255 220 0
0.645454 0.025693 0.049651 255 220 0
0.568532 -0.029385 0.073903 255 220 0
0.600284 -0.019500 0.021065 255 220 0
0.570303 -0.057562 0.058734 255 220 0
0.561749 -0.004235 0.021681 255 220 0
0.614909 0.036904 0.102256 255 220 0
0.567090 0.030301 0.062087 255 220 0
0.643901 0.076008 0.079407 255 220 0
0.590240 0.074356 0.032543 255 220 0
0.604586 -0.034901 0.034866 255 220 0
0.550905 -0.034382 0.050470 255 220 0
0.559455 0.008127 0.039956 255 220 0
0.608330 0.024998 0.013747 255 220 0
0.556229 -0.002802 0.040534 255 220 0
0.635737 0.092640 0.053090 255 220 0
0.571547 0.032223 0.073885 255 220 0
0.619874 -0.004161 0.090000 255 220 0
0.565990 0.029731 0.036475 255 220 0
0.617685 0.045719 0.101249 255 220 0
0.619992 0.014726 0.097550 255 220 0
0.541330 -0.042867 0.035469 255 220 0
0.598738 -0.039948 0.032978 255 220 0
0.565389 0.009233 0.068654 255 220 0
0.583643 -0.002843 0.012836 255 220 0
0.629505 -0.004140 0.076778 255 220 0
0.601130 -0.044937 0.054715 255 220 0
0.543549 -0.050874 0.022960 255 220 0
0.595878 0.020574 0.099639 255 220 0
0.591668 0.085377 0.050955 255 220 0
0.628665 -0.007970 0.043480 255 220 0
0.630318 0.077883 0.092087 255 220 0
0.606518 0.096736 0.058019 255 220 0
0.638231 0.019020 0.037807 255 220 0
0.598679 0.090462 0.072048 255 220 0
0.542647 -0.053546 0.029958 255 220 0
0.630116 0.015206 0.029387 255 220 0
0.575261 0.030271 0.081930 255 220 0
0.639273 0.007853 0.068668 255 220 0
0.597982 0.052069 0.097949 255 220 0
0.597208 -0.036433 0.027915 255 220 0
0.565073 0.002989 0.020869 255 220 0
0.619828 -0.025694 0.055392 255 220 0
0.556063 -0.062459 0.042492 255 220 0
0.596130 -0.046550 0.039115 255 220 0
0.591922 -0.052164 0.052220 255 220 0
0.622720 -0.007683 0.083864 255 220 0
0.564402 0.026915 0.043754 255 220 0
0.555690 -0.043593 0.013839 255 220 0
0.636730 0.000808 0.055550 255 220 0
0.613655 0.047477 0.015891 255 220 0
0.579414 -0.013530 0.013154 255 220 0
0.597820 0.060880 0.095997 255 220 0
0.628370 0.091154 0.043878 255 220 0
0.573342 0.041954 0.027449 255 220 0
0.633905 0.072499 0.034532 255 220 0
0.598120 -0.014377 0.094160 255 220 0
0.611250 -0.030864 0.040188 255 220 0
0.613749 0.060319 0.018847 255 220 0
0.564560 -0.062287 0.030495 255 220 0
0.576030 0.057303 0.067426 255 220 0
0.610820 0.011898 0.099969 255 220 0
0.604700 0.076869 0.026399 255 220 0
0.613985 0.062835 0.099604 255 220 0
0.592801 0.084685 0.073838 255 220 0
0.637805 0.071740 0.088899 255 220 0
0.621372 -0.020385 0.044986 255 220 0
0.650299 0.046126 0.065571 255 220 0
0.579407 0.064095 0.038054 255 220 0
0.608649 -0.038136 0.051624 255 220 0
0.599330 -0.007145 0.016706 255 220 0
0.640692 0.009002 0.063703 255 220 0
0.615576 0.045228 0.016304 255 220 0
0.642864 0.057545 0.039415 255 220 0
0.555876 -0.004241 0.042969 255 220 0
0.618577 0.015686 0.020502 255 220 0
0.629775 0.022143 0.026815 255 220 0
0.650313 0.051995 0.066948 255 220 0
0.630846 0.003189 0.082534 255 220 0
0.579218 0.064440 0.069512 255 220 0
0.555060 -0.014100 0.051776 255 220 0
0.642196 0.011998 0.057271 255 220 0
0.610503 -0.020124 0.029008 255 220 0
0.611237 0.001985 0.020117 255 220 0
0.619115 0.019543 0.099112 255 220 0
0.613003 0.063798 0.019814 255 220 0
0.632306 0.067688 0.031138 255 220 0
0.602845 -0.025053 0.087089 255 220 0
0.616367 0.076845 0.026905 255 220 0
0.646285 0.024105 0.058413 255 220 0
0.591545 0.011012 0.097051 255 220 0
0.590519 0.085004 0.056563 255 220 0
0.580066 -0.056066 0.032381 255 220 0
0.635363 0.091729 0.078422 255 220 0
0.606908 -0.037862 0.063255 255 220 0
0.646465 0.027179 0.068398 255 220 0
0.559855 -0.023170 0.064177 255 220 0
0.574490 0.056245 0.041585 255 220 0
0.596362 -0.013376 0.094357 255 220 0
0.556562 -0.031543 0.059354 255 220 0
0.545940 -0.037505 0.019546 255 220 0
0.623287 0.002452 0.028381 255 220 0
0.582256 0.046590 0.019494 255 220 0
0.593223 0.082619 0.078510 255 220 0
0.645919 0.063947 0.047186 255 220 0
0.591839 -0.034401 0.082201 255 220 0
0.576919 0.063378 0.060876 255 220 0
0.542926 -0.036186 0.027725 255 220 0
0.606809 0.085018 0.088240 255 220 0
0.566502 0.034726 0.048165 255 220 0
0.581964 0.036412 0.088613 255 220 0
0.610643 -0.035583 0.048960 255 220 0
0.595021 0.089133 0.064519 255 220 0
0.604232 0.056887 0.016267 255 220 0
0.616722 0.046337 0.101356 255 220 0
0.590169 0.029505 0.096320 255 220 0
0.650056 0.041126 0.059331 255 220 0
0.626036 -0.015182 0.048648 255 220 0
0.610454 -0.036295 0.056192 255 220 0
0.604096 0.082247 0.031083 255 220 0
0.613838 -0.029249 0.068446 255 220 0
0.644450 0.023178 0.072148 255 220 0
0.594239 -0.011378 0.094579 255 220 0
0.628691 0.089052 0.085841 255 220 0
0.543754 -0.049012 0.021433 255 220 0
0.568914 0.036470 0.063380 255 220 0
0.592124 -0.051905 0.053439 255 220 0
0.579545 0.051307 0.024861 255 220 0
0.553087 -0.013525 0.043288 255 220 0
0.585732 -0.018924 0.014603 255 220 0
0.584382 0.044428 0.089505 255 220 0
0.637690 0.092093 0.074760 255 220 0
0.610011 -0.005883 0.021986 255 220 0
0.621388 0.092763 0.042337 255 220 0
0.598363 0.016216 0.012020 255 220 0
0.551830 -0.016634 0.028626 255 220 0
0.561456 -0.008911 0.019923 255 220 0
0.639578 0.042915 0.088351 255 220 0
0.633328 0.007132 0.037330 255 220 0
0.596697 0.082236 0.083447 255 220 0
0.565297 0.028782 0.054820 255 220 0
0.643491 0.015142 0.060053 255 220 0
0.591308 -0.020204 0.016763 255 220 0
0.579557 0.032633 0.016108 255 220 0
0.607473 0.093724 0.076808 255 220 0
0.626559 0.004939 0.089205 255 220 0
0.554120 -0.034671 0.014859 255 220 0
0.646442 0.068442 0.076810 255 220 0
0.600970 -0.021951 0.090046 255 220 0
0.583165 -0.056771 0.040128 255 220 0
0.643034 0.043223 0.038295 255 220 0
0.607474 -0.034346 0.070101 255 220 0
0.562744 0.017509 0.055820 255 220 0
0.554811 -0.008884 0.030893 255 220 0
0.629008 -0.011537 0.051687 255 220 0
0.641884 0.043034 0.085401 255 220 0
0.606927 -0.037550 0.043098 255 220 0
0.603078 -0.026120 0.086035 255 220 0
0.585518 0.012410 0.093344 255 220 0
0.597833 0.087047 0.078335 255 220 0
0.637042 0.002563 0.066051 255 220 0
0.620589 0.096768 0.049509 255 220 0
0.566891 0.024131 0.065890 255 220 0
0.563017 0.021925 0.048225 255 220 0
0.586595 0.079217 0.048256 255 220 0
0.589239 0.056082 0.019434 255 220 0
0.634233 0.005885 0.079428 255 220 0
0.542428 -0.047241 0.038606 255 220 0
0.567177 -0.027107 0.073344 255 220 0
0.554511 -0.010910 0.047014 255 220 0
0.637985 0.006568 0.047244 255 220 0
0.546263 -0.047061 0.018034 255 220 0
0.623356 0.025849 0.098746 255 220 0
0.603123 0.054669 0.099475 255 220 0
0.621741 0.066027 0.098106 255 220 0
0.623553 0.024220 0.021648 255 220 0
0.588919 0.082582 0.066408 255 220 0
0.580878 0.053201 0.082484 255 220 0
0.629470 0.085511 0.088271 255 220 0
0.627230 0.022616 0.095842 255 220 0
0.588795 0.060380 0.021951 255 220 0
0.568928 0.037567 0.034584 255 220 0
0.576800 0.034823 0.082961 255 220 0
0.560183 0.008831 0.052171 255 220 0
0.570927 0.013335 0.018080 255 220 0
0.570680 -0.003447 0.015521 255 220 0
0.572846 -0.010250 0.082076 255 220 0
0.625938 0.090822 0.085266 255 220 0
0.619955 0.099168 0.073001 255 220 0
0.631893 0.017118 0.090170 255 220 0
0.639813 0.006769 0.061513 255 220 0
0.591250 0.044704 0.014504 255 220 0
0.621481 -0.021284 0.066832 255 220 0
0.606535 0.026089 0.013039 255 220 0
0.604140 -0.035061 0.034450 255 220 0
0.584290 -0.046794 0.024853 255 220 0
0.599706 -0.005474 0.016459 255 220 0
0.561315 -0.055169 0.055962 255 220 0
0.622583 0.011548 0.095293 255 220 0
0.558984 -0.014379 0.060915 255 220 0
0.605001 -0.006627 0.019326 255 220 0
0.623265 -0.017316 0.070229 255 220 0
0.623029 0.071450 0.026763 255 220 0
0.627748 0.048146 0.097714 255 220 0
0.614223 -0.029718 0.044495 255 220 0
0.638124 0.092303 0.056289 255 220 0
0.583480 -0.053774 0.063173 255 220 0
0.588397 -0.017194 0.015028 255 220 0
0.572851 -0.030885 0.013747 255 220 0
0.559091 0.005918 0.048986 255 220 0
0.608548 -0.032096 0.072582 255 220 0
0.629075 0.095429 0.051127 255 220 0
0.564350 -0.004267 0.069817 255 220 0
0.584993 0.068891 0.033197 255 220 0
0.646294 0.024403 0.064166 255 220 0
0.619387 -0.017718 0.037668 255 220 0
0.562360 0.017851 0.037625 255 220 0
0.624932 0.078001 0.094137 255 220 0
0.642980 0.039891 0.083272 255 220 0
0.636863 0.059634 0.091369 255 220 0
0.591975 -0.048410 0.035305 255 220 0
0.557965 -0.037304 0.013547 255 220 0
0.600717 0.081712 0.087467 255 220 0
0.582183 -0.042545 0.020530 255 220 0
0.628040 0.074623 0.094260 255 220 0
0.634184 0.006447 0.039198 255 220 0
0.555533 -0.004953 0.038001 255 220 0
0.632331 0.063119 0.029445 255 220 0
0.645120 0.037195 0.042461 255 220 0
0.583607 0.076107 0.051945 255 220 0
0.568393 -0.012028 0.015001 255 220 0
0.603277 -0.001929 0.098384 255 220 0
0.620348 0.003205 0.093640 255 220 0
0.646761 0.038234 0.045869 255 220 0
0.610981 -0.025951 0.078816 255 220 0
0.574100 0.015715 0.082986 255 220 0
0.607606 -0.035916 0.041357 255 220 0
0.575351 0.059053 0.043619 255 220 0
0.558963 -0.034558 0.013637 255 220 0
0.573301 -0.010805 0.082439 255 220 0
0.645116 0.075004 0.051242 255 220 0
0.645225 0.044042 0.080135 255 220 0
0.644840 0.053860 0.042384 255 220 0
0.617095 0.018786 0.018915 255 220 0
0.567598 0.030871 0.063458 255 220 0
0.587331 -0.013371 0.014069 255 220 0
0.558034 -0.017423 0.059753 255 220 0
0.574123 -0.058052 0.029418 255 220 0
0.596354 -0.045976 0.038379 255 220 0
0.587169 0.068348 0.029687 255 220 0
0.611107 0.066825 0.098754 255 220 0
0.583150 0.027516 0.090955 255 220 0
0.640552 0.010063 0.067692 255 220 0
0.592998 -0.036728 0.079979 255 220 0
0.564382 0.019145 0.030164 255 220 0
0.553757 -0.028241 0.054040 255 220 0
0.624918 0.018050 0.095979 255 220 0
0.645354 0.050218 0.042957 255 220 0
0.551124 -0.018537 0.027879 255 220 0
0.643665 0.028620 0.078229 255 220 0
0.557178 -0.014846 0.057263 255 220 0
0.639748 0.059967 0.088588 255 220 0
0.601185 0.027824 0.011725 255 220 0
0.621094 0.006703 0.024911 255 220 0
0.565317 -0.029111 0.070964 255 220 0
0.643484 0.019468 0.048992 255 220 0
0.597095 -0.047873 0.045618 255 220 0
0.631263 0.057490 0.026828 255 220 0
0.562618 0.011706 0.060136 255 220 0
0.560784 -0.054541 0.018481 255 220 0
0.623770 0.092570 0.083996 255 220 0
0.642595 0.069623 0.043194 255 220 0
0.581534 0.068608 0.071561 255 220 0
0.585336 -0.044980 0.073305 255 220 0
0.589834 0.076925 0.036321 255 220 0
0.604277 0.011152 0.014477 255 220 0
0.596827 0.083970 0.037786 255 220 0
0.629831 0.022899 0.026656 255 220 0
0.585776 0.069014 0.080937 255 220 0
0.618077 0.048794 0.017736 255 220 0
0.554397 -0.057035 0.048760 255 220 0
0.607985 -0.038748 0.051123 255 220 0
0.614129 0.018518 0.100398 255 220 0
0.571655 0.050745 0.055975 255 220 0
0.541043 -0.046554 0.035126 255 220 0
0.584590 -0.048959 0.027138 255 220 0
0.613842 -0.024428 0.076893 255 220 0
0.578927 0.049342 0.080977 255 220 0
0.606697 0.027393 0.102394 255 220 0
0.584212 0.077230 0.054369 255 220 0
0.559662 0.003229 0.030106 255 220 0
0.568035 0.000765 0.017754 255 220 0
0.643361 0.029757 0.079436 255 220 0
0.551661 -0.019956 0.045207 255 220 0
0.560480 -0.053473 0.056662 255 220 0
0.595448 0.079101 0.032842 255 220 0
0.553492 -0.048013 0.014931 255 220 0
0.648184 0.035481 0.051764 255 220 0
0.645348 0.082659 0.061216 255 220 0
0.593846 -0.036322 0.024905 255 220 0
0.564388 0.025156 0.037973 255 220 0
0.607309 0.015215 0.014834 255 220 0
0.604034 0.087245 0.084247 255 220 0
0.641448 0.010121 0.059574 255 220 0
0.559306 -0.031848 0.013945 255 220 0
0.573679 0.051757 0.037054 255 220 0
0.587817 0.033401 0.012809 255 220 0
0.574116 0.055489 0.062081 255 220 0
0.547816 -0.041435 0.016700 255 220 0
0.611666 0.017901 0.016272 255 220 0
0.650721 0.051288 0.061402 255 220 0
0.633910 -0.001909 0.048094 255 220 0
0.633726 0.038539 0.093736 255 220 0
0.560613 -0.029257 0.014100 255 220 0
0.641592 0.085085 0.052611 255 220 0
0.573461 0.056142 0.049922 255 220 0
0.588507 -0.051928 0.061981 255 220 0
0.601233 0.013538 0.013035 255 220 0
0.643003 0.021351 0.045770 255 220 0
0.587029 0.000624 0.012651 255 220 0
0.575535 -0.006879 0.013643 255 220 0
0.628895 0.049843 0.097065 255 220 0
0.544923 -0.038748 0.020288 255 220 0
0.573280 0.052467 0.062926 255 220 0
0.640025 0.007056 0.057705 255 220 0
0.574380 0.028059 0.081184 255 220 0
0.616510 0.051766 0.100824 255 220 0
0.555166 -0.006371 0.042139 255 220 0
0.593653 -0.030112 0.021448 255 220 0
0.569308 -0.008653 0.078324 255 220 0
0.608802 -0.037361 0.048189 255 220 0
0.567254 0.030130 0.031783 255 220 0
0.583569 -0.017176 0.013873 255 220 0
0.632391 0.015315 0.031744 255 220 0
0.592055 0.017133 0.011389 255 220 0
0.616526 0.047437 0.101279 255 220 0
0.550722 -0.058428 0.024498 255 220 0
0.589282 -0.010112 0.093138 255 220 0
0.634704 0.096732 0.066788 255 220 0
0.608126 0.090924 0.082160 255 220 0
0.550134 -0.047392 0.050510 255 220 0
0.604710 -0.014504 0.021857 255 220 0
0.650084 0.042116 0.057815 255 220 0
0.595724 0.004361 0.098337 255 220 0
0.576686 0.055670 0.071004 255 220 0
0.615641 -0.003711 0.024970 255 220 0
0.594382 -0.037082 0.079168 255 220 0
0.634130 0.054528 0.028312 255 220 0
0.640673 0.014514 0.074373 255 220 0
0.585026 0.009755 0.012287 255 220 0
0.602565 0.076144 0.026314 255 220 0
0.649517 0.042810 0.053690 255 220 0
0.641683 0.077793 0.046475 255 220 0
0.547268 -0.031224 0.041539 255 220 0
0.567325 0.031597 0.061809 255 220 0
0.641344 0.086955 0.075670 255 220 0
0.610265 -0.034203 0.043978 255 220 0
0.561254 0.014005 0.037909 255 220 0
0.566535 -0.046911 0.064902 255 220 0
0.590796 -0.038332 0.023808 255 220 0
0.607027 0.017081 0.014372 255 220 0
0.627238 -0.012748 0.047516 255 220 0
0.603432 0.023258 0.012398 255 220 0
0.580783 0.011528 0.013094 255 220 0
0.595475 -0.048211 0.059674 255 220 0
0.606213 0.092700 0.077660 255 220 0
0.575096 -0.057117 0.060387 255 220 0
0.587450 -0.055032 0.052075 255 220 0
0.596597 0.052354 0.015538 255 220 0
0.646845 0.044051 0.076763 255 220 0
0.621285 0.003112 0.026427 255 220 0
0.612702 0.059973 0.018444 255 220 0
0.595236 0.067481 0.022555 255 220 0
0.620605 -0.022948 0.047902 255 220 0
0.584601 -0.041703 0.076090 255 220 0
0.622441 0.078414 0.094553 255 220 0
0.556705 -0.025951 0.058948 255 220 0
0.609637 0.082635 0.030269 255 220 0
0.592226 0.032400 0.097477 255 220 0
0.609364 0.058457 0.100119 255 220 0
0.633170 -0.001755 0.071532 255 220 0
0.575460 0.041833 0.077929 255 220 0
0.647394 0.058569 0.076564 255 220 0
0.545479 -0.031180 0.035735 255 220 0
0.646480 0.069827 0.051227 255 220 0
0.649511 0.050313 0.053404 255 220 0
0.592326 0.082450 0.077216 255 220 0
0.644321 0.017978 0.056287 255 220 0
0.564037 0.005524 0.023003 255 220 0
0.632212 0.095541 0.054188 255 220 0
0.564369 0.011533 0.025126 255 220 0
0.603499 0.094483 0.053277 255 220 0
0.609297 0.090917 0.039400 255 220 0
0.579910 0.011687 0.089071 255 220 0
0.577414 0.017776 0.014592 255 220 0
0.638706 0.035547 0.088305 255 220 0
0.578344 -0.044366 0.019417 255 220 0
0.549036 -0.021886 0.034659 255 220 0
0.647546 0.048261 0.075821 255 220 0
0.585532 0.031824 0.092583 255 220 0
0.590586 -0.051594 0.059492 255 220 0
0.581519 -0.023018 0.085301 255 220 0
0.600855 -0.028788 0.084723 255 220 0
0.642336 0.062157 0.085352 255 220 0
0.647641 0.073873 0.069092 255 220 0
0.583866 0.072242 0.039953 255 220 0
0.620778 -0.015629 0.077840 255 220 0
0.578257 0.059315 0.072080 255 220 0
0.565105 0.026307 0.057517 255 220 0
0.637953 0.013152 0.079342 255 220 0
0.640123 0.022618 0.038990 255 220 0
0.648114 0.031294 0.059309 255 220 0
0.645577 0.030901 0.045795 255 220 0
0.649865 0.044416 0.067295 255 220 0
0.563992 -0.059737 0.025051 255 220 0
0.600115 0.076806 0.027689 255 220 0
0.571250 -0.061756 0.036726 255 220 0
0.553214 -0.027876 0.052935 255 220 0
0.544191 -0.039536 0.040485 255 220 0
0.637440 0.087919 0.048978 255 220 0
0.544698 -0.031935 0.032691 255 220 0
0.565727 -0.005064 0.072696 255 220 0
0.576563 0.061550 0.063250 255 220 0
0.543582 -0.050775 0.022818 255 220 0
0.601402 0.094124 0.059796 255 220 0
0.569248 0.039746 0.061339 255 220 0
0.558768 -0.011271 0.059551 255 220 0
0.628519 -0.012480 0.052244 255 220 0
0.643710 0.015901 0.057681 255 220 0
0.621213 0.098932 0.073874 255 220 0
0.570430 0.027423 0.073632 255 220 0
0.626613 0.100002 0.066447 255 220 0
0.578602 -0.008136 0.087109 255 220 0
0.567803 0.001203 0.075622 255 220 0
0.560165 0.010820 0.040435 255 220 0
0.564040 0.010780 0.064656 255 220 0
0.547009 -0.046388 0.046545 255 220 0
0.632073 -0.006083 0.050435 255 220 0
0.596342 0.057608 0.095968 255 220 0
0.567162 0.024284 0.066563 255 220 0
0.571544 -0.058462 0.027844 255 220 0
0.624049 0.036036 0.020272 255 220 0
0.569577 -0.062539 0.038027 255 220 0
0.622802 -0.021743 0.055445 255 220 0
0.636182 0.058984 0.031345 255 220 0
0.577306 0.060360 0.068178 255 220 0
0.630568 0.098279 0.059737 255 220 0
0.596371 0.039440 0.012472 255 220 0
0.573284 -0.032547 0.014040 255 220 0
0.571448 0.000465 0.080974 255 220 0
0.628358 0.092263 0.082916 255 220 0
0.602965 0.090460 0.042561 255 220 0
0.600143 0.008375 0.013657 255 220 0
0.628671 0.089884 0.085118 255 220 0
0.556408 -0.030182 0.058998 255 220 0
0.600285 0.071177 0.023216 255 220 0
0.616055 0.086277 0.090001 255 220 0
0.624366 0.094963 0.081004 255 220 0
0.555905 -0.008560 0.050562 255 220 0
0.558846 -0.006402 0.024123 255 220 0
0.621252 -0.002118 0.090009 255 220 0
0.601195 0.084761 0.084881 255 220 0
0.616074 0.035788 0.102072 255 220 0
0.547838 -0.032312 0.043639 255 220 0
0.553803 -0.023620 0.019293 255 220 0
0.608444 0.041683 0.102190 255 220 0
0.616851 0.029430 0.016994 255 220 0
0.594052 0.079783 0.034975 255 220 0
0.609871 0.098459 0.062750 255 220 0
0.554676 -0.059122 0.023534 255 220 0
0.606925 -0.038956 0.059837 255 220 0
0.590756 0.085146 0.055319 255 220 0
0.601043 0.083730 0.085827 255 220 0
0.636280 0.044625 0.091927 255 220 0
0.600503 0.093546 0.059604 255 220 0
0.568253 0.033102 0.031693 255 220 0
0.576018 0.047408 0.027054 255 220 0
0.633804 0.043105 0.093952 255 220 0
0.541259 -0.046916 0.025639 255 220 0
0.642646 0.051136 0.038021 255 220 0
0.589604 -0.052865 0.057206 255 220 0
0.579858 -0.057366 0.035269 255 220 0
0.629995 0.071812 0.031125 255 220 0
0.631479 0.022400 0.092523 255 220 0
0.570457 0.047678 0.048116 255 220 0
0.595125 0.088791 0.067293 255 220 0
0.558948 -0.004648 0.025172 255 220 0
0.580812 -0.049720 0.068863 255 220 0
0.614558 0.013712 0.099321 255 220 0
0.582041 -0.012505 0.013221 255 220 0
0.626129 -0.004746 0.035814 255 220 0
0.612342 0.054410 0.100805 255 220 0
0.577178 0.061554 0.066069 255 220 0
0.584266 0.052305 0.020781 255 220 0
0.613438 0.025418 0.015842 255 220 0
0.556433 -0.014100 0.055345 255 220 0
0.596225 0.035304 0.099451 255 220 0
0.573842 -0.048011 0.068344 255 220 0
0.581976 0.060642 0.080181 255 220 0
0.618552 0.057733 0.019807 255 220 0
0.634504 0.023124 0.031164 255 220 0
0.613272 0.066298 0.020873 255 220 0
0.638664 0.050375 0.089801 255 220 0
0.550051 -0.042945 0.050726 255 220 0
0.633183 0.073693 0.091921 255 220 0
0.559640 -0.000329 0.057347 255 220 0
0.626745 0.027889 0.097332 255 220 0
0.564808 0.027589 0.040581 255 220 0
0.552820 -0.033537 0.053524 255 220 0
0.586334 0.006542 0.093703 255 220 0
0.561906 -0.045379 0.062290 255 220 0
0.574552 -0.051525 0.065961 255 220 0
0.618468 0.098021 0.075414 255 220 0
0.555375 -0.015320 0.053282 255 220 0
0.625403 -0.012813 0.042861 255 220 0
0.561662 0.012329 0.032684 255 220 0
0.609457 -0.032257 0.070779 255 220 0
0.567515 0.035010 0.037148 255 220 0
0.614460 0.037093 0.102312 255 220 0
0.561075 0.013653 0.038762 255 220 0
0.578882 -0.058516 0.056188 255 220 0
0.641992 0.045082 0.036626 255 220 0
0.562165 -0.015666 0.067460 255 220 0
0.564964 -0.023137 0.071720 255 220 0
0.636735 0.073202 0.089487 255 220 0
0.635303 0.073044 0.036044 255 220 0
0.632010 0.026400 0.093180 255 220 0
0.547163 -0.045606 0.046795 255 220 0
0.540838 -0.046647 0.027066 255 220 0
0.623073 0.098489 0.054353 255 220 0
0.586812 -0.044413 0.024901 255 220 0
0.629231 0.067230 0.095423 255 220 0
0.593264 0.001009 0.096960 255 220 0
0.571448 -0.061887 0.037938 255 220 0
0.550241 -0.037014 0.050053 255 220 0
0.575486 0.061212 0.052443 255 220 0
0.546135 -0.049423 0.044627 255 220 0
0.601634 0.040742 0.100984 255 220 0
0.548164 -0.051842 0.046356 255 220 0
0.606088 -0.023749 0.086310 255 220 0
0.641218 0.070990 0.041789 255 220 0
0.601449 0.091344 0.046284 255 220 0
0.554660 -0.060522 0.026481 255 220 0
0.583066 0.058293 0.083436 255 220 0
0.554982 -0.057672 0.048625 255 220 0
0.600422 -0.012627 0.018740 255 220 0
0.575692 0.031716 0.018770 255 220 0
0.637674 0.002784 0.062491 255 220 0
0.573022 0.053407 0.043291 255 220 0
0.629477 -0.008061 0.070767 255 220 0
0.649645 0.047890 0.069436 255 220 0
0.585432 0.077239 0.046565 255 220 0
0.612360 0.095076 0.078162 255 220 0
0.640063 0.034213 0.086280 255 220 0
0.553247 -0.026031 0.052481 255 220 0
0.572482 0.022457 0.018818 255 220 0
0.612440 0.012412 0.099669 255 220 0
0.624358 -0.003755 0.032839 255 220 0
0.587749 0.081113 0.050466 255 220 0
0.620107 0.079253 0.094510 255 220 0
0.593236 0.000449 0.013320 255 220 0
0.619111 0.100434 0.067564 255 220 0
0.545516 -0.032470 0.024187 255 220 0
0.584324 0.073230 0.073296 255 220 0
0.591744 -0.048598 0.064865 255 220 0
0.594036 -0.045119 0.068598 255 220 0
0.566945 0.031155 0.034037 255 220 0
0.582070 -0.005513 0.012941 255 220 0
0.632424 0.009350 0.034695 255 220 0
0.625700 0.030132 0.021980 255 220 0
0.569752 0.000607 0.078759 255 220 0
0.616824 0.009223 0.021195 255 220 0
0.647071 0.037383 0.074099 255 220 0
0.615727 -0.027375 0.043699 255 220 0
0.552466 -0.040970 0.014461 255 220 0
0.606945 0.080352 0.092021 255 220 0
0.596333 -0.022710 0.020000 255 220 0
0.608926 0.026067 0.102303 255 220 0
0.607373 0.092902 0.078349 255 220 0
0.570173 0.044412 0.040080 255 220 0
0.575566 0.020499 0.084113 255 220 0
0.648909 0.068348 0.066948 255 220 0
0.619944 -0.024099 0.048483 255 220 0
0.643603 0.041798 0.039277 255 220 0
0.645724 0.044696 0.079282 255 220 0
0.594417 -0.043011 0.071617 255 220 0
0.611333 -0.013716 0.090690 255 220 0
0.574811 0.033441 0.080330 255 220 0
0.616190 0.061117 0.099730 255 220 0
0.587762 -0.013047 0.091684 255 220 0
0.578668 -0.041760 0.074508 255 220 0
0.620135 0.054042 0.099914 255 220 0
0.569441 0.043881 0.055220 255 220 0
0.649672 0.042916 0.054434 255 220 0
0.637219 0.044658 0.091040 255 220 0
0.586165 -0.024611 0.015919 255 220 0
0.600276 -0.031481 0.027109 255 220 0
0.555965 -0.006541 0.048707 255 220 0
0.621408 -0.021989 0.048302 255 220 0
0.581790 0.072928 0.049486 255 220 0
0.575130 0.039769 0.023207 255 220 0
0.613153 -0.008992 0.025355 255 220 0
0.570975 0.043115 0.064714 255 220 0
0.638810 0.004611 0.057085 255 220 0
0.568861 0.036722 0.062942 255 220 0
0.618584 -0.020123 0.039019 255 220 0
0.564397 -0.064080 0.040651 255 220 0
0.606360 -0.034976 0.037610 255 220 0
0.584496 0.019178 0.012213 255 220 0
0.566616 0.035128 0.048104 255 220 0
0.607175 0.095847 0.052095 255 220 0
0.566233 -0.047397 0.064421 255 220 0
0.584914 -0.050946 0.029831 255 220 0
0.603140 0.069261 0.021446 255 220 0
0.613606 0.008200 0.019611 255 220 0
0.555100 -0.010606 0.049291 255 220 0
0.620110 -0.023032 0.066712 255 220 0
0.561567 0.015775 0.050035 255 220 0
0.578330 -0.028701 0.014482 255 220 0
0.639892 0.060620 0.035915 255 220 0
0.614793 -0.011596 0.089435 255 220 0
0.567219 0.034435 0.057992 255 220 0
0.565932 0.004098 0.020347 255 220 0
0.554874 -0.032130 0.056687 255 220 0
0.620134 -0.006813 0.030191 255 220 0
0.639301 0.006332 0.064427 255 220 0
0.590481 0.056110 0.092230 255 220 0
0.583588 -0.032179 0.017007 255 220 0
0.547311 -0.025954 0.033759 255 220 0
0.610634 0.094217 0.078539 255 220 0
0.632192 0.081223 0.089466 255 220 0
0.617579 0.095554 0.046492 255 220 0
0.592729 0.006745 0.097353 255 220 0
0.595416 -0.043714 0.033251 255 220 0
0.601865 0.072623 0.094078 255 220 0
0.599651 0.050500 0.098934 255 220 0
0.584811 0.067285 0.080646 255 220 0
0.628619 0.016244 0.092774 255 220 0
0.589305 -0.010484 0.093057 255 220 0
0.624639 0.097167 0.051842 255 220 0
0.566950 -0.063097 0.047988 255 220 0
0.597083 -0.039243 0.074828 255 220 0
0.552540 -0.016397 0.044820 255 220 0
0.616249 0.029712 0.016673 255 220 0
0.562346 0.019384 0.043600 255 220 0
0.602801 -0.042726 0.059069 255 220 0
0.583956 0.037986 0.090308 255 220 0
0.606695 -0.039008 0.060368 255 220 0
0.650089 0.062151 0.062384 255 220 0
0.577081 0.064482 0.050136 255 220 0
0.560244 -0.054336 0.055849 255 220 0
0.565393 0.022025 0.062689 255 220 0
0.629550 0.080471 0.091276 255 220 0
0.559262 0.004934 0.033727 255 220 0
0.573373 0.046260 0.069471 255 220 0
0.597752 0.082591 0.084139 255 220 0
0.583009 0.000065 0.091125 255 220 0
0.588476 0.059576 0.089333 255 220 0
0.624700 0.076669 0.094722 255 220 0
0.643376 0.057940 0.040394 255 220 0
0.604504 0.014249 0.100984 255 220 0
0.555756 -0.005183 0.034102 255 220 0
0.570471 0.032623 0.026068 255 220 0
0.568489 -0.029201 0.073923 255 220 0
0.618456 0.015876 0.020384 255 220 0
0.569852 0.021453 0.074906 255 220 0
0.618341 0.056061 0.019274 255 220 0
0.556420 -0.002214 0.039327 255 220 0
0.584994 0.010546 0.012257 255 220 0
0.631999 0.000162 0.040845 255 220 0
0.589986 -0.051568 0.038417 255 220 0
0.575248 -0.061038 0.048815 255 220 0
0.570481 0.047135 0.045204 255 220 0
0.580424 -0.003816 0.013043 255 220 0
0.557488 -0.034656 0.060663 255 220 0
0.560834 -0.023932 0.065836 255 220 0
0.599601 0.007886 0.099805 255 220 0
0.604455 -0.040649 0.061345 255 220 0
0.603115 0.049256 0.100284 255 220 0
0.567720 -0.030866 0.013308 255 220 0
0.628806 0.061969 0.026551 255 220 0
0.622994 0.034809 0.019740 255 220 0
0.550314 -0.045084 0.015306 255 220 0
0.631029 0.006858 0.034323 255 220 0
0.550062 -0.047185 0.015749 255 220 0
0.647487 0.046306 0.075676 255 220 0
0.619588 -0.012391 0.083368 255 220 0
0.591627 0.083221 0.044333 255 220 0
0.602027 0.005109 0.014940 255 220 0
0.641588 0.067623 0.040773 255 220 0
0.556088 -0.014035 0.022718 255 220 0
0.566540 -0.040732 0.067972 255 220 0
0.569007 0.043198 0.051223 255 220 0
0.600892 -0.007104 0.096909 255 220 0
0.593793 0.060843 0.093405 255 220 0
0.592103 0.075329 0.031656 255 220 0
0.552264 -0.021368 0.048184 255 220 0
0.645140 0.052222 0.081136 255 220 0
0.610385 0.098644 0.063083 255 220 0
0.643452 0.040048 0.039109 255 220 0
0.583767 -0.001273 0.012790 255 220 0
0.555249 -0.059074 0.023301 255 220 0
0.649661 0.041271 0.055188 255 220 0
0.647372 0.034112 0.049422 255 220 0
0.562388 -0.016270 0.016628 255 220 0
0.640928 0.027992 0.037833 255 220 0
