ply
format ascii 1.0
element vertex 1024
property float x
property float y
property float z
property uchar red
property uchar green
property uchar blue
end_header
0.609130 0.012251 0.100193 255 220 0
0.620584 0.075819 0.027058 255 220 0
0.627654 0.004974 0.087048 255 220 0
0.607634 -0.000808 0.097966 255 220 0
0.556256 -0.059511 0.023018 255 220 0
0.577863 -0.025306 0.083025 255 220 0
0.585481 0.052166 0.088923 255 220 0
0.622597 0.090130 0.086199 255 220 0
0.609057 0.001814 0.098285 255 220 0
0.587724 0.081853 0.060532 255 220 0
0.590721 -0.018932 0.091484 255 220 0
0.636557 0.022277 0.034057 255 220 0
0.631408 0.073880 0.032510 255 220 0
0.591566 -0.036749 0.023337 255 220 0
0.554263 -0.010008 0.043889 255 220 0
0.590105 -0.052962 0.047149 255 220 0
0.620813 0.019871 0.020578 255 220 0
0.595882 -0.008972 0.096166 255 220 0
0.600331 0.014836 0.100869 255 220 0
0.617947 0.030283 0.016937 255 220 0
0.648609 0.053961 0.051794 255 220 0
0.616425 -0.002107 0.024955 255 220 0
0.605699 0.066793 0.097552 255 220 0
0.627066 0.024337 0.095832 255 220 0
0.579561 0.054070 0.080212 255 220 0
0.570390 -0.062120 0.037499 255 220 0
0.576170 -0.018865 0.083962 255 220 0
0.618447 0.099396 0.056038 255 220 0
0.648281 0.033101 0.060237 255 220 0
0.623486 0.047319 0.099163 255 220 0
0.604043 0.033650 0.102283 255 220 0
0.628434 -0.006839 0.073731 255 220 0
0.617764 -0.019790 0.038050 255 220 0
0.579422 0.058068 0.077050 255 220 0
0.576477 0.044857 0.024972 255 220 0
0.650247 0.045499 0.059425 255 220 0
0.625271 0.037981 0.020478 255 220 0
0.614152 0.020836 0.016416 255 220 0
0.600496 -0.008209 0.017199 255 220 0
0.637805 0.021472 0.036170 255 220 0
0.626453 0.063371 0.024984 255 220 0
0.586732 -0.053850 0.038760 255 220 0
0.589135 0.060109 0.089861 255 220 0
0.611116 0.084944 0.089762 255 220 0
0.566456 -0.008712 0.075549 255 220 0
0.570342 0.045290 0.058863 255 220 0
0.565003 0.018317 0.064479 255 220 0
0.569884 0.004971 0.017094 255 220 0
0.624923 0.096522 0.050283 255 220 0
0.544052 -0.051429 0.039365 255 220 0
0.594707 0.087267 0.048465 255 220 0
0.622788 0.051319 0.099067 255 220 0
0.589720 -0.050373 0.035784 255 220 0
0.626013 -0.007770 0.077279 255 220 0
0.591335 -0.020242 0.016471 255 220 0
0.648218 0.050122 0.050098 255 220 0
0.647096 0.061633 0.076032 255 220 0
0.595373 -0.047791 0.041605 255 220 0
0.626437 -0.015390 0.060274 255 220 0
0.637186 0.094888 0.066521 255 220 0
0.565898 -0.049837 0.063149 255 220 0
0.630968 -0.008287 0.059452 255 220 0
0.598022 -0.046876 0.047646 255 220 0
0.623778 0.075421 0.094880 255 220 0
0.647723 0.043099 0.073509 255 220 0
0.605732 0.019810 0.012862 255 220 0
0.587255 -0.021463 0.015193 255 220 0
0.623509 -0.014255 0.041821 255 220 0
0.611989 -0.025116 0.077023 255 220 0
0.648641 0.058269 0.052938 255 220 0
0.567200 0.034802 0.040977 255 220 0
0.647008 0.076137 0.068483 255 220 0
0.585264 -0.037752 0.019677 255 220 0
0.634724 0.094517 0.054987 255 220 0
0.611310 -0.030280 0.069726 255 220 0
0.582540 0.074662 0.059374 255 220 0
0.593602 -0.048538 0.060690 255 220 0
0.585737 -0.033175 0.018019 255 220 0
0.604577 -0.014386 0.021642 255 220 0
0.642752 0.085220 0.055194 255 220 0
0.640934 0.073625 0.084180 255 220 0
0.625042 -0.017129 0.062226 255 220 0
0.609559 0.078053 0.026342 255 220 0
0.626931 0.099534 0.068496 255 220 0
0.576832 -0.048742 0.020848 255 220 0
0.544781 -0.038656 0.020225 255 220 0
0.636638 0.069315 0.035240 255 220 0
0.565835 -0.062572 0.049243 255 220 0
0.544991 -0.049503 0.019510 255 220 0
0.601986 0.030199 0.011278 255 220 0
0.564478 -0.063873 0.038789 255 220 0
0.636124 0.022555 0.033381 255 220 0
0.586332 0.064654 0.084746 255 220 0
0.603547 0.083177 0.031975 255 220 0
0.619216 -0.024984 0.061814 255 220 0
0.593464 -0.031346 0.021791 255 220 0
0.572065 0.045876 0.035567 255 220 0
0.611575 0.051924 0.100877 255 220 0
0.546592 -0.057996 0.028933 255 220 0
0.630867 -0.006679 0.066857 255 220 0
0.625294 -0.008620 0.077493 255 220 0
0.585050 -0.052954 0.062427 255 220 0
0.608959 -0.037188 0.052462 255 220 0
0.564505 0.026848 0.051891 255 220 0
0.559416 -0.028135 0.014132 255 220 0
0.549445 -0.026390 0.022426 255 220 0
0.617998 0.009464 0.021694 255 220 0
0.595171 -0.035783 0.079529 255 220 0
0.548974 -0.051585 0.017292 255 220 0
0.553288 -0.017441 0.048653 255 220 0
0.620255 0.100674 0.064312 255 220 0
0.642271 0.042596 0.084029 255 220 0
0.609570 -0.022870 0.030229 255 220 0
0.564541 -0.063413 0.046267 255 220 0
0.565539 -0.043356 0.066511 255 220 0
0.589650 0.078028 0.038490 255 220 0
0.578364 0.001175 0.088543 255 220 0
0.620325 -0.009091 0.032140 255 220 0
0.558021 0.002948 0.042738 255 220 0
0.630090 -0.009452 0.061399 255 220 0
0.575574 0.037601 0.021774 255 220 0
0.581515 0.023913 0.013076 255 220 0
0.625565 -0.011385 0.073203 255 220 0
0.562868 0.010423 0.027937 255 220 0
0.594924 0.027604 0.099770 255 220 0
0.562091 -0.034696 0.012712 255 220 0
0.604605 0.083042 0.088652 255 220 0
0.632815 0.041807 0.094082 255 220 0
0.646709 0.027244 0.063445 255 220 0
0.618911 0.045629 0.017159 255 220 0
0.638052 0.085081 0.046556 255 220 0
0.586454 -0.035599 0.019393 255 220 0
0.564757 0.027709 0.052254 255 220 0
0.611408 0.041480 0.102167 255 220 0
0.563497 0.000607 0.068031 255 220 0
0.564864 -0.063013 0.047764 255 220 0
0.588915 0.041521 0.013942 255 220 0
0.562579 -0.051940 0.059459 255 220 0
0.569241 0.019492 0.075500 255 220 0
0.588266 -0.038062 0.021736 255 220 0
0.585109 0.031395 0.092848 255 220 0
0.563434 -0.034495 0.068228 255 220 0
0.554568 -0.011079 0.047658 255 220 0
0.598926 -0.042311 0.037075 255 220 0
0.574904 0.028259 0.018356 255 220 0
0.650388 0.047890 0.060105 255 220 0
0.574436 0.052780 0.067030 255 220 0
0.576629 0.018283 0.014748 255 220 0
0.625203 -0.012709 0.071898 255 220 0
0.612904 -0.024116 0.035323 255 220 0
0.579556 -0.040060 0.017627 255 220 0
0.594859 -0.033103 0.082465 255 220 0
0.586697 -0.039872 0.077789 255 220 0
0.569759 -0.039131 0.071652 255 220 0
0.580933 0.037334 0.016582 255 220 0
0.620735 0.094035 0.043870 255 220 0
0.636696 0.054416 0.091058 255 220 0
0.581097 0.072321 0.056352 255 220 0
0.605031 -0.039650 0.060990 255 220 0
0.616464 0.007666 0.096910 255 220 0
0.552088 -0.056699 0.046614 255 220 0
0.552596 -0.060213 0.042407 255 220 0
0.617287 0.099819 0.058006 255 220 0
0.615191 0.009485 0.019896 255 220 0
0.569872 0.026890 0.073819 255 220 0
0.571625 0.040330 0.069468 255 220 0
0.650194 0.045197 0.058986 255 220 0
0.583984 0.032236 0.091743 255 220 0
0.553582 -0.012599 0.029867 255 220 0
0.610752 0.057332 0.100067 255 220 0
0.565216 0.023163 0.061772 255 220 0
0.588964 0.002672 0.012133 255 220 0
0.645850 0.081014 0.067257 255 220 0
0.605758 -0.013349 0.022012 255 220 0
0.640163 0.080649 0.045818 255 220 0
0.644105 0.082944 0.056178 255 220 0
0.548560 -0.024472 0.027397 255 220 0
0.549467 -0.032576 0.017974 255 220 0
0.584533 -0.009055 0.091754 255 220 0
0.563281 -0.009468 0.070023 255 220 0
0.611672 -0.024122 0.033679 255 220 0
0.590879 -0.030306 0.019693 255 220 0
0.565421 -0.010168 0.073973 255 220 0
0.586116 0.069092 0.081546 255 220 0
0.566550 0.027018 0.063425 255 220 0
0.630439 -0.008198 0.050932 255 220 0
0.545989 -0.055913 0.038151 255 220 0
0.584759 0.067440 0.032265 255 220 0
0.561696 -0.027610 0.067842 255 220 0
0.599381 0.027880 0.010933 255 220 0
0.647732 0.043427 0.048441 255 220 0
0.640963 0.060174 0.036892 255 220 0
0.583996 -0.003483 0.012456 255 220 0
0.609142 0.087774 0.035026 255 220 0
0.633776 -0.002091 0.066360 255 220 0
0.571087 -0.025648 0.077944 255 220 0
0.623532 0.017096 0.096024 255 220 0
0.576883 -0.031474 0.079812 255 220 0
0.609992 0.097838 0.056256 255 220 0
0.581768 -0.013556 0.089128 255 220 0
0.601724 0.071652 0.094369 255 220 0
0.598989 -0.039246 0.032872 255 220 0
0.638247 0.031919 0.032982 255 220 0
0.573947 0.013791 0.083806 255 220 0
0.587582 -0.025817 0.016444 255 220 0
0.600621 0.081758 0.031984 255 220 0
0.597939 -0.039507 0.072351 255 220 0
0.648672 0.048313 0.072028 255 220 0
0.608927 0.033525 0.102611 255 220 0
0.557715 -0.028193 0.061791 255 220 0
0.579701 0.059035 0.076926 255 220 0
0.551602 -0.054997 0.018546 255 220 0
0.615867 -0.017499 0.081305 255 220 0
0.629557 0.000210 0.080376 255 220 0
0.596647 0.050686 0.014600 255 220 0
0.600368 -0.039840 0.035607 255 220 0
0.613984 -0.000939 0.095245 255 220 0
0.582665 0.003471 0.012381 255 220 0
0.596088 0.022109 0.100223 255 220 0
0.633027 0.037138 0.026336 255 220 0
0.573416 0.041490 0.074095 255 220 0
0.565829 -0.063172 0.047143 255 220 0
0.587168 0.059698 0.022825 255 220 0
0.631682 0.081331 0.036786 255 220 0
0.606467 0.086834 0.034797 255 220 0
0.564007 0.022585 0.056886 255 220 0
0.618199 0.002124 0.093925 255 220 0
0.623223 0.071036 0.026016 255 220 0
0.624016 0.086016 0.035135 255 220 0
0.574197 0.054563 0.063824 255 220 0
0.577231 -0.059864 0.049179 255 220 0
0.572318 0.046123 0.035032 255 220 0
0.577430 0.021592 0.014764 255 220 0
0.610413 0.094695 0.045960 255 220 0
0.562837 0.015307 0.059005 255 220 0
0.639484 0.077750 0.042871 255 220 0
0.611778 0.096431 0.074550 255 220 0
0.630258 0.022646 0.092985 255 220 0
0.602913 -0.009834 0.018952 255 220 0
0.560877 -0.002236 0.062186 255 220 0
0.624703 -0.009838 0.077003 255 220 0
0.577705 0.060247 0.069676 255 220 0
0.591760 -0.032393 0.021168 255 220 0
0.592473 0.059574 0.092876 255 220 0
0.638986 0.046158 0.088578 255 220 0
0.603706 0.043620 0.012722 255 220 0
0.589332 0.056126 0.019242 255 220 0
0.563059 -0.035698 0.067493 255 220 0
0.592398 0.080318 0.080323 255 220 0
0.584636 -0.042236 0.075777 255 220 0
0.634152 0.004942 0.077204 255 220 0
0.648629 0.043367 0.051200 255 220 0
0.637714 0.028150 0.033371 255 220 0
0.610831 0.005032 0.098505 255 220 0
0.644755 0.020945 0.054637 255 220 0
0.608484 0.073553 0.023356 255 220 0
0.621611 0.001412 0.090863 255 220 0
0.641472 0.043876 0.085317 255 220 0
0.546859 -0.045626 0.046120 255 220 0
0.604841 0.092442 0.076551 255 220 0
0.625156 -0.008419 0.038143 255 220 0
0.626083 0.039242 0.098285 255 220 0
0.635015 0.096535 0.064874 255 220 0
0.642611 0.088186 0.069094 255 220 0
0.638179 0.086714 0.080041 255 220 0
0.608935 0.078084 0.093851 255 220 0
0.602128 0.058540 0.016299 255 220 0
0.620238 -0.024256 0.054308 255 220 0
0.584342 -0.006284 0.012585 255 220 0
0.640015 0.092346 0.065763 255 220 0
0.637189 0.094989 0.065316 255 220 0
0.550152 -0.028629 0.046652 255 220 0
0.610737 0.046789 0.101583 255 220 0
0.556103 -0.007185 0.029414 255 220 0
0.605998 0.005677 0.015989 255 220 0
0.628159 -0.006904 0.041958 255 220 0
0.601625 0.012748 0.012732 255 220 0
0.558297 0.000617 0.032716 255 220 0
0.576007 0.047457 0.076676 255 220 0
0.570605 0.047755 0.049253 255 220 0
0.621086 -0.006925 0.031567 255 220 0
0.614422 0.080724 0.093369 255 220 0
0.592133 0.019925 0.010736 255 220 0
0.621669 0.032674 0.018732 255 220 0
0.597128 0.000567 0.013804 255 220 0
0.582870 0.013890 0.092139 255 220 0
0.585835 -0.015074 0.013613 255 220 0
0.628812 0.001710 0.082980 255 220 0
0.574925 0.009685 0.085261 255 220 0
0.610861 0.006356 0.018308 255 220 0
0.572203 -0.034469 0.013604 255 220 0
0.634254 0.084906 0.041909 255 220 0
0.583826 0.074026 0.070605 255 220 0
0.588742 -0.008940 0.013346 255 220 0
0.620374 -0.018631 0.072729 255 220 0
0.646579 0.035903 0.073735 255 220 0
0.562241 0.014940 0.034764 255 220 0
0.561688 0.007419 0.060141 255 220 0
0.594944 -0.012900 0.094711 255 220 0
0.581094 -0.052908 0.065036 255 220 0
0.565912 -0.032802 0.012729 255 220 0
0.649117 0.065317 0.058446 255 220 0
0.598424 -0.026363 0.022779 255 220 0
0.616990 -0.028123 0.052269 255 220 0
0.549479 -0.049730 0.048898 255 220 0
0.647638 0.030490 0.058919 255 220 0
0.623285 -0.020243 0.056316 255 220 0
0.568742 0.032121 0.066758 255 220 0
0.646024 0.024659 0.063391 255 220 0
0.605300 0.070575 0.021594 255 220 0
0.633644 0.092097 0.049503 255 220 0
0.617757 0.041673 0.016378 255 220 0
0.647828 0.069031 0.071057 255 220 0
0.649743 0.040427 0.060956 255 220 0
0.572410 0.049952 0.040725 255 220 0
0.591352 0.069736 0.026896 255 220 0
0.633340 0.078595 0.036575 255 220 0
0.620215 0.036788 0.100718 255 220 0
0.554058 -0.045802 0.055236 255 220 0
0.645440 0.025086 0.051365 255 220 0
0.566918 -0.028664 0.073362 255 220 0
0.601077 -0.020265 0.021783 255 220 0
0.569044 -0.057184 0.058896 255 220 0
0.562724 -0.004601 0.020361 255 220 0
0.612731 0.037760 0.102311 255 220 0
0.566660 0.030759 0.060212 255 220 0
0.643134 0.076057 0.079933 255 220 0
0.591577 0.073917 0.030782 255 220 0
0.604595 -0.035402 0.036090 255 220 0
0.550288 -0.033997 0.049284 255 220 0
0.559763 0.008182 0.038246 255 220 0
0.609931 0.023977 0.013874 255 220 0
0.556394 -0.002698 0.038916 255 220 0
0.636324 0.092188 0.052929 255 220 0
0.570613 0.032895 0.072152 255 220 0
0.617776 -0.003612 0.091173 255 220 0
0.566685 0.029637 0.034595 255 220 0
0.615646 0.046522 0.101238 255 220 0
0.617771 0.015434 0.098313 255 220 0
0.541290 -0.042712 0.034059 255 220 0
0.598781 -0.040429 0.034054 255 220 0
0.564438 0.009859 0.067149 255 220 0
0.585001 -0.003625 0.012468 255 220 0
0.627980 -0.003980 0.078393 255 220 0
0.600157 -0.044963 0.055977 255 220 0
0.543970 -0.051014 0.021835 255 220 0
0.593654 0.021570 0.099204 255 220 0
0.592314 0.085326 0.048999 255 220 0
0.628568 -0.008532 0.045181 255 220 0
0.629026 0.078347 0.091955 255 220 0
0.606963 0.096686 0.056467 255 220 0
0.638673 0.018228 0.039358 255 220 0
0.598443 0.090802 0.070267 255 220 0
0.542730 -0.053522 0.028843 255 220 0
0.630896 0.014312 0.030672 255 220 0
0.573947 0.031083 0.080393 255 220 0
0.638229 0.007733 0.070468 255 220 0
0.596179 0.052997 0.096931 255 220 0
0.597515 -0.037012 0.028853 255 220 0
0.566160 0.002570 0.019542 255 220 0
0.619018 -0.025901 0.057069 255 220 0
0.555481 -0.062293 0.042148 255 220 0
0.595831 -0.046868 0.040210 255 220 0
0.590988 -0.052150 0.053233 255 220 0
0.620851 -0.007298 0.085247 255 220 0
0.564746 0.026999 0.041855 255 220 0
0.556581 -0.044058 0.013107 255 220 0
0.636189 0.000427 0.057406 255 220 0
0.615405 0.046444 0.015767 255 220 0
0.580644 -0.014260 0.012828 255 220 0
0.596201 0.061764 0.094785 255 220 0
0.629354 0.090574 0.043433 255 220 0
0.574563 0.041584 0.025642 255 220 0
0.635088 0.071663 0.034745 255 220 0
0.595748 -0.013514 0.094584 255 220 0
0.611062 -0.031316 0.041614 255 220 0
0.615511 0.059346 0.018448 255 220 0
0.564500 -0.062471 0.030539 255 220 0
0.575654 0.057780 0.065359 255 220 0
0.608470 0.012752 0.100383 255 220 0
0.606321 0.076149 0.025233 255 220 0
0.612212 0.063634 0.099063 255 220 0
0.592429 0.085126 0.071918 255 220 0
0.636578 0.072061 0.089235 255 220 0
0.621078 -0.020838 0.046629 255 220 0
0.649805 0.045815 0.067041 255 220 0
0.580399 0.063891 0.036027 255 220 0
0.607879 -0.038308 0.053077 255 220 0
0.600453 -0.008000 0.017121 255 220 0
0.639879 0.008758 0.065548 255 220 0
0.617280 0.044185 0.016313 255 220 0
0.643658 0.056730 0.040341 255 220 0
0.555918 -0.004080 0.041364 255 220 0
0.619766 0.014713 0.021275 255 220 0
0.630745 0.021194 0.027937 255 220 0
0.649823 0.051712 0.068290 255 220 0
0.629148 0.003460 0.084045 255 220 0
0.578826 0.064929 0.067431 255 220 0
0.554605 -0.013734 0.050336 255 220 0
0.641698 0.011596 0.059126 255 220 0
0.610928 -0.020818 0.030183 255 220 0
0.612299 0.001082 0.020860 255 220 0
0.616879 0.020293 0.099730 255 220 0
0.614761 0.062852 0.019305 255 220 0
0.633588 0.066795 0.031388 255 220 0
0.600662 -0.024391 0.087960 255 220 0
0.617954 0.076017 0.026256 255 220 0
0.645866 0.023683 0.060187 255 220 0
0.589334 0.011998 0.096633 255 220 0
0.590915 0.085088 0.054557 255 220 0
0.579975 -0.056367 0.032976 255 220 0
0.634822 0.091838 0.078233 255 220 0
0.605630 -0.037761 0.064611 255 220 0
0.645640 0.026974 0.070102 255 220 0
0.558748 -0.022577 0.063130 255 220 0
0.575244 0.056170 0.039504 255 220 0
0.593994 -0.012492 0.094681 255 220 0
0.555578 -0.031020 0.058347 255 220 0
0.546657 -0.037748 0.018244 255 220 0
0.623977 0.001608 0.029638 255 220 0
0.583869 0.045953 0.017992 255 220 0
0.592621 0.083158 0.076648 255 220 0
0.646437 0.063271 0.048100 255 220 0
0.589779 -0.033732 0.082791 255 220 0
0.576899 0.063701 0.058726 255 220 0
0.543300 -0.036220 0.026251 255 220 0
0.605791 0.085633 0.086917 255 220 0
0.566735 0.034883 0.046185 255 220 0
0.580416 0.037301 0.087234 255 220 0
0.610017 -0.035835 0.050450 255 220 0
0.595106 0.089345 0.062613 255 220 0
0.606079 0.055955 0.015522 255 220 0
0.614686 0.047152 0.101289 255 220 0
0.588196 0.030483 0.095444 255 220 0
0.649782 0.040681 0.060905 255 220 0
0.625634 -0.015602 0.050382 255 220 0
0.609501 -0.036386 0.057680 255 220 0
0.605571 0.081634 0.029769 255 220 0
0.612419 -0.029107 0.069918 255 220 0
0.643417 0.023076 0.073844 255 220 0
0.591886 -0.010468 0.094765 255 220 0
0.627801 0.089392 0.085405 255 220 0
0.544263 -0.049189 0.020279 255 220 0
0.568493 0.036936 0.061452 255 220 0
0.591139 -0.051866 0.054453 255 220 0
0.580977 0.050815 0.023131 255 220 0
0.553015 -0.013325 0.041758 255 220 0
0.586832 -0.019684 0.014672 255 220 0
0.582882 0.045310 0.088059 255 220 0
0.637313 0.092098 0.074670 255 220 0
0.610904 -0.006730 0.022842 255 220 0
0.622465 0.092220 0.041550 255 220 0
0.599952 0.015261 0.011896 255 220 0
0.552372 -0.016744 0.027125 255 220 0
0.562457 -0.009311 0.018693 255 220 0
0.638054 0.043213 0.089387 255 220 0
0.633664 0.006382 0.038920 255 220 0
0.595869 0.082849 0.081741 255 220 0
0.565172 0.029099 0.052907 255 220 0
0.642904 0.014787 0.061894 255 220 0
0.592292 -0.020972 0.017104 255 220 0
0.581168 0.031954 0.014792 255 220 0
0.607055 0.094079 0.075341 255 220 0
0.624590 0.005399 0.090480 255 220 0
0.555066 -0.035101 0.013864 255 220 0
0.645703 0.068410 0.077615 255 220 0
0.598693 -0.021206 0.090764 255 220 0
0.582721 -0.056933 0.040866 255 220 0
0.643718 0.042386 0.039539 255 220 0
0.605932 -0.034101 0.071398 255 220 0
0.562453 0.017878 0.054035 255 220 0
0.555335 -0.008976 0.029355 255 220 0
0.628509 -0.011921 0.053471 255 220 0
0.640490 0.043244 0.086540 255 220 0
0.606541 -0.037893 0.044472 255 220 0
0.600929 -0.025483 0.086941 255 220 0
0.583492 0.013374 0.092633 255 220 0
0.597283 0.087534 0.076582 255 220 0
0.636057 0.002409 0.067870 255 220 0
0.621395 0.096389 0.048591 255 220 0
0.566225 0.024676 0.064134 255 220 0
0.563110 0.022122 0.046367 255 220 0
0.587297 0.079159 0.046211 255 220 0
0.590953 0.055371 0.018038 255 220 0
0.632698 0.006052 0.081035 255 220 0
0.542200 -0.047026 0.037335 255 220 0
0.565614 -0.026385 0.072695 255 220 0
0.554302 -0.010643 0.045486 255 220 0
0.637873 0.005990 0.049041 255 220 0
0.546940 -0.047337 0.016953 255 220 0
0.621201 0.026546 0.099417 255 220 0
0.601277 0.055578 0.098628 255 220 0
0.620062 0.066714 0.097841 255 220 0
0.624781 0.023220 0.022457 255 220 0
0.588855 0.082899 0.064371 255 220 0
0.579787 0.053961 0.080703 255 220 0
0.628433 0.085898 0.087942 255 220 0
0.625164 0.023210 0.096758 255 220 0
0.590446 0.059727 0.020440 255 220 0
0.569790 0.037400 0.032668 255 220 0
0.575489 0.035641 0.081394 255 220 0
0.559960 0.009147 0.050464 255 220 0
0.572246 0.012792 0.016794 255 220 0
0.571927 -0.004039 0.014588 255 220 0
0.571079 -0.009398 0.081304 255 220 0
0.625095 0.091176 0.084670 255 220 0
0.619753 0.099311 0.071974 255 220 0
0.630011 0.017542 0.091418 255 220 0
0.639072 0.006485 0.063369 255 220 0
0.593054 0.043868 0.013448 255 220 0
0.620213 -0.021257 0.068473 255 220 0
0.608181 0.025071 0.013063 255 220 0
0.604167 -0.035566 0.035658 255 220 0
0.584630 -0.047305 0.025445 255 220 0
0.600859 -0.006339 0.016856 255 220 0
0.560214 -0.054762 0.055677 255 220 0
0.620423 0.012181 0.096242 255 220 0
0.558119 -0.013852 0.059643 255 220 0
0.606009 -0.007482 0.019978 255 220 0
0.621890 -0.017233 0.071859 255 220 0
0.624555 0.070553 0.026526 255 220 0
0.625882 0.048769 0.098101 255 220 0
0.613855 -0.030106 0.046022 255 220 0
0.638564 0.091897 0.056236 255 220 0
0.582054 -0.053433 0.063833 255 220 0
0.589495 -0.017972 0.015177 255 220 0
0.573869 -0.031530 0.013503 255 220 0
0.558977 0.006177 0.047297 255 220 0
0.606921 -0.031808 0.073875 255 220 0
0.629786 0.095000 0.050612 255 220 0
0.563199 -0.003601 0.068555 255 220 0
0.586247 0.068521 0.031321 255 220 0
0.645625 0.024107 0.065927 255 220 0
0.619448 -0.018312 0.039175 255 220 0
0.562875 0.017823 0.035838 255 220 0
0.623557 0.078565 0.093761 255 220 0
0.641643 0.040045 0.084529 255 220 0
0.635394 0.060021 0.091921 255 220 0
0.591828 -0.048769 0.036260 255 220 0
0.558936 -0.037800 0.012781 255 220 0
0.599702 0.082373 0.085946 255 220 0
0.582763 -0.043132 0.020943 255 220 0
0.626619 0.075159 0.094094 255 220 0
0.634430 0.005731 0.040839 255 220 0
0.555787 -0.004897 0.036401 255 220 0
0.633637 0.062190 0.029796 255 220 0
0.645552 0.036430 0.043921 255 220 0
0.584115 0.076162 0.049829 255 220 0
0.569570 -0.012605 0.014152 255 220 0
0.600851 -0.001030 0.098763 255 220 0
0.618171 0.003826 0.094671 255 220 0
0.647052 0.037527 0.047376 255 220 0
0.609144 -0.025552 0.080077 255 220 0
0.572579 0.016566 0.081711 255 220 0
0.607315 -0.036304 0.042728 255 220 0
0.576045 0.059013 0.041514 255 220 0
0.559960 -0.035064 0.012856 255 220 0
0.571511 -0.009950 0.081699 255 220 0
0.645579 0.074422 0.051878 255 220 0
0.644070 0.044103 0.081407 255 220 0
0.645460 0.053092 0.043473 255 220 0
0.618390 0.017793 0.019557 255 220 0
0.567113 0.031354 0.061591 255 220 0
0.588514 -0.014161 0.014089 255 220 0
0.557188 -0.016910 0.058506 255 220 0
0.574148 -0.058357 0.029796 255 220 0
0.596094 -0.046312 0.039472 255 220 0
0.588569 0.067880 0.027923 255 220 0
0.609418 0.067633 0.098000 255 220 0
0.581399 0.028448 0.089817 255 220 0
0.639575 0.009907 0.069503 255 220 0
0.591009 -0.036119 0.080673 255 220 0
0.565240 0.018932 0.028448 255 220 0
0.553047 -0.027808 0.052843 255 220 0
0.622798 0.018672 0.096890 255 220 0
0.645907 0.049457 0.044147 255 220 0
0.551678 -0.018655 0.026389 255 220 0
0.642425 0.028659 0.079766 255 220 0
0.556471 -0.014380 0.055926 255 220 0
0.638402 0.060264 0.089264 255 220 0
0.602914 0.026830 0.011476 255 220 0
0.621986 0.005804 0.025984 255 220 0
0.563839 -0.028422 0.070278 255 220 0
0.643433 0.018869 0.050753 255 220 0
0.596494 -0.048058 0.046775 255 220 0
0.632623 0.056516 0.027256 255 220 0
0.562072 0.012172 0.058466 255 220 0
0.561344 -0.054953 0.018205 255 220 0
0.623005 0.092919 0.083268 255 220 0
0.643356 0.068890 0.043843 255 220 0
0.581095 0.069117 0.069491 255 220 0
0.583558 -0.044438 0.073846 255 220 0
0.591034 0.076573 0.034482 255 220 0
0.605696 0.010193 0.014721 255 220 0
0.598033 0.083578 0.036105 255 220 0
0.630817 0.021945 0.027765 255 220 0
0.584924 0.069686 0.079035 255 220 0
0.619756 0.047756 0.017777 255 220 0
0.553600 -0.056715 0.048217 255 220 0
0.607231 -0.038924 0.052561 255 220 0
0.611830 0.019346 0.100815 255 220 0
0.571716 0.051017 0.053870 255 220 0
0.540977 -0.046403 0.033782 255 220 0
0.584805 -0.049423 0.027787 255 220 0
0.612104 -0.024101 0.078250 255 220 0
0.577863 0.050090 0.079195 255 220 0
0.604416 0.028338 0.102289 255 220 0
0.584624 0.077332 0.052253 255 220 0
0.560350 0.003067 0.028523 255 220 0
0.569232 0.000248 0.016611 255 220 0
0.642081 0.029825 0.080933 255 220 0
0.551434 -0.019698 0.043750 255 220 0
0.559368 -0.053043 0.056303 255 220 0
0.596819 0.078615 0.031210 255 220 0
0.554288 -0.048431 0.014195 255 220 0
0.648183 0.034890 0.053386 255 220 0
0.645456 0.082291 0.061685 255 220 0
0.594290 -0.036932 0.025695 255 220 0
0.564968 0.025113 0.036118 255 220 0
0.608754 0.014232 0.015124 255 220 0
0.603220 0.087800 0.082758 255 220 0
0.640829 0.009777 0.061433 255 220 0
0.560318 -0.032351 0.013121 255 220 0
0.574584 0.051593 0.035040 255 220 0
0.589573 0.032565 0.011846 255 220 0
0.573958 0.055869 0.059975 255 220 0
0.548613 -0.041758 0.015569 255 220 0
0.613074 0.016904 0.016696 255 220 0
0.650467 0.050879 0.062784 255 220 0
0.633671 -0.002425 0.049892 255 220 0
0.631922 0.039017 0.094600 255 220 0
0.561646 -0.029771 0.013278 255 220 0
0.642110 0.084565 0.052872 255 220 0
0.573848 0.056261 0.047788 255 220 0
0.587149 -0.051665 0.062825 255 220 0
0.602745 0.012577 0.013095 255 220 0
0.643115 0.020685 0.047473 255 220 0
0.588430 -0.000198 0.012359 255 220 0
0.576820 -0.007560 0.013002 255 220 0
0.627075 0.050439 0.097467 255 220 0
0.545594 -0.038964 0.018966 255 220 0
0.573052 0.052875 0.060848 255 220 0
0.639456 0.006687 0.059570 255 220 0
0.573076 0.028864 0.079657 255 220 0
0.614558 0.052569 0.100631 255 220 0
0.555222 -0.006220 0.040548 255 220 0
0.594318 -0.030798 0.022100 255 220 0
0.567727 -0.007849 0.077366 255 220 0
0.608192 -0.037611 0.049636 255 220 0
0.568158 0.029921 0.029956 255 220 0
0.584723 -0.017930 0.013809 255 220 0
0.633066 0.014450 0.033123 255 220 0
0.593690 0.016228 0.010966 255 220 0
0.614506 0.048252 0.101180 255 220 0
0.550984 -0.058605 0.023852 255 220 0
0.587012 -0.009184 0.093079 255 220 0
0.634733 0.096590 0.066476 255 220 0
0.607440 0.091391 0.080776 255 220 0
0.549371 -0.046994 0.049569 255 220 0
0.605519 -0.015297 0.022663 255 220 0
0.649887 0.041637 0.059371 255 220 0
0.593378 0.005335 0.098246 255 220 0
0.576134 0.056220 0.068998 255 220 0
0.616421 -0.004550 0.026025 255 220 0
0.592423 -0.036504 0.079932 255 220 0
0.635389 0.053559 0.028930 255 220 0
0.639449 0.014503 0.076086 255 220 0
0.586546 0.008943 0.011710 255 220 0
0.604184 0.075443 0.025069 255 220 0
0.649510 0.042246 0.055210 255 220 0
0.642391 0.077140 0.046904 255 220 0
0.547083 -0.030998 0.040134 255 220 0
0.566921 0.032046 0.059917 255 220 0
0.640866 0.086944 0.075851 255 220 0
0.609874 -0.034561 0.045427 255 220 0
0.561716 0.013995 0.036156 255 220 0
0.565126 -0.046362 0.064661 255 220 0
0.591270 -0.038935 0.024507 255 220 0
0.608514 0.016090 0.014610 255 220 0
0.626911 -0.013206 0.049252 255 220 0
0.605078 0.022258 0.012347 255 220 0
0.582292 0.010776 0.012290 255 220 0
0.594252 -0.048070 0.060750 255 220 0
0.605747 0.093087 0.076158 255 220 0
0.573763 -0.056752 0.060751 255 220 0
0.586495 -0.054975 0.052952 255 220 0
0.598434 0.051484 0.014554 255 220 0
0.645837 0.044021 0.078110 255 220 0
0.622070 0.002246 0.027584 255 220 0
0.614478 0.059001 0.018006 255 220 0
0.596933 0.066774 0.021176 255 220 0
0.620155 -0.023327 0.049563 255 220 0
0.582737 -0.041092 0.076524 255 220 0
0.621054 0.079012 0.094058 255 220 0
0.555801 -0.025441 0.057827 255 220 0
0.611146 0.081948 0.029193 255 220 0
0.590232 0.033381 0.096628 255 220 0
0.607525 0.059315 0.099466 255 220 0
0.631900 -0.001748 0.073265 255 220 0
0.574450 0.042552 0.076158 255 220 0
0.646556 0.058525 0.077624 255 220 0
0.545553 -0.031064 0.034257 255 220 0
0.646885 0.069231 0.052035 255 220 0
0.649601 0.049741 0.054764 255 220 0
0.591780 0.082971 0.075319 255 220 0
0.643930 0.017531 0.058108 255 220 0
0.565059 0.005161 0.021573 255 220 0
0.632786 0.095147 0.053806 255 220 0
0.565364 0.011212 0.023579 255 220 0
0.604131 0.094360 0.051646 255 220 0
0.610496 0.090432 0.038120 255 220 0
0.578070 0.012614 0.088132 255 220 0
0.578929 0.017089 0.013502 255 220 0
0.637103 0.035855 0.089461 255 220 0
0.578957 -0.044938 0.019700 255 220 0
0.549256 -0.021833 0.033140 255 220 0
0.646626 0.048202 0.077110 255 220 0
0.583755 0.032766 0.091456 255 220 0
0.589338 -0.051407 0.060424 255 220 0
0.579459 -0.022179 0.085184 255 220 0
0.598736 -0.028156 0.085589 255 220 0
0.641155 0.062356 0.086099 255 220 0
0.647302 0.073658 0.069843 255 220 0
0.584859 0.072032 0.037946 255 220 0
0.619089 -0.015354 0.079315 255 220 0
0.577696 0.059872 0.070064 255 220 0
0.564834 0.026687 0.055645 255 220 0
0.636498 0.013277 0.080957 255 220 0
0.640551 0.021832 0.040547 255 220 0
0.647733 0.030872 0.061009 255 220 0
0.645791 0.030206 0.047407 255 220 0
0.649276 0.044147 0.068781 255 220 0
0.564201 -0.060035 0.025021 255 220 0
0.601683 0.076160 0.026320 255 220 0
0.570914 -0.061871 0.037047 255 220 0
0.552558 -0.027461 0.051708 255 220 0
0.543963 -0.039300 0.039124 255 220 0
0.638154 0.087360 0.048998 255 220 0
0.544898 -0.031878 0.031198 255 220 0
0.564439 -0.004348 0.071509 255 220 0
0.576418 0.061928 0.061122 255 220 0
0.544010 -0.050919 0.021693 255 220 0
0.601744 0.094166 0.058072 255 220 0
0.568953 0.040163 0.059358 255 220 0
0.557997 -0.010772 0.058205 255 220 0
0.627986 -0.012847 0.054025 255 220 0
0.643235 0.015491 0.059519 255 220 0
0.620968 0.099082 0.072907 255 220 0
0.569456 0.028102 0.071953 255 220 0
0.626702 0.099934 0.065706 255 220 0
0.576631 -0.007233 0.086542 255 220 0
0.566453 0.001961 0.074389 255 220 0
0.560481 0.010879 0.038698 255 220 0
0.563283 0.011332 0.063063 255 220 0
0.546436 -0.046045 0.045448 255 220 0
0.631687 -0.006528 0.052239 255 220 0
0.594690 0.058507 0.094762 255 220 0
0.566468 0.024842 0.064815 255 220 0
0.571636 -0.058776 0.028118 255 220 0
0.625468 0.034997 0.020850 255 220 0
0.569177 -0.062607 0.038289 255 220 0
0.622031 -0.021979 0.057168 255 220 0
0.637355 0.058059 0.031953 255 220 0
0.576930 0.060841 0.066102 255 220 0
0.630929 0.098023 0.059217 255 220 0
0.598200 0.038509 0.011759 255 220 0
0.574270 -0.033189 0.013851 255 220 0
0.569850 0.001303 0.079912 255 220 0
0.627633 0.092541 0.082399 255 220 0
0.604026 0.090108 0.041006 255 220 0
0.601572 0.007440 0.013778 255 220 0
0.627821 0.090208 0.084663 255 220 0
0.555455 -0.029665 0.057955 255 220 0
0.601988 0.070433 0.021980 255 220 0
0.614963 0.086837 0.089059 255 220 0
0.623759 0.095239 0.080254 255 220 0
0.555564 -0.008230 0.049042 255 220 0
0.559693 -0.006685 0.022719 255 220 0
0.619175 -0.001585 0.091199 255 220 0
0.600328 0.085359 0.083319 255 220 0
0.613890 0.036628 0.102202 255 220 0
0.547548 -0.032046 0.042280 255 220 0
0.554677 -0.023952 0.018041 255 220 0
0.606328 0.042601 0.101855 255 220 0
0.618349 0.028393 0.017399 255 220 0
0.595339 0.079358 0.033264 255 220 0
0.610122 0.098479 0.061305 255 220 0
0.554968 -0.059360 0.023080 255 220 0
0.605785 -0.038930 0.061221 255 220 0
0.591208 0.085201 0.053322 255 220 0
0.600123 0.084351 0.084279 255 220 0
0.634621 0.045035 0.092775 255 220 0
0.600849 0.093593 0.057852 255 220 0
0.569194 0.032880 0.029846 255 220 0
0.577313 0.047001 0.025249 255 220 0
0.632041 0.043585 0.094721 255 220 0
0.541607 -0.046975 0.024324 255 220 0
0.643430 0.050295 0.039077 255 220 0
0.588444 -0.052717 0.058124 255 220 0
0.579626 -0.057601 0.035879 255 220 0
0.631326 0.070941 0.031183 255 220 0
0.629552 0.022878 0.093636 255 220 0
0.570832 0.047790 0.046033 255 220 0
0.595085 0.089063 0.065396 255 220 0
0.559767 -0.004909 0.023733 255 220 0
0.579183 -0.049228 0.069310 255 220 0
0.612252 0.014513 0.099862 255 220 0
0.583277 -0.013260 0.012989 255 220 0
0.626408 -0.005453 0.037343 255 220 0
0.610425 0.055254 0.100370 255 220 0
0.576909 0.061988 0.063963 255 220 0
0.585884 0.051675 0.019244 255 220 0
0.614945 0.024392 0.016183 255 220 0
0.555819 -0.013669 0.053961 255 220 0
0.594172 0.036288 0.098715 255 220 0
0.572261 -0.047460 0.068446 255 220 0
0.581068 0.061339 0.078291 255 220 0
0.620238 0.056733 0.019675 255 220 0
0.635289 0.022223 0.032470 255 220 0
0.615011 0.065373 0.020321 255 220 0
0.637159 0.050713 0.090634 255 220 0
0.549328 -0.042542 0.049685 255 220 0
0.631850 0.074126 0.092006 255 220 0
0.559087 0.000109 0.055806 255 220 0
0.624672 0.028520 0.098111 255 220 0
0.565299 0.027598 0.038689 255 220 0
0.552075 -0.033104 0.052400 255 220 0
0.584226 0.007508 0.093154 255 220 0
0.560634 -0.044842 0.061814 255 220 0
0.573037 -0.051033 0.066172 255 220 0
0.618148 0.098233 0.074344 255 220 0
0.554840 -0.014923 0.051880 255 220 0
0.625283 -0.013355 0.044522 255 220 0
0.562335 0.012201 0.030990 255 220 0
0.607906 -0.032018 0.072118 255 220 0
0.568237 0.034914 0.035221 255 220 0
0.612282 0.037954 0.102342 255 220 0
0.561496 0.013665 0.037007 255 220 0
0.577716 -0.058281 0.056754 255 220 0
0.642771 0.044218 0.037785 255 220 0
0.560994 -0.015026 0.066350 255 220 0
0.563519 -0.022429 0.070889 255 220 0
0.635500 0.073545 0.089743 255 220 0
0.636425 0.072227 0.036305 255 220 0
0.630098 0.026887 0.094230 255 220 0
0.546587 -0.045260 0.045688 255 220 0
0.541127 -0.046671 0.025725 255 220 0
0.623681 0.098191 0.053503 255 220 0
0.587173 -0.044950 0.025553 255 220 0
0.627675 0.067782 0.095468 255 220 0
0.590944 0.001978 0.096833 255 220 0
0.571057 -0.061977 0.038269 255 220 0
0.549613 -0.036630 0.048894 255 220 0
0.575815 0.061364 0.050287 255 220 0
0.545614 -0.049113 0.043560 255 220 0
0.599568 0.041703 0.100369 255 220 0
0.547537 -0.051514 0.045429 255 220 0
0.603950 -0.023137 0.087298 255 220 0
0.642057 0.070240 0.042350 255 220 0
0.602357 0.091090 0.044638 255 220 0
0.554807 -0.060694 0.026052 255 220 0
0.581988 0.059051 0.081641 255 220 0
0.554183 -0.057361 0.048123 255 220 0
0.601394 -0.013446 0.019319 255 220 0
0.577180 0.031135 0.017299 255 220 0
0.636848 0.002545 0.064337 255 220 0
0.573671 0.053386 0.041205 255 220 0
0.628175 -0.008032 0.072473 255 220 0
0.649001 0.047670 0.070834 255 220 0
0.586188 0.077157 0.044512 255 220 0
0.611891 0.095410 0.076881 255 220 0
0.638533 0.034464 0.087527 255 220 0
0.552631 -0.025627 0.051216 255 220 0
0.573867 0.021912 0.017403 255 220 0
0.610107 0.013243 0.100144 255 220 0
0.624781 -0.004509 0.034271 255 220 0
0.588373 0.081092 0.048428 255 220 0
0.618735 0.079874 0.093893 255 220 0
0.594599 -0.000421 0.013306 255 220 0
0.619163 0.100466 0.066480 255 220 0
0.546084 -0.032608 0.022752 255 220 0
0.583857 0.073748 0.071247 255 220 0
0.590292 -0.048305 0.065777 255 220 0
0.592455 -0.044768 0.069532 255 220 0
0.567762 0.030998 0.032171 255 220 0
0.583395 -0.006277 0.012560 255 220 0
0.632902 0.008551 0.036201 255 220 0
0.626976 0.029115 0.022756 255 220 0
0.568254 0.001414 0.077621 255 220 0
0.617913 0.008285 0.022029 255 220 0
0.646107 0.037294 0.075603 255 220 0
0.615419 -0.027796 0.045244 255 220 0
0.553362 -0.041390 0.013529 255 220 0
0.605708 0.081051 0.090800 255 220 0
0.597142 -0.023458 0.020613 255 220 0
0.606632 0.026988 0.102325 255 220 0
0.606877 0.093292 0.076894 255 220 0
0.570867 0.044351 0.038064 255 220 0
0.574047 0.021358 0.082798 255 220 0
0.648601 0.068074 0.067876 255 220 0
0.619457 -0.024459 0.050139 255 220 0
0.644227 0.040977 0.040575 255 220 0
0.644614 0.044733 0.080563 255 220 0
0.592725 -0.042598 0.072520 255 220 0
0.609108 -0.013064 0.091689 255 220 0
0.573603 0.034221 0.078708 255 220 0
0.614391 0.061897 0.099323 255 220 0
0.585525 -0.012135 0.091622 255 220 0
0.576880 -0.041124 0.074682 255 220 0
0.618245 0.054789 0.099834 255 220 0
0.569462 0.044160 0.053166 255 220 0
0.649634 0.042367 0.055959 255 220 0
0.635599 0.045039 0.091931 255 220 0
0.587143 -0.025345 0.016128 255 220 0
0.600670 -0.032109 0.028077 255 220 0
0.555729 -0.006253 0.047148 255 220 0
0.620950 -0.022368 0.049977 255 220 0
0.582373 0.072948 0.047361 255 220 0
0.576512 0.039289 0.021532 255 220 0
0.613860 -0.009796 0.026413 255 220 0
0.570567 0.043588 0.062732 255 220 0
0.638242 0.004241 0.058949 255 220 0
0.568463 0.037180 0.061006 255 220 0
0.618560 -0.020678 0.040540 255 220 0
0.563870 -0.064038 0.040713 255 220 0
0.606245 -0.035434 0.038910 255 220 0
0.586124 0.018367 0.011410 255 220 0
0.566857 0.035282 0.046121 255 220 0
0.607870 0.095661 0.050599 255 220 0
0.564840 -0.046855 0.064177 255 220 0
0.584987 -0.051353 0.030534 255 220 0
0.604897 0.068449 0.020380 255 220 0
0.614757 0.007260 0.020326 255 220 0
0.554793 -0.010295 0.047780 255 220 0
0.618830 -0.022993 0.068330 255 220 0
0.561513 0.016029 0.048242 255 220 0
0.579335 -0.029386 0.014433 255 220 0
0.640877 0.059757 0.036648 255 220 0
0.612643 -0.011007 0.090543 255 220 0
0.567015 0.034801 0.056039 255 220 0
0.567054 0.003658 0.019035 255 220 0
0.554003 -0.031648 0.055620 255 220 0
0.620645 -0.007582 0.031505 255 220 0
0.638427 0.006118 0.066267 255 220 0
0.588984 0.056987 0.090800 255 220 0
0.584437 -0.032861 0.017263 255 220 0
0.547528 -0.025902 0.032252 255 220 0
0.610142 0.094578 0.077200 255 220 0
0.631052 0.081609 0.089349 255 220 0
0.618507 0.095139 0.045471 255 220 0
0.590456 0.007727 0.097079 255 220 0
0.595409 -0.044154 0.034260 255 220 0
0.600457 0.073420 0.092795 255 220 0
0.597786 0.051434 0.098023 255 220 0
0.583954 0.067962 0.078738 255 220 0
0.626616 0.016758 0.093892 255 220 0
0.587033 -0.009557 0.093007 255 220 0
0.625342 0.096798 0.051092 255 220 0
0.566107 -0.062920 0.048134 255 220 0
0.595290 -0.038788 0.075763 255 220 0
0.552369 -0.016157 0.043326 255 220 0
0.617764 0.028674 0.017045 255 220 0
0.562615 0.019487 0.041772 255 220 0
0.601657 -0.042674 0.060353 255 220 0
0.582349 0.038892 0.088982 255 220 0
0.605532 -0.038967 0.061742 255 220 0
0.649913 0.061767 0.063504 255 220 0
0.577547 0.064567 0.047983 255 220 0
0.559158 -0.053921 0.055499 255 220 0
0.564847 0.022516 0.060917 255 220 0
0.628324 0.080924 0.091055 255 220 0
0.559810 0.004855 0.032086 255 220 0
0.572788 0.046812 0.067522 255 220 0
0.596897 0.083209 0.082471 255 220 0
0.580947 0.001009 0.090571 255 220 0
0.587146 0.060408 0.087743 255 220 0
0.623285 0.077249 0.094364 255 220 0
0.644131 0.057141 0.041333 255 220 0
0.602142 0.015189 0.101066 255 220 0
0.556179 -0.005215 0.032522 255 220 0
0.571652 0.032255 0.024336 255 220 0
0.566877 -0.028479 0.073376 255 220 0
0.619653 0.014902 0.021148 255 220 0
0.568756 0.022168 0.073328 255 220 0
0.620032 0.055051 0.019169 255 220 0
0.556644 -0.002138 0.037707 255 220 0
0.586524 0.009733 0.011661 255 220 0
0.632105 -0.000495 0.042523 255 220 0
0.589669 -0.051837 0.039347 255 220 0
0.574382 -0.060928 0.049283 255 220 0
0.570979 0.047183 0.043137 255 220 0
0.581765 -0.004561 0.012553 255 220 0
0.556411 -0.034113 0.059761 255 220 0
0.559644 -0.023312 0.064846 255 220 0
0.597226 0.008851 0.099808 255 220 0
0.603233 -0.040564 0.062655 255 220 0
0.601173 0.050184 0.099552 255 220 0
0.568763 -0.031469 0.012836 255 220 0
0.630230 0.061012 0.026774 255 220 0
0.624424 0.033769 0.020298 255 220 0
0.551129 -0.045463 0.014366 255 220 0
0.631497 0.006065 0.035821 255 220 0
0.550835 -0.047551 0.014842 255 220 0
0.646552 0.046245 0.077005 255 220 0
0.617691 -0.011983 0.084714 255 220 0
0.592541 0.083025 0.042429 255 220 0
0.603361 0.004184 0.015214 255 220 0
0.642434 0.066848 0.041425 255 220 0
0.556915 -0.014317 0.021357 255 220 0
0.565064 -0.040117 0.067594 255 220 0
0.569197 0.043394 0.049169 255 220 0
0.598476 -0.006211 0.097295 255 220 0
0.592292 0.061711 0.092018 255 220 0
0.593488 0.074852 0.029959 255 220 0
0.551890 -0.021050 0.046780 255 220 0
0.644032 0.052303 0.082227 255 220 0
0.610623 0.098666 0.061656 255 220 0
0.644064 0.039225 0.040438 255 220 0
0.585144 -0.002058 0.012393 255 220 0
0.555552 -0.059323 0.022872 255 220 0
0.649572 0.040739 0.056747 255 220 0
0.647460 0.033478 0.051040 255 220 0
0.563452 -0.016750 0.015602 255 220 0
0.641466 0.027170 0.039311 255 220 0
