ply
format ascii 1.0
element vertex 1024
property float x
property float y
property float z
property uchar red
property uchar green
property uchar blue
end_header
0.611031 0.010983 0.099721 255 220 0
0.619800 0.076588 0.028027 255 220 0
0.629003 0.004049 0.085658 255 220 0
0.609409 -0.002004 0.097184 255 220 0
0.554962 -0.058453 0.022674 255 220 0
0.579004 -0.026011 0.082734 255 220 0
0.587077 0.051246 0.090525 255 220 0
0.624170 0.089204 0.087426 255 220 0
0.610852 0.000605 0.097523 255 220 0
0.588294 0.081726 0.062922 255 220 0
0.592202 -0.019905 0.090859 255 220 0
0.635875 0.022838 0.032871 255 220 0
0.630823 0.074474 0.032993 255 220 0
0.590324 -0.035775 0.022253 255 220 0
0.553934 -0.009561 0.045004 255 220 0
0.589749 -0.052657 0.045635 255 220 0
0.619609 0.020846 0.019958 255 220 0
0.597572 -0.010092 0.095616 255 220 0
0.602272 0.013564 0.100815 255 220 0
0.616633 0.031363 0.016729 255 220 0
0.648707 0.053982 0.051014 255 220 0
0.615330 -0.001239 0.023878 255 220 0
0.607660 0.065584 0.098767 255 220 0
0.628818 0.023156 0.095005 255 220 0
0.580825 0.053409 0.082111 255 220 0
0.569644 -0.061500 0.036510 255 220 0
0.577368 -0.019597 0.083920 255 220 0
0.618869 0.099333 0.057726 255 220 0
0.648648 0.032890 0.058867 255 220 0
0.625439 0.046039 0.099125 255 220 0
0.606092 0.032323 0.102616 255 220 0
0.629226 -0.007381 0.071991 255 220 0
0.617129 -0.019290 0.036403 255 220 0
0.580575 0.057496 0.079072 255 220 0
0.575553 0.045779 0.026795 255 220 0
0.650618 0.045303 0.058331 255 220 0
0.624113 0.038943 0.020197 255 220 0
0.612793 0.021942 0.016089 255 220 0
0.599092 -0.007088 0.016583 255 220 0
0.637203 0.021971 0.034910 255 220 0
0.625545 0.064192 0.025371 255 220 0
0.586047 -0.053300 0.037363 255 220 0
0.590788 0.059153 0.091544 255 220 0
0.612822 0.083940 0.091288 255 220 0
0.567362 -0.009190 0.076186 255 220 0
0.570751 0.045257 0.060899 255 220 0
0.565556 0.018146 0.065953 255 220 0
0.568539 0.006146 0.018053 255 220 0
0.625106 0.096612 0.051642 255 220 0
0.543431 -0.050818 0.039710 255 220 0
0.594814 0.087469 0.050749 255 220 0
0.624750 0.050042 0.099170 255 220 0
0.588927 -0.049745 0.034372 255 220 0
0.626943 -0.008408 0.075603 255 220 0
0.589874 -0.019079 0.015873 255 220 0
0.648238 0.050193 0.049227 255 220 0
0.648167 0.060963 0.075501 255 220 0
0.594811 -0.047340 0.040038 255 220 0
0.626679 -0.015541 0.058385 255 220 0
0.637990 0.094494 0.067334 255 220 0
0.566197 -0.049945 0.062655 255 220 0
0.631194 -0.008426 0.057588 255 220 0
0.597697 -0.046603 0.045993 255 220 0
0.625646 0.074252 0.095633 255 220 0
0.648640 0.042507 0.072430 255 220 0
0.604237 0.021033 0.012840 255 220 0
0.585743 -0.020256 0.014722 255 220 0
0.623033 -0.013876 0.040101 255 220 0
0.612869 -0.025714 0.075406 255 220 0
0.648797 0.058255 0.052278 255 220 0
0.566880 0.035290 0.042860 255 220 0
0.647827 0.075676 0.068376 255 220 0
0.583881 -0.036662 0.018816 255 220 0
0.635078 0.094456 0.055899 255 220 0
0.611889 -0.030667 0.067997 255 220 0
0.583047 0.074581 0.061765 255 220 0
0.593786 -0.048627 0.059149 255 220 0
0.584302 -0.032040 0.017272 255 220 0
0.603325 -0.013397 0.020685 255 220 0
0.643080 0.085141 0.055528 255 220 0
0.642364 0.072729 0.084222 255 220 0
0.625356 -0.017333 0.060341 255 220 0
0.608762 0.078861 0.027808 255 220 0
0.627835 0.099100 0.069841 255 220 0
0.575468 -0.047665 0.020005 255 220 0
0.543447 -0.037506 0.020926 255 220 0
0.636142 0.069823 0.035385 255 220 0
0.565551 -0.062278 0.048406 255 220 0
0.543597 -0.048329 0.019896 255 220 0
0.600462 0.031470 0.011700 255 220 0
0.563781 -0.063278 0.037980 255 220 0
0.635417 0.023136 0.032221 255 220 0
0.587800 0.063848 0.086675 255 220 0
0.602990 0.083834 0.033816 255 220 0
0.619495 -0.025162 0.059934 255 220 0
0.592176 -0.030334 0.020788 255 220 0
0.571562 0.046504 0.037579 255 220 0
0.613617 0.050616 0.101435 255 220 0
0.545541 -0.057090 0.029005 255 220 0
0.631388 -0.007030 0.065034 255 220 0
0.626231 -0.009263 0.075822 255 220 0
0.585296 -0.053075 0.061093 255 220 0
0.608843 -0.037075 0.050650 255 220 0
0.564591 0.027032 0.053641 255 220 0
0.557864 -0.026843 0.014565 255 220 0
0.548231 -0.025317 0.023290 255 220 0
0.616809 0.010417 0.020887 255 220 0
0.596130 -0.036416 0.078265 255 220 0
0.547485 -0.050354 0.017465 255 220 0
0.553125 -0.017126 0.049590 255 220 0
0.621003 0.100372 0.065956 255 220 0
0.643602 0.041715 0.083137 255 220 0
0.608626 -0.022131 0.028825 255 220 0
0.564139 -0.063032 0.045460 255 220 0
0.565989 -0.043560 0.066210 255 220 0
0.589343 0.078527 0.040722 255 220 0
0.579798 0.000300 0.088978 255 220 0
0.619488 -0.008433 0.030704 255 220 0
0.557682 0.003415 0.044075 255 220 0
0.630390 -0.009645 0.059535 255 220 0
0.574504 0.038619 0.023431 255 220 0
0.580059 0.025173 0.014121 255 220 0
0.626325 -0.011905 0.071447 255 220 0
0.561968 0.011300 0.029313 255 220 0
0.596864 0.026368 0.100292 255 220 0
0.560462 -0.033366 0.012855 255 220 0
0.606267 0.082082 0.090380 255 220 0
0.634545 0.040657 0.093527 255 220 0
0.647185 0.026947 0.061967 255 220 0
0.617650 0.046694 0.017348 255 220 0
0.638045 0.085257 0.047080 255 220 0
0.585065 -0.034504 0.018548 255 220 0
0.564860 0.027883 0.054018 255 220 0
0.613471 0.040140 0.102433 255 220 0
0.564138 0.000344 0.069057 255 220 0
0.564521 -0.062674 0.046954 255 220 0
0.587540 0.042736 0.015195 255 220 0
0.562729 -0.051935 0.059040 255 220 0
0.570226 0.018998 0.076827 255 220 0
0.586960 -0.037036 0.020747 255 220 0
0.586797 0.030373 0.093871 255 220 0
0.563979 -0.034749 0.068260 255 220 0
0.554383 -0.010740 0.048726 255 220 0
0.598200 -0.041740 0.035529 255 220 0
0.573672 0.029379 0.019777 255 220 0
0.650792 0.047674 0.059073 255 220 0
0.575184 0.052505 0.069109 255 220 0
0.575225 0.019507 0.015823 255 220 0
0.625908 -0.013191 0.070120 255 220 0
0.612153 -0.023528 0.033747 255 220 0
0.578090 -0.038900 0.016928 255 220 0
0.595941 -0.033821 0.081287 255 220 0
0.587582 -0.040439 0.076744 255 220 0
0.570419 -0.039492 0.071300 255 220 0
0.579655 0.038489 0.018026 255 220 0
0.620663 0.094317 0.045330 255 220 0
0.638342 0.053341 0.090712 255 220 0
0.581479 0.072330 0.058736 255 220 0
0.605245 -0.039773 0.059252 255 220 0
0.618216 0.006480 0.096024 255 220 0
0.551729 -0.056307 0.046486 255 220 0
0.552062 -0.059701 0.042164 255 220 0
0.617788 0.099702 0.059750 255 220 0
0.613934 0.010495 0.019202 255 220 0
0.570813 0.026440 0.075334 255 220 0
0.572434 0.039996 0.071301 255 220 0
0.650546 0.045013 0.057887 255 220 0
0.585632 0.031247 0.092835 255 220 0
0.552697 -0.011750 0.030952 255 220 0
0.612779 0.056046 0.100812 255 220 0
0.565678 0.023066 0.063378 255 220 0
0.587402 0.003954 0.012283 255 220 0
0.646636 0.080588 0.067335 255 220 0
0.604523 -0.012374 0.021038 255 220 0
0.640112 0.080845 0.046134 255 220 0
0.644464 0.082836 0.056392 255 220 0
0.547547 -0.023539 0.028345 255 220 0
0.548060 -0.031373 0.018667 255 220 0
0.586058 -0.010028 0.091652 255 220 0
0.563970 -0.009782 0.070769 255 220 0
0.610857 -0.023485 0.032153 255 220 0
0.589514 -0.029230 0.018824 255 220 0
0.566261 -0.010599 0.074610 255 220 0
0.587472 0.068375 0.083612 255 220 0
0.567087 0.026871 0.065087 255 220 0
0.630333 -0.008094 0.049101 255 220 0
0.545305 -0.055269 0.038294 255 220 0
0.584181 0.068130 0.034395 255 220 0
0.562247 -0.027852 0.068138 255 220 0
0.597839 0.029166 0.011392 255 220 0
0.647668 0.043549 0.047401 255 220 0
0.640501 0.060631 0.036606 255 220 0
0.582432 -0.002199 0.012626 255 220 0
0.608714 0.088331 0.036774 255 220 0
0.634290 -0.002435 0.064554 255 220 0
0.572033 -0.026196 0.077915 255 220 0
0.625272 0.015918 0.095129 255 220 0
0.577880 -0.032084 0.079388 255 220 0
0.610424 0.097785 0.058231 255 220 0
0.583179 -0.014448 0.089010 255 220 0
0.603578 0.070539 0.095881 255 220 0
0.598108 -0.038557 0.031416 255 220 0
0.637550 0.032504 0.032005 255 220 0
0.575237 0.013054 0.084778 255 220 0
0.586105 -0.024644 0.015835 255 220 0
0.600063 0.082420 0.033899 255 220 0
0.598604 -0.039940 0.070882 255 220 0
0.649545 0.047760 0.071062 255 220 0
0.610985 0.032180 0.102748 255 220 0
0.558031 -0.028255 0.062233 255 220 0
0.580851 0.058465 0.078964 255 220 0
0.550149 -0.053805 0.018518 255 220 0
0.616934 -0.018229 0.079747 255 220 0
0.630630 -0.000526 0.078784 255 220 0
0.595318 0.051863 0.015809 255 220 0
0.599591 -0.039231 0.034077 255 220 0
0.615648 -0.002069 0.094215 255 220 0
0.581120 0.004757 0.012802 255 220 0
0.598029 0.020861 0.100543 255 220 0
0.632089 0.037919 0.025720 255 220 0
0.574408 0.041019 0.075885 255 220 0
0.565461 -0.062818 0.046291 255 220 0
0.586195 0.060655 0.024653 255 220 0
0.631287 0.081799 0.037465 255 220 0
0.606029 0.087404 0.036624 255 220 0
0.564276 0.022630 0.058529 255 220 0
0.619816 0.001023 0.092817 255 220 0
0.622381 0.071830 0.026747 255 220 0
0.623575 0.086544 0.036249 255 220 0
0.574826 0.054379 0.065967 255 220 0
0.576944 -0.059591 0.047972 255 220 0
0.571795 0.046765 0.037043 255 220 0
0.576037 0.022813 0.015902 255 220 0
0.610433 0.094936 0.047842 255 220 0
0.563169 0.015297 0.060485 255 220 0
0.639310 0.078032 0.043135 255 220 0
0.612922 0.095855 0.076394 255 220 0
0.631890 0.021540 0.091988 255 220 0
0.601570 -0.008768 0.018193 255 220 0
0.561283 -0.002326 0.063241 255 220 0
0.625618 -0.010465 0.075320 255 220 0
0.578577 0.059887 0.071835 255 220 0
0.590446 -0.031360 0.020203 255 220 0
0.594240 0.058527 0.094410 255 220 0
0.640509 0.045152 0.087911 255 220 0
0.602277 0.044841 0.013456 255 220 0
0.588207 0.057183 0.020888 255 220 0
0.563571 -0.035929 0.067506 255 220 0
0.593734 0.079619 0.082463 255 220 0
0.585437 -0.042741 0.074748 255 220 0
0.635111 0.004285 0.075570 255 220 0
0.648672 0.043409 0.050119 255 220 0
0.637022 0.028726 0.032308 255 220 0
0.612642 0.003812 0.097764 255 220 0
0.644869 0.020905 0.053067 255 220 0
0.607558 0.074450 0.024740 255 220 0
0.623104 0.000391 0.089605 255 220 0
0.642859 0.042959 0.084491 255 220 0
0.546518 -0.045215 0.046512 255 220 0
0.606056 0.091823 0.078552 255 220 0
0.624552 -0.007940 0.036528 255 220 0
0.627975 0.037986 0.097917 255 220 0
0.635762 0.096191 0.065820 255 220 0
0.643493 0.087711 0.069501 255 220 0
0.639489 0.085936 0.080567 255 220 0
0.610782 0.076970 0.095263 255 220 0
0.600885 0.059656 0.017514 255 220 0
0.620224 -0.024223 0.052418 255 220 0
0.582775 -0.005003 0.012662 255 220 0
0.640780 0.091969 0.066393 255 220 0
0.637947 0.094629 0.066133 255 220 0
0.549879 -0.028246 0.047397 255 220 0
0.612793 0.045464 0.102027 255 220 0
0.555214 -0.006330 0.030554 255 220 0
0.604584 0.006816 0.015552 255 220 0
0.627706 -0.006541 0.040264 255 220 0
0.600107 0.013985 0.012672 255 220 0
0.557559 0.001370 0.033988 255 220 0
0.577116 0.046907 0.078531 255 220 0
0.570645 0.047995 0.051361 255 220 0
0.620232 -0.006252 0.030163 255 220 0
0.616254 0.079613 0.094641 255 220 0
0.590566 0.021233 0.011254 255 220 0
0.620429 0.033694 0.018444 255 220 0
0.595619 0.001786 0.013572 255 220 0
0.584480 0.012899 0.092754 255 220 0
0.584281 -0.013822 0.013381 255 220 0
0.629991 0.000900 0.081457 255 220 0
0.576259 0.008907 0.086076 255 220 0
0.609536 0.007420 0.017697 255 220 0
0.570602 -0.033184 0.013356 255 220 0
0.634067 0.085222 0.042582 255 220 0
0.584770 0.073622 0.072914 255 220 0
0.587194 -0.007688 0.013175 255 220 0
0.621098 -0.019125 0.070972 255 220 0
0.647484 0.035310 0.072496 255 220 0
0.561623 0.015622 0.036285 255 220 0
0.562042 0.007381 0.061440 255 220 0
0.596566 -0.013975 0.094088 255 220 0
0.581445 -0.053096 0.063856 255 220 0
0.564286 -0.031480 0.012777 255 220 0
0.649508 0.065142 0.057961 255 220 0
0.597185 -0.025391 0.021722 255 220 0
0.616887 -0.028023 0.050399 255 220 0
0.549232 -0.049401 0.049068 255 220 0
0.647946 0.030319 0.057502 255 220 0
0.623359 -0.020274 0.054418 255 220 0
0.569423 0.031873 0.068474 255 220 0
0.646492 0.024367 0.061867 255 220 0
0.604297 0.071529 0.023020 255 220 0
0.633776 0.092195 0.050395 255 220 0
0.616456 0.042764 0.016501 255 220 0
0.648725 0.068498 0.070713 255 220 0
0.650159 0.040190 0.059737 255 220 0
0.572121 0.050431 0.042834 255 220 0
0.590566 0.070565 0.028840 255 220 0
0.632927 0.079068 0.037111 255 220 0
0.622199 0.035475 0.100507 255 220 0
0.554068 -0.045664 0.055330 255 220 0
0.645438 0.025136 0.049890 255 220 0
0.567679 -0.029072 0.073416 255 220 0
0.599816 -0.019272 0.020797 255 220 0
0.569152 -0.057173 0.058074 255 220 0
0.561483 -0.003502 0.021325 255 220 0
0.614787 0.036415 0.102419 255 220 0
0.567082 0.030701 0.061979 255 220 0
0.644404 0.075277 0.079962 255 220 0
0.590955 0.074634 0.032831 255 220 0
0.603846 -0.034816 0.034518 255 220 0
0.550102 -0.033687 0.049868 255 220 0
0.559263 0.008772 0.039668 255 220 0
0.608484 0.025162 0.013805 255 220 0
0.555891 -0.002117 0.040161 255 220 0
0.636589 0.092183 0.053715 255 220 0
0.571506 0.032489 0.073810 255 220 0
0.619269 -0.004633 0.089923 255 220 0
0.566100 0.030310 0.036359 255 220 0
0.617684 0.045199 0.101482 255 220 0
0.619600 0.014202 0.097594 255 220 0
0.540489 -0.041948 0.034766 255 220 0
0.597942 -0.039772 0.032570 255 220 0
0.565071 0.009617 0.068401 255 220 0
0.583437 -0.002343 0.012595 255 220 0
0.628964 -0.004655 0.076747 255 220 0
0.600162 -0.044931 0.054286 255 220 0
0.542663 -0.049903 0.022216 255 220 0
0.595555 0.020355 0.099605 255 220 0
0.592439 0.085518 0.051321 255 220 0
0.628237 -0.008261 0.043422 255 220 0
0.630785 0.077250 0.092588 255 220 0
0.607402 0.096633 0.058529 255 220 0
0.638185 0.018636 0.037969 255 220 0
0.599413 0.090374 0.072479 255 220 0
0.541692 -0.052608 0.029193 255 220 0
0.630063 0.014983 0.029486 255 220 0
0.575155 0.030437 0.081860 255 220 0
0.638929 0.007259 0.068762 255 220 0
0.598082 0.051829 0.098128 255 220 0
0.596483 -0.036206 0.027522 255 220 0
0.564906 0.003682 0.020576 255 220 0
0.619109 -0.025943 0.055177 255 220 0
0.554928 -0.061778 0.041733 255 220 0
0.595217 -0.046379 0.038652 255 220 0
0.590871 -0.052020 0.051700 255 220 0
0.622098 -0.008154 0.083778 255 220 0
0.564439 0.027469 0.043611 255 220 0
0.554944 -0.042725 0.013201 255 220 0
0.636358 0.000332 0.055587 255 220 0
0.614095 0.047555 0.016119 255 220 0
0.579065 -0.012976 0.012824 255 220 0
0.598046 0.060654 0.096233 255 220 0
0.629248 0.090854 0.044458 255 220 0
0.573656 0.042492 0.027447 255 220 0
0.634581 0.072187 0.035018 255 220 0
0.597363 -0.014587 0.093912 255 220 0
0.610537 -0.030901 0.039898 255 220 0
0.614344 0.060375 0.019158 255 220 0
0.563484 -0.061642 0.029779 255 220 0
0.576351 0.057548 0.067534 255 220 0
0.610380 0.011480 0.099951 255 220 0
0.605477 0.076995 0.026773 255 220 0
0.614218 0.062372 0.099930 255 220 0
0.593450 0.084665 0.074204 255 220 0
0.638205 0.071030 0.089397 255 220 0
0.620773 -0.020588 0.044812 255 220 0
0.650475 0.045402 0.065965 255 220 0
0.579961 0.064483 0.038224 255 220 0
0.607785 -0.038211 0.051275 255 220 0
0.599046 -0.006878 0.016513 255 220 0
0.640388 0.008421 0.063811 255 220 0
0.615984 0.045278 0.016527 255 220 0
0.643319 0.057085 0.039847 255 220 0
0.555506 -0.003567 0.042585 255 220 0
0.618574 0.015673 0.020548 255 220 0
0.629825 0.021941 0.026956 255 220 0
0.650559 0.051261 0.067379 255 220 0
0.630374 0.002619 0.082557 255 220 0
0.579623 0.064629 0.069682 255 220 0
0.554517 -0.013470 0.051324 255 220 0
0.641963 0.011438 0.057406 255 220 0
0.609987 -0.020081 0.028784 255 220 0
0.611056 0.002073 0.020040 255 220 0
0.618779 0.019020 0.099183 255 220 0
0.613639 0.063857 0.020144 255 220 0
0.632936 0.067419 0.031586 255 220 0
0.601981 -0.025279 0.086794 255 220 0
0.617140 0.076813 0.027335 255 220 0
0.646205 0.023482 0.058645 255 220 0
0.591109 0.010868 0.096935 255 220 0
0.591258 0.085124 0.056921 255 220 0
0.579062 -0.055638 0.031779 255 220 0
0.636079 0.091115 0.079038 255 220 0
0.605991 -0.037988 0.062898 255 220 0
0.646377 0.026490 0.068651 255 220 0
0.559132 -0.022681 0.063690 255 220 0
0.574924 0.056676 0.041680 255 220 0
0.595617 -0.013564 0.094107 255 220 0
0.555752 -0.030979 0.058797 255 220 0
0.545247 -0.036545 0.018901 255 220 0
0.623070 0.002327 0.028364 255 220 0
0.582669 0.047060 0.019565 255 220 0
0.593822 0.082563 0.078864 255 220 0
0.646420 0.063397 0.047674 255 220 0
0.590876 -0.034450 0.081793 255 220 0
0.577352 0.063653 0.061028 255 220 0
0.542211 -0.035240 0.027073 255 220 0
0.607391 0.084720 0.088675 255 220 0
0.566620 0.035223 0.048083 255 220 0
0.581905 0.036445 0.088615 255 220 0
0.609826 -0.035668 0.048637 255 220 0
0.595774 0.089142 0.064924 255 220 0
0.604795 0.057086 0.016510 255 220 0
0.616728 0.045829 0.101589 255 220 0
0.589981 0.029382 0.096316 255 220 0
0.650196 0.040445 0.059691 255 220 0
0.625488 -0.015471 0.048531 255 220 0
0.609591 -0.036423 0.055863 255 220 0
0.604922 0.082350 0.031489 255 220 0
0.613008 -0.029501 0.068178 255 220 0
0.644291 0.022491 0.072365 255 220 0
0.593519 -0.011540 0.094331 255 220 0
0.629336 0.088479 0.086408 255 220 0
0.542901 -0.048035 0.020702 255 220 0
0.568981 0.036837 0.063321 255 220 0
0.591071 -0.051772 0.052921 255 220 0
0.579995 0.051778 0.024949 255 220 0
0.552594 -0.012814 0.042831 255 220 0
0.585305 -0.018462 0.014269 255 220 0
0.584425 0.044423 0.089570 255 220 0
0.638429 0.091472 0.075389 255 220 0
0.609717 -0.005790 0.021852 255 220 0
0.622296 0.092565 0.042894 255 220 0
0.598410 0.016524 0.011973 255 220 0
0.551368 -0.015813 0.028143 255 220 0
0.561137 -0.008163 0.019536 255 220 0
0.639600 0.042187 0.088672 255 220 0
0.633128 0.006816 0.037391 255 220 0
0.597266 0.082103 0.083815 255 220 0
0.565304 0.029253 0.054693 255 220 0
0.643285 0.014547 0.060214 255 220 0
0.590853 -0.019829 0.016447 255 220 0
0.579803 0.033162 0.016076 255 220 0
0.608226 0.093490 0.077302 255 220 0
0.626078 0.004382 0.089218 255 220 0
0.553487 -0.033790 0.014270 255 220 0
0.646857 0.067695 0.077329 255 220 0
0.600132 -0.022172 0.089763 255 220 0
0.582113 -0.056434 0.039536 255 220 0
0.643305 0.042770 0.038636 255 220 0
0.606569 -0.034524 0.069770 255 220 0
0.562598 0.018009 0.055608 255 220 0
0.554439 -0.008117 0.030474 255 220 0
0.628493 -0.011884 0.051607 255 220 0
0.641923 0.042295 0.085734 255 220 0
0.606112 -0.037548 0.042744 255 220 0
0.602205 -0.026342 0.085735 255 220 0
0.585119 0.012369 0.093208 255 220 0
0.598491 0.086930 0.078740 255 220 0
0.636641 0.002016 0.066101 255 220 0
0.621514 0.096534 0.050087 255 220 0
0.566782 0.024510 0.065741 255 220 0
0.562967 0.022468 0.048044 255 220 0
0.587298 0.079442 0.048558 255 220 0
0.589778 0.056459 0.019600 255 220 0
0.633811 0.005289 0.079485 255 220 0
0.541514 -0.046356 0.037880 255 220 0
0.566356 -0.026773 0.072866 255 220 0
0.554034 -0.010242 0.046580 255 220 0
0.637729 0.006128 0.047324 255 220 0
0.545451 -0.046095 0.017328 255 220 0
0.623104 0.025272 0.098878 255 220 0
0.603250 0.054351 0.099696 255 220 0
0.622023 0.065471 0.098489 255 220 0
0.623657 0.024133 0.021773 255 220 0
0.589578 0.082661 0.066742 255 220 0
0.581070 0.053286 0.082589 255 220 0
0.630057 0.084913 0.088817 255 220 0
0.626950 0.022006 0.095972 255 220 0
0.589378 0.060746 0.022143 255 220 0
0.569150 0.038118 0.034532 255 220 0
0.576748 0.034962 0.082928 255 220 0
0.559941 0.009388 0.051892 255 220 0
0.570910 0.013968 0.017882 255 220 0
0.570454 -0.002793 0.015213 255 220 0
0.572204 -0.010049 0.081733 255 220 0
0.626609 0.090289 0.085831 255 220 0
0.620798 0.098792 0.073590 255 220 0
0.631567 0.016483 0.090288 255 220 0
0.639490 0.006213 0.061603 255 220 0
0.591662 0.045088 0.014606 255 220 0
0.620763 -0.021628 0.066653 255 220 0
0.606708 0.026281 0.013095 255 220 0
0.603401 -0.034967 0.034099 255 220 0
0.583445 -0.046374 0.024332 255 220 0
0.599446 -0.005210 0.016279 255 220 0
0.560210 -0.054644 0.055275 255 220 0
0.622159 0.011005 0.095330 255 220 0
0.558393 -0.013859 0.060479 255 220 0
0.604711 -0.006451 0.019163 255 220 0
0.622583 -0.017706 0.070083 255 220 0
0.623731 0.071332 0.027190 255 220 0
0.627795 0.047515 0.098011 255 220 0
0.613504 -0.029823 0.044227 255 220 0
0.638956 0.091794 0.056922 255 220 0
0.582356 -0.053588 0.062602 255 220 0
0.587991 -0.016769 0.014717 255 220 0
0.572271 -0.030245 0.013274 255 220 0
0.558826 0.006511 0.048682 255 220 0
0.607661 -0.032304 0.072270 255 220 0
0.629974 0.095072 0.051737 255 220 0
0.563848 -0.003876 0.069472 255 220 0
0.585634 0.069235 0.033425 255 220 0
0.646190 0.023743 0.064400 255 220 0
0.618860 -0.017848 0.037502 255 220 0
0.562307 0.018472 0.037414 255 220 0
0.625391 0.077427 0.094613 255 220 0
0.642987 0.039151 0.083589 255 220 0
0.637091 0.058921 0.091784 255 220 0
0.591057 -0.048159 0.034810 255 220 0
0.557303 -0.036465 0.012960 255 220 0
0.601259 0.081500 0.087851 255 220 0
0.581415 -0.042071 0.020026 255 220 0
0.628454 0.074007 0.094729 255 220 0
0.633967 0.006109 0.039259 255 220 0
0.555179 -0.004242 0.037610 255 220 0
0.632909 0.062861 0.029863 255 220 0
0.645291 0.036687 0.042773 255 220 0
0.584251 0.076349 0.052212 255 220 0
0.568057 -0.011339 0.014627 255 220 0
0.602662 -0.002236 0.098241 255 220 0
0.619822 0.002703 0.093612 255 220 0
0.646929 0.037683 0.046196 255 220 0
0.610144 -0.026231 0.078555 255 220 0
0.573796 0.015891 0.082817 255 220 0
0.606822 -0.035912 0.041017 255 220 0
0.575811 0.059459 0.043737 255 220 0
0.558337 -0.033734 0.013073 255 220 0
0.572650 -0.010612 0.082095 255 220 0
0.645743 0.074437 0.051798 255 220 0
0.645302 0.043292 0.080491 255 220 0
0.645232 0.053355 0.042802 255 220 0
0.617141 0.018802 0.018974 255 220 0
0.567590 0.031256 0.063355 255 220 0
0.586980 -0.012927 0.013778 255 220 0
0.557409 -0.016883 0.059293 255 220 0
0.573108 -0.057526 0.028775 255 220 0
0.595453 -0.045803 0.037920 255 220 0
0.587819 0.068686 0.029922 255 220 0
0.611397 0.066405 0.099092 255 220 0
0.582962 0.027520 0.090905 255 220 0
0.640242 0.009458 0.067806 255 220 0
0.592016 -0.036777 0.079562 255 220 0
0.564383 0.019786 0.029972 255 220 0
0.553017 -0.027607 0.053490 255 220 0
0.624577 0.017471 0.096069 255 220 0
0.645694 0.049703 0.043354 255 220 0
0.550640 -0.017702 0.027381 255 220 0
0.643548 0.027904 0.078478 255 220 0
0.556599 -0.014279 0.056816 255 220 0
0.639994 0.059234 0.089020 255 220 0
0.601387 0.028095 0.011766 255 220 0
0.620950 0.006629 0.024912 255 220 0
0.564482 -0.028737 0.070464 255 220 0
0.643390 0.018943 0.049181 255 220 0
0.596133 -0.047756 0.045150 255 220 0
0.631780 0.057264 0.027204 255 220 0
0.562374 0.012180 0.059887 255 220 0
0.559870 -0.053770 0.017797 255 220 0
0.624471 0.092074 0.084561 255 220 0
0.643191 0.069141 0.043703 255 220 0
0.581983 0.068753 0.071769 255 220 0
0.584278 -0.044885 0.072799 255 220 0
0.590565 0.077184 0.036623 255 220 0
0.604246 0.011367 0.014426 255 220 0
0.597643 0.084127 0.038168 255 220 0
0.629892 0.022696 0.026802 255 220 0
0.586185 0.069042 0.081168 255 220 0
0.618525 0.048802 0.017993 255 220 0
0.553302 -0.056372 0.048028 255 220 0
0.607115 -0.038811 0.050767 255 220 0
0.613773 0.018053 0.100438 255 220 0
0.571946 0.051122 0.056021 255 220 0
0.540155 -0.045629 0.034397 255 220 0
0.583705 -0.048558 0.026604 255 220 0
0.613034 -0.024735 0.076656 255 220 0
0.579077 0.049463 0.081048 255 220 0
0.606449 0.027012 0.102456 255 220 0
0.584859 0.077448 0.054646 255 220 0
0.559453 0.003935 0.029789 255 220 0
0.567854 0.001440 0.017462 255 220 0
0.643253 0.029038 0.079690 255 220 0
0.551073 -0.019239 0.044701 255 220 0
0.559394 -0.052941 0.055982 255 220 0
0.596224 0.079308 0.033186 255 220 0
0.552682 -0.047123 0.014254 255 220 0
0.648287 0.034874 0.052080 255 220 0
0.646028 0.082024 0.061822 255 220 0
0.593137 -0.036031 0.024497 255 220 0
0.564430 0.025747 0.037819 255 220 0
0.607328 0.015387 0.014823 255 220 0
0.604666 0.087009 0.084683 255 220 0
0.641179 0.009556 0.059693 255 220 0
0.558714 -0.031031 0.013400 255 220 0
0.574076 0.052228 0.037117 255 220 0
0.588088 0.033842 0.012822 255 220 0
0.574440 0.055794 0.062169 255 220 0
0.547085 -0.040482 0.016038 255 220 0
0.611714 0.018006 0.016300 255 220 0
0.650985 0.050584 0.061831 255 220 0
0.633539 -0.002300 0.048100 255 220 0
0.633665 0.037855 0.094001 255 220 0
0.560054 -0.028458 0.013578 255 220 0
0.642346 0.084555 0.053215 255 220 0
0.573853 0.056533 0.050012 255 220 0
0.587412 -0.051802 0.061445 255 220 0
0.601240 0.013802 0.012985 255 220 0
0.642949 0.020853 0.045969 255 220 0
0.586869 0.001080 0.012449 255 220 0
0.575272 -0.006277 0.013338 255 220 0
0.628968 0.049200 0.097379 255 220 0
0.544210 -0.037780 0.019629 255 220 0
0.573559 0.052778 0.062991 255 220 0
0.639725 0.006522 0.057798 255 220 0
0.574248 0.028242 0.081095 255 220 0
0.616590 0.051263 0.101091 255 220 0
0.554772 -0.005681 0.041737 255 220 0
0.593043 -0.029797 0.021079 255 220 0
0.568706 -0.008382 0.077975 255 220 0
0.607964 -0.037417 0.047845 255 220 0
0.567392 0.030722 0.031675 255 220 0
0.583169 -0.016680 0.013539 255 220 0
0.632327 0.015047 0.031854 255 220 0
0.592119 0.017529 0.011318 255 220 0
0.616547 0.046932 0.101518 255 220 0
0.549729 -0.057562 0.023740 255 220 0
0.588587 -0.010199 0.092875 255 220 0
0.635543 0.096201 0.067434 255 220 0
0.608815 0.090647 0.082640 255 220 0
0.549159 -0.046685 0.049820 255 220 0
0.604304 -0.014339 0.021642 255 220 0
0.650244 0.041445 0.058182 255 220 0
0.595193 0.004155 0.098198 255 220 0
0.576968 0.055884 0.071105 255 220 0
0.615361 -0.003712 0.024877 255 220 0
0.593398 -0.037144 0.078755 255 220 0
0.634600 0.054255 0.028684 255 220 0
0.640389 0.013864 0.074517 255 220 0
0.584988 0.010238 0.012134 255 220 0
0.603333 0.076298 0.026673 255 220 0
0.649706 0.042173 0.054059 255 220 0
0.642371 0.077302 0.047032 255 220 0
0.546550 -0.030423 0.040940 255 220 0
0.567335 0.031996 0.061710 255 220 0
0.642010 0.086280 0.076283 255 220 0
0.609490 -0.034251 0.043662 255 220 0
0.561150 0.014638 0.037669 255 220 0
0.565494 -0.046512 0.064293 255 220 0
0.590067 -0.037993 0.023372 255 220 0
0.607074 0.017259 0.014372 255 220 0
0.626727 -0.013046 0.047419 255 220 0
0.603570 0.023496 0.012421 255 220 0
0.580765 0.012062 0.012933 255 220 0
0.594440 -0.048162 0.059196 255 220 0
0.606948 0.092477 0.078142 255 220 0
0.573941 -0.056802 0.059754 255 220 0
0.586363 -0.054828 0.051515 255 220 0
0.597105 0.052659 0.015716 255 220 0
0.646939 0.043302 0.077126 255 220 0
0.621087 0.003027 0.026405 255 220 0
0.613294 0.060046 0.018748 255 220 0
0.595909 0.067757 0.022823 255 220 0
0.619958 -0.023159 0.047708 255 220 0
0.583572 -0.041615 0.075601 255 220 0
0.622903 0.077870 0.095020 255 220 0
0.555971 -0.025387 0.058427 255 220 0
0.610471 0.082670 0.030704 255 220 0
0.592070 0.032241 0.097502 255 220 0
0.609537 0.058052 0.100394 255 220 0
0.632686 -0.002285 0.071535 255 220 0
0.575526 0.042020 0.077935 255 220 0
0.647680 0.057812 0.077023 255 220 0
0.544791 -0.030318 0.035128 255 220 0
0.647039 0.069242 0.051755 255 220 0
0.649801 0.049677 0.053822 255 220 0
0.592930 0.082415 0.077565 255 220 0
0.644171 0.017395 0.056470 255 220 0
0.563893 0.006217 0.022721 255 220 0
0.633097 0.095123 0.054814 255 220 0
0.564294 0.012208 0.024885 255 220 0
0.604378 0.094451 0.053758 255 220 0
0.610196 0.090898 0.039886 255 220 0
0.579523 0.011747 0.088903 255 220 0
0.577471 0.018344 0.014454 255 220 0
0.638632 0.034832 0.088574 255 220 0
0.577558 -0.043834 0.018883 255 220 0
0.548475 -0.021066 0.034129 255 220 0
0.647700 0.047508 0.076215 255 220 0
0.585393 0.031786 0.092572 255 220 0
0.589507 -0.051479 0.058968 255 220 0
0.580692 -0.022950 0.084917 255 220 0
0.599953 -0.028972 0.084395 255 220 0
0.642627 0.061410 0.085810 255 220 0
0.648166 0.073159 0.069652 255 220 0
0.584518 0.072557 0.040197 255 220 0
0.620081 -0.016034 0.077693 255 220 0
0.578582 0.059501 0.072213 255 220 0
0.565066 0.026764 0.057373 255 220 0
0.637627 0.012506 0.079463 255 220 0
0.640119 0.022201 0.039185 255 220 0
0.648124 0.030641 0.059597 255 220 0
0.645649 0.030367 0.046068 255 220 0
0.650010 0.043687 0.067676 255 220 0
0.562977 -0.059049 0.024349 255 220 0
0.600885 0.076984 0.028041 255 220 0
0.570150 -0.061239 0.036045 255 220 0
0.552485 -0.027227 0.052386 255 220 0
0.543369 -0.038687 0.039817 255 220 0
0.638249 0.087466 0.049580 255 220 0
0.544015 -0.031044 0.032074 255 220 0
0.565201 -0.004710 0.072353 255 220 0
0.576961 0.061814 0.063389 255 220 0
0.542698 -0.049804 0.022075 255 220 0
0.602244 0.094078 0.060264 255 220 0
0.569368 0.040121 0.061303 255 220 0
0.558224 -0.010740 0.059135 255 220 0
0.627989 -0.012824 0.052155 255 220 0
0.643525 0.015318 0.057849 255 220 0
0.622048 0.098534 0.074468 255 220 0
0.570327 0.027706 0.073521 255 220 0
0.627498 0.099580 0.067074 255 220 0
0.577963 -0.008043 0.086808 255 220 0
0.567345 0.001511 0.075330 255 220 0
0.560006 0.011453 0.040168 255 220 0
0.563762 0.011207 0.064407 255 220 0
0.546067 -0.045614 0.045846 255 220 0
0.631635 -0.006464 0.050405 255 220 0
0.596525 0.057402 0.096176 255 220 0
0.567053 0.024655 0.066416 255 220 0
0.570532 -0.057892 0.027185 255 220 0
0.624316 0.035950 0.020476 255 220 0
0.568461 -0.062007 0.037332 255 220 0
0.622134 -0.022032 0.055269 255 220 0
0.636696 0.058664 0.031755 255 220 0
0.577664 0.060584 0.068313 255 220 0
0.631462 0.097847 0.060372 255 220 0
0.596723 0.039769 0.012565 255 220 0
0.572681 -0.031915 0.013558 255 220 0
0.570953 0.000690 0.080694 255 220 0
0.629060 0.091713 0.083501 255 220 0
0.603843 0.090504 0.043014 255 220 0
0.600079 0.008650 0.013568 255 220 0
0.629330 0.089316 0.085689 255 220 0
0.555618 -0.029614 0.058448 255 220 0
0.601003 0.071382 0.023532 255 220 0
0.616644 0.085846 0.090488 255 220 0
0.625113 0.094478 0.081587 255 220 0
0.555442 -0.007933 0.050150 255 220 0
0.558540 -0.005646 0.023740 255 220 0
0.620674 -0.002609 0.089951 255 220 0
0.601791 0.084559 0.085288 255 220 0
0.615938 0.035285 0.102233 255 220 0
0.547096 -0.031532 0.043035 255 220 0
0.553294 -0.022764 0.018775 255 220 0
0.608385 0.041279 0.102353 255 220 0
0.617047 0.029460 0.017121 255 220 0
0.594827 0.079995 0.035317 255 220 0
0.610755 0.098282 0.063287 255 220 0
0.553677 -0.058301 0.022791 255 220 0
0.606009 -0.039060 0.059473 255 220 0
0.591502 0.085271 0.055679 255 220 0
0.601621 0.083524 0.086225 255 220 0
0.636308 0.043918 0.092243 255 220 0
0.601338 0.093513 0.060064 255 220 0
0.568431 0.033681 0.031609 255 220 0
0.576406 0.047912 0.027100 255 220 0
0.633802 0.042418 0.094246 255 220 0
0.540412 -0.045933 0.024910 255 220 0
0.643023 0.050689 0.038412 255 220 0
0.588519 -0.052722 0.056669 255 220 0
0.578823 -0.056954 0.034658 255 220 0
0.630680 0.071574 0.031588 255 220 0
0.631211 0.021755 0.092672 255 220 0
0.570746 0.048121 0.048137 255 220 0
0.595861 0.088781 0.067697 255 220 0
0.558660 -0.003900 0.024800 255 220 0
0.579714 -0.049536 0.068305 255 220 0
0.614144 0.013248 0.099333 255 220 0
0.581706 -0.011986 0.012910 255 220 0
0.625781 -0.004955 0.035764 255 220 0
0.612458 0.053962 0.101068 255 220 0
0.577562 0.061792 0.066210 255 220 0
0.584749 0.052740 0.020899 255 220 0
0.613587 0.025501 0.015927 255 220 0
0.555873 -0.013511 0.054899 255 220 0
0.596097 0.035080 0.099514 255 220 0
0.572769 -0.047731 0.067763 255 220 0
0.582278 0.060727 0.080339 255 220 0
0.619108 0.057720 0.020125 255 220 0
0.634546 0.022831 0.031335 255 220 0
0.613936 0.066347 0.021220 255 220 0
0.638778 0.049650 0.090166 255 220 0
0.549133 -0.042238 0.050064 255 220 0
0.633595 0.073024 0.092409 255 220 0
0.559252 0.000203 0.057005 255 220 0
0.626527 0.027276 0.097494 255 220 0
0.564870 0.028157 0.040445 255 220 0
0.552013 -0.032886 0.052936 255 220 0
0.585856 0.006489 0.093533 255 220 0
0.560898 -0.044903 0.061669 255 220 0
0.573445 -0.051239 0.065360 255 220 0
0.619284 0.097649 0.075989 255 220 0
0.554809 -0.014703 0.052823 255 220 0
0.624914 -0.013056 0.042755 255 220 0
0.561561 0.012991 0.032434 255 220 0
0.608576 -0.032466 0.070470 255 220 0
0.567691 0.035563 0.037073 255 220 0
0.614340 0.036609 0.102474 255 220 0
0.560962 0.014284 0.038518 255 220 0
0.577729 -0.058224 0.055564 255 220 0
0.642296 0.044653 0.036974 255 220 0
0.561524 -0.015230 0.067032 255 220 0
0.564204 -0.022764 0.071257 255 220 0
0.637152 0.072501 0.089989 255 220 0
0.635980 0.072704 0.036540 255 220 0
0.631792 0.025744 0.093358 255 220 0
0.546230 -0.044836 0.046102 255 220 0
0.539988 -0.045668 0.026336 255 220 0
0.623997 0.098191 0.054954 255 220 0
0.585997 -0.044028 0.024407 255 220 0
0.629541 0.066592 0.095851 255 220 0
0.592696 0.000844 0.096787 255 220 0
0.570341 -0.061380 0.037257 255 220 0
0.549405 -0.036306 0.049430 255 220 0
0.575932 0.061560 0.052575 255 220 0
0.545162 -0.048625 0.043905 255 220 0
0.601570 0.040436 0.101108 255 220 0
0.547150 -0.051082 0.045628 255 220 0
0.605244 -0.024013 0.086040 255 220 0
0.641839 0.070535 0.042301 255 220 0
0.602320 0.091385 0.046735 255 220 0
0.553629 -0.059720 0.025728 255 220 0
0.583322 0.058343 0.083584 255 220 0
0.553879 -0.057015 0.047892 255 220 0
0.600056 -0.012386 0.018516 255 220 0
0.575914 0.032280 0.018714 255 220 0
0.637294 0.002251 0.062544 255 220 0
0.573410 0.053847 0.043361 255 220 0
0.628914 -0.008537 0.070711 255 220 0
0.649825 0.047150 0.069838 255 220 0
0.586118 0.077491 0.046848 255 220 0
0.613123 0.094768 0.078689 255 220 0
0.639981 0.033494 0.086547 255 220 0
0.552544 -0.025380 0.051944 255 220 0
0.572581 0.023063 0.018687 255 220 0
0.612007 0.011974 0.099662 255 220 0
0.624037 -0.003922 0.032787 255 220 0
0.588466 0.081309 0.050785 255 220 0
0.620581 0.078740 0.094972 255 220 0
0.593070 0.000818 0.013147 255 220 0
0.619997 0.100104 0.068158 255 220 0
0.544867 -0.031535 0.023571 255 220 0
0.584826 0.073326 0.073547 255 220 0
0.590679 -0.048533 0.064366 255 220 0
0.592998 -0.045108 0.068132 255 220 0
0.567085 0.031737 0.033935 255 220 0
0.581828 -0.004993 0.012675 255 220 0
0.632267 0.009064 0.034766 255 220 0
0.625880 0.030013 0.022154 255 220 0
0.569270 0.000869 0.078471 255 220 0
0.616733 0.009229 0.021192 255 220 0
0.647090 0.036648 0.074420 255 220 0
0.615043 -0.027495 0.043453 255 220 0
0.551752 -0.040064 0.013825 255 220 0
0.607447 0.080029 0.092426 255 220 0
0.595828 -0.022422 0.019692 255 220 0
0.608661 0.025658 0.102367 255 220 0
0.608107 0.092659 0.078838 255 220 0
0.570458 0.044911 0.040078 255 220 0
0.575320 0.020647 0.083982 255 220 0
0.649371 0.067631 0.067478 255 220 0
0.619280 -0.024305 0.048278 255 220 0
0.643851 0.041331 0.039612 255 220 0
0.645814 0.043945 0.079644 255 220 0
0.593392 -0.043025 0.071167 255 220 0
0.610600 -0.014079 0.090510 255 220 0
0.574754 0.033622 0.080279 255 220 0
0.616400 0.060624 0.100055 255 220 0
0.587035 -0.013105 0.091394 255 220 0
0.577647 -0.041584 0.073990 255 220 0
0.620250 0.053497 0.100212 255 220 0
0.569645 0.044292 0.055211 255 220 0
0.649860 0.042272 0.054804 255 220 0
0.637252 0.043944 0.091361 255 220 0
0.585656 -0.024162 0.015550 255 220 0
0.599620 -0.031289 0.026763 255 220 0
0.555538 -0.005904 0.048309 255 220 0
0.620772 -0.022213 0.048118 255 220 0
0.582404 0.073210 0.049724 255 220 0
0.575436 0.040311 0.023200 255 220 0
0.612801 -0.008962 0.025216 255 220 0
0.571123 0.043446 0.064707 255 220 0
0.638480 0.004098 0.057156 255 220 0
0.568933 0.037093 0.062883 255 220 0
0.618019 -0.020251 0.038834 255 220 0
0.563249 -0.063496 0.039921 255 220 0
0.605606 -0.034931 0.037270 255 220 0
0.584583 0.019668 0.012118 255 220 0
0.566740 0.035623 0.048025 255 220 0
0.608077 0.095774 0.052603 255 220 0
0.565188 -0.046991 0.063807 255 220 0
0.583989 -0.050566 0.029286 255 220 0
0.603841 0.069440 0.021764 255 220 0
0.613510 0.008259 0.019585 255 220 0
0.554616 -0.009960 0.048862 255 220 0
0.619370 -0.023356 0.066514 255 220 0
0.561427 0.016327 0.049807 255 220 0
0.577775 -0.028139 0.014049 255 220 0
0.640405 0.060221 0.036354 255 220 0
0.614094 -0.011997 0.089285 255 220 0
0.567286 0.034860 0.057911 255 220 0
0.565782 0.004783 0.020065 255 220 0
0.554070 -0.031526 0.056117 255 220 0
0.619787 -0.006906 0.030099 255 220 0
0.638958 0.005765 0.064511 255 220 0
0.590664 0.056005 0.092399 255 220 0
0.582974 -0.031702 0.016577 255 220 0
0.546701 -0.025105 0.033194 255 220 0
0.611385 0.093929 0.079052 255 220 0
0.632716 0.080582 0.089999 255 220 0
0.618503 0.095379 0.047048 255 220 0
0.592235 0.006584 0.097215 255 220 0
0.594570 -0.043496 0.032803 255 220 0
0.602255 0.072354 0.094409 255 220 0
0.599726 0.050233 0.099111 255 220 0
0.585198 0.067329 0.080861 255 220 0
0.628269 0.015636 0.092870 255 220 0
0.588604 -0.010570 0.092792 255 220 0
0.625558 0.096864 0.052442 255 220 0
0.565778 -0.062595 0.047277 255 220 0
0.596092 -0.039313 0.074415 255 220 0
0.552001 -0.015689 0.044341 255 220 0
0.616450 0.029752 0.016799 255 220 0
0.562284 0.019966 0.043399 255 220 0
0.601840 -0.042771 0.058662 255 220 0
0.583909 0.037982 0.090330 255 220 0
0.605777 -0.039112 0.060003 255 220 0
0.650491 0.061448 0.062881 255 220 0
0.577581 0.064823 0.050296 255 220 0
0.559150 -0.053796 0.055162 255 220 0
0.565273 0.022445 0.062520 255 220 0
0.630055 0.079853 0.091790 255 220 0
0.559058 0.005622 0.033419 255 220 0
0.573539 0.046529 0.069496 255 220 0
0.598323 0.082439 0.084514 255 220 0
0.582458 0.000072 0.090898 255 220 0
0.588718 0.059516 0.089515 255 220 0
0.625139 0.076094 0.095189 255 220 0
0.643832 0.057467 0.040831 255 220 0
0.604090 0.013908 0.100951 255 220 0
0.555417 -0.004450 0.033711 255 220 0
0.570669 0.033209 0.025992 255 220 0
0.567638 -0.028888 0.073437 255 220 0
0.618457 0.015865 0.020431 255 220 0
0.569664 0.021736 0.074753 255 220 0
0.618877 0.056054 0.019580 255 220 0
0.556095 -0.001523 0.038959 255 220 0
0.584967 0.011030 0.012109 255 220 0
0.631690 -0.000157 0.040856 255 220 0
0.589011 -0.051310 0.037891 255 220 0
0.574098 -0.060651 0.048157 255 220 0
0.570777 0.047596 0.045221 255 220 0
0.580204 -0.003275 0.012781 255 220 0
0.556630 -0.034113 0.060089 255 220 0
0.560093 -0.023467 0.065348 255 220 0
0.599110 0.007618 0.099707 255 220 0
0.603510 -0.040730 0.060959 255 220 0
0.603167 0.048934 0.100470 255 220 0
0.567143 -0.030156 0.012810 255 220 0
0.629384 0.061777 0.026945 255 220 0
0.623247 0.034740 0.019931 255 220 0
0.549541 -0.044155 0.014632 255 220 0
0.630841 0.006592 0.034372 255 220 0
0.549259 -0.046255 0.015061 255 220 0
0.647616 0.045554 0.076057 255 220 0
0.618907 -0.012816 0.083237 255 220 0
0.592402 0.083405 0.044684 255 220 0
0.601913 0.005351 0.014839 255 220 0
0.642169 0.067170 0.041265 255 220 0
0.555689 -0.013232 0.022273 255 220 0
0.565566 -0.040354 0.067403 255 220 0
0.569221 0.043641 0.051208 255 220 0
0.600216 -0.007368 0.096721 255 220 0
0.594032 0.060687 0.093621 255 220 0
0.592835 0.075589 0.031960 255 220 0
0.551643 -0.020677 0.047672 255 220 0
0.645321 0.051466 0.081544 255 220 0
0.611269 0.098458 0.063624 255 220 0
0.643677 0.039584 0.039432 255 220 0
0.583581 -0.000775 0.012560 255 220 0
0.554252 -0.058260 0.022561 255 220 0
0.649824 0.040622 0.055548 255 220 0
0.647468 0.033531 0.049725 255 220 0
0.561988 -0.015512 0.016198 255 220 0
0.641001 0.027571 0.038066 255 220 0
