ply
format ascii 1.0
element vertex 1024
property float x
property float y
property float z
property uchar red
property uchar green
property uchar blue
end_header
0.609111 0.010284 0.099726 255 220 0
0.621392 0.075316 0.028025 255 220 0
0.627356 0.002911 0.086248 255 220 0
0.607302 -0.002681 0.097201 255 220 0
0.553993 -0.058405 0.021333 255 220 0
0.576862 -0.026141 0.081945 255 220 0
0.586277 0.050977 0.089617 255 220 0
0.624217 0.088155 0.087470 255 220 0
0.608786 -0.000099 0.097571 255 220 0
0.588955 0.081279 0.061921 255 220 0
0.589930 -0.020261 0.090439 255 220 0
0.636209 0.021277 0.033608 255 220 0
0.632214 0.073004 0.033334 255 220 0
0.589809 -0.036453 0.021883 255 220 0
0.553291 -0.009384 0.043393 255 220 0
0.588180 -0.053196 0.045315 255 220 0
0.620304 0.019547 0.020215 255 220 0
0.595354 -0.010534 0.095311 255 220 0
0.600377 0.013049 0.100541 255 220 0
0.617644 0.030105 0.016848 255 220 0
0.649120 0.052249 0.051987 255 220 0
0.615457 -0.002425 0.024106 255 220 0
0.606891 0.064937 0.098413 255 220 0
0.627278 0.022067 0.095496 255 220 0
0.580329 0.053222 0.081006 255 220 0
0.568184 -0.061676 0.035624 255 220 0
0.575323 -0.019688 0.083050 255 220 0
0.620028 0.098233 0.057575 255 220 0
0.648391 0.031205 0.059933 255 220 0
0.624246 0.045036 0.099404 255 220 0
0.604526 0.031735 0.102369 255 220 0
0.627759 -0.008593 0.072648 255 220 0
0.616505 -0.020442 0.036765 255 220 0
0.580255 0.057296 0.077942 255 220 0
0.576582 0.045407 0.025592 255 220 0
0.650630 0.043571 0.059399 255 220 0
0.625169 0.037551 0.020506 255 220 0
0.613633 0.020761 0.016136 255 220 0
0.599331 -0.007981 0.016348 255 220 0
0.637456 0.020394 0.035690 255 220 0
0.626961 0.062792 0.025604 255 220 0
0.584718 -0.053807 0.036938 255 220 0
0.590117 0.058812 0.090711 255 220 0
0.612652 0.083144 0.091009 255 220 0
0.565772 -0.009121 0.074967 255 220 0
0.570738 0.045164 0.059536 255 220 0
0.564838 0.018191 0.064556 255 220 0
0.569025 0.005879 0.016825 255 220 0
0.626390 0.095353 0.051697 255 220 0
0.542110 -0.050446 0.037975 255 220 0
0.595958 0.086823 0.049925 255 220 0
0.623638 0.049053 0.099409 255 220 0
0.587759 -0.050327 0.034019 255 220 0
0.625347 -0.009554 0.076194 255 220 0
0.589895 -0.019786 0.015414 255 220 0
0.648629 0.048461 0.050204 255 220 0
0.647981 0.059370 0.076413 255 220 0
0.593517 -0.048013 0.039849 255 220 0
0.625458 -0.016772 0.059010 255 220 0
0.638746 0.093056 0.067783 255 220 0
0.564183 -0.049915 0.061597 255 220 0
0.630141 -0.009754 0.058317 255 220 0
0.596236 -0.047303 0.045887 255 220 0
0.625137 0.073220 0.095788 255 220 0
0.648169 0.040891 0.073444 255 220 0
0.605163 0.020009 0.012632 255 220 0
0.585777 -0.020884 0.014143 255 220 0
0.622404 -0.015129 0.040615 255 220 0
0.610933 -0.026571 0.075649 255 220 0
0.649259 0.056526 0.053233 255 220 0
0.567212 0.035182 0.041434 255 220 0
0.648159 0.074049 0.069212 255 220 0
0.583456 -0.037227 0.018256 255 220 0
0.636182 0.093017 0.056265 255 220 0
0.610078 -0.031542 0.068238 255 220 0
0.583601 0.074235 0.060638 255 220 0
0.591887 -0.049177 0.058926 255 220 0
0.584019 -0.032623 0.016704 255 220 0
0.603308 -0.014353 0.020607 255 220 0
0.643999 0.083540 0.056181 255 220 0
0.642159 0.071297 0.084898 255 220 0
0.624041 -0.018526 0.060932 255 220 0
0.610416 0.077812 0.027459 255 220 0
0.628616 0.097882 0.069958 255 220 0
0.574788 -0.048050 0.019239 255 220 0
0.542969 -0.037237 0.019138 255 220 0
0.637363 0.068259 0.035909 255 220 0
0.563717 -0.062308 0.047393 255 220 0
0.542928 -0.048067 0.018164 255 220 0
0.601639 0.030514 0.011329 255 220 0
0.562244 -0.063327 0.036923 255 220 0
0.635777 0.021580 0.032943 255 220 0
0.587375 0.063540 0.085731 255 220 0
0.604567 0.082933 0.033266 255 220 0
0.618036 -0.026236 0.060384 255 220 0
0.591816 -0.031058 0.020449 255 220 0
0.572281 0.046270 0.036246 255 220 0
0.612456 0.049865 0.101331 255 220 0
0.544415 -0.056816 0.027368 255 220 0
0.630138 -0.008323 0.065758 255 220 0
0.624611 -0.010393 0.076394 255 220 0
0.583253 -0.053441 0.060632 255 220 0
0.607428 -0.037979 0.050836 255 220 0
0.564429 0.027030 0.052179 255 220 0
0.557788 -0.026903 0.013169 255 220 0
0.547927 -0.025136 0.021590 255 220 0
0.617264 0.009182 0.021107 255 220 0
0.593900 -0.036915 0.078048 255 220 0
0.546845 -0.050183 0.015862 255 220 0
0.552188 -0.016906 0.047987 255 220 0
0.621932 0.099271 0.065862 255 220 0
0.642794 0.040258 0.083996 255 220 0
0.608179 -0.023150 0.028944 255 220 0
0.562379 -0.063048 0.044410 255 220 0
0.563998 -0.043509 0.065115 255 220 0
0.590611 0.077941 0.039778 255 220 0
0.578007 0.000182 0.088087 255 220 0
0.619258 -0.009665 0.031089 255 220 0
0.557331 0.003508 0.042518 255 220 0
0.629253 -0.010946 0.060244 255 220 0
0.575489 0.038252 0.022230 255 220 0
0.581047 0.024647 0.013157 255 220 0
0.624784 -0.013060 0.072037 255 220 0
0.562223 0.011226 0.027856 255 220 0
0.595252 0.025957 0.099793 255 220 0
0.560302 -0.033487 0.011570 255 220 0
0.606091 0.081415 0.089911 255 220 0
0.633406 0.039440 0.094111 255 220 0
0.646713 0.025309 0.063015 255 220 0
0.618956 0.045416 0.017426 255 220 0
0.639226 0.083713 0.047583 255 220 0
0.584693 -0.035095 0.018013 255 220 0
0.564704 0.027877 0.052560 255 220 0
0.612064 0.039400 0.102374 255 220 0
0.562962 0.000439 0.067699 255 220 0
0.562724 -0.062691 0.045913 255 220 0
0.588850 0.042060 0.014376 255 220 0
0.560787 -0.051853 0.057888 255 220 0
0.569192 0.019006 0.075563 255 220 0
0.586468 -0.037654 0.020281 255 220 0
0.585468 0.030132 0.093050 255 220 0
0.562108 -0.034647 0.067062 255 220 0
0.553603 -0.010553 0.047132 255 220 0
0.597156 -0.042506 0.035420 255 220 0
0.574579 0.029012 0.018597 255 220 0
0.650830 0.045942 0.060135 255 220 0
0.575068 0.052363 0.067843 255 220 0
0.576049 0.019089 0.014738 255 220 0
0.624381 -0.014344 0.070704 255 220 0
0.611526 -0.024592 0.033978 255 220 0
0.577681 -0.039356 0.016202 255 220 0
0.593672 -0.034301 0.081050 255 220 0
0.585321 -0.040771 0.076286 255 220 0
0.568354 -0.039505 0.070318 255 220 0
0.580797 0.037989 0.016986 255 220 0
0.622094 0.093115 0.045264 255 220 0
0.637545 0.052029 0.091354 255 220 0
0.582080 0.072001 0.057574 255 220 0
0.603516 -0.040557 0.059336 255 220 0
0.616312 0.005616 0.096270 255 220 0
0.550085 -0.056067 0.045026 255 220 0
0.550479 -0.059490 0.040732 255 220 0
0.618894 0.098634 0.059563 255 220 0
0.614444 0.009310 0.019335 255 220 0
0.569977 0.026427 0.074054 255 220 0
0.571997 0.039925 0.070009 255 220 0
0.650566 0.043281 0.058954 255 220 0
0.584353 0.031024 0.091975 255 220 0
0.552436 -0.011622 0.029321 255 220 0
0.611749 0.055308 0.100658 255 220 0
0.565138 0.023094 0.061963 255 220 0
0.588006 0.003273 0.011643 255 220 0
0.647101 0.078978 0.068113 255 220 0
0.604515 -0.013352 0.020991 255 220 0
0.641230 0.079255 0.046722 255 220 0
0.645309 0.081212 0.057098 255 220 0
0.547127 -0.023318 0.026613 255 220 0
0.547773 -0.031212 0.016992 255 220 0
0.583969 -0.010257 0.090999 255 220 0
0.562535 -0.009673 0.069453 255 220 0
0.610280 -0.024531 0.032346 255 220 0
0.589238 -0.029911 0.018400 255 220 0
0.564691 -0.010516 0.073365 255 220 0
0.587233 0.068057 0.082639 255 220 0
0.566573 0.026879 0.063696 255 220 0
0.629544 -0.009450 0.049806 255 220 0
0.543935 -0.054943 0.036638 255 220 0
0.585432 0.067618 0.033346 255 220 0
0.560522 -0.027718 0.066855 255 220 0
0.598979 0.028263 0.010952 255 220 0
0.647977 0.041820 0.048392 255 220 0
0.641493 0.058987 0.037304 255 220 0
0.582903 -0.002775 0.011863 255 220 0
0.610290 0.087329 0.036376 255 220 0
0.633146 -0.003791 0.065345 255 220 0
0.570039 -0.026209 0.076917 255 220 0
0.623583 0.014904 0.095546 255 220 0
0.575716 -0.032207 0.078595 255 220 0
0.611542 0.096860 0.057831 255 220 0
0.581082 -0.014631 0.088291 255 220 0
0.603000 0.069959 0.095382 255 220 0
0.597253 -0.039344 0.031291 255 220 0
0.638107 0.030901 0.032748 255 220 0
0.573837 0.013004 0.083690 255 220 0
0.586016 -0.025273 0.015287 255 220 0
0.601610 0.081580 0.033266 255 220 0
0.596523 -0.040528 0.070760 255 220 0
0.649223 0.046117 0.072079 255 220 0
0.609407 0.031493 0.102650 255 220 0
0.556480 -0.028066 0.060826 255 220 0
0.580554 0.058260 0.077837 255 220 0
0.549405 -0.053682 0.017012 255 220 0
0.615017 -0.019148 0.080077 255 220 0
0.629096 -0.001732 0.079448 255 220 0
0.596791 0.051030 0.015184 255 220 0
0.598640 -0.040034 0.033999 255 220 0
0.613625 -0.002889 0.094423 255 220 0
0.581729 0.004207 0.011966 255 220 0
0.596295 0.020429 0.100105 255 220 0
0.632952 0.036394 0.026274 255 220 0
0.573851 0.040932 0.074646 255 220 0
0.563680 -0.062857 0.045279 255 220 0
0.587587 0.060052 0.023704 255 220 0
0.632693 0.080342 0.037783 255 220 0
0.607592 0.086455 0.036148 255 220 0
0.563876 0.022661 0.057076 255 220 0
0.617896 0.000111 0.093138 255 220 0
0.623914 0.070500 0.026846 255 220 0
0.625120 0.085237 0.036312 255 220 0
0.574843 0.054228 0.064682 255 220 0
0.575170 -0.059855 0.047294 255 220 0
0.572536 0.046524 0.035716 255 220 0
0.576925 0.022379 0.014826 255 220 0
0.611807 0.093956 0.047460 255 220 0
0.562559 0.015362 0.059031 255 220 0
0.640462 0.076443 0.043712 255 220 0
0.613447 0.094975 0.076070 255 220 0
0.630407 0.020373 0.092581 255 220 0
0.601725 -0.009702 0.018040 255 220 0
0.560230 -0.002204 0.061811 255 220 0
0.623989 -0.011586 0.075880 255 220 0
0.578526 0.059689 0.070637 255 220 0
0.590084 -0.032052 0.019817 255 220 0
0.593467 0.058130 0.093683 255 220 0
0.639627 0.043783 0.088658 255 220 0
0.603673 0.043855 0.013076 255 220 0
0.589640 0.056520 0.020019 255 220 0
0.561699 -0.035823 0.066301 255 220 0
0.593756 0.079165 0.081628 255 220 0
0.583191 -0.043040 0.074237 255 220 0
0.633770 0.002970 0.076350 255 220 0
0.648896 0.041674 0.051140 255 220 0
0.637493 0.027138 0.033052 255 220 0
0.610634 0.003071 0.097852 255 220 0
0.644545 0.019268 0.054077 255 220 0
0.609215 0.073410 0.024377 255 220 0
0.621266 -0.000605 0.090031 255 220 0
0.642035 0.041525 0.085322 255 220 0
0.545103 -0.044871 0.044842 255 220 0
0.606438 0.091095 0.078037 255 220 0
0.624152 -0.009245 0.037062 255 220 0
0.626652 0.036927 0.098311 255 220 0
0.636599 0.094791 0.066195 255 220 0
0.644040 0.086175 0.070148 255 220 0
0.639666 0.084540 0.081096 255 220 0
0.610350 0.076238 0.094953 255 220 0
0.602462 0.058717 0.017021 255 220 0
0.619011 -0.025352 0.052889 255 220 0
0.583187 -0.005585 0.011923 255 220 0
0.641511 0.090470 0.066939 255 220 0
0.638742 0.093186 0.066580 255 220 0
0.548783 -0.027970 0.045748 255 220 0
0.611509 0.044734 0.101922 255 220 0
0.555075 -0.006257 0.028973 255 220 0
0.605135 0.005803 0.015420 255 220 0
0.627219 -0.007890 0.040886 255 220 0
0.600896 0.013046 0.012371 255 220 0
0.557472 0.001412 0.032441 255 220 0
0.576598 0.046777 0.077345 255 220 0
0.570977 0.047853 0.049986 255 220 0
0.620063 -0.007503 0.030560 255 220 0
0.615891 0.078765 0.094486 255 220 0
0.591552 0.020479 0.010630 255 220 0
0.621433 0.032368 0.018666 255 220 0
0.596134 0.000946 0.013192 255 220 0
0.582828 0.012703 0.091944 255 220 0
0.584489 -0.014429 0.012728 255 220 0
0.628406 -0.000279 0.082094 255 220 0
0.574734 0.008843 0.085039 255 220 0
0.610031 0.006317 0.017711 255 220 0
0.570423 -0.033508 0.012378 255 220 0
0.635386 0.083736 0.042967 255 220 0
0.584965 0.073302 0.071839 255 220 0
0.587532 -0.008357 0.012582 255 220 0
0.619427 -0.020174 0.071437 255 220 0
0.646864 0.033720 0.073509 255 220 0
0.561755 0.015590 0.034794 255 220 0
0.561242 0.007477 0.059989 255 220 0
0.594315 -0.014404 0.093772 255 220 0
0.579320 -0.053369 0.063277 255 220 0
0.564165 -0.031680 0.011598 255 220 0
0.649939 0.063427 0.058902 255 220 0
0.596895 -0.026214 0.021512 255 220 0
0.615660 -0.029094 0.050788 255 220 0
0.547652 -0.049099 0.047498 255 220 0
0.647678 0.028641 0.058559 255 220 0
0.622165 -0.021457 0.054966 255 220 0
0.568907 0.031850 0.067130 255 220 0
0.645970 0.022743 0.062906 255 220 0
0.605949 0.070548 0.022573 255 220 0
0.635001 0.090754 0.050735 255 220 0
0.617707 0.041507 0.016561 255 220 0
0.648839 0.066866 0.071609 255 220 0
0.650024 0.038477 0.060814 255 220 0
0.572761 0.050213 0.041496 255 220 0
0.592030 0.069893 0.027976 255 220 0
0.634286 0.077576 0.037493 255 220 0
0.620750 0.034548 0.100736 255 220 0
0.552372 -0.045427 0.053887 255 220 0
0.645296 0.023470 0.050899 255 220 0
0.565765 -0.029020 0.072301 255 220 0
0.599677 -0.020154 0.020639 255 220 0
0.567126 -0.057226 0.057143 255 220 0
0.561677 -0.003606 0.019927 255 220 0
0.613304 0.035648 0.102417 255 220 0
0.566741 0.030692 0.060572 255 220 0
0.644378 0.073780 0.080691 255 220 0
0.592381 0.073974 0.031958 255 220 0
0.602970 -0.035704 0.034549 255 220 0
0.548820 -0.033401 0.048250 255 220 0
0.559154 0.008808 0.038136 255 220 0
0.609462 0.024056 0.013706 255 220 0
0.555546 -0.002007 0.038577 255 220 0
0.637711 0.090703 0.054138 255 220 0
0.570839 0.032452 0.072523 255 220 0
0.617321 -0.005548 0.090255 255 220 0
0.566528 0.030184 0.034936 255 220 0
0.616407 0.044366 0.101528 255 220 0
0.617805 0.013317 0.097845 255 220 0
0.539502 -0.041545 0.032903 255 220 0
0.597028 -0.040550 0.032446 255 220 0
0.564104 0.009687 0.067028 255 220 0
0.583905 -0.002940 0.011863 255 220 0
0.627408 -0.005837 0.077381 255 220 0
0.598482 -0.045638 0.054242 255 220 0
0.541892 -0.049609 0.020461 255 220 0
0.593841 0.019968 0.099095 255 220 0
0.593527 0.084924 0.050434 255 220 0
0.627618 -0.009604 0.044066 255 220 0
0.630426 0.076097 0.092887 255 220 0
0.608489 0.095771 0.058041 255 220 0
0.638277 0.017055 0.038793 255 220 0
0.599954 0.089749 0.071772 255 220 0
0.540655 -0.052256 0.027418 255 220 0
0.630342 0.013524 0.030084 255 220 0
0.574199 0.030368 0.080690 255 220 0
0.637853 0.005830 0.069647 255 220 0
0.597057 0.051376 0.097548 255 220 0
0.595796 -0.036981 0.027339 255 220 0
0.565268 0.003504 0.019249 255 220 0
0.617778 -0.027034 0.055621 255 220 0
0.553313 -0.061627 0.040398 255 220 0
0.593984 -0.047067 0.038472 255 220 0
0.589130 -0.052550 0.051408 255 220 0
0.620262 -0.009158 0.084216 255 220 0
0.564590 0.027416 0.042147 255 220 0
0.554585 -0.042730 0.011791 255 220 0
0.635541 -0.001113 0.056433 255 220 0
0.615458 0.046342 0.016085 255 220 0
0.579311 -0.013480 0.012009 255 220 0
0.597259 0.060189 0.095611 255 220 0
0.630628 0.089474 0.044669 255 220 0
0.574599 0.042163 0.026201 255 220 0
0.635862 0.070653 0.035483 255 220 0
0.595104 -0.015033 0.093623 255 220 0
0.609574 -0.031898 0.040112 255 220 0
0.615877 0.059171 0.019071 255 220 0
0.562229 -0.061728 0.028709 255 220 0
0.576385 0.057373 0.066281 255 220 0
0.608464 0.010795 0.099933 255 220 0
0.607126 0.076008 0.026334 255 220 0
0.613343 0.061598 0.099791 255 220 0
0.593826 0.084172 0.073340 255 220 0
0.637811 0.069710 0.089952 255 220 0
0.619865 -0.021770 0.045287 255 220 0
0.650258 0.043714 0.067024 255 220 0
0.581023 0.064078 0.037062 255 220 0
0.606329 -0.039090 0.051434 255 220 0
0.599292 -0.007770 0.016275 255 220 0
0.639485 0.006935 0.064737 255 220 0
0.617286 0.044030 0.016561 255 220 0
0.644138 0.055402 0.040647 255 220 0
0.555058 -0.003436 0.040995 255 220 0
0.619146 0.014400 0.020798 255 220 0
0.630324 0.020471 0.027516 255 220 0
0.650419 0.049578 0.068413 255 220 0
0.628790 0.001437 0.083197 255 220 0
0.579734 0.064397 0.068494 255 220 0
0.553602 -0.013271 0.049746 255 220 0
0.641315 0.009885 0.058369 255 220 0
0.609582 -0.021128 0.028936 255 220 0
0.611370 0.000953 0.020124 255 220 0
0.617035 0.018159 0.099386 255 220 0
0.615214 0.062672 0.020018 255 220 0
0.634224 0.065901 0.032025 255 220 0
0.599716 -0.025855 0.086699 255 220 0
0.618761 0.075592 0.027251 255 220 0
0.645764 0.021847 0.059681 255 220 0
0.589285 0.010559 0.096335 255 220 0
0.592169 0.084584 0.055997 255 220 0
0.577859 -0.056032 0.031155 255 220 0
0.636411 0.089780 0.079439 255 220 0
0.604188 -0.038769 0.062996 255 220 0
0.645694 0.024903 0.069673 255 220 0
0.557650 -0.022508 0.062289 255 220 0
0.575724 0.056394 0.040399 255 220 0
0.593375 -0.013974 0.093760 255 220 0
0.554250 -0.030762 0.057335 255 220 0
0.544849 -0.036324 0.017164 255 220 0
0.623129 0.001007 0.028809 255 220 0
0.583939 0.046505 0.018575 255 220 0
0.594014 0.082088 0.078020 255 220 0
0.647129 0.061690 0.048535 255 220 0
0.588583 -0.034824 0.081405 255 220 0
0.577708 0.063422 0.059780 255 220 0
0.541593 -0.034914 0.025234 255 220 0
0.607320 0.084020 0.088229 255 220 0
0.566793 0.035148 0.046647 255 220 0
0.580863 0.036274 0.087619 255 220 0
0.608500 -0.036603 0.048847 255 220 0
0.596521 0.088552 0.064115 255 220 0
0.606347 0.056063 0.016149 255 220 0
0.615462 0.045016 0.101602 255 220 0
0.588555 0.029089 0.095596 255 220 0
0.650068 0.038731 0.060769 255 220 0
0.624569 -0.016729 0.049123 255 220 0
0.608031 -0.037315 0.056066 255 220 0
0.606537 0.081398 0.031006 255 220 0
0.611214 -0.030399 0.068447 255 220 0
0.643414 0.020968 0.073341 255 220 0
0.591313 -0.011906 0.093911 255 220 0
0.629396 0.087320 0.086613 255 220 0
0.542213 -0.047754 0.018947 255 220 0
0.568723 0.036795 0.061942 255 220 0
0.589298 -0.052299 0.052634 255 220 0
0.581200 0.051305 0.023853 255 220 0
0.551951 -0.012621 0.041195 255 220 0
0.585390 -0.019084 0.013669 255 220 0
0.583516 0.044204 0.088613 255 220 0
0.638878 0.090069 0.075862 255 220 0
0.609816 -0.006871 0.021932 255 220 0
0.623764 0.091317 0.042886 255 220 0
0.599274 0.015616 0.011609 255 220 0
0.551110 -0.015672 0.026491 255 220 0
0.561291 -0.008267 0.018150 255 220 0
0.638636 0.040842 0.089405 255 220 0
0.632999 0.005339 0.038117 255 220 0
0.597296 0.081584 0.083075 255 220 0
0.565155 0.029241 0.053242 255 220 0
0.642615 0.012981 0.061202 255 220 0
0.590841 -0.020552 0.016021 255 220 0
0.580895 0.032650 0.015066 255 220 0
0.608679 0.092711 0.076846 255 220 0
0.624331 0.003323 0.089716 255 220 0
0.553279 -0.033762 0.012774 255 220 0
0.646755 0.066136 0.078168 255 220 0
0.597842 -0.022695 0.089596 255 220 0
0.580656 -0.056849 0.039004 255 220 0
0.643868 0.041083 0.039503 255 220 0
0.604628 -0.035281 0.069865 255 220 0
0.562193 0.018060 0.054127 255 220 0
0.554266 -0.008028 0.028879 255 220 0
0.627552 -0.013188 0.052273 255 220 0
0.641048 0.040886 0.086538 255 220 0
0.604929 -0.038439 0.042853 255 220 0
0.599950 -0.026928 0.085652 255 220 0
0.583443 0.012162 0.092420 255 220 0
0.598772 0.086359 0.078017 255 220 0
0.635540 0.000620 0.066942 255 220 0
0.622846 0.095340 0.050034 255 220 0
0.566200 0.024528 0.064351 255 220 0
0.562882 0.022471 0.046557 255 220 0
0.588349 0.078940 0.047544 255 220 0
0.591234 0.055758 0.018782 255 220 0
0.632373 0.004021 0.080218 255 220 0
0.540341 -0.045956 0.036067 255 220 0
0.564507 -0.026698 0.071700 255 220 0
0.553329 -0.010059 0.044974 255 220 0
0.637281 0.004610 0.048188 255 220 0
0.544904 -0.045884 0.015643 255 220 0
0.621495 0.024320 0.099183 255 220 0
0.602225 0.053801 0.099261 255 220 0
0.621250 0.064529 0.098574 255 220 0
0.624362 0.022761 0.022137 255 220 0
0.590141 0.082207 0.065774 255 220 0
0.580557 0.053096 0.081492 255 220 0
0.629970 0.083753 0.089060 255 220 0
0.625359 0.020961 0.096411 255 220 0
0.590845 0.060066 0.021292 255 220 0
0.569791 0.037919 0.033166 255 220 0
0.575852 0.034865 0.081785 255 220 0
0.559473 0.009475 0.050372 255 220 0
0.571560 0.013651 0.016691 255 220 0
0.570842 -0.003112 0.014088 255 220 0
0.570425 -0.010049 0.080663 255 220 0
0.626726 0.089182 0.085944 255 220 0
0.621463 0.097736 0.073493 255 220 0
0.630032 0.015315 0.090895 255 220 0
0.638610 0.004734 0.062513 255 220 0
0.593036 0.044324 0.013902 255 220 0
0.619172 -0.022693 0.067121 255 220 0
0.607731 0.025208 0.012937 255 220 0
0.602535 -0.035848 0.034117 255 220 0
0.582655 -0.046899 0.023801 255 220 0
0.599733 -0.006112 0.016046 255 220 0
0.558327 -0.054530 0.054061 255 220 0
0.620366 0.010056 0.095674 255 220 0
0.557189 -0.013690 0.059017 255 220 0
0.604881 -0.007444 0.019095 255 220 0
0.620967 -0.018790 0.070587 255 220 0
0.625239 0.069976 0.027333 255 220 0
0.626665 0.046458 0.098356 255 220 0
0.612429 -0.030857 0.044523 255 220 0
0.639971 0.090282 0.057418 255 220 0
0.580258 -0.053886 0.062053 255 220 0
0.588095 -0.017444 0.014190 255 220 0
0.572154 -0.030605 0.012333 255 220 0
0.558397 0.006604 0.047143 255 220 0
0.605689 -0.033070 0.072387 255 220 0
0.631219 0.093715 0.051947 255 220 0
0.562573 -0.003772 0.068125 255 220 0
0.586935 0.068688 0.032416 255 220 0
0.645580 0.022138 0.065431 255 220 0
0.618231 -0.019030 0.037909 255 220 0
0.562463 0.018432 0.035931 255 220 0
0.624978 0.076394 0.094746 255 220 0
0.642112 0.037711 0.084442 255 220 0
0.636377 0.057639 0.092361 255 220 0
0.589907 -0.048783 0.034514 255 220 0
0.557078 -0.036521 0.011593 255 220 0
0.601151 0.080921 0.087234 255 220 0
0.580845 -0.042579 0.019415 255 220 0
0.627965 0.072913 0.094971 255 220 0
0.633765 0.004624 0.040013 255 220 0
0.554868 -0.004131 0.036016 255 220 0
0.634156 0.061336 0.030323 255 220 0
0.645602 0.034984 0.043726 255 220 0
0.585130 0.075928 0.051118 255 220 0
0.568289 -0.011610 0.013469 255 220 0
0.600522 -0.002770 0.098053 255 220 0
0.617912 0.001794 0.093925 255 220 0
0.647155 0.035964 0.047193 255 220 0
0.608104 -0.027016 0.078717 255 220 0
0.572514 0.015858 0.081673 255 220 0
0.605724 -0.036826 0.041140 255 220 0
0.576606 0.059169 0.042469 255 220 0
0.558164 -0.033810 0.011724 255 220 0
0.570848 -0.010619 0.081040 255 220 0
0.646554 0.072764 0.052584 255 220 0
0.644604 0.041787 0.081396 255 220 0
0.645884 0.051650 0.043675 255 220 0
0.617826 0.017549 0.019166 255 220 0
0.567218 0.031243 0.061960 255 220 0
0.587192 -0.013587 0.013203 255 220 0
0.556180 -0.016699 0.057816 255 220 0
0.571962 -0.057815 0.027979 255 220 0
0.594254 -0.046500 0.037746 255 220 0
0.589214 0.068076 0.028983 255 220 0
0.610632 0.065683 0.098848 255 220 0
0.581667 0.027342 0.089982 255 220 0
0.639240 0.007996 0.068722 255 220 0
0.589741 -0.037186 0.079221 255 220 0
0.564790 0.019665 0.028548 255 220 0
0.551747 -0.027362 0.051931 255 220 0
0.622892 0.016475 0.096456 255 220 0
0.646254 0.047991 0.044258 255 220 0
0.550367 -0.017550 0.025716 255 220 0
0.642597 0.026428 0.079402 255 220 0
0.555499 -0.014092 0.055303 255 220 0
0.639368 0.057879 0.089685 255 220 0
0.602492 0.027122 0.011439 255 220 0
0.621204 0.005333 0.025273 255 220 0
0.562667 -0.028636 0.069252 255 220 0
0.643144 0.017316 0.050157 255 220 0
0.594674 -0.048428 0.045002 255 220 0
0.632994 0.055748 0.027658 255 220 0
0.561720 0.012259 0.058424 255 220 0
0.559143 -0.053848 0.016586 255 220 0
0.624664 0.091004 0.084602 255 220 0
0.644140 0.067478 0.044440 255 220 0
0.582114 0.068484 0.070633 255 220 0
0.582048 -0.045170 0.072263 255 220 0
0.591929 0.076552 0.035725 255 220 0
0.604925 0.010354 0.014262 255 220 0
0.599098 0.083357 0.037452 255 220 0
0.630411 0.021225 0.027360 255 220 0
0.586034 0.068737 0.080153 255 220 0
0.619854 0.047509 0.018087 255 220 0
0.551609 -0.056156 0.046615 255 220 0
0.605662 -0.039679 0.050908 255 220 0
0.611975 0.017300 0.100493 255 220 0
0.572200 0.050978 0.054669 255 220 0
0.539103 -0.045220 0.032541 255 220 0
0.582801 -0.049076 0.026090 255 220 0
0.611081 -0.025589 0.076899 255 220 0
0.578533 0.049306 0.079909 255 220 0
0.604778 0.026417 0.102245 255 220 0
0.585685 0.077028 0.053565 255 220 0
0.559545 0.003915 0.028290 255 220 0
0.568262 0.001185 0.016236 255 220 0
0.642289 0.027573 0.080600 255 220 0
0.550243 -0.019003 0.043048 255 220 0
0.557525 -0.052808 0.054735 255 220 0
0.597732 0.078542 0.032452 255 220 0
0.552203 -0.047076 0.012795 255 220 0
0.648276 0.033159 0.053128 255 220 0
0.646690 0.080397 0.062576 255 220 0
0.592548 -0.036754 0.024212 255 220 0
0.564722 0.025664 0.036366 255 220 0
0.608076 0.014312 0.014735 255 220 0
0.604764 0.086343 0.084145 255 220 0
0.640424 0.008032 0.060641 255 220 0
0.558586 -0.031114 0.012050 255 220 0
0.574924 0.051940 0.035833 255 220 0
0.589288 0.033144 0.012062 255 220 0
0.574601 0.055630 0.060868 255 220 0
0.546691 -0.040312 0.014377 255 220 0
0.612468 0.016849 0.016331 255 220 0
0.650999 0.048863 0.062884 255 220 0
0.632897 -0.003727 0.048875 255 220 0
0.632454 0.036660 0.094570 255 220 0
0.559973 -0.028568 0.012257 255 220 0
0.643323 0.082956 0.053850 255 220 0
0.574399 0.056317 0.048695 255 220 0
0.585383 -0.052209 0.061043 255 220 0
0.602015 0.012841 0.012719 255 220 0
0.642840 0.019218 0.046924 255 220 0
0.587409 0.000412 0.011806 255 220 0
0.575642 -0.006703 0.012376 255 220 0
0.627890 0.048115 0.097751 255 220 0
0.543765 -0.037534 0.017866 255 220 0
0.573635 0.052637 0.061677 255 220 0
0.638966 0.005018 0.058716 255 220 0
0.573272 0.028188 0.079909 255 220 0
0.615451 0.050449 0.101075 255 220 0
0.554307 -0.005540 0.040135 255 220 0
0.592685 -0.030538 0.020764 255 220 0
0.567077 -0.008331 0.076792 255 220 0
0.606628 -0.038318 0.048007 255 220 0
0.567969 0.030546 0.030292 255 220 0
0.583315 -0.017263 0.012866 255 220 0
0.632535 0.013554 0.032519 255 220 0
0.593027 0.016744 0.010758 255 220 0
0.615306 0.046122 0.101521 255 220 0
0.548750 -0.057402 0.022235 255 220 0
0.586456 -0.010473 0.092299 255 220 0
0.636332 0.094813 0.067800 255 220 0
0.609048 0.089885 0.082212 255 220 0
0.547612 -0.046377 0.048235 255 220 0
0.604238 -0.015310 0.021597 255 220 0
0.650182 0.039721 0.059256 255 220 0
0.593190 0.003771 0.097753 255 220 0
0.576859 0.055717 0.069876 255 220 0
0.615407 -0.004893 0.025118 255 220 0
0.591140 -0.037585 0.078458 255 220 0
0.635706 0.052691 0.029236 255 220 0
0.639273 0.012434 0.075413 255 220 0
0.585727 0.009605 0.011391 255 220 0
0.604972 0.075354 0.026172 255 220 0
0.649785 0.040438 0.055115 255 220 0
0.643387 0.075671 0.047705 255 220 0
0.545608 -0.030113 0.039204 255 220 0
0.567028 0.031979 0.060304 255 220 0
0.642323 0.084810 0.076889 255 220 0
0.608344 -0.035206 0.043858 255 220 0
0.561220 0.014624 0.036168 255 220 0
0.563502 -0.046460 0.063198 255 220 0
0.589473 -0.038659 0.023004 255 220 0
0.607874 0.016187 0.014267 255 220 0
0.625890 -0.014336 0.048038 255 220 0
0.604559 0.022483 0.012181 255 220 0
0.581520 0.011519 0.012052 255 220 0
0.592548 -0.048725 0.058992 255 220 0
0.607355 0.091728 0.077651 255 220 0
0.571869 -0.056944 0.058966 255 220 0
0.584573 -0.055266 0.051099 255 220 0
0.598596 0.051789 0.015141 255 220 0
0.646342 0.041745 0.078083 255 220 0
0.621221 0.001736 0.026788 255 220 0
0.614834 0.058860 0.018630 255 220 0
0.597495 0.066946 0.022138 255 220 0
0.618910 -0.024308 0.048168 255 220 0
0.581325 -0.041872 0.075028 255 220 0
0.622488 0.076889 0.095075 255 220 0
0.554595 -0.025177 0.056946 255 220 0
0.612113 0.081601 0.030388 255 220 0
0.590666 0.031912 0.096831 255 220 0
0.608562 0.057377 0.100132 255 220 0
0.631335 -0.003571 0.072273 255 220 0
0.574926 0.041921 0.076724 255 220 0
0.647384 0.056237 0.077935 255 220 0
0.544028 -0.030003 0.033340 255 220 0
0.647744 0.067544 0.052606 255 220 0
0.650041 0.047937 0.054846 255 220 0
0.593158 0.081951 0.076695 255 220 0
0.643672 0.015792 0.057474 255 220 0
0.564243 0.006070 0.021350 255 220 0
0.634248 0.093719 0.055117 255 220 0
0.564700 0.012063 0.023497 255 220 0
0.605567 0.093625 0.053191 255 220 0
0.611729 0.089881 0.039520 255 220 0
0.577968 0.011631 0.087951 255 220 0
0.578311 0.017874 0.013443 255 220 0
0.637520 0.033507 0.089312 255 220 0
0.576989 -0.044269 0.018163 255 220 0
0.547930 -0.020834 0.032410 255 220 0
0.647217 0.045930 0.077175 255 220 0
0.584134 0.031566 0.091703 255 220 0
0.587558 -0.051943 0.058629 255 220 0
0.578546 -0.023103 0.084164 255 220 0
0.597686 -0.029518 0.084257 255 220 0
0.642142 0.059983 0.086546 255 220 0
0.648407 0.071531 0.070509 255 220 0
0.585683 0.072069 0.039134 255 220 0
0.618270 -0.017028 0.078110 255 220 0
0.578512 0.059306 0.071016 255 220 0
0.564785 0.026772 0.055925 255 220 0
0.636335 0.011159 0.080279 255 220 0
0.640245 0.020587 0.040050 255 220 0
0.647799 0.028970 0.060657 255 220 0
0.645730 0.028675 0.047060 255 220 0
0.649706 0.042018 0.068729 255 220 0
0.561941 -0.059155 0.023254 255 220 0
0.602499 0.076097 0.027462 255 220 0
0.568709 -0.061428 0.035173 255 220 0
0.551257 -0.026978 0.050810 255 220 0
0.542294 -0.038316 0.038023 255 220 0
0.639399 0.085931 0.050078 255 220 0
0.543330 -0.030729 0.030268 255 220 0
0.563820 -0.004618 0.071049 255 220 0
0.577207 0.061604 0.062136 255 220 0
0.541933 -0.049512 0.020321 255 220 0
0.603229 0.093330 0.059631 255 220 0
0.569238 0.040060 0.059921 255 220 0
0.557125 -0.010575 0.057653 255 220 0
0.627012 -0.014115 0.052809 255 220 0
0.642942 0.013735 0.058841 255 220 0
0.622681 0.097458 0.074410 255 220 0
0.569572 0.027692 0.072221 255 220 0
0.628372 0.098353 0.067180 255 220 0
0.576067 -0.008134 0.085901 255 220 0
0.566000 0.001573 0.074060 255 220 0
0.559936 0.011476 0.038646 255 220 0
0.562949 0.011282 0.062989 255 220 0
0.544665 -0.045265 0.044164 255 220 0
0.630840 -0.007839 0.051142 255 220 0
0.595674 0.056969 0.095523 255 220 0
0.566453 0.024671 0.065034 255 220 0
0.569427 -0.058137 0.026314 255 220 0
0.625302 0.034555 0.020805 255 220 0
0.566967 -0.062155 0.036412 255 220 0
0.620879 -0.023185 0.055787 255 220 0
0.637797 0.057072 0.032349 255 220 0
0.577735 0.060386 0.067084 255 220 0
0.632502 0.096505 0.060611 255 220 0
0.598046 0.038893 0.012040 255 220 0
0.572521 -0.032281 0.012637 255 220 0
0.569427 0.000708 0.079536 255 220 0
0.629274 0.090544 0.083684 255 220 0
0.605277 0.089633 0.042455 255 220 0
0.600731 0.007717 0.013291 255 220 0
0.629429 0.088154 0.085891 255 220 0
0.554155 -0.029395 0.056976 255 220 0
0.602639 0.070470 0.022985 255 220 0
0.616534 0.084967 0.090318 255 220 0
0.625445 0.093378 0.081638 255 220 0
0.554675 -0.007760 0.048575 255 220 0
0.558619 -0.005677 0.022261 255 220 0
0.618766 -0.003553 0.090317 255 220 0
0.601823 0.083955 0.084673 255 220 0
0.614437 0.034494 0.102272 255 220 0
0.546067 -0.031222 0.041320 255 220 0
0.553176 -0.022711 0.017218 255 220 0
0.607009 0.040641 0.102133 255 220 0
0.618007 0.028197 0.017261 255 220 0
0.596286 0.079269 0.034536 255 220 0
0.611729 0.097376 0.062892 255 220 0
0.552709 -0.058226 0.021410 255 220 0
0.604288 -0.039860 0.059578 255 220 0
0.592454 0.084720 0.054762 255 220 0
0.601603 0.082929 0.085610 255 220 0
0.635273 0.042658 0.092865 255 220 0
0.602319 0.092783 0.059406 255 220 0
0.569070 0.033483 0.030243 255 220 0
0.577469 0.047525 0.025912 255 220 0
0.632678 0.041220 0.094799 255 220 0
0.539642 -0.045579 0.023067 255 220 0
0.643755 0.049005 0.039233 255 220 0
0.586615 -0.053177 0.056307 255 220 0
0.577506 -0.057327 0.034031 255 220 0
0.632055 0.070101 0.031939 255 220 0
0.629712 0.020606 0.093244 255 220 0
0.571178 0.047960 0.046766 255 220 0
0.596517 0.088204 0.066891 255 220 0
0.558742 -0.003928 0.023316 255 220 0
0.577528 -0.049751 0.067654 255 220 0
0.612280 0.012483 0.099421 255 220 0
0.581968 -0.012544 0.012171 255 220 0
0.625464 -0.006290 0.036322 255 220 0
0.611378 0.053231 0.100914 255 220 0
0.577722 0.061585 0.064974 255 220 0
0.586093 0.052148 0.019945 255 220 0
0.614504 0.024303 0.015980 255 220 0
0.554847 -0.013320 0.053361 255 220 0
0.594688 0.034678 0.098952 255 220 0
0.570641 -0.047809 0.066893 255 220 0
0.581984 0.060499 0.079245 255 220 0
0.620554 0.056424 0.020194 255 220 0
0.634927 0.021289 0.032031 255 220 0
0.615529 0.065161 0.021091 255 220 0
0.637921 0.048327 0.090838 255 220 0
0.547670 -0.041930 0.048457 255 220 0
0.633154 0.071813 0.092813 255 220 0
0.558441 0.000333 0.055505 255 220 0
0.624998 0.026246 0.097895 255 220 0
0.565131 0.028079 0.038993 255 220 0
0.550652 -0.032623 0.051372 255 220 0
0.584048 0.006270 0.092796 255 220 0
0.559021 -0.044772 0.060427 255 220 0
0.571317 -0.051342 0.064528 255 220 0
0.619854 0.096638 0.075851 255 220 0
0.553823 -0.014501 0.051259 255 220 0
0.624220 -0.014334 0.043321 255 220 0
0.561756 0.012941 0.030956 255 220 0
0.606655 -0.033260 0.070617 255 220 0
0.568204 0.035408 0.035673 255 220 0
0.612860 0.035852 0.102458 255 220 0
0.560999 0.014278 0.037013 255 220 0
0.575753 -0.058465 0.054900 255 220 0
0.642948 0.042978 0.037802 255 220 0
0.560092 -0.015089 0.065668 255 220 0
0.562487 -0.022654 0.070007 255 220 0
0.636771 0.071206 0.090505 255 220 0
0.637224 0.071149 0.037044 255 220 0
0.630353 0.024586 0.093928 255 220 0
0.544836 -0.044488 0.044421 255 220 0
0.539181 -0.045298 0.024479 255 220 0
0.625213 0.096972 0.054966 255 220 0
0.585251 -0.044605 0.023942 255 220 0
0.628865 0.065484 0.096160 255 220 0
0.590669 0.000505 0.096282 255 220 0
0.568860 -0.061566 0.036391 255 220 0
0.548083 -0.036008 0.047804 255 220 0
0.576502 0.061314 0.051297 255 220 0
0.543758 -0.048267 0.042210 255 220 0
0.600218 0.039930 0.100686 255 220 0
0.545642 -0.050755 0.044004 255 220 0
0.603026 -0.024659 0.086039 255 220 0
0.642860 0.068892 0.042991 255 220 0
0.603661 0.090564 0.046123 255 220 0
0.552543 -0.059628 0.024352 255 220 0
0.582880 0.058111 0.082532 255 220 0
0.552176 -0.056812 0.046500 255 220 0
0.600127 -0.013287 0.018335 255 220 0
0.576911 0.031861 0.017588 255 220 0
0.636305 0.000822 0.063406 255 220 0
0.574103 0.053605 0.042047 255 220 0
0.627462 -0.009750 0.071364 255 220 0
0.649527 0.045495 0.070868 255 220 0
0.587181 0.077004 0.045808 255 220 0
0.613557 0.093896 0.078375 255 220 0
0.638902 0.032131 0.087333 255 220 0
0.551367 -0.025134 0.050361 255 220 0
0.573392 0.022714 0.017503 255 220 0
0.610109 0.011255 0.099691 255 220 0
0.623833 -0.005237 0.033289 255 220 0
0.589487 0.080794 0.049797 255 220 0
0.620188 0.077807 0.094952 255 220 0
0.593579 0.000028 0.012693 255 220 0
0.620854 0.099036 0.068033 255 220 0
0.544430 -0.031283 0.021798 255 220 0
0.584995 0.073008 0.072475 255 220 0
0.588625 -0.048992 0.064046 255 220 0
0.590899 -0.045595 0.067865 255 220 0
0.567615 0.031578 0.032536 255 220 0
0.582240 -0.005556 0.011907 255 220 0
0.632263 0.007589 0.035457 255 220 0
0.626692 0.028597 0.022558 255 220 0
0.567815 0.000909 0.077262 255 220 0
0.617155 0.007998 0.021415 255 220 0
0.646439 0.035075 0.075414 255 220 0
0.614038 -0.028565 0.043786 255 220 0
0.551431 -0.040001 0.012305 255 220 0
0.607166 0.079349 0.092002 255 220 0
0.595661 -0.023229 0.019428 255 220 0
0.606964 0.025018 0.102230 255 220 0
0.608496 0.091890 0.078381 255 220 0
0.571070 0.044714 0.038717 255 220 0
0.574099 0.020589 0.082862 255 220 0
0.649564 0.065969 0.068399 255 220 0
0.618191 -0.025437 0.048723 255 220 0
0.644354 0.039639 0.040501 255 220 0
0.645155 0.042425 0.080562 255 220 0
0.591243 -0.043505 0.070901 255 220 0
0.608446 -0.014813 0.090622 255 220 0
0.573912 0.033553 0.079083 255 220 0
0.615484 0.059807 0.099990 255 220 0
0.584891 -0.013354 0.090785 255 220 0
0.575453 -0.041729 0.073237 255 220 0
0.619180 0.052604 0.100298 255 220 0
0.569785 0.044192 0.053822 255 220 0
0.649917 0.040538 0.055865 255 220 0
0.636244 0.042660 0.092013 255 220 0
0.585585 -0.024783 0.014986 255 220 0
0.599054 -0.032133 0.026652 255 220 0
0.554868 -0.005743 0.046728 255 220 0
0.619730 -0.023377 0.048598 255 220 0
0.583295 0.072815 0.048589 255 220 0
0.576462 0.039924 0.022020 255 220 0
0.612731 -0.010088 0.025403 255 220 0
0.570957 0.043366 0.063362 255 220 0
0.637692 0.002616 0.058048 255 220 0
0.568694 0.037049 0.061502 255 220 0
0.617301 -0.021408 0.039226 255 220 0
0.561648 -0.063524 0.038849 255 220 0
0.604643 -0.035841 0.037354 255 220 0
0.585515 0.019040 0.011319 255 220 0
0.566923 0.035546 0.046591 255 220 0
0.609325 0.094867 0.052143 255 220 0
0.563200 -0.046935 0.062705 255 220 0
0.582962 -0.051075 0.028788 255 220 0
0.605488 0.068461 0.021313 255 220 0
0.613963 0.007086 0.019716 255 220 0
0.553847 -0.009777 0.047272 255 220 0
0.617748 -0.024393 0.066949 255 220 0
0.561163 0.016372 0.048300 255 220 0
0.577674 -0.028607 0.013265 255 220 0
0.641396 0.058578 0.037051 255 220 0
0.612017 -0.012808 0.089495 255 220 0
0.567152 0.034824 0.056492 255 220 0
0.566181 0.004584 0.018760 255 220 0
0.552640 -0.031289 0.054608 255 220 0
0.619606 -0.008149 0.030487 255 220 0
0.637980 0.004312 0.065407 255 220 0
0.589903 0.055672 0.091577 255 220 0
0.582720 -0.032262 0.015966 255 220 0
0.546102 -0.024840 0.031441 255 220 0
0.611791 0.093095 0.078689 255 220 0
0.632503 0.079375 0.090342 255 220 0
0.619905 0.094230 0.046910 255 220 0
0.590314 0.006255 0.096670 255 220 0
0.593574 -0.044203 0.032593 255 220 0
0.601760 0.071792 0.093862 255 220 0
0.598637 0.049752 0.098588 255 220 0
0.585022 0.067043 0.079825 255 220 0
0.626641 0.014549 0.093380 255 220 0
0.586468 -0.010845 0.092218 255 220 0
0.626822 0.095600 0.052509 255 220 0
0.563972 -0.062635 0.046273 255 220 0
0.593919 -0.039832 0.074212 255 220 0
0.551254 -0.015475 0.042701 255 220 0
0.617426 0.028499 0.016919 255 220 0
0.562289 0.019958 0.041905 255 220 0
0.600070 -0.043488 0.058657 255 220 0
0.582846 0.037779 0.089387 255 220 0
0.604039 -0.039904 0.060101 255 220 0
0.650696 0.059740 0.063867 255 220 0
0.578286 0.064531 0.049055 255 220 0
0.557289 -0.053662 0.053912 255 220 0
0.564747 0.022477 0.061096 255 220 0
0.629775 0.078710 0.092055 255 220 0
0.559074 0.005630 0.031898 255 220 0
0.573290 0.046424 0.068207 255 220 0
0.598338 0.081902 0.083805 255 220 0
0.580602 -0.000090 0.090088 255 220 0
0.588118 0.059206 0.088618 255 220 0
0.624681 0.075070 0.095320 255 220 0
0.644628 0.055778 0.041644 255 220 0
0.602198 0.013356 0.100730 255 220 0
0.555221 -0.004365 0.032127 255 220 0
0.571468 0.032935 0.024699 255 220 0
0.565727 -0.028835 0.072320 255 220 0
0.619037 0.014593 0.020676 255 220 0
0.568750 0.021744 0.073461 255 220 0
0.620306 0.054760 0.019650 255 220 0
0.555799 -0.001424 0.037379 255 220 0
0.585722 0.010397 0.011361 255 220 0
0.631314 -0.001586 0.041569 255 220 0
0.587705 -0.051875 0.037546 255 220 0
0.572299 -0.060857 0.047398 255 220 0
0.571288 0.047419 0.043855 255 220 0
0.580650 -0.003804 0.011955 255 220 0
0.555025 -0.033905 0.058668 255 220 0
0.558544 -0.023305 0.063979 255 220 0
0.597129 0.007162 0.099364 255 220 0
0.601712 -0.041470 0.060995 255 220 0
0.602008 0.048391 0.100057 255 220 0
0.567045 -0.030414 0.011712 255 220 0
0.630699 0.060307 0.027304 255 220 0
0.624226 0.033364 0.020234 255 220 0
0.549113 -0.044042 0.013064 255 220 0
0.630800 0.005145 0.035030 255 220 0
0.548776 -0.046134 0.013493 255 220 0
0.647098 0.043978 0.077024 255 220 0
0.616994 -0.013757 0.083600 255 220 0
0.593648 0.082777 0.043809 255 220 0
0.602458 0.004389 0.014632 255 220 0
0.643153 0.065515 0.041981 255 220 0
0.555658 -0.013211 0.020743 255 220 0
0.563604 -0.040288 0.066279 255 220 0
0.569470 0.043528 0.049810 255 220 0
0.598019 -0.007859 0.096483 255 220 0
0.593327 0.060291 0.092878 255 220 0
0.594306 0.074886 0.031140 255 220 0
0.550693 -0.020437 0.046042 255 220 0
0.644759 0.049965 0.082411 255 220 0
0.612237 0.097543 0.063243 255 220 0
0.644150 0.037895 0.040324 255 220 0
0.584082 -0.001375 0.011825 255 220 0
0.553292 -0.058197 0.021198 255 220 0
0.649825 0.038894 0.056615 255 220 0
0.647502 0.031821 0.050756 255 220 0
0.562092 -0.015651 0.014874 255 220 0
0.641271 0.025931 0.038934 255 220 0
