ply
format ascii 1.0
element vertex 1024
property float x
property float y
property float z
property uchar red
property uchar green
property uchar blue
end_header
0.608637 0.011502 0.100044 255 220 0
0.621821 0.075186 0.027302 255 220 0
0.627149 0.003967 0.087029 255 220 0
0.606938 -0.001519 0.097744 255 220 0
0.555231 -0.059004 0.022083 255 220 0
0.576887 -0.025438 0.082432 255 220 0
0.585774 0.051865 0.088749 255 220 0
0.623555 0.089201 0.086523 255 220 0
0.608403 0.001077 0.098089 255 220 0
0.588774 0.081634 0.060514 255 220 0
0.589776 -0.019322 0.091032 255 220 0
0.636815 0.021349 0.034198 255 220 0
0.632561 0.073038 0.032840 255 220 0
0.590920 -0.036852 0.022815 255 220 0
0.553898 -0.009567 0.043160 255 220 0
0.588972 -0.053142 0.046539 255 220 0
0.621152 0.019271 0.020571 255 220 0
0.595065 -0.009473 0.095805 255 220 0
0.599877 0.014235 0.100655 255 220 0
0.618497 0.029747 0.016952 255 220 0
0.649249 0.052743 0.052183 255 220 0
0.616351 -0.002647 0.024809 255 220 0
0.606161 0.066106 0.097622 255 220 0
0.626815 0.023299 0.095896 255 220 0
0.579964 0.053909 0.079995 255 220 0
0.569189 -0.061918 0.036676 255 220 0
0.575296 -0.018973 0.083384 255 220 0
0.619831 0.098669 0.056369 255 220 0
0.648490 0.031855 0.060528 255 220 0
0.623598 0.046324 0.099300 255 220 0
0.603898 0.032976 0.102187 255 220 0
0.627846 -0.007798 0.073667 255 220 0
0.617272 -0.020408 0.037835 255 220 0
0.579921 0.057922 0.076850 255 220 0
0.577212 0.044993 0.024689 255 220 0
0.650675 0.044221 0.059790 255 220 0
0.625920 0.037303 0.020592 255 220 0
0.614546 0.020369 0.016355 255 220 0
0.600390 -0.008442 0.016886 255 220 0
0.638031 0.020513 0.036317 255 220 0
0.627494 0.062648 0.025223 255 220 0
0.585658 -0.053935 0.038118 255 220 0
0.589554 0.059741 0.089755 255 220 0
0.611956 0.084196 0.089961 255 220 0
0.565831 -0.008618 0.074932 255 220 0
0.570785 0.045381 0.058526 255 220 0
0.564937 0.018480 0.063973 255 220 0
0.570010 0.005260 0.016572 255 220 0
0.626307 0.095709 0.050658 255 220 0
0.543022 -0.050787 0.038359 255 220 0
0.595954 0.086981 0.048533 255 220 0
0.622970 0.050336 0.099216 255 220 0
0.588731 -0.050497 0.035184 255 220 0
0.625378 -0.008703 0.077188 255 220 0
0.591032 -0.020313 0.016022 255 220 0
0.648808 0.048918 0.050467 255 220 0
0.647652 0.060334 0.076442 255 220 0
0.594376 -0.048037 0.041066 255 220 0
0.625822 -0.016255 0.060153 255 220 0
0.638396 0.093794 0.066996 255 220 0
0.564681 -0.049673 0.062341 255 220 0
0.630480 -0.009226 0.059403 255 220 0
0.596987 -0.047195 0.047134 255 220 0
0.624407 0.074435 0.095147 255 220 0
0.647986 0.041802 0.073840 255 220 0
0.606142 0.019502 0.012722 255 220 0
0.586942 -0.021459 0.014703 255 220 0
0.623077 -0.014988 0.041681 255 220 0
0.611063 -0.025806 0.076731 255 220 0
0.649344 0.057045 0.053348 255 220 0
0.567623 0.035028 0.040566 255 220 0
0.647879 0.074870 0.068959 255 220 0
0.584634 -0.037730 0.019095 255 220 0
0.636031 0.093517 0.055439 255 220 0
0.610360 -0.030925 0.069405 255 220 0
0.583479 0.074538 0.059278 255 220 0
0.592423 -0.048837 0.060131 255 220 0
0.585200 -0.033155 0.017463 255 220 0
0.604325 -0.014707 0.021336 255 220 0
0.643896 0.084082 0.055674 255 220 0
0.641624 0.072393 0.084590 255 220 0
0.624381 -0.017978 0.062085 255 220 0
0.610843 0.077612 0.026499 255 220 0
0.628205 0.098606 0.068902 255 220 0
0.576006 -0.048579 0.020143 255 220 0
0.544138 -0.037944 0.019284 255 220 0
0.637689 0.068373 0.035595 255 220 0
0.564524 -0.062344 0.048377 255 220 0
0.544170 -0.048790 0.018522 255 220 0
0.602587 0.029961 0.011152 255 220 0
0.563237 -0.063576 0.037905 255 220 0
0.636393 0.021636 0.033519 255 220 0
0.586874 0.064356 0.084636 255 220 0
0.604869 0.082813 0.032103 255 220 0
0.618425 -0.025730 0.061586 255 220 0
0.592923 -0.031475 0.021310 255 220 0
0.572724 0.046040 0.035249 255 220 0
0.611752 0.051125 0.100930 255 220 0
0.545542 -0.057350 0.027920 255 220 0
0.630342 -0.007650 0.066814 255 220 0
0.624643 -0.009542 0.077393 255 220 0
0.583783 -0.053115 0.061772 255 220 0
0.608045 -0.037716 0.052090 255 220 0
0.564697 0.027073 0.051419 255 220 0
0.559005 -0.027648 0.013368 255 220 0
0.548991 -0.025770 0.021582 255 220 0
0.618150 0.008909 0.021614 255 220 0
0.594044 -0.036194 0.079040 255 220 0
0.548136 -0.050930 0.016329 255 220 0
0.552755 -0.017003 0.047882 255 220 0
0.621586 0.099879 0.064665 255 220 0
0.642433 0.041346 0.084309 255 220 0
0.609097 -0.023313 0.029928 255 220 0
0.563241 -0.063150 0.045386 255 220 0
0.564403 -0.043201 0.065728 255 220 0
0.590829 0.077874 0.038472 255 220 0
0.577790 0.001006 0.088075 255 220 0
0.620068 -0.009729 0.031996 255 220 0
0.557886 0.003328 0.042101 255 220 0
0.629566 -0.010386 0.061338 255 220 0
0.576214 0.037767 0.021450 255 220 0
0.581997 0.024018 0.012742 255 220 0
0.624904 -0.012292 0.073092 255 220 0
0.562991 0.010784 0.027378 255 220 0
0.594700 0.027098 0.099566 255 220 0
0.561579 -0.034248 0.011941 255 220 0
0.605424 0.082411 0.088785 255 220 0
0.632876 0.040675 0.094276 255 220 0
0.646790 0.026012 0.063695 255 220 0
0.619720 0.045073 0.017252 255 220 0
0.639272 0.084062 0.046994 255 220 0
0.585864 -0.035597 0.018832 255 220 0
0.564961 0.027928 0.051789 255 220 0
0.611396 0.040680 0.102170 255 220 0
0.563098 0.000782 0.067431 255 220 0
0.563558 -0.062761 0.046888 255 220 0
0.589689 0.041493 0.013753 255 220 0
0.561359 -0.051703 0.058613 255 220 0
0.569097 0.019533 0.075035 255 220 0
0.587612 -0.038101 0.021180 255 220 0
0.585012 0.031087 0.092576 255 220 0
0.562435 -0.034314 0.067468 255 220 0
0.554152 -0.010660 0.046927 255 220 0
0.598062 -0.042599 0.036592 255 220 0
0.575414 0.028453 0.017984 255 220 0
0.650850 0.046607 0.060482 255 220 0
0.574935 0.052765 0.066763 255 220 0
0.577001 0.018465 0.014346 255 220 0
0.624531 -0.013605 0.071778 255 220 0
0.612364 -0.024638 0.035046 255 220 0
0.578906 -0.039931 0.016985 255 220 0
0.593751 -0.033522 0.081986 255 220 0
0.585516 -0.040130 0.077207 255 220 0
0.568649 -0.039072 0.070926 255 220 0
0.581614 0.037431 0.016304 255 220 0
0.622134 0.093323 0.044197 255 220 0
0.636998 0.053230 0.091343 255 220 0
0.582022 0.072236 0.056232 255 220 0
0.604000 -0.040148 0.060571 255 220 0
0.615920 0.006807 0.096805 255 220 0
0.550903 -0.056226 0.045655 255 220 0
0.551388 -0.059729 0.041436 255 220 0
0.618660 0.099102 0.058329 255 220 0
0.615360 0.008986 0.019792 255 220 0
0.569870 0.026927 0.073394 255 220 0
0.571890 0.040354 0.069119 255 220 0
0.650620 0.043922 0.059349 255 220 0
0.583912 0.031952 0.091465 255 220 0
0.553298 -0.012084 0.029122 255 220 0
0.611029 0.056549 0.100138 255 220 0
0.565257 0.023333 0.061290 255 220 0
0.589090 0.002657 0.011768 255 220 0
0.646816 0.079771 0.067745 255 220 0
0.605520 -0.013692 0.021722 255 220 0
0.641313 0.079598 0.046255 255 220 0
0.645202 0.081780 0.056659 255 220 0
0.548095 -0.023859 0.026554 255 220 0
0.548947 -0.031935 0.017102 255 220 0
0.583755 -0.009342 0.091293 255 220 0
0.562692 -0.009296 0.069375 255 220 0
0.611146 -0.024616 0.033391 255 220 0
0.590375 -0.030382 0.019195 255 220 0
0.564785 -0.010050 0.073340 255 220 0
0.586762 0.068811 0.081454 255 220 0
0.566642 0.027158 0.062972 255 220 0
0.630029 -0.009092 0.050879 255 220 0
0.544893 -0.055298 0.037142 255 220 0
0.585814 0.067398 0.032156 255 220 0
0.560817 -0.027399 0.067098 255 220 0
0.599946 0.027688 0.010774 255 220 0
0.648222 0.042241 0.048776 255 220 0
0.641842 0.059151 0.037243 255 220 0
0.584015 -0.003413 0.012019 255 220 0
0.610515 0.087300 0.035224 255 220 0
0.633333 -0.003110 0.066364 255 220 0
0.570151 -0.025642 0.077291 255 220 0
0.623156 0.016119 0.096024 255 220 0
0.575830 -0.031575 0.079183 255 220 0
0.611348 0.097255 0.056506 255 220 0
0.580938 -0.013784 0.088622 255 220 0
0.602298 0.071046 0.094426 255 220 0
0.598215 -0.039517 0.032404 255 220 0
0.638679 0.030965 0.033181 255 220 0
0.573632 0.013716 0.083356 255 220 0
0.587184 -0.025823 0.015937 255 220 0
0.601920 0.081444 0.032080 255 220 0
0.596811 -0.039934 0.071871 255 220 0
0.649036 0.047006 0.072391 255 220 0
0.608775 0.032766 0.102557 255 220 0
0.556881 -0.027886 0.061009 255 220 0
0.580218 0.058885 0.076732 255 220 0
0.550694 -0.054391 0.017591 255 220 0
0.615032 -0.018275 0.081082 255 220 0
0.629030 -0.000799 0.080352 255 220 0
0.597569 0.050521 0.014520 255 220 0
0.599559 -0.040147 0.035148 255 220 0
0.613309 -0.001747 0.095079 255 220 0
0.582804 0.003563 0.011965 255 220 0
0.595766 0.021583 0.100005 255 220 0
0.633608 0.036301 0.026514 255 220 0
0.573659 0.041462 0.073767 255 220 0
0.564526 -0.062935 0.046274 255 220 0
0.588173 0.059658 0.022703 255 220 0
0.632925 0.080464 0.037152 255 220 0
0.607826 0.086407 0.034967 255 220 0
0.564082 0.022797 0.056391 255 220 0
0.617587 0.001250 0.093810 255 220 0
0.624387 0.070363 0.026261 255 220 0
0.625355 0.085287 0.035455 255 220 0
0.574755 0.054566 0.063563 255 220 0
0.575964 -0.059832 0.048426 255 220 0
0.572987 0.046285 0.034718 255 220 0
0.577859 0.021760 0.014384 255 220 0
0.611807 0.094150 0.046200 255 220 0
0.562769 0.015531 0.058466 255 220 0
0.640611 0.076724 0.043289 255 220 0
0.612948 0.095737 0.074809 255 220 0
0.630002 0.021566 0.093069 255 220 0
0.602763 -0.010116 0.018652 255 220 0
0.560482 -0.001990 0.061551 255 220 0
0.624036 -0.010748 0.076891 255 220 0
0.578307 0.060162 0.069471 255 220 0
0.591207 -0.032490 0.020668 255 220 0
0.592856 0.059136 0.092796 255 220 0
0.639169 0.044944 0.088846 255 220 0
0.604523 0.043344 0.012672 255 220 0
0.590308 0.056065 0.019123 255 220 0
0.562045 -0.035506 0.066724 255 220 0
0.593245 0.079932 0.080337 255 220 0
0.583433 -0.042449 0.075167 255 220 0
0.633733 0.003867 0.077243 255 220 0
0.649093 0.042153 0.051541 255 220 0
0.638078 0.027204 0.033549 255 220 0
0.610229 0.004263 0.098339 255 220 0
0.644807 0.019785 0.054842 255 220 0
0.609718 0.073144 0.023484 255 220 0
0.621013 0.000493 0.090775 255 220 0
0.641645 0.042634 0.085596 255 220 0
0.545868 -0.045062 0.045165 255 220 0
0.605927 0.091859 0.076731 255 220 0
0.624856 -0.009166 0.038044 255 220 0
0.626064 0.038208 0.098408 255 220 0
0.636268 0.095486 0.065337 255 220 0
0.643683 0.086990 0.069586 255 220 0
0.639130 0.085545 0.080486 255 220 0
0.609622 0.077356 0.094000 255 220 0
0.603169 0.058273 0.016303 255 220 0
0.619525 -0.024987 0.054093 255 220 0
0.584313 -0.006220 0.012139 255 220 0
0.641188 0.091208 0.066250 255 220 0
0.638412 0.093901 0.065791 255 220 0
0.549445 -0.028127 0.045803 255 220 0
0.610821 0.046001 0.101605 255 220 0
0.555914 -0.006712 0.028715 255 220 0
0.606139 0.005353 0.015787 255 220 0
0.627850 -0.007719 0.041892 255 220 0
0.601916 0.012512 0.012524 255 220 0
0.558212 0.001036 0.032072 255 220 0
0.576329 0.047374 0.076398 255 220 0
0.571176 0.047884 0.048930 255 220 0
0.620871 -0.007573 0.031440 255 220 0
0.615158 0.079904 0.093578 255 220 0
0.592566 0.019859 0.010478 255 220 0
0.622243 0.032065 0.018790 255 220 0
0.597202 0.000405 0.013501 255 220 0
0.582481 0.013626 0.091768 255 220 0
0.585646 -0.015039 0.013140 255 220 0
0.628287 0.000702 0.082957 255 220 0
0.574527 0.009587 0.084802 255 220 0
0.610992 0.005939 0.018152 255 220 0
0.571686 -0.034198 0.012923 255 220 0
0.635512 0.083973 0.042313 255 220 0
0.584654 0.073831 0.070516 255 220 0
0.588659 -0.008955 0.012927 255 220 0
0.619595 -0.019447 0.072540 255 220 0
0.646717 0.034626 0.074023 255 220 0
0.562382 0.015281 0.034219 255 220 0
0.561476 0.007659 0.059556 255 220 0
0.594073 -0.013378 0.094324 255 220 0
0.579805 -0.053012 0.064347 255 220 0
0.565432 -0.032419 0.012001 255 220 0
0.649891 0.064059 0.058891 255 220 0
0.597958 -0.026583 0.022365 255 220 0
0.616230 -0.028789 0.052008 255 220 0
0.548393 -0.049223 0.047947 255 220 0
0.647814 0.029261 0.059193 255 220 0
0.622623 -0.021035 0.056146 255 220 0
0.568892 0.032208 0.066347 255 220 0
0.646062 0.023440 0.063624 255 220 0
0.606498 0.070229 0.021680 255 220 0
0.634957 0.091139 0.049934 255 220 0
0.618507 0.041141 0.016442 255 220 0
0.648555 0.067740 0.071507 255 220 0
0.650071 0.039152 0.061293 255 220 0
0.573093 0.050087 0.040428 255 220 0
0.592492 0.069605 0.026856 255 220 0
0.634538 0.077702 0.036943 255 220 0
0.620134 0.035844 0.100778 255 220 0
0.552982 -0.045402 0.054343 255 220 0
0.645591 0.023929 0.051596 255 220 0
0.565972 -0.028566 0.072658 255 220 0
0.600724 -0.020526 0.021420 255 220 0
0.567738 -0.057054 0.058082 255 220 0
0.562658 -0.004202 0.019733 255 220 0
0.612654 0.036937 0.102309 255 220 0
0.566845 0.030910 0.059777 255 220 0
0.643903 0.074805 0.080374 255 220 0
0.592754 0.073764 0.030763 255 220 0
0.603857 -0.035784 0.035688 255 220 0
0.549466 -0.033507 0.048411 255 220 0
0.559758 0.008551 0.037649 255 220 0
0.610402 0.023593 0.013789 255 220 0
0.556198 -0.002273 0.038240 255 220 0
0.637609 0.091169 0.053384 255 220 0
0.570727 0.032926 0.071760 255 220 0
0.617090 -0.004467 0.091029 255 220 0
0.567077 0.029901 0.034156 255 220 0
0.615728 0.045652 0.101302 255 220 0
0.617347 0.014545 0.098254 255 220 0
0.540457 -0.042000 0.033069 255 220 0
0.597976 -0.040702 0.033578 255 220 0
0.564204 0.010021 0.066599 255 220 0
0.585018 -0.003573 0.012040 255 220 0
0.627399 -0.004953 0.078337 255 220 0
0.599080 -0.045354 0.055492 255 220 0
0.543102 -0.050293 0.020831 255 220 0
0.593331 0.021089 0.098962 255 220 0
0.593525 0.085079 0.049037 255 220 0
0.628203 -0.009368 0.045111 255 220 0
0.629731 0.077284 0.092281 255 220 0
0.608298 0.096154 0.056685 255 220 0
0.638815 0.017240 0.039499 255 220 0
0.599558 0.090355 0.070383 255 220 0
0.541758 -0.052810 0.027816 255 220 0
0.631049 0.013497 0.030727 255 220 0
0.573957 0.031021 0.080022 255 220 0
0.637916 0.006618 0.070556 255 220 0
0.596413 0.052478 0.096854 255 220 0
0.596814 -0.037240 0.028382 255 220 0
0.566224 0.002912 0.018977 255 220 0
0.618254 -0.026623 0.056836 255 220 0
0.554239 -0.061857 0.041193 255 220 0
0.594862 -0.047116 0.039679 255 220 0
0.589814 -0.052372 0.052635 255 220 0
0.620154 -0.008178 0.085113 255 220 0
0.565029 0.027264 0.041386 255 220 0
0.555907 -0.043516 0.012246 255 220 0
0.635868 -0.000595 0.057443 255 220 0
0.616241 0.045953 0.015833 255 220 0
0.580476 -0.014133 0.012313 255 220 0
0.596603 0.061253 0.094748 255 220 0
0.630696 0.089717 0.043821 255 220 0
0.575236 0.041750 0.025327 255 220 0
0.636184 0.070749 0.035097 255 220 0
0.594868 -0.014005 0.094201 255 220 0
0.610344 -0.031833 0.041287 255 220 0
0.616544 0.058840 0.018573 255 220 0
0.563356 -0.062138 0.029662 255 220 0
0.576253 0.057750 0.065126 255 220 0
0.607984 0.012014 0.100230 255 220 0
0.607583 0.075768 0.025354 255 220 0
0.612605 0.062830 0.099175 255 220 0
0.593433 0.084776 0.071956 255 220 0
0.637198 0.070881 0.089599 255 220 0
0.620492 -0.021550 0.046437 255 220 0
0.650171 0.044511 0.067403 255 220 0
0.581360 0.063908 0.035864 255 220 0
0.606940 -0.038820 0.052690 255 220 0
0.600351 -0.008232 0.016808 255 220 0
0.639627 0.007636 0.065654 255 220 0
0.618073 0.043661 0.016385 255 220 0
0.644447 0.055647 0.040700 255 220 0
0.555676 -0.003657 0.040677 255 220 0
0.620011 0.014129 0.021235 255 220 0
0.631040 0.020392 0.028023 255 220 0
0.650278 0.050401 0.068679 255 220 0
0.628644 0.002441 0.084033 255 220 0
0.579528 0.064834 0.067257 255 220 0
0.554119 -0.013326 0.049593 255 220 0
0.641551 0.010471 0.059262 255 220 0
0.610490 -0.021284 0.029903 255 220 0
0.612317 0.000630 0.020692 255 220 0
0.616526 0.019412 0.099686 255 220 0
0.615847 0.062355 0.019440 255 220 0
0.634630 0.065922 0.031705 255 220 0
0.599653 -0.024935 0.087571 255 220 0
0.619202 0.075433 0.026478 255 220 0
0.645916 0.022480 0.060414 255 220 0
0.588872 0.011604 0.096310 255 220 0
0.592072 0.084840 0.054581 255 220 0
0.578911 -0.056310 0.032263 255 220 0
0.635877 0.090734 0.078672 255 220 0
0.604599 -0.038285 0.064206 255 220 0
0.645658 0.025731 0.070342 255 220 0
0.557998 -0.022295 0.062383 255 220 0
0.576044 0.056261 0.039261 255 220 0
0.593130 -0.012953 0.094287 255 220 0
0.554726 -0.030662 0.057534 255 220 0
0.546047 -0.037059 0.017324 255 220 0
0.623924 0.000918 0.029574 255 220 0
0.584683 0.045993 0.017779 255 220 0
0.593550 0.082785 0.076678 255 220 0
0.647269 0.062105 0.048513 255 220 0
0.588659 -0.034066 0.082264 255 220 0
0.577657 0.063678 0.058530 255 220 0
0.542646 -0.035509 0.025308 255 220 0
0.606668 0.084989 0.087073 255 220 0
0.567114 0.035094 0.045770 255 220 0
0.580471 0.037097 0.086948 255 220 0
0.609143 -0.036373 0.050093 255 220 0
0.596264 0.088990 0.062694 255 220 0
0.607082 0.055624 0.015550 255 220 0
0.614778 0.046299 0.101347 255 220 0
0.588060 0.030111 0.095194 255 220 0
0.650114 0.039405 0.061244 255 220 0
0.625103 -0.016410 0.050254 255 220 0
0.608553 -0.036946 0.057316 255 220 0
0.606886 0.081245 0.029908 255 220 0
0.611487 -0.029772 0.069611 255 220 0
0.643335 0.021855 0.074046 255 220 0
0.591056 -0.010894 0.094362 255 220 0
0.628752 0.088377 0.085771 255 220 0
0.543440 -0.048466 0.019286 255 220 0
0.568772 0.037050 0.061061 255 220 0
0.589959 -0.052096 0.053857 255 220 0
0.581830 0.050880 0.022914 255 220 0
0.552613 -0.012852 0.041004 255 220 0
0.586554 -0.019670 0.014187 255 220 0
0.583065 0.045059 0.087831 255 220 0
0.638404 0.090967 0.075133 255 220 0
0.610771 -0.007166 0.022626 255 220 0
0.623854 0.091488 0.041884 255 220 0
0.600294 0.015057 0.011685 255 220 0
0.552041 -0.016195 0.026350 255 220 0
0.562326 -0.008900 0.018041 255 220 0
0.638179 0.042013 0.089633 255 220 0
0.633609 0.005484 0.038963 255 220 0
0.596747 0.082398 0.081798 255 220 0
0.565393 0.029308 0.052451 255 220 0
0.642787 0.013629 0.062055 255 220 0
0.591971 -0.021062 0.016660 255 220 0
0.581772 0.032056 0.014491 255 220 0
0.608179 0.093463 0.075547 255 220 0
0.624063 0.004430 0.090436 255 220 0
0.554539 -0.034537 0.013030 255 220 0
0.646362 0.067126 0.078043 255 220 0
0.597714 -0.021729 0.090372 255 220 0
0.581577 -0.056958 0.040174 255 220 0
0.644270 0.041308 0.039833 255 220 0
0.604903 -0.034661 0.071012 255 220 0
0.562473 0.018130 0.053504 255 220 0
0.555116 -0.008489 0.028641 255 220 0
0.628013 -0.012792 0.053385 255 220 0
0.640641 0.042015 0.086808 255 220 0
0.605685 -0.038344 0.044076 255 220 0
0.599911 -0.026027 0.086549 255 220 0
0.583090 0.013098 0.092265 255 220 0
0.598286 0.087081 0.076673 255 220 0
0.635677 0.001343 0.067915 255 220 0
0.622793 0.095645 0.048935 255 220 0
0.566271 0.024819 0.063667 255 220 0
0.563270 0.022396 0.045862 255 220 0
0.588428 0.079011 0.046177 255 220 0
0.591927 0.055288 0.017930 255 220 0
0.632264 0.004986 0.081065 255 220 0
0.541263 -0.046344 0.036333 255 220 0
0.564713 -0.026262 0.071990 255 220 0
0.553912 -0.010210 0.044755 255 220 0
0.637720 0.004976 0.049119 255 220 0
0.546178 -0.046647 0.015992 255 220 0
0.620957 0.025592 0.099439 255 220 0
0.601539 0.054964 0.098608 255 220 0
0.620517 0.065780 0.098036 255 220 0
0.625160 0.022543 0.022499 255 220 0
0.589889 0.082644 0.064367 255 220 0
0.580184 0.053794 0.080487 255 220 0
0.629302 0.084861 0.088297 255 220 0
0.624885 0.022201 0.096800 255 220 0
0.591473 0.059642 0.020347 255 220 0
0.570331 0.037617 0.032291 255 220 0
0.575568 0.035547 0.081057 255 220 0
0.559863 0.009459 0.049872 255 220 0
0.572507 0.013041 0.016328 255 220 0
0.571920 -0.003773 0.014043 255 220 0
0.570390 -0.009409 0.080724 255 220 0
0.626084 0.090211 0.085021 255 220 0
0.620993 0.098491 0.072316 255 220 0
0.629682 0.016474 0.091477 255 220 0
0.638801 0.005387 0.063459 255 220 0
0.593871 0.043771 0.013306 255 220 0
0.619427 -0.022050 0.068271 255 220 0
0.608678 0.024720 0.012969 255 220 0
0.603429 -0.035938 0.035251 255 220 0
0.583786 -0.047297 0.024815 255 220 0
0.600787 -0.006576 0.016554 255 220 0
0.558980 -0.054467 0.054797 255 220 0
0.619961 0.011256 0.096192 255 220 0
0.557548 -0.013545 0.058930 255 220 0
0.605889 -0.007821 0.019716 255 220 0
0.621142 -0.018071 0.071690 255 220 0
0.625706 0.069856 0.026781 255 220 0
0.626027 0.047737 0.098266 255 220 0
0.613117 -0.030691 0.045725 255 220 0
0.639814 0.090825 0.056710 255 220 0
0.580766 -0.053548 0.063150 255 220 0
0.589242 -0.018006 0.014722 255 220 0
0.573402 -0.031287 0.012850 255 220 0
0.558857 0.006520 0.046683 255 220 0
0.605909 -0.032396 0.073508 255 220 0
0.631140 0.094103 0.051023 255 220 0
0.562723 -0.003422 0.067933 255 220 0
0.587328 0.068458 0.031231 255 220 0
0.645631 0.022883 0.066154 255 220 0
0.618971 -0.018964 0.038981 255 220 0
0.563056 0.018148 0.035312 255 220 0
0.624251 0.077588 0.094040 255 220 0
0.641757 0.038804 0.084793 255 220 0
0.635785 0.058852 0.092220 255 220 0
0.590863 -0.048931 0.035685 255 220 0
0.558371 -0.037298 0.011969 255 220 0
0.600534 0.081837 0.086033 255 220 0
0.582031 -0.043073 0.020315 255 220 0
0.627251 0.074128 0.094385 255 220 0
0.634346 0.004811 0.040885 255 220 0
0.555575 -0.004450 0.035710 255 220 0
0.634614 0.061324 0.030093 255 220 0
0.645962 0.035302 0.044205 255 220 0
0.585163 0.076053 0.049754 255 220 0
0.569421 -0.012295 0.013547 255 220 0
0.600146 -0.001628 0.098482 255 220 0
0.617581 0.002949 0.094563 255 220 0
0.647450 0.036358 0.047677 255 220 0
0.608183 -0.026206 0.079757 255 220 0
0.572330 0.016524 0.081262 255 220 0
0.606502 -0.036761 0.042346 255 220 0
0.576876 0.059081 0.041290 255 220 0
0.559441 -0.034580 0.012065 255 220 0
0.570810 -0.009970 0.081120 255 220 0
0.646568 0.073252 0.052334 255 220 0
0.644280 0.042834 0.081711 255 220 0
0.646159 0.051964 0.043831 255 220 0
0.618703 0.017239 0.019519 255 220 0
0.567295 0.031491 0.061162 255 220 0
0.588336 -0.014174 0.013644 255 220 0
0.556575 -0.016582 0.057771 255 220 0
0.573079 -0.058187 0.029023 255 220 0
0.595141 -0.046562 0.038946 255 220 0
0.589669 0.067792 0.027850 255 220 0
0.609890 0.066881 0.098106 255 220 0
0.581279 0.028217 0.089499 255 220 0
0.639307 0.008773 0.069612 255 220 0
0.589867 -0.036464 0.080147 255 220 0
0.565503 0.019249 0.027948 255 220 0
0.552299 -0.027382 0.052022 255 220 0
0.622441 0.017704 0.096891 255 220 0
0.646539 0.048320 0.044492 255 220 0
0.551321 -0.018091 0.025599 255 220 0
0.642386 0.027428 0.079985 255 220 0
0.555925 -0.014029 0.055197 255 220 0
0.638820 0.059056 0.089591 255 220 0
0.603456 0.026576 0.011344 255 220 0
0.622037 0.005163 0.025922 255 220 0
0.562925 -0.028258 0.069549 255 220 0
0.643484 0.017750 0.050938 255 220 0
0.595446 -0.048346 0.046245 255 220 0
0.633527 0.055679 0.027518 255 220 0
0.561956 0.012412 0.057906 255 220 0
0.560438 -0.054513 0.017336 255 220 0
0.624036 0.091994 0.083608 255 220 0
0.644322 0.067795 0.044255 255 220 0
0.581850 0.068975 0.069356 255 220 0
0.582335 -0.044624 0.073216 255 220 0
0.592223 0.076413 0.034470 255 220 0
0.605925 0.009879 0.014537 255 220 0
0.599327 0.083289 0.036186 255 220 0
0.631126 0.021143 0.027854 255 220 0
0.585603 0.069436 0.078936 255 220 0
0.620596 0.047183 0.017887 255 220 0
0.552399 -0.056275 0.047271 255 220 0
0.606286 -0.039423 0.052165 255 220 0
0.611452 0.018548 0.100722 255 220 0
0.572302 0.051106 0.053571 255 220 0
0.540083 -0.045684 0.032772 255 220 0
0.583904 -0.049427 0.027148 255 220 0
0.611184 -0.024798 0.077964 255 220 0
0.578207 0.049963 0.078944 255 220 0
0.604180 0.027658 0.102172 255 220 0
0.585671 0.077203 0.052187 255 220 0
0.560343 0.003469 0.027908 255 220 0
0.569281 0.000551 0.016061 255 220 0
0.642052 0.028595 0.081154 255 220 0
0.550906 -0.019207 0.042952 255 220 0
0.558158 -0.052736 0.055423 255 220 0
0.598071 0.078370 0.031258 255 220 0
0.553530 -0.047854 0.013294 255 220 0
0.648483 0.033675 0.053685 255 220 0
0.646492 0.081080 0.062175 255 220 0
0.593619 -0.037092 0.025196 255 220 0
0.565269 0.025400 0.035643 255 220 0
0.609047 0.013863 0.014986 255 220 0
0.604172 0.087218 0.082901 255 220 0
0.640630 0.008657 0.061553 255 220 0
0.559843 -0.031875 0.012346 255 220 0
0.575345 0.051715 0.034770 255 220 0
0.590212 0.032537 0.011622 255 220 0
0.574572 0.055892 0.059718 255 220 0
0.547957 -0.041091 0.014648 255 220 0
0.613398 0.016455 0.016607 255 220 0
0.650957 0.049582 0.063176 255 220 0
0.633368 -0.003370 0.049894 255 220 0
0.631931 0.037899 0.094773 255 220 0
0.561214 -0.029318 0.012526 255 220 0
0.643264 0.083449 0.053344 255 220 0
0.574576 0.056340 0.047533 255 220 0
0.585899 -0.051863 0.062195 255 220 0
0.603030 0.012321 0.012896 255 220 0
0.643226 0.019586 0.047663 255 220 0
0.588505 -0.000204 0.011976 255 220 0
0.576767 -0.007370 0.012484 255 220 0
0.627255 0.049389 0.097650 255 220 0
0.544957 -0.038261 0.018032 255 220 0
0.573607 0.052910 0.060569 255 220 0
0.639221 0.005599 0.059664 255 220 0
0.573054 0.028821 0.079268 255 220 0
0.614748 0.051720 0.100713 255 220 0
0.554951 -0.005781 0.039846 255 220 0
0.593784 -0.030943 0.021630 255 220 0
0.567101 -0.007786 0.076764 255 220 0
0.607295 -0.038113 0.049255 255 220 0
0.568596 0.030179 0.029531 255 220 0
0.584483 -0.017877 0.013313 255 220 0
0.633199 0.013586 0.033198 255 220 0
0.594057 0.016135 0.010705 255 220 0
0.614618 0.047402 0.101242 255 220 0
0.549968 -0.058012 0.022875 255 220 0
0.586220 -0.009519 0.092639 255 220 0
0.635973 0.095538 0.066937 255 220 0
0.608470 0.090745 0.080973 255 220 0
0.548326 -0.046488 0.048629 255 220 0
0.605243 -0.015639 0.022362 255 220 0
0.650250 0.040366 0.059715 255 220 0
0.592787 0.004866 0.097928 255 220 0
0.576674 0.056167 0.068761 255 220 0
0.616296 -0.005095 0.025868 255 220 0
0.591281 -0.036870 0.079416 255 220 0
0.636227 0.052667 0.029202 255 220 0
0.639202 0.013341 0.076214 255 220 0
0.586783 0.008970 0.011352 255 220 0
0.605435 0.075100 0.025167 255 220 0
0.649920 0.041000 0.055554 255 220 0
0.643471 0.076046 0.047345 255 220 0
0.546395 -0.030415 0.039248 255 220 0
0.567131 0.032194 0.059489 255 220 0
0.641858 0.085748 0.076322 255 220 0
0.609066 -0.035074 0.045075 255 220 0
0.561828 0.014339 0.035602 255 220 0
0.563955 -0.046192 0.063861 255 220 0
0.590576 -0.039037 0.023973 255 220 0
0.608844 0.015727 0.014477 255 220 0
0.626431 -0.014031 0.049146 255 220 0
0.605533 0.021964 0.012212 255 220 0
0.582556 0.010873 0.011903 255 220 0
0.593081 -0.048381 0.060199 255 220 0
0.606847 0.092489 0.076348 255 220 0
0.572448 -0.056711 0.059980 255 220 0
0.585277 -0.055118 0.052301 255 220 0
0.599370 0.051288 0.014494 255 220 0
0.646075 0.042737 0.078429 255 220 0
0.622047 0.001597 0.027507 255 220 0
0.615510 0.058515 0.018121 255 220 0
0.598072 0.066573 0.021172 255 220 0
0.619501 -0.024036 0.049352 255 220 0
0.581548 -0.041277 0.075903 255 220 0
0.621753 0.078076 0.094317 255 220 0
0.555049 -0.025084 0.057041 255 220 0
0.612471 0.081466 0.029382 255 220 0
0.590135 0.032968 0.096410 255 220 0
0.607842 0.058590 0.099517 255 220 0
0.631402 -0.002766 0.073254 255 220 0
0.574694 0.042498 0.075843 255 220 0
0.647045 0.057228 0.078014 255 220 0
0.544915 -0.030428 0.033357 255 220 0
0.647784 0.068040 0.052478 255 220 0
0.650142 0.048494 0.055143 255 220 0
0.592718 0.082617 0.075341 255 220 0
0.643893 0.016371 0.058291 255 220 0
0.565149 0.005514 0.021009 255 220 0
0.634114 0.094185 0.054244 255 220 0
0.565539 0.011549 0.023046 255 220 0
0.605470 0.093898 0.051829 255 220 0
0.611887 0.089921 0.038341 255 220 0
0.577696 0.012450 0.087713 255 220 0
0.579291 0.017238 0.013115 255 220 0
0.637103 0.034672 0.089665 255 220 0
0.578205 -0.044808 0.019030 255 220 0
0.548785 -0.021257 0.032314 255 220 0
0.646944 0.046908 0.077455 255 220 0
0.583694 0.032487 0.091178 255 220 0
0.588114 -0.051632 0.059814 255 220 0
0.578516 -0.022349 0.084620 255 220 0
0.597685 -0.028656 0.085166 255 220 0
0.641636 0.061114 0.086460 255 220 0
0.648118 0.072380 0.070309 255 220 0
0.585942 0.071963 0.037859 255 220 0
0.618307 -0.016177 0.079129 255 220 0
0.578288 0.059787 0.069857 255 220 0
0.564990 0.026890 0.055176 255 220 0
0.636188 0.012145 0.081054 255 220 0
0.640743 0.020807 0.040720 255 220 0
0.647898 0.029632 0.061285 255 220 0
0.646065 0.029060 0.047664 255 220 0
0.649598 0.042845 0.069131 255 220 0
0.563148 -0.059673 0.024154 255 220 0
0.602936 0.075853 0.026400 255 220 0
0.569721 -0.061676 0.036229 255 220 0
0.551826 -0.027023 0.050885 255 220 0
0.543143 -0.038657 0.038172 255 220 0
0.639390 0.086328 0.049448 255 220 0
0.544274 -0.031217 0.030288 255 220 0
0.563925 -0.004204 0.070894 255 220 0
0.577125 0.061904 0.060914 255 220 0
0.543145 -0.050198 0.020690 255 220 0
0.603024 0.093716 0.058232 255 220 0
0.569306 0.040277 0.058985 255 220 0
0.557492 -0.010457 0.057505 255 220 0
0.627469 -0.013711 0.053930 255 220 0
0.643151 0.014338 0.059686 255 220 0
0.622196 0.098237 0.073258 255 220 0
0.569490 0.028154 0.071529 255 220 0
0.628007 0.099022 0.066111 255 220 0
0.575932 -0.007362 0.086020 255 220 0
0.566020 0.002057 0.073820 255 220 0
0.560518 0.011233 0.038120 255 220 0
0.563111 0.011531 0.062509 255 220 0
0.545443 -0.045471 0.044488 255 220 0
0.631293 -0.007448 0.052205 255 220 0
0.595037 0.058023 0.094697 255 220 0
0.566511 0.024977 0.064351 255 220 0
0.570575 -0.058555 0.027321 255 220 0
0.626062 0.034314 0.020952 255 220 0
0.567961 -0.062388 0.037453 255 220 0
0.621332 -0.022754 0.056979 255 220 0
0.638242 0.057120 0.032264 255 220 0
0.577574 0.060785 0.065893 255 220 0
0.632259 0.097068 0.059651 255 220 0
0.598940 0.038332 0.011638 255 220 0
0.573772 -0.032955 0.013194 255 220 0
0.569357 0.001318 0.079370 255 220 0
0.628664 0.091542 0.082778 255 220 0
0.605386 0.089695 0.041169 255 220 0
0.601763 0.007201 0.013546 255 220 0
0.628793 0.089196 0.085034 255 220 0
0.554630 -0.029303 0.057147 255 220 0
0.603182 0.070141 0.022037 255 220 0
0.615841 0.086026 0.089301 255 220 0
0.624856 0.094315 0.080612 255 220 0
0.555184 -0.007834 0.048332 255 220 0
0.559571 -0.006244 0.022054 255 220 0
0.618524 -0.002463 0.091076 255 220 0
0.601234 0.084824 0.083426 255 220 0
0.613795 0.035786 0.102206 255 220 0
0.546823 -0.031479 0.041393 255 220 0
0.554303 -0.023402 0.017254 255 220 0
0.606339 0.041889 0.101819 255 220 0
0.618863 0.027849 0.017408 255 220 0
0.596586 0.079129 0.033302 255 220 0
0.611445 0.097871 0.061558 255 220 0
0.553945 -0.058831 0.022134 255 220 0
0.604764 -0.039442 0.060812 255 220 0
0.592378 0.084953 0.053349 255 220 0
0.601003 0.083816 0.084379 255 220 0
0.634748 0.043878 0.092999 255 220 0
0.602120 0.093160 0.058003 255 220 0
0.569683 0.033121 0.029444 255 220 0
0.578083 0.047121 0.024983 255 220 0
0.632127 0.042464 0.094916 255 220 0
0.540787 -0.046226 0.023318 255 220 0
0.644121 0.049222 0.039405 255 220 0
0.587218 -0.052917 0.057501 255 220 0
0.578515 -0.057551 0.035158 255 220 0
0.632441 0.070107 0.031499 255 220 0
0.629295 0.021808 0.093715 255 220 0
0.571432 0.047929 0.045713 255 220 0
0.596214 0.088696 0.065475 255 220 0
0.559667 -0.004474 0.023077 255 220 0
0.577919 -0.049319 0.068621 255 220 0
0.611800 0.013713 0.099751 255 220 0
0.583125 -0.013179 0.012502 255 220 0
0.626166 -0.006218 0.037268 255 220 0
0.610664 0.054476 0.100428 255 220 0
0.577591 0.061943 0.063760 255 220 0
0.586785 0.051674 0.019075 255 220 0
0.615402 0.023911 0.016145 255 220 0
0.555302 -0.013298 0.053229 255 220 0
0.594105 0.035798 0.098545 255 220 0
0.571036 -0.047429 0.067704 255 220 0
0.581612 0.061159 0.078120 255 220 0
0.621214 0.056141 0.019830 255 220 0
0.635560 0.021323 0.032599 255 220 0
0.616130 0.064866 0.020469 255 220 0
0.637402 0.049521 0.090907 255 220 0
0.548357 -0.042037 0.048766 255 220 0
0.632481 0.073015 0.092338 255 220 0
0.558789 0.000414 0.055166 255 220 0
0.624472 0.027512 0.098173 255 220 0
0.565620 0.027868 0.038229 255 220 0
0.551241 -0.032659 0.051547 255 220 0
0.583719 0.007218 0.092766 255 220 0
0.559514 -0.044583 0.060982 255 220 0
0.571771 -0.051004 0.065421 255 220 0
0.619349 0.097430 0.074666 255 220 0
0.554320 -0.014526 0.051134 255 220 0
0.624843 -0.014131 0.044402 255 220 0
0.562462 0.012557 0.030434 255 220 0
0.606906 -0.032615 0.071758 255 220 0
0.568713 0.035147 0.034819 255 220 0
0.612208 0.037138 0.102338 255 220 0
0.561594 0.014009 0.036450 255 220 0
0.576409 -0.058290 0.056012 255 220 0
0.643370 0.043163 0.038080 255 220 0
0.560343 -0.014798 0.065656 255 220 0
0.562702 -0.022263 0.070184 255 220 0
0.636141 0.072382 0.090105 255 220 0
0.637516 0.071283 0.036671 255 220 0
0.629903 0.025803 0.094332 255 220 0
0.545606 -0.044689 0.044732 255 220 0
0.540300 -0.045919 0.024716 255 220 0
0.625066 0.097386 0.053874 255 220 0
0.586368 -0.044986 0.024955 255 220 0
0.628168 0.066729 0.095735 255 220 0
0.590308 0.001557 0.096478 255 220 0
0.569852 -0.061790 0.037452 255 220 0
0.548751 -0.036127 0.048003 255 220 0
0.576608 0.061398 0.050072 255 220 0
0.544586 -0.048516 0.042578 255 220 0
0.599578 0.041113 0.100270 255 220 0
0.546451 -0.050958 0.044452 255 220 0
0.602968 -0.023734 0.086944 255 220 0
0.643060 0.069173 0.042757 255 220 0
0.603702 0.090689 0.044791 255 220 0
0.553735 -0.060176 0.025099 255 220 0
0.582463 0.058841 0.081468 255 220 0
0.552972 -0.056929 0.047178 255 220 0
0.601179 -0.013703 0.018990 255 220 0
0.577748 0.031294 0.016960 255 220 0
0.636502 0.001481 0.064389 255 220 0
0.574408 0.053497 0.040935 255 220 0
0.627577 -0.008981 0.072400 255 220 0
0.649364 0.046362 0.071198 255 220 0
0.587300 0.077036 0.044460 255 220 0
0.613024 0.094704 0.077135 255 220 0
0.638526 0.033265 0.087738 255 220 0
0.551935 -0.025188 0.050402 255 220 0
0.574278 0.022129 0.016993 255 220 0
0.609631 0.012478 0.100008 255 220 0
0.624582 -0.005233 0.034187 255 220 0
0.589517 0.080915 0.048412 255 220 0
0.619450 0.078978 0.094136 255 220 0
0.594661 -0.000537 0.012977 255 220 0
0.620472 0.099681 0.066821 255 220 0
0.545522 -0.031930 0.021850 255 220 0
0.584675 0.073549 0.071158 255 220 0
0.589073 -0.048570 0.065190 255 220 0
0.591263 -0.045087 0.068980 255 220 0
0.568198 0.031253 0.031748 255 220 0
0.583366 -0.006197 0.012106 255 220 0
0.632908 0.007678 0.036247 255 220 0
0.627453 0.028399 0.022844 255 220 0
0.567783 0.001466 0.077065 255 220 0
0.618042 0.007730 0.021943 255 220 0
0.646252 0.036017 0.075894 255 220 0
0.614727 -0.028405 0.044971 255 220 0
0.552731 -0.040795 0.012652 255 220 0
0.606473 0.080391 0.090934 255 220 0
0.596745 -0.023646 0.020201 255 220 0
0.606372 0.026271 0.102221 255 220 0
0.607974 0.092672 0.077095 255 220 0
0.571479 0.044526 0.037729 255 220 0
0.573870 0.021285 0.082384 255 220 0
0.649340 0.066784 0.068329 255 220 0
0.618778 -0.025159 0.049916 255 220 0
0.644746 0.039886 0.040868 255 220 0
0.644842 0.043459 0.080874 255 220 0
0.591544 -0.042936 0.071979 255 220 0
0.608258 -0.013771 0.091426 255 220 0
0.573681 0.034171 0.078348 255 220 0
0.614752 0.061055 0.099446 255 220 0
0.584696 -0.012438 0.091156 255 220 0
0.575707 -0.041200 0.074009 255 220 0
0.618479 0.053879 0.099958 255 220 0
0.569937 0.044292 0.052816 255 220 0
0.650039 0.041115 0.056304 255 220 0
0.635734 0.043869 0.092164 255 220 0
0.586756 -0.025342 0.015619 255 220 0
0.600059 -0.032389 0.027656 255 220 0
0.555399 -0.005852 0.046449 255 220 0
0.620308 -0.023093 0.049777 255 220 0
0.583388 0.072881 0.047255 255 220 0
0.577182 0.039440 0.021224 255 220 0
0.613642 -0.010298 0.026209 255 220 0
0.570948 0.043659 0.062389 255 220 0
0.637971 0.003177 0.059021 255 220 0
0.568750 0.037295 0.060616 255 220 0
0.618031 -0.021320 0.040328 255 220 0
0.562609 -0.063738 0.039824 255 220 0
0.605481 -0.035856 0.038523 255 220 0
0.586525 0.018401 0.011091 255 220 0
0.567243 0.035491 0.045709 255 220 0
0.609240 0.095139 0.050821 255 220 0
0.563665 -0.046678 0.063373 255 220 0
0.584029 -0.051372 0.029888 255 220 0
0.606070 0.068115 0.020454 255 220 0
0.614884 0.006767 0.020208 255 220 0
0.554389 -0.009880 0.047055 255 220 0
0.618016 -0.023761 0.068108 255 220 0
0.561553 0.016323 0.047695 255 220 0
0.578895 -0.029241 0.013838 255 220 0
0.641751 0.058737 0.036996 255 220 0
0.611838 -0.011769 0.090320 255 220 0
0.567306 0.034964 0.055625 255 220 0
0.567140 0.003988 0.018482 255 220 0
0.553165 -0.031251 0.054791 255 220 0
0.620419 -0.008222 0.031371 255 220 0
0.638124 0.005018 0.066349 255 220 0
0.589341 0.056617 0.090678 255 220 0
0.583912 -0.032815 0.016696 255 220 0
0.546996 -0.025292 0.031393 255 220 0
0.611257 0.093900 0.077435 255 220 0
0.631835 0.080523 0.089708 255 220 0
0.619912 0.094458 0.045783 255 220 0
0.589916 0.007312 0.096746 255 220 0
0.594539 -0.044370 0.033738 255 220 0
0.601075 0.072843 0.092849 255 220 0
0.597983 0.050883 0.097953 255 220 0
0.584606 0.067730 0.078623 255 220 0
0.626252 0.015738 0.093918 255 220 0
0.586236 -0.009892 0.092566 255 220 0
0.626724 0.095975 0.051472 255 220 0
0.564799 -0.062692 0.047268 255 220 0
0.594144 -0.039184 0.075263 255 220 0
0.551905 -0.015680 0.042553 255 220 0
0.618286 0.028141 0.017051 255 220 0
0.562771 0.019790 0.041251 255 220 0
0.600581 -0.043111 0.059891 255 220 0
0.582415 0.038647 0.088720 255 220 0
0.604505 -0.039477 0.061331 255 220 0
0.650582 0.060474 0.063940 255 220 0
0.578414 0.064580 0.047797 255 220 0
0.557940 -0.053608 0.054613 255 220 0
0.564884 0.022696 0.060428 255 220 0
0.629081 0.079877 0.091387 255 220 0
0.559802 0.005251 0.031474 255 220 0
0.573181 0.046824 0.067213 255 220 0
0.597775 0.082736 0.082538 255 220 0
0.580352 0.000787 0.090125 255 220 0
0.587589 0.060083 0.087621 255 220 0
0.623950 0.076274 0.094635 255 220 0
0.644918 0.056046 0.041698 255 220 0
0.601692 0.014556 0.100869 255 220 0
0.555996 -0.004757 0.031832 255 220 0
0.572178 0.032478 0.023953 255 220 0
0.565933 -0.028380 0.072673 255 220 0
0.619902 0.014320 0.021107 255 220 0
0.568677 0.022227 0.072872 255 220 0
0.620984 0.054466 0.019315 255 220 0
0.556468 -0.001712 0.037035 255 220 0
0.586776 0.009761 0.011307 255 220 0
0.631900 -0.001381 0.042521 255 220 0
0.588624 -0.051975 0.038740 255 220 0
0.573097 -0.060846 0.048500 255 220 0
0.571594 0.047332 0.042815 255 220 0
0.581766 -0.004453 0.012092 255 220 0
0.555494 -0.033774 0.058941 255 220 0
0.558866 -0.023053 0.064103 255 220 0
0.596680 0.008309 0.099539 255 220 0
0.602171 -0.041038 0.062216 255 220 0
0.601335 0.049569 0.099506 255 220 0
0.568304 -0.031136 0.012139 255 220 0
0.631216 0.060218 0.027036 255 220 0
0.625002 0.033107 0.020385 255 220 0
0.550421 -0.044833 0.013451 255 220 0
0.631464 0.005218 0.035843 255 220 0
0.550087 -0.046917 0.013915 255 220 0
0.646837 0.044953 0.077340 255 220 0
0.616920 -0.012806 0.084531 255 220 0
0.593771 0.082804 0.042459 255 220 0
0.603483 0.003909 0.014982 255 220 0
0.643387 0.065779 0.041819 255 220 0
0.556675 -0.013822 0.020634 255 220 0
0.563973 -0.039960 0.066822 255 220 0
0.569694 0.043549 0.048814 255 220 0
0.597695 -0.006761 0.096969 255 220 0
0.592719 0.061279 0.091947 255 220 0
0.594688 0.074670 0.029960 255 220 0
0.551311 -0.020579 0.045981 255 220 0
0.644375 0.051031 0.082567 255 220 0
0.611946 0.098048 0.061915 255 220 0
0.644554 0.038138 0.040722 255 220 0
0.585188 -0.002008 0.011974 255 220 0
0.554531 -0.058803 0.021931 255 220 0
0.649942 0.039485 0.057084 255 220 0
0.647757 0.032287 0.051326 255 220 0
0.563221 -0.016341 0.014925 255 220 0
0.641760 0.026134 0.039517 255 220 0
