ply
format ascii 1.0
element vertex 1024
property float x
property float y
property float z
property uchar red
property uchar green
property uchar blue
end_header
0.495094 0.254832 0.236015 0 200 255
0.352679 0.392255 0.210252 0 200 255
0.353277 0.239542 0.166439 0 200 255
0.452177 0.352223 0.121844 0 200 255
0.487381 0.366307 0.227131 0 200 255
0.436258 0.426001 0.176684 0 200 255
0.426101 0.303875 0.209778 0 200 255
0.430054 0.233495 0.178103 0 200 255
0.518477 0.310555 0.199895 0 200 255
0.438398 0.361983 0.184480 0 200 255
0.394613 0.352403 0.235949 0 200 255
0.474148 0.311267 0.239908 0 200 255
0.481909 0.396282 0.181105 0 200 255
0.462533 0.269710 0.197905 0 200 255
0.389392 0.249508 0.201313 0 200 255
0.502997 0.249765 0.188698 0 200 255
0.444159 0.342140 0.223892 0 200 255
0.451566 0.390222 0.216958 0 200 255
0.480505 0.332424 0.200538 0 200 255
0.508891 0.331159 0.233909 0 200 255
0.448068 0.278205 0.234623 0 200 255
0.474554 0.233805 0.208878 0 200 255
0.426047 0.257956 0.208302 0 200 255
0.465888 0.408401 0.148683 0 200 255
0.519358 0.275213 0.214162 0 200 255
0.389583 0.229576 0.168934 0 200 255
0.407238 0.334072 0.207948 0 200 255
0.486578 0.295716 0.198894 0 200 255
0.456795 0.353739 0.156677 0 200 255
0.371575 0.363906 0.212832 0 200 255
0.468423 0.367479 0.198582 0 200 255
0.440912 0.311426 0.240235 0 200 255
0.502079 0.294523 0.237004 0 200 255
0.443612 0.396683 0.185827 0 200 255
0.454087 0.310214 0.197649 0 200 255
0.413511 0.230371 0.204354 0 200 255
0.406184 0.254215 0.175826 0 200 255
0.361039 0.239223 0.195840 0 200 255
0.466136 0.254713 0.230010 0 200 255
0.476952 0.340648 0.239686 0 200 255
0.418310 0.331384 0.234486 0 200 255
0.453980 0.338306 0.188618 0 200 255
0.476173 0.281900 0.238437 0 200 255
0.479401 0.391432 0.209477 0 200 255
0.503933 0.345280 0.207010 0 200 255
0.460194 0.363886 0.225687 0 200 255
0.375185 0.251622 0.176716 0 200 255
0.450817 0.247471 0.206848 0 200 255
0.521413 0.309033 0.226027 0 200 255
0.517284 0.249272 0.218124 0 200 255
0.483843 0.258159 0.208807 0 200 255
0.398979 0.358352 0.211000 0 200 255
0.341191 0.252219 0.185707 0 200 255
0.439081 0.257500 0.178194 0 200 255
0.438215 0.359811 0.141209 0 200 255
0.455631 0.320319 0.220634 0 200 255
0.470830 0.299825 0.218100 0 200 255
0.493137 0.366877 0.200512 0 200 255
0.439838 0.287764 0.197052 0 200 255
0.507937 0.282900 0.193803 0 200 255
0.462018 0.408326 0.173253 0 200 255
0.392429 0.225371 0.192399 0 200 255
0.431163 0.327433 0.210068 0 200 255
0.444590 0.359264 0.207982 0 200 255
0.464684 0.345666 0.211430 0 200 255
0.456256 0.330884 0.241230 0 200 255
0.368034 0.383097 0.224874 0 200 255
0.450822 0.416980 0.192189 0 200 255
0.489012 0.330887 0.223703 0 200 255
0.438453 0.365292 0.162595 0 200 255
0.464013 0.396867 0.194635 0 200 255
0.448373 0.268543 0.214812 0 200 255
0.369843 0.228998 0.178249 0 200 255
0.482975 0.237380 0.228574 0 200 255
0.495970 0.317544 0.197665 0 200 255
0.409416 0.227041 0.178390 0 200 255
0.509647 0.271003 0.232907 0 200 255
0.431936 0.290371 0.227349 0 200 255
0.484388 0.275062 0.193794 0 200 255
0.432552 0.238853 0.200239 0 200 255
0.449895 0.377748 0.197450 0 200 255
0.494750 0.315777 0.238518 0 200 255
0.458134 0.296016 0.239815 0 200 255
0.484022 0.241045 0.191324 0 200 255
0.516455 0.326634 0.213057 0 200 255
0.380404 0.367729 0.231514 0 200 255
0.408495 0.257313 0.197503 0 200 255
0.442426 0.345344 0.173046 0 200 255
0.411274 0.347883 0.223721 0 200 255
0.484774 0.349250 0.215777 0 200 255
0.471770 0.392557 0.164099 0 200 255
0.355329 0.258870 0.171710 0 200 255
0.465299 0.293835 0.195385 0 200 255
0.449493 0.343502 0.140781 0 200 255
0.427191 0.314349 0.226428 0 200 255
0.476134 0.313534 0.198459 0 200 255
0.391902 0.242926 0.182898 0 200 255
0.501244 0.260073 0.217292 0 200 255
0.521472 0.294129 0.211603 0 200 255
0.506094 0.348095 0.225757 0 200 255
0.367387 0.381441 0.204978 0 200 255
0.443545 0.340870 0.204284 0 200 255
0.483280 0.379010 0.188339 0 200 255
0.383277 0.350860 0.221273 0 200 255
0.459549 0.327988 0.203061 0 200 255
0.474888 0.374057 0.214700 0 200 255
0.508790 0.265943 0.200798 0 200 255
0.465104 0.250471 0.195881 0 200 255
0.448425 0.403056 0.204431 0 200 255
0.454740 0.356169 0.193213 0 200 255
0.439605 0.258819 0.196299 0 200 255
0.422559 0.258073 0.185427 0 200 255
0.441434 0.409185 0.172878 0 200 255
0.379742 0.234450 0.201325 0 200 255
0.504299 0.300798 0.195244 0 200 255
0.370782 0.240275 0.163268 0 200 255
0.359543 0.255576 0.188997 0 200 255
0.518724 0.290636 0.228766 0 200 255
0.509399 0.244580 0.234070 0 200 255
0.471072 0.326192 0.226981 0 200 255
0.452629 0.361505 0.172457 0 200 255
0.476482 0.409755 0.162615 0 200 255
0.434699 0.280708 0.212241 0 200 255
0.339657 0.252131 0.167958 0 200 255
0.490580 0.272050 0.238615 0 200 255
0.484773 0.296901 0.240375 0 200 255
0.441024 0.312739 0.210157 0 200 255
0.469766 0.272260 0.213395 0 200 255
0.454880 0.359775 0.137406 0 200 255
0.396442 0.339439 0.224188 0 200 255
0.354777 0.376180 0.215254 0 200 255
0.423040 0.247625 0.172009 0 200 255
0.463866 0.270522 0.236451 0 200 255
0.467636 0.253713 0.212149 0 200 255
0.451335 0.373753 0.213960 0 200 255
0.470043 0.350464 0.227123 0 200 255
0.386908 0.370156 0.214486 0 200 255
0.441477 0.327822 0.234324 0 200 255
0.440843 0.349265 0.155867 0 200 255
0.458141 0.313985 0.236550 0 200 255
0.435804 0.411171 0.188545 0 200 255
0.419478 0.237548 0.190434 0 200 255
0.404448 0.238206 0.167573 0 200 255
0.404529 0.243692 0.206946 0 200 255
0.495957 0.340413 0.236688 0 200 255
0.487656 0.256750 0.191125 0 200 255
0.415225 0.323909 0.217497 0 200 255
0.465511 0.392452 0.178896 0 200 255
0.449434 0.367225 0.151202 0 200 255
0.454348 0.282070 0.203521 0 200 255
0.482077 0.324897 0.241522 0 200 255
0.421272 0.340185 0.214182 0 200 255
0.479568 0.400511 0.196595 0 200 255
0.350106 0.239733 0.182208 0 200 255
0.464898 0.383089 0.202065 0 200 255
0.458031 0.346764 0.176137 0 200 255
0.496812 0.330764 0.205735 0 200 255
0.441952 0.241309 0.184221 0 200 255
0.480035 0.357356 0.203463 0 200 255
0.388189 0.245445 0.168112 0 200 255
0.374826 0.246157 0.192571 0 200 255
0.365382 0.368032 0.226748 0 200 255
0.515544 0.251790 0.197312 0 200 255
0.458767 0.335928 0.221580 0 200 255
0.496139 0.359583 0.216650 0 200 255
0.395090 0.343879 0.208383 0 200 255
0.439678 0.304166 0.197701 0 200 255
0.474698 0.410302 0.181256 0 200 255
0.489898 0.374746 0.214134 0 200 255
0.521438 0.284039 0.200311 0 200 255
0.481050 0.259977 0.236944 0 200 255
0.419379 0.244777 0.209288 0 200 255
0.453259 0.263672 0.228841 0 200 255
0.510102 0.322571 0.199941 0 200 255
0.441000 0.347892 0.187472 0 200 255
0.410089 0.348932 0.209204 0 200 255
0.512423 0.314639 0.236048 0 200 255
0.462738 0.380028 0.220384 0 200 255
0.443086 0.292906 0.236264 0 200 255
0.364257 0.242731 0.179657 0 200 255
0.429241 0.329473 0.225346 0 200 255
0.394737 0.233514 0.204277 0 200 255
0.449726 0.420000 0.178200 0 200 255
0.441135 0.322470 0.220689 0 200 255
0.381405 0.233621 0.187203 0 200 255
0.473805 0.360029 0.216696 0 200 255
0.453898 0.251817 0.219954 0 200 255
0.440053 0.255800 0.210438 0 200 255
0.487367 0.381303 0.201552 0 200 255
0.444660 0.388997 0.203960 0 200 255
0.393010 0.363325 0.225055 0 200 255
0.405697 0.342041 0.235130 0 200 255
0.454260 0.260901 0.204830 0 200 255
0.403951 0.235417 0.187914 0 200 255
0.440294 0.356465 0.127369 0 200 255
0.436459 0.305780 0.221074 0 200 255
0.476944 0.245364 0.219208 0 200 255
0.470362 0.385008 0.189679 0 200 255
0.406871 0.330032 0.227173 0 200 255
0.456635 0.403725 0.185450 0 200 255
0.446920 0.323309 0.204075 0 200 255
0.429656 0.246423 0.186428 0 200 255
0.465338 0.305787 0.203604 0 200 255
0.417450 0.234573 0.170642 0 200 255
0.497327 0.266171 0.193764 0 200 255
0.490266 0.252629 0.219478 0 200 255
0.375004 0.376604 0.215202 0 200 255
0.453678 0.349860 0.217744 0 200 255
0.462492 0.401454 0.160591 0 200 255
0.459610 0.394545 0.206989 0 200 255
0.398053 0.253683 0.187763 0 200 255
0.457819 0.358295 0.208207 0 200 255
0.494103 0.284736 0.233083 0 200 255
0.515456 0.262092 0.211502 0 200 255
0.510718 0.337065 0.220283 0 200 255
0.471708 0.323854 0.205546 0 200 255
0.493057 0.354076 0.228075 0 200 255
0.430307 0.318711 0.238295 0 200 255
0.396465 0.223446 0.178020 0 200 255
0.479564 0.244477 0.202971 0 200 255
0.467965 0.322612 0.239994 0 200 255
0.362101 0.250657 0.164392 0 200 255
0.448641 0.333355 0.213998 0 200 255
0.428316 0.313405 0.201357 0 200 255
0.369172 0.230061 0.191804 0 200 255
0.476184 0.260929 0.198898 0 200 255
0.440971 0.275928 0.222348 0 200 255
0.472041 0.295475 0.240819 0 200 255
0.442950 0.245985 0.196949 0 200 255
0.512561 0.255599 0.228688 0 200 255
0.439886 0.348576 0.213623 0 200 255
0.412938 0.226681 0.192277 0 200 255
0.521236 0.313299 0.214191 0 200 255
0.518889 0.278190 0.226988 0 200 255
0.460173 0.340263 0.200439 0 200 255
0.481656 0.365766 0.194269 0 200 255
0.383930 0.357630 0.210737 0 200 255
0.357001 0.387865 0.221307 0 200 255
0.481459 0.328924 0.213902 0 200 255
0.515513 0.296088 0.198230 0 200 255
0.495781 0.285828 0.194120 0 200 255
0.478719 0.340083 0.221750 0 200 255
0.444558 0.362909 0.196023 0 200 255
0.426057 0.315599 0.213936 0 200 255
0.466382 0.337384 0.234001 0 200 255
0.498718 0.328003 0.240276 0 200 255
0.430202 0.293527 0.204313 0 200 255
0.376111 0.229816 0.167235 0 200 255
0.464179 0.413688 0.159847 0 200 255
0.430922 0.300938 0.233700 0 200 255
0.437172 0.357787 0.172336 0 200 255
0.377620 0.238975 0.176782 0 200 255
0.475780 0.261794 0.217319 0 200 255
0.439058 0.351739 0.200020 0 200 255
0.473296 0.400803 0.173622 0 200 255
0.441578 0.276021 0.203244 0 200 255
0.381964 0.355194 0.232635 0 200 255
0.451154 0.291817 0.194990 0 200 255
0.455361 0.366915 0.199834 0 200 255
0.506794 0.282528 0.235364 0 200 255
0.350437 0.246821 0.192036 0 200 255
0.439315 0.243748 0.210580 0 200 255
0.473856 0.400419 0.152981 0 200 255
0.390882 0.239239 0.194320 0 200 255
0.494106 0.237550 0.233101 0 200 255
0.510165 0.287758 0.204995 0 200 255
0.450116 0.364424 0.184065 0 200 255
0.449910 0.387688 0.190592 0 200 255
0.402222 0.355519 0.225352 0 200 255
0.457047 0.348811 0.133183 0 200 255
0.460457 0.264906 0.214795 0 200 255
0.373152 0.359215 0.223685 0 200 255
0.467604 0.330689 0.215517 0 200 255
0.517137 0.319992 0.224089 0 200 255
0.457677 0.351077 0.145099 0 200 255
0.489339 0.339409 0.209079 0 200 255
0.442862 0.313395 0.228198 0 200 255
0.439940 0.400912 0.196391 0 200 255
0.472977 0.274841 0.200302 0 200 255
0.512101 0.300427 0.234680 0 200 255
0.494975 0.255856 0.205501 0 200 255
0.402665 0.226554 0.198929 0 200 255
0.420303 0.228190 0.182856 0 200 255
0.441237 0.421625 0.187065 0 200 255
0.465685 0.283594 0.233305 0 200 255
0.481266 0.388951 0.195012 0 200 255
0.488263 0.310998 0.203649 0 200 255
0.444829 0.345894 0.129619 0 200 255
0.477989 0.251159 0.229897 0 200 255
0.419701 0.340442 0.226833 0 200 255
0.434799 0.246203 0.175972 0 200 255
0.430631 0.292891 0.216045 0 200 255
0.476320 0.290169 0.195400 0 200 255
0.477789 0.340958 0.207888 0 200 255
0.448960 0.303086 0.240049 0 200 255
0.343719 0.242086 0.172876 0 200 255
0.425728 0.259140 0.196835 0 200 255
0.432116 0.233136 0.190244 0 200 255
0.524271 0.285811 0.219898 0 200 255
0.354893 0.250039 0.179047 0 200 255
0.411524 0.252520 0.187531 0 200 255
0.436765 0.359895 0.152671 0 200 255
0.359778 0.233553 0.173615 0 200 255
0.498942 0.347751 0.216934 0 200 255
0.467744 0.356858 0.202933 0 200 255
0.453713 0.347857 0.206598 0 200 255
0.463790 0.315966 0.198926 0 200 255
0.502601 0.307918 0.236416 0 200 255
0.449434 0.361588 0.161614 0 200 255
0.348817 0.259461 0.180882 0 200 255
0.354271 0.381488 0.205356 0 200 255
0.447395 0.320530 0.240728 0 200 255
0.425360 0.304513 0.221203 0 200 255
0.364274 0.370865 0.206762 0 200 255
0.365580 0.388151 0.214165 0 200 255
0.450926 0.253799 0.196843 0 200 255
0.451975 0.346740 0.166764 0 200 255
0.507844 0.332298 0.205644 0 200 255
0.474053 0.300936 0.196908 0 200 255
0.427974 0.248794 0.202030 0 200 255
0.458985 0.281328 0.193484 0 200 255
0.420381 0.325587 0.207865 0 200 255
0.415835 0.254702 0.205340 0 200 255
0.446365 0.356440 0.147847 0 200 255
0.380127 0.225235 0.176969 0 200 255
0.503824 0.262471 0.229064 0 200 255
0.371240 0.255570 0.186209 0 200 255
0.428187 0.256952 0.174721 0 200 255
0.451410 0.362039 0.126669 0 200 255
0.447035 0.406943 0.189648 0 200 255
0.470639 0.393232 0.202553 0 200 255
0.445854 0.339290 0.181440 0 200 255
0.424122 0.232247 0.202047 0 200 255
0.476930 0.271145 0.237166 0 200 255
0.448449 0.402637 0.177955 0 200 255
0.366534 0.256584 0.172429 0 200 255
0.486928 0.308262 0.238919 0 200 255
0.377026 0.377287 0.226563 0 200 255
0.507207 0.310053 0.200055 0 200 255
0.470106 0.367677 0.223405 0 200 255
0.523899 0.298074 0.222878 0 200 255
0.449724 0.328383 0.224736 0 200 255
0.472970 0.374807 0.192029 0 200 255
0.452541 0.289149 0.232698 0 200 255
0.467276 0.403762 0.186804 0 200 255
0.477638 0.381149 0.207104 0 200 255
0.460057 0.375679 0.194939 0 200 255
0.488036 0.333275 0.236956 0 200 255
0.348789 0.248325 0.162406 0 200 255
0.449729 0.334243 0.198697 0 200 255
0.442962 0.420901 0.170030 0 200 255
0.399693 0.248453 0.169682 0 200 255
0.446777 0.259585 0.221228 0 200 255
0.484254 0.280740 0.231664 0 200 255
0.399648 0.255435 0.203014 0 200 255
0.400313 0.228137 0.169342 0 200 255
0.518050 0.304565 0.208614 0 200 255
0.488070 0.248092 0.230846 0 200 255
0.454762 0.385217 0.204155 0 200 255
0.360609 0.232918 0.184120 0 200 255
0.383066 0.361394 0.220533 0 200 255
0.480507 0.358556 0.225304 0 200 255
0.463383 0.305394 0.239554 0 200 255
0.407211 0.236509 0.198662 0 200 255
0.401552 0.224102 0.187429 0 200 255
0.473576 0.395249 0.189827 0 200 255
0.504550 0.256699 0.198390 0 200 255
0.484413 0.365869 0.217132 0 200 255
0.412815 0.243920 0.170867 0 200 255
0.453647 0.401171 0.195601 0 200 255
0.441055 0.349870 0.139953 0 200 255
0.463271 0.386017 0.211901 0 200 255
0.485615 0.346665 0.225885 0 200 255
0.388224 0.346792 0.230015 0 200 255
0.455775 0.354298 0.183078 0 200 255
0.448840 0.344765 0.151121 0 200 255
0.434693 0.321453 0.228779 0 200 255
0.513673 0.268841 0.223702 0 200 255
0.479885 0.400468 0.165379 0 200 255
0.389664 0.230641 0.181878 0 200 255
0.391739 0.356063 0.217894 0 200 255
0.483847 0.322872 0.198964 0 200 255
0.443745 0.367254 0.176564 0 200 255
0.414523 0.323557 0.229082 0 200 255
0.461848 0.354547 0.221924 0 200 255
0.382441 0.246665 0.181895 0 200 255
0.462207 0.369255 0.217172 0 200 255
0.439779 0.283213 0.231553 0 200 255
0.348897 0.384635 0.215783 0 200 255
0.401072 0.336257 0.215746 0 200 255
0.473048 0.413146 0.171525 0 200 255
0.464355 0.261644 0.205280 0 200 255
0.399072 0.239788 0.176478 0 200 255
0.460191 0.251354 0.205838 0 200 255
0.472835 0.413711 0.154138 0 200 255
0.360435 0.376557 0.224369 0 200 255
0.480511 0.382109 0.216676 0 200 255
0.503464 0.338901 0.228736 0 200 255
0.496886 0.307667 0.196302 0 200 255
0.490934 0.358369 0.208187 0 200 255
0.441636 0.410834 0.197119 0 200 255
0.458800 0.346630 0.191347 0 200 255
0.443238 0.265428 0.206821 0 200 255
0.434387 0.416635 0.179457 0 200 255
0.472739 0.364131 0.207712 0 200 255
0.444822 0.270175 0.229437 0 200 255
0.389545 0.237863 0.174359 0 200 255
0.336951 0.249446 0.177199 0 200 255
0.500158 0.265906 0.209381 0 200 255
0.468081 0.359699 0.229989 0 200 255
0.459534 0.329684 0.229179 0 200 255
0.383356 0.236751 0.166313 0 200 255
0.429618 0.242089 0.210136 0 200 255
0.371367 0.239178 0.199223 0 200 255
0.463023 0.398860 0.170742 0 200 255
0.449938 0.299337 0.201217 0 200 255
0.442932 0.354483 0.163930 0 200 255
0.475029 0.349129 0.216948 0 200 255
0.465555 0.342962 0.222366 0 200 255
0.445628 0.362668 0.134561 0 200 255
0.425153 0.325202 0.217466 0 200 255
0.500201 0.271534 0.235415 0 200 255
0.482216 0.374044 0.222035 0 200 255
0.498756 0.245809 0.236913 0 200 255
0.448812 0.317499 0.213637 0 200 255
0.450586 0.266245 0.197527 0 200 255
0.374398 0.371114 0.206896 0 200 255
0.493393 0.300542 0.237630 0 200 255
0.390067 0.345652 0.216550 0 200 255
0.449082 0.352318 0.174424 0 200 255
0.365571 0.248000 0.190183 0 200 255
0.434413 0.250714 0.194873 0 200 255
0.415639 0.255947 0.174341 0 200 255
0.489461 0.374120 0.195161 0 200 255
0.488728 0.260792 0.199906 0 200 255
0.499326 0.275335 0.196215 0 200 255
0.416940 0.332149 0.222306 0 200 255
0.458626 0.338206 0.210343 0 200 255
0.396461 0.250890 0.178449 0 200 255
0.363260 0.370307 0.217596 0 200 255
0.484249 0.285267 0.197737 0 200 255
0.451855 0.411122 0.199718 0 200 255
0.469484 0.335858 0.207665 0 200 255
0.469844 0.331924 0.241270 0 200 255
0.388493 0.362325 0.233448 0 200 255
0.371667 0.238842 0.184289 0 200 255
0.444355 0.339606 0.192894 0 200 255
0.374402 0.368852 0.222932 0 200 255
0.390522 0.248406 0.191713 0 200 255
0.448896 0.353658 0.200787 0 200 255
0.455654 0.373448 0.222657 0 200 255
0.413875 0.235584 0.179401 0 200 255
0.440094 0.324294 0.210931 0 200 255
0.459324 0.387665 0.195880 0 200 255
0.520266 0.284121 0.211021 0 200 255
0.484100 0.287135 0.238654 0 200 255
0.475678 0.388031 0.182456 0 200 255
0.470638 0.403606 0.196484 0 200 255
0.478246 0.392108 0.170963 0 200 255
0.478310 0.251064 0.211637 0 200 255
0.434832 0.261934 0.204458 0 200 255
0.449555 0.257369 0.212162 0 200 255
0.447406 0.383352 0.212078 0 200 255
0.446313 0.281206 0.195304 0 200 255
0.474043 0.334995 0.228268 0 200 255
0.489388 0.293734 0.232598 0 200 255
0.408090 0.330130 0.216664 0 200 255
0.381723 0.244423 0.199598 0 200 255
0.455349 0.355543 0.165781 0 200 255
0.446153 0.356914 0.187939 0 200 255
0.453437 0.270138 0.205843 0 200 255
0.511279 0.272354 0.194511 0 200 255
0.402871 0.345714 0.227073 0 200 255
0.417846 0.238985 0.200976 0 200 255
0.479431 0.233397 0.216747 0 200 255
0.467704 0.376008 0.209206 0 200 255
0.487862 0.340162 0.219725 0 200 255
0.467887 0.249405 0.222666 0 200 255
0.433528 0.318980 0.206544 0 200 255
0.386123 0.369417 0.224295 0 200 255
0.444931 0.427512 0.180589 0 200 255
0.379012 0.245179 0.167391 0 200 255
0.432738 0.309243 0.213218 0 200 255
0.471704 0.242190 0.211375 0 200 255
0.496721 0.297029 0.198799 0 200 255
0.367249 0.231880 0.168573 0 200 255
0.468317 0.354061 0.211996 0 200 255
0.460029 0.257835 0.198195 0 200 255
0.369537 0.244684 0.171152 0 200 255
0.446582 0.394864 0.210663 0 200 255
0.447838 0.368120 0.168424 0 200 255
0.485259 0.341731 0.233527 0 200 255
0.428747 0.333519 0.216624 0 200 255
0.341885 0.257156 0.175460 0 200 255
0.378477 0.227868 0.193606 0 200 255
0.454477 0.360456 0.146995 0 200 255
0.360258 0.389350 0.206187 0 200 255
0.497334 0.257755 0.190374 0 200 255
0.504468 0.318053 0.238743 0 200 255
0.414310 0.340706 0.208408 0 200 255
0.423791 0.229920 0.192733 0 200 255
0.458766 0.277875 0.235318 0 200 255
0.347179 0.257318 0.168179 0 200 255
0.453985 0.381766 0.219220 0 200 255
0.438173 0.406042 0.181551 0 200 255
0.361962 0.258481 0.179909 0 200 255
0.499668 0.325643 0.198948 0 200 255
0.456340 0.343434 0.225846 0 200 255
0.455096 0.364385 0.214756 0 200 255
0.422444 0.237555 0.181065 0 200 255
0.468151 0.408314 0.165818 0 200 255
0.493068 0.263607 0.237071 0 200 255
0.394631 0.242319 0.202839 0 200 255
0.480141 0.253060 0.194109 0 200 255
0.433174 0.319359 0.218278 0 200 255
0.430800 0.254987 0.184236 0 200 255
0.471283 0.249818 0.202225 0 200 255
0.452969 0.413163 0.184473 0 200 255
0.362020 0.240351 0.167688 0 200 255
0.438632 0.353941 0.180191 0 200 255
0.450483 0.412022 0.174410 0 200 255
0.423590 0.323036 0.227595 0 200 255
0.432041 0.303584 0.202147 0 200 255
0.477314 0.405479 0.188201 0 200 255
0.391654 0.355033 0.228035 0 200 255
0.409810 0.338317 0.226317 0 200 255
0.359233 0.241410 0.186787 0 200 255
0.444769 0.341203 0.215070 0 200 255
0.433009 0.309078 0.236354 0 200 255
0.473067 0.373968 0.202519 0 200 255
0.439880 0.270490 0.213580 0 200 255
0.474589 0.258587 0.209018 0 200 255
0.453686 0.320487 0.199224 0 200 255
0.462078 0.269867 0.207411 0 200 255
0.376274 0.226553 0.184717 0 200 255
0.495547 0.347479 0.208211 0 200 255
0.416869 0.258408 0.195240 0 200 255
0.466517 0.282271 0.197822 0 200 255
0.409034 0.231517 0.170833 0 200 255
0.438373 0.356928 0.191913 0 200 255
0.463488 0.320926 0.216898 0 200 255
0.448173 0.365430 0.142425 0 200 255
0.501390 0.338566 0.202105 0 200 255
0.491772 0.249781 0.194273 0 200 255
0.493361 0.366601 0.209480 0 200 255
0.413924 0.339116 0.233901 0 200 255
0.445264 0.392693 0.196147 0 200 255
0.515282 0.318610 0.205642 0 200 255
0.434567 0.286089 0.205117 0 200 255
0.456723 0.393719 0.190271 0 200 255
0.466137 0.402017 0.178407 0 200 255
0.397427 0.344151 0.233600 0 200 255
0.478751 0.287821 0.231903 0 200 255
0.441196 0.301783 0.236513 0 200 255
0.472554 0.386662 0.211664 0 200 255
0.444485 0.309454 0.202525 0 200 255
0.476289 0.325944 0.220134 0 200 255
0.509641 0.340658 0.211473 0 200 255
0.483890 0.357765 0.214336 0 200 255
0.397479 0.232763 0.192868 0 200 255
0.411189 0.237513 0.208471 0 200 255
0.438407 0.321731 0.239503 0 200 255
0.495724 0.335872 0.221979 0 200 255
0.447133 0.355894 0.215391 0 200 255
0.504072 0.292318 0.194387 0 200 255
0.511688 0.246916 0.224104 0 200 255
0.452600 0.341155 0.218427 0 200 255
0.515174 0.327151 0.228264 0 200 255
0.490760 0.333555 0.200461 0 200 255
0.490004 0.323848 0.238644 0 200 255
0.465922 0.391889 0.187409 0 200 255
0.380045 0.365054 0.212139 0 200 255
0.417827 0.331309 0.213902 0 200 255
0.451066 0.374497 0.205510 0 200 255
0.398646 0.230831 0.183184 0 200 255
0.449055 0.350061 0.157726 0 200 255
0.509711 0.260361 0.217459 0 200 255
0.402065 0.336578 0.229804 0 200 255
0.486660 0.382113 0.210895 0 200 255
0.477719 0.268118 0.212077 0 200 255
0.388535 0.350640 0.209692 0 200 255
0.505573 0.255610 0.233648 0 200 255
0.408249 0.251251 0.206636 0 200 255
0.448725 0.319208 0.229898 0 200 255
0.453700 0.393498 0.199087 0 200 255
0.450468 0.297562 0.233867 0 200 255
0.450270 0.326310 0.235320 0 200 255
0.432971 0.239251 0.183478 0 200 255
0.470406 0.389639 0.172673 0 200 255
0.350400 0.254455 0.188541 0 200 255
0.424375 0.238912 0.172367 0 200 255
0.473291 0.279303 0.231047 0 200 255
0.523147 0.294614 0.203446 0 200 255
0.458114 0.254758 0.227741 0 200 255
0.484465 0.278188 0.239593 0 200 255
0.420869 0.318716 0.221029 0 200 255
0.358035 0.246028 0.172264 0 200 255
0.442240 0.364201 0.148110 0 200 255
0.442373 0.247917 0.179203 0 200 255
0.501971 0.241174 0.230815 0 200 255
0.495653 0.343694 0.229066 0 200 255
0.425981 0.239827 0.195063 0 200 255
0.492327 0.368550 0.220854 0 200 255
0.343203 0.244262 0.183039 0 200 255
0.476823 0.354255 0.210676 0 200 255
0.445794 0.258778 0.202605 0 200 255
0.433631 0.250668 0.209550 0 200 255
0.402706 0.233806 0.206446 0 200 255
0.483841 0.391320 0.187532 0 200 255
0.372490 0.247726 0.183462 0 200 255
0.479754 0.317982 0.237696 0 200 255
0.404091 0.354766 0.216359 0 200 255
0.510013 0.323146 0.235389 0 200 255
0.481169 0.333546 0.241468 0 200 255
0.444495 0.346141 0.163466 0 200 255
0.509812 0.259105 0.206405 0 200 255
0.507556 0.289627 0.231409 0 200 255
0.442522 0.313070 0.220053 0 200 255
0.368976 0.375334 0.227266 0 200 255
0.516575 0.307105 0.233330 0 200 255
0.504322 0.345134 0.233905 0 200 255
0.462557 0.247459 0.213300 0 200 255
0.482563 0.392799 0.202108 0 200 255
0.487339 0.361492 0.198676 0 200 255
0.395607 0.236913 0.169036 0 200 255
0.451087 0.342705 0.175024 0 200 255
0.345070 0.249719 0.176032 0 200 255
0.451393 0.312565 0.240804 0 200 255
0.444036 0.349744 0.206082 0 200 255
0.491083 0.260262 0.211747 0 200 255
0.456453 0.402085 0.204491 0 200 255
0.460166 0.408378 0.164800 0 200 255
0.435261 0.310827 0.227582 0 200 255
0.461568 0.351300 0.206619 0 200 255
0.478027 0.367012 0.222270 0 200 255
0.375694 0.357679 0.215721 0 200 255
0.387428 0.248727 0.175984 0 200 255
0.383446 0.245252 0.189727 0 200 255
0.461421 0.407377 0.155328 0 200 255
0.491643 0.241494 0.193671 0 200 255
0.476930 0.346521 0.226104 0 200 255
0.425341 0.334947 0.229640 0 200 255
0.441606 0.348006 0.147687 0 200 255
0.491830 0.289416 0.239123 0 200 255
0.444514 0.357956 0.155449 0 200 255
0.490749 0.373034 0.205579 0 200 255
0.452569 0.338582 0.204735 0 200 255
0.515275 0.317991 0.216577 0 200 255
0.459005 0.359859 0.200158 0 200 255
0.438388 0.252291 0.201571 0 200 255
0.443197 0.397184 0.203350 0 200 255
0.388079 0.237996 0.201724 0 200 255
0.384571 0.236585 0.180396 0 200 255
0.470403 0.380621 0.196938 0 200 255
0.465450 0.401310 0.152228 0 200 255
0.455300 0.251454 0.212058 0 200 255
0.389551 0.363040 0.212258 0 200 255
0.473682 0.401493 0.182414 0 200 255
0.468765 0.395962 0.157077 0 200 255
0.482050 0.375700 0.211186 0 200 255
0.360925 0.377664 0.208958 0 200 255
0.403600 0.349964 0.233679 0 200 255
0.448368 0.325494 0.214446 0 200 255
0.378273 0.238758 0.194896 0 200 255
0.498622 0.264755 0.201741 0 200 255
0.469870 0.269521 0.206010 0 200 255
0.441871 0.305590 0.228322 0 200 255
0.467182 0.388190 0.196535 0 200 255
0.469105 0.257528 0.199014 0 200 255
0.394614 0.253788 0.195700 0 200 255
0.449188 0.421596 0.186067 0 200 255
0.476839 0.238409 0.198823 0 200 255
0.456342 0.341747 0.181913 0 200 255
0.512386 0.280342 0.206131 0 200 255
0.453856 0.409756 0.192205 0 200 255
0.488675 0.340516 0.240442 0 200 255
0.507754 0.267692 0.209132 0 200 255
0.402358 0.348553 0.208197 0 200 255
0.436080 0.310224 0.202820 0 200 255
0.522281 0.301449 0.216042 0 200 255
0.485431 0.326730 0.205545 0 200 255
0.498435 0.354357 0.210433 0 200 255
0.496036 0.279155 0.238145 0 200 255
0.400754 0.338561 0.208312 0 200 255
0.459689 0.353515 0.214026 0 200 255
0.452714 0.272408 0.232407 0 200 255
0.480652 0.398351 0.189226 0 200 255
0.464713 0.288085 0.239544 0 200 255
0.488963 0.267174 0.195521 0 200 255
0.459262 0.376889 0.214219 0 200 255
0.456546 0.351532 0.199143 0 200 255
0.415125 0.256729 0.182020 0 200 255
0.441896 0.277977 0.211537 0 200 255
0.505843 0.316652 0.203826 0 200 255
0.500082 0.250857 0.231030 0 200 255
0.466383 0.312292 0.237862 0 200 255
0.474099 0.262949 0.235454 0 200 255
0.481194 0.314305 0.204206 0 200 255
0.507077 0.247878 0.194931 0 200 255
0.424641 0.240759 0.204065 0 200 255
0.505121 0.337172 0.236808 0 200 255
0.471307 0.313919 0.204402 0 200 255
0.450053 0.350086 0.145675 0 200 255
0.444362 0.358996 0.179674 0 200 255
0.438908 0.403527 0.188745 0 200 255
0.371187 0.383469 0.216456 0 200 255
0.461194 0.306667 0.197244 0 200 255
0.480768 0.399229 0.173366 0 200 255
0.429952 0.297044 0.224204 0 200 255
0.415357 0.344914 0.217992 0 200 255
0.474966 0.239336 0.223448 0 200 255
0.466722 0.327282 0.200567 0 200 255
0.477999 0.406197 0.170039 0 200 255
0.471112 0.415133 0.163184 0 200 255
0.497970 0.349635 0.224249 0 200 255
0.479093 0.270174 0.196259 0 200 255
0.410635 0.332236 0.233405 0 200 255
0.468834 0.359262 0.222433 0 200 255
0.452464 0.346162 0.127729 0 200 255
0.354143 0.240198 0.192346 0 200 255
0.376438 0.361253 0.231544 0 200 255
0.518450 0.314521 0.230336 0 200 255
0.476822 0.397236 0.204335 0 200 255
0.437228 0.358187 0.160282 0 200 255
0.411503 0.235556 0.187571 0 200 255
0.351101 0.239379 0.174731 0 200 255
0.360277 0.249606 0.184322 0 200 255
0.498100 0.320844 0.204552 0 200 255
0.513307 0.305721 0.197291 0 200 255
0.371035 0.237030 0.173665 0 200 255
0.440529 0.319198 0.203753 0 200 255
0.458247 0.392309 0.214056 0 200 255
0.476480 0.366020 0.199732 0 200 255
0.395276 0.348478 0.227375 0 200 255
0.449919 0.400039 0.188164 0 200 255
0.398170 0.357266 0.231464 0 200 255
0.467833 0.375396 0.216871 0 200 255
0.455158 0.381950 0.193407 0 200 255
0.454852 0.382630 0.211644 0 200 255
0.435004 0.327728 0.220890 0 200 255
0.516114 0.327817 0.220866 0 200 255
0.373381 0.232106 0.197643 0 200 255
0.486205 0.347878 0.208563 0 200 255
0.446723 0.384510 0.196569 0 200 255
0.450653 0.362605 0.191299 0 200 255
0.441046 0.358823 0.201413 0 200 255
0.425811 0.251860 0.189819 0 200 255
0.459160 0.323999 0.241176 0 200 255
0.410858 0.346007 0.231505 0 200 255
0.435988 0.295169 0.236259 0 200 255
0.451612 0.331423 0.207448 0 200 255
0.368093 0.365205 0.220051 0 200 255
0.455791 0.354609 0.127893 0 200 255
0.417748 0.230384 0.197046 0 200 255
0.473772 0.386269 0.203340 0 200 255
0.472420 0.288307 0.238850 0 200 255
0.489256 0.357932 0.222978 0 200 255
0.491448 0.333304 0.212762 0 200 255
0.458908 0.344253 0.215891 0 200 255
0.477158 0.269921 0.203979 0 200 255
0.354298 0.251829 0.165943 0 200 255
0.445806 0.248865 0.212146 0 200 255
0.397649 0.359952 0.220123 0 200 255
0.461987 0.354371 0.229335 0 200 255
0.409628 0.250541 0.169963 0 200 255
0.473689 0.401334 0.160319 0 200 255
0.436498 0.415553 0.172452 0 200 255
0.356381 0.236798 0.179326 0 200 255
0.386039 0.233659 0.194135 0 200 255
0.420272 0.234678 0.207866 0 200 255
0.395483 0.228262 0.198625 0 200 255
0.380414 0.375192 0.220344 0 200 255
0.447014 0.260154 0.195365 0 200 255
0.491174 0.291548 0.194874 0 200 255
0.475946 0.366677 0.213835 0 200 255
0.422122 0.251121 0.206704 0 200 255
0.515990 0.257730 0.202646 0 200 255
0.464784 0.373649 0.223420 0 200 255
0.433993 0.281729 0.219483 0 200 255
0.436942 0.236162 0.194883 0 200 255
0.429886 0.311078 0.219732 0 200 255
0.374062 0.251347 0.169466 0 200 255
0.510034 0.335773 0.227766 0 200 255
0.356898 0.245670 0.162921 0 200 255
0.413138 0.226083 0.184636 0 200 255
0.363366 0.381419 0.219474 0 200 255
0.377499 0.231639 0.179370 0 200 255
0.480775 0.341107 0.214575 0 200 255
0.382670 0.227231 0.169537 0 200 255
0.443304 0.415819 0.192020 0 200 255
0.475347 0.326834 0.239397 0 200 255
0.439567 0.354327 0.134344 0 200 255
0.451074 0.360604 0.200085 0 200 255
0.444548 0.361811 0.171747 0 200 255
0.470570 0.248190 0.215917 0 200 255
0.452182 0.399472 0.209845 0 200 255
0.453785 0.407433 0.179284 0 200 255
0.446796 0.335031 0.225343 0 200 255
0.475790 0.379437 0.187159 0 200 255
0.358978 0.391224 0.214203 0 200 255
0.465601 0.339410 0.215034 0 200 255
0.491324 0.351101 0.218352 0 200 255
0.404388 0.255647 0.190748 0 200 255
0.441465 0.346376 0.194567 0 200 255
0.458130 0.265980 0.233717 0 200 255
0.420258 0.319945 0.213632 0 200 255
0.377977 0.242077 0.185806 0 200 255
0.444244 0.351274 0.124208 0 200 255
0.369410 0.370933 0.213821 0 200 255
0.468090 0.409593 0.178382 0 200 255
0.415756 0.228123 0.175085 0 200 255
0.439629 0.240767 0.204005 0 200 255
0.471034 0.324344 0.215174 0 200 255
0.485794 0.251610 0.206473 0 200 255
0.483908 0.386442 0.205814 0 200 255
0.453777 0.361408 0.155859 0 200 255
0.486781 0.317839 0.240990 0 200 255
0.353291 0.381686 0.221132 0 200 255
0.472345 0.394826 0.180036 0 200 255
0.504826 0.301166 0.235269 0 200 255
0.426714 0.239258 0.187925 0 200 255
0.464363 0.299390 0.199863 0 200 255
0.358687 0.245645 0.193537 0 200 255
0.449001 0.349830 0.212011 0 200 255
0.424992 0.336230 0.222104 0 200 255
0.505219 0.348652 0.213211 0 200 255
0.516193 0.255456 0.214674 0 200 255
0.476525 0.406868 0.154538 0 200 255
0.477968 0.299216 0.239404 0 200 255
0.427211 0.306115 0.230461 0 200 255
0.423495 0.333862 0.210394 0 200 255
0.430750 0.240290 0.176042 0 200 255
0.435199 0.298265 0.198593 0 200 255
0.345779 0.247743 0.168840 0 200 255
0.450025 0.348716 0.134390 0 200 255
0.512364 0.325267 0.206131 0 200 255
0.418327 0.254186 0.189700 0 200 255
0.436606 0.243609 0.194776 0 200 255
0.475228 0.326583 0.199999 0 200 255
0.443872 0.253025 0.196458 0 200 255
0.486913 0.382783 0.194621 0 200 255
0.456162 0.348043 0.151337 0 200 255
0.455860 0.354179 0.173486 0 200 255
0.379104 0.356169 0.226043 0 200 255
0.444173 0.415506 0.174548 0 200 255
0.444139 0.364972 0.158341 0 200 255
0.501267 0.286163 0.232847 0 200 255
0.451677 0.389445 0.208920 0 200 255
0.429808 0.299904 0.216532 0 200 255
0.488348 0.318015 0.204462 0 200 255
0.506048 0.255435 0.191604 0 200 255
0.386978 0.237958 0.187087 0 200 255
0.375199 0.378040 0.208019 0 200 255
0.520464 0.292001 0.221803 0 200 255
0.422516 0.232853 0.175471 0 200 255
0.403102 0.232762 0.174436 0 200 255
0.446994 0.403374 0.197534 0 200 255
0.454051 0.367237 0.208401 0 200 255
0.439578 0.351414 0.170585 0 200 255
0.419667 0.259401 0.201779 0 200 255
0.513801 0.266779 0.216470 0 200 255
0.391192 0.227455 0.175718 0 200 255
0.461758 0.288768 0.198693 0 200 255
0.470622 0.277651 0.238883 0 200 255
0.470378 0.318675 0.199347 0 200 255
0.397485 0.248862 0.201959 0 200 255
0.376381 0.236823 0.166808 0 200 255
0.364298 0.388240 0.221036 0 200 255
0.457928 0.359808 0.219538 0 200 255
0.435726 0.423766 0.183359 0 200 255
0.473099 0.317168 0.235791 0 200 255
0.425468 0.231636 0.186017 0 200 255
0.445543 0.358577 0.141278 0 200 255
0.443676 0.365435 0.187401 0 200 255
0.438951 0.354421 0.147394 0 200 255
0.499964 0.312279 0.200491 0 200 255
0.425660 0.318511 0.207644 0 200 255
0.410291 0.349418 0.216485 0 200 255
0.473265 0.253211 0.195055 0 200 255
0.463253 0.381809 0.194307 0 200 255
0.449323 0.330269 0.240941 0 200 255
0.478687 0.320716 0.205011 0 200 255
0.437928 0.364400 0.169440 0 200 255
0.483938 0.352161 0.222027 0 200 255
0.440983 0.269016 0.222096 0 200 255
0.468711 0.405868 0.172257 0 200 255
0.496758 0.296823 0.232877 0 200 255
0.457788 0.251303 0.198186 0 200 255
0.453647 0.359580 0.179173 0 200 255
0.427429 0.312600 0.234342 0 200 255
0.479163 0.372333 0.190287 0 200 255
0.479779 0.238804 0.206879 0 200 255
0.412916 0.245135 0.206919 0 200 255
0.352473 0.390911 0.217000 0 200 255
0.368197 0.243886 0.195032 0 200 255
0.485388 0.240009 0.197984 0 200 255
0.457346 0.353148 0.138563 0 200 255
0.488283 0.367361 0.195126 0 200 255
0.459392 0.385929 0.218603 0 200 255
0.403845 0.250055 0.186837 0 200 255
0.406119 0.226981 0.192783 0 200 255
0.479656 0.303399 0.199955 0 200 255
0.379842 0.371854 0.214402 0 200 255
0.463118 0.398361 0.187137 0 200 255
0.516830 0.255163 0.223402 0 200 255
0.489374 0.337034 0.230814 0 200 255
0.460586 0.271420 0.230442 0 200 255
0.453390 0.264406 0.212821 0 200 255
0.456890 0.337928 0.194965 0 200 255
0.458290 0.266078 0.203055 0 200 255
0.428733 0.248746 0.177667 0 200 255
0.434580 0.417588 0.186730 0 200 255
0.448122 0.357816 0.122520 0 200 255
0.516031 0.290908 0.203762 0 200 255
0.388818 0.355882 0.235544 0 200 255
0.514349 0.268419 0.203764 0 200 255
0.451093 0.357678 0.208977 0 200 255
0.391266 0.251334 0.185659 0 200 255
0.465435 0.394795 0.164878 0 200 255
0.445432 0.318176 0.223655 0 200 255
0.368447 0.230599 0.184666 0 200 255
0.512396 0.279091 0.197160 0 200 255
0.467357 0.373912 0.196821 0 200 255
0.395456 0.224799 0.184610 0 200 255
0.453531 0.372388 0.195540 0 200 255
0.422048 0.330076 0.226325 0 200 255
0.442476 0.277199 0.230096 0 200 255
0.496374 0.306446 0.238980 0 200 255
0.477080 0.352983 0.222089 0 200 255
0.466178 0.331469 0.222059 0 200 255
0.466537 0.274488 0.202256 0 200 255
0.447376 0.306873 0.197019 0 200 255
0.499589 0.264556 0.233859 0 200 255
0.394962 0.243596 0.169295 0 200 255
0.364673 0.239441 0.190200 0 200 255
0.469873 0.381904 0.206844 0 200 255
0.444570 0.344771 0.136402 0 200 255
0.367422 0.248133 0.177246 0 200 255
0.460732 0.393137 0.200526 0 200 255
0.445774 0.286293 0.199803 0 200 255
0.510456 0.277616 0.232148 0 200 255
0.482245 0.245801 0.233192 0 200 255
0.445133 0.353946 0.195270 0 200 255
0.476725 0.384658 0.192646 0 200 255
0.461658 0.317103 0.241291 0 200 255
0.438561 0.236566 0.188420 0 200 255
0.446125 0.293892 0.200677 0 200 255
0.474161 0.358870 0.227328 0 200 255
0.505153 0.342659 0.222019 0 200 255
0.442614 0.426060 0.174231 0 200 255
0.445982 0.408305 0.180431 0 200 255
0.442401 0.316432 0.236114 0 200 255
0.518563 0.288599 0.196422 0 200 255
0.410770 0.227657 0.198942 0 200 255
0.374716 0.380113 0.220975 0 200 255
0.490497 0.363966 0.215265 0 200 255
0.445851 0.335160 0.208249 0 200 255
0.374696 0.228641 0.173739 0 200 255
0.473693 0.357854 0.205813 0 200 255
0.447364 0.336461 0.187233 0 200 255
0.518164 0.271170 0.209059 0 200 255
0.367146 0.245646 0.164584 0 200 255
0.394540 0.353400 0.209352 0 200 255
0.490776 0.254511 0.200239 0 200 255
0.477589 0.406092 0.176637 0 200 255
0.382031 0.352672 0.214657 0 200 255
0.516315 0.249704 0.211458 0 200 255
0.429844 0.236628 0.206454 0 200 255
0.389931 0.364080 0.218754 0 200 255
0.402059 0.225465 0.181002 0 200 255
0.498746 0.258699 0.230965 0 200 255
0.367067 0.376178 0.220959 0 200 255
0.404272 0.332984 0.221207 0 200 255
0.445327 0.244053 0.203679 0 200 255
0.499156 0.245001 0.191128 0 200 255
0.477738 0.275959 0.193449 0 200 255
0.456118 0.346840 0.140325 0 200 255
0.471881 0.265096 0.196200 0 200 255
0.512595 0.262378 0.223244 0 200 255
0.365359 0.234283 0.195578 0 200 255
0.474500 0.346592 0.208623 0 200 255
0.360107 0.371581 0.211984 0 200 255
0.360606 0.382030 0.203744 0 200 255
0.435385 0.284856 0.225078 0 200 255
0.367340 0.375874 0.209675 0 200 255
0.459298 0.344462 0.206113 0 200 255
0.405363 0.245545 0.168151 0 200 255
0.355607 0.259519 0.178690 0 200 255
0.479980 0.360925 0.218698 0 200 255
0.502014 0.305326 0.199633 0 200 255
0.406479 0.234362 0.181970 0 200 255
0.425361 0.318202 0.231671 0 200 255
0.472601 0.393072 0.208792 0 200 255
0.457183 0.289507 0.237287 0 200 255
0.396585 0.239159 0.185467 0 200 255
0.474387 0.380478 0.213703 0 200 255
0.428225 0.232409 0.196988 0 200 255
0.503083 0.277292 0.236476 0 200 255
0.436740 0.276231 0.217330 0 200 255
0.429165 0.313026 0.207829 0 200 255
0.462157 0.369778 0.196714 0 200 255
0.375736 0.367263 0.216540 0 200 255
0.465722 0.331001 0.230691 0 200 255
0.384015 0.361951 0.228747 0 200 255
0.494033 0.363934 0.225102 0 200 255
0.448703 0.248285 0.199452 0 200 255
0.362454 0.250769 0.171904 0 200 255
0.478191 0.361303 0.210971 0 200 255
0.355233 0.235931 0.186151 0 200 255
0.364204 0.238250 0.174201 0 200 255
0.472884 0.397890 0.198544 0 200 255
0.455180 0.365429 0.221209 0 200 255
0.389838 0.345235 0.223007 0 200 255
0.467253 0.300399 0.240955 0 200 255
0.485790 0.378045 0.217887 0 200 255
0.462666 0.405617 0.182509 0 200 255
0.409869 0.257345 0.205201 0 200 255
0.482178 0.304308 0.240805 0 200 255
0.478037 0.290913 0.240692 0 200 255
0.477132 0.239424 0.213524 0 200 255
0.450774 0.365294 0.177347 0 200 255
0.468248 0.396829 0.174258 0 200 255
0.464434 0.262081 0.196153 0 200 255
0.454879 0.283224 0.233710 0 200 255
