ply
format ascii 1.0
element vertex 1024
property float x
property float y
property float z
property uchar red
property uchar green
property uchar blue
end_header
0.470876 0.231183 0.249907 0 200 255
0.321243 0.327450 0.173685 0 200 255
0.348949 0.186691 0.187418 0 200 255
0.434152 0.349845 0.225933 0 200 255
0.371823 0.282102 0.237784 0 200 255
0.401985 0.328809 0.149270 0 200 255
0.418221 0.224823 0.189887 0 200 255
0.479788 0.292605 0.216677 0 200 255
0.433329 0.283107 0.257857 0 200 255
0.386530 0.327309 0.204012 0 200 255
0.417019 0.375248 0.177707 0 200 255
0.418374 0.233952 0.243444 0 200 255
0.435887 0.266422 0.211464 0 200 255
0.475719 0.228668 0.201506 0 200 255
0.390826 0.190741 0.211588 0 200 255
0.349669 0.298005 0.197723 0 200 255
0.457529 0.320967 0.252073 0 200 255
0.408410 0.313201 0.238854 0 200 255
0.380229 0.213338 0.176796 0 200 255
0.441728 0.304802 0.217347 0 200 255
0.470998 0.276814 0.250703 0 200 255
0.489925 0.256119 0.223770 0 200 255
0.321467 0.209344 0.174252 0 200 255
0.399863 0.255851 0.217106 0 200 255
0.400456 0.265835 0.254156 0 200 255
0.416285 0.336837 0.182184 0 200 255
0.441608 0.217970 0.220260 0 200 255
0.445859 0.252603 0.253349 0 200 255
0.408356 0.360219 0.205856 0 200 255
0.409609 0.286992 0.217480 0 200 255
0.401743 0.220733 0.218740 0 200 255
0.382772 0.332465 0.173193 0 200 255
0.377276 0.297853 0.211395 0 200 255
0.415415 0.318386 0.209276 0 200 255
0.406571 0.196854 0.186137 0 200 255
0.465836 0.267533 0.209811 0 200 255
0.364486 0.204550 0.204973 0 200 255
0.352349 0.300887 0.226864 0 200 255
0.335420 0.322227 0.198935 0 200 255
0.379747 0.183908 0.186900 0 200 255
0.349286 0.213174 0.178625 0 200 255
0.451592 0.243981 0.210713 0 200 255
0.434045 0.325325 0.237976 0 200 255
0.408674 0.338617 0.226184 0 200 255
0.407900 0.292682 0.257759 0 200 255
0.444888 0.224665 0.246306 0 200 255
0.476156 0.300258 0.241263 0 200 255
0.493756 0.232124 0.232046 0 200 255
0.440315 0.271687 0.236086 0 200 255
0.412600 0.349518 0.159639 0 200 255
0.432112 0.309600 0.257314 0 200 255
0.417239 0.204441 0.208223 0 200 255
0.427740 0.241396 0.216988 0 200 255
0.481205 0.254394 0.248261 0 200 255
0.466091 0.209554 0.238941 0 200 255
0.339581 0.311252 0.176774 0 200 255
0.365182 0.193880 0.169760 0 200 255
0.457121 0.322293 0.225211 0 200 255
0.469627 0.231500 0.225354 0 200 255
0.398003 0.316967 0.184963 0 200 255
0.432166 0.352027 0.201635 0 200 255
0.395537 0.286983 0.237200 0 200 255
0.395702 0.348268 0.187810 0 200 255
0.427351 0.296064 0.238147 0 200 255
0.393371 0.219695 0.196359 0 200 255
0.333311 0.204769 0.194281 0 200 255
0.488793 0.280429 0.235451 0 200 255
0.456710 0.298070 0.257284 0 200 255
0.391964 0.313252 0.222546 0 200 255
0.423722 0.258735 0.251707 0 200 255
0.340013 0.195322 0.167482 0 200 255
0.460506 0.211960 0.208755 0 200 255
0.457473 0.288270 0.213447 0 200 255
0.434390 0.328089 0.215727 0 200 255
0.407902 0.338411 0.203615 0 200 255
0.388739 0.266824 0.235875 0 200 255
0.447388 0.306624 0.240156 0 200 255
0.382771 0.211728 0.212702 0 200 255
0.424668 0.355728 0.179852 0 200 255
0.444511 0.237554 0.230205 0 200 255
0.400872 0.305188 0.203270 0 200 255
0.421779 0.222240 0.223214 0 200 255
0.349029 0.314908 0.211935 0 200 255
0.395642 0.317842 0.164937 0 200 255
0.473390 0.248860 0.210176 0 200 255
0.433247 0.284017 0.220771 0 200 255
0.485292 0.271539 0.212197 0 200 255
0.371800 0.300749 0.231169 0 200 255
0.491452 0.235123 0.211353 0 200 255
0.422907 0.368329 0.195482 0 200 255
0.417886 0.368413 0.159408 0 200 255
0.400902 0.250423 0.242136 0 200 255
0.390685 0.196804 0.174800 0 200 255
0.452733 0.272835 0.255830 0 200 255
0.360909 0.184875 0.202280 0 200 255
0.423309 0.363085 0.217366 0 200 255
0.415141 0.331074 0.163684 0 200 255
0.391713 0.273064 0.217192 0 200 255
0.400080 0.339880 0.171350 0 200 255
0.416150 0.281377 0.241900 0 200 255
0.409295 0.305560 0.221637 0 200 255
0.323588 0.314130 0.186754 0 200 255
0.419175 0.258102 0.210110 0 200 255
0.384574 0.333445 0.154002 0 200 255
0.364027 0.204587 0.186452 0 200 255
0.360026 0.291123 0.211385 0 200 255
0.471217 0.309755 0.226318 0 200 255
0.402615 0.215129 0.181268 0 200 255
0.409193 0.241840 0.224025 0 200 255
0.406709 0.363094 0.186489 0 200 255
0.427350 0.311664 0.225872 0 200 255
0.390490 0.197218 0.194850 0 200 255
0.462536 0.260024 0.248346 0 200 255
0.374141 0.282662 0.219957 0 200 255
0.487271 0.224879 0.247664 0 200 255
0.421683 0.341245 0.214194 0 200 255
0.435329 0.239293 0.247624 0 200 255
0.416590 0.330049 0.239204 0 200 255
0.350762 0.316183 0.193157 0 200 255
0.415184 0.223917 0.207204 0 200 255
0.422624 0.208069 0.190791 0 200 255
0.364334 0.307772 0.205629 0 200 255
0.400163 0.326675 0.214582 0 200 255
0.348664 0.197174 0.201014 0 200 255
0.379137 0.210003 0.193933 0 200 255
0.444712 0.334203 0.228040 0 200 255
0.332295 0.192413 0.182641 0 200 255
0.392543 0.280848 0.255004 0 200 255
0.403428 0.272644 0.229908 0 200 255
0.376049 0.192246 0.203860 0 200 255
0.431650 0.220729 0.236872 0 200 255
0.405646 0.193515 0.203165 0 200 255
0.454723 0.227234 0.212138 0 200 255
0.336062 0.306643 0.205575 0 200 255
0.400159 0.204558 0.215383 0 200 255
0.479452 0.241032 0.234734 0 200 255
0.431649 0.341753 0.240193 0 200 255
0.417327 0.352235 0.194307 0 200 255
0.395608 0.332034 0.191383 0 200 255
0.439384 0.232538 0.210059 0 200 255
0.452926 0.221367 0.231226 0 200 255
0.334558 0.325987 0.183315 0 200 255
0.428977 0.215733 0.208301 0 200 255
0.421990 0.330963 0.201553 0 200 255
0.407022 0.364783 0.170534 0 200 255
0.414276 0.276062 0.256831 0 200 255
0.456959 0.238337 0.252350 0 200 255
0.410072 0.322359 0.226193 0 200 255
0.440115 0.341707 0.210370 0 200 255
0.450690 0.261421 0.210338 0 200 255
0.411797 0.271648 0.212785 0 200 255
0.364080 0.183844 0.184620 0 200 255
0.382067 0.293405 0.241675 0 200 255
0.409891 0.350738 0.176294 0 200 255
0.489466 0.265499 0.241456 0 200 255
0.459538 0.207197 0.225268 0 200 255
0.463700 0.317666 0.238482 0 200 255
0.383765 0.293783 0.224736 0 200 255
0.441542 0.317215 0.226327 0 200 255
0.408242 0.320242 0.195756 0 200 255
0.449059 0.326001 0.240396 0 200 255
0.408403 0.210308 0.197323 0 200 255
0.421785 0.316800 0.245107 0 200 255
0.422289 0.295318 0.217551 0 200 255
0.401316 0.300522 0.233606 0 200 255
0.456827 0.304032 0.216539 0 200 255
0.361318 0.288393 0.228977 0 200 255
0.420950 0.301726 0.250562 0 200 255
0.419242 0.350344 0.227406 0 200 255
0.346655 0.298839 0.213225 0 200 255
0.426026 0.334266 0.228519 0 200 255
0.339574 0.306560 0.190840 0 200 255
0.396844 0.348370 0.202508 0 200 255
0.465407 0.308566 0.251488 0 200 255
0.440966 0.295530 0.258483 0 200 255
0.471123 0.280978 0.211847 0 200 255
0.480608 0.286909 0.246476 0 200 255
0.445252 0.316007 0.258032 0 200 255
0.459284 0.223141 0.246039 0 200 255
0.337375 0.208959 0.171484 0 200 255
0.406259 0.348153 0.214145 0 200 255
0.413908 0.248463 0.249205 0 200 255
0.438504 0.264610 0.256305 0 200 255
0.346425 0.202287 0.187814 0 200 255
0.453164 0.274776 0.215253 0 200 255
0.392279 0.315114 0.197851 0 200 255
0.396512 0.319654 0.234691 0 200 255
0.479734 0.269786 0.225094 0 200 255
0.320897 0.199841 0.186449 0 200 255
0.432377 0.231407 0.226447 0 200 255
0.403482 0.328931 0.179887 0 200 255
0.412980 0.337871 0.151520 0 200 255
0.402630 0.277343 0.244649 0 200 255
0.330419 0.318455 0.167976 0 200 255
0.376732 0.199734 0.176691 0 200 255
0.480347 0.290950 0.231549 0 200 255
0.436418 0.252515 0.212682 0 200 255
0.362693 0.306840 0.219647 0 200 255
0.433968 0.310344 0.239393 0 200 255
0.385005 0.278166 0.243629 0 200 255
0.397313 0.338741 0.157822 0 200 255
0.351275 0.190051 0.173576 0 200 255
0.468924 0.248011 0.250745 0 200 255
0.414526 0.210444 0.220355 0 200 255
0.487420 0.281722 0.221263 0 200 255
0.332464 0.213570 0.183687 0 200 255
0.385882 0.324103 0.185679 0 200 255
0.445647 0.289850 0.220821 0 200 255
0.425238 0.274845 0.213165 0 200 255
0.355276 0.203604 0.170913 0 200 255
0.382300 0.277159 0.229710 0 200 255
0.408158 0.289087 0.231063 0 200 255
0.439378 0.300592 0.231073 0 200 255
0.337837 0.192141 0.194942 0 200 255
0.396441 0.284029 0.223211 0 200 255
0.461284 0.285469 0.253758 0 200 255
0.425126 0.366541 0.171759 0 200 255
0.466039 0.295205 0.220733 0 200 255
0.327626 0.197989 0.171201 0 200 255
0.463243 0.237102 0.214039 0 200 255
0.391740 0.321252 0.152529 0 200 255
0.470349 0.296629 0.253877 0 200 255
0.417847 0.304930 0.231764 0 200 255
0.473056 0.244418 0.223875 0 200 255
0.375933 0.196730 0.191607 0 200 255
0.354168 0.209125 0.195562 0 200 255
0.408221 0.239895 0.236754 0 200 255
0.482631 0.259010 0.211766 0 200 255
0.396221 0.189655 0.184418 0 200 255
0.385697 0.185516 0.199040 0 200 255
0.361344 0.195513 0.194930 0 200 255
0.419029 0.351206 0.206876 0 200 255
0.397046 0.253961 0.229247 0 200 255
0.406680 0.223392 0.194712 0 200 255
0.427665 0.272137 0.255395 0 200 255
0.404838 0.301187 0.245651 0 200 255
0.419448 0.340852 0.170772 0 200 255
0.391829 0.208690 0.178276 0 200 255
0.392293 0.219635 0.210809 0 200 255
0.420876 0.235676 0.227880 0 200 255
0.486978 0.254664 0.236102 0 200 255
0.479779 0.267018 0.248944 0 200 255
0.487615 0.236580 0.242833 0 200 255
0.412910 0.264304 0.253629 0 200 255
0.389597 0.317652 0.210919 0 200 255
0.425871 0.229266 0.209749 0 200 255
0.415558 0.199251 0.197295 0 200 255
0.393666 0.336997 0.145710 0 200 255
0.484090 0.240357 0.220704 0 200 255
0.414870 0.370650 0.204309 0 200 255
0.447020 0.229583 0.221466 0 200 255
0.441053 0.240877 0.218561 0 200 255
0.357498 0.194173 0.183512 0 200 255
0.419236 0.357802 0.165262 0 200 255
0.369171 0.293552 0.240412 0 200 255
0.387230 0.217167 0.186358 0 200 255
0.400751 0.266169 0.240780 0 200 255
0.398759 0.330640 0.202803 0 200 255
0.407344 0.332095 0.193476 0 200 255
0.461177 0.251056 0.211157 0 200 255
0.413787 0.214189 0.185269 0 200 255
0.404503 0.341913 0.182938 0 200 255
0.393290 0.324020 0.174813 0 200 255
0.417547 0.247061 0.214724 0 200 255
0.474186 0.214349 0.246189 0 200 255
0.329096 0.312333 0.197246 0 200 255
0.386715 0.326685 0.163510 0 200 255
0.401282 0.328227 0.161525 0 200 255
0.345634 0.319380 0.182999 0 200 255
0.361143 0.296723 0.201053 0 200 255
0.435279 0.251901 0.248176 0 200 255
0.470833 0.219437 0.206956 0 200 255
0.399833 0.303641 0.214951 0 200 255
0.405699 0.353657 0.193689 0 200 255
0.425106 0.245486 0.251039 0 200 255
0.375332 0.188130 0.176874 0 200 255
0.426371 0.294762 0.258224 0 200 255
0.413099 0.356953 0.217579 0 200 255
0.442603 0.337983 0.241538 0 200 255
0.429383 0.339601 0.205610 0 200 255
0.414554 0.373355 0.189116 0 200 255
0.442900 0.221478 0.209260 0 200 255
0.383375 0.200369 0.210365 0 200 255
0.390382 0.336400 0.181029 0 200 255
0.403550 0.222276 0.207400 0 200 255
0.439801 0.317843 0.245989 0 200 255
0.366260 0.205682 0.173868 0 200 255
0.427299 0.212161 0.222237 0 200 255
0.490051 0.266578 0.229088 0 200 255
0.423818 0.322119 0.229147 0 200 255
0.425379 0.319120 0.214924 0 200 255
0.400148 0.337933 0.212448 0 200 255
0.424599 0.361483 0.204497 0 200 255
0.346955 0.309461 0.202152 0 200 255
0.463421 0.225448 0.232842 0 200 255
0.449798 0.309424 0.226773 0 200 255
0.373008 0.212051 0.204636 0 200 255
0.339919 0.200518 0.178624 0 200 255
0.394049 0.324569 0.223879 0 200 255
0.357140 0.307338 0.196908 0 200 255
0.322001 0.316335 0.175525 0 200 255
0.451046 0.263761 0.249380 0 200 255
0.391047 0.270495 0.250092 0 200 255
0.344885 0.307753 0.219864 0 200 255
0.444674 0.305327 0.254379 0 200 255
0.341272 0.211938 0.190904 0 200 255
0.384526 0.194630 0.184715 0 200 255
0.392103 0.262759 0.224476 0 200 255
0.414106 0.341560 0.194181 0 200 255
0.401612 0.201354 0.195035 0 200 255
0.418516 0.362790 0.186910 0 200 255
0.455200 0.211819 0.236401 0 200 255
0.390471 0.336776 0.166496 0 200 255
0.434720 0.350581 0.214025 0 200 255
0.433423 0.223781 0.215566 0 200 255
0.411541 0.308177 0.210450 0 200 255
0.416225 0.314768 0.219604 0 200 255
0.403732 0.322589 0.170948 0 200 255
0.403252 0.311641 0.228442 0 200 255
0.472513 0.238431 0.205266 0 200 255
0.428743 0.228527 0.243952 0 200 255
0.370592 0.289806 0.208242 0 200 255
0.409695 0.198179 0.213040 0 200 255
0.403643 0.255642 0.251306 0 200 255
0.360926 0.298765 0.233249 0 200 255
0.396532 0.188958 0.198534 0 200 255
0.409870 0.335464 0.173008 0 200 255
0.401842 0.203378 0.178852 0 200 255
0.450658 0.283859 0.255292 0 200 255
0.393949 0.277497 0.232175 0 200 255
0.475288 0.239853 0.245138 0 200 255
0.454567 0.235896 0.225981 0 200 255
0.408757 0.291728 0.241490 0 200 255
0.404512 0.348606 0.166921 0 200 255
0.405599 0.282529 0.255132 0 200 255
0.384898 0.332780 0.191925 0 200 255
0.407088 0.211880 0.211699 0 200 255
0.427051 0.247345 0.208085 0 200 255
0.433921 0.297452 0.217003 0 200 255
0.445116 0.238128 0.251808 0 200 255
0.443383 0.333904 0.216900 0 200 255
0.405719 0.323204 0.205995 0 200 255
0.412095 0.373673 0.167529 0 200 255
0.453978 0.253794 0.246627 0 200 255
0.377325 0.287636 0.230478 0 200 255
0.408857 0.349867 0.203755 0 200 255
0.419090 0.341201 0.160125 0 200 255
0.412404 0.222055 0.218358 0 200 255
0.455732 0.311769 0.256894 0 200 255
0.424361 0.331054 0.214113 0 200 255
0.423010 0.306458 0.240806 0 200 255
0.341768 0.189607 0.179073 0 200 255
0.460108 0.270856 0.248649 0 200 255
0.433354 0.324786 0.225806 0 200 255
0.393909 0.309645 0.233219 0 200 255
0.354128 0.304980 0.208277 0 200 255
0.439209 0.275187 0.216050 0 200 255
0.475865 0.301563 0.220173 0 200 255
0.351818 0.187571 0.197355 0 200 255
0.400558 0.340070 0.195671 0 200 255
0.410468 0.337122 0.216086 0 200 255
0.356246 0.292919 0.221155 0 200 255
0.373228 0.202408 0.210076 0 200 255
0.324458 0.324344 0.184769 0 200 255
0.399715 0.348969 0.176319 0 200 255
0.417584 0.289191 0.257838 0 200 255
0.461752 0.228175 0.204682 0 200 255
0.415684 0.213801 0.204311 0 200 255
0.375863 0.299750 0.221341 0 200 255
0.416038 0.283235 0.228265 0 200 255
0.366065 0.193066 0.205815 0 200 255
0.418314 0.228527 0.234694 0 200 255
0.413792 0.204065 0.186193 0 200 255
0.483270 0.241433 0.210656 0 200 255
0.422414 0.352897 0.218123 0 200 255
0.334324 0.326455 0.173197 0 200 255
0.415360 0.331118 0.224892 0 200 255
0.461547 0.310010 0.223314 0 200 255
0.340545 0.316100 0.206542 0 200 255
0.323227 0.209468 0.184241 0 200 255
0.416870 0.315349 0.231985 0 200 255
0.439875 0.343153 0.220991 0 200 255
0.426889 0.348033 0.233893 0 200 255
0.454229 0.317397 0.241939 0 200 255
0.382544 0.216046 0.203603 0 200 255
0.371957 0.209579 0.181188 0 200 255
0.336923 0.316211 0.189909 0 200 255
0.415946 0.296453 0.225242 0 200 255
0.410414 0.322656 0.236243 0 200 255
0.491881 0.241365 0.228684 0 200 255
0.471657 0.259488 0.208606 0 200 255
0.385765 0.188227 0.177147 0 200 255
0.406511 0.280227 0.224188 0 200 255
0.458390 0.218904 0.216239 0 200 255
0.440917 0.227028 0.229132 0 200 255
0.417500 0.341047 0.203566 0 200 255
0.369146 0.192365 0.185504 0 200 255
0.472529 0.301461 0.231654 0 200 255
0.390317 0.327805 0.214504 0 200 255
0.451337 0.214352 0.224433 0 200 255
0.408101 0.362868 0.196295 0 200 255
0.481459 0.249840 0.220365 0 200 255
0.400033 0.269155 0.221355 0 200 255
0.426360 0.300427 0.224904 0 200 255
0.330628 0.310120 0.180657 0 200 255
0.438829 0.343648 0.233789 0 200 255
0.409209 0.251291 0.211847 0 200 255
0.410776 0.348003 0.187533 0 200 255
0.476653 0.223309 0.250433 0 200 255
0.435398 0.241460 0.209688 0 200 255
0.398700 0.321626 0.194181 0 200 255
0.396881 0.199293 0.186745 0 200 255
0.413658 0.303759 0.242350 0 200 255
0.364921 0.287594 0.219017 0 200 255
0.344776 0.203897 0.167705 0 200 255
0.399258 0.194658 0.214451 0 200 255
0.431769 0.221739 0.224923 0 200 255
0.462666 0.227177 0.220140 0 200 255
0.418639 0.293053 0.241177 0 200 255
0.423938 0.288276 0.233481 0 200 255
0.389661 0.327818 0.145709 0 200 255
0.424804 0.358357 0.194136 0 200 255
0.406239 0.344218 0.154695 0 200 255
0.441839 0.315117 0.236544 0 200 255
0.386464 0.287296 0.233970 0 200 255
0.484214 0.229362 0.208693 0 200 255
0.386834 0.283783 0.223677 0 200 255
0.471094 0.257286 0.251988 0 200 255
0.426127 0.365116 0.181273 0 200 255
0.399485 0.303283 0.224537 0 200 255
0.390768 0.335186 0.200086 0 200 255
0.392248 0.209958 0.215079 0 200 255
0.393303 0.282673 0.245458 0 200 255
0.364024 0.185965 0.175028 0 200 255
0.423045 0.283928 0.215212 0 200 255
0.403307 0.247023 0.231283 0 200 255
0.451711 0.230247 0.250010 0 200 255
0.357263 0.207164 0.180231 0 200 255
0.412577 0.366882 0.178618 0 200 255
0.416480 0.363430 0.210756 0 200 255
0.449216 0.325203 0.229599 0 200 255
0.353681 0.303990 0.218001 0 200 255
0.441698 0.217577 0.229732 0 200 255
0.376546 0.184500 0.196786 0 200 255
0.471663 0.309866 0.235934 0 200 255
0.427859 0.333080 0.239851 0 200 255
0.458213 0.325469 0.238095 0 200 255
0.396278 0.259903 0.247189 0 200 255
0.404973 0.282542 0.237124 0 200 255
0.371740 0.199922 0.200501 0 200 255
0.433486 0.317076 0.232659 0 200 255
0.430690 0.303956 0.245614 0 200 255
0.407051 0.203556 0.203723 0 200 255
0.397164 0.200004 0.203205 0 200 255
0.408396 0.222829 0.185488 0 200 255
0.399708 0.310865 0.194030 0 200 255
0.401979 0.319535 0.222408 0 200 255
0.342030 0.203503 0.197411 0 200 255
0.405061 0.329641 0.221962 0 200 255
0.393760 0.272643 0.241422 0 200 255
0.472140 0.234432 0.233844 0 200 255
0.408579 0.318594 0.215585 0 200 255
0.426191 0.231344 0.218797 0 200 255
0.370472 0.303479 0.214171 0 200 255
0.358593 0.184102 0.192093 0 200 255
0.388940 0.187749 0.189791 0 200 255
0.327077 0.202903 0.178993 0 200 255
0.422179 0.341690 0.224640 0 200 255
0.416511 0.357664 0.176070 0 200 255
0.426949 0.355534 0.226490 0 200 255
0.395135 0.256855 0.238601 0 200 255
0.406138 0.273279 0.253627 0 200 255
0.420470 0.268003 0.216933 0 200 255
0.481342 0.261561 0.221440 0 200 255
0.397272 0.331347 0.169714 0 200 255
0.436197 0.334214 0.236236 0 200 255
0.355099 0.313177 0.203910 0 200 255
0.330323 0.324727 0.191747 0 200 255
0.389328 0.325153 0.194221 0 200 255
0.332121 0.203630 0.165638 0 200 255
0.349325 0.306808 0.192296 0 200 255
0.357165 0.194174 0.204354 0 200 255
0.397495 0.220819 0.188361 0 200 255
0.466747 0.239126 0.251343 0 200 255
0.406028 0.334987 0.157795 0 200 255
0.430649 0.318205 0.244149 0 200 255
0.479653 0.280360 0.214729 0 200 255
0.421390 0.206417 0.216134 0 200 255
0.393580 0.218509 0.180128 0 200 255
0.347757 0.194354 0.191870 0 200 255
0.348573 0.195319 0.182642 0 200 255
0.340118 0.194435 0.186621 0 200 255
0.345200 0.310610 0.184602 0 200 255
0.330440 0.196943 0.191108 0 200 255
0.473509 0.270217 0.213479 0 200 255
0.462045 0.274201 0.214698 0 200 255
0.472905 0.288545 0.251137 0 200 255
0.417089 0.237717 0.220082 0 200 255
0.431355 0.341441 0.229480 0 200 255
0.381797 0.190095 0.210300 0 200 255
0.387338 0.213181 0.196667 0 200 255
0.425367 0.346332 0.201302 0 200 255
0.416803 0.216968 0.212478 0 200 255
0.407026 0.310985 0.200719 0 200 255
0.370298 0.301265 0.205526 0 200 255
0.443712 0.284347 0.214199 0 200 255
0.369697 0.284286 0.227571 0 200 255
0.404513 0.247985 0.219763 0 200 255
0.483956 0.271900 0.238906 0 200 255
0.392590 0.290131 0.228298 0 200 255
0.424232 0.304425 0.258287 0 200 255
0.400902 0.288694 0.250943 0 200 255
0.363363 0.298304 0.224798 0 200 255
0.369180 0.191565 0.194380 0 200 255
0.355176 0.186108 0.180901 0 200 255
0.413458 0.326059 0.199740 0 200 255
0.464977 0.243019 0.207805 0 200 255
0.416094 0.345189 0.179555 0 200 255
0.413633 0.298222 0.253842 0 200 255
0.435887 0.309949 0.226678 0 200 255
0.403819 0.341694 0.219606 0 200 255
0.425470 0.237918 0.246608 0 200 255
0.352828 0.212511 0.186559 0 200 255
0.438044 0.310970 0.251042 0 200 255
0.394555 0.324332 0.207026 0 200 255
0.381845 0.295129 0.233087 0 200 255
0.348413 0.204801 0.176539 0 200 255
0.400556 0.322216 0.154711 0 200 255
0.355782 0.202870 0.188495 0 200 255
0.340138 0.304534 0.213024 0 200 255
0.408519 0.329855 0.231839 0 200 255
0.444880 0.221804 0.238144 0 200 255
0.345575 0.318640 0.199992 0 200 255
0.331155 0.308668 0.189700 0 200 255
0.401897 0.218312 0.199913 0 200 255
0.389529 0.272771 0.225531 0 200 255
0.414395 0.348648 0.169244 0 200 255
0.429576 0.357222 0.216075 0 200 255
0.406033 0.193318 0.193955 0 200 255
0.378890 0.290167 0.214891 0 200 255
0.341501 0.213979 0.182178 0 200 255
0.463792 0.319014 0.229524 0 200 255
0.340807 0.302458 0.198288 0 200 255
0.369005 0.292609 0.229586 0 200 255
0.370632 0.209965 0.196657 0 200 255
0.442858 0.259881 0.213486 0 200 255
0.413562 0.345495 0.210202 0 200 255
0.482258 0.247630 0.239421 0 200 255
0.478320 0.295027 0.247965 0 200 255
0.334902 0.194250 0.174234 0 200 255
0.448118 0.302069 0.222788 0 200 255
0.394198 0.311188 0.214036 0 200 255
0.488914 0.228179 0.237843 0 200 255
0.458397 0.265805 0.213589 0 200 255
0.383582 0.203850 0.173741 0 200 255
0.472485 0.306504 0.245739 0 200 255
0.357298 0.201723 0.200428 0 200 255
0.420622 0.267036 0.255969 0 200 255
0.461281 0.230783 0.249202 0 200 255
0.408393 0.305100 0.235812 0 200 255
0.409879 0.367510 0.162104 0 200 255
0.403333 0.324501 0.187123 0 200 255
0.382431 0.193987 0.196275 0 200 255
0.408336 0.205515 0.217369 0 200 255
0.449047 0.222067 0.215641 0 200 255
0.430075 0.264118 0.254426 0 200 255
0.362154 0.196905 0.177019 0 200 255
0.444206 0.258804 0.247895 0 200 255
0.396590 0.264915 0.233521 0 200 255
0.467328 0.267452 0.251307 0 200 255
0.424603 0.222611 0.232685 0 200 255
0.457501 0.297318 0.221559 0 200 255
0.434201 0.236055 0.216338 0 200 255
0.452940 0.248148 0.254132 0 200 255
0.466647 0.287966 0.213152 0 200 255
0.404926 0.297168 0.226811 0 200 255
0.447741 0.231772 0.213084 0 200 255
0.447407 0.269750 0.211817 0 200 255
0.419181 0.351867 0.186146 0 200 255
0.421633 0.371019 0.185149 0 200 255
0.478783 0.238006 0.226958 0 200 255
0.485142 0.246088 0.230183 0 200 255
0.429803 0.292425 0.222254 0 200 255
0.415503 0.241197 0.232872 0 200 255
0.420563 0.372371 0.167892 0 200 255
0.443709 0.249730 0.245813 0 200 255
0.328877 0.213221 0.176169 0 200 255
0.423103 0.282963 0.257649 0 200 255
0.391384 0.201737 0.214199 0 200 255
0.404438 0.334650 0.166581 0 200 255
0.480913 0.219905 0.244166 0 200 255
0.347244 0.301403 0.205310 0 200 255
0.403100 0.344232 0.207543 0 200 255
0.434192 0.334992 0.210564 0 200 255
0.414239 0.355794 0.201140 0 200 255
0.337268 0.313452 0.198106 0 200 255
0.396820 0.352322 0.195234 0 200 255
0.443190 0.296034 0.215901 0 200 255
0.426644 0.219241 0.216945 0 200 255
0.395960 0.319212 0.215973 0 200 255
0.435871 0.224351 0.243589 0 200 255
0.399598 0.305115 0.240264 0 200 255
0.423380 0.221666 0.206954 0 200 255
0.355086 0.196023 0.167626 0 200 255
0.378395 0.212240 0.185626 0 200 255
0.357071 0.310471 0.214192 0 200 255
0.490470 0.266745 0.220863 0 200 255
0.440423 0.288447 0.254315 0 200 255
0.372499 0.203844 0.189285 0 200 255
0.378760 0.283293 0.242056 0 200 255
0.456315 0.315401 0.219971 0 200 255
0.437952 0.303682 0.258817 0 200 255
0.410039 0.288879 0.249088 0 200 255
0.418739 0.226343 0.214188 0 200 255
0.398276 0.195880 0.177763 0 200 255
0.405005 0.267097 0.213250 0 200 255
0.327976 0.328023 0.178305 0 200 255
0.424675 0.249049 0.218219 0 200 255
0.417280 0.346566 0.220263 0 200 255
0.403850 0.334159 0.186163 0 200 255
0.385600 0.325199 0.177588 0 200 255
0.398593 0.335420 0.179063 0 200 255
0.388868 0.197003 0.205366 0 200 255
0.479059 0.276652 0.249495 0 200 255
0.446803 0.332665 0.236297 0 200 255
0.423976 0.216096 0.190857 0 200 255
0.411907 0.217570 0.192468 0 200 255
0.375806 0.297599 0.237994 0 200 255
0.364653 0.202929 0.195374 0 200 255
0.319539 0.201691 0.176212 0 200 255
0.338034 0.319283 0.172356 0 200 255
0.476557 0.247342 0.248094 0 200 255
0.323202 0.322145 0.167828 0 200 255
0.393901 0.332557 0.209004 0 200 255
0.448908 0.296607 0.255654 0 200 255
0.430203 0.257589 0.213795 0 200 255
0.397809 0.192078 0.205896 0 200 255
0.414555 0.335777 0.231460 0 200 255
0.411583 0.356850 0.182425 0 200 255
0.449048 0.308221 0.217545 0 200 255
0.388797 0.288438 0.242028 0 200 255
0.424044 0.325551 0.207188 0 200 255
0.453399 0.285925 0.220009 0 200 255
0.438310 0.329655 0.229921 0 200 255
0.406457 0.345694 0.194726 0 200 255
0.354624 0.294712 0.205355 0 200 255
0.483510 0.251009 0.211598 0 200 255
0.338509 0.203285 0.186739 0 200 255
0.480840 0.234632 0.247705 0 200 255
0.437700 0.245071 0.252688 0 200 255
0.486743 0.276887 0.227650 0 200 255
0.411550 0.360364 0.165581 0 200 255
0.392125 0.318464 0.190215 0 200 255
0.442258 0.226415 0.215846 0 200 255
0.383318 0.331499 0.183978 0 200 255
0.403931 0.322114 0.231305 0 200 255
0.423432 0.210352 0.206266 0 200 255
0.394857 0.311147 0.204284 0 200 255
0.414173 0.310252 0.226462 0 200 255
0.459176 0.263705 0.254568 0 200 255
0.480851 0.286287 0.225104 0 200 255
0.449778 0.242892 0.218390 0 200 255
0.412152 0.240994 0.243568 0 200 255
0.425300 0.326718 0.235852 0 200 255
0.464749 0.217789 0.248134 0 200 255
0.446964 0.314873 0.247632 0 200 255
0.391305 0.333540 0.158185 0 200 255
0.491169 0.271178 0.235440 0 200 255
0.419708 0.320241 0.238280 0 200 255
0.345848 0.196767 0.174949 0 200 255
0.424592 0.338747 0.234884 0 200 255
0.414214 0.367864 0.196728 0 200 255
0.447910 0.266586 0.256219 0 200 255
0.468913 0.227462 0.207941 0 200 255
0.463657 0.300765 0.254560 0 200 255
0.466986 0.311202 0.242139 0 200 255
0.471853 0.243290 0.216172 0 200 255
0.413788 0.258599 0.215826 0 200 255
0.466735 0.301937 0.216757 0 200 255
0.400633 0.212736 0.216072 0 200 255
0.417002 0.325541 0.230968 0 200 255
0.445481 0.277978 0.255526 0 200 255
0.435103 0.296136 0.237098 0 200 255
0.385771 0.274442 0.236796 0 200 255
0.428638 0.319685 0.222004 0 200 255
0.412636 0.357688 0.191256 0 200 255
0.406479 0.208215 0.182848 0 200 255
0.360316 0.304794 0.227871 0 200 255
0.435142 0.304200 0.221467 0 200 255
0.402795 0.341811 0.163519 0 200 255
0.365752 0.287539 0.236832 0 200 255
0.327678 0.208657 0.169603 0 200 255
0.441721 0.329007 0.222951 0 200 255
0.324768 0.195701 0.180816 0 200 255
0.444406 0.327122 0.246527 0 200 255
0.342724 0.321313 0.190778 0 200 255
0.412366 0.354830 0.209758 0 200 255
0.392940 0.340234 0.174781 0 200 255
0.479718 0.298086 0.225937 0 200 255
0.433227 0.255712 0.254603 0 200 255
0.425663 0.354612 0.208970 0 200 255
0.404991 0.330645 0.208021 0 200 255
0.389912 0.319130 0.181323 0 200 255
0.420532 0.215416 0.219783 0 200 255
0.416463 0.335058 0.198012 0 200 255
0.436014 0.346509 0.205455 0 200 255
0.456785 0.221807 0.224539 0 200 255
0.334145 0.306267 0.197394 0 200 255
0.423261 0.365177 0.163915 0 200 255
0.476693 0.228802 0.244805 0 200 255
0.402035 0.353883 0.201008 0 200 255
0.484645 0.260000 0.244223 0 200 255
0.407379 0.215482 0.218681 0 200 255
0.397401 0.278165 0.218158 0 200 255
0.419506 0.359449 0.222979 0 200 255
0.396772 0.330227 0.143788 0 200 255
0.449789 0.230314 0.228598 0 200 255
0.397552 0.340787 0.203507 0 200 255
0.436082 0.237966 0.223626 0 200 255
0.413299 0.234157 0.237048 0 200 255
0.484185 0.280571 0.244101 0 200 255
0.452353 0.223088 0.239179 0 200 255
0.429470 0.274712 0.219527 0 200 255
0.452150 0.305025 0.256613 0 200 255
0.427081 0.333511 0.220992 0 200 255
0.331579 0.314863 0.174594 0 200 255
0.459947 0.276901 0.253272 0 200 255
0.413511 0.233794 0.227561 0 200 255
0.425764 0.365138 0.188867 0 200 255
0.460901 0.313752 0.248235 0 200 255
0.349954 0.297046 0.220085 0 200 255
0.412766 0.198074 0.206089 0 200 255
0.427272 0.347434 0.223843 0 200 255
0.375112 0.289716 0.237683 0 200 255
0.390817 0.332436 0.173506 0 200 255
0.463225 0.253494 0.252098 0 200 255
0.420110 0.336199 0.219828 0 200 255
0.384766 0.334375 0.161887 0 200 255
0.481945 0.293268 0.241570 0 200 255
0.418680 0.228456 0.226186 0 200 255
0.479523 0.234668 0.204061 0 200 255
0.381825 0.201469 0.183015 0 200 255
0.454826 0.212292 0.215586 0 200 255
0.428365 0.266768 0.211550 0 200 255
0.404656 0.273041 0.238809 0 200 255
0.417475 0.276506 0.213649 0 200 255
0.398608 0.280469 0.250315 0 200 255
0.422255 0.367802 0.208751 0 200 255
0.386865 0.326563 0.155968 0 200 255
0.415247 0.344589 0.154621 0 200 255
0.440666 0.310757 0.242765 0 200 255
0.414753 0.210652 0.191823 0 200 255
0.452529 0.320184 0.235183 0 200 255
0.395472 0.337729 0.186380 0 200 255
0.427350 0.357811 0.186535 0 200 255
0.416859 0.288403 0.216200 0 200 255
0.442315 0.322507 0.235387 0 200 255
0.369407 0.302837 0.223555 0 200 255
0.328666 0.317051 0.191418 0 200 255
0.420331 0.204926 0.198324 0 200 255
0.397168 0.323306 0.147703 0 200 255
0.434133 0.334875 0.243500 0 200 255
0.410456 0.331561 0.180447 0 200 255
0.455499 0.289970 0.255213 0 200 255
0.424305 0.358714 0.170676 0 200 255
0.475972 0.286776 0.213791 0 200 255
0.429679 0.291274 0.243362 0 200 255
0.411080 0.255202 0.251290 0 200 255
0.409625 0.338600 0.187698 0 200 255
0.438721 0.292386 0.221781 0 200 255
0.439772 0.330160 0.241568 0 200 255
0.463560 0.217235 0.204500 0 200 255
0.444512 0.246798 0.214894 0 200 255
0.392110 0.339524 0.152505 0 200 255
0.348961 0.202511 0.195023 0 200 255
0.388453 0.322108 0.169045 0 200 255
0.480303 0.265804 0.210052 0 200 255
0.427213 0.319596 0.235867 0 200 255
0.327225 0.206521 0.190508 0 200 255
0.416410 0.332803 0.170896 0 200 255
0.344892 0.190042 0.197816 0 200 255
0.371954 0.194704 0.172528 0 200 255
0.490417 0.240729 0.216960 0 200 255
0.376221 0.209106 0.210599 0 200 255
0.388283 0.320098 0.201484 0 200 255
0.408592 0.215518 0.205056 0 200 255
0.433967 0.295847 0.256369 0 200 255
0.337685 0.317704 0.179658 0 200 255
0.343924 0.314107 0.191174 0 200 255
0.430407 0.293527 0.232007 0 200 255
0.465862 0.237344 0.223088 0 200 255
0.426367 0.212140 0.214099 0 200 255
0.405758 0.303482 0.210696 0 200 255
0.351244 0.311142 0.218718 0 200 255
0.395949 0.270265 0.227900 0 200 255
0.418091 0.283587 0.252405 0 200 255
0.398843 0.336066 0.151228 0 200 255
0.406866 0.295075 0.235312 0 200 255
0.424817 0.304659 0.233833 0 200 255
0.415925 0.313513 0.238961 0 200 255
0.398964 0.263357 0.214796 0 200 255
0.433739 0.217591 0.230653 0 200 255
0.421967 0.334772 0.207722 0 200 255
0.441318 0.340672 0.227666 0 200 255
0.376816 0.281027 0.226490 0 200 255
0.336207 0.306811 0.183849 0 200 255
0.401404 0.285537 0.228246 0 200 255
0.389855 0.320139 0.220003 0 200 255
0.416537 0.333766 0.157127 0 200 255
0.430270 0.246550 0.246103 0 200 255
0.409065 0.360837 0.176812 0 200 255
0.394564 0.322204 0.159287 0 200 255
0.419302 0.242861 0.247653 0 200 255
0.354463 0.197096 0.192610 0 200 255
0.447267 0.289884 0.257682 0 200 255
0.426492 0.327305 0.224613 0 200 255
0.409630 0.316007 0.229572 0 200 255
0.402074 0.352756 0.187526 0 200 255
0.402981 0.315518 0.234509 0 200 255
0.357341 0.294443 0.228735 0 200 255
0.393238 0.316156 0.229010 0 200 255
0.405197 0.345031 0.173837 0 200 255
0.408477 0.368544 0.190807 0 200 255
0.405109 0.354482 0.180444 0 200 255
0.452256 0.260072 0.255406 0 200 255
0.395074 0.344888 0.194094 0 200 255
0.397098 0.344606 0.181352 0 200 255
0.419270 0.253154 0.251235 0 200 255
0.397290 0.324874 0.166425 0 200 255
0.440640 0.257859 0.254012 0 200 255
0.335973 0.213962 0.176495 0 200 255
0.409545 0.371211 0.173727 0 200 255
0.410053 0.282354 0.246211 0 200 255
0.391320 0.189295 0.203380 0 200 255
0.343781 0.310137 0.208710 0 200 255
0.440779 0.271288 0.255351 0 200 255
0.370689 0.198476 0.182213 0 200 255
0.397032 0.279490 0.240316 0 200 255
0.389192 0.218457 0.202968 0 200 255
0.374776 0.206538 0.175430 0 200 255
0.397413 0.269791 0.246792 0 200 255
0.376352 0.195336 0.210231 0 200 255
0.411751 0.199247 0.191324 0 200 255
0.409858 0.316214 0.222338 0 200 255
0.410744 0.315818 0.204618 0 200 255
0.392869 0.327873 0.200019 0 200 255
0.363448 0.188976 0.190435 0 200 255
0.461905 0.293442 0.256071 0 200 255
0.402895 0.327636 0.197932 0 200 255
0.348003 0.209250 0.171078 0 200 255
0.416550 0.343960 0.187294 0 200 255
0.399663 0.191916 0.191276 0 200 255
0.426790 0.226661 0.225736 0 200 255
0.411608 0.243300 0.215182 0 200 255
0.462252 0.246612 0.253244 0 200 255
0.348253 0.193391 0.168162 0 200 255
0.408073 0.326179 0.212507 0 200 255
0.386991 0.334479 0.147478 0 200 255
0.371132 0.285387 0.213687 0 200 255
0.320128 0.319900 0.181464 0 200 255
0.411002 0.343427 0.220556 0 200 255
0.403438 0.329494 0.172891 0 200 255
0.392112 0.265073 0.241757 0 200 255
0.431173 0.288632 0.215930 0 200 255
0.421122 0.315903 0.224473 0 200 255
0.342063 0.188741 0.190191 0 200 255
0.393429 0.317403 0.171560 0 200 255
0.420705 0.366861 0.201957 0 200 255
0.363959 0.197613 0.185960 0 200 255
0.411112 0.286099 0.257521 0 200 255
0.349484 0.307185 0.213282 0 200 255
0.420475 0.331379 0.233602 0 200 255
0.406773 0.267558 0.243928 0 200 255
0.396197 0.274816 0.253529 0 200 255
0.356234 0.308235 0.222852 0 200 255
0.406125 0.203603 0.210590 0 200 255
0.395406 0.308518 0.226530 0 200 255
0.392634 0.190632 0.178576 0 200 255
0.378441 0.297587 0.227581 0 200 255
0.410360 0.341271 0.179306 0 200 255
0.402561 0.297891 0.239941 0 200 255
0.458183 0.234620 0.218039 0 200 255
0.460055 0.297828 0.215164 0 200 255
0.449121 0.222794 0.225649 0 200 255
0.392723 0.324987 0.185722 0 200 255
0.420276 0.250446 0.209371 0 200 255
0.405606 0.246044 0.239654 0 200 255
0.460809 0.228304 0.226669 0 200 255
0.399926 0.342641 0.188215 0 200 255
0.443387 0.244164 0.224131 0 200 255
0.401154 0.321115 0.162161 0 200 255
0.404758 0.273298 0.218578 0 200 255
0.417812 0.273562 0.251508 0 200 255
0.395479 0.202107 0.176627 0 200 255
0.397392 0.336742 0.164380 0 200 255
0.411193 0.208625 0.205755 0 200 255
0.484509 0.273957 0.246336 0 200 255
0.356177 0.300310 0.197983 0 200 255
0.362351 0.191265 0.200205 0 200 255
0.420495 0.299586 0.241973 0 200 255
0.352275 0.294963 0.212995 0 200 255
0.379808 0.186685 0.202603 0 200 255
0.439549 0.309361 0.232412 0 200 255
0.421978 0.370591 0.177155 0 200 255
0.367507 0.298650 0.236041 0 200 255
0.439414 0.231661 0.219155 0 200 255
0.412020 0.343593 0.200398 0 200 255
0.410575 0.281171 0.233490 0 200 255
0.427231 0.356678 0.200448 0 200 255
0.491862 0.237463 0.237584 0 200 255
0.428871 0.279634 0.254059 0 200 255
0.432305 0.232969 0.247685 0 200 255
0.341151 0.207617 0.176979 0 200 255
0.459998 0.213279 0.219883 0 200 255
0.405750 0.336266 0.179096 0 200 255
0.433089 0.230135 0.213216 0 200 255
0.468411 0.232315 0.203242 0 200 255
0.397483 0.221063 0.204249 0 200 255
0.415794 0.337586 0.165420 0 200 255
0.399986 0.284254 0.244106 0 200 255
0.397863 0.329713 0.183565 0 200 255
0.348721 0.211693 0.191865 0 200 255
0.482267 0.272800 0.219604 0 200 255
0.421306 0.309791 0.228237 0 200 255
0.492712 0.232621 0.225396 0 200 255
0.465138 0.216252 0.211120 0 200 255
0.323520 0.203373 0.170062 0 200 255
0.421673 0.344285 0.230835 0 200 255
0.409288 0.323963 0.219589 0 200 255
0.441983 0.224835 0.222855 0 200 255
0.437980 0.312885 0.257590 0 200 255
0.423316 0.311754 0.236677 0 200 255
0.364926 0.290925 0.204814 0 200 255
0.476542 0.295949 0.233924 0 200 255
0.336996 0.199160 0.194385 0 200 255
0.374217 0.187750 0.183480 0 200 255
0.429408 0.223566 0.209612 0 200 255
0.434008 0.217839 0.218613 0 200 255
0.333256 0.198658 0.179005 0 200 255
0.359508 0.201018 0.181665 0 200 255
0.444024 0.303389 0.235002 0 200 255
0.458161 0.232027 0.208986 0 200 255
0.345767 0.300862 0.193107 0 200 255
0.336942 0.324514 0.189775 0 200 255
0.405737 0.301328 0.217064 0 200 255
0.408555 0.203479 0.197211 0 200 255
0.416299 0.348957 0.201211 0 200 255
0.489238 0.272856 0.218484 0 200 255
0.385461 0.187339 0.183744 0 200 255
0.376498 0.279677 0.233706 0 200 255
0.437179 0.233451 0.230581 0 200 255
0.465735 0.223173 0.244351 0 200 255
0.394385 0.266827 0.218725 0 200 255
0.407463 0.340525 0.210925 0 200 255
0.425613 0.289962 0.253687 0 200 255
0.409745 0.368955 0.184295 0 200 255
0.368775 0.198815 0.192173 0 200 255
0.380057 0.191519 0.188524 0 200 255
0.397476 0.328753 0.177003 0 200 255
0.417085 0.261643 0.249199 0 200 255
0.358520 0.189062 0.172974 0 200 255
0.396873 0.307155 0.219740 0 200 255
0.391926 0.337880 0.191988 0 200 255
0.399433 0.270336 0.214824 0 200 255
0.418814 0.357801 0.213379 0 200 255
0.338392 0.202172 0.167364 0 200 255
0.409080 0.219224 0.199593 0 200 255
0.427240 0.254082 0.209029 0 200 255
0.396393 0.199960 0.209776 0 200 255
0.385796 0.216058 0.179113 0 200 255
0.466779 0.231511 0.214106 0 200 255
0.459801 0.323209 0.244084 0 200 255
0.475486 0.261237 0.249073 0 200 255
0.387254 0.206967 0.211907 0 200 255
0.386136 0.329756 0.197683 0 200 255
0.361874 0.200327 0.171403 0 200 255
0.485098 0.286945 0.241665 0 200 255
0.404884 0.202359 0.189318 0 200 255
0.400468 0.324624 0.226292 0 200 255
0.384789 0.195573 0.177440 0 200 255
0.448851 0.249380 0.208157 0 200 255
0.408197 0.239495 0.230079 0 200 255
0.327485 0.326724 0.169754 0 200 255
0.457534 0.325578 0.231576 0 200 255
0.412984 0.309389 0.232849 0 200 255
0.400507 0.344259 0.214074 0 200 255
0.414467 0.350613 0.215991 0 200 255
0.354866 0.194743 0.177575 0 200 255
0.403109 0.332455 0.216419 0 200 255
0.443316 0.337487 0.233667 0 200 255
0.477622 0.244687 0.213523 0 200 255
0.426956 0.361010 0.176303 0 200 255
0.329052 0.198773 0.184617 0 200 255
0.406717 0.262448 0.252969 0 200 255
0.380942 0.297403 0.218042 0 200 255
0.460051 0.212100 0.229494 0 200 255
0.412210 0.225687 0.212697 0 200 255
0.406078 0.366116 0.179756 0 200 255
0.456911 0.254860 0.252692 0 200 255
0.385745 0.217417 0.211763 0 200 255
0.417177 0.362616 0.193253 0 200 255
0.415492 0.341216 0.216144 0 200 255
0.404861 0.334127 0.199820 0 200 255
0.385474 0.209281 0.177160 0 200 255
0.461811 0.213929 0.243843 0 200 255
0.427363 0.302506 0.250990 0 200 255
0.485940 0.252822 0.227624 0 200 255
0.417647 0.218365 0.189636 0 200 255
0.455313 0.253642 0.211865 0 200 255
0.445856 0.237290 0.210334 0 200 255
0.395150 0.284439 0.231295 0 200 255
0.333202 0.197571 0.167530 0 200 255
0.418611 0.360348 0.202426 0 200 255
0.411367 0.350699 0.196183 0 200 255
0.419938 0.301400 0.226232 0 200 255
0.392679 0.277849 0.223160 0 200 255
0.420758 0.209410 0.222044 0 200 255
0.486693 0.231133 0.246095 0 200 255
0.414900 0.338607 0.175446 0 200 255
0.362911 0.307539 0.213281 0 200 255
0.433069 0.348737 0.232357 0 200 255
0.394912 0.217256 0.216148 0 200 255
0.469046 0.304517 0.222143 0 200 255
0.389625 0.196664 0.188541 0 200 255
