ply
format ascii 1.0
element vertex 1024
property float x
property float y
property float z
property uchar red
property uchar green
property uchar blue
end_header
0.464300 0.237449 0.243635 0 200 255
0.340521 0.358678 0.161437 0 200 255
0.349799 0.220997 0.167617 0 200 255
0.451795 0.362811 0.223183 0 200 255
0.376812 0.308071 0.230361 0 200 255
0.422042 0.342375 0.144765 0 200 255
0.487658 0.300546 0.219100 0 200 255
0.401713 0.244186 0.209826 0 200 255
0.434180 0.292012 0.250247 0 200 255
0.442729 0.390136 0.171849 0 200 255
0.403542 0.347859 0.197988 0 200 255
0.449449 0.266769 0.202875 0 200 255
0.313780 0.255139 0.171452 0 200 255
0.355851 0.343186 0.204362 0 200 255
0.450385 0.220427 0.202560 0 200 255
0.417392 0.299568 0.207339 0 200 255
0.466663 0.325783 0.247823 0 200 255
0.393054 0.224309 0.172671 0 200 255
0.488541 0.257341 0.217471 0 200 255
0.425704 0.252950 0.242306 0 200 255
0.423904 0.328161 0.234913 0 200 255
0.362754 0.237520 0.202272 0 200 255
0.470012 0.277279 0.246100 0 200 255
0.452108 0.315230 0.210003 0 200 255
0.398832 0.276622 0.232372 0 200 255
0.415698 0.367320 0.170631 0 200 255
0.438603 0.344665 0.194935 0 200 255
0.381980 0.322122 0.199891 0 200 255
0.432879 0.378670 0.200926 0 200 255
0.330111 0.234896 0.191055 0 200 255
0.403649 0.305425 0.248499 0 200 255
0.386200 0.216646 0.203688 0 200 255
0.356466 0.335367 0.174216 0 200 255
0.406815 0.336578 0.170225 0 200 255
0.473915 0.238414 0.197859 0 200 255
0.428183 0.233092 0.218243 0 200 255
0.417351 0.268455 0.202794 0 200 255
0.344503 0.249891 0.169355 0 200 255
0.424233 0.353805 0.218628 0 200 255
0.412733 0.242162 0.183271 0 200 255
0.465061 0.337755 0.222239 0 200 255
0.372461 0.243056 0.175863 0 200 255
0.429820 0.369002 0.146734 0 200 255
0.475079 0.280821 0.204101 0 200 255
0.420181 0.325015 0.197253 0 200 255
0.479146 0.301827 0.244700 0 200 255
0.443588 0.284105 0.227148 0 200 255
0.367014 0.213980 0.186386 0 200 255
0.450967 0.259678 0.246229 0 200 255
0.393291 0.291592 0.212089 0 200 255
0.441758 0.319781 0.251466 0 200 255
0.487002 0.233189 0.226032 0 200 255
0.454302 0.364460 0.197739 0 200 255
0.370223 0.330777 0.221198 0 200 255
0.453487 0.241356 0.216327 0 200 255
0.405526 0.333758 0.218818 0 200 255
0.455038 0.217239 0.232831 0 200 255
0.491009 0.277324 0.231409 0 200 255
0.441199 0.336352 0.217508 0 200 255
0.439543 0.366828 0.176377 0 200 255
0.407659 0.220275 0.194036 0 200 255
0.401087 0.310294 0.224546 0 200 255
0.326446 0.234722 0.166281 0 200 255
0.348744 0.355395 0.182981 0 200 255
0.423105 0.302177 0.229645 0 200 255
0.457329 0.298552 0.250172 0 200 255
0.438870 0.234654 0.238031 0 200 255
0.403810 0.352076 0.153697 0 200 255
0.389117 0.240651 0.190788 0 200 255
0.415535 0.366866 0.193059 0 200 255
0.459383 0.294306 0.212989 0 200 255
0.347984 0.221850 0.194655 0 200 255
0.433946 0.253132 0.210792 0 200 255
0.429789 0.351440 0.163337 0 200 255
0.479431 0.257848 0.241875 0 200 255
0.414938 0.281681 0.247737 0 200 255
0.434354 0.282557 0.204870 0 200 255
0.412574 0.259017 0.225859 0 200 255
0.449090 0.345806 0.236461 0 200 255
0.372457 0.223083 0.166373 0 200 255
0.443581 0.308449 0.229761 0 200 255
0.472530 0.316092 0.216147 0 200 255
0.420500 0.344175 0.184246 0 200 255
0.468666 0.259420 0.204641 0 200 255
0.359986 0.326395 0.192283 0 200 255
0.445679 0.375130 0.158083 0 200 255
0.409002 0.225725 0.214184 0 200 255
0.422992 0.312046 0.250592 0 200 255
0.470898 0.246639 0.225281 0 200 255
0.431645 0.313338 0.214460 0 200 255
0.435499 0.272431 0.246909 0 200 255
0.354419 0.238328 0.184285 0 200 255
0.420217 0.241988 0.202381 0 200 255
0.454630 0.324327 0.232244 0 200 255
0.329518 0.252766 0.183531 0 200 255
0.402805 0.354282 0.176820 0 200 255
0.391587 0.296497 0.234378 0 200 255
0.458164 0.346437 0.206589 0 200 255
0.438040 0.360325 0.207074 0 200 255
0.447151 0.382090 0.188715 0 200 255
0.383283 0.235357 0.208103 0 200 255
0.387112 0.321856 0.219656 0 200 255
0.491722 0.279166 0.213006 0 200 255
0.423141 0.334326 0.212956 0 200 255
0.357975 0.237836 0.165950 0 200 255
0.371555 0.314522 0.212894 0 200 255
0.366096 0.343184 0.187665 0 200 255
0.407774 0.291613 0.226937 0 200 255
0.429971 0.381123 0.182782 0 200 255
0.475787 0.326098 0.232204 0 200 255
0.346168 0.337654 0.189511 0 200 255
0.442487 0.222085 0.220828 0 200 255
0.412847 0.318476 0.213231 0 200 255
0.448033 0.375378 0.210337 0 200 255
0.357149 0.351331 0.166366 0 200 255
0.452576 0.279006 0.249189 0 200 255
0.478956 0.227715 0.241645 0 200 255
0.407222 0.349045 0.136688 0 200 255
0.443342 0.236556 0.202201 0 200 255
0.381612 0.223630 0.187512 0 200 255
0.367474 0.219528 0.202990 0 200 255
0.416157 0.241214 0.228019 0 200 255
0.439290 0.296821 0.213536 0 200 255
0.400460 0.276313 0.207884 0 200 255
0.371692 0.336225 0.203019 0 200 255
0.340552 0.344194 0.172568 0 200 255
0.432639 0.342798 0.231713 0 200 255
0.431503 0.384851 0.159465 0 200 255
0.357268 0.327017 0.209708 0 200 255
0.420209 0.352073 0.200085 0 200 255
0.338958 0.224880 0.180127 0 200 255
0.431490 0.358959 0.189044 0 200 255
0.474965 0.297949 0.207448 0 200 255
0.485746 0.242128 0.210822 0 200 255
0.315907 0.240756 0.179907 0 200 255
0.394990 0.240774 0.175210 0 200 255
0.409967 0.335268 0.153622 0 200 255
0.410381 0.329793 0.184934 0 200 255
0.483306 0.311521 0.231380 0 200 255
0.342382 0.234859 0.162216 0 200 255
0.430170 0.369065 0.163080 0 200 255
0.412443 0.266655 0.242098 0 200 255
0.327743 0.250482 0.162937 0 200 255
0.413886 0.314618 0.233820 0 200 255
0.489091 0.292745 0.236018 0 200 255
0.406157 0.259984 0.210506 0 200 255
0.418872 0.361035 0.155179 0 200 255
0.403300 0.235668 0.196580 0 200 255
0.387783 0.306435 0.216281 0 200 255
0.390765 0.316174 0.234915 0 200 255
0.414441 0.350934 0.166577 0 200 255
0.366816 0.228821 0.181286 0 200 255
0.456112 0.250185 0.203362 0 200 255
0.441048 0.351624 0.222034 0 200 255
0.407806 0.226158 0.179786 0 200 255
0.423311 0.365405 0.207006 0 200 255
0.410504 0.346344 0.211697 0 200 255
0.407123 0.332037 0.203746 0 200 255
0.414079 0.283220 0.204605 0 200 255
0.441922 0.331605 0.236110 0 200 255
0.400544 0.289714 0.244507 0 200 255
0.341538 0.244666 0.190112 0 200 255
0.455725 0.314184 0.251389 0 200 255
0.417060 0.339177 0.227523 0 200 255
0.450086 0.242124 0.244445 0 200 255
0.442684 0.304903 0.251117 0 200 255
0.375924 0.244172 0.196655 0 200 255
0.455630 0.279338 0.207741 0 200 255
0.415244 0.296496 0.246226 0 200 255
0.440124 0.249140 0.223565 0 200 255
0.434501 0.322102 0.226813 0 200 255
0.449954 0.377380 0.175145 0 200 255
0.430011 0.354449 0.148210 0 200 255
0.395009 0.217899 0.186824 0 200 255
0.462449 0.336571 0.236429 0 200 255
0.432958 0.315411 0.240648 0 200 255
0.394736 0.227489 0.212150 0 200 255
0.334083 0.240020 0.178206 0 200 255
0.346471 0.345623 0.158591 0 200 255
0.421080 0.338657 0.163317 0 200 255
0.459250 0.350707 0.220430 0 200 255
0.464696 0.263352 0.246633 0 200 255
0.444065 0.346997 0.208178 0 200 255
0.421495 0.246526 0.215998 0 200 255
0.426497 0.359656 0.175652 0 200 255
0.382865 0.234690 0.171284 0 200 255
0.432536 0.333814 0.202473 0 200 255
0.482195 0.255864 0.203990 0 200 255
0.416057 0.228454 0.202463 0 200 255
0.406264 0.300275 0.216115 0 200 255
0.478933 0.271864 0.214056 0 200 255
0.377746 0.322448 0.229937 0 200 255
0.411244 0.354307 0.187889 0 200 255
0.469381 0.312156 0.249706 0 200 255
0.315538 0.243717 0.163794 0 200 255
0.459608 0.323751 0.217923 0 200 255
0.368585 0.318673 0.200053 0 200 255
0.403347 0.342224 0.183161 0 200 255
0.438803 0.368439 0.217999 0 200 255
0.459870 0.235665 0.226938 0 200 255
0.451800 0.228128 0.240245 0 200 255
0.444020 0.367458 0.189075 0 200 255
0.382003 0.216627 0.173390 0 200 255
0.469620 0.290734 0.246076 0 200 255
0.401033 0.267153 0.220628 0 200 255
0.461960 0.233727 0.201688 0 200 255
0.353503 0.225752 0.179427 0 200 255
0.407721 0.301640 0.235604 0 200 255
0.435629 0.265283 0.205801 0 200 255
0.440209 0.238280 0.214933 0 200 255
0.426790 0.239820 0.236936 0 200 255
0.413708 0.251452 0.236536 0 200 255
0.421792 0.339322 0.197414 0 200 255
0.485711 0.257573 0.230243 0 200 255
0.348205 0.234908 0.195699 0 200 255
0.417172 0.354626 0.143043 0 200 255
0.444848 0.323911 0.218059 0 200 255
0.451951 0.340546 0.223695 0 200 255
0.443910 0.389075 0.159021 0 200 255
0.408834 0.325629 0.229443 0 200 255
0.482151 0.280056 0.242862 0 200 255
0.396045 0.279558 0.219523 0 200 255
0.427588 0.371078 0.190823 0 200 255
0.346711 0.235458 0.174438 0 200 255
0.469247 0.250109 0.242744 0 200 255
0.360545 0.227969 0.192424 0 200 255
0.431069 0.235388 0.206041 0 200 255
0.381636 0.309558 0.205569 0 200 255
0.376396 0.214331 0.194981 0 200 255
0.446441 0.317046 0.238708 0 200 255
0.364776 0.242687 0.190723 0 200 255
0.403960 0.275914 0.244008 0 200 255
0.481874 0.239003 0.236702 0 200 255
0.446531 0.253064 0.211759 0 200 255
0.443177 0.356412 0.195411 0 200 255
0.354627 0.346571 0.192244 0 200 255
0.492061 0.269070 0.220507 0 200 255
0.447011 0.270040 0.240294 0 200 255
0.402033 0.348567 0.165608 0 200 255
0.461283 0.308358 0.215081 0 200 255
0.413210 0.237493 0.213413 0 200 255
0.437835 0.255950 0.241527 0 200 255
0.380054 0.328671 0.210382 0 200 255
0.428417 0.293744 0.206735 0 200 255
0.472785 0.247413 0.206371 0 200 255
0.357620 0.347483 0.178179 0 200 255
0.456138 0.359051 0.208773 0 200 255
0.399499 0.218898 0.203265 0 200 255
0.454153 0.325956 0.247877 0 200 255
0.351377 0.331958 0.199166 0 200 255
0.485441 0.291796 0.209605 0 200 255
0.409721 0.338032 0.141514 0 200 255
0.371992 0.329664 0.192658 0 200 255
0.401238 0.244153 0.188008 0 200 255
0.491105 0.288974 0.220530 0 200 255
0.362849 0.338147 0.212926 0 200 255
0.424824 0.322750 0.218007 0 200 255
0.436325 0.360166 0.157576 0 200 255
0.431294 0.379359 0.170871 0 200 255
0.384388 0.244272 0.179862 0 200 255
0.465943 0.239225 0.217119 0 200 255
0.361791 0.219773 0.172988 0 200 255
0.416348 0.309626 0.220656 0 200 255
0.348247 0.248296 0.180678 0 200 255
0.347151 0.358555 0.171471 0 200 255
0.431068 0.303575 0.248171 0 200 255
0.396437 0.293624 0.223786 0 200 255
0.367915 0.319022 0.223332 0 200 255
0.463914 0.220254 0.240124 0 200 255
0.419197 0.370887 0.181380 0 200 255
0.429117 0.335068 0.223455 0 200 255
0.388921 0.244617 0.203400 0 200 255
0.403901 0.265976 0.232477 0 200 255
0.459804 0.348322 0.232377 0 200 255
0.477081 0.267324 0.202663 0 200 255
0.424227 0.274586 0.244611 0 200 255
0.453881 0.313570 0.227696 0 200 255
0.377683 0.224894 0.204826 0 200 255
0.325918 0.231914 0.180111 0 200 255
0.449908 0.298449 0.207611 0 200 255
0.390226 0.316882 0.208426 0 200 255
0.333399 0.255031 0.171997 0 200 255
0.422417 0.332993 0.186429 0 200 255
0.482428 0.248548 0.223820 0 200 255
0.336930 0.226984 0.168980 0 200 255
0.445720 0.374878 0.197644 0 200 255
0.417431 0.306945 0.241532 0 200 255
0.432072 0.233521 0.228946 0 200 255
0.397540 0.306593 0.236591 0 200 255
0.466409 0.270423 0.206312 0 200 255
0.478797 0.317307 0.240044 0 200 255
0.470855 0.329065 0.217869 0 200 255
0.436369 0.358916 0.168820 0 200 255
0.410566 0.249727 0.219724 0 200 255
0.422530 0.262792 0.211099 0 200 255
0.343535 0.234240 0.185218 0 200 255
0.415907 0.352466 0.177675 0 200 255
0.428343 0.258480 0.200583 0 200 255
0.448743 0.231040 0.218199 0 200 255
0.482635 0.312328 0.219255 0 200 255
0.419865 0.349992 0.153536 0 200 255
0.400258 0.232620 0.186247 0 200 255
0.403371 0.290722 0.207335 0 200 255
0.489965 0.266815 0.235056 0 200 255
0.490408 0.268656 0.209483 0 200 255
0.359179 0.226911 0.164090 0 200 255
0.447298 0.355371 0.231050 0 200 255
0.437155 0.367849 0.198526 0 200 255
0.333953 0.241001 0.158451 0 200 255
0.342009 0.346688 0.183649 0 200 255
0.437179 0.384935 0.192456 0 200 255
0.426397 0.316324 0.231540 0 200 255
0.416045 0.330171 0.220283 0 200 255
0.451200 0.338692 0.210094 0 200 255
0.425963 0.324078 0.206546 0 200 255
0.336803 0.226169 0.190806 0 200 255
0.465816 0.328172 0.227569 0 200 255
0.478946 0.253005 0.214032 0 200 255
0.419275 0.341155 0.173806 0 200 255
0.439205 0.381760 0.152294 0 200 255
0.433091 0.328906 0.214382 0 200 255
0.409667 0.286777 0.236548 0 200 255
0.440456 0.379702 0.180073 0 200 255
0.370484 0.223606 0.191261 0 200 255
0.445006 0.223479 0.231337 0 200 255
0.432370 0.346226 0.218398 0 200 255
0.368258 0.235878 0.168777 0 200 255
0.416992 0.344738 0.134881 0 200 255
0.428397 0.353930 0.208682 0 200 255
0.480860 0.233227 0.207196 0 200 255
0.433288 0.307119 0.232679 0 200 255
0.462877 0.321359 0.238767 0 200 255
0.442896 0.309743 0.209642 0 200 255
0.477140 0.268094 0.239748 0 200 255
0.354760 0.331315 0.183968 0 200 255
0.459109 0.275332 0.241568 0 200 255
0.443239 0.286852 0.208973 0 200 255
0.351006 0.342455 0.168376 0 200 255
0.388435 0.224700 0.195652 0 200 255
0.443348 0.383094 0.203980 0 200 255
0.423381 0.283911 0.209711 0 200 255
0.407782 0.244307 0.200860 0 200 255
0.322679 0.243483 0.187619 0 200 255
0.469937 0.307957 0.208948 0 200 255
0.485958 0.301366 0.230067 0 200 255
0.385001 0.301959 0.227629 0 200 255
0.405614 0.336884 0.191995 0 200 255
0.441562 0.248347 0.203715 0 200 255
0.362778 0.339514 0.197284 0 200 255
0.421663 0.355022 0.186445 0 200 255
0.395752 0.286668 0.232584 0 200 255
0.419588 0.342937 0.207685 0 200 255
0.415640 0.232113 0.184155 0 200 255
0.451151 0.351617 0.200271 0 200 255
0.385578 0.313608 0.225947 0 200 255
0.456454 0.250441 0.244861 0 200 255
0.442130 0.338905 0.228603 0 200 255
0.428534 0.262876 0.244072 0 200 255
0.419460 0.229103 0.213149 0 200 255
0.360441 0.217929 0.195337 0 200 255
0.412787 0.300922 0.226499 0 200 255
0.431492 0.282068 0.246935 0 200 255
0.441995 0.280483 0.248184 0 200 255
0.442204 0.274203 0.203768 0 200 255
0.350642 0.355579 0.159430 0 200 255
0.386018 0.214658 0.190964 0 200 255
0.439515 0.373116 0.166211 0 200 255
0.480806 0.290177 0.244823 0 200 255
0.376594 0.239876 0.187216 0 200 255
0.429070 0.347397 0.189157 0 200 255
0.360911 0.241234 0.175309 0 200 255
0.319948 0.251982 0.179152 0 200 255
0.373387 0.237745 0.206195 0 200 255
0.427888 0.369855 0.175279 0 200 255
0.442004 0.335871 0.205955 0 200 255
0.412729 0.343475 0.199980 0 200 255
0.334320 0.243530 0.168536 0 200 255
0.425500 0.295383 0.245388 0 200 255
0.446549 0.329253 0.226676 0 200 255
0.459583 0.224866 0.197066 0 200 255
0.438522 0.371194 0.208124 0 200 255
0.450073 0.221961 0.213667 0 200 255
0.449606 0.288702 0.248489 0 200 255
0.411047 0.341377 0.161666 0 200 255
0.403910 0.233937 0.211066 0 200 255
0.347021 0.338238 0.177627 0 200 255
0.475347 0.246482 0.234677 0 200 255
0.336590 0.349811 0.165130 0 200 255
0.399047 0.225435 0.195113 0 200 255
0.424340 0.345484 0.224434 0 200 255
0.448488 0.381380 0.165448 0 200 255
0.347234 0.218997 0.183422 0 200 255
0.404532 0.345492 0.145784 0 200 255
0.366457 0.324454 0.212792 0 200 255
0.373996 0.214223 0.179197 0 200 255
0.429969 0.249827 0.220211 0 200 255
0.425375 0.363738 0.197361 0 200 255
0.468987 0.300244 0.249070 0 200 255
0.376672 0.323327 0.219695 0 200 255
0.443812 0.359325 0.216361 0 200 255
0.410393 0.325974 0.195726 0 200 255
0.412664 0.291599 0.210955 0 200 255
0.452445 0.240526 0.202562 0 200 255
0.443006 0.389007 0.182446 0 200 255
0.430372 0.246524 0.204295 0 200 255
0.453027 0.331061 0.219140 0 200 255
0.470341 0.289345 0.209118 0 200 255
0.421555 0.363653 0.145636 0 200 255
0.440500 0.297349 0.244818 0 200 255
0.436514 0.374660 0.187594 0 200 255
0.404007 0.341255 0.205400 0 200 255
0.393782 0.313940 0.219032 0 200 255
0.410549 0.342022 0.220680 0 200 255
0.465329 0.280923 0.207896 0 200 255
0.378406 0.308399 0.218465 0 200 255
0.468226 0.228518 0.244306 0 200 255
0.419590 0.369222 0.161885 0 200 255
0.418645 0.359968 0.164873 0 200 255
0.450816 0.366425 0.214191 0 200 255
0.404113 0.236253 0.178083 0 200 255
0.427043 0.268757 0.202025 0 200 255
0.408738 0.327377 0.212298 0 200 255
0.419463 0.322973 0.228075 0 200 255
0.361855 0.227900 0.202194 0 200 255
0.403002 0.289329 0.218168 0 200 255
0.449702 0.216212 0.223339 0 200 255
0.323579 0.256925 0.168721 0 200 255
0.396841 0.301933 0.215370 0 200 255
0.442091 0.265564 0.248095 0 200 255
0.420975 0.338268 0.153356 0 200 255
0.412970 0.336406 0.213319 0 200 255
0.434574 0.355278 0.215860 0 200 255
0.434690 0.386945 0.175900 0 200 255
0.410853 0.356097 0.158677 0 200 255
0.392920 0.238424 0.209407 0 200 255
0.413317 0.320853 0.204042 0 200 255
0.363350 0.330785 0.200956 0 200 255
0.351793 0.244711 0.172645 0 200 255
0.443813 0.257605 0.203900 0 200 255
0.461130 0.283003 0.246746 0 200 255
0.456356 0.332607 0.227870 0 200 255
0.423543 0.351259 0.172245 0 200 255
0.434908 0.376122 0.158526 0 200 255
0.396966 0.244314 0.196391 0 200 255
0.399837 0.219807 0.178984 0 200 255
0.442824 0.232152 0.225401 0 200 255
0.355516 0.340845 0.184861 0 200 255
0.361712 0.230393 0.172668 0 200 255
0.435978 0.240146 0.223090 0 200 255
0.338762 0.252617 0.179297 0 200 255
0.402435 0.350142 0.188973 0 200 255
0.484149 0.280581 0.207686 0 200 255
0.436020 0.247002 0.243515 0 200 255
0.469551 0.229287 0.198537 0 200 255
0.437576 0.352335 0.202266 0 200 255
0.324707 0.242145 0.159033 0 200 255
0.393192 0.216277 0.196902 0 200 255
0.350431 0.230152 0.164135 0 200 255
0.348488 0.342214 0.197740 0 200 255
0.384377 0.225221 0.169477 0 200 255
0.452337 0.269753 0.248627 0 200 255
0.433598 0.288541 0.212341 0 200 255
0.411502 0.352907 0.197176 0 200 255
0.401089 0.301218 0.226151 0 200 255
0.378959 0.223768 0.178355 0 200 255
0.320075 0.238483 0.172022 0 200 255
0.434844 0.313080 0.225128 0 200 255
0.431156 0.316183 0.249881 0 200 255
0.412104 0.236092 0.199254 0 200 255
0.367770 0.238732 0.182449 0 200 255
0.417232 0.361340 0.200821 0 200 255
0.331573 0.244847 0.189354 0 200 255
0.448817 0.374285 0.184217 0 200 255
0.409160 0.259676 0.236517 0 200 255
0.422254 0.299879 0.220838 0 200 255
0.405011 0.344835 0.174564 0 200 255
0.338803 0.234750 0.193863 0 200 255
0.379146 0.330733 0.200929 0 200 255
0.449959 0.335565 0.233664 0 200 255
0.361484 0.330233 0.217785 0 200 255
0.354309 0.335618 0.209341 0 200 255
0.438422 0.384982 0.165377 0 200 255
0.430707 0.339540 0.195649 0 200 255
0.397459 0.299032 0.246652 0 200 255
0.419289 0.361816 0.180874 0 200 255
0.388275 0.217282 0.179922 0 200 255
0.376825 0.314556 0.199717 0 200 255
0.413087 0.334659 0.176494 0 200 255
0.396313 0.231750 0.177063 0 200 255
0.346318 0.350390 0.175804 0 200 255
0.428798 0.365580 0.183483 0 200 255
0.425851 0.239460 0.212264 0 200 255
0.461194 0.308294 0.247251 0 200 255
0.446066 0.366147 0.201064 0 200 255
0.425847 0.370529 0.155280 0 200 255
0.459495 0.258474 0.204577 0 200 255
0.311393 0.245600 0.173760 0 200 255
0.385079 0.309050 0.233844 0 200 255
0.462601 0.343844 0.214003 0 200 255
0.413484 0.255119 0.213124 0 200 255
0.431446 0.322896 0.235249 0 200 255
0.385885 0.224168 0.208619 0 200 255
0.397732 0.281619 0.239763 0 200 255
0.463955 0.301431 0.207436 0 200 255
0.357302 0.236306 0.192993 0 200 255
0.437563 0.267182 0.239945 0 200 255
0.423227 0.306158 0.208993 0 200 255
0.422501 0.274395 0.207279 0 200 255
0.329105 0.246892 0.175378 0 200 255
0.433972 0.244357 0.212516 0 200 255
0.398117 0.232287 0.204497 0 200 255
0.407545 0.227162 0.200201 0 200 255
0.404642 0.343026 0.155724 0 200 255
0.413103 0.320086 0.222591 0 200 255
0.408811 0.269975 0.204663 0 200 255
0.379308 0.244442 0.204852 0 200 255
0.408703 0.353383 0.146412 0 200 255
0.417799 0.304102 0.250004 0 200 255
0.449694 0.353573 0.222324 0 200 255
0.475927 0.316833 0.231671 0 200 255
0.412213 0.342947 0.187115 0 200 255
0.457219 0.330162 0.239545 0 200 255
0.423543 0.233717 0.226632 0 200 255
0.423382 0.344508 0.215479 0 200 255
0.418855 0.346382 0.192614 0 200 255
0.392064 0.306311 0.224721 0 200 255
0.446037 0.243480 0.209501 0 200 255
0.446894 0.370547 0.170547 0 200 255
0.420143 0.356353 0.210449 0 200 255
0.351376 0.226599 0.187896 0 200 255
0.356982 0.334614 0.192312 0 200 255
0.445200 0.253106 0.246425 0 200 255
0.409017 0.335767 0.227213 0 200 255
0.369676 0.332513 0.212009 0 200 255
0.440516 0.255762 0.217413 0 200 255
0.337669 0.249649 0.163389 0 200 255
0.448245 0.238609 0.222656 0 200 255
0.443287 0.360661 0.225483 0 200 255
0.447869 0.235002 0.236777 0 200 255
0.437161 0.352480 0.189749 0 200 255
0.414631 0.305461 0.213018 0 200 255
0.345595 0.222069 0.175398 0 200 255
0.460221 0.265033 0.239475 0 200 255
0.476617 0.324470 0.222291 0 200 255
0.443451 0.347281 0.230156 0 200 255
0.425446 0.337779 0.230716 0 200 255
0.426397 0.354271 0.194574 0 200 255
0.423926 0.333728 0.204444 0 200 255
0.474794 0.238630 0.241513 0 200 255
0.482732 0.300687 0.209786 0 200 255
0.412104 0.294833 0.238452 0 200 255
0.401377 0.295015 0.237855 0 200 255
0.434019 0.349393 0.226462 0 200 255
0.334055 0.233034 0.162720 0 200 255
0.421354 0.288090 0.246973 0 200 255
0.408290 0.292170 0.248627 0 200 255
0.474914 0.324879 0.240644 0 200 255
0.445533 0.322592 0.231901 0 200 255
0.481366 0.230460 0.231811 0 200 255
0.365824 0.334696 0.187147 0 200 255
0.425246 0.311535 0.238466 0 200 255
0.375850 0.232163 0.167220 0 200 255
0.474904 0.243167 0.218655 0 200 255
0.429367 0.361296 0.143225 0 200 255
0.448123 0.311423 0.248846 0 200 255
0.386260 0.321258 0.229847 0 200 255
0.377531 0.216568 0.203248 0 200 255
0.430788 0.378707 0.192650 0 200 255
0.369797 0.220696 0.175704 0 200 255
0.353440 0.227074 0.198475 0 200 255
0.446440 0.303817 0.214525 0 200 255
0.403438 0.267864 0.212555 0 200 255
0.491522 0.262847 0.226194 0 200 255
0.425896 0.355283 0.156906 0 200 255
0.433212 0.358917 0.180764 0 200 255
0.406064 0.220297 0.185601 0 200 255
0.450962 0.371573 0.191921 0 200 255
0.398113 0.284776 0.210915 0 200 255
0.469536 0.249577 0.217498 0 200 255
0.486929 0.274191 0.238082 0 200 255
0.488054 0.282704 0.237488 0 200 255
0.373035 0.315480 0.228971 0 200 255
0.346789 0.240420 0.167490 0 200 255
0.410053 0.250427 0.229082 0 200 255
0.416598 0.259397 0.242054 0 200 255
0.380149 0.224268 0.196680 0 200 255
0.455819 0.356262 0.227337 0 200 255
0.437738 0.305793 0.214895 0 200 255
0.393017 0.225158 0.204318 0 200 255
0.489902 0.278351 0.221106 0 200 255
0.449628 0.302944 0.246973 0 200 255
0.342252 0.352433 0.156230 0 200 255
0.448916 0.312261 0.221160 0 200 255
0.471704 0.224194 0.238123 0 200 255
0.472458 0.319904 0.246916 0 200 255
0.368311 0.243609 0.199919 0 200 255
0.423448 0.232150 0.205436 0 200 255
0.374590 0.322138 0.195499 0 200 255
0.393358 0.224655 0.182315 0 200 255
0.444678 0.343895 0.221557 0 200 255
0.404592 0.259734 0.223782 0 200 255
0.430351 0.361880 0.209912 0 200 255
0.412740 0.225210 0.187668 0 200 255
0.434590 0.362707 0.149472 0 200 255
0.412824 0.310423 0.248134 0 200 255
0.364306 0.341661 0.205075 0 200 255
0.468622 0.322447 0.212690 0 200 255
0.339020 0.233282 0.176337 0 200 255
0.368274 0.214933 0.196002 0 200 255
0.369934 0.231254 0.202563 0 200 255
0.416238 0.336041 0.146074 0 200 255
0.436894 0.309851 0.248087 0 200 255
0.481320 0.305469 0.224698 0 200 255
0.488622 0.293454 0.227869 0 200 255
0.420466 0.267131 0.243689 0 200 255
0.318403 0.247951 0.170231 0 200 255
0.423126 0.248600 0.207476 0 200 255
0.413912 0.245683 0.213064 0 200 255
0.424481 0.331409 0.194537 0 200 255
0.324296 0.240363 0.178747 0 200 255
0.340733 0.243031 0.174564 0 200 255
0.446668 0.260405 0.239339 0 200 255
0.326663 0.256264 0.176419 0 200 255
0.451647 0.306336 0.208661 0 200 255
0.353587 0.354556 0.176496 0 200 255
0.418236 0.359135 0.173265 0 200 255
0.347797 0.349504 0.188944 0 200 255
0.457697 0.315972 0.235573 0 200 255
0.355359 0.351644 0.185942 0 200 255
0.355559 0.233454 0.177876 0 200 255
0.453905 0.323944 0.224172 0 200 255
0.485428 0.298134 0.241139 0 200 255
0.456186 0.357891 0.216793 0 200 255
0.456306 0.227916 0.203809 0 200 255
0.459994 0.316983 0.210251 0 200 255
0.428239 0.316000 0.221288 0 200 255
0.463855 0.293067 0.206099 0 200 255
0.436463 0.365338 0.190889 0 200 255
0.416689 0.302908 0.234459 0 200 255
0.446853 0.227406 0.204470 0 200 255
0.446990 0.251003 0.219802 0 200 255
0.467878 0.243621 0.198945 0 200 255
0.330216 0.229710 0.173681 0 200 255
0.367020 0.322505 0.192350 0 200 255
0.431011 0.303153 0.226094 0 200 255
0.418948 0.338183 0.218584 0 200 255
0.434630 0.359558 0.196369 0 200 255
0.340192 0.353117 0.171456 0 200 255
0.358886 0.342879 0.169611 0 200 255
0.414829 0.276166 0.208621 0 200 255
0.420248 0.331661 0.228737 0 200 255
0.462915 0.341573 0.228905 0 200 255
0.372267 0.312626 0.221396 0 200 255
0.441327 0.232861 0.209210 0 200 255
0.433174 0.373900 0.179637 0 200 255
0.417783 0.357544 0.192897 0 200 255
0.406982 0.352988 0.169964 0 200 255
0.466384 0.240149 0.227555 0 200 255
0.466153 0.328554 0.238135 0 200 255
0.379438 0.215979 0.186757 0 200 255
0.430980 0.365259 0.202777 0 200 255
0.477626 0.310533 0.243956 0 200 255
0.396971 0.312581 0.230898 0 200 255
0.315437 0.251597 0.163163 0 200 255
0.446845 0.384425 0.177284 0 200 255
0.436714 0.318569 0.217494 0 200 255
0.400236 0.217708 0.193291 0 200 255
0.456189 0.301435 0.214085 0 200 255
0.469544 0.269045 0.241648 0 200 255
0.450520 0.292548 0.212800 0 200 255
0.428664 0.353033 0.183425 0 200 255
0.425753 0.373063 0.168235 0 200 255
0.425746 0.326627 0.225078 0 200 255
0.420801 0.346493 0.165343 0 200 255
0.481367 0.250849 0.232163 0 200 255
0.470967 0.332323 0.231788 0 200 255
0.407655 0.348999 0.160157 0 200 255
0.477874 0.306811 0.210172 0 200 255
0.481364 0.264485 0.214988 0 200 255
0.405444 0.334587 0.210948 0 200 255
0.405552 0.307695 0.218467 0 200 255
0.459889 0.290358 0.249071 0 200 255
0.482024 0.240123 0.217655 0 200 255
0.462383 0.330962 0.218969 0 200 255
0.445510 0.316120 0.214051 0 200 255
0.462037 0.319594 0.248764 0 200 255
0.471215 0.257314 0.244919 0 200 255
0.379272 0.243502 0.172187 0 200 255
0.346424 0.229169 0.178948 0 200 255
0.342376 0.344260 0.165019 0 200 255
0.403313 0.243768 0.179758 0 200 255
0.402344 0.225605 0.210238 0 200 255
0.422410 0.356312 0.149868 0 200 255
0.403104 0.289033 0.233001 0 200 255
0.420925 0.238248 0.218094 0 200 255
0.343900 0.228374 0.193981 0 200 255
0.469508 0.233802 0.238624 0 200 255
0.418073 0.327972 0.190366 0 200 255
0.419618 0.320395 0.208943 0 200 255
0.484040 0.262525 0.237822 0 200 255
0.379856 0.315323 0.232575 0 200 255
0.405789 0.284158 0.245559 0 200 255
0.332021 0.229061 0.183859 0 200 255
0.458282 0.316696 0.220720 0 200 255
0.402495 0.298265 0.209711 0 200 255
0.386501 0.323257 0.206267 0 200 255
0.435341 0.386439 0.184214 0 200 255
0.357850 0.229611 0.185040 0 200 255
0.447923 0.369256 0.178052 0 200 255
0.424888 0.357785 0.203037 0 200 255
0.460698 0.238217 0.207787 0 200 255
0.364661 0.233757 0.189550 0 200 255
0.435073 0.230220 0.222717 0 200 255
0.341171 0.243034 0.161785 0 200 255
0.449951 0.232736 0.210843 0 200 255
0.433770 0.335330 0.230523 0 200 255
0.390898 0.298282 0.221324 0 200 255
0.440676 0.354091 0.210624 0 200 255
0.441053 0.377139 0.212900 0 200 255
0.324213 0.242136 0.166738 0 200 255
0.441043 0.228524 0.216974 0 200 255
0.362527 0.323202 0.201295 0 200 255
0.345037 0.241407 0.181147 0 200 255
0.435603 0.342302 0.224206 0 200 255
0.437499 0.240009 0.205635 0 200 255
0.410434 0.296047 0.221163 0 200 255
0.434421 0.331671 0.237299 0 200 255
0.464182 0.252577 0.203652 0 200 255
0.414476 0.355004 0.151688 0 200 255
0.445750 0.323762 0.246401 0 200 255
0.414872 0.351894 0.136184 0 200 255
0.391765 0.244484 0.181569 0 200 255
0.363914 0.214492 0.179495 0 200 255
0.446229 0.370777 0.218336 0 200 255
0.460529 0.243940 0.244448 0 200 255
0.443432 0.383432 0.196406 0 200 255
0.455476 0.340705 0.233944 0 200 255
0.487206 0.242576 0.222555 0 200 255
0.433429 0.366511 0.169361 0 200 255
0.369064 0.228396 0.170479 0 200 255
0.329991 0.238461 0.172012 0 200 255
0.401211 0.271048 0.237316 0 200 255
0.336849 0.250005 0.186072 0 200 255
0.378718 0.315809 0.223544 0 200 255
0.444969 0.216739 0.215389 0 200 255
0.452978 0.347269 0.229452 0 200 255
0.432536 0.367211 0.155851 0 200 255
0.412840 0.334146 0.160909 0 200 255
0.410451 0.357559 0.177088 0 200 255
0.440752 0.371296 0.182247 0 200 255
0.406639 0.349747 0.182807 0 200 255
0.408132 0.348864 0.205089 0 200 255
0.411124 0.273872 0.244083 0 200 255
0.381162 0.244365 0.191020 0 200 255
0.461907 0.271761 0.247469 0 200 255
0.435978 0.262123 0.245240 0 200 255
0.458046 0.352833 0.202757 0 200 255
0.419596 0.247000 0.237326 0 200 255
0.399075 0.274164 0.223622 0 200 255
0.399249 0.286276 0.226051 0 200 255
0.448554 0.283062 0.205450 0 200 255
0.417596 0.250430 0.221941 0 200 255
0.343696 0.227488 0.162618 0 200 255
0.452979 0.310014 0.215400 0 200 255
0.472582 0.284059 0.244645 0 200 255
0.443075 0.244929 0.242912 0 200 255
0.431252 0.385756 0.166906 0 200 255
0.464844 0.317328 0.216397 0 200 255
0.404859 0.306422 0.230800 0 200 255
0.438763 0.348032 0.215240 0 200 255
0.459801 0.271007 0.203148 0 200 255
0.467927 0.241597 0.238795 0 200 255
0.314597 0.247716 0.181800 0 200 255
0.406967 0.345082 0.191764 0 200 255
0.361720 0.341173 0.176147 0 200 255
0.417679 0.354116 0.160414 0 200 255
0.386394 0.241972 0.172857 0 200 255
0.452339 0.367943 0.204361 0 200 255
0.408837 0.234821 0.205743 0 200 255
0.327307 0.238275 0.185232 0 200 255
0.407045 0.241309 0.214146 0 200 255
0.460598 0.243578 0.219485 0 200 255
0.457116 0.339304 0.215543 0 200 255
0.418402 0.278833 0.241998 0 200 255
0.426973 0.255030 0.209897 0 200 255
0.423293 0.366481 0.170138 0 200 255
0.371639 0.223456 0.182240 0 200 255
0.432754 0.353093 0.171254 0 200 255
0.477329 0.287384 0.208764 0 200 255
0.419716 0.337699 0.180181 0 200 255
0.431869 0.323901 0.220294 0 200 255
0.492787 0.270236 0.227631 0 200 255
0.414741 0.243823 0.220262 0 200 255
0.410891 0.259767 0.218851 0 200 255
0.406223 0.336353 0.180040 0 200 255
0.415943 0.313309 0.226881 0 200 255
0.440706 0.345546 0.201811 0 200 255
0.459608 0.342507 0.221858 0 200 255
0.418122 0.371853 0.188476 0 200 255
0.350627 0.344542 0.181038 0 200 255
0.390927 0.235447 0.172513 0 200 255
0.438477 0.306858 0.224643 0 200 255
0.408250 0.223055 0.206963 0 200 255
0.388891 0.224342 0.188462 0 200 255
0.478979 0.244287 0.204429 0 200 255
0.443386 0.366862 0.211197 0 200 255
0.339284 0.234177 0.169203 0 200 255
0.404438 0.301229 0.242711 0 200 255
0.321610 0.248689 0.159647 0 200 255
0.441894 0.322611 0.238620 0 200 255
0.437251 0.362017 0.215172 0 200 255
0.471912 0.332260 0.224205 0 200 255
0.377331 0.224551 0.171421 0 200 255
0.404791 0.341410 0.165339 0 200 255
0.447499 0.362976 0.193448 0 200 255
0.434052 0.372973 0.172532 0 200 255
0.433135 0.230530 0.213783 0 200 255
0.417274 0.342078 0.158127 0 200 255
0.408371 0.326847 0.222428 0 200 255
0.491925 0.284397 0.231290 0 200 255
0.437035 0.384423 0.200270 0 200 255
0.419661 0.367353 0.151994 0 200 255
0.425078 0.373610 0.184324 0 200 255
0.353013 0.348881 0.159761 0 200 255
0.390686 0.303364 0.235985 0 200 255
0.406172 0.340616 0.215259 0 200 255
0.360051 0.222521 0.179302 0 200 255
0.425061 0.355627 0.166565 0 200 255
0.485298 0.303956 0.237094 0 200 255
0.375679 0.329872 0.216762 0 200 255
0.419831 0.348412 0.140236 0 200 255
0.412710 0.344226 0.168022 0 200 255
0.420749 0.350006 0.207383 0 200 255
0.371034 0.216949 0.169838 0 200 255
0.362745 0.331418 0.210452 0 200 255
0.348830 0.228675 0.172324 0 200 255
0.361597 0.345896 0.193166 0 200 255
0.449326 0.345424 0.203743 0 200 255
0.405957 0.341227 0.198001 0 200 255
0.417334 0.338719 0.139641 0 200 255
0.479339 0.315119 0.213679 0 200 255
0.397806 0.237202 0.192432 0 200 255
0.434325 0.354545 0.153819 0 200 255
0.377392 0.243824 0.181431 0 200 255
0.390846 0.318268 0.224436 0 200 255
0.357653 0.335920 0.203153 0 200 255
0.414326 0.288816 0.247276 0 200 255
0.387885 0.224238 0.177441 0 200 255
0.451615 0.358020 0.196868 0 200 255
0.370622 0.335747 0.195909 0 200 255
0.438217 0.378281 0.206568 0 200 255
0.446027 0.272807 0.249165 0 200 255
0.409987 0.296127 0.231882 0 200 255
0.365357 0.324977 0.220359 0 200 255
0.426024 0.327540 0.213024 0 200 255
0.442472 0.340439 0.211257 0 200 255
0.438312 0.301716 0.208625 0 200 255
0.400415 0.224870 0.183774 0 200 255
0.397544 0.243918 0.203345 0 200 255
0.435139 0.258334 0.206279 0 200 255
0.473728 0.300634 0.213766 0 200 255
0.357131 0.327612 0.198526 0 200 255
0.482242 0.310575 0.238731 0 200 255
0.416383 0.240651 0.208048 0 200 255
0.432871 0.371898 0.203712 0 200 255
0.346205 0.238699 0.190213 0 200 255
0.448411 0.374309 0.164430 0 200 255
0.414098 0.349526 0.183718 0 200 255
0.342300 0.221425 0.187683 0 200 255
0.451038 0.329297 0.236469 0 200 255
0.354391 0.341928 0.175174 0 200 255
0.445147 0.244447 0.224787 0 200 255
0.417175 0.323249 0.215818 0 200 255
0.431219 0.358212 0.163870 0 200 255
0.393165 0.218532 0.206375 0 200 255
0.377486 0.310071 0.211796 0 200 255
0.448047 0.336938 0.218394 0 200 255
0.377971 0.230881 0.208268 0 200 255
0.464702 0.279554 0.241943 0 200 255
0.432038 0.379542 0.163842 0 200 255
0.394896 0.293128 0.242500 0 200 255
0.415055 0.320045 0.237912 0 200 255
0.443798 0.374308 0.175512 0 200 255
0.460482 0.327720 0.245481 0 200 255
0.475667 0.274535 0.206850 0 200 255
0.384702 0.317093 0.203816 0 200 255
0.362844 0.233885 0.196258 0 200 255
0.382352 0.325955 0.216860 0 200 255
0.386251 0.241724 0.209022 0 200 255
0.390077 0.232190 0.209750 0 200 255
0.417873 0.362447 0.187556 0 200 255
0.373099 0.325299 0.225204 0 200 255
0.392366 0.300277 0.227962 0 200 255
0.421721 0.340468 0.189882 0 200 255
0.448043 0.378132 0.203482 0 200 255
0.433073 0.372624 0.195803 0 200 255
0.425470 0.339487 0.208241 0 200 255
0.401123 0.299845 0.232847 0 200 255
0.396979 0.294116 0.230921 0 200 255
0.353771 0.238143 0.171326 0 200 255
0.455689 0.234953 0.213816 0 200 255
0.437082 0.389043 0.158868 0 200 255
0.438049 0.331206 0.210292 0 200 255
0.430881 0.352621 0.221338 0 200 255
0.446997 0.382996 0.158994 0 200 255
0.425966 0.359358 0.214474 0 200 255
0.486259 0.238880 0.231493 0 200 255
0.476237 0.251435 0.239261 0 200 255
0.444864 0.387102 0.166114 0 200 255
0.455154 0.235934 0.198339 0 200 255
0.370165 0.320244 0.216634 0 200 255
0.444850 0.222065 0.209320 0 200 255
0.337722 0.242521 0.183372 0 200 255
0.406276 0.257391 0.229932 0 200 255
0.410381 0.349771 0.153062 0 200 255
0.422991 0.370000 0.195696 0 200 255
0.346147 0.360281 0.164989 0 200 255
0.462565 0.238515 0.196934 0 200 255
0.452585 0.318757 0.240985 0 200 255
0.484720 0.275233 0.213050 0 200 255
0.459857 0.350530 0.211693 0 200 255
0.481590 0.263542 0.205982 0 200 255
0.391868 0.318875 0.214670 0 200 255
0.425703 0.232029 0.212050 0 200 255
0.362152 0.346837 0.183581 0 200 255
0.486151 0.233819 0.219365 0 200 255
0.400590 0.295943 0.215754 0 200 255
0.433755 0.237168 0.212744 0 200 255
0.452740 0.351732 0.234494 0 200 255
0.408455 0.308767 0.243283 0 200 255
0.410875 0.338612 0.207322 0 200 255
0.372758 0.314536 0.206279 0 200 255
0.424209 0.342984 0.202642 0 200 255
0.422432 0.334549 0.223059 0 200 255
0.457279 0.243960 0.207164 0 200 255
0.332505 0.247119 0.181488 0 200 255
0.416007 0.264075 0.207678 0 200 255
0.407914 0.293650 0.215447 0 200 255
0.452737 0.263144 0.239932 0 200 255
0.457595 0.230676 0.238099 0 200 255
0.403825 0.225649 0.190448 0 200 255
0.323450 0.250318 0.184834 0 200 255
0.373634 0.239810 0.170180 0 200 255
0.487468 0.273255 0.205691 0 200 255
0.415780 0.343400 0.215961 0 200 255
0.412785 0.348485 0.190734 0 200 255
0.408122 0.286333 0.205858 0 200 255
0.468056 0.296199 0.210166 0 200 255
0.430652 0.271597 0.206790 0 200 255
0.484420 0.238666 0.205346 0 200 255
0.388184 0.313438 0.215434 0 200 255
0.339476 0.349186 0.176766 0 200 255
0.361542 0.329759 0.186155 0 200 255
0.474444 0.263049 0.244312 0 200 255
0.381345 0.308168 0.224378 0 200 255
0.415081 0.347090 0.205214 0 200 255
0.462654 0.318902 0.232341 0 200 255
0.427539 0.248011 0.213796 0 200 255
0.421714 0.355121 0.179351 0 200 255
0.464401 0.294876 0.247405 0 200 255
0.370646 0.243358 0.187783 0 200 255
0.417137 0.348050 0.171864 0 200 255
0.451207 0.370673 0.198452 0 200 255
0.438004 0.239985 0.241814 0 200 255
0.430287 0.329887 0.228574 0 200 255
0.407340 0.305402 0.224778 0 200 255
0.412034 0.307547 0.234961 0 200 255
0.440096 0.371832 0.159773 0 200 255
0.413550 0.301522 0.218188 0 200 255
0.343177 0.224895 0.169089 0 200 255
0.329014 0.237025 0.160229 0 200 255
0.463990 0.310779 0.209003 0 200 255
0.411295 0.319528 0.229431 0 200 255
0.424784 0.305721 0.250365 0 200 255
0.385532 0.302493 0.221032 0 200 255
0.443414 0.232084 0.232931 0 200 255
0.425160 0.340269 0.220530 0 200 255
0.441370 0.329413 0.218915 0 200 255
0.418834 0.234974 0.210283 0 200 255
0.463886 0.334435 0.230394 0 200 255
0.411156 0.342062 0.136206 0 200 255
0.433266 0.313591 0.231662 0 200 255
0.391978 0.289870 0.228295 0 200 255
0.450768 0.320033 0.228385 0 200 255
0.357212 0.346211 0.198730 0 200 255
0.398407 0.308741 0.218798 0 200 255
0.411665 0.301783 0.247587 0 200 255
0.383604 0.216569 0.197704 0 200 255
0.380593 0.326315 0.223961 0 200 255
0.452011 0.273542 0.242551 0 200 255
0.439901 0.384151 0.173185 0 200 255
0.350063 0.234343 0.187306 0 200 255
0.425406 0.328622 0.200339 0 200 255
0.350166 0.333648 0.193007 0 200 255
0.350333 0.337122 0.183643 0 200 255
0.410277 0.236166 0.182928 0 200 255
0.431516 0.250364 0.240271 0 200 255
0.423556 0.258872 0.240810 0 200 255
0.359240 0.350113 0.172489 0 200 255
0.375389 0.332605 0.208226 0 200 255
0.362003 0.232402 0.166027 0 200 255
0.456243 0.359720 0.201684 0 200 255
0.419783 0.346200 0.177815 0 200 255
0.387481 0.244586 0.195643 0 200 255
0.430057 0.359084 0.170172 0 200 255
0.486281 0.289405 0.241498 0 200 255
0.483900 0.255034 0.221311 0 200 255
0.405886 0.354437 0.163137 0 200 255
0.454325 0.262278 0.205192 0 200 255
0.419462 0.235690 0.201238 0 200 255
0.360904 0.240555 0.196233 0 200 255
0.335894 0.233989 0.182368 0 200 255
0.371110 0.230419 0.176237 0 200 255
0.373099 0.213826 0.188438 0 200 255
0.396457 0.287496 0.216492 0 200 255
0.353221 0.355544 0.169201 0 200 255
0.479764 0.233926 0.240007 0 200 255
0.350472 0.240302 0.177930 0 200 255
0.425176 0.321366 0.235301 0 200 255
0.435511 0.361056 0.174796 0 200 255
0.447544 0.341735 0.230529 0 200 255
0.365860 0.227006 0.188437 0 200 255
0.421835 0.298209 0.234491 0 200 255
0.425555 0.365630 0.150205 0 200 255
