ply
format ascii 1.0
element vertex 1024
property float x
property float y
property float z
property uchar red
property uchar green
property uchar blue
end_header
0.464033 0.236529 0.249031 0 200 255
0.332977 0.354675 0.171646 0 200 255
0.349506 0.216950 0.173679 0 200 255
0.447765 0.362477 0.228397 0 200 255
0.378723 0.300038 0.239358 0 200 255
0.415832 0.342330 0.148722 0 200 255
0.484984 0.300779 0.225327 0 200 255
0.406867 0.242079 0.206810 0 200 255
0.435988 0.309110 0.257956 0 200 255
0.437945 0.389207 0.176503 0 200 255
0.398169 0.343539 0.204396 0 200 255
0.427184 0.287944 0.212454 0 200 255
0.346686 0.330045 0.213256 0 200 255
0.312527 0.249934 0.178407 0 200 255
0.468377 0.233358 0.200621 0 200 255
0.421649 0.258959 0.250211 0 200 255
0.374520 0.213435 0.209037 0 200 255
0.465439 0.277023 0.252860 0 200 255
0.429408 0.327347 0.221525 0 200 255
0.464678 0.270143 0.212229 0 200 255
0.468984 0.330710 0.243584 0 200 255
0.383317 0.235979 0.177153 0 200 255
0.430494 0.358539 0.195417 0 200 255
0.434893 0.228623 0.228238 0 200 255
0.395827 0.273031 0.224657 0 200 255
0.488784 0.260290 0.234526 0 200 255
0.407995 0.289823 0.253688 0 200 255
0.374910 0.311590 0.207775 0 200 255
0.333953 0.231861 0.199656 0 200 255
0.396768 0.351284 0.173236 0 200 255
0.353410 0.333739 0.182894 0 200 255
0.433845 0.256979 0.212254 0 200 255
0.406410 0.320307 0.240434 0 200 255
0.454648 0.310487 0.222188 0 200 255
0.419517 0.368763 0.163332 0 200 255
0.401413 0.215919 0.192924 0 200 255
0.419157 0.354683 0.223595 0 200 255
0.343372 0.245639 0.175968 0 200 255
0.361984 0.238682 0.204169 0 200 255
0.434548 0.382314 0.210473 0 200 255
0.485785 0.234044 0.224530 0 200 255
0.477052 0.303697 0.252275 0 200 255
0.441301 0.282752 0.236082 0 200 255
0.400164 0.300418 0.222242 0 200 255
0.365494 0.322324 0.231915 0 200 255
0.374110 0.211414 0.182208 0 200 255
0.442438 0.340356 0.241702 0 200 255
0.419534 0.330894 0.196991 0 200 255
0.447337 0.259297 0.248194 0 200 255
0.460254 0.243607 0.222236 0 200 255
0.445027 0.344477 0.210964 0 200 255
0.488268 0.277753 0.214197 0 200 255
0.407214 0.250696 0.231788 0 200 255
0.455381 0.216183 0.237979 0 200 255
0.397902 0.222420 0.218013 0 200 255
0.326138 0.229063 0.174807 0 200 255
0.450359 0.219687 0.207801 0 200 255
0.406312 0.322910 0.216931 0 200 255
0.420507 0.300003 0.236421 0 200 255
0.486155 0.282673 0.243423 0 200 255
0.420987 0.349320 0.175606 0 200 255
0.409854 0.368177 0.198091 0 200 255
0.343604 0.347401 0.198681 0 200 255
0.384850 0.240669 0.214776 0 200 255
0.480114 0.253858 0.210803 0 200 255
0.455012 0.297243 0.256609 0 200 255
0.352998 0.218407 0.204137 0 200 255
0.368023 0.331318 0.200902 0 200 255
0.444928 0.374583 0.191340 0 200 255
0.467167 0.291897 0.212183 0 200 255
0.402372 0.267932 0.245122 0 200 255
0.444286 0.318403 0.239551 0 200 255
0.429036 0.284675 0.254673 0 200 255
0.437651 0.238181 0.247465 0 200 255
0.402242 0.241638 0.185738 0 200 255
0.408113 0.333496 0.168792 0 200 255
0.413110 0.266506 0.213792 0 200 255
0.458430 0.342563 0.227508 0 200 255
0.362131 0.234385 0.174824 0 200 255
0.385426 0.316929 0.226743 0 200 255
0.425107 0.231584 0.209553 0 200 255
0.424627 0.381885 0.191456 0 200 255
0.454348 0.324578 0.257487 0 200 255
0.470269 0.256600 0.250579 0 200 255
0.408190 0.338674 0.231473 0 200 255
0.434879 0.304358 0.221613 0 200 255
0.468140 0.325395 0.221193 0 200 255
0.446391 0.282168 0.211715 0 200 255
0.437705 0.369589 0.173190 0 200 255
0.413360 0.308480 0.257114 0 200 255
0.425970 0.246133 0.227359 0 200 255
0.447209 0.367480 0.209514 0 200 255
0.396596 0.287835 0.237328 0 200 255
0.402092 0.334196 0.187735 0 200 255
0.426919 0.326946 0.240780 0 200 255
0.446499 0.238669 0.206871 0 200 255
0.412795 0.349435 0.193133 0 200 255
0.328433 0.247822 0.190314 0 200 255
0.334875 0.339090 0.183343 0 200 255
0.398553 0.349077 0.154321 0 200 255
0.405875 0.284028 0.212504 0 200 255
0.378915 0.236841 0.195827 0 200 255
0.349852 0.234205 0.189479 0 200 255
0.410255 0.364334 0.179668 0 200 255
0.477023 0.245963 0.236050 0 200 255
0.476617 0.315040 0.237676 0 200 255
0.415965 0.339924 0.213136 0 200 255
0.432664 0.381829 0.160492 0 200 255
0.453954 0.256093 0.207427 0 200 255
0.431585 0.368084 0.221988 0 200 255
0.339706 0.218347 0.188995 0 200 255
0.414160 0.228173 0.189226 0 200 255
0.391241 0.220020 0.178078 0 200 255
0.428354 0.354893 0.156477 0 200 255
0.447924 0.275512 0.255478 0 200 255
0.478999 0.227342 0.246766 0 200 255
0.412509 0.233635 0.221761 0 200 255
0.349351 0.348821 0.174498 0 200 255
0.444487 0.243157 0.230455 0 200 255
0.424574 0.344554 0.236723 0 200 255
0.363604 0.332784 0.217624 0 200 255
0.394885 0.307358 0.241104 0 200 255
0.316786 0.235193 0.188706 0 200 255
0.359115 0.318471 0.208601 0 200 255
0.363709 0.224023 0.190436 0 200 255
0.417032 0.305546 0.220544 0 200 255
0.387191 0.221628 0.200669 0 200 255
0.321476 0.243564 0.165252 0 200 255
0.437592 0.348782 0.226621 0 200 255
0.450951 0.326566 0.225786 0 200 255
0.410341 0.223996 0.206815 0 200 255
0.343778 0.330671 0.196786 0 200 255
0.379247 0.302324 0.221678 0 200 255
0.341635 0.230677 0.168583 0 200 255
0.430948 0.354905 0.211980 0 200 255
0.422130 0.241648 0.243058 0 200 255
0.412511 0.353870 0.161660 0 200 255
0.472933 0.306975 0.216161 0 200 255
0.419008 0.366154 0.211802 0 200 255
0.468763 0.317768 0.254416 0 200 255
0.416721 0.276317 0.248434 0 200 255
0.478901 0.266291 0.223272 0 200 255
0.431403 0.341092 0.203035 0 200 255
0.450654 0.231710 0.240714 0 200 255
0.425067 0.380117 0.174623 0 200 255
0.421765 0.246842 0.212044 0 200 255
0.397495 0.351522 0.189981 0 200 255
0.374263 0.230090 0.210037 0 200 255
0.434527 0.303167 0.242716 0 200 255
0.447231 0.297556 0.214113 0 200 255
0.376767 0.315423 0.240392 0 200 255
0.405145 0.327124 0.201470 0 200 255
0.355803 0.340898 0.205361 0 200 255
0.448521 0.215117 0.224296 0 200 255
0.366202 0.311706 0.220402 0 200 255
0.396100 0.299665 0.254309 0 200 255
0.390925 0.288670 0.218939 0 200 255
0.394300 0.238002 0.199113 0 200 255
0.459477 0.318045 0.239065 0 200 255
0.419978 0.322909 0.209848 0 200 255
0.435035 0.265844 0.253966 0 200 255
0.481454 0.238304 0.210744 0 200 255
0.479340 0.270135 0.248212 0 200 255
0.340384 0.354073 0.185646 0 200 255
0.451183 0.244255 0.249530 0 200 255
0.485494 0.297493 0.241519 0 200 255
0.425406 0.363741 0.179339 0 200 255
0.423268 0.316389 0.230863 0 200 255
0.452555 0.352088 0.238001 0 200 255
0.376637 0.325042 0.213953 0 200 255
0.364436 0.210894 0.198344 0 200 255
0.329301 0.251002 0.175934 0 200 255
0.400974 0.339851 0.218705 0 200 255
0.421721 0.297695 0.251726 0 200 255
0.469143 0.291076 0.253768 0 200 255
0.455560 0.335704 0.246025 0 200 255
0.366731 0.239030 0.188223 0 200 255
0.438179 0.387395 0.192028 0 200 255
0.371474 0.223558 0.172636 0 200 255
0.335634 0.233080 0.184916 0 200 255
0.448487 0.229988 0.223623 0 200 255
0.452765 0.355558 0.215885 0 200 255
0.436339 0.239068 0.218552 0 200 255
0.467535 0.247103 0.209828 0 200 255
0.429735 0.371697 0.200956 0 200 255
0.488136 0.276535 0.230699 0 200 255
0.404348 0.336121 0.155170 0 200 255
0.405871 0.298392 0.241955 0 200 255
0.434693 0.253135 0.246646 0 200 255
0.356910 0.325685 0.194216 0 200 255
0.414520 0.352572 0.206806 0 200 255
0.439862 0.335020 0.228484 0 200 255
0.338145 0.340688 0.169761 0 200 255
0.428908 0.270069 0.213016 0 200 255
0.406288 0.254848 0.217467 0 200 255
0.354694 0.322632 0.222005 0 200 255
0.441442 0.296893 0.253087 0 200 255
0.415499 0.327100 0.226632 0 200 255
0.482980 0.252136 0.225055 0 200 255
0.385408 0.213278 0.189840 0 200 255
0.441283 0.321401 0.254731 0 200 255
0.445460 0.252021 0.217557 0 200 255
0.442874 0.355917 0.203703 0 200 255
0.384925 0.220730 0.214214 0 200 255
0.342354 0.245557 0.189569 0 200 255
0.408728 0.353477 0.146179 0 200 255
0.353860 0.345073 0.190084 0 200 255
0.458265 0.265709 0.253607 0 200 255
0.407164 0.292028 0.229964 0 200 255
0.399364 0.235705 0.217438 0 200 255
0.361710 0.216006 0.178971 0 200 255
0.314908 0.236208 0.175085 0 200 255
0.417426 0.341632 0.163095 0 200 255
0.488958 0.288219 0.224320 0 200 255
0.479669 0.268996 0.209314 0 200 255
0.388876 0.241766 0.187629 0 200 255
0.347744 0.230319 0.202014 0 200 255
0.400690 0.228822 0.188303 0 200 255
0.432999 0.371554 0.186745 0 200 255
0.334461 0.241588 0.167164 0 200 255
0.411542 0.310408 0.233507 0 200 255
0.451589 0.268092 0.212181 0 200 255
0.410120 0.255694 0.243547 0 200 255
0.451266 0.311898 0.256662 0 200 255
0.395570 0.284468 0.249896 0 200 255
0.422400 0.309289 0.245374 0 200 255
0.431142 0.355096 0.169832 0 200 255
0.400615 0.261862 0.230639 0 200 255
0.408277 0.345897 0.176067 0 200 255
0.369993 0.307220 0.232907 0 200 255
0.442282 0.314960 0.220873 0 200 255
0.418068 0.369966 0.188334 0 200 255
0.459001 0.234085 0.230700 0 200 255
0.418377 0.361804 0.152446 0 200 255
0.399958 0.216004 0.207160 0 200 255
0.419613 0.339906 0.225962 0 200 255
0.390188 0.296570 0.229070 0 200 255
0.414454 0.339607 0.185175 0 200 255
0.423284 0.231656 0.232302 0 200 255
0.375677 0.221346 0.193601 0 200 255
0.474216 0.243006 0.224062 0 200 255
0.403282 0.327103 0.230052 0 200 255
0.472965 0.280869 0.210116 0 200 255
0.479559 0.312375 0.225713 0 200 255
0.441888 0.375073 0.217999 0 200 255
0.462230 0.329983 0.233162 0 200 255
0.326308 0.226713 0.190134 0 200 255
0.337319 0.222728 0.177119 0 200 255
0.394274 0.275666 0.237813 0 200 255
0.449270 0.337818 0.220502 0 200 255
0.351538 0.221734 0.190301 0 200 255
0.399919 0.226816 0.200767 0 200 255
0.442508 0.380333 0.169191 0 200 255
0.363731 0.222052 0.209012 0 200 255
0.459819 0.281353 0.210555 0 200 255
0.437839 0.253395 0.226979 0 200 255
0.437985 0.334780 0.213150 0 200 255
0.385585 0.312930 0.215271 0 200 255
0.442773 0.377513 0.202890 0 200 255
0.440577 0.355790 0.236032 0 200 255
0.429982 0.317032 0.250762 0 200 255
0.464064 0.306687 0.255144 0 200 255
0.415457 0.240741 0.231297 0 200 255
0.478401 0.295648 0.214268 0 200 255
0.349433 0.227798 0.179313 0 200 255
0.448096 0.329691 0.238019 0 200 255
0.407670 0.284039 0.243184 0 200 255
0.424766 0.347795 0.195644 0 200 255
0.399082 0.343181 0.164744 0 200 255
0.395622 0.309354 0.229349 0 200 255
0.458373 0.253263 0.252428 0 200 255
0.464210 0.219389 0.245247 0 200 255
0.416395 0.279705 0.215908 0 200 255
0.482715 0.259174 0.244635 0 200 255
0.445127 0.222095 0.236667 0 200 255
0.403155 0.343071 0.145271 0 200 255
0.461880 0.225155 0.206034 0 200 255
0.340697 0.220976 0.200683 0 200 255
0.375475 0.324114 0.225581 0 200 255
0.327161 0.239930 0.180601 0 200 255
0.437022 0.286140 0.218543 0 200 255
0.423941 0.260597 0.207265 0 200 255
0.447620 0.287159 0.254830 0 200 255
0.456890 0.293660 0.219346 0 200 255
0.411878 0.222436 0.218598 0 200 255
0.403653 0.353222 0.200972 0 200 255
0.358676 0.223200 0.170181 0 200 255
0.425176 0.333168 0.209013 0 200 255
0.406260 0.277143 0.253158 0 200 255
0.489827 0.268019 0.220132 0 200 255
0.376778 0.240905 0.206635 0 200 255
0.393807 0.231798 0.179631 0 200 255
0.421387 0.354852 0.187273 0 200 255
0.457268 0.242132 0.208491 0 200 255
0.388607 0.295140 0.242235 0 200 255
0.477148 0.282453 0.250388 0 200 255
0.411882 0.245192 0.219726 0 200 255
0.401890 0.265304 0.218941 0 200 255
0.467300 0.259253 0.210363 0 200 255
0.438858 0.366508 0.196634 0 200 255
0.470225 0.246365 0.245770 0 200 255
0.485823 0.238913 0.236736 0 200 255
0.433866 0.365989 0.211159 0 200 255
0.336348 0.338921 0.194981 0 200 255
0.368491 0.318845 0.202075 0 200 255
0.372686 0.239591 0.176866 0 200 255
0.455818 0.275100 0.247485 0 200 255
0.382606 0.211462 0.201424 0 200 255
0.407002 0.356535 0.170991 0 200 255
0.425478 0.237123 0.219961 0 200 255
0.445778 0.310601 0.230466 0 200 255
0.351899 0.238581 0.174135 0 200 255
0.444214 0.377067 0.179622 0 200 255
0.438364 0.329933 0.243215 0 200 255
0.440336 0.273121 0.209942 0 200 255
0.379955 0.220742 0.181546 0 200 255
0.407625 0.347307 0.214040 0 200 255
0.398509 0.342346 0.179749 0 200 255
0.359994 0.228661 0.200141 0 200 255
0.452978 0.318342 0.247863 0 200 255
0.361240 0.338970 0.196066 0 200 255
0.343174 0.337071 0.205643 0 200 255
0.406096 0.355360 0.184313 0 200 255
0.430898 0.295179 0.257097 0 200 255
0.433355 0.243776 0.209183 0 200 255
0.429411 0.335203 0.231575 0 200 255
0.325209 0.237136 0.195852 0 200 255
0.414857 0.234752 0.205935 0 200 255
0.429438 0.386357 0.182578 0 200 255
0.350761 0.324790 0.203057 0 200 255
0.411648 0.239653 0.190646 0 200 255
0.344712 0.338866 0.188187 0 200 255
0.416867 0.328461 0.237245 0 200 255
0.424423 0.361107 0.204004 0 200 255
0.431444 0.383691 0.200299 0 200 255
0.427765 0.365618 0.157268 0 200 255
0.409294 0.316006 0.224533 0 200 255
0.430394 0.311788 0.237938 0 200 255
0.419958 0.342065 0.203471 0 200 255
0.413151 0.360627 0.190789 0 200 255
0.409839 0.319618 0.207393 0 200 255
0.406354 0.339419 0.195966 0 200 255
0.429823 0.388039 0.169374 0 200 255
0.447907 0.340823 0.232608 0 200 255
0.463006 0.304105 0.220942 0 200 255
0.434520 0.359878 0.227998 0 200 255
0.410789 0.297016 0.220933 0 200 255
0.468165 0.268316 0.247512 0 200 255
0.389589 0.231266 0.215733 0 200 255
0.400900 0.287153 0.222091 0 200 255
0.329706 0.345379 0.175469 0 200 255
0.404466 0.302764 0.231739 0 200 255
0.426831 0.272496 0.254244 0 200 255
0.469473 0.322397 0.231956 0 200 255
0.365009 0.210433 0.187466 0 200 255
0.405757 0.305865 0.250281 0 200 255
0.430593 0.248541 0.218179 0 200 255
0.459714 0.286572 0.254785 0 200 255
0.409600 0.334544 0.221304 0 200 255
0.353738 0.337159 0.216240 0 200 255
0.417199 0.369774 0.174080 0 200 255
0.343478 0.238889 0.197515 0 200 255
0.428419 0.349211 0.221683 0 200 255
0.485429 0.271833 0.239924 0 200 255
0.428077 0.365386 0.168219 0 200 255
0.426770 0.310778 0.222825 0 200 255
0.360560 0.328767 0.208320 0 200 255
0.481414 0.305789 0.236774 0 200 255
0.386859 0.313668 0.238680 0 200 255
0.421132 0.260921 0.217248 0 200 255
0.318851 0.246829 0.186000 0 200 255
0.442866 0.268571 0.247123 0 200 255
0.392637 0.213045 0.198797 0 200 255
0.426277 0.376131 0.210111 0 200 255
0.374041 0.210357 0.194589 0 200 255
0.456273 0.346043 0.217798 0 200 255
0.370601 0.226991 0.182292 0 200 255
0.419383 0.370866 0.200834 0 200 255
0.344509 0.335433 0.175856 0 200 255
0.462671 0.325973 0.250128 0 200 255
0.390937 0.221895 0.190166 0 200 255
0.469851 0.320353 0.244576 0 200 255
0.455560 0.224489 0.247204 0 200 255
0.331111 0.232011 0.165909 0 200 255
0.310279 0.241504 0.183731 0 200 255
0.435483 0.345504 0.214461 0 200 255
0.481488 0.286053 0.212680 0 200 255
0.420428 0.227293 0.221181 0 200 255
0.422014 0.353195 0.165133 0 200 255
0.417234 0.283676 0.255391 0 200 255
0.396676 0.241224 0.209371 0 200 255
0.459528 0.339423 0.237068 0 200 255
0.398582 0.273717 0.214430 0 200 255
0.458625 0.320340 0.223734 0 200 255
0.479933 0.292141 0.250638 0 200 255
0.381638 0.308105 0.229640 0 200 255
0.484420 0.244266 0.218242 0 200 255
0.430687 0.355475 0.181339 0 200 255
0.435458 0.238568 0.228764 0 200 255
0.442885 0.232463 0.214950 0 200 255
0.334250 0.235295 0.174873 0 200 255
0.406475 0.336488 0.178720 0 200 255
0.433638 0.350843 0.200864 0 200 255
0.412078 0.298659 0.256390 0 200 255
0.428607 0.324711 0.231262 0 200 255
0.466199 0.240406 0.233116 0 200 255
0.421061 0.318376 0.241750 0 200 255
0.481322 0.230132 0.236911 0 200 255
0.389009 0.213663 0.208589 0 200 255
0.401776 0.353241 0.163317 0 200 255
0.452759 0.354387 0.225660 0 200 255
0.359155 0.232281 0.186938 0 200 255
0.435665 0.305293 0.231370 0 200 255
0.349028 0.214658 0.183220 0 200 255
0.436770 0.232110 0.237227 0 200 255
0.416223 0.319406 0.218477 0 200 255
0.434639 0.343644 0.236757 0 200 255
0.429147 0.297295 0.214632 0 200 255
0.434790 0.232262 0.208341 0 200 255
0.341387 0.230315 0.192460 0 200 255
0.468271 0.227730 0.249527 0 200 255
0.368897 0.219839 0.200471 0 200 255
0.408096 0.345040 0.203917 0 200 255
0.379173 0.240925 0.186945 0 200 255
0.442309 0.325250 0.231535 0 200 255
0.469303 0.315835 0.222748 0 200 255
0.401603 0.333446 0.207957 0 200 255
0.441167 0.369511 0.225920 0 200 255
0.433248 0.372919 0.165058 0 200 255
0.333915 0.240128 0.192369 0 200 255
0.390106 0.304428 0.223133 0 200 255
0.342348 0.352922 0.169262 0 200 255
0.445722 0.241243 0.217852 0 200 255
0.397946 0.342029 0.191694 0 200 255
0.346359 0.214524 0.194826 0 200 255
0.415717 0.250177 0.227013 0 200 255
0.411186 0.263941 0.248386 0 200 255
0.438314 0.275290 0.255555 0 200 255
0.365789 0.321115 0.222399 0 200 255
0.414494 0.355689 0.178670 0 200 255
0.399350 0.218682 0.183022 0 200 255
0.425479 0.360285 0.217729 0 200 255
0.478576 0.311007 0.246288 0 200 255
0.411373 0.358964 0.200176 0 200 255
0.335808 0.249039 0.182654 0 200 255
0.420737 0.329714 0.218374 0 200 255
0.408708 0.220400 0.197085 0 200 255
0.411834 0.363670 0.166983 0 200 255
0.443215 0.253768 0.208498 0 200 255
0.369006 0.239742 0.197890 0 200 255
0.397748 0.229613 0.210357 0 200 255
0.351196 0.229555 0.170210 0 200 255
0.408348 0.327898 0.192631 0 200 255
0.451080 0.311267 0.241932 0 200 255
0.436744 0.378410 0.194570 0 200 255
0.426235 0.366977 0.193601 0 200 255
0.422668 0.307074 0.257241 0 200 255
0.451176 0.321782 0.233960 0 200 255
0.372123 0.315037 0.228147 0 200 255
0.441813 0.368282 0.185106 0 200 255
0.486565 0.242780 0.227852 0 200 255
0.415350 0.357836 0.214522 0 200 255
0.346125 0.237250 0.181435 0 200 255
0.387498 0.241572 0.205831 0 200 255
0.447909 0.364986 0.218501 0 200 255
0.425868 0.376956 0.183610 0 200 255
0.474461 0.238107 0.246844 0 200 255
0.349937 0.342305 0.181161 0 200 255
0.318991 0.250086 0.171673 0 200 255
0.414775 0.304383 0.248429 0 200 255
0.433436 0.317048 0.224426 0 200 255
0.417286 0.339536 0.194458 0 200 255
0.444429 0.251468 0.252228 0 200 255
0.407740 0.221938 0.186825 0 200 255
0.411344 0.292124 0.213099 0 200 255
0.441767 0.223655 0.223487 0 200 255
0.427221 0.234467 0.240281 0 200 255
0.362636 0.329036 0.226267 0 200 255
0.437877 0.288680 0.255297 0 200 255
0.436728 0.295467 0.220097 0 200 255
0.416577 0.341710 0.172902 0 200 255
0.373721 0.307062 0.216048 0 200 255
0.374685 0.326514 0.205103 0 200 255
0.418008 0.251174 0.244774 0 200 255
0.348871 0.339972 0.196286 0 200 255
0.416074 0.348142 0.217447 0 200 255
0.432868 0.229007 0.219326 0 200 255
0.419660 0.297817 0.227585 0 200 255
0.413772 0.350412 0.170026 0 200 255
0.478019 0.251341 0.244754 0 200 255
0.402737 0.238062 0.194127 0 200 255
0.406025 0.232019 0.206287 0 200 255
0.484292 0.293627 0.230911 0 200 255
0.455255 0.234208 0.219247 0 200 255
0.405168 0.228726 0.216911 0 200 255
0.418163 0.272605 0.209331 0 200 255
0.417748 0.238071 0.213871 0 200 255
0.441214 0.342232 0.220681 0 200 255
0.413353 0.336449 0.156127 0 200 255
0.406005 0.354440 0.155379 0 200 255
0.379865 0.320051 0.233245 0 200 255
0.320374 0.230907 0.181606 0 200 255
0.333204 0.347964 0.183595 0 200 255
0.450813 0.344045 0.241718 0 200 255
0.413796 0.350031 0.152966 0 200 255
0.429873 0.349563 0.231145 0 200 255
0.437915 0.387234 0.165339 0 200 255
0.437839 0.315441 0.245018 0 200 255
0.421025 0.336109 0.235152 0 200 255
0.411122 0.345904 0.142015 0 200 255
0.461424 0.245088 0.250498 0 200 255
0.402201 0.331122 0.217256 0 200 255
0.443640 0.302690 0.221141 0 200 255
0.398051 0.295879 0.233236 0 200 255
0.380901 0.226290 0.174620 0 200 255
0.334040 0.222298 0.194889 0 200 255
0.338928 0.346395 0.190858 0 200 255
0.393574 0.222314 0.207390 0 200 255
0.450683 0.358477 0.207747 0 200 255
0.444829 0.221025 0.214632 0 200 255
0.413726 0.348298 0.183582 0 200 255
0.397335 0.298712 0.244278 0 200 255
0.414384 0.244178 0.239608 0 200 255
0.381874 0.299149 0.230495 0 200 255
0.428782 0.279438 0.210807 0 200 255
0.364951 0.232583 0.209791 0 200 255
0.370263 0.218449 0.187327 0 200 255
0.361182 0.226616 0.178799 0 200 255
0.425629 0.305175 0.216181 0 200 255
0.441054 0.383700 0.184400 0 200 255
0.311570 0.243699 0.172019 0 200 255
0.419353 0.268127 0.246873 0 200 255
0.433838 0.359091 0.203693 0 200 255
0.407365 0.272944 0.214988 0 200 255
0.435080 0.354605 0.220160 0 200 255
0.370476 0.215182 0.174735 0 200 255
0.375986 0.221768 0.211813 0 200 255
0.353758 0.325023 0.213712 0 200 255
0.386437 0.241607 0.195958 0 200 255
0.385849 0.213720 0.181182 0 200 255
0.409672 0.257371 0.225044 0 200 255
0.348022 0.349815 0.185772 0 200 255
0.475358 0.240091 0.204853 0 200 255
0.409143 0.343518 0.221679 0 200 255
0.346526 0.330465 0.187168 0 200 255
0.454553 0.235415 0.203793 0 200 255
0.443831 0.349117 0.241824 0 200 255
0.445252 0.352385 0.229651 0 200 255
0.400876 0.338418 0.172461 0 200 255
0.428972 0.372465 0.174051 0 200 255
0.330342 0.224311 0.181892 0 200 255
0.400773 0.290387 0.244392 0 200 255
0.323298 0.237331 0.173380 0 200 255
0.439480 0.362690 0.220984 0 200 255
0.362000 0.315384 0.227530 0 200 255
0.460544 0.330086 0.241930 0 200 255
0.432096 0.303555 0.252755 0 200 255
0.490176 0.284042 0.236008 0 200 255
0.408142 0.339522 0.162162 0 200 255
0.381097 0.319251 0.209561 0 200 255
0.433738 0.375502 0.215533 0 200 255
0.392229 0.282242 0.224373 0 200 255
0.397819 0.274907 0.246843 0 200 255
0.460890 0.310343 0.215589 0 200 255
0.409353 0.336875 0.148272 0 200 255
0.449208 0.248221 0.210965 0 200 255
0.401079 0.285621 0.230478 0 200 255
0.429524 0.361483 0.187209 0 200 255
0.428344 0.301309 0.232823 0 200 255
0.458968 0.264017 0.245350 0 200 255
0.468620 0.249243 0.223052 0 200 255
0.421632 0.352839 0.202284 0 200 255
0.469207 0.300007 0.255032 0 200 255
0.442596 0.230781 0.230890 0 200 255
0.426768 0.380413 0.166342 0 200 255
0.335090 0.348590 0.166216 0 200 255
0.401677 0.335046 0.225580 0 200 255
0.354091 0.332425 0.201883 0 200 255
0.360111 0.321127 0.200686 0 200 255
0.381446 0.232418 0.213709 0 200 255
0.420436 0.244526 0.221276 0 200 255
0.405467 0.242139 0.215325 0 200 255
0.446389 0.305229 0.257856 0 200 255
0.340462 0.355640 0.177456 0 200 255
0.325413 0.251356 0.183288 0 200 255
0.485921 0.262291 0.225276 0 200 255
0.446059 0.249851 0.225561 0 200 255
0.471842 0.223628 0.243247 0 200 255
0.470804 0.297915 0.216700 0 200 255
0.397034 0.350304 0.181546 0 200 255
0.364078 0.214265 0.206188 0 200 255
0.481347 0.254362 0.237801 0 200 255
0.408179 0.320664 0.232360 0 200 255
0.370310 0.329841 0.211677 0 200 255
0.426939 0.251407 0.207538 0 200 255
0.404298 0.348462 0.193452 0 200 255
0.438089 0.257533 0.252714 0 200 255
0.425912 0.250898 0.247023 0 200 255
0.456147 0.304432 0.252784 0 200 255
0.414043 0.307447 0.240842 0 200 255
0.484626 0.294160 0.220477 0 200 255
0.412240 0.361644 0.207887 0 200 255
0.389724 0.304282 0.231966 0 200 255
0.368533 0.314706 0.235914 0 200 255
0.455469 0.315674 0.229676 0 200 255
0.439851 0.308566 0.216382 0 200 255
0.472742 0.230741 0.207023 0 200 255
0.440770 0.332860 0.220592 0 200 255
0.383434 0.306734 0.241297 0 200 255
0.413552 0.361612 0.159029 0 200 255
0.466524 0.241898 0.203627 0 200 255
0.448706 0.305481 0.215276 0 200 255
0.404055 0.220373 0.212674 0 200 255
0.372634 0.231759 0.174695 0 200 255
0.447649 0.363448 0.202084 0 200 255
0.449941 0.317451 0.219867 0 200 255
0.362643 0.336818 0.203815 0 200 255
0.382930 0.319948 0.218345 0 200 255
0.421998 0.348270 0.229718 0 200 255
0.437291 0.331492 0.235333 0 200 255
0.344334 0.225594 0.185213 0 200 255
0.363744 0.233630 0.194957 0 200 255
0.458673 0.330298 0.225892 0 200 255
0.439103 0.350240 0.208076 0 200 255
0.420218 0.361749 0.195019 0 200 255
0.412096 0.300376 0.233017 0 200 255
0.358613 0.220868 0.185001 0 200 255
0.406637 0.233501 0.185457 0 200 255
0.409843 0.292144 0.245198 0 200 255
0.368005 0.311619 0.212524 0 200 255
0.445225 0.370820 0.199094 0 200 255
0.416136 0.320682 0.235216 0 200 255
0.354560 0.234129 0.204038 0 200 255
0.352606 0.332815 0.191909 0 200 255
0.358026 0.221301 0.197513 0 200 255
0.404748 0.342667 0.184832 0 200 255
0.461475 0.251590 0.207014 0 200 255
0.355392 0.330583 0.223019 0 200 255
0.438338 0.309598 0.237614 0 200 255
0.422438 0.322554 0.222484 0 200 255
0.394640 0.241167 0.182077 0 200 255
0.472556 0.265535 0.208019 0 200 255
0.430999 0.329983 0.214129 0 200 255
0.357266 0.236906 0.180683 0 200 255
0.452719 0.349421 0.210746 0 200 255
0.392439 0.217283 0.214850 0 200 255
0.327684 0.233327 0.185843 0 200 255
0.342954 0.238129 0.173279 0 200 255
0.350070 0.223596 0.198421 0 200 255
0.420323 0.354009 0.155205 0 200 255
0.428224 0.374918 0.193837 0 200 255
0.350976 0.335213 0.208993 0 200 255
0.396014 0.291772 0.253014 0 200 255
0.419855 0.290996 0.212942 0 200 255
0.332737 0.243559 0.176245 0 200 255
0.424503 0.356276 0.174052 0 200 255
0.487199 0.277960 0.222946 0 200 255
0.434759 0.366879 0.180037 0 200 255
0.402591 0.263118 0.238824 0 200 255
0.417330 0.227519 0.208082 0 200 255
0.458978 0.318455 0.255502 0 200 255
0.461165 0.301026 0.213872 0 200 255
0.396156 0.241878 0.191923 0 200 255
0.491269 0.270118 0.234864 0 200 255
0.474031 0.263539 0.249840 0 200 255
0.373693 0.306879 0.239893 0 200 255
0.360707 0.316118 0.216805 0 200 255
0.451963 0.275889 0.213466 0 200 255
0.410900 0.331253 0.231778 0 200 255
0.453808 0.280775 0.255115 0 200 255
0.461460 0.233392 0.207050 0 200 255
0.393107 0.282166 0.232219 0 200 255
0.453461 0.300655 0.220583 0 200 255
0.447392 0.332012 0.230519 0 200 255
0.448092 0.291599 0.219201 0 200 255
0.397203 0.347365 0.197575 0 200 255
0.345714 0.342878 0.169762 0 200 255
0.469709 0.281468 0.247961 0 200 255
0.395460 0.294138 0.222813 0 200 255
0.449336 0.327426 0.245450 0 200 255
0.406712 0.289966 0.238105 0 200 255
0.441260 0.372551 0.210594 0 200 255
0.477176 0.249538 0.216657 0 200 255
0.448190 0.357677 0.234707 0 200 255
0.419742 0.372274 0.181060 0 200 255
0.373147 0.305992 0.225865 0 200 255
0.376260 0.220592 0.204116 0 200 255
0.405822 0.346275 0.168685 0 200 255
0.439212 0.384197 0.200513 0 200 255
0.392808 0.214503 0.184581 0 200 255
0.451005 0.268316 0.254640 0 200 255
0.453435 0.241185 0.216322 0 200 255
0.408361 0.339753 0.211542 0 200 255
0.428304 0.369965 0.215073 0 200 255
0.384784 0.310066 0.222721 0 200 255
0.481837 0.304924 0.219577 0 200 255
0.430817 0.319205 0.240115 0 200 255
0.423220 0.332916 0.224965 0 200 255
0.421343 0.327980 0.203915 0 200 255
0.411917 0.317448 0.245039 0 200 255
0.395970 0.282045 0.217616 0 200 255
0.443577 0.312588 0.256761 0 200 255
0.469320 0.233145 0.243920 0 200 255
0.392396 0.238863 0.216419 0 200 255
0.437727 0.328023 0.225983 0 200 255
0.413371 0.326200 0.198232 0 200 255
0.399837 0.343344 0.211924 0 200 255
0.407770 0.355169 0.191914 0 200 255
0.425830 0.360161 0.151400 0 200 255
0.423789 0.352297 0.216362 0 200 255
0.437744 0.250786 0.216433 0 200 255
0.439453 0.375785 0.186071 0 200 255
0.401191 0.335254 0.199862 0 200 255
0.462713 0.296051 0.253999 0 200 255
0.370126 0.328830 0.219276 0 200 255
0.434704 0.318487 0.257353 0 200 255
0.370126 0.239567 0.210172 0 200 255
0.328015 0.245195 0.169154 0 200 255
0.392292 0.287447 0.243636 0 200 255
0.370797 0.211205 0.202753 0 200 255
0.430915 0.316668 0.231622 0 200 255
0.417576 0.241913 0.207280 0 200 255
0.356823 0.340448 0.184147 0 200 255
0.425386 0.369495 0.185377 0 200 255
0.430670 0.360808 0.162704 0 200 255
0.472352 0.325693 0.238938 0 200 255
0.317933 0.242448 0.178226 0 200 255
0.445020 0.239115 0.249127 0 200 255
0.403365 0.351702 0.177614 0 200 255
0.472310 0.309222 0.254357 0 200 255
0.442960 0.233226 0.241427 0 200 255
0.420013 0.312893 0.253220 0 200 255
0.442240 0.239181 0.224446 0 200 255
0.410925 0.368524 0.190283 0 200 255
0.449541 0.226872 0.215312 0 200 255
0.410295 0.333453 0.186390 0 200 255
0.394198 0.221784 0.197982 0 200 255
0.419147 0.237543 0.223960 0 200 255
0.343170 0.223342 0.168846 0 200 255
0.462980 0.259170 0.252364 0 200 255
0.431770 0.383418 0.175147 0 200 255
0.435440 0.245097 0.249295 0 200 255
0.439807 0.238574 0.211910 0 200 255
0.399791 0.235660 0.204302 0 200 255
0.405352 0.325672 0.210043 0 200 255
0.431409 0.235487 0.214183 0 200 255
0.468335 0.284700 0.214562 0 200 255
0.389924 0.289919 0.234722 0 200 255
0.444062 0.320456 0.226107 0 200 255
0.423296 0.371358 0.169360 0 200 255
0.325867 0.237564 0.164895 0 200 255
0.431946 0.383132 0.191026 0 200 255
0.409637 0.271075 0.250498 0 200 255
0.355042 0.232582 0.196217 0 200 255
0.429438 0.337776 0.238550 0 200 255
0.454330 0.224331 0.203567 0 200 255
0.454100 0.346243 0.232292 0 200 255
0.436254 0.265372 0.246039 0 200 255
0.456693 0.316384 0.216970 0 200 255
0.385620 0.229521 0.179997 0 200 255
0.442124 0.344648 0.235656 0 200 255
0.470151 0.246232 0.230775 0 200 255
0.342755 0.217967 0.181048 0 200 255
0.421008 0.324369 0.230763 0 200 255
0.397421 0.225869 0.182204 0 200 255
0.415010 0.362737 0.173606 0 200 255
0.480713 0.261884 0.211002 0 200 255
0.344139 0.329753 0.205547 0 200 255
0.360503 0.324804 0.218007 0 200 255
0.332382 0.230056 0.192659 0 200 255
0.417795 0.360283 0.183403 0 200 255
0.399873 0.295694 0.216594 0 200 255
0.416590 0.290978 0.256122 0 200 255
0.433735 0.247323 0.227662 0 200 255
0.442185 0.263642 0.252717 0 200 255
0.458027 0.270547 0.209128 0 200 255
0.425915 0.363820 0.210655 0 200 255
0.428816 0.257804 0.251263 0 200 255
0.403258 0.299039 0.249449 0 200 255
0.395311 0.289894 0.229082 0 200 255
0.426456 0.356073 0.223626 0 200 255
0.462884 0.237164 0.224479 0 200 255
0.334592 0.227144 0.171977 0 200 255
0.425645 0.230506 0.216757 0 200 255
0.454526 0.237894 0.248322 0 200 255
0.404040 0.256606 0.235901 0 200 255
0.418765 0.301127 0.215022 0 200 255
0.418837 0.353263 0.194458 0 200 255
0.429448 0.343030 0.228003 0 200 255
0.376979 0.218357 0.175310 0 200 255
0.440719 0.259749 0.245006 0 200 255
0.406761 0.302162 0.224693 0 200 255
0.340789 0.228209 0.201074 0 200 255
0.417847 0.264880 0.208562 0 200 255
0.411441 0.256569 0.232026 0 200 255
0.409978 0.282956 0.250975 0 200 255
0.440566 0.342551 0.228788 0 200 255
0.402009 0.351421 0.147893 0 200 255
0.339126 0.238106 0.179404 0 200 255
0.429069 0.232484 0.224388 0 200 255
0.429775 0.310796 0.247129 0 200 255
0.422363 0.357337 0.211396 0 200 255
0.350515 0.222097 0.168721 0 200 255
0.436977 0.340025 0.207488 0 200 255
0.399907 0.217841 0.200186 0 200 255
0.342818 0.227668 0.176474 0 200 255
0.454122 0.333119 0.236144 0 200 255
0.439397 0.363903 0.207084 0 200 255
0.441908 0.325143 0.239048 0 200 255
0.367139 0.231898 0.188756 0 200 255
0.401104 0.341695 0.152063 0 200 255
0.351461 0.344893 0.200787 0 200 255
0.415066 0.332443 0.191632 0 200 255
0.373088 0.320505 0.235463 0 200 255
0.372630 0.239938 0.184249 0 200 255
0.425271 0.377248 0.200467 0 200 255
0.425830 0.253337 0.215885 0 200 255
0.443244 0.336348 0.235636 0 200 255
0.413490 0.345311 0.209169 0 200 255
0.489377 0.267901 0.228356 0 200 255
0.348517 0.341587 0.206980 0 200 255
0.333818 0.353920 0.179358 0 200 255
0.441773 0.281442 0.254628 0 200 255
0.413834 0.345820 0.199776 0 200 255
0.421085 0.368104 0.156422 0 200 255
0.440497 0.363058 0.230152 0 200 255
0.409382 0.339237 0.172854 0 200 255
0.410247 0.317565 0.214408 0 200 255
0.478127 0.244491 0.209823 0 200 255
0.440588 0.247263 0.209478 0 200 255
0.451858 0.258932 0.253631 0 200 255
0.417194 0.342763 0.155655 0 200 255
0.380204 0.215610 0.212646 0 200 255
0.479793 0.279195 0.210865 0 200 255
0.369337 0.326999 0.227568 0 200 255
0.363831 0.334539 0.210790 0 200 255
0.461556 0.336291 0.228355 0 200 255
0.460097 0.237740 0.213231 0 200 255
0.439301 0.379571 0.162955 0 200 255
0.476120 0.315139 0.220210 0 200 255
0.398590 0.301651 0.237997 0 200 255
0.385716 0.241478 0.181337 0 200 255
0.415578 0.340042 0.220188 0 200 255
0.415515 0.371383 0.194793 0 200 255
0.433623 0.366007 0.202353 0 200 255
0.416832 0.333789 0.228988 0 200 255
0.414112 0.300435 0.241298 0 200 255
0.461057 0.313847 0.222602 0 200 255
0.446612 0.350774 0.207564 0 200 255
0.482664 0.303820 0.243393 0 200 255
0.417241 0.362789 0.203109 0 200 255
0.428245 0.313958 0.256814 0 200 255
0.435538 0.300402 0.215274 0 200 255
0.432880 0.326246 0.245509 0 200 255
0.404881 0.293637 0.222533 0 200 255
0.485263 0.276102 0.245632 0 200 255
0.341949 0.334018 0.183264 0 200 255
0.479501 0.250213 0.230800 0 200 255
0.338540 0.239215 0.186561 0 200 255
0.434091 0.263948 0.211884 0 200 255
0.350118 0.326356 0.195679 0 200 255
0.433896 0.370392 0.193564 0 200 255
0.409361 0.314123 0.238982 0 200 255
0.435840 0.374062 0.203319 0 200 255
0.357168 0.223740 0.205755 0 200 255
0.475027 0.287432 0.214866 0 200 255
0.438358 0.373358 0.179014 0 200 255
0.354530 0.226740 0.183926 0 200 255
0.391645 0.224625 0.215860 0 200 255
0.418661 0.335471 0.205243 0 200 255
0.389135 0.313590 0.231579 0 200 255
0.347959 0.240866 0.189055 0 200 255
0.348048 0.229179 0.194838 0 200 255
0.343650 0.351383 0.191787 0 200 255
0.435747 0.389013 0.183645 0 200 255
0.376258 0.310434 0.233317 0 200 255
0.450962 0.343119 0.214483 0 200 255
0.388643 0.301977 0.243205 0 200 255
0.383417 0.220703 0.194963 0 200 255
0.413420 0.307355 0.227608 0 200 255
0.447766 0.237464 0.228205 0 200 255
0.481428 0.240227 0.222955 0 200 255
0.473793 0.274564 0.212758 0 200 255
0.488221 0.288781 0.241012 0 200 255
0.459670 0.320406 0.245528 0 200 255
0.314303 0.235481 0.181901 0 200 255
0.452082 0.318769 0.241053 0 200 255
0.384896 0.297930 0.224434 0 200 255
0.402207 0.337055 0.164917 0 200 255
0.435711 0.271660 0.250324 0 200 255
0.402871 0.224315 0.193017 0 200 255
0.405015 0.333731 0.235018 0 200 255
0.403983 0.327317 0.222680 0 200 255
0.356300 0.331455 0.213429 0 200 255
0.441591 0.356556 0.225647 0 200 255
0.485771 0.263800 0.240627 0 200 255
0.425326 0.337232 0.203519 0 200 255
0.318780 0.240491 0.192527 0 200 255
0.480783 0.235421 0.241197 0 200 255
0.441051 0.379198 0.212146 0 200 255
0.365002 0.225671 0.173127 0 200 255
0.414132 0.357422 0.168474 0 200 255
0.417416 0.347701 0.224120 0 200 255
0.479824 0.272957 0.224372 0 200 255
0.448538 0.322618 0.250752 0 200 255
0.319013 0.251829 0.179185 0 200 255
0.450090 0.221034 0.218934 0 200 255
0.386813 0.221656 0.207594 0 200 255
0.380075 0.305460 0.214254 0 200 255
0.337161 0.235067 0.165491 0 200 255
0.395785 0.271556 0.231284 0 200 255
0.435298 0.373740 0.222519 0 200 255
0.365915 0.324919 0.200088 0 200 255
0.380468 0.241195 0.200957 0 200 255
0.442804 0.373883 0.172049 0 200 255
0.478721 0.305672 0.225536 0 200 255
0.447392 0.298853 0.255856 0 200 255
0.339908 0.334706 0.190482 0 200 255
0.409702 0.247313 0.225758 0 200 255
0.400082 0.345066 0.173354 0 200 255
0.486715 0.233338 0.231178 0 200 255
0.346699 0.216958 0.202204 0 200 255
0.455695 0.223050 0.210184 0 200 255
0.441001 0.256838 0.214075 0 200 255
0.424527 0.367806 0.204723 0 200 255
0.423721 0.321134 0.236012 0 200 255
0.463050 0.325022 0.225700 0 200 255
0.415589 0.256832 0.248192 0 200 255
0.339985 0.243567 0.170461 0 200 255
0.476084 0.251531 0.222992 0 200 255
0.358941 0.323513 0.227329 0 200 255
0.437610 0.349190 0.233601 0 200 255
0.481464 0.299227 0.233306 0 200 255
0.431313 0.308681 0.216873 0 200 255
0.414313 0.354500 0.188309 0 200 255
0.414587 0.352592 0.199607 0 200 255
0.413207 0.342807 0.179413 0 200 255
0.454625 0.282760 0.214547 0 200 255
0.489242 0.277494 0.237233 0 200 255
0.450854 0.312486 0.234407 0 200 255
0.452874 0.261603 0.211075 0 200 255
0.435466 0.279457 0.211060 0 200 255
0.403949 0.256243 0.229224 0 200 255
0.391866 0.212992 0.191542 0 200 255
0.333989 0.342014 0.189288 0 200 255
0.411925 0.281143 0.211152 0 200 255
0.431820 0.332270 0.242818 0 200 255
0.406052 0.217583 0.202794 0 200 255
0.419614 0.287893 0.250790 0 200 255
0.441169 0.368432 0.217994 0 200 255
0.315879 0.240554 0.167300 0 200 255
0.385813 0.295519 0.236182 0 200 255
0.450087 0.360120 0.222598 0 200 255
0.401515 0.288079 0.252245 0 200 255
0.412691 0.340601 0.226512 0 200 255
0.462334 0.312925 0.257101 0 200 255
0.420510 0.325791 0.242168 0 200 255
0.431674 0.362699 0.218053 0 200 255
0.424629 0.352728 0.181137 0 200 255
0.457518 0.229617 0.243442 0 200 255
0.350134 0.330834 0.218950 0 200 255
0.475925 0.276232 0.248379 0 200 255
0.406682 0.350417 0.207546 0 200 255
0.334947 0.340265 0.176813 0 200 255
0.400988 0.288226 0.214090 0 200 255
0.361776 0.329795 0.196069 0 200 255
0.437401 0.301444 0.256133 0 200 255
0.462950 0.269876 0.251444 0 200 255
0.402341 0.232333 0.197443 0 200 255
0.349742 0.340207 0.174876 0 200 255
0.407739 0.235970 0.217797 0 200 255
0.412375 0.252907 0.219222 0 200 255
0.411528 0.343779 0.189931 0 200 255
0.366698 0.211866 0.180322 0 200 255
0.425358 0.267182 0.208235 0 200 255
0.430959 0.359604 0.176183 0 200 255
0.399313 0.343737 0.158144 0 200 255
0.414697 0.336456 0.166167 0 200 255
0.453630 0.235631 0.225780 0 200 255
0.389081 0.314746 0.220967 0 200 255
0.468197 0.331843 0.231070 0 200 255
0.401912 0.283662 0.239999 0 200 255
0.483796 0.289548 0.245823 0 200 255
0.416256 0.323749 0.204489 0 200 255
0.349350 0.347369 0.195070 0 200 255
0.331657 0.222940 0.188188 0 200 255
0.447767 0.258397 0.207479 0 200 255
0.425540 0.307437 0.239909 0 200 255
0.422226 0.335904 0.216757 0 200 255
0.419226 0.364427 0.168868 0 200 255
0.426724 0.242553 0.212329 0 200 255
0.482670 0.252956 0.217754 0 200 255
0.466521 0.241032 0.244834 0 200 255
0.381155 0.212838 0.194809 0 200 255
0.426569 0.369229 0.163132 0 200 255
0.407118 0.267724 0.211040 0 200 255
0.355169 0.340057 0.198267 0 200 255
0.364711 0.314656 0.207751 0 200 255
0.475732 0.316888 0.246610 0 200 255
0.481763 0.298188 0.248995 0 200 255
0.413155 0.336791 0.235260 0 200 255
0.441132 0.232355 0.224736 0 200 255
0.429351 0.382388 0.206329 0 200 255
0.406402 0.321617 0.226128 0 200 255
0.406288 0.349744 0.160189 0 200 255
0.447317 0.336581 0.243773 0 200 255
0.387630 0.221508 0.183275 0 200 255
0.376915 0.220499 0.187283 0 200 255
0.449918 0.219828 0.228541 0 200 255
0.434698 0.338887 0.229187 0 200 255
0.433756 0.250225 0.211349 0 200 255
0.439708 0.374005 0.166251 0 200 255
0.451969 0.221249 0.242897 0 200 255
0.357449 0.225496 0.191185 0 200 255
0.424355 0.329905 0.231022 0 200 255
0.432246 0.238064 0.243905 0 200 255
0.476915 0.257930 0.248385 0 200 255
0.433213 0.279879 0.255873 0 200 255
0.372702 0.240139 0.190714 0 200 255
0.350059 0.220997 0.182517 0 200 255
0.423299 0.345405 0.222547 0 200 255
0.463443 0.324365 0.241401 0 200 255
0.346142 0.351823 0.179954 0 200 255
0.377594 0.302860 0.233689 0 200 255
