ply
format ascii 1.0
element vertex 1024
property float x
property float y
property float z
property uchar red
property uchar green
property uchar blue
end_header
0.465172 0.259010 0.180126 0 200 255
0.329813 0.376382 0.101722 0 200 255
0.460286 0.386917 0.135294 0 200 255
0.353876 0.247209 0.111341 0 200 255
0.388305 0.325979 0.162656 0 200 255
0.424293 0.342450 0.060427 0 200 255
0.487300 0.317034 0.139775 0 200 255
0.413529 0.261476 0.137199 0 200 255
0.430559 0.400837 0.082070 0 200 255
0.447770 0.342940 0.179107 0 200 255
0.412229 0.356488 0.116649 0 200 255
0.323600 0.294997 0.114215 0 200 255
0.432647 0.313165 0.137375 0 200 255
0.355700 0.360728 0.142996 0 200 255
0.419929 0.288326 0.177346 0 200 255
0.469311 0.249519 0.132531 0 200 255
0.465252 0.302826 0.179809 0 200 255
0.371923 0.266621 0.144574 0 200 255
0.493788 0.280946 0.159108 0 200 255
0.443061 0.351676 0.140293 0 200 255
0.479107 0.351054 0.157241 0 200 255
0.425135 0.392094 0.121128 0 200 255
0.462557 0.288285 0.136289 0 200 255
0.388765 0.237688 0.121202 0 200 255
0.441837 0.245268 0.156029 0 200 255
0.459940 0.388110 0.098944 0 200 255
0.333028 0.265835 0.133903 0 200 255
0.402027 0.297121 0.144440 0 200 255
0.375709 0.335200 0.131997 0 200 255
0.424705 0.365305 0.085699 0 200 255
0.415678 0.346719 0.159920 0 200 255
0.418021 0.321381 0.179487 0 200 255
0.348529 0.353314 0.112446 0 200 255
0.486841 0.324933 0.172988 0 200 255
0.350264 0.278978 0.111345 0 200 255
0.378851 0.265041 0.112244 0 200 255
0.440420 0.275584 0.155119 0 200 255
0.390972 0.244140 0.150826 0 200 255
0.486646 0.251481 0.156423 0 200 255
0.456710 0.369706 0.160590 0 200 255
0.443547 0.370321 0.118905 0 200 255
0.444422 0.303759 0.161051 0 200 255
0.362930 0.241084 0.137291 0 200 255
0.465608 0.334657 0.138459 0 200 255
0.430726 0.377581 0.144346 0 200 255
0.446618 0.282286 0.181489 0 200 255
0.417280 0.264052 0.164105 0 200 255
0.376669 0.349357 0.154809 0 200 255
0.409199 0.324339 0.146308 0 200 255
0.467155 0.361158 0.134507 0 200 255
0.427137 0.287602 0.135243 0 200 255
0.449876 0.402492 0.117674 0 200 255
0.482585 0.272957 0.137773 0 200 255
0.462156 0.263070 0.152616 0 200 255
0.423791 0.338409 0.130993 0 200 255
0.477173 0.280753 0.178139 0 200 255
0.452792 0.392921 0.074107 0 200 255
0.438408 0.259482 0.176342 0 200 255
0.421496 0.340914 0.085095 0 200 255
0.448793 0.329273 0.158735 0 200 255
0.443980 0.318040 0.180872 0 200 255
0.401378 0.306622 0.167866 0 200 255
0.436431 0.383908 0.098356 0 200 255
0.327844 0.271182 0.109875 0 200 255
0.414713 0.359718 0.140234 0 200 255
0.401445 0.260182 0.117081 0 200 255
0.491634 0.301805 0.169244 0 200 255
0.341759 0.373556 0.121517 0 200 255
0.460591 0.312817 0.143619 0 200 255
0.355781 0.264324 0.127913 0 200 255
0.434200 0.361461 0.159861 0 200 255
0.465315 0.325740 0.179826 0 200 255
0.485047 0.294975 0.137267 0 200 255
0.393602 0.339543 0.143510 0 200 255
0.368821 0.355299 0.126640 0 200 255
0.395072 0.265346 0.149531 0 200 255
0.405060 0.240185 0.135002 0 200 255
0.427969 0.324298 0.159247 0 200 255
0.430912 0.349685 0.108813 0 200 255
0.454635 0.238375 0.171516 0 200 255
0.448028 0.257610 0.137775 0 200 255
0.336865 0.286178 0.128114 0 200 255
0.457909 0.348007 0.157453 0 200 255
0.413121 0.281814 0.153004 0 200 255
0.410673 0.248351 0.153052 0 200 255
0.422627 0.369657 0.105176 0 200 255
0.428673 0.339142 0.174339 0 200 255
0.386286 0.263009 0.130506 0 200 255
0.445486 0.401410 0.096556 0 200 255
0.373770 0.245760 0.111385 0 200 255
0.468602 0.344348 0.174564 0 200 255
0.342584 0.249834 0.127203 0 200 255
0.487088 0.332883 0.150973 0 200 255
0.461217 0.378330 0.117984 0 200 255
0.433887 0.342733 0.154706 0 200 255
0.361678 0.342215 0.145085 0 200 255
0.431843 0.303374 0.178068 0 200 255
0.420524 0.394537 0.097326 0 200 255
0.449047 0.371996 0.143261 0 200 255
0.416065 0.355397 0.071973 0 200 255
0.347686 0.369768 0.103015 0 200 255
0.430082 0.254375 0.143127 0 200 255
0.344582 0.262778 0.103435 0 200 255
0.408078 0.329607 0.165687 0 200 255
0.413452 0.353045 0.098180 0 200 255
0.429236 0.382429 0.078375 0 200 255
0.479040 0.265502 0.166277 0 200 255
0.342794 0.356568 0.129999 0 200 255
0.442704 0.388999 0.129126 0 200 255
0.426866 0.373732 0.126491 0 200 255
0.448095 0.328460 0.138591 0 200 255
0.455675 0.241715 0.143099 0 200 255
0.429446 0.355957 0.128593 0 200 255
0.494986 0.306036 0.151720 0 200 255
0.417679 0.303378 0.136349 0 200 255
0.445193 0.292607 0.136531 0 200 255
0.479193 0.248235 0.179212 0 200 255
0.378702 0.248621 0.138720 0 200 255
0.432422 0.350415 0.075348 0 200 255
0.413940 0.249535 0.123374 0 200 255
0.332958 0.361805 0.112272 0 200 255
0.431280 0.276131 0.172694 0 200 255
0.446835 0.385863 0.112164 0 200 255
0.464175 0.268971 0.136553 0 200 255
0.360718 0.262816 0.109852 0 200 255
0.375148 0.332465 0.154058 0 200 255
0.426161 0.270247 0.147487 0 200 255
0.320929 0.281208 0.123468 0 200 255
0.404891 0.289646 0.165401 0 200 255
0.350481 0.252364 0.141671 0 200 255
0.445779 0.276051 0.138432 0 200 255
0.391860 0.321875 0.147002 0 200 255
0.468860 0.364241 0.150613 0 200 255
0.414579 0.303870 0.177349 0 200 255
0.340343 0.265016 0.119141 0 200 255
0.449856 0.382633 0.086476 0 200 255
0.420437 0.336453 0.147881 0 200 255
0.355408 0.346200 0.128566 0 200 255
0.431463 0.351786 0.092029 0 200 255
0.412592 0.314672 0.158956 0 200 255
0.462778 0.286194 0.173046 0 200 255
0.334485 0.285256 0.105510 0 200 255
0.435308 0.260780 0.158877 0 200 255
0.479465 0.310071 0.175708 0 200 255
0.379625 0.349434 0.138163 0 200 255
0.355775 0.366244 0.119658 0 200 255
0.432829 0.398699 0.106301 0 200 255
0.371469 0.267889 0.128214 0 200 255
0.389581 0.342190 0.160289 0 200 255
0.482684 0.338660 0.166277 0 200 255
0.484177 0.257657 0.142229 0 200 255
0.372169 0.237596 0.124574 0 200 255
0.456486 0.253548 0.163561 0 200 255
0.468892 0.349309 0.145645 0 200 255
0.431162 0.362115 0.143151 0 200 255
0.490514 0.319994 0.158839 0 200 255
0.474231 0.306470 0.140294 0 200 255
0.400064 0.255952 0.132528 0 200 255
0.452983 0.364373 0.129787 0 200 255
0.452444 0.267420 0.179394 0 200 255
0.350729 0.278915 0.126595 0 200 255
0.442781 0.350164 0.165241 0 200 255
0.449336 0.303998 0.179935 0 200 255
0.420285 0.341652 0.115821 0 200 255
0.462627 0.377653 0.146890 0 200 255
0.402758 0.320530 0.176371 0 200 255
0.368040 0.254535 0.122361 0 200 255
0.421893 0.324729 0.138446 0 200 255
0.484447 0.290468 0.151434 0 200 255
0.386856 0.252632 0.113866 0 200 255
0.473322 0.321439 0.137676 0 200 255
0.466263 0.357418 0.164922 0 200 255
0.401326 0.311210 0.150074 0 200 255
0.456089 0.399523 0.086794 0 200 255
0.446553 0.359688 0.151906 0 200 255
0.422736 0.384049 0.109267 0 200 255
0.462066 0.334298 0.161756 0 200 255
0.414557 0.350072 0.129325 0 200 255
0.435271 0.332678 0.144529 0 200 255
0.390749 0.239936 0.137094 0 200 255
0.483406 0.267930 0.152128 0 200 255
0.408959 0.262644 0.152587 0 200 255
0.402366 0.241888 0.120603 0 200 255
0.398935 0.331516 0.154530 0 200 255
0.458692 0.391889 0.121045 0 200 255
0.428131 0.387056 0.134233 0 200 255
0.384083 0.256349 0.149192 0 200 255
0.369114 0.355951 0.144938 0 200 255
0.412190 0.358921 0.085197 0 200 255
0.414561 0.365499 0.127423 0 200 255
0.336107 0.364789 0.096961 0 200 255
0.365865 0.252275 0.145107 0 200 255
0.415764 0.275551 0.171865 0 200 255
0.415674 0.247948 0.139821 0 200 255
0.427407 0.361643 0.115488 0 200 255
0.423360 0.349909 0.145926 0 200 255
0.320739 0.283371 0.107226 0 200 255
0.465048 0.273030 0.179345 0 200 255
0.346027 0.269520 0.136272 0 200 255
0.447028 0.305650 0.140362 0 200 255
0.438258 0.389944 0.086181 0 200 255
0.456649 0.354146 0.141952 0 200 255
0.451823 0.254052 0.176774 0 200 255
0.456063 0.399243 0.105695 0 200 255
0.423506 0.383052 0.090772 0 200 255
0.453403 0.341000 0.146851 0 200 255
0.489973 0.287561 0.170191 0 200 255
0.439626 0.330172 0.177033 0 200 255
0.436694 0.288330 0.174758 0 200 255
0.410467 0.364093 0.105451 0 200 255
0.411607 0.290564 0.137806 0 200 255
0.492990 0.284740 0.142898 0 200 255
0.446352 0.261883 0.150325 0 200 255
0.407465 0.311773 0.138245 0 200 255
0.439095 0.371909 0.153038 0 200 255
0.432622 0.344968 0.121762 0 200 255
0.423088 0.252916 0.154589 0 200 255
0.474785 0.283563 0.139314 0 200 255
0.434295 0.300051 0.136454 0 200 255
0.465294 0.374031 0.132290 0 200 255
0.449903 0.292065 0.173303 0 200 255
0.341108 0.253209 0.113384 0 200 255
0.450521 0.385047 0.144035 0 200 255
0.399197 0.318891 0.160814 0 200 255
0.480821 0.297023 0.174803 0 200 255
0.428397 0.354472 0.063301 0 200 255
0.434180 0.375196 0.111367 0 200 255
0.427143 0.338677 0.073638 0 200 255
0.381852 0.328856 0.142617 0 200 255
0.415063 0.333668 0.176632 0 200 255
0.358320 0.264724 0.140566 0 200 255
0.420645 0.392593 0.081619 0 200 255
0.327425 0.269564 0.122629 0 200 255
0.444197 0.400323 0.080159 0 200 255
0.357113 0.251816 0.130348 0 200 255
0.430015 0.319082 0.175629 0 200 255
0.475611 0.333483 0.175582 0 200 255
0.443946 0.373775 0.131744 0 200 255
0.359853 0.240739 0.124226 0 200 255
0.421404 0.361007 0.151763 0 200 255
0.433351 0.345686 0.134950 0 200 255
0.350282 0.349813 0.139820 0 200 255
0.441202 0.359933 0.126531 0 200 255
0.467344 0.259852 0.163855 0 200 255
0.430651 0.393191 0.072103 0 200 255
0.339668 0.376943 0.109427 0 200 255
0.435641 0.385946 0.118209 0 200 255
0.443749 0.247933 0.168100 0 200 255
0.353290 0.366983 0.131882 0 200 255
0.333382 0.280282 0.116835 0 200 255
0.458446 0.335842 0.177788 0 200 255
0.462201 0.300067 0.140066 0 200 255
0.448430 0.380961 0.098816 0 200 255
0.433702 0.273614 0.137588 0 200 255
0.400644 0.297911 0.157269 0 200 255
0.416249 0.369699 0.115966 0 200 255
0.428567 0.359489 0.101579 0 200 255
0.383965 0.268794 0.141103 0 200 255
0.452937 0.396315 0.130957 0 200 255
0.399786 0.254076 0.150541 0 200 255
0.336645 0.273985 0.101403 0 200 255
0.474081 0.264413 0.142030 0 200 255
0.433893 0.399454 0.093629 0 200 255
0.426826 0.351976 0.160766 0 200 255
0.335955 0.291972 0.115539 0 200 255
0.417825 0.322685 0.166879 0 200 255
0.458572 0.312722 0.178963 0 200 255
0.446682 0.338959 0.166142 0 200 255
0.463713 0.241596 0.178464 0 200 255
0.366894 0.343580 0.126619 0 200 255
0.435614 0.334647 0.165865 0 200 255
0.329343 0.276940 0.132114 0 200 255
0.491459 0.314508 0.169861 0 200 255
0.352428 0.268174 0.116324 0 200 255
0.476399 0.321965 0.178410 0 200 255
0.388806 0.265234 0.118551 0 200 255
0.380461 0.334995 0.164186 0 200 255
0.379002 0.237875 0.134134 0 200 255
0.385240 0.246709 0.129225 0 200 255
0.443720 0.316272 0.143831 0 200 255
0.477856 0.342990 0.141714 0 200 255
0.340834 0.257094 0.137169 0 200 255
0.397231 0.266139 0.137318 0 200 255
0.427848 0.262962 0.173141 0 200 255
0.375351 0.247539 0.149632 0 200 255
0.464929 0.257762 0.139165 0 200 255
0.438440 0.382900 0.137803 0 200 255
0.413143 0.352550 0.150289 0 200 255
0.342965 0.360791 0.119040 0 200 255
0.441802 0.252212 0.146341 0 200 255
0.447342 0.380557 0.122220 0 200 255
0.361813 0.350966 0.152358 0 200 255
0.457514 0.294493 0.181335 0 200 255
0.423098 0.310809 0.180019 0 200 255
0.445852 0.391802 0.102489 0 200 255
0.487121 0.257786 0.167943 0 200 255
0.485041 0.274122 0.170409 0 200 255
0.421249 0.352326 0.086553 0 200 255
0.454569 0.325268 0.176446 0 200 255
0.438091 0.284377 0.139489 0 200 255
0.458005 0.345738 0.171109 0 200 255
0.419358 0.347056 0.105571 0 200 255
0.368385 0.341359 0.154734 0 200 255
0.344382 0.285856 0.119828 0 200 255
0.423566 0.364742 0.134018 0 200 255
0.419709 0.336363 0.161106 0 200 255
0.427629 0.360490 0.075949 0 200 255
0.494964 0.295464 0.145285 0 200 255
0.340749 0.358195 0.104667 0 200 255
0.477640 0.248710 0.139899 0 200 255
0.399105 0.245362 0.143299 0 200 255
0.458203 0.328720 0.144307 0 200 255
0.418873 0.260106 0.147200 0 200 255
0.419254 0.272464 0.157083 0 200 255
0.434469 0.353324 0.151365 0 200 255
0.475763 0.262537 0.176476 0 200 255
0.456525 0.279419 0.139207 0 200 255
0.334824 0.262310 0.108724 0 200 255
0.457931 0.361971 0.152716 0 200 255
0.385539 0.345122 0.148713 0 200 255
0.441918 0.396195 0.113256 0 200 255
0.388242 0.332514 0.150871 0 200 255
0.456285 0.253893 0.150725 0 200 255
0.357458 0.255418 0.119290 0 200 255
0.493048 0.293992 0.157394 0 200 255
0.340149 0.275104 0.123846 0 200 255
0.417643 0.344658 0.069995 0 200 255
0.417408 0.342456 0.139018 0 200 255
0.361981 0.351529 0.135627 0 200 255
0.458818 0.387863 0.109901 0 200 255
0.371993 0.335065 0.143840 0 200 255
0.418150 0.314520 0.136933 0 200 255
0.414870 0.325515 0.156703 0 200 255
0.369883 0.256996 0.111378 0 200 255
0.449202 0.236676 0.162177 0 200 255
0.464290 0.335631 0.151139 0 200 255
0.485570 0.306367 0.138147 0 200 255
0.418173 0.366394 0.094379 0 200 255
0.458967 0.388533 0.087624 0 200 255
0.411279 0.260022 0.121948 0 200 255
0.397405 0.331856 0.165349 0 200 255
0.424888 0.283275 0.144997 0 200 255
0.439273 0.274196 0.179781 0 200 255
0.427949 0.377274 0.099561 0 200 255
0.364675 0.259242 0.132601 0 200 255
0.453598 0.376655 0.152737 0 200 255
0.478869 0.341224 0.152781 0 200 255
0.446399 0.265131 0.160604 0 200 255
0.435182 0.264425 0.148390 0 200 255
0.363613 0.266119 0.119683 0 200 255
0.411032 0.293715 0.174579 0 200 255
0.451631 0.267293 0.140710 0 200 255
0.350739 0.354071 0.122925 0 200 255
0.386571 0.340548 0.135527 0 200 255
0.378466 0.246177 0.120906 0 200 255
0.398209 0.264720 0.126899 0 200 255
0.404658 0.288463 0.149853 0 200 255
0.436091 0.388591 0.108024 0 200 255
0.425802 0.381674 0.119669 0 200 255
0.409215 0.255540 0.144851 0 200 255
0.442101 0.342580 0.145460 0 200 255
0.396609 0.249283 0.115792 0 200 255
0.440335 0.333914 0.153618 0 200 255
0.358811 0.359363 0.127340 0 200 255
0.352706 0.257003 0.106590 0 200 255
0.442202 0.295452 0.179987 0 200 255
0.433964 0.380204 0.087369 0 200 255
0.431299 0.342510 0.144624 0 200 255
0.472339 0.289832 0.174798 0 200 255
0.425368 0.262911 0.156202 0 200 255
0.411188 0.315125 0.169414 0 200 255
0.472596 0.348725 0.164965 0 200 255
0.382460 0.240915 0.145928 0 200 255
0.460619 0.368773 0.124432 0 200 255
0.372987 0.248272 0.130162 0 200 255
0.432821 0.250927 0.157389 0 200 255
0.431204 0.344098 0.084447 0 200 255
0.475992 0.261375 0.154700 0 200 255
0.492250 0.317581 0.149060 0 200 255
0.339706 0.375297 0.099369 0 200 255
0.427851 0.330336 0.179406 0 200 255
0.383869 0.242958 0.112842 0 200 255
0.413001 0.283532 0.166021 0 200 255
0.347134 0.257289 0.122010 0 200 255
0.330329 0.371753 0.110747 0 200 255
0.397085 0.245423 0.131419 0 200 255
0.353799 0.365395 0.109789 0 200 255
0.483786 0.326190 0.144174 0 200 255
0.337830 0.272911 0.111320 0 200 255
0.429289 0.255320 0.166802 0 200 255
0.412090 0.314392 0.148941 0 200 255
0.466736 0.354608 0.155306 0 200 255
0.399646 0.328454 0.145019 0 200 255
0.422654 0.330644 0.170548 0 200 255
0.362716 0.243677 0.114404 0 200 255
0.423693 0.296766 0.173603 0 200 255
0.439379 0.372683 0.141049 0 200 255
0.448692 0.361333 0.138219 0 200 255
0.443943 0.397661 0.124456 0 200 255
0.444448 0.389501 0.078453 0 200 255
0.450560 0.384430 0.134142 0 200 255
0.476571 0.330705 0.138988 0 200 255
0.415514 0.348436 0.078994 0 200 255
0.466503 0.368903 0.159406 0 200 255
0.334814 0.259076 0.126921 0 200 255
0.481797 0.249561 0.169124 0 200 255
0.427837 0.388407 0.100139 0 200 255
0.439000 0.341982 0.171537 0 200 255
0.404231 0.252187 0.122127 0 200 255
0.375727 0.347308 0.128846 0 200 255
0.449881 0.241330 0.151949 0 200 255
0.328657 0.290188 0.121871 0 200 255
0.468544 0.249976 0.181752 0 200 255
0.407057 0.311881 0.177844 0 200 255
0.433447 0.391810 0.127562 0 200 255
0.365007 0.339965 0.136190 0 200 255
0.347467 0.371938 0.113250 0 200 255
0.451035 0.354154 0.162010 0 200 255
0.432091 0.343866 0.066032 0 200 255
0.453866 0.282664 0.174569 0 200 255
0.488638 0.330047 0.160095 0 200 255
0.422658 0.354316 0.111028 0 200 255
0.374093 0.257050 0.148517 0 200 255
0.427030 0.304034 0.141371 0 200 255
0.490468 0.274475 0.152041 0 200 255
0.435847 0.377379 0.122593 0 200 255
0.442213 0.326866 0.165308 0 200 255
0.410017 0.276282 0.160476 0 200 255
0.426732 0.376743 0.135660 0 200 255
0.425663 0.393593 0.110105 0 200 255
0.453419 0.297711 0.137076 0 200 255
0.335038 0.365879 0.120701 0 200 255
0.425822 0.364420 0.124498 0 200 255
0.447382 0.254419 0.156192 0 200 255
0.454999 0.402149 0.096412 0 200 255
0.387790 0.248185 0.141577 0 200 255
0.483949 0.284721 0.136971 0 200 255
0.400896 0.319020 0.144612 0 200 255
0.339150 0.276568 0.133198 0 200 255
0.432041 0.271101 0.155569 0 200 255
0.470944 0.313904 0.177441 0 200 255
0.408372 0.281434 0.144675 0 200 255
0.427431 0.394279 0.088167 0 200 255
0.343194 0.280603 0.105270 0 200 255
0.465210 0.358782 0.143816 0 200 255
0.452514 0.351100 0.149881 0 200 255
0.329319 0.365845 0.103467 0 200 255
0.416205 0.346496 0.091950 0 200 255
0.419292 0.350307 0.061772 0 200 255
0.361562 0.252956 0.109784 0 200 255
0.417911 0.283712 0.136667 0 200 255
0.488252 0.260445 0.158665 0 200 255
0.372264 0.241365 0.139643 0 200 255
0.468205 0.312820 0.136961 0 200 255
0.347588 0.358630 0.138224 0 200 255
0.439128 0.272652 0.146340 0 200 255
0.475985 0.293058 0.136052 0 200 255
0.328463 0.278398 0.102245 0 200 255
0.429213 0.356979 0.084449 0 200 255
0.405934 0.323000 0.155816 0 200 255
0.454390 0.316603 0.137787 0 200 255
0.412664 0.354777 0.107275 0 200 255
0.467599 0.367808 0.140963 0 200 255
0.377724 0.266632 0.121479 0 200 255
0.441783 0.347357 0.156115 0 200 255
0.445633 0.396455 0.088434 0 200 255
0.437524 0.308279 0.143514 0 200 255
0.455740 0.253254 0.135231 0 200 255
0.368015 0.269267 0.136661 0 200 255
0.423838 0.356685 0.139705 0 200 255
0.445476 0.364410 0.159738 0 200 255
0.323564 0.277236 0.115596 0 200 255
0.406698 0.248827 0.137703 0 200 255
0.405935 0.301335 0.175308 0 200 255
0.452198 0.387864 0.093994 0 200 255
0.360532 0.351163 0.122789 0 200 255
0.428596 0.371532 0.117753 0 200 255
0.437996 0.353488 0.132208 0 200 255
0.344669 0.265454 0.128176 0 200 255
0.450259 0.368194 0.151693 0 200 255
0.483733 0.281744 0.148798 0 200 255
0.426938 0.321134 0.150733 0 200 255
0.375697 0.342048 0.160857 0 200 255
0.435430 0.264187 0.139259 0 200 255
0.430784 0.366746 0.151011 0 200 255
0.421031 0.291376 0.140853 0 200 255
0.437098 0.393530 0.100141 0 200 255
0.446960 0.245953 0.142219 0 200 255
0.474936 0.272082 0.176590 0 200 255
0.361051 0.362127 0.135799 0 200 255
0.419346 0.360820 0.079616 0 200 255
0.397465 0.323871 0.169824 0 200 255
0.448685 0.331026 0.180208 0 200 255
0.442238 0.400345 0.104932 0 200 255
0.345877 0.271591 0.105016 0 200 255
0.407902 0.265316 0.143145 0 200 255
0.466288 0.281886 0.180656 0 200 255
0.318102 0.287066 0.117198 0 200 255
0.461261 0.384612 0.126618 0 200 255
0.444325 0.389211 0.120253 0 200 255
0.397230 0.309455 0.160386 0 200 255
0.342354 0.365759 0.126481 0 200 255
0.444204 0.283667 0.172966 0 200 255
0.453397 0.340602 0.160447 0 200 255
0.407261 0.301280 0.138487 0 200 255
0.452797 0.370785 0.120584 0 200 255
0.354447 0.352636 0.147580 0 200 255
0.410287 0.326164 0.175893 0 200 255
0.329096 0.292145 0.107252 0 200 255
0.462310 0.296706 0.174029 0 200 255
0.431626 0.396339 0.116780 0 200 255
0.492817 0.311415 0.158536 0 200 255
0.424864 0.360628 0.093433 0 200 255
0.430990 0.344460 0.162999 0 200 255
0.442733 0.388456 0.093684 0 200 255
0.455416 0.378989 0.139838 0 200 255
0.410041 0.243769 0.145194 0 200 255
0.432016 0.282204 0.179046 0 200 255
0.394079 0.323632 0.155351 0 200 255
0.382483 0.337617 0.155171 0 200 255
0.414165 0.268919 0.149244 0 200 255
0.459475 0.241861 0.135151 0 200 255
0.396606 0.238189 0.126412 0 200 255
0.473963 0.302424 0.173653 0 200 255
0.417233 0.362579 0.110859 0 200 255
0.421692 0.268838 0.140058 0 200 255
0.434309 0.364620 0.120000 0 200 255
0.433614 0.326435 0.138603 0 200 255
0.458395 0.262026 0.143156 0 200 255
0.393466 0.339745 0.152824 0 200 255
0.423842 0.382013 0.128491 0 200 255
0.350993 0.257457 0.133066 0 200 255
0.456916 0.357682 0.133963 0 200 255
0.419557 0.357216 0.132115 0 200 255
0.435904 0.324402 0.155628 0 200 255
0.431209 0.350965 0.142276 0 200 255
0.371119 0.346403 0.148176 0 200 255
0.347241 0.261091 0.112006 0 200 255
0.455063 0.386664 0.079718 0 200 255
0.417717 0.323994 0.147950 0 200 255
0.460723 0.346631 0.146841 0 200 255
0.348810 0.248899 0.120587 0 200 255
0.371532 0.354888 0.134865 0 200 255
0.331114 0.264108 0.117041 0 200 255
0.424733 0.353279 0.071022 0 200 255
0.454156 0.331637 0.152403 0 200 255
0.425606 0.344994 0.155466 0 200 255
0.454993 0.395669 0.113438 0 200 255
0.379939 0.263402 0.146563 0 200 255
0.478328 0.317959 0.143721 0 200 255
0.326520 0.284805 0.128886 0 200 255
0.359225 0.255433 0.140694 0 200 255
0.414359 0.350160 0.142149 0 200 255
0.438483 0.363200 0.149853 0 200 255
0.411178 0.360949 0.095833 0 200 255
0.467559 0.335410 0.177725 0 200 255
0.452276 0.401316 0.077545 0 200 255
0.437640 0.255783 0.168562 0 200 255
0.495786 0.301866 0.161776 0 200 255
0.379891 0.256089 0.110343 0 200 255
0.378907 0.237956 0.117647 0 200 255
0.341804 0.287187 0.110508 0 200 255
0.364231 0.248871 0.134070 0 200 255
0.401868 0.306577 0.142427 0 200 255
0.473291 0.258749 0.135718 0 200 255
0.458148 0.358790 0.162462 0 200 255
0.448249 0.272212 0.146735 0 200 255
0.480967 0.286261 0.172937 0 200 255
0.421676 0.251249 0.144809 0 200 255
0.345482 0.363684 0.109057 0 200 255
0.466387 0.326531 0.144182 0 200 255
0.423014 0.271919 0.174273 0 200 255
0.451291 0.322880 0.144084 0 200 255
0.449604 0.392001 0.137772 0 200 255
0.452906 0.361277 0.145964 0 200 255
0.446349 0.378616 0.138768 0 200 255
0.349928 0.352234 0.131261 0 200 255
0.471022 0.267944 0.152857 0 200 255
0.421072 0.343406 0.165550 0 200 255
0.495486 0.293001 0.165404 0 200 255
0.435513 0.387735 0.076509 0 200 255
0.430080 0.354629 0.119314 0 200 255
0.405145 0.312491 0.163163 0 200 255
0.417380 0.342984 0.123599 0 200 255
0.432882 0.382844 0.128729 0 200 255
0.440031 0.381300 0.110316 0 200 255
0.370993 0.264820 0.115173 0 200 255
0.419179 0.360057 0.121839 0 200 255
0.348397 0.271411 0.123615 0 200 255
0.416833 0.343508 0.150594 0 200 255
0.451191 0.378997 0.114142 0 200 255
0.411770 0.357469 0.124939 0 200 255
0.442729 0.325417 0.144225 0 200 255
0.405183 0.321267 0.166135 0 200 255
0.428442 0.369656 0.139736 0 200 255
0.472192 0.347230 0.154637 0 200 255
0.448617 0.270994 0.154953 0 200 255
0.477511 0.345020 0.170545 0 200 255
0.471722 0.244814 0.176071 0 200 255
0.414191 0.255653 0.154871 0 200 255
0.454277 0.288686 0.136672 0 200 255
0.424700 0.346252 0.091019 0 200 255
0.398822 0.255081 0.140665 0 200 255
0.410326 0.243574 0.127825 0 200 255
0.432076 0.256793 0.151620 0 200 255
0.391358 0.252715 0.150631 0 200 255
0.470700 0.276399 0.139024 0 200 255
0.381043 0.328373 0.158104 0 200 255
0.343954 0.273063 0.116843 0 200 255
0.472238 0.265772 0.160911 0 200 255
0.491271 0.310480 0.145049 0 200 255
0.392818 0.258686 0.115650 0 200 255
0.325281 0.286581 0.113279 0 200 255
0.468338 0.265933 0.176897 0 200 255
0.367594 0.246239 0.124375 0 200 255
0.349076 0.370380 0.123242 0 200 255
0.469782 0.297098 0.139911 0 200 255
0.484562 0.268943 0.160125 0 200 255
0.440656 0.356636 0.156613 0 200 255
0.388142 0.237301 0.129305 0 200 255
0.464235 0.370883 0.151325 0 200 255
0.369588 0.238581 0.132213 0 200 255
0.419881 0.340376 0.076857 0 200 255
0.433517 0.291054 0.139791 0 200 255
0.417182 0.263865 0.154793 0 200 255
0.360356 0.246559 0.143616 0 200 255
0.431523 0.382347 0.105720 0 200 255
0.467894 0.339211 0.144717 0 200 255
0.406549 0.330899 0.151980 0 200 255
0.444444 0.267665 0.178570 0 200 255
0.471941 0.356389 0.147940 0 200 255
0.442962 0.266982 0.139229 0 200 255
0.337295 0.358738 0.124343 0 200 255
0.330831 0.370761 0.096071 0 200 255
0.404949 0.259889 0.138073 0 200 255
0.416417 0.356450 0.091506 0 200 255
0.489841 0.275020 0.162719 0 200 255
0.421672 0.330941 0.153521 0 200 255
0.463310 0.378950 0.138247 0 200 255
0.468484 0.338746 0.160225 0 200 255
0.336798 0.268324 0.126317 0 200 255
0.434943 0.310588 0.179353 0 200 255
0.340892 0.356422 0.112725 0 200 255
0.441086 0.381223 0.129415 0 200 255
0.357340 0.248146 0.122831 0 200 255
0.419936 0.257350 0.139440 0 200 255
0.350178 0.263533 0.139440 0 200 255
0.457850 0.395299 0.093274 0 200 255
0.387903 0.268369 0.147991 0 200 255
0.455587 0.247696 0.179661 0 200 255
0.426714 0.352526 0.152817 0 200 255
0.377448 0.268821 0.136617 0 200 255
0.484292 0.318133 0.176125 0 200 255
0.338039 0.370132 0.113104 0 200 255
0.390731 0.245440 0.123681 0 200 255
0.449947 0.369232 0.135924 0 200 255
0.424049 0.397225 0.076215 0 200 255
0.453536 0.334170 0.138803 0 200 255
0.401037 0.314671 0.171382 0 200 255
0.455605 0.398767 0.123341 0 200 255
0.420387 0.391162 0.089833 0 200 255
0.414733 0.349895 0.120891 0 200 255
0.470123 0.254537 0.175542 0 200 255
0.363634 0.266111 0.128926 0 200 255
0.421703 0.363068 0.144193 0 200 255
0.376815 0.350994 0.145320 0 200 255
0.407066 0.319565 0.139803 0 200 255
0.403691 0.296260 0.169429 0 200 255
0.365883 0.261690 0.143798 0 200 255
0.435333 0.350849 0.158873 0 200 255
0.465331 0.345159 0.167502 0 200 255
0.461264 0.344937 0.178160 0 200 255
0.456616 0.324436 0.137995 0 200 255
0.440580 0.257983 0.153806 0 200 255
0.439634 0.253095 0.160455 0 200 255
0.453858 0.387122 0.103953 0 200 255
0.404683 0.290423 0.157372 0 200 255
0.448427 0.395856 0.109029 0 200 255
0.344102 0.282590 0.128287 0 200 255
0.338436 0.256512 0.119881 0 200 255
0.388141 0.333150 0.141132 0 200 255
0.358519 0.344148 0.138270 0 200 255
0.428803 0.396059 0.099345 0 200 255
0.399397 0.336067 0.147306 0 200 255
0.415397 0.276433 0.147809 0 200 255
0.402365 0.262967 0.148498 0 200 255
0.486284 0.260936 0.148916 0 200 255
0.456754 0.395364 0.080290 0 200 255
0.398602 0.305150 0.154010 0 200 255
0.426230 0.340062 0.139340 0 200 255
0.439604 0.258142 0.141622 0 200 255
0.398349 0.318008 0.152261 0 200 255
0.479314 0.301931 0.136698 0 200 255
0.345254 0.255116 0.107047 0 200 255
0.422642 0.348646 0.098790 0 200 255
0.363623 0.350664 0.143846 0 200 255
0.445935 0.366110 0.124893 0 200 255
0.485750 0.330561 0.167213 0 200 255
0.389844 0.334697 0.158561 0 200 255
0.458536 0.391318 0.129191 0 200 255
0.458442 0.383866 0.145189 0 200 255
0.420168 0.391547 0.105143 0 200 255
0.425058 0.367063 0.097700 0 200 255
0.349490 0.363265 0.115856 0 200 255
0.417335 0.296147 0.178210 0 200 255
0.412788 0.363735 0.119318 0 200 255
0.369086 0.240168 0.116817 0 200 255
0.432817 0.358056 0.136889 0 200 255
0.328430 0.278916 0.109948 0 200 255
0.483534 0.339378 0.158734 0 200 255
0.442858 0.368453 0.146477 0 200 255
0.415179 0.349051 0.111630 0 200 255
0.445451 0.254859 0.172676 0 200 255
0.356434 0.358460 0.120162 0 200 255
0.424854 0.389163 0.074954 0 200 255
0.346798 0.276112 0.132480 0 200 255
0.426531 0.260320 0.147782 0 200 255
0.382280 0.333495 0.135423 0 200 255
0.406855 0.282694 0.157899 0 200 255
0.354202 0.266211 0.107912 0 200 255
0.442171 0.336975 0.179250 0 200 255
0.491639 0.285644 0.153550 0 200 255
0.378877 0.262682 0.128946 0 200 255
0.435904 0.394856 0.080914 0 200 255
0.369156 0.350330 0.154795 0 200 255
0.462207 0.342559 0.154421 0 200 255
0.454712 0.383064 0.123147 0 200 255
0.412298 0.359339 0.132344 0 200 255
0.421098 0.321283 0.155955 0 200 255
0.362963 0.259806 0.124263 0 200 255
0.460746 0.363179 0.129506 0 200 255
0.464648 0.375898 0.125002 0 200 255
0.450101 0.347349 0.158881 0 200 255
0.452698 0.393710 0.099954 0 200 255
0.382502 0.345903 0.158106 0 200 255
0.439695 0.339622 0.158499 0 200 255
0.328547 0.277777 0.122034 0 200 255
0.348475 0.361873 0.124466 0 200 255
0.384210 0.248876 0.150066 0 200 255
0.415767 0.368028 0.101315 0 200 255
0.450348 0.403426 0.102178 0 200 255
0.339466 0.266205 0.137812 0 200 255
0.444474 0.236644 0.154207 0 200 255
0.362217 0.357163 0.148180 0 200 255
0.490188 0.323024 0.166585 0 200 255
0.427171 0.377649 0.109568 0 200 255
0.422564 0.258530 0.161565 0 200 255
0.480768 0.333632 0.144430 0 200 255
0.416556 0.312263 0.176728 0 200 255
0.411704 0.284417 0.173319 0 200 255
0.424989 0.362612 0.107327 0 200 255
0.427901 0.356300 0.146498 0 200 255
0.458284 0.285765 0.179696 0 200 255
0.464910 0.293617 0.180282 0 200 255
0.425810 0.282481 0.174958 0 200 255
0.483565 0.303874 0.175793 0 200 255
0.430176 0.365067 0.130641 0 200 255
0.460548 0.385902 0.117065 0 200 255
0.384920 0.260941 0.113908 0 200 255
0.457851 0.302674 0.179431 0 200 255
0.381034 0.328874 0.149983 0 200 255
0.397781 0.238799 0.134959 0 200 255
0.430849 0.382492 0.093661 0 200 255
0.450134 0.390098 0.128127 0 200 255
0.346437 0.363585 0.132874 0 200 255
0.433870 0.375109 0.136575 0 200 255
0.450143 0.274150 0.181352 0 200 255
0.415257 0.359366 0.148035 0 200 255
0.432115 0.349092 0.128247 0 200 255
0.423046 0.368535 0.113355 0 200 255
0.429345 0.268017 0.140886 0 200 255
0.466900 0.367219 0.129561 0 200 255
0.456972 0.354664 0.154497 0 200 255
0.461811 0.265771 0.180236 0 200 255
0.452549 0.361356 0.158487 0 200 255
0.429008 0.345427 0.114450 0 200 255
0.332795 0.268473 0.104279 0 200 255
0.464150 0.256731 0.155666 0 200 255
0.327073 0.285366 0.104169 0 200 255
0.341071 0.365110 0.102349 0 200 255
0.339419 0.280520 0.112271 0 200 255
0.441560 0.381267 0.117840 0 200 255
0.447227 0.358841 0.130461 0 200 255
0.449173 0.378261 0.146956 0 200 255
0.396532 0.337471 0.159242 0 200 255
0.413365 0.355838 0.078715 0 200 255
0.394715 0.242304 0.116556 0 200 255
0.490291 0.301851 0.141335 0 200 255
0.486253 0.323452 0.154091 0 200 255
0.366964 0.243766 0.144700 0 200 255
0.449440 0.402389 0.086356 0 200 255
0.419568 0.367485 0.122494 0 200 255
0.449510 0.293704 0.180343 0 200 255
0.432942 0.343017 0.073166 0 200 255
0.386736 0.344625 0.141502 0 200 255
0.407911 0.311006 0.154835 0 200 255
0.346175 0.248181 0.112213 0 200 255
0.394096 0.246958 0.137823 0 200 255
0.403547 0.259852 0.127114 0 200 255
0.462413 0.251000 0.138809 0 200 255
0.443577 0.327464 0.153805 0 200 255
0.404222 0.244719 0.149363 0 200 255
0.454493 0.260650 0.152537 0 200 255
0.411825 0.253874 0.138197 0 200 255
0.427284 0.341169 0.124772 0 200 255
0.389822 0.240393 0.144774 0 200 255
0.421618 0.335892 0.178648 0 200 255
0.319952 0.290598 0.109820 0 200 255
0.438408 0.367299 0.158535 0 200 255
0.459274 0.349760 0.165272 0 200 255
0.411815 0.322030 0.162215 0 200 255
0.426734 0.380465 0.084880 0 200 255
0.428883 0.356631 0.108248 0 200 255
0.440070 0.395781 0.092947 0 200 255
0.443700 0.385446 0.105081 0 200 255
0.424552 0.338768 0.066600 0 200 255
0.414087 0.351996 0.085526 0 200 255
0.429158 0.386669 0.123597 0 200 255
0.417035 0.250143 0.150234 0 200 255
0.426719 0.290243 0.176016 0 200 255
0.351057 0.358898 0.108465 0 200 255
0.389969 0.260345 0.148263 0 200 255
0.439159 0.376527 0.147099 0 200 255
0.328458 0.269951 0.129707 0 200 255
0.438399 0.347413 0.149235 0 200 255
0.377086 0.342957 0.151636 0 200 255
0.488845 0.307860 0.171815 0 200 255
0.340346 0.267036 0.107300 0 200 255
0.403599 0.328478 0.176694 0 200 255
0.455842 0.261174 0.179121 0 200 255
0.379301 0.341774 0.131534 0 200 255
0.455338 0.382466 0.098056 0 200 255
0.420174 0.296441 0.135939 0 200 255
0.429934 0.352973 0.099105 0 200 255
0.445073 0.321768 0.174927 0 200 255
0.368987 0.249587 0.139280 0 200 255
0.417589 0.330075 0.163599 0 200 255
0.357242 0.352513 0.140802 0 200 255
0.469210 0.328120 0.137886 0 200 255
0.475128 0.326055 0.144129 0 200 255
0.423419 0.382653 0.098802 0 200 255
0.386454 0.325112 0.154926 0 200 255
0.458840 0.392477 0.104395 0 200 255
0.460873 0.319868 0.143919 0 200 255
0.448343 0.373683 0.126220 0 200 255
0.337840 0.289946 0.122032 0 200 255
0.381640 0.238571 0.126892 0 200 255
0.420756 0.305660 0.174474 0 200 255
0.450629 0.391419 0.116969 0 200 255
0.481005 0.251631 0.145349 0 200 255
0.402727 0.245109 0.126848 0 200 255
0.479557 0.311064 0.140469 0 200 255
0.460496 0.374169 0.156284 0 200 255
0.436815 0.392350 0.120844 0 200 255
0.408133 0.329041 0.158640 0 200 255
0.423660 0.387312 0.116075 0 200 255
0.447746 0.356617 0.145116 0 200 255
0.443022 0.320668 0.138425 0 200 255
0.457694 0.372743 0.146177 0 200 255
0.490110 0.295670 0.172226 0 200 255
0.435991 0.371098 0.117992 0 200 255
0.396511 0.264251 0.119897 0 200 255
0.334525 0.361283 0.105262 0 200 255
0.469131 0.287636 0.139510 0 200 255
0.425261 0.344943 0.080831 0 200 255
0.357531 0.262837 0.120545 0 200 255
0.367891 0.338078 0.148593 0 200 255
0.478324 0.269761 0.143383 0 200 255
0.458146 0.272518 0.179947 0 200 255
0.454642 0.341468 0.176329 0 200 255
0.320998 0.288126 0.124001 0 200 255
0.444292 0.386423 0.084850 0 200 255
0.436505 0.385851 0.091507 0 200 255
0.449119 0.354450 0.137710 0 200 255
0.361754 0.357888 0.141243 0 200 255
0.419617 0.328084 0.178933 0 200 255
0.419059 0.360453 0.086529 0 200 255
0.362074 0.243632 0.130096 0 200 255
0.437798 0.321085 0.180503 0 200 255
0.344139 0.353993 0.118883 0 200 255
0.394081 0.262550 0.132337 0 200 255
0.367738 0.248396 0.114196 0 200 255
0.413388 0.313588 0.141830 0 200 255
0.350485 0.270727 0.130258 0 200 255
0.482906 0.257809 0.154043 0 200 255
0.494282 0.307348 0.166136 0 200 255
0.363847 0.357408 0.131603 0 200 255
0.441668 0.269968 0.158879 0 200 255
0.412901 0.353891 0.136483 0 200 255
0.467975 0.362201 0.159166 0 200 255
0.452414 0.342929 0.154063 0 200 255
0.345885 0.252881 0.132805 0 200 255
0.397561 0.245675 0.151962 0 200 255
0.426662 0.276656 0.144708 0 200 255
0.473315 0.307548 0.178382 0 200 255
0.435752 0.293294 0.180632 0 200 255
0.450409 0.251730 0.147994 0 200 255
0.432134 0.338337 0.159632 0 200 255
0.481758 0.255363 0.172725 0 200 255
0.452042 0.244516 0.137910 0 200 255
0.478663 0.254636 0.136531 0 200 255
0.434864 0.387506 0.133381 0 200 255
0.422765 0.355242 0.077755 0 200 255
0.444654 0.241293 0.147606 0 200 255
0.430039 0.381766 0.138826 0 200 255
0.435755 0.252574 0.139848 0 200 255
0.385816 0.339079 0.165044 0 200 255
0.456396 0.320172 0.180533 0 200 255
0.428908 0.348026 0.061263 0 200 255
0.489070 0.292614 0.143529 0 200 255
0.465809 0.317697 0.179701 0 200 255
0.469695 0.332427 0.144421 0 200 255
0.432568 0.360022 0.150629 0 200 255
0.333212 0.272711 0.121114 0 200 255
0.412184 0.271963 0.154940 0 200 255
0.434749 0.395308 0.088316 0 200 255
0.334049 0.379038 0.106321 0 200 255
0.465661 0.309563 0.179668 0 200 255
0.412656 0.317299 0.179158 0 200 255
0.487487 0.251512 0.163120 0 200 255
0.431340 0.351195 0.068735 0 200 255
0.495546 0.288091 0.160779 0 200 255
0.450047 0.238606 0.141069 0 200 255
0.431000 0.347166 0.150531 0 200 255
0.486389 0.282062 0.171716 0 200 255
0.472743 0.343658 0.146160 0 200 255
0.445763 0.395224 0.075155 0 200 255
0.444754 0.288755 0.181526 0 200 255
0.475322 0.257831 0.142654 0 200 255
0.402185 0.300722 0.164632 0 200 255
0.347582 0.265382 0.120756 0 200 255
0.384912 0.245353 0.119208 0 200 255
0.439606 0.329444 0.138943 0 200 255
0.478419 0.267324 0.156639 0 200 255
0.351578 0.252126 0.126580 0 200 255
0.355238 0.272187 0.111755 0 200 255
0.406296 0.313824 0.144510 0 200 255
0.440950 0.299466 0.136798 0 200 255
0.398994 0.252621 0.126261 0 200 255
0.441623 0.334312 0.145822 0 200 255
0.390659 0.267361 0.137332 0 200 255
0.339086 0.254063 0.131478 0 200 255
0.447700 0.353678 0.154564 0 200 255
0.470625 0.353819 0.161154 0 200 255
0.416051 0.364389 0.134526 0 200 255
0.441751 0.278196 0.143281 0 200 255
0.381012 0.249747 0.112505 0 200 255
0.458038 0.252113 0.175330 0 200 255
0.399856 0.302450 0.147776 0 200 255
0.455316 0.389509 0.140084 0 200 255
0.423630 0.385310 0.080476 0 200 255
0.449484 0.242553 0.171890 0 200 255
0.429932 0.340614 0.132225 0 200 255
0.431050 0.391739 0.105070 0 200 255
0.411931 0.306968 0.137252 0 200 255
0.432602 0.271652 0.146822 0 200 255
0.442402 0.394426 0.082571 0 200 255
0.350409 0.264045 0.132820 0 200 255
0.420551 0.337950 0.154322 0 200 255
0.418614 0.356229 0.100800 0 200 255
0.433371 0.360000 0.124615 0 200 255
0.447097 0.382261 0.092487 0 200 255
0.447824 0.349062 0.145715 0 200 255
0.365910 0.269171 0.142912 0 200 255
0.353877 0.365079 0.138170 0 200 255
0.479985 0.349175 0.163502 0 200 255
0.400126 0.249594 0.137251 0 200 255
0.391016 0.266027 0.127047 0 200 255
0.433905 0.336811 0.149476 0 200 255
0.477186 0.346950 0.150037 0 200 255
0.383428 0.240295 0.139462 0 200 255
0.419029 0.354895 0.152009 0 200 255
0.423708 0.352702 0.093753 0 200 255
0.403456 0.332488 0.161674 0 200 255
0.394628 0.324432 0.163401 0 200 255
0.329101 0.291635 0.115371 0 200 255
0.412344 0.296182 0.141092 0 200 255
0.419577 0.266498 0.145796 0 200 255
0.436609 0.367873 0.144618 0 200 255
0.342344 0.367302 0.119062 0 200 255
0.423770 0.269054 0.153453 0 200 255
0.424955 0.324426 0.178051 0 200 255
0.405752 0.256654 0.151083 0 200 255
0.336758 0.266852 0.113483 0 200 255
0.422601 0.386725 0.124164 0 200 255
0.447091 0.262902 0.142307 0 200 255
0.397480 0.313764 0.142860 0 200 255
0.338777 0.375848 0.116130 0 200 255
0.455120 0.295472 0.175183 0 200 255
0.440033 0.355608 0.148881 0 200 255
0.410779 0.362671 0.113222 0 200 255
0.432700 0.386604 0.082260 0 200 255
0.482517 0.331763 0.172721 0 200 255
0.455020 0.376970 0.119372 0 200 255
0.441790 0.390195 0.110691 0 200 255
0.460133 0.293191 0.139781 0 200 255
0.414788 0.281711 0.160056 0 200 255
0.358585 0.346518 0.148918 0 200 255
0.463190 0.364788 0.155240 0 200 255
0.438637 0.305600 0.181188 0 200 255
0.461458 0.256183 0.144393 0 200 255
0.424082 0.398198 0.084268 0 200 255
0.453674 0.309056 0.181041 0 200 255
0.447141 0.242513 0.158480 0 200 255
0.489037 0.292974 0.165062 0 200 255
0.341861 0.368817 0.097124 0 200 255
0.415362 0.319246 0.151657 0 200 255
0.441319 0.331454 0.159501 0 200 255
0.376426 0.243033 0.145073 0 200 255
0.409878 0.323036 0.170272 0 200 255
0.408976 0.245785 0.121697 0 200 255
0.360881 0.342945 0.129544 0 200 255
0.425882 0.314185 0.174972 0 200 255
0.458983 0.336707 0.141108 0 200 255
0.438856 0.345827 0.161635 0 200 255
0.431442 0.398756 0.076054 0 200 255
0.449862 0.397735 0.093619 0 200 255
0.396878 0.259605 0.152028 0 200 255
0.422985 0.397046 0.091880 0 200 255
0.417463 0.342561 0.130000 0 200 255
0.436148 0.394527 0.110435 0 200 255
0.343600 0.374342 0.105092 0 200 255
0.480872 0.323720 0.139035 0 200 255
0.357182 0.258100 0.126420 0 200 255
