ply
format ascii 1.0
element vertex 1024
property float x
property float y
property float z
property uchar red
property uchar green
property uchar blue
end_header
0.463564 0.258840 0.180373 0 200 255
0.332146 0.375252 0.098061 0 200 255
0.459968 0.386593 0.138203 0 200 255
0.351633 0.249070 0.115124 0 200 255
0.387108 0.326391 0.164126 0 200 255
0.423302 0.344189 0.062530 0 200 255
0.486097 0.317338 0.140942 0 200 255
0.410953 0.264045 0.140592 0 200 255
0.449894 0.399822 0.077304 0 200 255
0.446845 0.342914 0.180765 0 200 255
0.410307 0.360343 0.118450 0 200 255
0.323149 0.299223 0.116610 0 200 255
0.431410 0.313953 0.138577 0 200 255
0.355013 0.360962 0.141939 0 200 255
0.467547 0.250100 0.132621 0 200 255
0.418887 0.291897 0.177351 0 200 255
0.464001 0.302653 0.180776 0 200 255
0.373457 0.249330 0.150615 0 200 255
0.492323 0.280886 0.159667 0 200 255
0.430376 0.396714 0.112935 0 200 255
0.441152 0.351686 0.142509 0 200 255
0.478210 0.351131 0.158979 0 200 255
0.461114 0.288853 0.137028 0 200 255
0.388764 0.243555 0.116375 0 200 255
0.338167 0.273801 0.138446 0 200 255
0.440078 0.245687 0.156096 0 200 255
0.400673 0.298044 0.145432 0 200 255
0.375309 0.334737 0.132861 0 200 255
0.423781 0.367068 0.087779 0 200 255
0.418345 0.338690 0.163973 0 200 255
0.349941 0.352662 0.111117 0 200 255
0.485758 0.324693 0.174281 0 200 255
0.426728 0.379788 0.139133 0 200 255
0.372706 0.269510 0.126075 0 200 255
0.338379 0.274803 0.103711 0 200 255
0.457840 0.385435 0.103743 0 200 255
0.438906 0.276023 0.155686 0 200 255
0.421239 0.396970 0.084590 0 200 255
0.484936 0.251528 0.156511 0 200 255
0.454680 0.369262 0.161863 0 200 255
0.436666 0.314897 0.180582 0 200 255
0.464547 0.335156 0.139954 0 200 255
0.445203 0.282241 0.182152 0 200 255
0.411949 0.357784 0.145383 0 200 255
0.406944 0.317303 0.179738 0 200 255
0.375360 0.348831 0.155552 0 200 255
0.425689 0.288474 0.136035 0 200 255
0.466387 0.361244 0.136640 0 200 255
0.397749 0.241451 0.141580 0 200 255
0.442910 0.370891 0.120760 0 200 255
0.421436 0.339665 0.130003 0 200 255
0.428067 0.261559 0.173700 0 200 255
0.405291 0.323811 0.146492 0 200 255
0.481019 0.273340 0.138223 0 200 255
0.460536 0.263377 0.152939 0 200 255
0.388156 0.269650 0.149387 0 200 255
0.475739 0.280514 0.178722 0 200 255
0.446021 0.305155 0.159763 0 200 255
0.420371 0.342704 0.087185 0 200 255
0.447723 0.329576 0.160169 0 200 255
0.408520 0.276880 0.161110 0 200 255
0.350580 0.254014 0.142456 0 200 255
0.401359 0.263845 0.119252 0 200 255
0.490356 0.301592 0.170148 0 200 255
0.343609 0.289173 0.121836 0 200 255
0.342449 0.373204 0.118850 0 200 255
0.368023 0.240353 0.130102 0 200 255
0.429812 0.351247 0.110651 0 200 255
0.462385 0.312915 0.144727 0 200 255
0.451460 0.399928 0.120869 0 200 255
0.464251 0.325563 0.181170 0 200 255
0.433376 0.361917 0.161648 0 200 255
0.323627 0.277253 0.121654 0 200 255
0.438312 0.383757 0.090167 0 200 255
0.483661 0.295343 0.138075 0 200 255
0.418638 0.250865 0.156455 0 200 255
0.368956 0.355307 0.126359 0 200 255
0.445114 0.402209 0.098656 0 200 255
0.452845 0.238435 0.171445 0 200 255
0.446339 0.258276 0.138036 0 200 255
0.391910 0.341040 0.145237 0 200 255
0.456980 0.348275 0.159199 0 200 255
0.371287 0.256414 0.109948 0 200 255
0.348878 0.268774 0.120489 0 200 255
0.400893 0.301311 0.165680 0 200 255
0.427398 0.359966 0.129816 0 200 255
0.410437 0.246763 0.125589 0 200 255
0.367822 0.268109 0.145803 0 200 255
0.429457 0.334070 0.147765 0 200 255
0.424929 0.379323 0.104597 0 200 255
0.427545 0.332504 0.180793 0 200 255
0.467681 0.344228 0.176208 0 200 255
0.444293 0.371322 0.141058 0 200 255
0.486033 0.333002 0.152399 0 200 255
0.461863 0.376377 0.121941 0 200 255
0.360934 0.342510 0.144642 0 200 255
0.412363 0.354917 0.100217 0 200 255
0.415126 0.357217 0.074020 0 200 255
0.349857 0.368753 0.101042 0 200 255
0.425353 0.321345 0.165822 0 200 255
0.477461 0.265446 0.166608 0 200 255
0.342801 0.356545 0.128014 0 200 255
0.338085 0.256023 0.128801 0 200 255
0.446985 0.329100 0.140015 0 200 255
0.430067 0.266685 0.140405 0 200 255
0.453865 0.242234 0.143085 0 200 255
0.446424 0.255462 0.174185 0 200 255
0.400156 0.255842 0.153026 0 200 255
0.436981 0.344422 0.164216 0 200 255
0.442764 0.387792 0.132894 0 200 255
0.493713 0.306083 0.152691 0 200 255
0.416362 0.304306 0.137417 0 200 255
0.443787 0.293311 0.137372 0 200 255
0.323868 0.285031 0.104988 0 200 255
0.477496 0.247969 0.179257 0 200 255
0.404696 0.327427 0.165442 0 200 255
0.435710 0.296970 0.180331 0 200 255
0.410215 0.283564 0.142849 0 200 255
0.431423 0.352102 0.077483 0 200 255
0.334432 0.361087 0.109366 0 200 255
0.425202 0.382510 0.122078 0 200 255
0.389485 0.264347 0.132962 0 200 255
0.462575 0.269524 0.136972 0 200 255
0.385165 0.265955 0.113978 0 200 255
0.422679 0.268637 0.156085 0 200 255
0.378338 0.330486 0.150060 0 200 255
0.382504 0.248556 0.133843 0 200 255
0.468172 0.364186 0.153222 0 200 255
0.337263 0.260127 0.111972 0 200 255
0.444242 0.276721 0.139000 0 200 255
0.363084 0.256035 0.124888 0 200 255
0.456904 0.387560 0.085897 0 200 255
0.379186 0.349681 0.138509 0 200 255
0.328650 0.290494 0.129874 0 200 255
0.355495 0.346176 0.127994 0 200 255
0.439865 0.383063 0.110286 0 200 255
0.430394 0.353500 0.094157 0 200 255
0.461380 0.286155 0.173745 0 200 255
0.424862 0.367349 0.115647 0 200 255
0.430674 0.387116 0.075965 0 200 255
0.478265 0.309849 0.176769 0 200 255
0.426441 0.353089 0.150204 0 200 255
0.410058 0.313129 0.160195 0 200 255
0.356573 0.365876 0.118405 0 200 255
0.426128 0.276813 0.177686 0 200 255
0.411072 0.332591 0.179213 0 200 255
0.481701 0.338563 0.167804 0 200 255
0.420391 0.309168 0.179515 0 200 255
0.482495 0.257956 0.142425 0 200 255
0.454581 0.381080 0.151725 0 200 255
0.467963 0.349661 0.147374 0 200 255
0.452686 0.360062 0.149518 0 200 255
0.421093 0.395758 0.100623 0 200 255
0.365942 0.242591 0.114300 0 200 255
0.489367 0.319958 0.160046 0 200 255
0.434389 0.374270 0.152473 0 200 255
0.412179 0.248751 0.141695 0 200 255
0.415753 0.346188 0.115957 0 200 255
0.441865 0.260971 0.155598 0 200 255
0.389319 0.341468 0.163412 0 200 255
0.456648 0.272406 0.180429 0 200 255
0.452525 0.364190 0.130310 0 200 255
0.352702 0.268210 0.137837 0 200 255
0.414015 0.366004 0.132683 0 200 255
0.446734 0.328037 0.181759 0 200 255
0.413674 0.369656 0.106020 0 200 255
0.362409 0.267864 0.114366 0 200 255
0.483047 0.290608 0.152167 0 200 255
0.337939 0.289265 0.107305 0 200 255
0.474270 0.307482 0.137764 0 200 255
0.423507 0.383166 0.090397 0 200 255
0.390670 0.322567 0.148404 0 200 255
0.416364 0.343296 0.143345 0 200 255
0.394945 0.314585 0.160430 0 200 255
0.465431 0.357473 0.166786 0 200 255
0.461041 0.334443 0.163249 0 200 255
0.420753 0.325585 0.139857 0 200 255
0.361750 0.244781 0.142486 0 200 255
0.417946 0.327613 0.154646 0 200 255
0.472152 0.321891 0.138940 0 200 255
0.435369 0.397627 0.087858 0 200 255
0.452497 0.311222 0.180597 0 200 255
0.432960 0.252734 0.141487 0 200 255
0.481824 0.268071 0.152493 0 200 255
0.450526 0.305802 0.141362 0 200 255
0.397906 0.253384 0.130095 0 200 255
0.413545 0.351296 0.131236 0 200 255
0.368327 0.356271 0.144635 0 200 255
0.411216 0.360789 0.087221 0 200 255
0.338810 0.363512 0.094260 0 200 255
0.351337 0.280035 0.128986 0 200 255
0.350260 0.260477 0.106948 0 200 255
0.386741 0.245318 0.149202 0 200 255
0.376341 0.336421 0.162877 0 200 255
0.429508 0.365076 0.143334 0 200 255
0.455657 0.399886 0.107795 0 200 255
0.464703 0.373770 0.144046 0 200 255
0.431538 0.346222 0.123481 0 200 255
0.336889 0.277454 0.125320 0 200 255
0.414567 0.349647 0.156704 0 200 255
0.398463 0.334967 0.155608 0 200 255
0.350314 0.279515 0.112187 0 200 255
0.442905 0.267687 0.178997 0 200 255
0.425871 0.365854 0.101404 0 200 255
0.376199 0.248343 0.121836 0 200 255
0.454806 0.253722 0.163736 0 200 255
0.452409 0.341459 0.148471 0 200 255
0.488580 0.287348 0.170864 0 200 255
0.455654 0.400527 0.089395 0 200 255
0.431793 0.393234 0.126687 0 200 255
0.434789 0.324861 0.157006 0 200 255
0.491529 0.284952 0.143523 0 200 255
0.400378 0.311231 0.143541 0 200 255
0.435957 0.392665 0.100263 0 200 255
0.448100 0.293336 0.175369 0 200 255
0.406994 0.298785 0.177213 0 200 255
0.473309 0.283982 0.139953 0 200 255
0.391649 0.239379 0.128563 0 200 255
0.432950 0.300843 0.137437 0 200 255
0.442519 0.316864 0.145063 0 200 255
0.455987 0.388135 0.117179 0 200 255
0.479514 0.296807 0.175648 0 200 255
0.427493 0.356179 0.065411 0 200 255
0.412721 0.281122 0.173420 0 200 255
0.403115 0.288481 0.158713 0 200 255
0.426055 0.340407 0.075759 0 200 255
0.411045 0.262634 0.154230 0 200 255
0.330049 0.266806 0.127239 0 200 255
0.474602 0.333290 0.177034 0 200 255
0.440458 0.360487 0.128330 0 200 255
0.425140 0.277378 0.145320 0 200 255
0.450377 0.252601 0.149428 0 200 255
0.436006 0.253842 0.167215 0 200 255
0.379308 0.260513 0.150874 0 200 255
0.429708 0.334704 0.168576 0 200 255
0.349795 0.349974 0.138682 0 200 255
0.452460 0.396803 0.133026 0 200 255
0.430688 0.255303 0.154385 0 200 255
0.356001 0.243867 0.131259 0 200 255
0.379547 0.270656 0.140277 0 200 255
0.447390 0.355372 0.163162 0 200 255
0.465716 0.259932 0.164114 0 200 255
0.341343 0.376133 0.106513 0 200 255
0.353104 0.367059 0.130352 0 200 255
0.445700 0.388050 0.080486 0 200 255
0.374997 0.241280 0.141255 0 200 255
0.317995 0.288011 0.119023 0 200 255
0.457461 0.335752 0.179310 0 200 255
0.443161 0.390770 0.120972 0 200 255
0.328755 0.270645 0.112689 0 200 255
0.418743 0.321158 0.177670 0 200 255
0.432217 0.343977 0.139285 0 200 255
0.443507 0.367181 0.157347 0 200 255
0.453887 0.247614 0.179739 0 200 255
0.398775 0.266589 0.140494 0 200 255
0.472453 0.264797 0.142356 0 200 255
0.448471 0.382126 0.096776 0 200 255
0.439799 0.339265 0.153640 0 200 255
0.412162 0.314459 0.143073 0 200 255
0.425945 0.352420 0.162613 0 200 255
0.392522 0.256465 0.115444 0 200 255
0.368482 0.338971 0.153387 0 200 255
0.350373 0.260079 0.128632 0 200 255
0.395349 0.320728 0.170724 0 200 255
0.361591 0.255870 0.146880 0 200 255
0.412098 0.258429 0.123762 0 200 255
0.468418 0.297546 0.140781 0 200 255
0.421688 0.256532 0.141357 0 200 255
0.337841 0.261575 0.139315 0 200 255
0.367069 0.343583 0.126442 0 200 255
0.470744 0.267581 0.176155 0 200 255
0.448390 0.387609 0.143331 0 200 255
0.405624 0.245419 0.151636 0 200 255
0.400070 0.244135 0.120520 0 200 255
0.451236 0.338723 0.168302 0 200 255
0.490286 0.314284 0.170974 0 200 255
0.475301 0.321721 0.179672 0 200 255
0.421025 0.388458 0.110952 0 200 255
0.417085 0.262535 0.164441 0 200 255
0.437130 0.381141 0.123961 0 200 255
0.419076 0.362033 0.153696 0 200 255
0.326887 0.277026 0.132924 0 200 255
0.427198 0.371762 0.130621 0 200 255
0.332118 0.281690 0.114925 0 200 255
0.362938 0.265641 0.131574 0 200 255
0.453181 0.317208 0.139006 0 200 255
0.430177 0.398747 0.077325 0 200 255
0.476868 0.343334 0.143323 0 200 255
0.437418 0.381575 0.143312 0 200 255
0.383390 0.329511 0.139306 0 200 255
0.334159 0.296446 0.118636 0 200 255
0.443260 0.245200 0.169403 0 200 255
0.463243 0.258268 0.139398 0 200 255
0.436779 0.350991 0.154847 0 200 255
0.415016 0.370327 0.121366 0 200 255
0.343858 0.360359 0.116955 0 200 255
0.360677 0.351383 0.151762 0 200 255
0.444699 0.393379 0.110052 0 200 255
0.436008 0.339936 0.179520 0 200 255
0.485482 0.257638 0.168133 0 200 255
0.483540 0.273948 0.170870 0 200 255
0.420212 0.354120 0.088630 0 200 255
0.436624 0.285091 0.140207 0 200 255
0.449042 0.380828 0.122191 0 200 255
0.421442 0.357784 0.139335 0 200 255
0.462498 0.373723 0.155090 0 200 255
0.360181 0.254895 0.110788 0 200 255
0.426713 0.362218 0.078048 0 200 255
0.433694 0.374152 0.114912 0 200 255
0.493594 0.295619 0.146082 0 200 255
0.342815 0.357225 0.102557 0 200 255
0.475881 0.249103 0.139960 0 200 255
0.457103 0.329184 0.145717 0 200 255
0.455015 0.279989 0.139811 0 200 255
0.491686 0.293963 0.158168 0 200 255
0.421629 0.393449 0.120779 0 200 255
0.419300 0.330889 0.172058 0 200 255
0.416624 0.346464 0.072062 0 200 255
0.412818 0.319976 0.168440 0 200 255
0.401465 0.310693 0.171451 0 200 255
0.415417 0.366942 0.095513 0 200 255
0.436832 0.278322 0.175779 0 200 255
0.436852 0.328072 0.176990 0 200 255
0.447383 0.236934 0.162089 0 200 255
0.343175 0.268627 0.129817 0 200 255
0.366644 0.251134 0.135059 0 200 255
0.463259 0.335932 0.152651 0 200 255
0.401712 0.242452 0.131386 0 200 255
0.361685 0.351664 0.135054 0 200 255
0.444332 0.303560 0.181042 0 200 255
0.382029 0.251248 0.112804 0 200 255
0.457860 0.356046 0.140897 0 200 255
0.385155 0.344826 0.153391 0 200 255
0.477885 0.341379 0.154358 0 200 255
0.432488 0.327193 0.140020 0 200 255
0.447307 0.375100 0.131420 0 200 255
0.338317 0.269250 0.118518 0 200 255
0.452617 0.371079 0.148327 0 200 255
0.450026 0.267880 0.141124 0 200 255
0.457473 0.293818 0.180569 0 200 255
0.432331 0.377917 0.096889 0 200 255
0.351088 0.353947 0.121762 0 200 255
0.466467 0.315109 0.180612 0 200 255
0.465469 0.368959 0.129302 0 200 255
0.420273 0.348928 0.104140 0 200 255
0.419935 0.267107 0.145912 0 200 255
0.385058 0.341375 0.135423 0 200 255
0.381040 0.239023 0.128930 0 200 255
0.387212 0.334433 0.154332 0 200 255
0.386144 0.240112 0.139121 0 200 255
0.433622 0.365262 0.121803 0 200 255
0.372967 0.268054 0.115599 0 200 255
0.395077 0.332862 0.166532 0 200 255
0.397047 0.256289 0.141491 0 200 255
0.357848 0.257033 0.135332 0 200 255
0.429653 0.286636 0.178546 0 200 255
0.420471 0.337648 0.153155 0 200 255
0.342679 0.253067 0.118732 0 200 255
0.369333 0.336771 0.142268 0 200 255
0.336644 0.283194 0.134044 0 200 255
0.428846 0.278370 0.135631 0 200 255
0.397329 0.305943 0.155139 0 200 255
0.358912 0.359344 0.126486 0 200 255
0.401093 0.263305 0.129634 0 200 255
0.457165 0.297819 0.140855 0 200 255
0.470974 0.289687 0.175540 0 200 255
0.471694 0.348729 0.166675 0 200 255
0.432465 0.388960 0.136107 0 200 255
0.346602 0.270254 0.108041 0 200 255
0.396053 0.324867 0.159159 0 200 255
0.445526 0.401112 0.087400 0 200 255
0.457804 0.394932 0.097814 0 200 255
0.428982 0.356232 0.119897 0 200 255
0.414175 0.354816 0.110510 0 200 255
0.383857 0.268102 0.123984 0 200 255
0.397332 0.265680 0.151843 0 200 255
0.389413 0.255178 0.150438 0 200 255
0.328470 0.294006 0.107012 0 200 255
0.447926 0.361770 0.140045 0 200 255
0.430107 0.345806 0.086582 0 200 255
0.461961 0.241468 0.178428 0 200 255
0.474360 0.261535 0.154970 0 200 255
0.491067 0.317692 0.150225 0 200 255
0.457089 0.345760 0.172796 0 200 255
0.342197 0.374115 0.096558 0 200 255
0.331930 0.370962 0.107263 0 200 255
0.410976 0.297076 0.142050 0 200 255
0.484277 0.306714 0.139141 0 200 255
0.425789 0.321747 0.152074 0 200 255
0.437266 0.273217 0.145436 0 200 255
0.428137 0.321645 0.181388 0 200 255
0.355404 0.364656 0.108447 0 200 255
0.482665 0.326449 0.145497 0 200 255
0.427078 0.393852 0.092727 0 200 255
0.434955 0.362505 0.151730 0 200 255
0.465865 0.354818 0.157125 0 200 255
0.462814 0.379314 0.131935 0 200 255
0.443987 0.320117 0.176169 0 200 255
0.431920 0.268532 0.159908 0 200 255
0.439685 0.259268 0.145381 0 200 255
0.433076 0.355943 0.136924 0 200 255
0.426172 0.298619 0.178030 0 200 255
0.429902 0.307305 0.181685 0 200 255
0.458076 0.391137 0.126406 0 200 255
0.399337 0.318456 0.152339 0 200 255
0.355637 0.258687 0.118908 0 200 255
0.475478 0.331107 0.140398 0 200 255
0.414482 0.350269 0.081046 0 200 255
0.442042 0.400107 0.116811 0 200 255
0.438929 0.289913 0.174040 0 200 255
0.403839 0.253211 0.121523 0 200 255
0.419587 0.270880 0.173268 0 200 255
0.480094 0.249438 0.169187 0 200 255
0.406275 0.328955 0.155626 0 200 255
0.375768 0.347382 0.129046 0 200 255
0.448083 0.241750 0.151938 0 200 255
0.401234 0.325113 0.177929 0 200 255
0.449572 0.391245 0.101802 0 200 255
0.451548 0.378510 0.141443 0 200 255
0.370877 0.270925 0.135699 0 200 255
0.411656 0.282509 0.153724 0 200 255
0.466866 0.249754 0.181844 0 200 255
0.449493 0.350886 0.147501 0 200 255
0.348809 0.371300 0.111138 0 200 255
0.407496 0.256357 0.145560 0 200 255
0.445183 0.246557 0.142290 0 200 255
0.430606 0.380849 0.084176 0 200 255
0.431084 0.345545 0.068172 0 200 255
0.452442 0.282673 0.175226 0 200 255
0.418217 0.361412 0.123960 0 200 255
0.438429 0.334836 0.164179 0 200 255
0.429602 0.342964 0.158113 0 200 255
0.360206 0.241655 0.122044 0 200 255
0.487575 0.330004 0.161470 0 200 255
0.434234 0.387308 0.116912 0 200 255
0.355004 0.250276 0.124107 0 200 255
0.425725 0.304803 0.142432 0 200 255
0.395623 0.246742 0.152650 0 200 255
0.454250 0.261096 0.179420 0 200 255
0.488939 0.274559 0.152501 0 200 255
0.427810 0.360717 0.109309 0 200 255
0.466470 0.275529 0.179494 0 200 255
0.423717 0.385457 0.131112 0 200 255
0.423954 0.255239 0.163155 0 200 255
0.319380 0.293011 0.109853 0 200 255
0.335820 0.365478 0.117779 0 200 255
0.397469 0.329280 0.146530 0 200 255
0.321533 0.284532 0.127704 0 200 255
0.482479 0.285104 0.137613 0 200 255
0.455395 0.358129 0.158886 0 200 255
0.403039 0.248913 0.139153 0 200 255
0.329394 0.277362 0.105336 0 200 255
0.392039 0.248363 0.138576 0 200 255
0.376550 0.242650 0.114308 0 200 255
0.431215 0.386261 0.105800 0 200 255
0.331517 0.364786 0.100151 0 200 255
0.415423 0.322286 0.147286 0 200 255
0.442035 0.392737 0.092389 0 200 255
0.436799 0.259592 0.176645 0 200 255
0.361508 0.342251 0.135174 0 200 255
0.415092 0.348338 0.094007 0 200 255
0.418361 0.352089 0.063842 0 200 255
0.447066 0.271370 0.155430 0 200 255
0.452129 0.371347 0.122478 0 200 255
0.441844 0.307444 0.144509 0 200 255
0.486619 0.260440 0.158897 0 200 255
0.430303 0.268700 0.149795 0 200 255
0.430294 0.399341 0.103591 0 200 255
0.347158 0.358752 0.136803 0 200 255
0.474100 0.259091 0.178145 0 200 255
0.455288 0.320056 0.181801 0 200 255
0.434796 0.372733 0.141850 0 200 255
0.428225 0.358703 0.086560 0 200 255
0.443490 0.398268 0.126517 0 200 255
0.360885 0.351074 0.122168 0 200 255
0.422795 0.387131 0.081991 0 200 255
0.406963 0.311875 0.150348 0 200 255
0.411495 0.307717 0.177294 0 200 255
0.453500 0.261055 0.147241 0 200 255
0.370196 0.346787 0.148132 0 200 255
0.458689 0.349922 0.148030 0 200 255
0.463516 0.365846 0.161046 0 200 255
0.419697 0.286426 0.142741 0 200 255
0.340720 0.278365 0.114933 0 200 255
0.454011 0.253900 0.135407 0 200 255
0.439470 0.382006 0.100973 0 200 255
0.443586 0.252627 0.162212 0 200 255
0.416997 0.257735 0.149132 0 200 255
0.443912 0.357673 0.150510 0 200 255
0.482257 0.281934 0.149389 0 200 255
0.359330 0.264265 0.142739 0 200 255
0.436973 0.391240 0.081555 0 200 255
0.378129 0.339090 0.154187 0 200 255
0.354700 0.268062 0.128114 0 200 255
0.373061 0.251150 0.141474 0 200 255
0.454439 0.392038 0.078346 0 200 255
0.418415 0.362621 0.081674 0 200 255
0.405153 0.291618 0.171988 0 200 255
0.451610 0.386129 0.134789 0 200 255
0.402504 0.318897 0.163420 0 200 255
0.321325 0.282017 0.113113 0 200 255
0.379662 0.328967 0.158854 0 200 255
0.432484 0.345655 0.148986 0 200 255
0.454320 0.403203 0.098470 0 200 255
0.412436 0.311020 0.168914 0 200 255
0.342643 0.365598 0.124132 0 200 255
0.448631 0.385362 0.110718 0 200 255
0.423807 0.343827 0.119661 0 200 255
0.421589 0.387153 0.098222 0 200 255
0.418806 0.295722 0.136872 0 200 255
0.353555 0.352944 0.146593 0 200 255
0.416126 0.344773 0.124765 0 200 255
0.417920 0.364456 0.144108 0 200 255
0.360525 0.362379 0.135063 0 200 255
0.439977 0.399537 0.105644 0 200 255
0.416247 0.364200 0.113049 0 200 255
0.400903 0.298066 0.157187 0 200 255
0.491600 0.311367 0.159598 0 200 255
0.337473 0.291133 0.127951 0 200 255
0.426209 0.379397 0.113365 0 200 255
0.388466 0.247182 0.124452 0 200 255
0.442095 0.339266 0.173128 0 200 255
0.345683 0.253700 0.110317 0 200 255
0.468049 0.358751 0.144950 0 200 255
0.457653 0.242480 0.135133 0 200 255
0.472698 0.302281 0.174599 0 200 255
0.441352 0.267663 0.139653 0 200 255
0.379352 0.349084 0.147269 0 200 255
0.433816 0.380575 0.133949 0 200 255
0.442511 0.372580 0.149685 0 200 255
0.425182 0.260663 0.149928 0 200 255
0.404163 0.291845 0.150729 0 200 255
0.448840 0.387966 0.089730 0 200 255
0.458752 0.391968 0.109716 0 200 255
0.443201 0.355527 0.134968 0 200 255
0.378463 0.265451 0.131175 0 200 255
0.457186 0.385502 0.094336 0 200 255
0.422691 0.365782 0.136224 0 200 255
0.371251 0.355047 0.134715 0 200 255
0.347484 0.260430 0.136774 0 200 255
0.353923 0.267556 0.112752 0 200 255
0.380946 0.344946 0.160939 0 200 255
0.408212 0.253448 0.155009 0 200 255
0.423781 0.355026 0.073115 0 200 255
0.453094 0.332000 0.153868 0 200 255
0.343395 0.277191 0.130955 0 200 255
0.465778 0.284817 0.181022 0 200 255
0.425961 0.355127 0.102321 0 200 255
0.424403 0.345482 0.145502 0 200 255
0.477139 0.318271 0.144918 0 200 255
0.388662 0.269147 0.140032 0 200 255
0.416922 0.274980 0.156509 0 200 255
0.433641 0.354400 0.145633 0 200 255
0.343411 0.262673 0.123664 0 200 255
0.441134 0.327114 0.166713 0 200 255
0.456650 0.366113 0.154085 0 200 255
0.466570 0.335247 0.179224 0 200 255
0.427329 0.374245 0.121549 0 200 255
0.494496 0.301742 0.162675 0 200 255
0.361332 0.264807 0.123235 0 200 255
0.349865 0.352247 0.130077 0 200 255
0.409228 0.327264 0.172656 0 200 255
0.338529 0.265735 0.105687 0 200 255
0.471607 0.259244 0.135953 0 200 255
0.371480 0.257170 0.148010 0 200 255
0.343762 0.281909 0.107356 0 200 255
0.412589 0.269670 0.149750 0 200 255
0.479568 0.286077 0.173604 0 200 255
0.347174 0.362889 0.107108 0 200 255
0.465269 0.326931 0.145542 0 200 255
0.412429 0.269586 0.163912 0 200 255
0.373858 0.249259 0.131058 0 200 255
0.450144 0.323405 0.145411 0 200 255
0.381418 0.250612 0.145307 0 200 255
0.469442 0.268173 0.153245 0 200 255
0.410800 0.358813 0.127033 0 200 255
0.494130 0.292822 0.166157 0 200 255
0.460564 0.382619 0.145613 0 200 255
0.418087 0.353385 0.149163 0 200 255
0.366860 0.347515 0.155933 0 200 255
0.413230 0.351742 0.139700 0 200 255
0.331615 0.269360 0.135674 0 200 255
0.322267 0.292547 0.124843 0 200 255
0.427710 0.339350 0.175970 0 200 255
0.335158 0.261665 0.122681 0 200 255
0.392313 0.266049 0.118316 0 200 255
0.424411 0.359329 0.094356 0 200 255
0.441603 0.326008 0.145609 0 200 255
0.474581 0.293519 0.136845 0 200 255
0.451590 0.299741 0.182479 0 200 255
0.425025 0.339836 0.138691 0 200 255
0.446694 0.272727 0.147234 0 200 255
0.421674 0.371363 0.107506 0 200 255
0.402965 0.309059 0.161679 0 200 255
0.476588 0.344893 0.172184 0 200 255
0.469991 0.244660 0.176074 0 200 255
0.414040 0.325697 0.162549 0 200 255
0.452839 0.289314 0.137433 0 200 255
0.471262 0.347399 0.156405 0 200 255
0.412899 0.317931 0.154057 0 200 255
0.423589 0.348022 0.093120 0 200 255
0.380271 0.259339 0.114986 0 200 255
0.448661 0.274080 0.181875 0 200 255
0.351753 0.276951 0.119936 0 200 255
0.431959 0.347818 0.131957 0 200 255
0.409800 0.361792 0.104024 0 200 255
0.469165 0.276857 0.139553 0 200 255
0.363077 0.271880 0.140208 0 200 255
0.366545 0.249450 0.121334 0 200 255
0.466711 0.310752 0.137973 0 200 255
0.441892 0.350405 0.167028 0 200 255
0.403475 0.260483 0.136987 0 200 255
0.470653 0.265860 0.161260 0 200 255
0.442816 0.396926 0.080551 0 200 255
0.490023 0.310666 0.146099 0 200 255
0.477690 0.272226 0.176370 0 200 255
0.425296 0.365564 0.123841 0 200 255
0.423862 0.393205 0.076597 0 200 255
0.448024 0.403433 0.106202 0 200 255
0.413348 0.282285 0.165351 0 200 255
0.349603 0.370119 0.121278 0 200 255
0.483001 0.268943 0.160503 0 200 255
0.429110 0.376318 0.146424 0 200 255
0.382391 0.239504 0.120933 0 200 255
0.418792 0.342170 0.078940 0 200 255
0.343755 0.266887 0.140975 0 200 255
0.432104 0.291799 0.140628 0 200 255
0.438358 0.335820 0.146464 0 200 255
0.345410 0.264461 0.113545 0 200 255
0.343286 0.285767 0.130238 0 200 255
0.466881 0.339588 0.146282 0 200 255
0.372748 0.239596 0.123616 0 200 255
0.455686 0.340460 0.157747 0 200 255
0.337778 0.358484 0.121854 0 200 255
0.333620 0.369429 0.092724 0 200 255
0.447395 0.352572 0.155654 0 200 255
0.384999 0.334731 0.163029 0 200 255
0.371774 0.249060 0.114790 0 200 255
0.444443 0.282531 0.174187 0 200 255
0.375565 0.267398 0.147615 0 200 255
0.488334 0.274933 0.163187 0 200 255
0.334476 0.288407 0.121083 0 200 255
0.445822 0.367596 0.134189 0 200 255
0.421918 0.355035 0.112336 0 200 255
0.467493 0.338863 0.161779 0 200 255
0.342305 0.355752 0.110660 0 200 255
0.418418 0.329711 0.180166 0 200 255
0.456766 0.396929 0.115772 0 200 255
0.460592 0.359505 0.149192 0 200 255
0.445317 0.382404 0.138211 0 200 255
0.454396 0.392081 0.139409 0 200 255
0.483159 0.317864 0.177310 0 200 255
0.339425 0.369457 0.110297 0 200 255
0.432150 0.400190 0.095954 0 200 255
0.459804 0.256218 0.149669 0 200 255
0.452472 0.334761 0.140312 0 200 255
0.459701 0.320319 0.145179 0 200 255
0.422686 0.283662 0.175844 0 200 255
0.324487 0.290766 0.115506 0 200 255
0.415301 0.358522 0.093565 0 200 255
0.359182 0.246956 0.114619 0 200 255
0.428411 0.400082 0.085077 0 200 255
0.464404 0.345181 0.169166 0 200 255
0.477452 0.301085 0.140944 0 200 255
0.392471 0.340191 0.153905 0 200 255
0.460353 0.344817 0.179826 0 200 255
0.455471 0.325017 0.139339 0 200 255
0.394052 0.266668 0.127092 0 200 255
0.372844 0.342394 0.159302 0 200 255
0.327494 0.270563 0.120784 0 200 255
0.418591 0.261718 0.155836 0 200 255
0.343511 0.288376 0.112638 0 200 255
0.447970 0.360625 0.157491 0 200 255
0.368833 0.263761 0.110149 0 200 255
0.413879 0.277195 0.148437 0 200 255
0.336988 0.271581 0.110618 0 200 255
0.455543 0.379216 0.118303 0 200 255
0.404822 0.265909 0.149902 0 200 255
0.484639 0.261108 0.149161 0 200 255
0.447007 0.393597 0.137482 0 200 255
0.451340 0.348903 0.164675 0 200 255
0.460018 0.384581 0.122812 0 200 255
0.468471 0.254403 0.175707 0 200 255
0.448027 0.392251 0.128174 0 200 255
0.417408 0.344422 0.151132 0 200 255
0.362914 0.350944 0.143359 0 200 255
0.441117 0.343154 0.147127 0 200 255
0.484703 0.330424 0.168600 0 200 255
0.435351 0.261648 0.159694 0 200 255
0.439805 0.357036 0.158512 0 200 255
0.458364 0.368495 0.126429 0 200 255
0.425530 0.361819 0.149033 0 200 255
0.413324 0.352405 0.119741 0 200 255
0.393679 0.249194 0.119197 0 200 255
0.350618 0.362737 0.114220 0 200 255
0.411208 0.357721 0.134708 0 200 255
0.451310 0.373859 0.155348 0 200 255
0.405931 0.302258 0.139539 0 200 255
0.412622 0.356712 0.153364 0 200 255
0.444297 0.335273 0.181264 0 200 255
0.482545 0.339398 0.160272 0 200 255
0.356902 0.358310 0.119213 0 200 255
0.420638 0.303009 0.175050 0 200 255
0.431733 0.257641 0.147157 0 200 255
0.446637 0.364472 0.148220 0 200 255
0.444809 0.265434 0.160988 0 200 255
0.490203 0.285692 0.154190 0 200 255
0.385528 0.330207 0.147661 0 200 255
0.332181 0.284028 0.103033 0 200 255
0.467351 0.366844 0.142454 0 200 255
0.419199 0.368951 0.128004 0 200 255
0.386134 0.344957 0.142283 0 200 255
0.424717 0.314409 0.176197 0 200 255
0.448099 0.378622 0.148169 0 200 255
0.401692 0.303396 0.173413 0 200 255
0.443764 0.384232 0.116653 0 200 255
0.460258 0.265626 0.180601 0 200 255
0.436505 0.387557 0.128269 0 200 255
0.413555 0.257102 0.139206 0 200 255
0.445246 0.366632 0.126734 0 200 255
0.373895 0.332928 0.155628 0 200 255
0.324783 0.285237 0.120721 0 200 255
0.420095 0.359710 0.131617 0 200 255
0.445836 0.262072 0.148673 0 200 255
0.405977 0.283490 0.164538 0 200 255
0.420419 0.391115 0.090591 0 200 255
0.356393 0.347308 0.141070 0 200 255
0.442642 0.237072 0.154128 0 200 255
0.437035 0.285473 0.179771 0 200 255
0.368000 0.241473 0.137509 0 200 255
0.430079 0.353030 0.126579 0 200 255
0.388095 0.262418 0.151828 0 200 255
0.403042 0.333550 0.149857 0 200 255
0.361272 0.357511 0.147505 0 200 255
0.368601 0.338284 0.131496 0 200 255
0.489078 0.322863 0.167841 0 200 255
0.417552 0.313498 0.137986 0 200 255
0.479708 0.333910 0.145880 0 200 255
0.442144 0.293243 0.180921 0 200 255
0.433757 0.251816 0.160219 0 200 255
0.447627 0.393037 0.075230 0 200 255
0.456894 0.285653 0.180395 0 200 255
0.436096 0.367695 0.157537 0 200 255
0.482315 0.303619 0.176745 0 200 255
0.442029 0.389536 0.103180 0 200 255
0.453420 0.311769 0.144705 0 200 255
0.380313 0.242550 0.146721 0 200 255
0.393268 0.249243 0.145838 0 200 255
0.425063 0.253572 0.147783 0 200 255
0.442484 0.327891 0.155220 0 200 255
0.451304 0.346567 0.153821 0 200 255
0.353106 0.253849 0.108547 0 200 255
0.448454 0.400486 0.112962 0 200 255
0.346262 0.363611 0.131318 0 200 255
0.376594 0.332010 0.143053 0 200 255
0.436015 0.270293 0.179417 0 200 255
0.333877 0.261833 0.131115 0 200 255
0.335979 0.271075 0.128886 0 200 255
0.451852 0.403847 0.084035 0 200 255
0.375381 0.241581 0.132885 0 200 255
0.436165 0.393803 0.119790 0 200 255
0.431368 0.384702 0.092390 0 200 255
0.366053 0.249105 0.146589 0 200 255
0.426908 0.392085 0.104604 0 200 255
0.459537 0.360790 0.134042 0 200 255
0.460024 0.311681 0.181365 0 200 255
0.441395 0.379393 0.132008 0 200 255
0.395848 0.259787 0.133352 0 200 255
0.457330 0.394877 0.085043 0 200 255
0.418049 0.371185 0.114754 0 200 255
0.437412 0.305621 0.182249 0 200 255
0.447012 0.254309 0.155968 0 200 255
0.416901 0.342206 0.136135 0 200 255
0.459398 0.297667 0.174660 0 200 255
0.343320 0.364050 0.100017 0 200 255
0.428495 0.383551 0.099492 0 200 255
0.412396 0.357689 0.080749 0 200 255
0.348726 0.361764 0.123054 0 200 255
0.488967 0.302107 0.142246 0 200 255
0.457202 0.342533 0.164538 0 200 255
0.485126 0.323529 0.155363 0 200 255
0.450140 0.392022 0.119000 0 200 255
0.329773 0.278796 0.125734 0 200 255
0.420102 0.370694 0.100459 0 200 255
0.342829 0.255549 0.139433 0 200 255
0.347089 0.274514 0.125323 0 200 255
0.431893 0.344697 0.075311 0 200 255
0.394905 0.246841 0.132113 0 200 255
0.460671 0.251533 0.138935 0 200 255
0.411338 0.328122 0.150548 0 200 255
0.346241 0.274498 0.137010 0 200 255
0.455309 0.352932 0.153890 0 200 255
0.458381 0.349867 0.167023 0 200 255
0.423500 0.340512 0.068708 0 200 255
0.413052 0.353848 0.087567 0 200 255
0.332529 0.264350 0.116562 0 200 255
0.367162 0.256605 0.119011 0 200 255
0.352781 0.358105 0.107148 0 200 255
0.333782 0.274751 0.117719 0 200 255
0.393675 0.240954 0.121184 0 200 255
0.403189 0.313988 0.156417 0 200 255
0.432350 0.379260 0.109672 0 200 255
0.393594 0.239942 0.135438 0 200 255
0.360745 0.251465 0.140127 0 200 255
0.406220 0.312752 0.139469 0 200 255
0.433432 0.393080 0.107364 0 200 255
0.387288 0.324268 0.157300 0 200 255
0.427526 0.372778 0.140298 0 200 255
0.464787 0.373906 0.136169 0 200 255
0.487620 0.307627 0.172823 0 200 255
0.429455 0.365644 0.133962 0 200 255
0.473493 0.314457 0.179597 0 200 255
0.443514 0.384522 0.124744 0 200 255
0.450904 0.267364 0.179803 0 200 255
0.382544 0.246727 0.119076 0 200 255
0.427809 0.358237 0.142433 0 200 255
0.396490 0.336100 0.148889 0 200 255
0.368107 0.267983 0.120906 0 200 255
0.328895 0.283902 0.132455 0 200 255
0.355141 0.354820 0.138415 0 200 255
0.468094 0.328600 0.139267 0 200 255
0.449193 0.403661 0.093054 0 200 255
0.474006 0.326385 0.145464 0 200 255
0.428804 0.346197 0.164398 0 200 255
0.416221 0.342971 0.158753 0 200 255
0.396886 0.321511 0.145190 0 200 255
0.363063 0.343529 0.151488 0 200 255
0.409731 0.365917 0.110939 0 200 255
0.429739 0.352568 0.156420 0 200 255
0.412925 0.275140 0.168231 0 200 255
0.479279 0.251905 0.145451 0 200 255
0.448342 0.354783 0.140409 0 200 255
0.465137 0.258106 0.153804 0 200 255
0.363321 0.357456 0.139190 0 200 255
0.472100 0.307332 0.179413 0 200 255
0.441847 0.321353 0.139731 0 200 255
0.439825 0.398631 0.095452 0 200 255
0.373595 0.353160 0.141239 0 200 255
0.400998 0.334142 0.163035 0 200 255
0.488787 0.295422 0.173031 0 200 255
0.462432 0.380007 0.138869 0 200 255
0.478142 0.314949 0.138867 0 200 255
0.336562 0.360311 0.102531 0 200 255
0.467688 0.288097 0.140226 0 200 255
0.424190 0.346697 0.082936 0 200 255
0.420546 0.326369 0.165372 0 200 255
0.454613 0.386431 0.146234 0 200 255
0.389075 0.334451 0.143430 0 200 255
0.476743 0.270087 0.143788 0 200 255
0.435363 0.337535 0.172836 0 200 255
0.453701 0.341433 0.177951 0 200 255
0.412670 0.365468 0.125893 0 200 255
0.430028 0.367272 0.152814 0 200 255
0.450060 0.398257 0.102053 0 200 255
0.442550 0.376682 0.124548 0 200 255
0.423421 0.366601 0.094681 0 200 255
0.418290 0.277478 0.175309 0 200 255
0.448321 0.382033 0.103692 0 200 255
0.349114 0.272301 0.114201 0 200 255
0.361655 0.244077 0.135613 0 200 255
0.363654 0.357518 0.131285 0 200 255
0.400095 0.306557 0.148843 0 200 255
0.402787 0.322261 0.157401 0 200 255
0.345044 0.353565 0.117147 0 200 255
0.406235 0.318139 0.169367 0 200 255
0.481245 0.257924 0.154242 0 200 255
0.452135 0.393875 0.109532 0 200 255
0.493044 0.307163 0.167127 0 200 255
0.395263 0.337987 0.160894 0 200 255
0.411145 0.323709 0.178222 0 200 255
0.377544 0.341163 0.131376 0 200 255
0.440115 0.270337 0.159352 0 200 255
0.457370 0.258051 0.159061 0 200 255
0.400774 0.315536 0.176268 0 200 255
0.397281 0.307245 0.165067 0 200 255
0.455140 0.398657 0.127009 0 200 255
0.470125 0.358530 0.160980 0 200 255
0.437373 0.368683 0.146720 0 200 255
0.422232 0.364682 0.108854 0 200 255
0.444879 0.303380 0.138364 0 200 255
0.421233 0.395302 0.107435 0 200 255
0.480108 0.255181 0.172883 0 200 255
0.438263 0.378436 0.117625 0 200 255
0.418090 0.362265 0.088586 0 200 255
0.421624 0.386363 0.117732 0 200 255
0.359405 0.261563 0.111986 0 200 255
0.433644 0.386713 0.085873 0 200 255
0.450247 0.245149 0.137948 0 200 255
0.423779 0.255322 0.156065 0 200 255
0.476947 0.255074 0.136688 0 200 255
0.366291 0.248072 0.110278 0 200 255
0.421796 0.357013 0.079836 0 200 255
0.425683 0.379503 0.128480 0 200 255
0.447086 0.344561 0.167715 0 200 255
0.442848 0.241827 0.147603 0 200 255
0.404308 0.317094 0.146175 0 200 255
0.471921 0.353658 0.153844 0 200 255
0.395553 0.246227 0.125378 0 200 255
0.428644 0.387336 0.125490 0 200 255
0.421188 0.347681 0.110751 0 200 255
0.380693 0.253931 0.151768 0 200 255
0.453496 0.325233 0.177802 0 200 255
0.427960 0.349726 0.063383 0 200 255
0.441657 0.276775 0.149536 0 200 255
0.487675 0.292846 0.144290 0 200 255
0.338625 0.293011 0.113363 0 200 255
0.368493 0.352755 0.150846 0 200 255
0.343454 0.259771 0.108306 0 200 255
0.366709 0.260914 0.145001 0 200 255
0.453033 0.255509 0.175646 0 200 255
0.437039 0.392556 0.113197 0 200 255
0.343797 0.255515 0.132393 0 200 255
0.468625 0.332795 0.145871 0 200 255
0.410353 0.361267 0.097309 0 200 255
0.410642 0.272635 0.155499 0 200 255
0.335993 0.378091 0.102886 0 200 255
0.420636 0.336087 0.180237 0 200 255
0.485789 0.251442 0.163206 0 200 255
0.457982 0.391805 0.133699 0 200 255
0.353422 0.365223 0.136955 0 200 255
0.430381 0.352884 0.070863 0 200 255
0.494142 0.287988 0.161452 0 200 255
0.448208 0.239205 0.141013 0 200 255
0.484955 0.281854 0.172305 0 200 255
0.458728 0.391281 0.091208 0 200 255
0.471768 0.343971 0.147789 0 200 255
0.327478 0.297916 0.121598 0 200 255
0.473641 0.258195 0.142869 0 200 255
0.418771 0.263488 0.140367 0 200 255
0.428006 0.257919 0.168051 0 200 255
0.465949 0.292186 0.179228 0 200 255
0.435655 0.278263 0.141311 0 200 255
0.449319 0.379685 0.115580 0 200 255
0.438505 0.330147 0.140399 0 200 255
0.476839 0.267431 0.157002 0 200 255
0.424170 0.295192 0.140869 0 200 255
0.337858 0.284716 0.126036 0 200 255
0.393311 0.326404 0.166739 0 200 255
0.411412 0.246376 0.147907 0 200 255
0.357449 0.257816 0.141998 0 200 255
0.438029 0.384613 0.137217 0 200 255
0.350697 0.263470 0.142105 0 200 255
0.405847 0.282429 0.157937 0 200 255
0.440349 0.254489 0.156409 0 200 255
0.436441 0.257637 0.151920 0 200 255
0.384112 0.339561 0.157357 0 200 255
0.332998 0.278120 0.136373 0 200 255
0.434150 0.358335 0.128498 0 200 255
0.361577 0.250375 0.128062 0 200 255
0.419959 0.321858 0.157308 0 200 255
0.410644 0.307927 0.138389 0 200 255
0.471147 0.313937 0.141737 0 200 255
0.349345 0.266197 0.131553 0 200 255
0.349201 0.253068 0.122522 0 200 255
0.419002 0.251359 0.149861 0 200 255
0.412942 0.296256 0.178620 0 200 255
0.443594 0.386271 0.095108 0 200 255
0.352624 0.254470 0.131293 0 200 255
0.329276 0.298066 0.114437 0 200 255
0.417535 0.358070 0.102842 0 200 255
0.421794 0.387407 0.124899 0 200 255
0.479084 0.349143 0.165206 0 200 255
0.422040 0.386030 0.104908 0 200 255
0.416227 0.331348 0.165457 0 200 255
0.440083 0.252788 0.146523 0 200 255
0.450797 0.385069 0.083413 0 200 255
0.399277 0.245550 0.146482 0 200 255
0.476245 0.347162 0.151712 0 200 255
0.438224 0.301915 0.141195 0 200 255
0.466505 0.262589 0.175749 0 200 255
0.410188 0.291520 0.138674 0 200 255
0.449778 0.332881 0.178575 0 200 255
0.343234 0.366864 0.116684 0 200 255
0.426181 0.342398 0.126427 0 200 255
0.374199 0.261912 0.113378 0 200 255
0.421512 0.353291 0.096358 0 200 255
0.441997 0.376627 0.144077 0 200 255
0.451718 0.388628 0.096003 0 200 255
0.397619 0.253600 0.123416 0 200 255
0.432638 0.331966 0.163373 0 200 255
0.339912 0.375284 0.113157 0 200 255
0.355314 0.269141 0.121378 0 200 255
0.427725 0.395618 0.121449 0 200 255
0.416434 0.284636 0.137411 0 200 255
0.481490 0.331562 0.174134 0 200 255
0.317781 0.293920 0.116337 0 200 255
0.327574 0.272774 0.127857 0 200 255
0.431733 0.273655 0.175887 0 200 255
0.430904 0.393262 0.073904 0 200 255
0.446276 0.397406 0.094457 0 200 255
0.357640 0.346865 0.148241 0 200 255
0.350628 0.261877 0.121506 0 200 255
0.449979 0.244321 0.175761 0 200 255
0.462421 0.376724 0.149328 0 200 255
0.423564 0.335959 0.172350 0 200 255
0.353911 0.347045 0.134651 0 200 255
0.425713 0.379091 0.095734 0 200 255
0.445363 0.242848 0.158491 0 200 255
0.487680 0.292852 0.165826 0 200 255
0.344530 0.367563 0.094739 0 200 255
0.447406 0.359884 0.132741 0 200 255
0.382496 0.248180 0.126681 0 200 255
0.358495 0.263406 0.136067 0 200 255
0.333019 0.266226 0.110419 0 200 255
0.457943 0.337216 0.142649 0 200 255
0.428855 0.341652 0.133854 0 200 255
0.442855 0.318020 0.182127 0 200 255
0.454319 0.383340 0.125487 0 200 255
0.448330 0.290600 0.181159 0 200 255
0.342098 0.276583 0.120930 0 200 255
0.450666 0.343684 0.161022 0 200 255
0.345614 0.373386 0.102610 0 200 255
0.479723 0.324088 0.140323 0 200 255
0.388326 0.251676 0.116099 0 200 255
0.443071 0.388723 0.087063 0 200 255
0.400732 0.323223 0.168193 0 200 255
0.372813 0.271574 0.141763 0 200 255
0.428879 0.271708 0.144335 0 200 255
0.381904 0.270156 0.148146 0 200 255
0.426860 0.324762 0.160637 0 200 255
0.430691 0.350448 0.117785 0 200 255
0.440242 0.364526 0.162154 0 200 255
0.459090 0.343651 0.153390 0 200 255
0.393077 0.320200 0.162812 0 200 255
