ply
format ascii 1.0
element vertex 1024
property float x
property float y
property float z
property uchar red
property uchar green
property uchar blue
end_header
0.474779 0.231662 0.240304 0 200 255
0.365567 0.333640 0.134699 0 200 255
0.337456 0.155754 0.170248 0 200 255
0.449018 0.340369 0.213213 0 200 255
0.410390 0.213076 0.175124 0 200 255
0.396301 0.274811 0.235471 0 200 255
0.445776 0.341951 0.132280 0 200 255
0.485979 0.285618 0.201292 0 200 255
0.408747 0.303762 0.175909 0 200 255
0.435701 0.255787 0.200977 0 200 255
0.376515 0.178583 0.201802 0 200 255
0.449198 0.291271 0.240527 0 200 255
0.480244 0.224115 0.192495 0 200 255
0.424398 0.350163 0.173467 0 200 255
0.432327 0.212531 0.215028 0 200 255
0.407292 0.318995 0.133209 0 200 255
0.415028 0.313041 0.223130 0 200 255
0.379176 0.308487 0.203705 0 200 255
0.437033 0.246276 0.240082 0 200 255
0.443437 0.296843 0.200114 0 200 255
0.373610 0.170397 0.164763 0 200 255
0.371449 0.314410 0.167002 0 200 255
0.496041 0.257122 0.223354 0 200 255
0.436579 0.313915 0.154437 0 200 255
0.473202 0.313404 0.224259 0 200 255
0.391894 0.210598 0.204961 0 200 255
0.403215 0.277151 0.201853 0 200 255
0.408639 0.245441 0.219388 0 200 255
0.404958 0.179755 0.182655 0 200 255
0.464295 0.206417 0.222171 0 200 255
0.443787 0.326217 0.183757 0 200 255
0.468848 0.264563 0.239185 0 200 255
0.477271 0.255622 0.196402 0 200 255
0.402415 0.331085 0.162148 0 200 255
0.351687 0.179200 0.184224 0 200 255
0.406770 0.325859 0.196869 0 200 255
0.384354 0.198430 0.170126 0 200 255
0.435489 0.313930 0.124362 0 200 255
0.454785 0.230239 0.207880 0 200 255
0.486708 0.286362 0.231504 0 200 255
0.422160 0.282784 0.226295 0 200 255
0.497018 0.229819 0.216185 0 200 255
0.412586 0.192012 0.206493 0 200 255
0.442764 0.314148 0.222762 0 200 255
0.446375 0.271690 0.220821 0 200 255
0.445903 0.345705 0.158878 0 200 255
0.450282 0.223876 0.235290 0 200 255
0.393296 0.298343 0.225060 0 200 255
0.468028 0.304583 0.200313 0 200 255
0.384005 0.296776 0.181475 0 200 255
0.383451 0.317952 0.143948 0 200 255
0.413719 0.222662 0.201189 0 200 255
0.417312 0.261795 0.238982 0 200 255
0.430909 0.344583 0.196745 0 200 255
0.416728 0.300929 0.199104 0 200 255
0.427321 0.200474 0.187765 0 200 255
0.360323 0.156417 0.180870 0 200 255
0.386840 0.320273 0.184252 0 200 255
0.459767 0.273121 0.201178 0 200 255
0.426493 0.347847 0.145472 0 200 255
0.426429 0.279676 0.199179 0 200 255
0.431632 0.235848 0.216254 0 200 255
0.422531 0.322040 0.171298 0 200 255
0.428055 0.303448 0.239900 0 200 255
0.428087 0.324487 0.208450 0 200 255
0.437915 0.270543 0.242557 0 200 255
0.475825 0.235946 0.215989 0 200 255
0.384689 0.170547 0.183398 0 200 255
0.414511 0.250106 0.199275 0 200 255
0.426220 0.326607 0.140584 0 200 255
0.379389 0.200269 0.190777 0 200 255
0.465311 0.211676 0.201224 0 200 255
0.456248 0.320717 0.207405 0 200 255
0.408248 0.292228 0.238819 0 200 255
0.375857 0.332533 0.156787 0 200 255
0.457830 0.312204 0.238098 0 200 255
0.495008 0.263821 0.203177 0 200 255
0.392573 0.332735 0.128619 0 200 255
0.351642 0.171015 0.165282 0 200 255
0.400949 0.311656 0.156022 0 200 255
0.392324 0.190090 0.207350 0 200 255
0.432527 0.309745 0.186943 0 200 255
0.470627 0.295493 0.239570 0 200 255
0.482575 0.249957 0.236529 0 200 255
0.370396 0.184695 0.179358 0 200 255
0.388283 0.290415 0.203924 0 200 255
0.456595 0.242754 0.242002 0 200 255
0.396891 0.306119 0.193870 0 200 255
0.445849 0.345320 0.178919 0 200 255
0.455074 0.254062 0.197275 0 200 255
0.398250 0.264489 0.218823 0 200 255
0.436534 0.236569 0.197500 0 200 255
0.361992 0.166731 0.196917 0 200 255
0.432331 0.298834 0.215480 0 200 255
0.419933 0.240698 0.233972 0 200 255
0.425180 0.328063 0.189098 0 200 255
0.406404 0.292345 0.212677 0 200 255
0.405042 0.334736 0.143332 0 200 255
0.412910 0.194498 0.173650 0 200 255
0.400865 0.313880 0.210814 0 200 255
0.430980 0.332398 0.157736 0 200 255
0.342619 0.159463 0.187809 0 200 255
0.458007 0.326562 0.225054 0 200 255
0.489878 0.245454 0.208999 0 200 255
0.396532 0.205964 0.187778 0 200 255
0.476464 0.213851 0.236497 0 200 255
0.482101 0.295796 0.216620 0 200 255
0.451948 0.260205 0.234280 0 200 255
0.466883 0.240268 0.199155 0 200 255
0.451702 0.336790 0.195857 0 200 255
0.388529 0.181057 0.169500 0 200 255
0.428333 0.308090 0.139607 0 200 255
0.490949 0.224563 0.239009 0 200 255
0.402492 0.329117 0.179728 0 200 255
0.388624 0.319159 0.166786 0 200 255
0.428933 0.285689 0.241935 0 200 255
0.431140 0.218107 0.198796 0 200 255
0.393474 0.176425 0.196945 0 200 255
0.440791 0.314668 0.201050 0 200 255
0.367068 0.321508 0.146965 0 200 255
0.413377 0.322135 0.151240 0 200 255
0.455183 0.275511 0.242040 0 200 255
0.441323 0.273357 0.204771 0 200 255
0.492523 0.280880 0.216615 0 200 255
0.394848 0.280904 0.217484 0 200 255
0.433154 0.228777 0.231372 0 200 255
0.408658 0.207649 0.210881 0 200 255
0.485074 0.266865 0.235932 0 200 255
0.447397 0.217473 0.220482 0 200 255
0.446746 0.242141 0.216614 0 200 255
0.433672 0.357177 0.156762 0 200 255
0.408456 0.194272 0.189331 0 200 255
0.463195 0.223099 0.219853 0 200 255
0.442721 0.335015 0.146684 0 200 255
0.492157 0.239930 0.227908 0 200 255
0.413361 0.209964 0.191165 0 200 255
0.423976 0.218774 0.181747 0 200 255
0.416541 0.336319 0.176459 0 200 255
0.468085 0.286877 0.201673 0 200 255
0.477769 0.272517 0.196921 0 200 255
0.382928 0.302777 0.166635 0 200 255
0.415638 0.278795 0.212208 0 200 255
0.375289 0.309137 0.186744 0 200 255
0.354552 0.154170 0.166141 0 200 255
0.421885 0.263751 0.202845 0 200 255
0.441571 0.316778 0.139320 0 200 255
0.384815 0.186192 0.186116 0 200 255
0.411558 0.276431 0.239353 0 200 255
0.430617 0.346622 0.130372 0 200 255
0.447059 0.218959 0.200312 0 200 255
0.433977 0.354871 0.185459 0 200 255
0.433588 0.337610 0.173263 0 200 255
0.442390 0.351221 0.144834 0 200 255
0.455138 0.306259 0.212713 0 200 255
0.363838 0.183553 0.194525 0 200 255
0.416240 0.314737 0.207329 0 200 255
0.399185 0.201433 0.172647 0 200 255
0.474581 0.278899 0.237041 0 200 255
0.394988 0.325423 0.150212 0 200 255
0.418603 0.238510 0.209094 0 200 255
0.429147 0.320521 0.224048 0 200 255
0.406611 0.283748 0.226461 0 200 255
0.492318 0.231941 0.202030 0 200 255
0.444552 0.305856 0.241305 0 200 255
0.369858 0.169649 0.179688 0 200 255
0.394612 0.309545 0.177223 0 200 255
0.437213 0.332562 0.218104 0 200 255
0.418419 0.314667 0.187833 0 200 255
0.404921 0.256965 0.229729 0 200 255
0.341384 0.169312 0.176859 0 200 255
0.382110 0.300438 0.215761 0 200 255
0.416526 0.334529 0.160173 0 200 255
0.437415 0.357236 0.170900 0 200 255
0.436222 0.317590 0.174690 0 200 255
0.378191 0.333329 0.141950 0 200 255
0.411182 0.298829 0.224792 0 200 255
0.421917 0.203305 0.206980 0 200 255
0.422414 0.224782 0.212581 0 200 255
0.404697 0.262778 0.200811 0 200 255
0.429197 0.293970 0.200795 0 200 255
0.394710 0.292399 0.191191 0 200 255
0.428144 0.307582 0.204761 0 200 255
0.362171 0.179980 0.168033 0 200 255
0.466222 0.224460 0.195442 0 200 255
0.449247 0.285100 0.205168 0 200 255
0.439582 0.335426 0.204183 0 200 255
0.409495 0.317466 0.173310 0 200 255
0.347665 0.150610 0.178284 0 200 255
0.375910 0.186975 0.166766 0 200 255
0.478510 0.307397 0.208991 0 200 255
0.395602 0.301255 0.208731 0 200 255
0.464162 0.219991 0.237917 0 200 255
0.378181 0.192735 0.202273 0 200 255
0.436038 0.292271 0.227015 0 200 255
0.374052 0.320257 0.134159 0 200 255
0.451254 0.302566 0.225368 0 200 255
0.449115 0.241302 0.202110 0 200 255
0.428188 0.345446 0.160963 0 200 255
0.423554 0.314756 0.158294 0 200 255
0.479333 0.302614 0.229838 0 200 255
0.375757 0.310874 0.154595 0 200 255
0.402256 0.184617 0.170422 0 200 255
0.366280 0.159964 0.168916 0 200 255
0.485492 0.267220 0.211928 0 200 255
0.436709 0.223937 0.209360 0 200 255
0.443679 0.346830 0.192520 0 200 255
0.382499 0.298760 0.195352 0 200 255
0.394477 0.321372 0.135482 0 200 255
0.378184 0.323710 0.174888 0 200 255
0.405967 0.331130 0.128194 0 200 255
0.445247 0.235960 0.239683 0 200 255
0.404843 0.183431 0.200134 0 200 255
0.430419 0.257596 0.239444 0 200 255
0.419110 0.232795 0.222433 0 200 255
0.495847 0.272117 0.225793 0 200 255
0.478303 0.296316 0.202001 0 200 255
0.426827 0.246475 0.196913 0 200 255
0.408270 0.301593 0.188746 0 200 255
0.428122 0.342639 0.184193 0 200 255
0.443885 0.323397 0.210327 0 200 255
0.465891 0.261780 0.196956 0 200 255
0.457491 0.209282 0.211577 0 200 255
0.444178 0.230019 0.220126 0 200 255
0.468940 0.245794 0.240159 0 200 255
0.389250 0.315365 0.198425 0 200 255
0.423115 0.296808 0.229021 0 200 255
0.377042 0.168337 0.194213 0 200 255
0.420851 0.331920 0.200393 0 200 255
0.350664 0.168636 0.191570 0 200 255
0.435008 0.334782 0.136728 0 200 255
0.450955 0.324324 0.194269 0 200 255
0.396796 0.188372 0.189205 0 200 255
0.407706 0.272570 0.220865 0 200 255
0.367258 0.324223 0.160418 0 200 255
0.403126 0.217751 0.206056 0 200 255
0.426029 0.317488 0.131730 0 200 255
0.419766 0.204504 0.178740 0 200 255
0.398221 0.317951 0.190295 0 200 255
0.435193 0.325499 0.195818 0 200 255
0.454622 0.305706 0.200413 0 200 255
0.481484 0.239580 0.202196 0 200 255
0.471401 0.317199 0.211116 0 200 255
0.416207 0.286153 0.201318 0 200 255
0.388496 0.310791 0.211799 0 200 255
0.402456 0.215088 0.193439 0 200 255
0.402969 0.295302 0.199753 0 200 255
0.402373 0.255107 0.212265 0 200 255
0.423451 0.273909 0.239637 0 200 255
0.407707 0.304408 0.214568 0 200 255
0.427322 0.308565 0.222938 0 200 255
0.398841 0.200311 0.207655 0 200 255
0.374164 0.179414 0.189761 0 200 255
0.436083 0.325277 0.149377 0 200 255
0.456415 0.215960 0.228367 0 200 255
0.404102 0.312778 0.144451 0 200 255
0.433908 0.321361 0.163480 0 200 255
0.418618 0.190614 0.183474 0 200 255
0.438493 0.305855 0.132717 0 200 255
0.487628 0.249968 0.197980 0 200 255
0.351958 0.164139 0.175284 0 200 255
0.425473 0.312234 0.177745 0 200 255
0.409031 0.309164 0.164870 0 200 255
0.416216 0.273221 0.198538 0 200 255
0.395897 0.174662 0.176119 0 200 255
0.464882 0.321640 0.233236 0 200 255
0.419628 0.197242 0.197167 0 200 255
0.435413 0.219193 0.224212 0 200 255
0.484159 0.237668 0.236577 0 200 255
0.379060 0.321438 0.160378 0 200 255
0.383421 0.170108 0.171186 0 200 255
0.437505 0.305070 0.228006 0 200 255
0.436092 0.342587 0.152680 0 200 255
0.441776 0.256801 0.242139 0 200 255
0.414240 0.320918 0.162788 0 200 255
0.410231 0.321345 0.214773 0 200 255
0.395344 0.269184 0.204933 0 200 255
0.440408 0.235392 0.208381 0 200 255
0.404272 0.314392 0.199755 0 200 255
0.387369 0.199999 0.203826 0 200 255
0.435785 0.323609 0.131819 0 200 255
0.461385 0.288801 0.240925 0 200 255
0.399743 0.316273 0.166724 0 200 255
0.420951 0.294536 0.241241 0 200 255
0.383238 0.308669 0.178367 0 200 255
0.393215 0.287291 0.228003 0 200 255
0.418758 0.320935 0.198007 0 200 255
0.459030 0.300846 0.237612 0 200 255
0.450781 0.335035 0.179620 0 200 255
0.422526 0.315654 0.145891 0 200 255
0.439739 0.285466 0.237855 0 200 255
0.421878 0.303353 0.214372 0 200 255
0.469030 0.310076 0.237699 0 200 255
0.423148 0.208343 0.196789 0 200 255
0.455581 0.331071 0.213273 0 200 255
0.388121 0.203873 0.180488 0 200 255
0.485650 0.241241 0.218623 0 200 255
0.461472 0.254354 0.235880 0 200 255
0.378572 0.317418 0.193663 0 200 255
0.399929 0.321639 0.125109 0 200 255
0.416916 0.325244 0.180508 0 200 255
0.437839 0.286831 0.200017 0 200 255
0.367405 0.161363 0.188678 0 200 255
0.374093 0.190392 0.192031 0 200 255
0.449092 0.249028 0.236538 0 200 255
0.447653 0.330380 0.221534 0 200 255
0.471233 0.228539 0.204578 0 200 255
0.367678 0.332640 0.146242 0 200 255
0.420842 0.213723 0.212582 0 200 255
0.494406 0.274670 0.205730 0 200 255
0.496519 0.265516 0.214099 0 200 255
0.454754 0.233398 0.221146 0 200 255
0.457859 0.231346 0.238574 0 200 255
0.378140 0.195552 0.178904 0 200 255
0.424060 0.334495 0.168368 0 200 255
0.432528 0.329457 0.180853 0 200 255
0.442162 0.346232 0.203656 0 200 255
0.429284 0.229718 0.202421 0 200 255
0.390202 0.189246 0.176835 0 200 255
0.387446 0.206850 0.194705 0 200 255
0.444484 0.310077 0.210454 0 200 255
0.388567 0.289886 0.215780 0 200 255
0.394851 0.331395 0.140516 0 200 255
0.461630 0.221524 0.208246 0 200 255
0.397332 0.284804 0.207270 0 200 255
0.465559 0.210117 0.232525 0 200 255
0.437694 0.298139 0.237415 0 200 255
0.395376 0.321261 0.176723 0 200 255
0.446967 0.314285 0.232944 0 200 255
0.438029 0.339511 0.163388 0 200 255
0.446273 0.299941 0.214040 0 200 255
0.439956 0.317016 0.190162 0 200 255
0.359377 0.171994 0.181678 0 200 255
0.486132 0.261727 0.197372 0 200 255
0.354151 0.157938 0.189584 0 200 255
0.462193 0.321425 0.216563 0 200 255
0.398773 0.301798 0.183428 0 200 255
0.441757 0.264125 0.197882 0 200 255
0.400162 0.210986 0.178997 0 200 255
0.438318 0.352956 0.134276 0 200 255
0.474924 0.215666 0.198748 0 200 255
0.345955 0.161996 0.166131 0 200 255
0.430334 0.288510 0.217377 0 200 255
0.418538 0.250877 0.236809 0 200 255
0.435695 0.318473 0.215925 0 200 255
0.401666 0.283951 0.239857 0 200 255
0.433337 0.335160 0.191820 0 200 255
0.423496 0.324474 0.154053 0 200 255
0.383772 0.325826 0.151992 0 200 255
0.437371 0.339672 0.126149 0 200 255
0.394925 0.174448 0.186615 0 200 255
0.363084 0.170094 0.164355 0 200 255
0.408725 0.322591 0.187069 0 200 255
0.492987 0.226616 0.228913 0 200 255
0.424704 0.315014 0.213538 0 200 255
0.386836 0.310706 0.160822 0 200 255
0.458623 0.310156 0.221797 0 200 255
0.373774 0.318838 0.183048 0 200 255
0.352687 0.178675 0.173812 0 200 255
0.383360 0.185606 0.196459 0 200 255
0.472161 0.228022 0.222026 0 200 255
0.465515 0.275126 0.240535 0 200 255
0.458896 0.264267 0.242253 0 200 255
0.405252 0.271622 0.210789 0 200 255
0.411058 0.245658 0.208575 0 200 255
0.401706 0.266574 0.232181 0 200 255
0.413624 0.188058 0.195818 0 200 255
0.415618 0.293196 0.217311 0 200 255
0.402478 0.188801 0.208791 0 200 255
0.459226 0.298023 0.205566 0 200 255
0.413734 0.329558 0.168756 0 200 255
0.448212 0.223594 0.212090 0 200 255
0.416680 0.305741 0.182052 0 200 255
0.425897 0.310894 0.194639 0 200 255
0.394000 0.272555 0.223439 0 200 255
0.395137 0.323786 0.160295 0 200 255
0.360480 0.182259 0.179647 0 200 255
0.464032 0.230863 0.212157 0 200 255
0.412227 0.269596 0.229518 0 200 255
0.490050 0.256198 0.233529 0 200 255
0.474563 0.254901 0.240405 0 200 255
0.435205 0.347434 0.169267 0 200 255
0.427182 0.333272 0.148171 0 200 255
0.410072 0.217119 0.184799 0 200 255
0.479268 0.305376 0.218869 0 200 255
0.411549 0.324987 0.141718 0 200 255
0.443962 0.230166 0.199936 0 200 255
0.456779 0.329476 0.202397 0 200 255
0.337112 0.160498 0.179410 0 200 255
0.392786 0.192589 0.167682 0 200 255
0.374125 0.314174 0.143559 0 200 255
0.437759 0.309273 0.145612 0 200 255
0.406381 0.303798 0.203806 0 200 255
0.395903 0.306936 0.217316 0 200 255
0.400152 0.337322 0.133454 0 200 255
0.421261 0.218139 0.196304 0 200 255
0.379917 0.183650 0.176558 0 200 255
0.429722 0.239705 0.235496 0 200 255
0.419703 0.324407 0.213811 0 200 255
0.447030 0.343611 0.149206 0 200 255
0.365799 0.174113 0.189199 0 200 255
0.405756 0.333482 0.153121 0 200 255
0.443387 0.336610 0.172366 0 200 255
0.402333 0.294348 0.225155 0 200 255
0.428193 0.210035 0.183583 0 200 255
0.377958 0.329242 0.132938 0 200 255
0.424758 0.256335 0.197053 0 200 255
0.495166 0.253121 0.212167 0 200 255
0.403164 0.322211 0.206120 0 200 255
0.403698 0.321038 0.154968 0 200 255
0.419661 0.335679 0.186253 0 200 255
0.389752 0.301444 0.174528 0 200 255
0.372707 0.178824 0.171193 0 200 255
0.429782 0.247946 0.206128 0 200 255
0.480238 0.223672 0.241722 0 200 255
0.407569 0.282980 0.208354 0 200 255
0.476316 0.281708 0.201134 0 200 255
0.403416 0.325353 0.170805 0 200 255
0.366938 0.174750 0.199326 0 200 255
0.369632 0.160063 0.178027 0 200 255
0.405259 0.190622 0.180928 0 200 255
0.465335 0.316566 0.203579 0 200 255
0.409993 0.249000 0.232645 0 200 255
0.416681 0.295754 0.207295 0 200 255
0.408846 0.267150 0.238775 0 200 255
0.484718 0.276526 0.235503 0 200 255
0.477362 0.234319 0.195200 0 200 255
0.416824 0.311232 0.172325 0 200 255
0.432836 0.328262 0.170983 0 200 255
0.426799 0.225344 0.225015 0 200 255
0.434348 0.270187 0.198298 0 200 255
0.382508 0.299810 0.206215 0 200 255
0.416236 0.291192 0.232582 0 200 255
0.488743 0.289456 0.219293 0 200 255
0.383672 0.316157 0.153643 0 200 255
0.470937 0.248905 0.199502 0 200 255
0.400512 0.191584 0.197912 0 200 255
0.488433 0.248889 0.227692 0 200 255
0.439563 0.341159 0.213268 0 200 255
0.419524 0.284783 0.241561 0 200 255
0.378320 0.165202 0.178888 0 200 255
0.433741 0.354376 0.146986 0 200 255
0.428371 0.354220 0.164444 0 200 255
0.451267 0.270098 0.198394 0 200 255
0.483400 0.294899 0.233750 0 200 255
0.397770 0.292137 0.216403 0 200 255
0.429970 0.331795 0.202837 0 200 255
0.428226 0.309157 0.149563 0 200 255
0.427195 0.314564 0.168054 0 200 255
0.469473 0.270318 0.200722 0 200 255
0.401018 0.311663 0.183749 0 200 255
0.496477 0.238875 0.218567 0 200 255
0.453657 0.254455 0.242656 0 200 255
0.486723 0.274225 0.200399 0 200 255
0.386949 0.179158 0.203052 0 200 255
0.465724 0.236289 0.239475 0 200 255
0.459880 0.283728 0.204762 0 200 255
0.445786 0.344645 0.168328 0 200 255
0.413846 0.281636 0.221010 0 200 255
0.376128 0.307540 0.171173 0 200 255
0.413009 0.219693 0.209968 0 200 255
0.420095 0.241952 0.221317 0 200 255
0.406252 0.307265 0.223270 0 200 255
0.358839 0.170157 0.172590 0 200 255
0.451233 0.320866 0.228033 0 200 255
0.429056 0.341889 0.138147 0 200 255
0.457738 0.226811 0.198166 0 200 255
0.345614 0.152004 0.165586 0 200 255
0.355582 0.162797 0.163129 0 200 255
0.460783 0.246913 0.196968 0 200 255
0.437254 0.348568 0.159739 0 200 255
0.392913 0.308715 0.204063 0 200 255
0.378194 0.201541 0.199816 0 200 255
0.486836 0.258616 0.209145 0 200 255
0.454305 0.331404 0.188944 0 200 255
0.357571 0.177258 0.192377 0 200 255
0.429762 0.210541 0.206486 0 200 255
0.448950 0.340816 0.186449 0 200 255
0.440407 0.334643 0.155509 0 200 255
0.409267 0.202829 0.172817 0 200 255
0.364700 0.325711 0.139115 0 200 255
0.425614 0.334729 0.178131 0 200 255
0.391165 0.308452 0.168865 0 200 255
0.416399 0.327300 0.191336 0 200 255
0.404467 0.274964 0.230054 0 200 255
0.392150 0.186547 0.198491 0 200 255
0.403081 0.310124 0.172491 0 200 255
0.408658 0.197128 0.200124 0 200 255
0.410069 0.256407 0.237860 0 200 255
0.430917 0.226365 0.215882 0 200 255
0.433257 0.350447 0.177599 0 200 255
0.396157 0.272228 0.214654 0 200 255
0.410330 0.185659 0.187411 0 200 255
0.481066 0.234020 0.223011 0 200 255
0.386768 0.317275 0.175353 0 200 255
0.400051 0.326590 0.188744 0 200 255
0.425190 0.298419 0.207584 0 200 255
0.397350 0.316696 0.148735 0 200 255
0.427310 0.351835 0.153564 0 200 255
0.433779 0.315998 0.206364 0 200 255
0.434349 0.308753 0.196298 0 200 255
0.444936 0.332499 0.213332 0 200 255
0.429406 0.309210 0.128747 0 200 255
0.436525 0.345957 0.187404 0 200 255
0.428342 0.221608 0.206412 0 200 255
0.403987 0.283646 0.218024 0 200 255
0.485162 0.298415 0.224696 0 200 255
0.477031 0.242316 0.239492 0 200 255
0.380588 0.307226 0.193537 0 200 255
0.426537 0.327118 0.164208 0 200 255
0.386500 0.292747 0.224545 0 200 255
0.461094 0.268252 0.234703 0 200 255
0.399370 0.330028 0.122454 0 200 255
0.407871 0.198656 0.209848 0 200 255
0.414900 0.306126 0.206054 0 200 255
0.410173 0.327305 0.158295 0 200 255
0.429881 0.307614 0.214574 0 200 255
0.450576 0.312771 0.218966 0 200 255
0.435018 0.278716 0.240931 0 200 255
0.438952 0.298620 0.221260 0 200 255
0.446176 0.273196 0.241147 0 200 255
0.458976 0.237031 0.201227 0 200 255
0.461120 0.307567 0.206031 0 200 255
0.491875 0.265450 0.230554 0 200 255
0.435383 0.326431 0.140112 0 200 255
0.428773 0.266972 0.240298 0 200 255
0.439810 0.217522 0.214453 0 200 255
0.359548 0.164902 0.186783 0 200 255
0.441301 0.323688 0.201986 0 200 255
0.450845 0.337924 0.204476 0 200 255
0.416843 0.212268 0.181469 0 200 255
0.376413 0.174448 0.182940 0 200 255
0.414929 0.278046 0.228896 0 200 255
0.402267 0.254673 0.220966 0 200 255
0.444389 0.341970 0.141067 0 200 255
0.438646 0.311662 0.238616 0 200 255
0.377938 0.310121 0.163067 0 200 255
0.429866 0.318230 0.151023 0 200 255
0.412818 0.322323 0.204177 0 200 255
0.491657 0.271747 0.218214 0 200 255
0.397276 0.181631 0.203957 0 200 255
0.434711 0.347604 0.141384 0 200 255
0.441706 0.322918 0.220308 0 200 255
0.486115 0.232197 0.195988 0 200 255
0.491409 0.279244 0.227927 0 200 255
0.487246 0.283585 0.210310 0 200 255
0.375406 0.315193 0.175400 0 200 255
0.441083 0.352973 0.153390 0 200 255
0.391782 0.313486 0.186736 0 200 255
0.467358 0.322982 0.225107 0 200 255
0.372060 0.325531 0.152690 0 200 255
0.449990 0.322056 0.216197 0 200 255
0.409951 0.184131 0.177231 0 200 255
0.426191 0.325575 0.198283 0 200 255
0.348628 0.167346 0.182481 0 200 255
0.380771 0.178312 0.167219 0 200 255
0.374022 0.164127 0.170534 0 200 255
0.412357 0.208309 0.203227 0 200 255
0.385989 0.293842 0.189325 0 200 255
0.438500 0.339909 0.197026 0 200 255
0.437427 0.329139 0.209499 0 200 255
0.436343 0.234640 0.237191 0 200 255
0.450453 0.263539 0.242879 0 200 255
0.406146 0.326149 0.148172 0 200 255
0.418646 0.199437 0.189017 0 200 255
0.430001 0.302181 0.230752 0 200 255
0.467063 0.294830 0.198878 0 200 255
0.393452 0.182313 0.183804 0 200 255
0.457663 0.264914 0.200793 0 200 255
0.371527 0.338084 0.138781 0 200 255
0.397809 0.279549 0.227507 0 200 255
0.450759 0.298192 0.205839 0 200 255
0.441049 0.351996 0.181794 0 200 255
0.441657 0.314698 0.131116 0 200 255
0.453596 0.216360 0.214839 0 200 255
0.419155 0.327256 0.147354 0 200 255
0.379346 0.329850 0.163992 0 200 255
0.455412 0.239701 0.215572 0 200 255
0.371789 0.318123 0.156709 0 200 255
0.471874 0.286564 0.239255 0 200 255
0.420393 0.304535 0.192431 0 200 255
0.431770 0.292156 0.237341 0 200 255
0.340625 0.151905 0.182705 0 200 255
0.373313 0.322540 0.168042 0 200 255
0.402381 0.320084 0.182174 0 200 255
0.438738 0.219478 0.202092 0 200 255
0.408962 0.313832 0.157168 0 200 255
0.382342 0.325520 0.139030 0 200 255
0.401831 0.319264 0.139669 0 200 255
0.421138 0.320161 0.138940 0 200 255
0.426685 0.249119 0.237489 0 200 255
0.440430 0.347844 0.128011 0 200 255
0.361664 0.164288 0.178402 0 200 255
0.432567 0.240100 0.205725 0 200 255
0.422944 0.315030 0.202138 0 200 255
0.427593 0.343554 0.169524 0 200 255
0.459371 0.315595 0.228052 0 200 255
0.488773 0.237358 0.210582 0 200 255
0.401251 0.299654 0.217147 0 200 255
0.395277 0.325526 0.169109 0 200 255
0.398688 0.333404 0.148739 0 200 255
0.484457 0.219500 0.235907 0 200 255
0.381166 0.300881 0.174525 0 200 255
0.402271 0.179650 0.193233 0 200 255
0.397675 0.263411 0.210371 0 200 255
0.410124 0.326375 0.175945 0 200 255
0.393471 0.277566 0.208181 0 200 255
0.411610 0.216329 0.196109 0 200 255
0.382491 0.313561 0.186246 0 200 255
0.448439 0.257568 0.200678 0 200 255
0.358869 0.183864 0.187555 0 200 255
0.449596 0.322509 0.202911 0 200 255
0.391500 0.203489 0.170568 0 200 255
0.451398 0.306798 0.236852 0 200 255
0.358799 0.158676 0.172073 0 200 255
0.443183 0.228013 0.235067 0 200 255
0.429925 0.329986 0.214274 0 200 255
0.347843 0.156272 0.172228 0 200 255
0.412711 0.241317 0.225172 0 200 255
0.437947 0.292496 0.205926 0 200 255
0.442114 0.351055 0.173739 0 200 255
0.484847 0.222844 0.199134 0 200 255
0.484572 0.292384 0.205662 0 200 255
0.480752 0.259773 0.238251 0 200 255
0.453129 0.219960 0.206716 0 200 255
0.479651 0.299367 0.209634 0 200 255
0.373175 0.191012 0.174332 0 200 255
0.368449 0.325691 0.131885 0 200 255
0.382368 0.193893 0.186739 0 200 255
0.439729 0.330390 0.176048 0 200 255
0.441732 0.250401 0.200493 0 200 255
0.434745 0.351047 0.193790 0 200 255
0.408145 0.253684 0.202721 0 200 255
0.405666 0.191907 0.171092 0 200 255
0.370410 0.185593 0.198748 0 200 255
0.427144 0.350567 0.183067 0 200 255
0.440359 0.221358 0.230205 0 200 255
0.422324 0.283265 0.212544 0 200 255
0.443822 0.257116 0.234363 0 200 255
0.391747 0.295007 0.183835 0 200 255
0.399346 0.208313 0.206900 0 200 255
0.396172 0.291110 0.200536 0 200 255
0.387179 0.174913 0.176399 0 200 255
0.339387 0.163751 0.170382 0 200 255
0.344703 0.169912 0.169592 0 200 255
0.392099 0.299373 0.215678 0 200 255
0.425253 0.334727 0.193509 0 200 255
0.438077 0.315207 0.182618 0 200 255
0.437628 0.317107 0.147091 0 200 255
0.414651 0.313661 0.215194 0 200 255
0.449149 0.315912 0.207699 0 200 255
0.381857 0.178880 0.187182 0 200 255
0.400201 0.320953 0.197396 0 200 255
0.420118 0.300827 0.236445 0 200 255
0.385021 0.186703 0.204673 0 200 255
0.443383 0.243483 0.236202 0 200 255
0.434641 0.247665 0.196174 0 200 255
0.423379 0.334975 0.154925 0 200 255
0.432908 0.339679 0.203652 0 200 255
0.347825 0.153662 0.186356 0 200 255
0.452334 0.317762 0.239430 0 200 255
0.424689 0.230981 0.230163 0 200 255
0.410631 0.317172 0.142597 0 200 255
0.433352 0.299639 0.207676 0 200 255
0.415246 0.203448 0.212082 0 200 255
0.398491 0.214501 0.200542 0 200 255
0.352595 0.159409 0.181577 0 200 255
0.468030 0.313957 0.230202 0 200 255
0.455458 0.290241 0.205257 0 200 255
0.434517 0.334494 0.145594 0 200 255
0.480575 0.228566 0.235574 0 200 255
0.386863 0.321357 0.159433 0 200 255
0.418944 0.326820 0.206161 0 200 255
0.420668 0.225455 0.203553 0 200 255
0.479005 0.288742 0.235833 0 200 255
0.433289 0.232182 0.209110 0 200 255
0.388194 0.295563 0.209829 0 200 255
0.381750 0.313404 0.169073 0 200 255
0.408793 0.313678 0.209506 0 200 255
0.435647 0.325813 0.157291 0 200 255
0.377136 0.185224 0.185040 0 200 255
0.423416 0.301082 0.221681 0 200 255
0.416525 0.317448 0.180429 0 200 255
0.427391 0.218995 0.214209 0 200 255
0.428367 0.343782 0.153342 0 200 255
0.409187 0.299859 0.197476 0 200 255
0.415417 0.306045 0.217723 0 200 255
0.365257 0.177628 0.175669 0 200 255
0.373526 0.164821 0.185417 0 200 255
0.410843 0.290226 0.226052 0 200 255
0.365715 0.180711 0.185140 0 200 255
0.369725 0.166994 0.196884 0 200 255
0.384214 0.187327 0.170854 0 200 255
0.429919 0.355962 0.173342 0 200 255
0.440733 0.236693 0.218323 0 200 255
0.379021 0.332682 0.149760 0 200 255
0.464134 0.212660 0.208769 0 200 255
0.444560 0.282977 0.199446 0 200 255
0.439379 0.341285 0.176980 0 200 255
0.382244 0.323292 0.167943 0 200 255
0.390617 0.327968 0.134635 0 200 255
0.399122 0.302856 0.201483 0 200 255
0.473301 0.223815 0.198890 0 200 255
0.381497 0.306155 0.210675 0 200 255
0.497255 0.264636 0.222483 0 200 255
0.395526 0.293631 0.208057 0 200 255
0.396569 0.184006 0.175506 0 200 255
0.454667 0.220993 0.222886 0 200 255
0.456154 0.210656 0.219235 0 200 255
0.436652 0.323536 0.184231 0 200 255
0.454623 0.240914 0.207384 0 200 255
0.474579 0.289581 0.198724 0 200 255
0.371823 0.332856 0.130207 0 200 255
0.399965 0.316954 0.132578 0 200 255
0.402892 0.208155 0.172474 0 200 255
0.400550 0.299549 0.192671 0 200 255
0.412448 0.195538 0.182982 0 200 255
0.344975 0.157636 0.179396 0 200 255
0.436508 0.318842 0.224874 0 200 255
0.458933 0.224151 0.234307 0 200 255
0.405795 0.332138 0.136244 0 200 255
0.475036 0.301453 0.235969 0 200 255
0.394550 0.322642 0.143181 0 200 255
0.446602 0.239651 0.209472 0 200 255
0.375103 0.172332 0.174946 0 200 255
0.425333 0.311796 0.185293 0 200 255
0.443837 0.321883 0.194935 0 200 255
0.448554 0.226663 0.205196 0 200 255
0.453194 0.228532 0.215592 0 200 255
0.420589 0.215732 0.203423 0 200 255
0.428869 0.348012 0.190185 0 200 255
0.440848 0.353153 0.165585 0 200 255
0.410675 0.286215 0.215786 0 200 255
0.379932 0.311837 0.148437 0 200 255
0.423524 0.287160 0.200040 0 200 255
0.410815 0.272828 0.203688 0 200 255
0.471499 0.308350 0.205751 0 200 255
0.397988 0.190860 0.172748 0 200 255
0.393674 0.325488 0.127296 0 200 255
0.420669 0.330317 0.173518 0 200 255
0.368677 0.319452 0.139806 0 200 255
0.428680 0.344444 0.176993 0 200 255
0.437532 0.228327 0.203199 0 200 255
0.428709 0.319826 0.138851 0 200 255
0.401460 0.317233 0.173902 0 200 255
0.419515 0.206354 0.186461 0 200 255
0.340522 0.150413 0.174390 0 200 255
0.443821 0.338165 0.218553 0 200 255
0.424371 0.331032 0.208945 0 200 255
0.400814 0.268103 0.224765 0 200 255
0.490891 0.246224 0.220228 0 200 255
0.450132 0.293743 0.199474 0 200 255
0.410085 0.325842 0.133594 0 200 255
0.430970 0.338254 0.165620 0 200 255
0.389965 0.182749 0.192531 0 200 255
0.473260 0.271929 0.239127 0 200 255
0.387659 0.307289 0.218251 0 200 255
0.355601 0.153056 0.176302 0 200 255
0.436893 0.281856 0.205375 0 200 255
0.387152 0.292108 0.196395 0 200 255
0.390383 0.278568 0.225698 0 200 255
0.495165 0.237117 0.206940 0 200 255
0.379524 0.322026 0.186351 0 200 255
0.465147 0.282471 0.240407 0 200 255
0.435158 0.262598 0.241989 0 200 255
0.417390 0.197461 0.204153 0 200 255
0.484065 0.241677 0.230438 0 200 255
0.411464 0.285651 0.239146 0 200 255
0.409914 0.298714 0.207719 0 200 255
0.475299 0.240956 0.197502 0 200 255
0.420237 0.197352 0.177268 0 200 255
0.379675 0.302938 0.181370 0 200 255
0.416946 0.327848 0.154285 0 200 255
0.422688 0.306707 0.199652 0 200 255
0.403296 0.308332 0.191229 0 200 255
0.410901 0.266118 0.199012 0 200 255
0.457167 0.282966 0.239953 0 200 255
0.390269 0.200937 0.186776 0 200 255
0.405643 0.305069 0.182939 0 200 255
0.384964 0.313130 0.203841 0 200 255
0.429718 0.327688 0.152046 0 200 255
0.370524 0.315828 0.149856 0 200 255
0.387720 0.174058 0.193224 0 200 255
0.399764 0.212256 0.186198 0 200 255
0.417311 0.204219 0.197980 0 200 255
0.419453 0.307578 0.224871 0 200 255
0.397970 0.330063 0.155111 0 200 255
0.364789 0.326262 0.151910 0 200 255
0.449157 0.220000 0.227455 0 200 255
0.437022 0.293343 0.215507 0 200 255
0.470054 0.280844 0.197643 0 200 255
0.429779 0.341180 0.145292 0 200 255
0.402695 0.271562 0.237296 0 200 255
0.467982 0.302073 0.238325 0 200 255
0.402105 0.298508 0.210091 0 200 255
0.443579 0.220704 0.207421 0 200 255
0.400396 0.287319 0.227853 0 200 255
0.422636 0.245882 0.202715 0 200 255
0.430113 0.211008 0.198848 0 200 255
0.488363 0.292142 0.226013 0 200 255
0.442323 0.302719 0.204044 0 200 255
0.450608 0.234679 0.199856 0 200 255
0.384849 0.305287 0.200760 0 200 255
0.377621 0.320275 0.153196 0 200 255
0.438244 0.328182 0.189408 0 200 255
0.421552 0.309989 0.207721 0 200 255
0.356790 0.162535 0.194347 0 200 255
0.435094 0.336165 0.210854 0 200 255
0.434448 0.323314 0.205474 0 200 255
0.470041 0.317465 0.219341 0 200 255
0.386355 0.317722 0.190878 0 200 255
0.431482 0.299083 0.224524 0 200 255
0.477858 0.242122 0.213125 0 200 255
0.381014 0.192865 0.195761 0 200 255
0.448819 0.328114 0.208366 0 200 255
0.393541 0.210350 0.193700 0 200 255
0.408409 0.319232 0.194925 0 200 255
0.399174 0.317686 0.159314 0 200 255
0.432457 0.336524 0.181435 0 200 255
0.488145 0.237447 0.200464 0 200 255
0.461479 0.300331 0.199263 0 200 255
0.467826 0.299650 0.205388 0 200 255
0.462697 0.205852 0.214928 0 200 255
0.369042 0.170555 0.170166 0 200 255
0.441513 0.308916 0.138337 0 200 255
0.433109 0.339249 0.158315 0 200 255
0.435550 0.305465 0.140080 0 200 255
0.408797 0.325379 0.164954 0 200 255
0.401789 0.178521 0.175554 0 200 255
0.405152 0.284550 0.233323 0 200 255
0.427025 0.326121 0.174900 0 200 255
0.347986 0.173846 0.186947 0 200 255
0.467868 0.231953 0.199403 0 200 255
0.443386 0.349250 0.137484 0 200 255
0.417009 0.271322 0.238413 0 200 255
0.416549 0.242408 0.203436 0 200 255
0.440886 0.337030 0.133567 0 200 255
0.441505 0.316315 0.212580 0 200 255
0.421407 0.320230 0.164588 0 200 255
0.443136 0.263679 0.242675 0 200 255
0.436672 0.230948 0.216220 0 200 255
0.379386 0.174961 0.194272 0 200 255
0.435826 0.307197 0.126332 0 200 255
0.348803 0.161894 0.191979 0 200 255
0.414204 0.212968 0.208426 0 200 255
0.381605 0.300118 0.187471 0 200 255
0.414117 0.295925 0.240788 0 200 255
0.442491 0.243548 0.201597 0 200 255
0.416786 0.327375 0.162049 0 200 255
0.418115 0.192764 0.190986 0 200 255
0.472858 0.292560 0.204792 0 200 255
0.421669 0.319092 0.207770 0 200 255
0.401997 0.289981 0.207408 0 200 255
0.455310 0.331381 0.220803 0 200 255
0.484351 0.245767 0.203588 0 200 255
0.382279 0.170010 0.189950 0 200 255
0.372911 0.328015 0.161850 0 200 255
0.405193 0.324081 0.128956 0 200 255
0.435465 0.346357 0.201689 0 200 255
0.407156 0.184584 0.193540 0 200 255
0.426490 0.334372 0.186496 0 200 255
0.421261 0.309774 0.217271 0 200 255
0.435750 0.356930 0.177688 0 200 255
0.383493 0.205516 0.201902 0 200 255
0.343772 0.166699 0.187401 0 200 255
0.360880 0.158179 0.187906 0 200 255
0.415049 0.320228 0.170204 0 200 255
0.403873 0.318956 0.148102 0 200 255
0.445438 0.290873 0.205604 0 200 255
0.477624 0.235937 0.235067 0 200 255
0.391416 0.285873 0.210707 0 200 255
0.396393 0.323620 0.183140 0 200 255
0.400136 0.273327 0.220290 0 200 255
0.396513 0.270760 0.229620 0 200 255
0.455359 0.329830 0.195650 0 200 255
0.449122 0.230657 0.237556 0 200 255
0.434327 0.217460 0.209388 0 200 255
0.441411 0.294566 0.241996 0 200 255
0.415740 0.238450 0.217284 0 200 255
0.419007 0.320552 0.157509 0 200 255
0.426065 0.208145 0.211783 0 200 255
0.479463 0.266711 0.200213 0 200 255
0.446697 0.216704 0.213687 0 200 255
0.381506 0.316916 0.180331 0 200 255
0.378356 0.185937 0.201337 0 200 255
0.474966 0.231015 0.209780 0 200 255
0.403667 0.307731 0.198213 0 200 255
0.381925 0.189786 0.181032 0 200 255
0.425745 0.201475 0.181169 0 200 255
0.424902 0.322083 0.146013 0 200 255
0.490107 0.273327 0.232732 0 200 255
0.402415 0.309324 0.163132 0 200 255
0.459559 0.215174 0.202414 0 200 255
0.475438 0.264025 0.237455 0 200 255
0.421672 0.338445 0.162383 0 200 255
0.403691 0.318599 0.214867 0 200 255
0.424028 0.285967 0.236562 0 200 255
0.425058 0.314083 0.139631 0 200 255
0.491626 0.232189 0.232618 0 200 255
0.401312 0.278370 0.208296 0 200 255
0.398802 0.302288 0.224258 0 200 255
0.431823 0.339559 0.132367 0 200 255
0.443393 0.236796 0.201409 0 200 255
0.414608 0.300855 0.191123 0 200 255
0.452022 0.310422 0.230518 0 200 255
0.437658 0.240294 0.233632 0 200 255
0.427787 0.228250 0.209898 0 200 255
0.424179 0.315693 0.220289 0 200 255
0.435804 0.324820 0.177102 0 200 255
0.448675 0.340157 0.175515 0 200 255
0.426537 0.222837 0.197175 0 200 255
0.395251 0.181587 0.168731 0 200 255
0.432280 0.318712 0.127952 0 200 255
0.372580 0.192775 0.198195 0 200 255
0.433537 0.348429 0.150232 0 200 255
0.410034 0.298448 0.216794 0 200 255
0.473057 0.228185 0.193720 0 200 255
0.383030 0.201487 0.185200 0 200 255
0.425383 0.258504 0.235013 0 200 255
0.376943 0.320116 0.145149 0 200 255
0.415307 0.332201 0.181675 0 200 255
0.488222 0.269571 0.206213 0 200 255
0.497943 0.229955 0.222870 0 200 255
0.366941 0.164567 0.164004 0 200 255
0.406431 0.217913 0.200130 0 200 255
0.431120 0.327550 0.145217 0 200 255
0.412415 0.197402 0.193804 0 200 255
0.446564 0.343978 0.197906 0 200 255
0.437260 0.329454 0.202114 0 200 255
0.455292 0.311305 0.208261 0 200 255
0.426749 0.200503 0.194469 0 200 255
0.361490 0.159500 0.164218 0 200 255
0.454100 0.246370 0.196538 0 200 255
0.366337 0.165150 0.173662 0 200 255
0.438681 0.308486 0.207481 0 200 255
0.399784 0.313234 0.194787 0 200 255
0.450964 0.302946 0.217757 0 200 255
0.403060 0.190594 0.187870 0 200 255
0.388504 0.304123 0.212308 0 200 255
0.417762 0.322643 0.186608 0 200 255
0.413761 0.280491 0.206020 0 200 255
0.469416 0.223329 0.235480 0 200 255
0.417324 0.264019 0.197968 0 200 255
0.431028 0.315029 0.227359 0 200 255
0.403089 0.308458 0.207603 0 200 255
0.371592 0.179011 0.197139 0 200 255
0.430214 0.341169 0.191048 0 200 255
0.394825 0.309066 0.210446 0 200 255
0.373853 0.171816 0.198941 0 200 255
0.419309 0.257603 0.202588 0 200 255
0.391418 0.285755 0.221768 0 200 255
0.444414 0.347297 0.185912 0 200 255
0.461927 0.307418 0.240269 0 200 255
0.353583 0.165460 0.168888 0 200 255
0.406737 0.330644 0.168521 0 200 255
0.491307 0.267460 0.199026 0 200 255
0.355315 0.174271 0.186887 0 200 255
0.393387 0.203544 0.205677 0 200 255
0.431419 0.305683 0.133999 0 200 255
0.413503 0.206096 0.176745 0 200 255
0.466866 0.224989 0.210937 0 200 255
0.405436 0.269703 0.200150 0 200 255
0.416042 0.284415 0.230373 0 200 255
0.464784 0.260009 0.241780 0 200 255
0.435887 0.304074 0.239757 0 200 255
0.395990 0.307493 0.185372 0 200 255
0.467964 0.254347 0.240110 0 200 255
0.468771 0.217303 0.201593 0 200 255
0.437082 0.343384 0.207557 0 200 255
0.458933 0.326320 0.210127 0 200 255
0.423114 0.212297 0.179403 0 200 255
0.430027 0.348462 0.136818 0 200 255
0.447254 0.297607 0.241844 0 200 255
0.355295 0.176086 0.167367 0 200 255
0.458855 0.228040 0.219507 0 200 255
0.395029 0.319994 0.153939 0 200 255
0.453881 0.295345 0.238333 0 200 255
0.347009 0.175446 0.180637 0 200 255
0.491267 0.285749 0.226799 0 200 255
0.385954 0.193727 0.202450 0 200 255
0.433926 0.310042 0.202731 0 200 255
0.410427 0.320297 0.156814 0 200 255
0.444955 0.314882 0.239165 0 200 255
0.386262 0.309975 0.195369 0 200 255
0.393470 0.206780 0.178034 0 200 255
0.383752 0.198795 0.177915 0 200 255
0.433807 0.335061 0.198649 0 200 255
0.441452 0.346467 0.152704 0 200 255
0.370640 0.185266 0.185897 0 200 255
0.438770 0.320327 0.152719 0 200 255
0.479695 0.240190 0.221121 0 200 255
0.437041 0.354365 0.140536 0 200 255
0.417541 0.334869 0.168216 0 200 255
0.354958 0.165785 0.182114 0 200 255
0.409728 0.274468 0.214597 0 200 255
0.382751 0.327128 0.158306 0 200 255
0.398975 0.335377 0.126160 0 200 255
0.440833 0.341788 0.157701 0 200 255
0.407006 0.188764 0.204109 0 200 255
0.426570 0.294872 0.223780 0 200 255
0.414338 0.203468 0.192236 0 200 255
0.391229 0.314999 0.171062 0 200 255
0.399903 0.329108 0.144010 0 200 255
0.374181 0.336416 0.146032 0 200 255
0.422884 0.329391 0.180647 0 200 255
0.418281 0.314780 0.195966 0 200 255
0.434859 0.248059 0.234222 0 200 255
0.431467 0.324001 0.216282 0 200 255
0.398566 0.186986 0.183113 0 200 255
0.429130 0.322155 0.156300 0 200 255
0.349852 0.157015 0.162687 0 200 255
0.467645 0.272834 0.234850 0 200 255
0.438358 0.337777 0.141528 0 200 255
0.432929 0.318339 0.169157 0 200 255
0.437687 0.334849 0.169082 0 200 255
0.432646 0.297357 0.241389 0 200 255
0.419806 0.231938 0.216063 0 200 255
0.398428 0.262192 0.225839 0 200 255
0.489586 0.270554 0.225536 0 200 255
0.373222 0.329709 0.147784 0 200 255
0.432142 0.304334 0.219643 0 200 255
0.430612 0.329989 0.194535 0 200 255
0.455610 0.252201 0.234296 0 200 255
0.430183 0.325289 0.135692 0 200 255
0.386017 0.295161 0.218603 0 200 255
