ply
format ascii 1.0
element vertex 1024
property float x
property float y
property float z
property uchar red
property uchar green
property uchar blue
end_header
0.477465 0.237762 0.234692 0 200 255
0.326509 0.329780 0.156596 0 200 255
0.366926 0.198061 0.161894 0 200 255
0.441096 0.359553 0.209406 0 200 255
0.382715 0.285214 0.223697 0 200 255
0.411606 0.331496 0.129873 0 200 255
0.487565 0.304419 0.210532 0 200 255
0.420493 0.233292 0.191998 0 200 255
0.434965 0.306614 0.242531 0 200 255
0.395209 0.329847 0.186612 0 200 255
0.425974 0.381588 0.156882 0 200 255
0.432843 0.281979 0.197369 0 200 255
0.346287 0.308434 0.198286 0 200 255
0.327371 0.227365 0.163271 0 200 255
0.482695 0.234971 0.186346 0 200 255
0.431915 0.252784 0.235358 0 200 255
0.395011 0.199478 0.194160 0 200 255
0.465883 0.277846 0.237837 0 200 255
0.498061 0.264537 0.213014 0 200 255
0.428115 0.321593 0.206201 0 200 255
0.397286 0.222724 0.161877 0 200 255
0.466623 0.331394 0.228390 0 200 255
0.411550 0.363657 0.186885 0 200 255
0.451199 0.249552 0.203993 0 200 255
0.465970 0.213854 0.210049 0 200 255
0.424674 0.346787 0.159109 0 200 255
0.404322 0.262124 0.209489 0 200 255
0.413257 0.280952 0.238446 0 200 255
0.467217 0.279939 0.199206 0 200 255
0.376940 0.295647 0.192096 0 200 255
0.356350 0.223479 0.179466 0 200 255
0.393025 0.338344 0.155223 0 200 255
0.350667 0.312514 0.167254 0 200 255
0.456060 0.308883 0.207085 0 200 255
0.419242 0.206480 0.175758 0 200 255
0.406710 0.310622 0.224903 0 200 255
0.438253 0.225996 0.217719 0 200 255
0.474894 0.305397 0.239481 0 200 255
0.413138 0.345776 0.209089 0 200 255
0.392525 0.227321 0.190471 0 200 255
0.349322 0.216620 0.149909 0 200 255
0.437994 0.338331 0.226745 0 200 255
0.403889 0.289694 0.206832 0 200 255
0.438168 0.366611 0.181169 0 200 255
0.424675 0.337909 0.184817 0 200 255
0.444931 0.277644 0.220986 0 200 255
0.367188 0.305682 0.215014 0 200 255
0.500514 0.238271 0.217031 0 200 255
0.393739 0.197200 0.167500 0 200 255
0.366918 0.201935 0.188944 0 200 255
0.476936 0.246856 0.208463 0 200 255
0.410990 0.355414 0.139073 0 200 255
0.491596 0.286913 0.228805 0 200 255
0.448890 0.336279 0.202773 0 200 255
0.410454 0.310298 0.191891 0 200 255
0.427533 0.257646 0.193629 0 200 255
0.419227 0.242071 0.216911 0 200 255
0.416045 0.210065 0.201979 0 200 255
0.457016 0.255822 0.231076 0 200 255
0.486588 0.261012 0.233935 0 200 255
0.448853 0.227355 0.195206 0 200 255
0.404499 0.358776 0.163795 0 200 255
0.340301 0.208086 0.170903 0 200 255
0.424036 0.292943 0.221173 0 200 255
0.378715 0.215082 0.173361 0 200 255
0.339088 0.324514 0.183257 0 200 255
0.410579 0.325839 0.169958 0 200 255
0.400676 0.326496 0.208499 0 200 255
0.448569 0.317769 0.226960 0 200 255
0.494754 0.282179 0.199643 0 200 255
0.442274 0.284852 0.241791 0 200 255
0.366330 0.313601 0.185098 0 200 255
0.416355 0.229696 0.170136 0 200 255
0.458912 0.229914 0.223831 0 200 255
0.411453 0.258360 0.230048 0 200 255
0.486877 0.259140 0.193651 0 200 255
0.406675 0.322823 0.148959 0 200 255
0.427040 0.318764 0.227058 0 200 255
0.428230 0.373145 0.198068 0 200 255
0.388227 0.302037 0.210910 0 200 255
0.437602 0.299524 0.206428 0 200 255
0.455138 0.300844 0.238988 0 200 255
0.466873 0.325831 0.206045 0 200 255
0.435590 0.364212 0.160032 0 200 255
0.471793 0.299435 0.198582 0 200 255
0.448313 0.269549 0.195091 0 200 255
0.366267 0.221568 0.159054 0 200 255
0.415393 0.300271 0.241734 0 200 255
0.405130 0.343788 0.176568 0 200 255
0.498440 0.241220 0.196307 0 200 255
0.424544 0.379926 0.176641 0 200 255
0.427026 0.353006 0.197374 0 200 255
0.346799 0.230107 0.163779 0 200 255
0.402603 0.277072 0.222688 0 200 255
0.465127 0.238635 0.193655 0 200 255
0.331160 0.315002 0.168483 0 200 255
0.412491 0.274549 0.197304 0 200 255
0.444750 0.350956 0.190139 0 200 255
0.432030 0.216442 0.194591 0 200 255
0.468421 0.257623 0.195776 0 200 255
0.476822 0.317177 0.222685 0 200 255
0.375127 0.218141 0.191826 0 200 255
0.431170 0.339374 0.209713 0 200 255
0.444418 0.266917 0.238522 0 200 255
0.423920 0.367300 0.145547 0 200 255
0.479514 0.220443 0.229179 0 200 255
0.473223 0.221984 0.195065 0 200 255
0.435700 0.240013 0.205600 0 200 255
0.451453 0.291196 0.198529 0 200 255
0.422742 0.360745 0.173122 0 200 255
0.410277 0.340411 0.148961 0 200 255
0.342846 0.328394 0.164672 0 200 255
0.397097 0.295583 0.225567 0 200 255
0.411302 0.333706 0.195788 0 200 255
0.381903 0.206910 0.157875 0 200 255
0.402027 0.209790 0.181488 0 200 255
0.407133 0.225729 0.200953 0 200 255
0.420096 0.334643 0.222728 0 200 255
0.493777 0.231194 0.232620 0 200 255
0.417679 0.303378 0.208365 0 200 255
0.396870 0.338170 0.136993 0 200 255
0.355701 0.201000 0.175458 0 200 255
0.463524 0.318604 0.241219 0 200 255
0.380788 0.195538 0.180495 0 200 255
0.447840 0.241421 0.234671 0 200 255
0.451029 0.345400 0.217605 0 200 255
0.429646 0.220410 0.176064 0 200 255
0.360091 0.299272 0.192807 0 200 255
0.424166 0.269057 0.233382 0 200 255
0.406453 0.208588 0.162219 0 200 255
0.337709 0.223702 0.176520 0 200 255
0.415889 0.248317 0.201786 0 200 255
0.361607 0.314220 0.201790 0 200 255
0.488804 0.249133 0.221715 0 200 255
0.342583 0.308185 0.181094 0 200 255
0.405549 0.349830 0.193269 0 200 255
0.372483 0.291894 0.207314 0 200 255
0.333236 0.215422 0.153898 0 200 255
0.424757 0.227071 0.206368 0 200 255
0.394569 0.331549 0.170507 0 200 255
0.442828 0.303213 0.221303 0 200 255
0.419416 0.321718 0.184758 0 200 255
0.431737 0.238147 0.228504 0 200 255
0.416019 0.218397 0.186064 0 200 255
0.440835 0.325653 0.214964 0 200 255
0.380875 0.301202 0.225008 0 200 255
0.450939 0.232946 0.209948 0 200 255
0.354172 0.214466 0.166579 0 200 255
0.472808 0.234068 0.216878 0 200 255
0.418908 0.289372 0.198858 0 200 255
0.415925 0.372867 0.165416 0 200 255
0.403325 0.229794 0.179029 0 200 255
0.477265 0.290238 0.236212 0 200 255
0.483731 0.303613 0.226430 0 200 255
0.389381 0.284264 0.208866 0 200 255
0.435122 0.333112 0.196017 0 200 255
0.336281 0.317200 0.153987 0 200 255
0.426515 0.288337 0.241534 0 200 255
0.376922 0.308214 0.202329 0 200 255
0.396664 0.214598 0.198561 0 200 255
0.352518 0.320539 0.189546 0 200 255
0.424682 0.350198 0.143607 0 200 255
0.471311 0.251706 0.235943 0 200 255
0.415288 0.321390 0.216808 0 200 255
0.399877 0.288667 0.238890 0 200 255
0.445786 0.320000 0.241752 0 200 255
0.496664 0.271749 0.226268 0 200 255
0.462603 0.239472 0.235551 0 200 255
0.418005 0.360101 0.157967 0 200 255
0.481558 0.274663 0.231727 0 200 255
0.458001 0.332579 0.216441 0 200 255
0.381324 0.204663 0.193845 0 200 255
0.434870 0.350314 0.218824 0 200 255
0.412810 0.203154 0.188642 0 200 255
0.452532 0.334089 0.230689 0 200 255
0.406449 0.312479 0.205652 0 200 255
0.426938 0.362431 0.208417 0 200 255
0.428895 0.304139 0.228944 0 200 255
0.438762 0.245879 0.192797 0 200 255
0.350825 0.211032 0.184576 0 200 255
0.480996 0.280127 0.195104 0 200 255
0.409320 0.340285 0.163305 0 200 255
0.491821 0.253019 0.207178 0 200 255
0.410500 0.290419 0.225167 0 200 255
0.358777 0.205873 0.153057 0 200 255
0.389458 0.225942 0.173301 0 200 255
0.402926 0.319700 0.180417 0 200 255
0.356592 0.305859 0.178379 0 200 255
0.487145 0.276119 0.209803 0 200 255
0.431498 0.311162 0.216102 0 200 255
0.461444 0.242630 0.210602 0 200 255
0.421094 0.352143 0.184707 0 200 255
0.369333 0.203816 0.175241 0 200 255
0.383670 0.220433 0.160246 0 200 255
0.356893 0.302111 0.206481 0 200 255
0.433421 0.230233 0.195566 0 200 255
0.467901 0.263983 0.230715 0 200 255
0.439955 0.362695 0.195045 0 200 255
0.389716 0.205787 0.177417 0 200 255
0.409094 0.276321 0.210830 0 200 255
0.483750 0.293118 0.198398 0 200 255
0.493908 0.289424 0.215740 0 200 255
0.417598 0.330986 0.207608 0 200 255
0.328989 0.214613 0.167544 0 200 255
0.405594 0.352806 0.151418 0 200 255
0.466389 0.218786 0.224594 0 200 255
0.480559 0.247495 0.195543 0 200 255
0.352191 0.322892 0.176381 0 200 255
0.433001 0.375446 0.166664 0 200 255
0.463454 0.228503 0.209236 0 200 255
0.457096 0.287674 0.239571 0 200 255
0.415142 0.350787 0.169022 0 200 255
0.448451 0.350248 0.203725 0 200 255
0.421153 0.247580 0.228643 0 200 255
0.366014 0.217479 0.171610 0 200 255
0.401697 0.275607 0.235677 0 200 255
0.476466 0.317049 0.205216 0 200 255
0.420039 0.374724 0.187700 0 200 255
0.410861 0.251964 0.215610 0 200 255
0.443131 0.311210 0.205640 0 200 255
0.459251 0.266962 0.239907 0 200 255
0.401999 0.319505 0.195792 0 200 255
0.400899 0.326936 0.160277 0 200 255
0.414204 0.356465 0.200122 0 200 255
0.444582 0.244469 0.213773 0 200 255
0.414804 0.330042 0.155807 0 200 255
0.332180 0.327604 0.171710 0 200 255
0.404818 0.357155 0.178152 0 200 255
0.456097 0.256128 0.192674 0 200 255
0.438156 0.223112 0.205286 0 200 255
0.455412 0.321502 0.209541 0 200 255
0.347278 0.206295 0.158444 0 200 255
0.372534 0.292657 0.220691 0 200 255
0.402209 0.325873 0.136230 0 200 255
0.408621 0.342690 0.135759 0 200 255
0.398918 0.335283 0.197815 0 200 255
0.414894 0.217703 0.166447 0 200 255
0.398835 0.197614 0.182183 0 200 255
0.415166 0.330790 0.141930 0 200 255
0.378809 0.199180 0.167235 0 200 255
0.423563 0.267564 0.200140 0 200 255
0.402237 0.264568 0.222608 0 200 255
0.423952 0.208986 0.188245 0 200 255
0.442414 0.231452 0.228089 0 200 255
0.432487 0.276249 0.239157 0 200 255
0.437686 0.325075 0.228117 0 200 255
0.415027 0.289910 0.212304 0 200 255
0.433941 0.373320 0.149629 0 200 255
0.416597 0.373768 0.153094 0 200 255
0.405069 0.205423 0.198143 0 200 255
0.401549 0.279366 0.200367 0 200 255
0.411758 0.334674 0.181455 0 200 255
0.363330 0.214689 0.184447 0 200 255
0.437531 0.264651 0.198112 0 200 255
0.418533 0.323934 0.196936 0 200 255
0.477040 0.266158 0.196714 0 200 255
0.433681 0.352324 0.185293 0 200 255
0.369969 0.209992 0.155362 0 200 255
0.443837 0.254817 0.237654 0 200 255
0.460229 0.266495 0.197457 0 200 255
0.397999 0.343345 0.166418 0 200 255
0.339264 0.225836 0.155099 0 200 255
0.429024 0.233633 0.216573 0 200 255
0.408786 0.230782 0.189674 0 200 255
0.413995 0.275110 0.227995 0 200 255
0.402311 0.317204 0.215892 0 200 255
0.386218 0.299057 0.198875 0 200 255
0.413750 0.301050 0.220795 0 200 255
0.466154 0.296260 0.239088 0 200 255
0.461425 0.218982 0.200304 0 200 255
0.397634 0.341816 0.185591 0 200 255
0.438464 0.311136 0.229747 0 200 255
0.481951 0.248470 0.231381 0 200 255
0.392137 0.212034 0.162001 0 200 255
0.408183 0.202658 0.173953 0 200 255
0.375872 0.309143 0.190574 0 200 255
0.343583 0.217363 0.162212 0 200 255
0.355420 0.225739 0.157089 0 200 255
0.394306 0.284898 0.219519 0 200 255
0.419785 0.313066 0.202060 0 200 255
0.442792 0.281898 0.203544 0 200 255
0.422787 0.361974 0.190825 0 200 255
0.465845 0.309252 0.200583 0 200 255
0.382841 0.224161 0.184821 0 200 255
0.450476 0.276788 0.239518 0 200 255
0.397560 0.331560 0.146498 0 200 255
0.460089 0.322109 0.230669 0 200 255
0.378267 0.208061 0.182546 0 200 255
0.431751 0.350828 0.207688 0 200 255
0.417630 0.370342 0.177020 0 200 255
0.496982 0.277627 0.215600 0 200 255
0.431907 0.330963 0.219936 0 200 255
0.413674 0.268157 0.238024 0 200 255
0.337583 0.329123 0.153647 0 200 255
0.422688 0.343829 0.216034 0 200 255
0.456020 0.238319 0.201190 0 200 255
0.461112 0.292646 0.204418 0 200 255
0.416459 0.258673 0.196003 0 200 255
0.425588 0.215313 0.205240 0 200 255
0.454071 0.312325 0.240529 0 200 255
0.431231 0.375342 0.185863 0 200 255
0.424460 0.379000 0.145940 0 200 255
0.470248 0.327776 0.218288 0 200 255
0.382357 0.292351 0.212792 0 200 255
0.341032 0.314532 0.190313 0 200 255
0.341448 0.317835 0.174493 0 200 255
0.444670 0.336232 0.215095 0 200 255
0.451880 0.310317 0.219257 0 200 255
0.398243 0.297433 0.212948 0 200 255
0.445329 0.295452 0.238910 0 200 255
0.425765 0.231573 0.175896 0 200 255
0.436878 0.343043 0.191168 0 200 255
0.473936 0.237141 0.203854 0 200 255
0.406282 0.327213 0.219721 0 200 255
0.345927 0.318965 0.159204 0 200 255
0.452752 0.279496 0.196821 0 200 255
0.497870 0.272893 0.205680 0 200 255
0.472248 0.229811 0.229122 0 200 255
0.415695 0.230041 0.181127 0 200 255
0.369248 0.301471 0.186330 0 200 255
0.406095 0.227745 0.166075 0 200 255
0.401705 0.335612 0.127494 0 200 255
0.429207 0.369406 0.174979 0 200 255
0.362614 0.207594 0.165100 0 200 255
0.378847 0.305691 0.214962 0 200 255
0.415173 0.360940 0.147529 0 200 255
0.417056 0.220831 0.201540 0 200 255
0.418680 0.343648 0.177903 0 200 255
0.428393 0.298736 0.200922 0 200 255
0.398948 0.207749 0.169859 0 200 255
0.387201 0.219414 0.196950 0 200 255
0.347859 0.220717 0.172580 0 200 255
0.495144 0.260814 0.222624 0 200 255
0.350771 0.303769 0.187106 0 200 255
0.457887 0.222173 0.216542 0 200 255
0.479227 0.305861 0.202767 0 200 255
0.421743 0.311366 0.220433 0 200 255
0.417655 0.299798 0.231323 0 200 255
0.433096 0.297257 0.237831 0 200 255
0.399980 0.342416 0.146236 0 200 255
0.440107 0.246141 0.229113 0 200 255
0.407011 0.263179 0.199276 0 200 255
0.409988 0.291058 0.236726 0 200 255
0.443010 0.347599 0.225602 0 200 255
0.473194 0.315228 0.235912 0 200 255
0.435259 0.366973 0.203506 0 200 255
0.394131 0.284264 0.231179 0 200 255
0.325281 0.319974 0.160348 0 200 255
0.487785 0.272066 0.194782 0 200 255
0.423284 0.345258 0.204806 0 200 255
0.438373 0.328963 0.205293 0 200 255
0.413884 0.362276 0.167676 0 200 255
0.475899 0.261936 0.237213 0 200 255
0.340854 0.212875 0.180232 0 200 255
0.363962 0.296281 0.211607 0 200 255
0.441994 0.236543 0.196243 0 200 255
0.432243 0.359335 0.169007 0 200 255
0.425200 0.224215 0.189868 0 200 255
0.425756 0.329356 0.191727 0 200 255
0.412637 0.344009 0.198833 0 200 255
0.488414 0.242813 0.190563 0 200 255
0.359474 0.309649 0.192488 0 200 255
0.451100 0.302896 0.200179 0 200 255
0.424854 0.237328 0.204935 0 200 255
0.425641 0.321649 0.216852 0 200 255
0.419077 0.217099 0.175885 0 200 255
0.494348 0.242869 0.227745 0 200 255
0.410555 0.308589 0.214268 0 200 255
0.428281 0.361493 0.153329 0 200 255
0.339878 0.311889 0.164070 0 200 255
0.410556 0.348169 0.184502 0 200 255
0.401046 0.345098 0.156342 0 200 255
0.415811 0.231038 0.201365 0 200 255
0.382921 0.289464 0.199626 0 200 255
0.423404 0.379716 0.166538 0 200 255
0.479089 0.241818 0.218756 0 200 255
0.357299 0.211434 0.175731 0 200 255
0.420102 0.342678 0.149591 0 200 255
0.431361 0.254364 0.202375 0 200 255
0.366231 0.295574 0.200316 0 200 255
0.407154 0.215693 0.200007 0 200 255
0.394688 0.340145 0.175766 0 200 255
0.454937 0.340837 0.209377 0 200 255
0.407722 0.333381 0.205148 0 200 255
0.498813 0.247527 0.213615 0 200 255
0.352255 0.311217 0.205823 0 200 255
0.387907 0.197809 0.187346 0 200 255
0.444496 0.309380 0.241558 0 200 255
0.447053 0.256329 0.197978 0 200 255
0.365004 0.196023 0.179690 0 200 255
0.398560 0.281235 0.211222 0 200 255
0.390292 0.201632 0.158725 0 200 255
0.432532 0.262634 0.236607 0 200 255
0.333744 0.314343 0.179700 0 200 255
0.444565 0.353756 0.216670 0 200 255
0.404502 0.335044 0.188205 0 200 255
0.448257 0.224885 0.204838 0 200 255
0.400404 0.323548 0.170534 0 200 255
0.360395 0.226391 0.170912 0 200 255
0.407777 0.335060 0.172205 0 200 255
0.453954 0.266220 0.231584 0 200 255
0.399235 0.270599 0.209092 0 200 255
0.336404 0.230512 0.165742 0 200 255
0.349927 0.317632 0.198602 0 200 255
0.433486 0.343823 0.201002 0 200 255
0.481805 0.313486 0.215048 0 200 255
0.411623 0.280034 0.219839 0 200 255
0.483873 0.297115 0.233979 0 200 255
0.483112 0.229802 0.235300 0 200 255
0.354944 0.201555 0.164845 0 200 255
0.427656 0.346049 0.190083 0 200 255
0.403088 0.335562 0.156036 0 200 255
0.489962 0.297614 0.219254 0 200 255
0.430402 0.311435 0.235420 0 200 255
0.437759 0.367403 0.170860 0 200 255
0.485680 0.244366 0.211786 0 200 255
0.421486 0.366298 0.199386 0 200 255
0.403486 0.329347 0.180051 0 200 255
0.472835 0.290019 0.200501 0 200 255
0.459053 0.248219 0.237562 0 200 255
0.457010 0.232915 0.193281 0 200 255
0.427737 0.242945 0.212202 0 200 255
0.436473 0.231418 0.209864 0 200 255
0.420783 0.255928 0.233412 0 200 255
0.416369 0.347438 0.138956 0 200 255
0.358801 0.204319 0.184368 0 200 255
0.406871 0.293211 0.216188 0 200 255
0.437273 0.298462 0.227537 0 200 255
0.341907 0.327701 0.174649 0 200 255
0.420590 0.249008 0.210122 0 200 255
0.407574 0.349907 0.161863 0 200 255
0.445240 0.328185 0.223117 0 200 255
0.333359 0.332302 0.163459 0 200 255
0.423403 0.354879 0.164027 0 200 255
0.445693 0.241744 0.203993 0 200 255
0.445077 0.341694 0.195873 0 200 255
0.390359 0.195516 0.176262 0 200 255
0.420212 0.315151 0.211590 0 200 255
0.351216 0.322321 0.166344 0 200 255
0.412481 0.320580 0.178388 0 200 255
0.357354 0.315570 0.182750 0 200 255
0.448257 0.224530 0.214311 0 200 255
0.425059 0.280972 0.235649 0 200 255
0.360098 0.215203 0.154027 0 200 255
0.337530 0.210221 0.160536 0 200 255
0.438179 0.290197 0.204991 0 200 255
0.467545 0.271693 0.194500 0 200 255
0.475814 0.233898 0.192725 0 200 255
0.462750 0.306345 0.239863 0 200 255
0.368798 0.312641 0.195892 0 200 255
0.436811 0.340946 0.217324 0 200 255
0.397701 0.223925 0.197655 0 200 255
0.411993 0.211309 0.181334 0 200 255
0.451411 0.231637 0.230885 0 200 255
0.424803 0.300446 0.241940 0 200 255
0.461672 0.257846 0.238993 0 200 255
0.452209 0.319933 0.218564 0 200 255
0.409772 0.324324 0.209369 0 200 255
0.431902 0.240227 0.195827 0 200 255
0.376140 0.209742 0.166097 0 200 255
0.388863 0.210561 0.194351 0 200 255
0.441207 0.358839 0.185424 0 200 255
0.494099 0.289975 0.204716 0 200 255
0.415774 0.319021 0.225800 0 200 255
0.414296 0.345160 0.156434 0 200 255
0.480291 0.313032 0.230235 0 200 255
0.411417 0.283626 0.205603 0 200 255
0.375315 0.220322 0.166503 0 200 255
0.413109 0.354671 0.190606 0 200 255
0.415074 0.360946 0.178748 0 200 255
0.404648 0.217601 0.164195 0 200 255
0.402366 0.288127 0.228876 0 200 255
0.393963 0.223204 0.180874 0 200 255
0.371836 0.214984 0.180889 0 200 255
0.469203 0.321337 0.229486 0 200 255
0.424939 0.334136 0.214795 0 200 255
0.407087 0.210461 0.190690 0 200 255
0.403683 0.357037 0.187841 0 200 255
0.461219 0.246496 0.196412 0 200 255
0.472124 0.249515 0.192491 0 200 255
0.403352 0.267634 0.231193 0 200 255
0.412572 0.307586 0.200557 0 200 255
0.442711 0.317612 0.218977 0 200 255
0.388308 0.293106 0.226425 0 200 255
0.475040 0.277911 0.237405 0 200 255
0.329484 0.224292 0.154900 0 200 255
0.436612 0.257004 0.192556 0 200 255
0.425702 0.359585 0.182069 0 200 255
0.488657 0.267855 0.206197 0 200 255
0.420169 0.357342 0.140138 0 200 255
0.429845 0.305756 0.206564 0 200 255
0.416262 0.336912 0.214416 0 200 255
0.445276 0.261519 0.231229 0 200 255
0.417292 0.333297 0.188545 0 200 255
0.388738 0.300603 0.220480 0 200 255
0.410029 0.210837 0.170451 0 200 255
0.349323 0.207260 0.171420 0 200 255
0.333710 0.219860 0.161912 0 200 255
0.453508 0.338160 0.222379 0 200 255
0.353646 0.303289 0.198177 0 200 255
0.493079 0.254552 0.216010 0 200 255
0.431790 0.357705 0.214237 0 200 255
0.422600 0.352086 0.175194 0 200 255
0.373035 0.200081 0.155749 0 200 255
0.424869 0.353291 0.152852 0 200 255
0.370073 0.310388 0.207561 0 200 255
0.402567 0.201150 0.189806 0 200 255
0.427935 0.275229 0.201121 0 200 255
0.380454 0.205911 0.172830 0 200 255
0.465937 0.286492 0.239760 0 200 255
0.402415 0.200706 0.165761 0 200 255
0.465507 0.327753 0.236377 0 200 255
0.365893 0.196700 0.170919 0 200 255
0.391287 0.294211 0.208216 0 200 255
0.389656 0.205144 0.168618 0 200 255
0.452757 0.259585 0.237824 0 200 255
0.491278 0.278224 0.223643 0 200 255
0.465109 0.241266 0.202698 0 200 255
0.435857 0.273848 0.195814 0 200 255
0.452894 0.244096 0.194873 0 200 255
0.429307 0.361724 0.199705 0 200 255
0.397608 0.228302 0.171031 0 200 255
0.361346 0.310384 0.210444 0 200 255
0.408025 0.281539 0.230144 0 200 255
0.397997 0.205753 0.159466 0 200 255
0.409944 0.348683 0.144782 0 200 255
0.408718 0.359877 0.156197 0 200 255
0.426361 0.212305 0.175079 0 200 255
0.374849 0.298046 0.213507 0 200 255
0.440923 0.318683 0.209699 0 200 255
0.416568 0.328284 0.177904 0 200 255
0.410809 0.256224 0.207995 0 200 255
0.397242 0.326763 0.196972 0 200 255
0.431574 0.295514 0.217618 0 200 255
0.433210 0.359401 0.190619 0 200 255
0.328848 0.221687 0.172616 0 200 255
0.347956 0.219439 0.181188 0 200 255
0.374392 0.218185 0.158139 0 200 255
0.427778 0.367381 0.185977 0 200 255
0.417486 0.289863 0.230248 0 200 255
0.350977 0.311989 0.176017 0 200 255
0.423642 0.290575 0.212352 0 200 255
0.419251 0.322044 0.206471 0 200 255
0.437273 0.247664 0.201117 0 200 255
0.427706 0.364316 0.163561 0 200 255
0.415031 0.294553 0.204579 0 200 255
0.371652 0.301324 0.220966 0 200 255
0.434653 0.373654 0.158186 0 200 255
0.470793 0.270475 0.236781 0 200 255
0.474721 0.275133 0.198169 0 200 255
0.487501 0.241047 0.232564 0 200 255
0.455539 0.325399 0.237124 0 200 255
0.424078 0.240915 0.223860 0 200 255
0.449133 0.233142 0.201495 0 200 255
0.489580 0.254240 0.228528 0 200 255
0.342914 0.211895 0.153011 0 200 255
0.493591 0.282275 0.208382 0 200 255
0.429214 0.339367 0.220883 0 200 255
0.414865 0.212690 0.193946 0 200 255
0.382277 0.305686 0.195226 0 200 255
0.408146 0.313952 0.183935 0 200 255
0.495559 0.234427 0.222801 0 200 255
0.405241 0.327036 0.199867 0 200 255
0.437839 0.337517 0.204697 0 200 255
0.412900 0.332564 0.165322 0 200 255
0.434909 0.290096 0.241967 0 200 255
0.405851 0.353104 0.170799 0 200 255
0.410510 0.325199 0.137544 0 200 255
0.402564 0.284900 0.217841 0 200 255
0.421356 0.273808 0.239749 0 200 255
0.461831 0.316276 0.207968 0 200 255
0.329664 0.324307 0.151023 0 200 255
0.419741 0.343276 0.164963 0 200 255
0.486362 0.283097 0.234169 0 200 255
0.360591 0.302046 0.184886 0 200 255
0.440385 0.230782 0.202451 0 200 255
0.420183 0.326168 0.221663 0 200 255
0.346633 0.205338 0.179115 0 200 255
0.482629 0.304661 0.218195 0 200 255
0.460460 0.272396 0.233661 0 200 255
0.431821 0.327237 0.211132 0 200 255
0.422799 0.374055 0.158682 0 200 255
0.435465 0.369542 0.193410 0 200 255
0.411002 0.341587 0.191023 0 200 255
0.399907 0.323111 0.187982 0 200 255
0.459410 0.317280 0.223924 0 200 255
0.380767 0.293821 0.221003 0 200 255
0.491136 0.235562 0.193606 0 200 255
0.458298 0.329507 0.226831 0 200 255
0.447263 0.308074 0.212719 0 200 255
0.487374 0.226305 0.229085 0 200 255
0.427715 0.288382 0.198679 0 200 255
0.416876 0.339396 0.205303 0 200 255
0.454026 0.242448 0.214315 0 200 255
0.381653 0.223183 0.173159 0 200 255
0.453416 0.296695 0.205146 0 200 255
0.366026 0.303230 0.206629 0 200 255
0.405155 0.272023 0.201573 0 200 255
0.422800 0.222460 0.170809 0 200 255
0.342086 0.229217 0.171605 0 200 255
0.400592 0.229234 0.186809 0 200 255
0.409737 0.331160 0.149385 0 200 255
0.445386 0.248078 0.197194 0 200 255
0.341564 0.219311 0.149479 0 200 255
0.488363 0.297795 0.205741 0 200 255
0.490585 0.296964 0.227398 0 200 255
0.456415 0.224495 0.208005 0 200 255
0.388602 0.225325 0.165178 0 200 255
0.417311 0.279070 0.202140 0 200 255
0.395811 0.333666 0.162700 0 200 255
0.441844 0.304464 0.201193 0 200 255
0.450717 0.344908 0.226129 0 200 255
0.416110 0.315427 0.188994 0 200 255
0.395871 0.207369 0.191659 0 200 255
0.429730 0.326700 0.227345 0 200 255
0.352494 0.228335 0.171012 0 200 255
0.347882 0.319762 0.182514 0 200 255
0.450274 0.314941 0.204665 0 200 255
0.451966 0.344077 0.199418 0 200 255
0.344107 0.306772 0.190662 0 200 255
0.344363 0.309952 0.171648 0 200 255
0.328249 0.326155 0.164788 0 200 255
0.347101 0.224496 0.156543 0 200 255
0.430630 0.221554 0.207769 0 200 255
0.465725 0.292375 0.197515 0 200 255
0.350978 0.311760 0.186095 0 200 255
0.440258 0.226046 0.194986 0 200 255
0.414872 0.225539 0.189805 0 200 255
0.428961 0.373069 0.142929 0 200 255
0.417815 0.368072 0.192469 0 200 255
0.447496 0.327328 0.210815 0 200 255
0.455799 0.228847 0.200269 0 200 255
0.369454 0.212966 0.189335 0 200 255
0.429171 0.324579 0.198842 0 200 255
0.410026 0.344452 0.170101 0 200 255
0.432564 0.315683 0.209588 0 200 255
0.497443 0.246865 0.201882 0 200 255
0.479561 0.241917 0.188765 0 200 255
0.368248 0.295814 0.191873 0 200 255
0.419667 0.366899 0.183926 0 200 255
0.430706 0.265609 0.194103 0 200 255
0.444232 0.356579 0.197831 0 200 255
0.412163 0.329611 0.214915 0 200 255
0.492332 0.260953 0.199146 0 200 255
0.333283 0.213789 0.174183 0 200 255
0.423835 0.216512 0.191268 0 200 255
0.452002 0.226804 0.220940 0 200 255
0.412529 0.253599 0.223797 0 200 255
0.383648 0.304890 0.205101 0 200 255
0.398201 0.335180 0.180911 0 200 255
0.459282 0.274254 0.198671 0 200 255
0.400091 0.325764 0.152195 0 200 255
0.400046 0.270735 0.216945 0 200 255
0.334099 0.321905 0.177489 0 200 255
0.386175 0.211616 0.171457 0 200 255
0.417338 0.208722 0.168415 0 200 255
0.473505 0.282720 0.195411 0 200 255
0.482810 0.305786 0.233918 0 200 255
0.386129 0.195664 0.166418 0 200 255
0.351177 0.218126 0.160329 0 200 255
0.353907 0.210227 0.159997 0 200 255
0.448492 0.302605 0.242742 0 200 255
0.447787 0.324881 0.230147 0 200 255
0.491732 0.266337 0.229014 0 200 255
0.475260 0.224768 0.188049 0 200 255
0.444896 0.315515 0.235440 0 200 255
0.377972 0.210791 0.189824 0 200 255
0.397145 0.206893 0.199501 0 200 255
0.400905 0.199962 0.173507 0 200 255
0.482425 0.267416 0.235379 0 200 255
0.393181 0.293885 0.217627 0 200 255
0.424052 0.245013 0.204362 0 200 255
0.464140 0.300580 0.198906 0 200 255
0.426760 0.346308 0.182402 0 200 255
0.326032 0.219813 0.160969 0 200 255
0.402007 0.229554 0.194564 0 200 255
0.359523 0.317703 0.191164 0 200 255
0.419659 0.354580 0.194981 0 200 255
0.483288 0.235270 0.229651 0 200 255
0.446401 0.249680 0.231829 0 200 255
0.412572 0.308773 0.229565 0 200 255
0.369426 0.210158 0.169856 0 200 255
0.365685 0.202216 0.154891 0 200 255
0.384194 0.224878 0.192433 0 200 255
0.412336 0.317253 0.211029 0 200 255
0.488552 0.253261 0.200223 0 200 255
0.421791 0.367116 0.168931 0 200 255
0.425508 0.212618 0.198044 0 200 255
0.364877 0.208637 0.179226 0 200 255
0.419670 0.351758 0.202919 0 200 255
0.434433 0.306629 0.221550 0 200 255
0.453099 0.294077 0.241963 0 200 255
0.467467 0.225069 0.191061 0 200 255
0.467560 0.234945 0.211377 0 200 255
0.419203 0.367559 0.156732 0 200 255
0.464276 0.230452 0.201889 0 200 255
0.439888 0.348510 0.213346 0 200 255
0.413064 0.336665 0.137289 0 200 255
0.431236 0.230042 0.202884 0 200 255
0.452242 0.309214 0.226795 0 200 255
0.354398 0.311210 0.197947 0 200 255
0.478563 0.255203 0.234860 0 200 255
0.412549 0.204979 0.196795 0 200 255
0.408184 0.350450 0.200376 0 200 255
0.432870 0.245812 0.231403 0 200 255
0.377046 0.221411 0.180749 0 200 255
0.409434 0.362207 0.173825 0 200 255
0.419269 0.376367 0.171941 0 200 255
0.416673 0.224484 0.176061 0 200 255
0.462359 0.327963 0.220587 0 200 255
0.413432 0.202906 0.181094 0 200 255
0.444278 0.333554 0.228370 0 200 255
0.431827 0.366278 0.147814 0 200 255
0.482015 0.310298 0.223352 0 200 255
0.421246 0.305705 0.237846 0 200 255
0.344529 0.316972 0.167160 0 200 255
0.472465 0.243356 0.235551 0 200 255
0.407359 0.340544 0.183244 0 200 255
0.384339 0.203481 0.183872 0 200 255
0.465379 0.303981 0.205959 0 200 255
0.494219 0.244110 0.208706 0 200 255
0.416174 0.293921 0.221644 0 200 255
0.455542 0.314308 0.212295 0 200 255
0.400774 0.320825 0.203112 0 200 255
0.439764 0.275391 0.240904 0 200 255
0.360986 0.226128 0.162148 0 200 255
0.363830 0.213631 0.160768 0 200 255
0.396835 0.327866 0.176861 0 200 255
0.336795 0.311823 0.173306 0 200 255
0.431307 0.376670 0.176655 0 200 255
0.428029 0.368749 0.204447 0 200 255
0.350985 0.208703 0.152390 0 200 255
0.480606 0.255232 0.194913 0 200 255
0.405163 0.338363 0.195060 0 200 255
0.446740 0.237364 0.214640 0 200 255
0.409293 0.231010 0.172145 0 200 255
0.487322 0.286649 0.199395 0 200 255
0.338053 0.215301 0.166745 0 200 255
0.340296 0.324526 0.158828 0 200 255
0.446522 0.299344 0.206033 0 200 255
0.431333 0.338758 0.188677 0 200 255
0.418042 0.262719 0.235445 0 200 255
0.382119 0.199967 0.160497 0 200 255
0.457134 0.314997 0.201826 0 200 255
0.414520 0.287024 0.219124 0 200 255
0.407292 0.325008 0.156008 0 200 255
0.439806 0.333207 0.221718 0 200 255
0.438137 0.300657 0.216181 0 200 255
0.397452 0.331100 0.139102 0 200 255
0.420796 0.313507 0.227446 0 200 255
0.467403 0.311922 0.241237 0 200 255
0.369396 0.202421 0.167822 0 200 255
0.425135 0.356721 0.203466 0 200 255
0.404410 0.328225 0.129589 0 200 255
0.455167 0.240816 0.234045 0 200 255
0.408203 0.338869 0.128754 0 200 255
0.438969 0.295683 0.200131 0 200 255
0.419884 0.211392 0.181216 0 200 255
0.379812 0.289073 0.206702 0 200 255
0.438815 0.313814 0.243082 0 200 255
0.435108 0.333432 0.213362 0 200 255
0.451632 0.331219 0.220823 0 200 255
0.395445 0.336375 0.190016 0 200 255
0.445085 0.340974 0.220691 0 200 255
0.437180 0.267476 0.239592 0 200 255
0.478722 0.285717 0.199608 0 200 255
0.406481 0.342133 0.142851 0 200 255
0.431291 0.319011 0.220714 0 200 255
0.405501 0.330842 0.212109 0 200 255
0.418503 0.293638 0.241551 0 200 255
0.401744 0.332016 0.169119 0 200 255
0.469608 0.316615 0.207699 0 200 255
0.406909 0.331447 0.161305 0 200 255
0.426273 0.233390 0.198721 0 200 255
0.394296 0.338148 0.147844 0 200 255
0.415073 0.247398 0.220945 0 200 255
0.392476 0.338655 0.167129 0 200 255
0.424984 0.369885 0.192431 0 200 255
0.405910 0.327032 0.142870 0 200 255
0.404012 0.351349 0.183329 0 200 255
0.438053 0.240455 0.212461 0 200 255
0.412360 0.336652 0.157804 0 200 255
0.452878 0.316555 0.232672 0 200 255
0.414418 0.354579 0.162879 0 200 255
0.457622 0.276070 0.240528 0 200 255
0.377166 0.288709 0.216311 0 200 255
0.332415 0.315868 0.159970 0 200 255
0.422408 0.248571 0.217124 0 200 255
0.414719 0.353902 0.180315 0 200 255
0.437139 0.253747 0.230464 0 200 255
0.397715 0.278682 0.227751 0 200 255
0.421557 0.357585 0.147792 0 200 255
0.422001 0.214108 0.169533 0 200 255
0.419368 0.329364 0.214968 0 200 255
0.403449 0.282573 0.237472 0 200 255
0.397086 0.287344 0.206756 0 200 255
0.358265 0.218424 0.161543 0 200 255
0.490364 0.247654 0.195511 0 200 255
0.388187 0.201674 0.193598 0 200 255
0.395560 0.207096 0.183073 0 200 255
0.473890 0.301730 0.205218 0 200 255
0.418183 0.206420 0.192585 0 200 255
0.405771 0.314070 0.198686 0 200 255
0.373678 0.205071 0.190411 0 200 255
0.423562 0.224240 0.196855 0 200 255
0.396116 0.330808 0.155393 0 200 255
0.416176 0.348084 0.188944 0 200 255
0.419585 0.373760 0.145691 0 200 255
0.355823 0.218291 0.172403 0 200 255
0.360851 0.201794 0.160153 0 200 255
0.441335 0.302543 0.242808 0 200 255
0.395589 0.277865 0.219352 0 200 255
0.362466 0.218328 0.178357 0 200 255
0.342686 0.223031 0.166442 0 200 255
0.448615 0.249935 0.211622 0 200 255
0.349633 0.305253 0.179771 0 200 255
0.404089 0.340441 0.168689 0 200 255
0.408894 0.357418 0.147115 0 200 255
0.426257 0.307568 0.212898 0 200 255
0.405623 0.199711 0.181912 0 200 255
0.448531 0.349328 0.212234 0 200 255
0.422667 0.338589 0.209742 0 200 255
0.415830 0.296561 0.215056 0 200 255
0.405444 0.315310 0.190360 0 200 255
0.432742 0.357402 0.204154 0 200 255
0.418370 0.330599 0.200575 0 200 255
0.372721 0.292742 0.200171 0 200 255
0.409155 0.263400 0.234459 0 200 255
0.419608 0.348235 0.210571 0 200 255
0.431864 0.344858 0.214145 0 200 255
0.436250 0.345012 0.223279 0 200 255
0.344987 0.207533 0.165657 0 200 255
0.381909 0.215053 0.195339 0 200 255
0.342235 0.315367 0.181043 0 200 255
0.373354 0.203026 0.182502 0 200 255
0.439961 0.249101 0.235490 0 200 255
0.452457 0.268678 0.240473 0 200 255
0.442902 0.226370 0.209320 0 200 255
0.381208 0.197463 0.189433 0 200 255
0.335256 0.320284 0.170758 0 200 255
0.482029 0.248204 0.216389 0 200 255
0.478648 0.239994 0.208186 0 200 255
0.398800 0.213005 0.160064 0 200 255
0.374761 0.208235 0.176183 0 200 255
0.402173 0.341469 0.133316 0 200 255
0.412717 0.363892 0.160973 0 200 255
0.467159 0.218533 0.193526 0 200 255
0.480570 0.308195 0.210649 0 200 255
0.438889 0.365128 0.187961 0 200 255
0.429364 0.380585 0.162996 0 200 255
0.413376 0.346289 0.163298 0 200 255
0.356933 0.217088 0.182986 0 200 255
0.376434 0.211559 0.158944 0 200 255
0.413630 0.219474 0.195617 0 200 255
0.417947 0.360320 0.185466 0 200 255
0.406334 0.283280 0.223474 0 200 255
0.347995 0.315327 0.192315 0 200 255
0.495031 0.289388 0.222613 0 200 255
0.392267 0.218601 0.159391 0 200 255
0.432189 0.360202 0.179664 0 200 255
0.414763 0.283480 0.229948 0 200 255
0.430561 0.379030 0.152340 0 200 255
0.408463 0.320616 0.215708 0 200 255
0.423215 0.375496 0.151904 0 200 255
0.431054 0.235749 0.210034 0 200 255
0.456652 0.237540 0.208049 0 200 255
0.423428 0.365723 0.177887 0 200 255
0.470243 0.243651 0.198733 0 200 255
0.421254 0.317353 0.193174 0 200 255
0.407284 0.226980 0.184115 0 200 255
0.424704 0.254326 0.198971 0 200 255
0.442071 0.319898 0.226071 0 200 255
0.456679 0.329117 0.210631 0 200 255
0.427061 0.346129 0.197793 0 200 255
0.344170 0.320525 0.189020 0 200 255
0.402291 0.324005 0.214828 0 200 255
0.405851 0.320305 0.173213 0 200 255
0.386097 0.284904 0.214880 0 200 255
0.416523 0.357856 0.172554 0 200 255
0.414411 0.311339 0.206021 0 200 255
0.430406 0.311992 0.223082 0 200 255
0.427508 0.355591 0.190135 0 200 255
0.431468 0.368026 0.155869 0 200 255
0.421516 0.283550 0.240930 0 200 255
0.487481 0.251777 0.212341 0 200 255
0.412952 0.223726 0.181772 0 200 255
0.412085 0.224448 0.166603 0 200 255
0.440744 0.360976 0.201769 0 200 255
0.442876 0.334993 0.199746 0 200 255
0.400253 0.332382 0.203879 0 200 255
0.351116 0.317812 0.171577 0 200 255
0.491797 0.280303 0.231070 0 200 255
0.359941 0.303718 0.212398 0 200 255
0.389118 0.282460 0.223256 0 200 255
0.401893 0.290696 0.222555 0 200 255
0.418950 0.272708 0.196023 0 200 255
0.384687 0.200713 0.171486 0 200 255
0.403349 0.277191 0.215895 0 200 255
0.402690 0.220623 0.201873 0 200 255
0.408148 0.349906 0.176735 0 200 255
0.347159 0.226037 0.176791 0 200 255
0.472946 0.295753 0.239399 0 200 255
0.462299 0.224646 0.195486 0 200 255
0.436997 0.369344 0.164292 0 200 255
0.430428 0.224246 0.194280 0 200 255
0.428429 0.230497 0.190936 0 200 255
0.498654 0.243662 0.222530 0 200 255
0.461879 0.324647 0.210519 0 200 255
0.438947 0.240142 0.232119 0 200 255
0.409821 0.292463 0.208736 0 200 255
0.358898 0.307990 0.202218 0 200 255
0.468694 0.234709 0.189399 0 200 255
0.465765 0.332278 0.215862 0 200 255
0.499051 0.272804 0.219988 0 200 255
0.382342 0.300723 0.218171 0 200 255
0.404587 0.209430 0.175200 0 200 255
0.466573 0.219907 0.204644 0 200 255
0.468712 0.302984 0.240924 0 200 255
0.404471 0.260716 0.216129 0 200 255
0.365534 0.306909 0.184302 0 200 255
0.431806 0.339829 0.195790 0 200 255
0.406319 0.344989 0.152002 0 200 255
0.465154 0.230703 0.226325 0 200 255
0.356598 0.317781 0.197487 0 200 255
0.426199 0.260543 0.235471 0 200 255
0.403823 0.281247 0.206983 0 200 255
0.422298 0.239104 0.210931 0 200 255
0.499536 0.238757 0.210370 0 200 255
0.434851 0.362091 0.209675 0 200 255
0.487396 0.291708 0.232032 0 200 255
0.438472 0.356756 0.214945 0 200 255
0.426315 0.249656 0.233316 0 200 255
0.429136 0.380208 0.170029 0 200 255
0.411668 0.343117 0.178764 0 200 255
0.366610 0.202280 0.182234 0 200 255
0.375296 0.297158 0.224854 0 200 255
0.443219 0.228481 0.222115 0 200 255
0.339115 0.318021 0.160033 0 200 255
0.389903 0.301035 0.204482 0 200 255
0.476230 0.269778 0.232902 0 200 255
0.406974 0.262353 0.227035 0 200 255
0.476785 0.295797 0.201214 0 200 255
0.478294 0.283389 0.235304 0 200 255
0.407562 0.273528 0.238173 0 200 255
0.385538 0.220772 0.178058 0 200 255
0.420818 0.364365 0.162390 0 200 255
0.412962 0.349403 0.194727 0 200 255
0.442441 0.274989 0.196115 0 200 255
0.400711 0.336407 0.142177 0 200 255
0.412208 0.282902 0.213826 0 200 255
0.408183 0.356424 0.197214 0 200 255
0.415101 0.246971 0.214272 0 200 255
0.467091 0.226134 0.231258 0 200 255
0.326782 0.320037 0.167040 0 200 255
0.352617 0.203064 0.182176 0 200 255
0.460745 0.281483 0.199706 0 200 255
0.466660 0.261883 0.237180 0 200 255
0.337694 0.330218 0.169045 0 200 255
0.360876 0.199990 0.167426 0 200 255
0.472438 0.216166 0.223770 0 200 255
0.463780 0.233867 0.231985 0 200 255
0.435978 0.222287 0.199081 0 200 255
0.433403 0.303150 0.201622 0 200 255
0.338227 0.216560 0.158364 0 200 255
0.416114 0.343266 0.144081 0 200 255
0.341767 0.230351 0.159224 0 200 255
0.345789 0.325229 0.179449 0 200 255
0.461451 0.235790 0.213742 0 200 255
0.393162 0.333457 0.176671 0 200 255
0.401997 0.329951 0.191579 0 200 255
0.402477 0.318058 0.209349 0 200 255
0.402416 0.340447 0.160819 0 200 255
0.431680 0.368885 0.168762 0 200 255
0.418797 0.205712 0.184369 0 200 255
0.406737 0.363068 0.180324 0 200 255
0.397391 0.207467 0.176760 0 200 255
0.417050 0.326521 0.191067 0 200 255
0.471795 0.324168 0.223564 0 200 255
0.415641 0.360627 0.191740 0 200 255
0.364043 0.205805 0.171888 0 200 255
0.488521 0.292600 0.209757 0 200 255
0.353151 0.214363 0.154908 0 200 255
0.479200 0.242584 0.230469 0 200 255
0.372630 0.217333 0.174817 0 200 255
0.479929 0.250369 0.201396 0 200 255
0.415795 0.263892 0.199904 0 200 255
0.333305 0.225691 0.168910 0 200 255
0.365631 0.221025 0.165549 0 200 255
0.390009 0.226285 0.196424 0 200 255
0.383171 0.213957 0.161058 0 200 255
0.368719 0.296591 0.217125 0 200 255
0.347931 0.213262 0.179055 0 200 255
0.404586 0.285079 0.201241 0 200 255
0.371493 0.291266 0.214363 0 200 255
0.394363 0.198696 0.187457 0 200 255
0.366892 0.206736 0.160094 0 200 255
0.346713 0.213411 0.158082 0 200 255
0.446888 0.334040 0.208551 0 200 255
0.450628 0.256715 0.230281 0 200 255
0.466523 0.218767 0.214259 0 200 255
0.348220 0.214432 0.171001 0 200 255
0.412757 0.211838 0.187851 0 200 255
0.357458 0.210520 0.183019 0 200 255
0.423420 0.376761 0.182186 0 200 255
0.452613 0.335494 0.212219 0 200 255
0.483468 0.298845 0.201400 0 200 255
0.355848 0.304308 0.192150 0 200 255
0.453375 0.282650 0.241203 0 200 255
0.330819 0.317171 0.174564 0 200 255
0.429838 0.351423 0.213828 0 200 255
0.423684 0.359768 0.197204 0 200 255
0.497505 0.279898 0.224011 0 200 255
0.406382 0.311363 0.218343 0 200 255
0.426046 0.334974 0.225209 0 200 255
0.380606 0.213788 0.180719 0 200 255
0.425958 0.374592 0.169507 0 200 255
0.462592 0.260304 0.196422 0 200 255
0.407661 0.275997 0.226872 0 200 255
0.374966 0.202821 0.171476 0 200 255
0.364550 0.207744 0.185596 0 200 255
0.408371 0.274479 0.219692 0 200 255
0.397285 0.333411 0.132679 0 200 255
0.426133 0.212164 0.182525 0 200 255
0.489773 0.279071 0.204324 0 200 255
