ply
format ascii 1.0
element vertex 1024
property float x
property float y
property float z
property uchar red
property uchar green
property uchar blue
end_header
0.469976 0.254847 0.195162 0 200 255
0.341398 0.370110 0.116243 0 200 255
0.461744 0.384079 0.167216 0 200 255
0.360212 0.245076 0.131293 0 200 255
0.390794 0.320666 0.186845 0 200 255
0.426499 0.355075 0.088948 0 200 255
0.493709 0.318423 0.166879 0 200 255
0.417783 0.261622 0.156902 0 200 255
0.449697 0.408094 0.111499 0 200 255
0.327590 0.296087 0.139342 0 200 255
0.450134 0.337728 0.204384 0 200 255
0.411920 0.360072 0.146300 0 200 255
0.435127 0.312652 0.159632 0 200 255
0.354110 0.348260 0.161759 0 200 255
0.473527 0.251192 0.146722 0 200 255
0.424052 0.286280 0.196082 0 200 255
0.468781 0.298373 0.200057 0 200 255
0.377017 0.267021 0.163999 0 200 255
0.497621 0.279610 0.177476 0 200 255
0.430801 0.397739 0.145338 0 200 255
0.467438 0.290376 0.155209 0 200 255
0.432006 0.361808 0.179691 0 200 255
0.338946 0.263611 0.156511 0 200 255
0.472866 0.348783 0.175536 0 200 255
0.397230 0.240633 0.134292 0 200 255
0.446616 0.243340 0.169944 0 200 255
0.405118 0.294945 0.165182 0 200 255
0.386864 0.336974 0.155953 0 200 255
0.425630 0.383852 0.114416 0 200 255
0.423609 0.319433 0.191933 0 200 255
0.352212 0.276417 0.128907 0 200 255
0.483029 0.326868 0.200024 0 200 255
0.395663 0.241335 0.166965 0 200 255
0.361360 0.350493 0.130717 0 200 255
0.443469 0.274018 0.169051 0 200 255
0.459526 0.392309 0.135988 0 200 255
0.442120 0.364595 0.151111 0 200 255
0.427462 0.353398 0.119288 0 200 255
0.381489 0.266094 0.131491 0 200 255
0.420123 0.338495 0.165192 0 200 255
0.463261 0.319402 0.166515 0 200 255
0.491226 0.250845 0.170423 0 200 255
0.368200 0.240226 0.158675 0 200 255
0.447596 0.300876 0.181848 0 200 255
0.432433 0.258442 0.189240 0 200 255
0.450783 0.277213 0.199553 0 200 255
0.457925 0.366872 0.188773 0 200 255
0.443192 0.337716 0.178413 0 200 255
0.374421 0.340487 0.180146 0 200 255
0.433386 0.384900 0.167725 0 200 255
0.494823 0.305133 0.188990 0 200 255
0.466347 0.262041 0.168377 0 200 255
0.487651 0.273183 0.155383 0 200 255
0.481304 0.277032 0.195601 0 200 255
0.404735 0.301072 0.193123 0 200 255
0.447100 0.312690 0.203231 0 200 255
0.413998 0.272610 0.178509 0 200 255
0.425253 0.285971 0.155090 0 200 255
0.406758 0.318626 0.168219 0 200 255
0.404950 0.263174 0.135324 0 200 255
0.350249 0.365071 0.145364 0 200 255
0.362323 0.264042 0.146006 0 200 255
0.330647 0.273284 0.136880 0 200 255
0.413052 0.364914 0.104976 0 200 255
0.418816 0.344422 0.187351 0 200 255
0.496425 0.294254 0.159841 0 200 255
0.466776 0.363727 0.159097 0 200 255
0.345425 0.284287 0.150585 0 200 255
0.410324 0.371122 0.126924 0 200 255
0.463902 0.331384 0.186325 0 200 255
0.451568 0.400477 0.154896 0 200 255
0.447509 0.387405 0.118189 0 200 255
0.418904 0.245703 0.171463 0 200 255
0.429693 0.347879 0.145434 0 200 255
0.397897 0.262730 0.167710 0 200 255
0.367078 0.338436 0.147951 0 200 255
0.459887 0.235060 0.184314 0 200 255
0.452116 0.257943 0.153199 0 200 255
0.414218 0.359746 0.168371 0 200 255
0.426258 0.376980 0.144718 0 200 255
0.342418 0.255338 0.135557 0 200 255
0.432688 0.401520 0.122978 0 200 255
0.478181 0.307965 0.157649 0 200 255
0.416142 0.246121 0.140603 0 200 255
0.377531 0.237417 0.139205 0 200 255
0.449912 0.359615 0.170547 0 200 255
0.396263 0.335651 0.174708 0 200 255
0.389787 0.262219 0.149070 0 200 255
0.478547 0.331227 0.162681 0 200 255
0.406364 0.322295 0.200910 0 200 255
0.451729 0.253100 0.188650 0 200 255
0.444838 0.384318 0.145807 0 200 255
0.448246 0.292736 0.156167 0 200 255
0.342225 0.355785 0.130462 0 200 255
0.489985 0.330900 0.180934 0 200 255
0.474451 0.344193 0.195823 0 200 255
0.374642 0.350812 0.160435 0 200 255
0.483397 0.263359 0.181984 0 200 255
0.434225 0.253429 0.158688 0 200 255
0.460316 0.241773 0.156484 0 200 255
0.430918 0.354445 0.162533 0 200 255
0.438604 0.296828 0.199998 0 200 255
0.449348 0.406589 0.130917 0 200 255
0.465016 0.316051 0.202537 0 200 255
0.422070 0.388956 0.131646 0 200 255
0.430368 0.398714 0.105083 0 200 255
0.453673 0.347580 0.189424 0 200 255
0.401560 0.248857 0.151623 0 200 255
0.429627 0.332881 0.202238 0 200 255
0.356074 0.253294 0.160676 0 200 255
0.444796 0.323237 0.188853 0 200 255
0.358125 0.365386 0.120572 0 200 255
0.463688 0.378297 0.149258 0 200 255
0.382184 0.326101 0.169361 0 200 255
0.441639 0.328837 0.163022 0 200 255
0.363716 0.262685 0.128374 0 200 255
0.484284 0.244695 0.192770 0 200 255
0.427549 0.367374 0.130010 0 200 255
0.332708 0.285829 0.124789 0 200 255
0.426644 0.261394 0.172944 0 200 255
0.420434 0.302597 0.157667 0 200 255
0.467902 0.269862 0.153102 0 200 255
0.365201 0.356225 0.146478 0 200 255
0.407647 0.327178 0.184384 0 200 255
0.460833 0.336389 0.165755 0 200 255
0.421348 0.348554 0.103852 0 200 255
0.413600 0.308019 0.180331 0 200 255
0.389593 0.236748 0.151449 0 200 255
0.449871 0.375837 0.176181 0 200 255
0.468820 0.366063 0.175722 0 200 255
0.419187 0.304069 0.201270 0 200 255
0.384188 0.249408 0.128514 0 200 255
0.411918 0.279544 0.163458 0 200 255
0.429836 0.363884 0.102733 0 200 255
0.423269 0.326418 0.176784 0 200 255
0.365694 0.336903 0.165620 0 200 255
0.350784 0.348539 0.143364 0 200 255
0.415886 0.354720 0.130879 0 200 255
0.329147 0.284950 0.151797 0 200 255
0.484418 0.293688 0.194171 0 200 255
0.433436 0.271931 0.154029 0 200 255
0.466667 0.282590 0.191401 0 200 255
0.383426 0.251680 0.164636 0 200 255
0.437843 0.381298 0.129635 0 200 255
0.465534 0.332901 0.203835 0 200 255
0.449096 0.259194 0.174075 0 200 255
0.372021 0.253320 0.138088 0 200 255
0.339957 0.267263 0.125022 0 200 255
0.428148 0.371529 0.161336 0 200 255
0.452667 0.277892 0.153584 0 200 255
0.342313 0.291365 0.136770 0 200 255
0.447363 0.385536 0.161021 0 200 255
0.479182 0.311522 0.198316 0 200 255
0.433512 0.274481 0.193081 0 200 255
0.423149 0.388705 0.155040 0 200 255
0.347627 0.370876 0.130159 0 200 255
0.457958 0.398336 0.119888 0 200 255
0.345206 0.251318 0.150094 0 200 255
0.462559 0.268057 0.196693 0 200 255
0.408576 0.285133 0.185062 0 200 255
0.388156 0.336243 0.187433 0 200 255
0.469763 0.356748 0.187964 0 200 255
0.487018 0.255319 0.156666 0 200 255
0.434027 0.344233 0.188330 0 200 255
0.419877 0.246874 0.155370 0 200 255
0.345597 0.272019 0.142038 0 200 255
0.424064 0.323669 0.162226 0 200 255
0.481757 0.292009 0.158587 0 200 255
0.353213 0.272511 0.154897 0 200 255
0.454576 0.305007 0.161337 0 200 255
0.444904 0.358929 0.186240 0 200 255
0.347987 0.356312 0.115184 0 200 255
0.399014 0.309633 0.181866 0 200 255
0.497915 0.304697 0.169902 0 200 255
0.440938 0.394791 0.134093 0 200 255
0.432246 0.315797 0.203042 0 200 255
0.428260 0.362610 0.145431 0 200 255
0.420844 0.370204 0.117016 0 200 255
0.378329 0.247039 0.150929 0 200 255
0.452843 0.299029 0.200552 0 200 255
0.415501 0.350466 0.156308 0 200 255
0.486441 0.283466 0.169082 0 200 255
0.363066 0.239149 0.145377 0 200 255
0.482768 0.343181 0.184246 0 200 255
0.385421 0.343028 0.169072 0 200 255
0.482667 0.268920 0.168909 0 200 255
0.461153 0.251118 0.178193 0 200 255
0.455106 0.347193 0.175029 0 200 255
0.452541 0.394935 0.107044 0 200 255
0.431987 0.343160 0.171647 0 200 255
0.407167 0.252108 0.166663 0 200 255
0.365188 0.350258 0.170887 0 200 255
0.403548 0.264257 0.151332 0 200 255
0.495360 0.292626 0.182690 0 200 255
0.414161 0.357077 0.116457 0 200 255
0.493543 0.317514 0.182046 0 200 255
0.418620 0.356828 0.181088 0 200 255
0.369485 0.254598 0.163086 0 200 255
0.450192 0.370609 0.162409 0 200 255
0.420796 0.395875 0.118760 0 200 255
0.393830 0.318598 0.172584 0 200 255
0.352962 0.254878 0.125243 0 200 255
0.377122 0.267023 0.147831 0 200 255
0.415482 0.369382 0.155529 0 200 255
0.379315 0.327242 0.182751 0 200 255
0.414189 0.371986 0.139669 0 200 255
0.361203 0.363060 0.135111 0 200 255
0.403017 0.296682 0.180698 0 200 255
0.438959 0.371725 0.169323 0 200 255
0.355379 0.253750 0.141449 0 200 255
0.362792 0.358004 0.159791 0 200 255
0.437138 0.299796 0.157134 0 200 255
0.446221 0.315313 0.166250 0 200 255
0.430799 0.342161 0.157735 0 200 255
0.453635 0.287989 0.192541 0 200 255
0.457726 0.390324 0.148824 0 200 255
0.437460 0.391339 0.154567 0 200 255
0.491051 0.317839 0.194857 0 200 255
0.462811 0.355705 0.168598 0 200 255
0.418231 0.275733 0.191140 0 200 255
0.441341 0.327208 0.202094 0 200 255
0.480757 0.318071 0.165839 0 200 255
0.448927 0.335279 0.191055 0 200 255
0.388220 0.246081 0.142654 0 200 255
0.395497 0.254917 0.131351 0 200 255
0.417783 0.328105 0.199909 0 200 255
0.442006 0.265260 0.195715 0 200 255
0.443265 0.351202 0.163230 0 200 255
0.375370 0.348591 0.147695 0 200 255
0.375969 0.331327 0.159413 0 200 255
0.331347 0.272524 0.149582 0 200 255
0.367009 0.252821 0.150339 0 200 255
0.412437 0.313378 0.191978 0 200 255
0.415689 0.360137 0.093506 0 200 255
0.451642 0.384245 0.130210 0 200 255
0.383559 0.239123 0.162965 0 200 255
0.323411 0.283405 0.139168 0 200 255
0.456543 0.251294 0.163899 0 200 255
0.491552 0.275866 0.188309 0 200 255
0.452794 0.371166 0.149609 0 200 255
0.448609 0.401758 0.142551 0 200 255
0.437713 0.389182 0.108828 0 200 255
0.474625 0.279845 0.156775 0 200 255
0.416757 0.348866 0.143241 0 200 255
0.428353 0.271512 0.165671 0 200 255
0.461932 0.376665 0.179637 0 200 255
0.414457 0.261842 0.169885 0 200 255
0.471828 0.257676 0.179077 0 200 255
0.456360 0.329870 0.176436 0 200 255
0.403566 0.238467 0.144818 0 200 255
0.436685 0.252376 0.170869 0 200 255
0.439273 0.263052 0.164735 0 200 255
0.436308 0.378002 0.152248 0 200 255
0.460716 0.243377 0.193494 0 200 255
0.356289 0.278171 0.143206 0 200 255
0.415719 0.348212 0.172526 0 200 255
0.353557 0.264874 0.135904 0 200 255
0.479525 0.343136 0.166829 0 200 255
0.335169 0.263303 0.142376 0 200 255
0.371485 0.246726 0.126804 0 200 255
0.478034 0.264996 0.157854 0 200 255
0.445496 0.400993 0.120782 0 200 255
0.365860 0.265506 0.157562 0 200 255
0.439889 0.353284 0.176227 0 200 255
0.415520 0.259776 0.140115 0 200 255
0.402851 0.249895 0.139656 0 200 255
0.403187 0.307265 0.169951 0 200 255
0.415948 0.311948 0.164385 0 200 255
0.399351 0.314703 0.192731 0 200 255
0.434418 0.329932 0.191705 0 200 255
0.456211 0.358201 0.180556 0 200 255
0.450025 0.241621 0.183092 0 200 255
0.351708 0.358064 0.155487 0 200 255
0.476756 0.264244 0.191779 0 200 255
0.340473 0.279889 0.134521 0 200 255
0.406122 0.240011 0.158010 0 200 255
0.456947 0.324587 0.203844 0 200 255
0.438387 0.321743 0.179042 0 200 255
0.391722 0.265781 0.137332 0 200 255
0.437671 0.265343 0.176178 0 200 255
0.429133 0.354716 0.135871 0 200 255
0.443008 0.286009 0.200286 0 200 255
0.455914 0.393854 0.163422 0 200 255
0.411909 0.292681 0.196794 0 200 255
0.432428 0.331591 0.170757 0 200 255
0.406216 0.329871 0.173200 0 200 255
0.425381 0.362683 0.169405 0 200 255
0.421463 0.389438 0.143642 0 200 255
0.440690 0.370398 0.180637 0 200 255
0.462641 0.343565 0.200620 0 200 255
0.423843 0.253821 0.164749 0 200 255
0.497418 0.284466 0.165806 0 200 255
0.407215 0.286743 0.173761 0 200 255
0.464127 0.340720 0.179620 0 200 255
0.442419 0.250153 0.181889 0 200 255
0.420821 0.265672 0.186278 0 200 255
0.387881 0.266768 0.160331 0 200 255
0.430109 0.399840 0.134100 0 200 255
0.469028 0.258451 0.154352 0 200 255
0.392151 0.329228 0.164718 0 200 255
0.486850 0.334262 0.192199 0 200 255
0.421296 0.359938 0.158952 0 200 255
0.442381 0.399669 0.109160 0 200 255
0.414763 0.289519 0.157678 0 200 255
0.449265 0.359605 0.158397 0 200 255
0.465093 0.300247 0.160317 0 200 255
0.461316 0.289683 0.200694 0 200 255
0.375965 0.257115 0.127289 0 200 255
0.428291 0.351111 0.179704 0 200 255
0.491727 0.255753 0.182603 0 200 255
0.441441 0.283998 0.158228 0 200 255
0.452876 0.328854 0.162350 0 200 255
0.361557 0.345300 0.140688 0 200 255
0.451282 0.387598 0.171523 0 200 255
0.421034 0.315367 0.202630 0 200 255
0.421241 0.333561 0.186431 0 200 255
0.466641 0.372330 0.166754 0 200 255
0.351893 0.260193 0.151073 0 200 255
0.426997 0.378890 0.130546 0 200 255
0.431724 0.354279 0.108022 0 200 255
0.492110 0.308930 0.161344 0 200 255
0.434928 0.386571 0.119843 0 200 255
0.357233 0.343519 0.150839 0 200 255
0.406584 0.317341 0.179444 0 200 255
0.351181 0.351150 0.125932 0 200 255
0.339114 0.360051 0.120615 0 200 255
0.417925 0.316527 0.174796 0 200 255
0.431792 0.386583 0.146021 0 200 255
0.493076 0.272397 0.169007 0 200 255
0.425349 0.297629 0.194914 0 200 255
0.420959 0.339220 0.176082 0 200 255
0.454338 0.234312 0.174919 0 200 255
0.343729 0.356858 0.141216 0 200 255
0.374008 0.332924 0.171690 0 200 255
0.428799 0.252566 0.178933 0 200 255
0.396525 0.251932 0.169259 0 200 255
0.392713 0.246235 0.157722 0 200 255
0.340228 0.275223 0.155209 0 200 255
0.420953 0.341798 0.150279 0 200 255
0.449793 0.260802 0.163422 0 200 255
0.410482 0.253426 0.156512 0 200 255
0.426562 0.365266 0.092333 0 200 255
0.452628 0.269210 0.171836 0 200 255
0.452256 0.262271 0.195145 0 200 255
0.443783 0.271122 0.158803 0 200 255
0.377838 0.337773 0.150351 0 200 255
0.455490 0.267316 0.157212 0 200 255
0.398448 0.332845 0.184726 0 200 255
0.459894 0.306771 0.202189 0 200 255
0.410838 0.367179 0.115328 0 200 255
0.472817 0.323166 0.202475 0 200 255
0.432503 0.361819 0.155031 0 200 255
0.487275 0.326572 0.168542 0 200 255
0.365713 0.347067 0.155887 0 200 255
0.407974 0.303952 0.160665 0 200 255
0.367822 0.239110 0.135680 0 200 255
0.373518 0.237446 0.148824 0 200 255
0.456533 0.367838 0.176545 0 200 255
0.389474 0.328112 0.179733 0 200 255
0.476150 0.286290 0.193434 0 200 255
0.454587 0.381039 0.144440 0 200 255
0.350008 0.264945 0.125897 0 200 255
0.450724 0.395106 0.130750 0 200 255
0.446205 0.251378 0.161151 0 200 255
0.375117 0.346871 0.169979 0 200 255
0.374086 0.245160 0.165565 0 200 255
0.410839 0.363117 0.134065 0 200 255
0.333907 0.275669 0.125843 0 200 255
0.458689 0.336896 0.193790 0 200 255
0.384245 0.336788 0.177129 0 200 255
0.422570 0.393300 0.108995 0 200 255
0.468992 0.237715 0.191463 0 200 255
0.382623 0.346646 0.155575 0 200 255
0.470892 0.319242 0.159713 0 200 255
0.479072 0.259499 0.172111 0 200 255
0.429433 0.318802 0.173924 0 200 255
0.442630 0.394274 0.145988 0 200 255
0.423241 0.370880 0.107167 0 200 255
0.488116 0.307028 0.196626 0 200 255
0.337549 0.290347 0.148563 0 200 255
0.419891 0.357845 0.139736 0 200 255
0.333409 0.293764 0.131393 0 200 255
0.353130 0.356629 0.134213 0 200 255
0.443458 0.349922 0.190599 0 200 255
0.429344 0.350491 0.097487 0 200 255
0.428377 0.281844 0.163757 0 200 255
0.429236 0.371704 0.172039 0 200 255
0.428308 0.261902 0.160679 0 200 255
0.350237 0.249394 0.133247 0 200 255
0.323933 0.290274 0.131849 0 200 255
0.436990 0.376185 0.142390 0 200 255
0.429099 0.364491 0.116875 0 200 255
0.490455 0.261107 0.164099 0 200 255
0.458526 0.389597 0.125259 0 200 255
0.459745 0.355751 0.189593 0 200 255
0.461194 0.281517 0.157362 0 200 255
0.496379 0.295217 0.172599 0 200 255
0.453614 0.407324 0.120639 0 200 255
0.468589 0.335859 0.172001 0 200 255
0.428681 0.306731 0.199935 0 200 255
0.467958 0.366480 0.186969 0 200 255
0.464433 0.378403 0.159176 0 200 255
0.431948 0.389230 0.130309 0 200 255
0.349776 0.285069 0.140379 0 200 255
0.486666 0.247285 0.182875 0 200 255
0.441259 0.337403 0.196882 0 200 255
0.471631 0.360172 0.168332 0 200 255
0.425594 0.381906 0.162494 0 200 255
0.340024 0.268003 0.134843 0 200 255
0.454696 0.240163 0.165308 0 200 255
0.479995 0.337065 0.199722 0 200 255
0.465671 0.347775 0.192278 0 200 255
0.415552 0.362723 0.125199 0 200 255
0.417413 0.321645 0.183118 0 200 255
0.411098 0.242191 0.166146 0 200 255
0.347374 0.260723 0.142415 0 200 255
0.473638 0.245792 0.195653 0 200 255
0.422391 0.271518 0.173638 0 200 255
0.372762 0.265621 0.139216 0 200 255
0.348019 0.262319 0.159833 0 200 255
0.464656 0.350387 0.180650 0 200 255
0.384789 0.327361 0.158355 0 200 255
0.457891 0.278631 0.192622 0 200 255
0.448505 0.388974 0.138081 0 200 255
0.351617 0.368704 0.114254 0 200 255
0.411206 0.310828 0.201208 0 200 255
0.429850 0.302942 0.162594 0 200 255
0.460570 0.256825 0.194557 0 200 255
0.428630 0.293487 0.160071 0 200 255
0.472241 0.271638 0.195967 0 200 255
0.436565 0.354230 0.185391 0 200 255
0.419653 0.351320 0.094809 0 200 255
0.398415 0.323572 0.179406 0 200 255
0.385165 0.238859 0.133570 0 200 255
0.416804 0.279082 0.171704 0 200 255
0.400559 0.323929 0.189971 0 200 255
0.414125 0.322929 0.192730 0 200 255
0.441279 0.276488 0.198241 0 200 255
0.493755 0.285126 0.188334 0 200 255
0.338861 0.277759 0.145544 0 200 255
0.380037 0.246508 0.137819 0 200 255
0.454390 0.340427 0.181676 0 200 255
0.456766 0.316688 0.160134 0 200 255
0.343264 0.278798 0.125506 0 200 255
0.413713 0.324654 0.170573 0 200 255
0.424478 0.368733 0.152561 0 200 255
0.393691 0.338529 0.165770 0 200 255
0.449309 0.351289 0.181296 0 200 255
0.420660 0.349573 0.113225 0 200 255
0.429068 0.401356 0.114061 0 200 255
0.362580 0.255349 0.134211 0 200 255
0.412016 0.360786 0.157537 0 200 255
0.442295 0.392797 0.124121 0 200 255
0.359565 0.355878 0.123246 0 200 255
0.415453 0.355207 0.106850 0 200 255
0.445203 0.394744 0.158721 0 200 255
0.445889 0.305980 0.164739 0 200 255
0.492612 0.259526 0.173691 0 200 255
0.437541 0.385186 0.138747 0 200 255
0.416682 0.376244 0.131523 0 200 255
0.443188 0.377177 0.160343 0 200 255
0.358786 0.362194 0.149747 0 200 255
0.480458 0.255732 0.192846 0 200 255
0.443146 0.254936 0.191850 0 200 255
0.484544 0.341703 0.174577 0 200 255
0.457891 0.362948 0.156324 0 200 255
0.422877 0.368692 0.138827 0 200 255
0.425699 0.396329 0.126686 0 200 255
0.447378 0.343563 0.171324 0 200 255
0.484845 0.268697 0.190648 0 200 255
0.473614 0.344761 0.184405 0 200 255
0.389599 0.236925 0.142066 0 200 255
0.459314 0.260042 0.162555 0 200 255
0.434797 0.335403 0.181522 0 200 255
0.433553 0.357600 0.171069 0 200 255
0.353913 0.267778 0.145356 0 200 255
0.428115 0.320132 0.182948 0 200 255
0.459904 0.254159 0.150043 0 200 255
0.369415 0.245391 0.142229 0 200 255
0.440110 0.402101 0.128562 0 200 255
0.352309 0.365605 0.136073 0 200 255
0.404260 0.257633 0.144423 0 200 255
0.429946 0.324283 0.198999 0 200 255
0.359095 0.272735 0.136350 0 200 255
0.440459 0.356739 0.156467 0 200 255
0.449959 0.249751 0.176699 0 200 255
0.365446 0.341173 0.173717 0 200 255
0.446635 0.363500 0.178164 0 200 255
0.479706 0.301166 0.196542 0 200 255
0.399010 0.325457 0.169512 0 200 255
0.451467 0.245814 0.156240 0 200 255
0.331051 0.281666 0.133389 0 200 255
0.408298 0.242932 0.137317 0 200 255
0.341214 0.267103 0.148442 0 200 255
0.354269 0.357197 0.143298 0 200 255
0.344863 0.363802 0.110679 0 200 255
0.421710 0.354409 0.168781 0 200 255
0.456147 0.390128 0.116481 0 200 255
0.457625 0.375580 0.171484 0 200 255
0.432929 0.350620 0.153451 0 200 255
0.384153 0.260374 0.167078 0 200 255
0.448956 0.329384 0.183675 0 200 255
0.439362 0.263905 0.155637 0 200 255
0.493690 0.310425 0.176519 0 200 255
0.359660 0.343567 0.167050 0 200 255
0.448176 0.279518 0.191291 0 200 255
0.384142 0.266536 0.142059 0 200 255
0.403211 0.264129 0.160286 0 200 255
0.347608 0.250933 0.158936 0 200 255
0.420678 0.362385 0.100598 0 200 255
0.488705 0.267673 0.176205 0 200 255
0.436134 0.396399 0.116433 0 200 255
0.450164 0.378213 0.167108 0 200 255
0.433663 0.383473 0.158798 0 200 255
0.342414 0.287401 0.128770 0 200 255
0.456476 0.401650 0.128042 0 200 255
0.416758 0.305901 0.189731 0 200 255
0.472352 0.357226 0.179441 0 200 255
0.425808 0.378075 0.154444 0 200 255
0.465913 0.292893 0.193634 0 200 255
0.363479 0.248802 0.158635 0 200 255
0.365236 0.338211 0.156650 0 200 255
0.457071 0.398297 0.144954 0 200 255
0.427495 0.341881 0.181480 0 200 255
0.427109 0.359710 0.125570 0 200 255
0.376055 0.240281 0.130944 0 200 255
0.396712 0.237708 0.156634 0 200 255
0.371768 0.265990 0.129771 0 200 255
0.463965 0.242976 0.148555 0 200 255
0.432061 0.289427 0.197970 0 200 255
0.488706 0.322539 0.176672 0 200 255
0.487217 0.286056 0.155103 0 200 255
0.443878 0.373211 0.146952 0 200 255
0.428168 0.391388 0.138334 0 200 255
0.430075 0.385426 0.106736 0 200 255
0.498998 0.300500 0.181596 0 200 255
0.433915 0.283253 0.153843 0 200 255
0.385095 0.258164 0.132143 0 200 255
0.475804 0.299720 0.156018 0 200 255
0.339770 0.258498 0.148452 0 200 255
0.405987 0.308953 0.188153 0 200 255
0.345146 0.362849 0.126295 0 200 255
0.423224 0.386569 0.123355 0 200 255
0.490226 0.300324 0.159741 0 200 255
0.443638 0.332917 0.170402 0 200 255
0.480981 0.257474 0.150838 0 200 255
0.468584 0.326154 0.167489 0 200 255
0.350124 0.348255 0.152152 0 200 255
0.409001 0.254494 0.135701 0 200 255
0.447711 0.321388 0.202244 0 200 255
0.457441 0.289109 0.155709 0 200 255
0.326199 0.278416 0.145629 0 200 255
0.443466 0.400861 0.151975 0 200 255
0.429411 0.266937 0.192355 0 200 255
0.380730 0.238571 0.153395 0 200 255
0.471227 0.280687 0.198449 0 200 255
0.428919 0.379738 0.121215 0 200 255
0.437355 0.363036 0.186426 0 200 255
0.455707 0.402052 0.137363 0 200 255
0.354815 0.252133 0.151231 0 200 255
0.435941 0.378859 0.173224 0 200 255
0.441844 0.402809 0.136918 0 200 255
0.461424 0.369829 0.152682 0 200 255
0.357961 0.261611 0.160269 0 200 255
0.470616 0.336443 0.184838 0 200 255
0.440039 0.346083 0.182565 0 200 255
0.483214 0.341942 0.192963 0 200 255
0.456081 0.401157 0.111672 0 200 255
0.326115 0.290311 0.145424 0 200 255
0.397072 0.245536 0.145223 0 200 255
0.414664 0.283399 0.191935 0 200 255
0.415539 0.373307 0.148009 0 200 255
0.426093 0.329054 0.193017 0 200 255
0.484842 0.283233 0.191036 0 200 255
0.460343 0.328059 0.167992 0 200 255
0.360589 0.247082 0.141110 0 200 255
0.409483 0.287478 0.165651 0 200 255
0.436040 0.270477 0.162078 0 200 255
0.438257 0.305193 0.200967 0 200 255
0.452205 0.382505 0.152383 0 200 255
0.366697 0.257329 0.143238 0 200 255
0.452911 0.290676 0.201460 0 200 255
0.424684 0.347161 0.172647 0 200 255
0.422543 0.358802 0.115201 0 200 255
0.423890 0.383278 0.138518 0 200 255
0.446632 0.367827 0.171008 0 200 255
0.493694 0.292938 0.191316 0 200 255
0.370201 0.354697 0.153003 0 200 255
0.453600 0.322075 0.167177 0 200 255
0.348621 0.371871 0.121940 0 200 255
0.456330 0.297991 0.157195 0 200 255
0.462504 0.345444 0.171616 0 200 255
0.452077 0.271381 0.163828 0 200 255
0.390611 0.245635 0.133769 0 200 255
0.431086 0.358346 0.095413 0 200 255
0.418512 0.366620 0.163029 0 200 255
0.476860 0.241440 0.189353 0 200 255
0.398935 0.264986 0.144475 0 200 255
0.420751 0.264577 0.165238 0 200 255
0.471249 0.306271 0.200480 0 200 255
0.424915 0.253414 0.156055 0 200 255
0.345225 0.250669 0.141860 0 200 255
0.402590 0.299308 0.172898 0 200 255
0.405128 0.313075 0.162352 0 200 255
0.364050 0.257446 0.156600 0 200 255
0.470509 0.310901 0.158283 0 200 255
0.455795 0.382528 0.176171 0 200 255
0.406941 0.318844 0.189026 0 200 255
0.411311 0.245242 0.154403 0 200 255
0.417915 0.362602 0.151296 0 200 255
0.334551 0.291879 0.140370 0 200 255
0.424997 0.372496 0.124146 0 200 255
0.436641 0.364872 0.173670 0 200 255
0.423145 0.258344 0.180248 0 200 255
0.388810 0.246000 0.167031 0 200 255
0.462557 0.363704 0.181487 0 200 255
0.415281 0.350105 0.164581 0 200 255
0.477788 0.248323 0.153086 0 200 255
0.418687 0.277737 0.183225 0 200 255
0.380606 0.344838 0.175687 0 200 255
0.454629 0.317854 0.199704 0 200 255
0.376550 0.258717 0.164587 0 200 255
0.490463 0.327903 0.188556 0 200 255
0.413372 0.300772 0.196574 0 200 255
0.443210 0.257057 0.168830 0 200 255
0.441765 0.331066 0.187158 0 200 255
0.401321 0.244949 0.162353 0 200 255
0.415129 0.253022 0.167991 0 200 255
0.368114 0.349255 0.143387 0 200 255
0.421690 0.395774 0.136167 0 200 255
0.427820 0.249795 0.170566 0 200 255
0.432882 0.370034 0.145717 0 200 255
0.371425 0.247658 0.155133 0 200 255
0.438050 0.347600 0.168605 0 200 255
0.436681 0.290448 0.159388 0 200 255
0.420450 0.318551 0.167380 0 200 255
0.357208 0.267549 0.128498 0 200 255
0.428978 0.394393 0.152467 0 200 255
0.473348 0.331224 0.202865 0 200 255
0.445784 0.267512 0.175713 0 200 255
0.345142 0.362387 0.134331 0 200 255
0.431506 0.257765 0.167658 0 200 255
0.454539 0.269263 0.198398 0 200 255
0.461599 0.385697 0.154140 0 200 255
0.445934 0.325235 0.177485 0 200 255
0.448355 0.393275 0.166099 0 200 255
0.336958 0.283616 0.153062 0 200 255
0.362317 0.349924 0.162568 0 200 255
0.433405 0.266514 0.169384 0 200 255
0.490084 0.299916 0.192874 0 200 255
0.444746 0.388520 0.152622 0 200 255
0.410971 0.308432 0.171417 0 200 255
0.358886 0.351223 0.149507 0 200 255
0.421045 0.295476 0.161586 0 200 255
0.339356 0.285118 0.142481 0 200 255
0.401593 0.313954 0.174013 0 200 255
0.431379 0.363676 0.162713 0 200 255
0.354685 0.347823 0.134179 0 200 255
0.455237 0.339797 0.172047 0 200 255
0.445928 0.371279 0.154398 0 200 255
0.444329 0.387344 0.130770 0 200 255
0.419428 0.364633 0.110298 0 200 255
0.442780 0.405408 0.114752 0 200 255
0.346493 0.273770 0.150540 0 200 255
0.446187 0.352639 0.171235 0 200 255
0.381164 0.267165 0.156170 0 200 255
0.429159 0.279994 0.196721 0 200 255
0.345150 0.355289 0.122496 0 200 255
0.445041 0.286673 0.192528 0 200 255
0.465831 0.255231 0.164398 0 200 255
0.457713 0.395543 0.155474 0 200 255
0.466212 0.312193 0.165274 0 200 255
0.363486 0.266200 0.136774 0 200 255
0.343834 0.260058 0.126249 0 200 255
0.355383 0.358929 0.115906 0 200 255
0.483049 0.324422 0.161835 0 200 255
0.407258 0.291182 0.189865 0 200 255
0.406126 0.305845 0.179438 0 200 255
0.426488 0.362038 0.136697 0 200 255
0.396813 0.265506 0.155118 0 200 255
0.450460 0.353960 0.164580 0 200 255
0.419141 0.274426 0.165873 0 200 255
0.365989 0.242916 0.151568 0 200 255
0.475071 0.267123 0.169068 0 200 255
0.419057 0.361233 0.174298 0 200 255
0.464878 0.323671 0.200930 0 200 255
0.484365 0.333573 0.170288 0 200 255
0.343241 0.257142 0.156445 0 200 255
0.406681 0.260510 0.166215 0 200 255
0.416297 0.313661 0.184923 0 200 255
0.350508 0.283002 0.132632 0 200 255
0.417894 0.243698 0.162745 0 200 255
0.438753 0.319914 0.201958 0 200 255
0.474970 0.251103 0.190008 0 200 255
0.351059 0.257530 0.136298 0 200 255
0.457379 0.351210 0.183595 0 200 255
0.389517 0.326786 0.172145 0 200 255
0.347841 0.274671 0.135002 0 200 255
0.440507 0.381356 0.166223 0 200 255
0.402886 0.253463 0.157728 0 200 255
0.449852 0.402387 0.106345 0 200 255
0.418302 0.366403 0.144621 0 200 255
0.460696 0.274847 0.153579 0 200 255
0.387503 0.343023 0.160646 0 200 255
0.430711 0.389681 0.162224 0 200 255
0.446620 0.325186 0.167846 0 200 255
0.347897 0.354154 0.147788 0 200 255
0.381255 0.337684 0.184419 0 200 255
0.428390 0.391718 0.102655 0 200 255
0.410135 0.241394 0.147457 0 200 255
0.443542 0.257672 0.157164 0 200 255
0.447966 0.390171 0.110915 0 200 255
0.423101 0.384054 0.148959 0 200 255
0.424148 0.349817 0.138993 0 200 255
0.347515 0.351896 0.136361 0 200 255
0.499140 0.286939 0.178972 0 200 255
0.450998 0.391788 0.123361 0 200 255
0.368675 0.343914 0.165889 0 200 255
0.454530 0.385356 0.163577 0 200 255
0.412757 0.325198 0.178104 0 200 255
0.358475 0.363647 0.142192 0 200 255
0.462392 0.342803 0.186728 0 200 255
0.493752 0.273219 0.178869 0 200 255
0.410605 0.279182 0.176759 0 200 255
0.363325 0.251183 0.127903 0 200 255
0.456116 0.371672 0.183180 0 200 255
0.463901 0.359118 0.175594 0 200 255
0.454148 0.341646 0.199286 0 200 255
0.423193 0.338970 0.191367 0 200 255
0.395213 0.316286 0.182534 0 200 255
0.425512 0.268002 0.157183 0 200 255
0.482676 0.300414 0.159932 0 200 255
0.466423 0.261440 0.196125 0 200 255
0.450692 0.392818 0.147716 0 200 255
0.427471 0.340120 0.164762 0 200 255
0.388848 0.320637 0.179090 0 200 255
0.391491 0.258692 0.166946 0 200 255
0.488568 0.269403 0.183523 0 200 255
0.490947 0.292356 0.164613 0 200 255
0.483803 0.333977 0.183880 0 200 255
0.449469 0.235079 0.167071 0 200 255
0.383189 0.238114 0.145766 0 200 255
0.434342 0.396588 0.128850 0 200 255
0.430398 0.379727 0.137510 0 200 255
0.457026 0.387189 0.140952 0 200 255
0.356729 0.366452 0.130099 0 200 255
0.421288 0.311722 0.159163 0 200 255
0.380090 0.330356 0.176003 0 200 255
0.341868 0.369278 0.123803 0 200 255
0.420894 0.340062 0.157535 0 200 255
0.480980 0.348481 0.189181 0 200 255
0.396585 0.237152 0.148896 0 200 255
0.391689 0.328052 0.187220 0 200 255
0.380104 0.347019 0.163792 0 200 255
0.457991 0.354638 0.174173 0 200 255
0.462309 0.281238 0.198017 0 200 255
0.468714 0.289167 0.199437 0 200 255
0.416729 0.371980 0.122956 0 200 255
0.346613 0.263000 0.133947 0 200 255
0.457297 0.310709 0.165241 0 200 255
0.456039 0.333230 0.204183 0 200 255
0.467466 0.334872 0.162785 0 200 255
0.442356 0.338931 0.185689 0 200 255
0.425003 0.368476 0.099473 0 200 255
0.461381 0.298038 0.199771 0 200 255
0.346123 0.268405 0.156050 0 200 255
0.358162 0.342471 0.159536 0 200 255
0.458767 0.324505 0.161239 0 200 255
0.398332 0.248496 0.133711 0 200 255
0.426920 0.357759 0.174709 0 200 255
0.476957 0.294451 0.197969 0 200 255
0.428690 0.377695 0.167724 0 200 255
0.397602 0.263998 0.133225 0 200 255
0.447881 0.329983 0.204126 0 200 255
0.480120 0.349609 0.176673 0 200 255
0.368426 0.263834 0.150163 0 200 255
0.401695 0.301953 0.185697 0 200 255
0.435175 0.393110 0.141608 0 200 255
0.419731 0.326607 0.188335 0 200 255
0.390997 0.238265 0.161232 0 200 255
0.416805 0.349851 0.179611 0 200 255
0.447656 0.396687 0.137235 0 200 255
0.411932 0.263532 0.160912 0 200 255
0.414810 0.352884 0.149075 0 200 255
0.443507 0.250322 0.173236 0 200 255
0.370926 0.345517 0.175961 0 200 255
0.431684 0.354655 0.143457 0 200 255
0.472591 0.314348 0.199844 0 200 255
0.411010 0.367127 0.148062 0 200 255
0.478065 0.316359 0.159241 0 200 255
0.428115 0.395585 0.118647 0 200 255
0.433838 0.345355 0.178386 0 200 255
0.431373 0.323602 0.161834 0 200 255
0.453221 0.252194 0.170619 0 200 255
0.420895 0.256021 0.171350 0 200 255
0.364311 0.358365 0.130448 0 200 255
0.452258 0.365479 0.182734 0 200 255
0.448702 0.363587 0.164492 0 200 255
0.405053 0.309186 0.197648 0 200 255
0.428660 0.366443 0.109454 0 200 255
0.388841 0.322546 0.166265 0 200 255
0.495918 0.312283 0.186516 0 200 255
0.382319 0.261927 0.147815 0 200 255
0.361838 0.355494 0.140071 0 200 255
0.329193 0.287924 0.137453 0 200 255
0.434357 0.371603 0.177199 0 200 255
0.322459 0.290810 0.138946 0 200 255
0.387362 0.246479 0.149852 0 200 255
0.443170 0.392709 0.115720 0 200 255
0.477565 0.286007 0.154345 0 200 255
0.370456 0.352394 0.166391 0 200 255
0.440545 0.383911 0.156307 0 200 255
0.454610 0.360420 0.187534 0 200 255
0.415647 0.356399 0.099713 0 200 255
0.421374 0.375567 0.137149 0 200 255
0.334069 0.269389 0.129428 0 200 255
0.466703 0.251704 0.153230 0 200 255
0.371776 0.244980 0.134430 0 200 255
0.402258 0.330125 0.179281 0 200 255
0.423105 0.365217 0.121658 0 200 255
0.456215 0.358880 0.161996 0 200 255
0.483156 0.317483 0.198253 0 200 255
0.384591 0.330036 0.187536 0 200 255
0.453041 0.334406 0.166862 0 200 255
0.446914 0.295227 0.201788 0 200 255
0.424954 0.272440 0.191367 0 200 255
0.419630 0.352809 0.119509 0 200 255
0.359805 0.254981 0.146906 0 200 255
0.417540 0.254381 0.156159 0 200 255
0.413101 0.320300 0.199743 0 200 255
0.357183 0.353649 0.156587 0 200 255
0.439715 0.342656 0.173442 0 200 255
0.442920 0.337333 0.203793 0 200 255
0.467593 0.370785 0.158951 0 200 255
0.440415 0.385338 0.124389 0 200 255
0.423701 0.354659 0.131308 0 200 255
0.357334 0.274716 0.149305 0 200 255
0.434116 0.253034 0.184981 0 200 255
0.338423 0.271404 0.142439 0 200 255
0.484089 0.261705 0.155753 0 200 255
0.390851 0.336100 0.179590 0 200 255
0.489268 0.269891 0.163588 0 200 255
0.471245 0.328564 0.161386 0 200 255
0.477333 0.325958 0.167252 0 200 255
0.402229 0.245511 0.169352 0 200 255
0.422636 0.372404 0.130816 0 200 255
0.373413 0.332843 0.178728 0 200 255
0.390511 0.339460 0.172423 0 200 255
0.379170 0.247199 0.157936 0 200 255
0.438988 0.388270 0.145409 0 200 255
0.440528 0.360036 0.178738 0 200 255
0.420124 0.356448 0.125524 0 200 255
0.376561 0.340188 0.171608 0 200 255
0.377722 0.249310 0.131261 0 200 255
0.476341 0.271339 0.155351 0 200 255
0.476494 0.264052 0.176788 0 200 255
0.445346 0.277527 0.161204 0 200 255
0.369283 0.252885 0.131180 0 200 255
0.368008 0.262253 0.163385 0 200 255
0.471154 0.256892 0.168642 0 200 255
0.445298 0.320294 0.161416 0 200 255
0.464034 0.378161 0.170351 0 200 255
0.427621 0.343461 0.151644 0 200 255
0.485144 0.308448 0.161181 0 200 255
0.474044 0.352421 0.184219 0 200 255
0.431328 0.383209 0.126765 0 200 255
0.424252 0.354143 0.109377 0 200 255
0.422215 0.323562 0.202770 0 200 255
0.482144 0.270275 0.159771 0 200 255
0.345405 0.270046 0.128331 0 200 255
0.463535 0.370787 0.183765 0 200 255
0.355807 0.259942 0.129067 0 200 255
0.371716 0.333044 0.165127 0 200 255
0.419478 0.313855 0.191678 0 200 255
0.439694 0.258196 0.174711 0 200 255
0.493210 0.279026 0.171024 0 200 255
0.373950 0.267307 0.153984 0 200 255
0.330847 0.278332 0.153325 0 200 255
0.451027 0.391011 0.158422 0 200 255
0.374925 0.239795 0.156964 0 200 255
0.337462 0.261622 0.135601 0 200 255
0.413148 0.357381 0.137148 0 200 255
0.417469 0.350468 0.136566 0 200 255
0.441258 0.312162 0.199595 0 200 255
0.471640 0.296937 0.193945 0 200 255
0.421831 0.283366 0.160481 0 200 255
0.459996 0.388773 0.161135 0 200 255
0.487263 0.257291 0.168867 0 200 255
0.352279 0.280866 0.148113 0 200 255
0.381039 0.331142 0.153991 0 200 255
0.471039 0.338813 0.191286 0 200 255
0.429945 0.351590 0.172385 0 200 255
0.438785 0.256164 0.163057 0 200 255
0.443454 0.377390 0.152433 0 200 255
0.487457 0.323695 0.195178 0 200 255
0.433565 0.348303 0.160936 0 200 255
0.332104 0.278992 0.142158 0 200 255
0.422484 0.389633 0.116377 0 200 255
0.463479 0.255999 0.173957 0 200 255
0.340286 0.258360 0.141341 0 200 255
0.466132 0.372375 0.175748 0 200 255
0.459503 0.251610 0.190244 0 200 255
0.421699 0.360351 0.090224 0 200 255
0.354209 0.265903 0.156393 0 200 255
0.443451 0.373414 0.174206 0 200 255
0.410193 0.372448 0.133631 0 200 255
0.414601 0.305875 0.159074 0 200 255
0.448977 0.302686 0.158174 0 200 255
0.466591 0.358577 0.163678 0 200 255
0.425624 0.353827 0.102690 0 200 255
0.432241 0.381378 0.115473 0 200 255
0.412952 0.360795 0.110424 0 200 255
0.331587 0.269928 0.143269 0 200 255
0.486524 0.252616 0.187140 0 200 255
0.401409 0.256683 0.169595 0 200 255
0.492878 0.320756 0.188968 0 200 255
0.456510 0.245055 0.151717 0 200 255
0.440034 0.252319 0.154837 0 200 255
0.474475 0.343114 0.171397 0 200 255
0.351964 0.356967 0.121457 0 200 255
0.478735 0.270905 0.194077 0 200 255
0.431520 0.356619 0.114404 0 200 255
0.449395 0.240479 0.161068 0 200 255
0.344438 0.288608 0.145340 0 200 255
0.325749 0.283464 0.129542 0 200 255
0.434599 0.400427 0.110114 0 200 255
0.423539 0.332729 0.179277 0 200 255
0.405845 0.248217 0.146397 0 200 255
0.416188 0.269047 0.172468 0 200 255
0.448534 0.401054 0.127092 0 200 255
0.455694 0.340229 0.188322 0 200 255
0.430660 0.356332 0.150607 0 200 255
0.428609 0.348221 0.187554 0 200 255
0.430395 0.387942 0.153947 0 200 255
0.485080 0.289153 0.165695 0 200 255
0.411068 0.247762 0.170060 0 200 255
0.492187 0.250109 0.177063 0 200 255
0.454744 0.238754 0.154180 0 200 255
0.356773 0.250627 0.129638 0 200 255
0.415116 0.253066 0.139890 0 200 255
0.390559 0.262126 0.131811 0 200 255
0.367426 0.248040 0.164022 0 200 255
0.333453 0.267010 0.135890 0 200 255
0.371450 0.237750 0.142044 0 200 255
0.417471 0.345332 0.160391 0 200 255
0.369436 0.259697 0.130215 0 200 255
0.384492 0.323094 0.183757 0 200 255
0.363503 0.354470 0.153300 0 200 255
0.436455 0.394501 0.148746 0 200 255
0.401016 0.314655 0.185805 0 200 255
0.471126 0.354455 0.172452 0 200 255
0.412577 0.315327 0.169067 0 200 255
0.431014 0.250999 0.164819 0 200 255
0.454404 0.395419 0.138944 0 200 255
0.391714 0.335016 0.160107 0 200 255
0.424598 0.370653 0.146069 0 200 255
0.361001 0.262140 0.152258 0 200 255
0.470341 0.336955 0.201277 0 200 255
0.352995 0.270957 0.133040 0 200 255
0.400996 0.254432 0.135035 0 200 255
0.350176 0.252907 0.145670 0 200 255
0.488344 0.317976 0.162998 0 200 255
0.334398 0.268783 0.154131 0 200 255
0.410707 0.259192 0.153253 0 200 255
0.376859 0.246441 0.144506 0 200 255
0.417969 0.290253 0.197863 0 200 255
0.355751 0.278109 0.134435 0 200 255
0.357666 0.262955 0.141443 0 200 255
0.456178 0.355758 0.167815 0 200 255
0.414065 0.354097 0.175018 0 200 255
0.446266 0.384176 0.167781 0 200 255
0.436388 0.385293 0.151373 0 200 255
0.432103 0.357269 0.101842 0 200 255
0.335568 0.263212 0.150355 0 200 255
0.444018 0.291753 0.196607 0 200 255
0.386085 0.246809 0.161085 0 200 255
0.437668 0.335444 0.171793 0 200 255
0.372489 0.334492 0.152336 0 200 255
0.423746 0.318206 0.177366 0 200 255
0.450555 0.403567 0.148571 0 200 255
0.346679 0.254357 0.127877 0 200 255
0.463219 0.293393 0.159246 0 200 255
0.410431 0.297317 0.162134 0 200 255
0.473195 0.293528 0.155343 0 200 255
0.442427 0.300683 0.160919 0 200 255
0.420189 0.263012 0.172855 0 200 255
0.472701 0.259159 0.190913 0 200 255
0.423491 0.366225 0.158779 0 200 255
0.439088 0.380647 0.146710 0 200 255
0.422049 0.393214 0.150410 0 200 255
0.416209 0.356463 0.161191 0 200 255
0.343083 0.266138 0.140605 0 200 255
0.362571 0.343049 0.146793 0 200 255
0.339437 0.363598 0.115118 0 200 255
0.443067 0.365077 0.183959 0 200 255
0.394815 0.265929 0.161340 0 200 255
0.433635 0.342624 0.165334 0 200 255
0.434025 0.355659 0.178727 0 200 255
0.447598 0.357053 0.177621 0 200 255
0.458902 0.395582 0.128188 0 200 255
0.449468 0.378019 0.147103 0 200 255
0.419246 0.338689 0.182949 0 200 255
0.458784 0.291309 0.194737 0 200 255
0.414816 0.362873 0.140214 0 200 255
0.415878 0.363900 0.117807 0 200 255
0.415724 0.369791 0.111924 0 200 255
0.439326 0.387457 0.114884 0 200 255
0.432428 0.298805 0.199779 0 200 255
0.437546 0.268796 0.192600 0 200 255
0.469154 0.366159 0.168422 0 200 255
0.456871 0.240358 0.189246 0 200 255
0.422950 0.278258 0.194783 0 200 255
0.423610 0.399276 0.111248 0 200 255
0.425534 0.357175 0.181002 0 200 255
0.336651 0.274658 0.132147 0 200 255
0.457313 0.389440 0.167935 0 200 255
0.430472 0.376082 0.150237 0 200 255
0.452041 0.240479 0.171972 0 200 255
0.367850 0.354010 0.159487 0 200 255
0.489211 0.332294 0.174686 0 200 255
0.429966 0.367783 0.155805 0 200 255
0.461594 0.331437 0.180308 0 200 255
0.356803 0.358069 0.128641 0 200 255
0.439341 0.269076 0.169228 0 200 255
