ply
format ascii 1.0
element vertex 1024
property float x
property float y
property float z
property uchar red
property uchar green
property uchar blue
end_header
0.479810 0.233932 0.236237 0 200 255
0.329572 0.325230 0.157263 0 200 255
0.362106 0.187373 0.171224 0 200 255
0.440700 0.351629 0.211785 0 200 255
0.379496 0.282301 0.223547 0 200 255
0.409376 0.329738 0.135912 0 200 255
0.430010 0.224972 0.177532 0 200 255
0.487455 0.295588 0.203124 0 200 255
0.441098 0.285000 0.244153 0 200 255
0.393280 0.328472 0.190559 0 200 255
0.425687 0.375277 0.163524 0 200 255
0.427278 0.235548 0.229623 0 200 255
0.444160 0.268447 0.197742 0 200 255
0.484847 0.231600 0.187846 0 200 255
0.399201 0.196165 0.200293 0 200 255
0.348500 0.306733 0.196755 0 200 255
0.464470 0.323396 0.238496 0 200 255
0.415592 0.314535 0.225195 0 200 255
0.395413 0.209932 0.161313 0 200 255
0.330710 0.209912 0.160063 0 200 255
0.449132 0.306938 0.203700 0 200 255
0.478918 0.279554 0.237100 0 200 255
0.498377 0.259324 0.210192 0 200 255
0.408362 0.257072 0.203263 0 200 255
0.408627 0.267010 0.240329 0 200 255
0.423161 0.338339 0.168807 0 200 255
0.460722 0.216712 0.210681 0 200 255
0.380629 0.297282 0.193491 0 200 255
0.454314 0.254788 0.239636 0 200 255
0.428640 0.209695 0.206965 0 200 255
0.416268 0.363016 0.192937 0 200 255
0.417416 0.288421 0.203712 0 200 255
0.389354 0.332443 0.160127 0 200 255
0.422517 0.319987 0.195590 0 200 255
0.355914 0.315233 0.168817 0 200 255
0.442299 0.239132 0.203519 0 200 255
0.474082 0.270223 0.196179 0 200 255
0.419465 0.198125 0.174778 0 200 255
0.373737 0.206100 0.190911 0 200 255
0.390167 0.185613 0.174849 0 200 255
0.402850 0.221484 0.188615 0 200 255
0.358418 0.214393 0.164526 0 200 255
0.440920 0.327287 0.224184 0 200 255
0.415298 0.340012 0.212547 0 200 255
0.415464 0.294010 0.243994 0 200 255
0.483583 0.303120 0.227710 0 200 255
0.366804 0.303378 0.214439 0 200 255
0.502715 0.235407 0.218445 0 200 255
0.448399 0.273771 0.222385 0 200 255
0.478778 0.243140 0.210063 0 200 255
0.419528 0.350652 0.146050 0 200 255
0.401718 0.351294 0.175810 0 200 255
0.341171 0.199880 0.180855 0 200 255
0.453146 0.230426 0.233008 0 200 255
0.439296 0.311461 0.243645 0 200 255
0.489626 0.257369 0.234655 0 200 255
0.464111 0.324754 0.211635 0 200 255
0.439045 0.353419 0.187431 0 200 255
0.407706 0.319991 0.172648 0 200 255
0.403117 0.287974 0.223384 0 200 255
0.402124 0.311017 0.205313 0 200 255
0.434892 0.297852 0.224444 0 200 255
0.496673 0.283585 0.221906 0 200 255
0.464144 0.300478 0.243671 0 200 255
0.334058 0.311394 0.175783 0 200 255
0.432051 0.260430 0.237938 0 200 255
0.349604 0.196339 0.153336 0 200 255
0.377088 0.196319 0.156281 0 200 255
0.462328 0.232336 0.194031 0 200 255
0.465251 0.290764 0.199822 0 200 255
0.420222 0.238602 0.207579 0 200 255
0.441552 0.329739 0.201905 0 200 255
0.414570 0.339857 0.189976 0 200 255
0.362355 0.298974 0.181718 0 200 255
0.475536 0.212220 0.225225 0 200 255
0.454684 0.308850 0.226528 0 200 255
0.396944 0.267768 0.222016 0 200 255
0.410475 0.222572 0.168742 0 200 255
0.440967 0.220783 0.219430 0 200 255
0.464154 0.252604 0.194852 0 200 255
0.402950 0.318955 0.151673 0 200 255
0.441104 0.285965 0.207068 0 200 255
0.428913 0.252133 0.195580 0 200 255
0.431794 0.356406 0.165401 0 200 255
0.387514 0.297195 0.213078 0 200 255
0.493438 0.274656 0.198629 0 200 255
0.407050 0.340898 0.157711 0 200 255
0.500405 0.238387 0.197749 0 200 255
0.409449 0.251630 0.228288 0 200 255
0.459556 0.243237 0.212687 0 200 255
0.460731 0.275163 0.242167 0 200 255
0.442831 0.221030 0.196686 0 200 255
0.424671 0.369209 0.145133 0 200 255
0.386573 0.214941 0.179580 0 200 255
0.412465 0.219810 0.205044 0 200 255
0.422400 0.332319 0.150369 0 200 255
0.399834 0.274101 0.203350 0 200 255
0.370635 0.186350 0.188186 0 200 255
0.419155 0.212016 0.187914 0 200 255
0.424008 0.282914 0.228142 0 200 255
0.408006 0.307530 0.187850 0 200 255
0.429585 0.369380 0.180859 0 200 255
0.391783 0.334103 0.140212 0 200 255
0.341570 0.309455 0.158663 0 200 255
0.400539 0.199162 0.181862 0 200 255
0.474516 0.218938 0.197411 0 200 255
0.488157 0.255870 0.195262 0 200 255
0.478479 0.312530 0.212765 0 200 255
0.357314 0.208284 0.182878 0 200 255
0.371754 0.287724 0.206352 0 200 255
0.413022 0.365745 0.172592 0 200 255
0.434581 0.313467 0.212192 0 200 255
0.424473 0.359881 0.208654 0 200 255
0.403648 0.192688 0.165257 0 200 255
0.371624 0.204736 0.171797 0 200 255
0.348019 0.319639 0.184138 0 200 255
0.470837 0.262584 0.234694 0 200 255
0.425826 0.227502 0.194626 0 200 255
0.367509 0.308895 0.196235 0 200 255
0.389736 0.213210 0.197178 0 200 255
0.496346 0.227997 0.234032 0 200 255
0.406761 0.328142 0.202867 0 200 255
0.416884 0.198441 0.198769 0 200 255
0.423381 0.331583 0.225556 0 200 255
0.428597 0.342599 0.199986 0 200 255
0.472533 0.228060 0.219141 0 200 255
0.423338 0.352218 0.180570 0 200 255
0.451552 0.336246 0.214282 0 200 255
0.400381 0.281843 0.241176 0 200 255
0.411571 0.273954 0.216103 0 200 255
0.342025 0.324895 0.168977 0 200 255
0.337582 0.195007 0.165248 0 200 255
0.385497 0.193842 0.189775 0 200 255
0.441909 0.243840 0.237319 0 200 255
0.418306 0.307756 0.207342 0 200 255
0.424438 0.266366 0.202880 0 200 255
0.393427 0.336418 0.175708 0 200 255
0.438147 0.343691 0.226123 0 200 255
0.491207 0.248461 0.220897 0 200 255
0.401525 0.319871 0.218674 0 200 255
0.343422 0.213728 0.173082 0 200 255
0.415117 0.363604 0.156853 0 200 255
0.346568 0.302677 0.180657 0 200 255
0.422209 0.277537 0.243060 0 200 255
0.352280 0.200469 0.169132 0 200 255
0.465730 0.240773 0.238649 0 200 255
0.357045 0.295851 0.204498 0 200 255
0.410452 0.207096 0.164849 0 200 255
0.447073 0.343397 0.196436 0 200 255
0.408291 0.302025 0.218732 0 200 255
0.386272 0.282240 0.208320 0 200 255
0.428824 0.332731 0.187917 0 200 255
0.431872 0.364829 0.195959 0 200 255
0.408916 0.336871 0.175205 0 200 255
0.497659 0.268665 0.227891 0 200 255
0.430568 0.227493 0.210101 0 200 255
0.414912 0.351283 0.167705 0 200 255
0.356459 0.191550 0.185289 0 200 255
0.389945 0.293392 0.229036 0 200 255
0.470752 0.320253 0.224919 0 200 255
0.432060 0.209852 0.176890 0 200 255
0.448646 0.319330 0.212698 0 200 255
0.455878 0.328316 0.226821 0 200 255
0.429908 0.297025 0.203832 0 200 255
0.428848 0.318449 0.231418 0 200 255
0.464247 0.306504 0.202935 0 200 255
0.417335 0.323384 0.213116 0 200 255
0.428331 0.303351 0.236849 0 200 255
0.432863 0.335920 0.214477 0 200 255
0.451437 0.228104 0.207801 0 200 255
0.363497 0.202225 0.155920 0 200 255
0.387751 0.200188 0.174463 0 200 255
0.472623 0.311173 0.237916 0 200 255
0.460042 0.269903 0.200529 0 200 255
0.409485 0.348520 0.200696 0 200 255
0.448457 0.297588 0.244820 0 200 255
0.479064 0.283779 0.198251 0 200 255
0.488315 0.289865 0.232917 0 200 255
0.452289 0.318156 0.244412 0 200 255
0.346632 0.209905 0.157344 0 200 255
0.422474 0.249948 0.235392 0 200 255
0.361717 0.313479 0.183876 0 200 255
0.446686 0.266625 0.242588 0 200 255
0.448495 0.251532 0.199807 0 200 255
0.411084 0.247953 0.213998 0 200 255
0.376937 0.191454 0.170735 0 200 255
0.412385 0.325684 0.184839 0 200 255
0.375718 0.296897 0.223432 0 200 255
0.487882 0.272760 0.211507 0 200 255
0.420268 0.338914 0.138089 0 200 255
0.410523 0.278585 0.230849 0 200 255
0.488007 0.293923 0.217995 0 200 255
0.468409 0.225642 0.232322 0 200 255
0.392886 0.278758 0.229738 0 200 255
0.381988 0.211479 0.164955 0 200 255
0.432965 0.212124 0.192425 0 200 255
0.441187 0.312272 0.225731 0 200 255
0.412748 0.193722 0.186102 0 200 255
0.400037 0.286922 0.209899 0 200 255
0.404333 0.339739 0.144170 0 200 255
0.415879 0.290462 0.217293 0 200 255
0.368272 0.291064 0.193404 0 200 255
0.477482 0.250712 0.237093 0 200 255
0.495312 0.284870 0.207716 0 200 255
0.377391 0.302974 0.205640 0 200 255
0.455085 0.222077 0.222238 0 200 255
0.412250 0.302464 0.231889 0 200 255
0.397807 0.219370 0.173059 0 200 255
0.453371 0.292071 0.207163 0 200 255
0.405650 0.207851 0.203376 0 200 255
0.433323 0.276629 0.199425 0 200 255
0.396171 0.321598 0.164853 0 200 255
0.402331 0.347382 0.188862 0 200 255
0.416079 0.225114 0.180897 0 200 255
0.427365 0.348276 0.215383 0 200 255
0.397075 0.319580 0.181076 0 200 255
0.446837 0.302656 0.217412 0 200 255
0.411703 0.328206 0.157802 0 200 255
0.475810 0.234225 0.200424 0 200 255
0.420231 0.213455 0.171653 0 200 255
0.469006 0.287987 0.240139 0 200 255
0.344288 0.322733 0.156070 0 200 255
0.358230 0.308957 0.205927 0 200 255
0.473641 0.297876 0.207143 0 200 255
0.388870 0.191550 0.163183 0 200 255
0.399225 0.322035 0.139125 0 200 255
0.477822 0.299345 0.240302 0 200 255
0.423408 0.346790 0.158750 0 200 255
0.432860 0.363261 0.154392 0 200 255
0.492902 0.243442 0.207086 0 200 255
0.396754 0.187809 0.186860 0 200 255
0.330201 0.313297 0.163504 0 200 255
0.424278 0.242744 0.219054 0 200 255
0.423083 0.302937 0.225065 0 200 255
0.446127 0.235483 0.216815 0 200 255
0.422097 0.351328 0.193168 0 200 255
0.496445 0.239710 0.229220 0 200 255
0.395566 0.321472 0.200796 0 200 255
0.426407 0.201972 0.185656 0 200 255
0.435686 0.273911 0.241658 0 200 255
0.400431 0.263796 0.210620 0 200 255
0.330666 0.202813 0.172082 0 200 255
0.349663 0.304484 0.167950 0 200 255
0.481185 0.244904 0.197011 0 200 255
0.411838 0.354565 0.184495 0 200 255
0.336944 0.202485 0.152387 0 200 255
0.369137 0.197228 0.181300 0 200 255
0.487919 0.269957 0.235353 0 200 255
0.355189 0.297364 0.191548 0 200 255
0.421113 0.265756 0.239837 0 200 255
0.439096 0.215901 0.208316 0 200 255
0.400963 0.337679 0.132027 0 200 255
0.413876 0.224151 0.193753 0 200 255
0.438274 0.229439 0.227556 0 200 255
0.388810 0.292979 0.201757 0 200 255
0.439495 0.246268 0.193679 0 200 255
0.347543 0.191125 0.175482 0 200 255
0.466707 0.226305 0.203472 0 200 255
0.404257 0.333717 0.189258 0 200 255
0.409079 0.267358 0.226946 0 200 255
0.400635 0.332651 0.164086 0 200 255
0.366997 0.291416 0.216656 0 200 255
0.481048 0.237233 0.220182 0 200 255
0.392626 0.284465 0.218918 0 200 255
0.412381 0.351693 0.156068 0 200 255
0.483502 0.217182 0.232504 0 200 255
0.413266 0.268436 0.199439 0 200 255
0.393874 0.327579 0.149894 0 200 255
0.358787 0.191808 0.159195 0 200 255
0.420158 0.336456 0.180053 0 200 255
0.451979 0.278298 0.202260 0 200 255
0.380488 0.285866 0.197467 0 200 255
0.410435 0.312958 0.214785 0 200 255
0.433883 0.296498 0.244516 0 200 255
0.449156 0.340174 0.227689 0 200 255
0.436461 0.340996 0.191544 0 200 255
0.401364 0.220406 0.201640 0 200 255
0.421268 0.374093 0.174212 0 200 255
0.446834 0.319889 0.232355 0 200 255
0.430800 0.323845 0.215487 0 200 255
0.424052 0.314561 0.216747 0 200 255
0.498256 0.269776 0.215527 0 200 255
0.432453 0.320926 0.201259 0 200 255
0.344951 0.314742 0.174259 0 200 255
0.368437 0.196045 0.164638 0 200 255
0.413749 0.337032 0.201249 0 200 255
0.464605 0.214247 0.222656 0 200 255
0.437251 0.231077 0.197274 0 200 255
0.417823 0.252728 0.198025 0 200 255
0.457070 0.311724 0.213156 0 200 255
0.406816 0.190995 0.176842 0 200 255
0.422327 0.359152 0.171739 0 200 255
0.410375 0.302544 0.201276 0 200 255
0.459264 0.266065 0.235699 0 200 255
0.399129 0.271467 0.236244 0 200 255
0.495688 0.258730 0.222983 0 200 255
0.451958 0.307471 0.240741 0 200 255
0.396534 0.339338 0.154194 0 200 255
0.370060 0.209455 0.161364 0 200 255
0.354564 0.315441 0.193295 0 200 255
0.437298 0.357253 0.202050 0 200 255
0.484737 0.266454 0.195585 0 200 255
0.453896 0.240303 0.238072 0 200 255
0.486184 0.243963 0.229785 0 200 255
0.370416 0.305381 0.185881 0 200 255
0.404265 0.258991 0.221453 0 200 255
0.410781 0.325323 0.147133 0 200 255
0.416452 0.208957 0.205461 0 200 255
0.364192 0.213214 0.173860 0 200 255
0.418904 0.373639 0.154289 0 200 255
0.399203 0.275442 0.214445 0 200 255
0.419164 0.369871 0.184330 0 200 255
0.436063 0.237896 0.213257 0 200 255
0.432104 0.367124 0.170461 0 200 255
0.412792 0.289015 0.228359 0 200 255
0.469077 0.209739 0.211529 0 200 255
0.412048 0.256894 0.237473 0 200 255
0.403838 0.348677 0.164627 0 200 255
0.427397 0.303041 0.212515 0 200 255
0.458414 0.286140 0.241640 0 200 255
0.458808 0.232630 0.214865 0 200 255
0.335826 0.317659 0.151601 0 200 255
0.417520 0.337173 0.159525 0 200 255
0.418740 0.309853 0.196734 0 200 255
0.468135 0.235456 0.209048 0 200 255
0.438666 0.259487 0.200044 0 200 255
0.406341 0.201053 0.172742 0 200 255
0.454776 0.239545 0.196599 0 200 255
0.413396 0.283812 0.241345 0 200 255
0.441491 0.299417 0.203322 0 200 255
0.399964 0.315071 0.190360 0 200 255
0.449481 0.245429 0.209781 0 200 255
0.343817 0.310530 0.187900 0 200 255
0.387193 0.202883 0.196059 0 200 255
0.450402 0.335759 0.203129 0 200 255
0.422384 0.350220 0.204156 0 200 255
0.396754 0.214851 0.182750 0 200 255
0.474216 0.254944 0.197454 0 200 255
0.384732 0.204049 0.183877 0 200 255
0.462424 0.256169 0.232940 0 200 255
0.443767 0.253859 0.234431 0 200 255
0.440429 0.326560 0.212014 0 200 255
0.490291 0.239630 0.192074 0 200 255
0.426184 0.342482 0.146734 0 200 255
0.370942 0.185168 0.176709 0 200 255
0.462864 0.314153 0.243298 0 200 255
0.410390 0.282349 0.208640 0 200 255
0.468168 0.273359 0.235005 0 200 255
0.433456 0.250589 0.234654 0 200 255
0.425308 0.361462 0.187894 0 200 255
0.373806 0.187543 0.160945 0 200 255
0.422838 0.220487 0.204191 0 200 255
0.392392 0.325601 0.173962 0 200 255
0.423426 0.359655 0.151800 0 200 255
0.386180 0.201607 0.162661 0 200 255
0.418672 0.243478 0.228212 0 200 255
0.483324 0.304451 0.206622 0 200 255
0.413002 0.204013 0.184950 0 200 255
0.415573 0.314449 0.186390 0 200 255
0.408203 0.202415 0.194821 0 200 255
0.380274 0.193754 0.180234 0 200 255
0.422794 0.332092 0.212216 0 200 255
0.427363 0.230137 0.220865 0 200 255
0.425223 0.290733 0.244096 0 200 255
0.424353 0.205963 0.194913 0 200 255
0.431620 0.332185 0.201405 0 200 255
0.415422 0.327223 0.197065 0 200 255
0.440408 0.228572 0.207506 0 200 255
0.423895 0.284790 0.214510 0 200 255
0.357489 0.307023 0.177211 0 200 255
0.450492 0.219237 0.212712 0 200 255
0.424242 0.342807 0.186878 0 200 255
0.383274 0.213955 0.189158 0 200 255
0.431668 0.359484 0.179729 0 200 255
0.407351 0.325894 0.212767 0 200 255
0.348306 0.192086 0.165027 0 200 255
0.361338 0.198273 0.174898 0 200 255
0.375586 0.194657 0.191745 0 200 255
0.451925 0.229881 0.197652 0 200 255
0.468814 0.312575 0.209733 0 200 255
0.446638 0.344990 0.207029 0 200 255
0.432915 0.248951 0.204286 0 200 255
0.423389 0.316357 0.205909 0 200 255
0.332378 0.322097 0.168012 0 200 255
0.461280 0.319769 0.228347 0 200 255
0.459352 0.234579 0.204078 0 200 255
0.405982 0.191905 0.193320 0 200 255
0.353683 0.306571 0.186605 0 200 255
0.339380 0.322044 0.178276 0 200 255
0.500645 0.244610 0.215090 0 200 255
0.397104 0.199259 0.161501 0 200 255
0.466621 0.276852 0.197620 0 200 255
0.340121 0.307270 0.169016 0 200 255
0.402651 0.275063 0.225653 0 200 255
0.479958 0.304258 0.218092 0 200 255
0.351676 0.199116 0.180996 0 200 255
0.418544 0.345428 0.174829 0 200 255
0.414570 0.332766 0.167897 0 200 255
0.377871 0.289923 0.216747 0 200 255
0.472222 0.235991 0.191379 0 200 255
0.490062 0.252865 0.206754 0 200 255
0.415936 0.331007 0.219191 0 200 255
0.413755 0.334674 0.146378 0 200 255
0.445384 0.345646 0.219802 0 200 255
0.410760 0.342158 0.167012 0 200 255
0.416961 0.277481 0.200023 0 200 255
0.406121 0.312626 0.179716 0 200 255
0.485757 0.226187 0.236768 0 200 255
0.451268 0.262059 0.199776 0 200 255
0.363798 0.196398 0.189491 0 200 255
0.345970 0.316962 0.163728 0 200 255
0.464282 0.214743 0.201840 0 200 255
0.354161 0.205024 0.153582 0 200 255
0.417428 0.297380 0.210630 0 200 255
0.434920 0.222308 0.202303 0 200 255
0.396729 0.206903 0.199599 0 200 255
0.420040 0.367485 0.164824 0 200 255
0.346509 0.207980 0.180697 0 200 255
0.431666 0.289998 0.219757 0 200 255
0.397148 0.328419 0.132135 0 200 255
0.408352 0.270361 0.207524 0 200 255
0.410936 0.346511 0.147552 0 200 255
0.428592 0.371900 0.154934 0 200 255
0.432509 0.356408 0.213480 0 200 255
0.404379 0.214444 0.166206 0 200 255
0.424689 0.358996 0.198547 0 200 255
0.479443 0.260031 0.238356 0 200 255
0.448948 0.317228 0.223020 0 200 255
0.432180 0.306398 0.220124 0 200 255
0.405856 0.340073 0.196253 0 200 255
0.401002 0.283563 0.231621 0 200 255
0.430923 0.285659 0.201479 0 200 255
0.401610 0.310342 0.218033 0 200 255
0.407378 0.340999 0.183801 0 200 255
0.398689 0.319277 0.209527 0 200 255
0.431995 0.355575 0.193501 0 200 255
0.422381 0.208345 0.179752 0 200 255
0.465096 0.327933 0.224527 0 200 255
0.335011 0.212668 0.168791 0 200 255
0.438034 0.305804 0.231932 0 200 255
0.411376 0.322384 0.220614 0 200 255
0.417267 0.361105 0.180275 0 200 255
0.478893 0.312635 0.222382 0 200 255
0.434545 0.334936 0.225851 0 200 255
0.422850 0.322763 0.221319 0 200 255
0.440572 0.319009 0.219002 0 200 255
0.404601 0.260998 0.233341 0 200 255
0.405069 0.329682 0.180396 0 200 255
0.410364 0.355747 0.175243 0 200 255
0.391194 0.216365 0.167054 0 200 255
0.423674 0.341267 0.208416 0 200 255
0.401216 0.328094 0.155869 0 200 255
0.398941 0.188376 0.172403 0 200 255
0.456218 0.327367 0.216041 0 200 255
0.443305 0.276892 0.205542 0 200 255
0.343968 0.199905 0.159882 0 200 255
0.391887 0.195650 0.182213 0 200 255
0.398304 0.198613 0.191335 0 200 255
0.362722 0.302821 0.190847 0 200 255
0.462909 0.232764 0.234687 0 200 255
0.437555 0.236456 0.233715 0 200 255
0.470675 0.246155 0.196277 0 200 255
0.377381 0.301772 0.215732 0 200 255
0.415304 0.320317 0.203781 0 200 255
0.423773 0.369089 0.194773 0 200 255
0.353841 0.214481 0.172514 0 200 255
0.421642 0.355018 0.162657 0 200 255
0.384905 0.294198 0.221381 0 200 255
0.426241 0.294644 0.227444 0 200 255
0.347971 0.215123 0.165233 0 200 255
0.414144 0.274579 0.239828 0 200 255
0.396968 0.330739 0.198636 0 200 255
0.425566 0.217916 0.190700 0 200 255
0.489683 0.264579 0.207846 0 200 255
0.413613 0.198721 0.166663 0 200 255
0.426650 0.337782 0.156326 0 200 255
0.378998 0.206348 0.176936 0 200 255
0.442913 0.336194 0.222346 0 200 255
0.343353 0.198605 0.171335 0 200 255
0.376006 0.305099 0.194370 0 200 255
0.405699 0.222220 0.176626 0 200 255
0.421146 0.224222 0.173378 0 200 255
0.362678 0.186868 0.180583 0 200 255
0.415215 0.280500 0.221246 0 200 255
0.425161 0.312386 0.225495 0 200 255
0.475501 0.241780 0.237672 0 200 255
0.394988 0.218912 0.192316 0 200 255
0.367226 0.193195 0.156141 0 200 255
0.394162 0.293410 0.217886 0 200 255
0.437691 0.320040 0.230491 0 200 255
0.478625 0.234259 0.211680 0 200 255
0.487597 0.283346 0.201157 0 200 255
0.401400 0.339006 0.170442 0 200 255
0.459881 0.226368 0.228595 0 200 255
0.420563 0.204730 0.168784 0 200 255
0.396440 0.331110 0.182417 0 200 255
0.367732 0.295458 0.208470 0 200 255
0.435684 0.349661 0.218953 0 200 255
0.457300 0.249133 0.199475 0 200 255
0.407878 0.326383 0.165703 0 200 255
0.413223 0.332016 0.209082 0 200 255
0.412365 0.349805 0.192316 0 200 255
0.337565 0.326114 0.161199 0 200 255
0.416704 0.212965 0.197464 0 200 255
0.433942 0.223167 0.193473 0 200 255
0.329383 0.201360 0.162230 0 200 255
0.480563 0.291323 0.237557 0 200 255
0.366117 0.304898 0.205222 0 200 255
0.391240 0.191656 0.196208 0 200 255
0.405646 0.255645 0.211601 0 200 255
0.432373 0.347577 0.187078 0 200 255
0.430847 0.350604 0.207005 0 200 255
0.386021 0.186148 0.182646 0 200 255
0.430137 0.218520 0.208745 0 200 255
0.358628 0.301702 0.210933 0 200 255
0.492016 0.274946 0.225334 0 200 255
0.431530 0.306111 0.244588 0 200 255
0.477814 0.221114 0.189536 0 200 255
0.408576 0.289878 0.237152 0 200 255
0.357425 0.302930 0.199275 0 200 255
0.463013 0.242251 0.198103 0 200 255
0.458287 0.224388 0.201892 0 200 255
0.420388 0.244787 0.201355 0 200 255
0.369348 0.296241 0.186403 0 200 255
0.418751 0.344519 0.198573 0 200 255
0.354655 0.317636 0.178782 0 200 255
0.358718 0.205671 0.163850 0 200 255
0.421084 0.299682 0.240102 0 200 255
0.443152 0.311940 0.213021 0 200 255
0.441531 0.352451 0.195747 0 200 255
0.445215 0.312971 0.237393 0 200 255
0.411299 0.219987 0.186055 0 200 255
0.412511 0.342865 0.139814 0 200 255
0.462135 0.223751 0.217489 0 200 255
0.415745 0.306469 0.222066 0 200 255
0.409647 0.303475 0.210316 0 200 255
0.430088 0.260255 0.200618 0 200 255
0.417711 0.290268 0.235324 0 200 255
0.416590 0.367796 0.147724 0 200 255
0.403302 0.325973 0.195293 0 200 255
0.357093 0.206265 0.173278 0 200 255
0.346533 0.207148 0.168104 0 200 255
0.470841 0.321616 0.215962 0 200 255
0.378772 0.204308 0.158957 0 200 255
0.365234 0.206389 0.180148 0 200 255
0.424488 0.233314 0.212809 0 200 255
0.486885 0.241421 0.215502 0 200 255
0.485843 0.297929 0.234410 0 200 255
0.399642 0.341484 0.161949 0 200 255
0.387313 0.278342 0.221625 0 200 255
0.455565 0.304339 0.209155 0 200 255
0.497944 0.231348 0.224221 0 200 255
0.403862 0.309540 0.197107 0 200 255
0.479762 0.309277 0.232185 0 200 255
0.428755 0.268654 0.242203 0 200 255
0.406939 0.306283 0.226493 0 200 255
0.385870 0.287887 0.214628 0 200 255
0.378506 0.289809 0.227317 0 200 255
0.481682 0.273071 0.199874 0 200 255
0.413179 0.249308 0.205922 0 200 255
0.435761 0.213762 0.200232 0 200 255
0.407968 0.196384 0.200732 0 200 255
0.336484 0.207207 0.176334 0 200 255
0.404359 0.281960 0.217599 0 200 255
0.489701 0.237605 0.234069 0 200 255
0.438276 0.265949 0.240684 0 200 255
0.451578 0.286537 0.200527 0 200 255
0.452540 0.260959 0.234187 0 200 255
0.475455 0.270112 0.237679 0 200 255
0.465056 0.299799 0.207947 0 200 255
0.461489 0.250490 0.240433 0 200 255
0.474430 0.290664 0.199553 0 200 255
0.398325 0.318170 0.172891 0 200 255
0.491922 0.251482 0.229131 0 200 255
0.380128 0.199771 0.168142 0 200 255
0.428239 0.243890 0.235228 0 200 255
0.437470 0.294292 0.208554 0 200 255
0.420406 0.327644 0.186075 0 200 255
0.452250 0.251879 0.232090 0 200 255
0.394382 0.279582 0.209059 0 200 255
0.430879 0.284630 0.243914 0 200 255
0.493304 0.232471 0.195060 0 200 255
0.413042 0.297952 0.224204 0 200 255
0.385926 0.285216 0.227928 0 200 255
0.490110 0.222888 0.230509 0 200 255
0.432291 0.327262 0.194750 0 200 255
0.349634 0.320960 0.171365 0 200 255
0.441289 0.336561 0.196639 0 200 255
0.339857 0.307765 0.181148 0 200 255
0.390303 0.332403 0.169154 0 200 255
0.431395 0.342896 0.221104 0 200 255
0.416337 0.241561 0.217034 0 200 255
0.450792 0.298207 0.202245 0 200 255
0.353770 0.198183 0.160786 0 200 255
0.418028 0.199332 0.189548 0 200 255
0.335599 0.196317 0.173332 0 200 255
0.478081 0.262495 0.198422 0 200 255
0.412979 0.347133 0.181107 0 200 255
0.360194 0.196371 0.166956 0 200 255
0.393998 0.196381 0.170661 0 200 255
0.398823 0.334595 0.147855 0 200 255
0.458037 0.259325 0.195954 0 200 255
0.498695 0.269964 0.207303 0 200 255
0.448083 0.290501 0.240640 0 200 255
0.495148 0.252453 0.213383 0 200 255
0.467082 0.265905 0.196220 0 200 255
0.463473 0.317853 0.206383 0 200 255
0.445261 0.305670 0.245157 0 200 255
0.433200 0.364699 0.186533 0 200 255
0.421632 0.216367 0.181241 0 200 255
0.433955 0.224828 0.220673 0 200 255
0.423243 0.346336 0.167157 0 200 255
0.481277 0.239588 0.190823 0 200 255
0.415323 0.345909 0.205842 0 200 255
0.486984 0.279572 0.235916 0 200 255
0.453546 0.334872 0.222591 0 200 255
0.345974 0.302294 0.190428 0 200 255
0.338771 0.214100 0.161730 0 200 255
0.428704 0.356455 0.157082 0 200 255
0.384920 0.299545 0.204499 0 200 255
0.456380 0.298845 0.242016 0 200 255
0.427358 0.227825 0.202560 0 200 255
0.456375 0.310518 0.203924 0 200 255
0.429680 0.364000 0.203689 0 200 255
0.444983 0.220857 0.205875 0 200 255
0.461211 0.288320 0.206368 0 200 255
0.445218 0.331592 0.216132 0 200 255
0.445884 0.222628 0.225553 0 200 255
0.406078 0.200360 0.164210 0 200 255
0.354153 0.299738 0.178036 0 200 255
0.396418 0.336297 0.188573 0 200 255
0.453367 0.239748 0.216466 0 200 255
0.494724 0.280011 0.214094 0 200 255
0.399934 0.339201 0.179518 0 200 255
0.407968 0.348062 0.171700 0 200 255
0.346390 0.204448 0.151462 0 200 255
0.413171 0.319803 0.178519 0 200 255
0.405078 0.270136 0.219808 0 200 255
0.434834 0.343599 0.213433 0 200 255
0.351243 0.310946 0.163528 0 200 255
0.355253 0.188659 0.175111 0 200 255
0.377884 0.284178 0.211208 0 200 255
0.363702 0.292084 0.202248 0 200 255
0.467378 0.266180 0.240911 0 200 255
0.488633 0.289282 0.211545 0 200 255
0.371328 0.201855 0.157329 0 200 255
0.355979 0.189366 0.166236 0 200 255
0.405843 0.336187 0.151252 0 200 255
0.425523 0.278118 0.199888 0 200 255
0.493573 0.257859 0.200735 0 200 255
0.429961 0.217290 0.175050 0 200 255
0.419522 0.308277 0.229740 0 200 255
0.408486 0.328402 0.173349 0 200 255
0.473985 0.220409 0.234426 0 200 255
0.454056 0.317076 0.234015 0 200 255
0.499254 0.274389 0.221888 0 200 255
0.368794 0.194089 0.174048 0 200 255
0.414334 0.204117 0.175349 0 200 255
0.407454 0.321540 0.157729 0 200 255
0.456046 0.268809 0.242533 0 200 255
0.416440 0.360581 0.166168 0 200 255
0.422218 0.235650 0.223212 0 200 255
0.471037 0.303330 0.240971 0 200 255
0.376179 0.291030 0.191662 0 200 255
0.433536 0.324561 0.223698 0 200 255
0.474171 0.313857 0.228575 0 200 255
0.335932 0.315117 0.168897 0 200 255
0.485136 0.250216 0.234464 0 200 255
0.404793 0.326796 0.142247 0 200 255
0.337298 0.203929 0.160992 0 200 255
0.329214 0.317500 0.155859 0 200 255
0.416766 0.225583 0.201887 0 200 255
0.381194 0.189883 0.163249 0 200 255
0.426452 0.204538 0.174222 0 200 255
0.474199 0.304629 0.203179 0 200 255
0.453368 0.280145 0.241849 0 200 255
0.396255 0.288711 0.228111 0 200 255
0.411737 0.334314 0.185233 0 200 255
0.442644 0.298097 0.223418 0 200 255
0.403769 0.320918 0.202776 0 200 255
0.435686 0.321541 0.208346 0 200 255
0.340025 0.315927 0.183080 0 200 255
0.421231 0.337288 0.217825 0 200 255
0.369506 0.187362 0.168746 0 200 255
0.372415 0.289254 0.222285 0 200 255
0.447136 0.243229 0.198987 0 200 255
0.442549 0.306184 0.207799 0 200 255
0.403825 0.189791 0.184261 0 200 255
0.448749 0.330915 0.209225 0 200 255
0.446545 0.332209 0.227952 0 200 255
0.379659 0.201115 0.193183 0 200 255
0.390790 0.334480 0.151674 0 200 255
0.413890 0.215171 0.167514 0 200 255
0.399648 0.335598 0.139570 0 200 255
0.487237 0.301052 0.212392 0 200 255
0.427949 0.332194 0.219175 0 200 255
0.444347 0.235100 0.197223 0 200 255
0.374690 0.204574 0.183129 0 200 255
0.441613 0.257614 0.240858 0 200 255
0.485692 0.231689 0.231148 0 200 255
0.492952 0.263056 0.230636 0 200 255
0.351849 0.303374 0.204587 0 200 255
0.425640 0.363993 0.177014 0 200 255
0.386622 0.207796 0.174914 0 200 255
0.393997 0.324930 0.158257 0 200 255
0.434429 0.358766 0.172241 0 200 255
0.361651 0.209796 0.158048 0 200 255
0.451479 0.230031 0.215899 0 200 255
0.349595 0.308840 0.175928 0 200 255
0.404244 0.330938 0.130303 0 200 255
0.418008 0.356478 0.188669 0 200 255
0.394058 0.274838 0.222857 0 200 255
0.478051 0.230234 0.194259 0 200 255
0.407302 0.318874 0.209664 0 200 255
0.426394 0.352646 0.171813 0 200 255
0.434003 0.363998 0.161932 0 200 255
0.364973 0.206324 0.168219 0 200 255
0.492037 0.283612 0.230543 0 200 255
0.354297 0.314319 0.185670 0 200 255
0.466003 0.224286 0.210813 0 200 255
0.459432 0.307331 0.242997 0 200 255
0.402254 0.279725 0.208664 0 200 255
0.407085 0.334193 0.168106 0 200 255
0.362452 0.312258 0.191634 0 200 255
0.360185 0.311920 0.199188 0 200 255
0.467861 0.279392 0.239637 0 200 255
0.419656 0.351876 0.153867 0 200 255
0.468013 0.316263 0.234657 0 200 255
0.380056 0.211601 0.182692 0 200 255
0.406466 0.281606 0.236505 0 200 255
0.471660 0.256065 0.238438 0 200 255
0.489525 0.296260 0.228023 0 200 255
0.396359 0.190785 0.162834 0 200 255
0.336950 0.209377 0.155433 0 200 255
0.407712 0.315047 0.221491 0 200 255
0.436632 0.268627 0.197807 0 200 255
0.412737 0.274375 0.225011 0 200 255
0.422088 0.307313 0.217207 0 200 255
0.361363 0.294209 0.194463 0 200 255
0.394175 0.327311 0.142361 0 200 255
0.422348 0.345718 0.141134 0 200 255
0.447865 0.312829 0.229123 0 200 255
0.449275 0.324624 0.221767 0 200 255
0.424637 0.289994 0.202455 0 200 255
0.464912 0.220462 0.197049 0 200 255
0.416990 0.205661 0.193614 0 200 255
0.404705 0.324106 0.134364 0 200 255
0.440723 0.336916 0.229568 0 200 255
0.463118 0.292357 0.241584 0 200 255
0.416990 0.285275 0.210528 0 200 255
0.483778 0.289680 0.200218 0 200 255
0.437310 0.293106 0.229659 0 200 255
0.419492 0.256619 0.237479 0 200 255
0.407693 0.287592 0.213181 0 200 255
0.446388 0.294452 0.208106 0 200 255
0.451231 0.329267 0.232920 0 200 255
0.448300 0.244682 0.233624 0 200 255
0.436384 0.222615 0.209966 0 200 255
0.380373 0.210015 0.194745 0 200 255
0.366337 0.204984 0.187356 0 200 255
0.428434 0.336745 0.195441 0 200 255
0.358922 0.199832 0.185090 0 200 255
0.397200 0.322250 0.193361 0 200 255
0.407383 0.215044 0.202552 0 200 255
0.411554 0.305271 0.194506 0 200 255
0.417669 0.346200 0.187792 0 200 255
0.433367 0.329103 0.210975 0 200 255
0.470227 0.233321 0.235503 0 200 255
0.460377 0.323450 0.220718 0 200 255
0.418995 0.335731 0.206272 0 200 255
0.400795 0.290413 0.216697 0 200 255
0.411666 0.195550 0.173025 0 200 255
0.404959 0.322474 0.181884 0 200 255
0.499230 0.243960 0.203361 0 200 255
0.435222 0.233152 0.204996 0 200 255
0.401486 0.327188 0.208513 0 200 255
0.436802 0.330531 0.219048 0 200 255
0.399463 0.326465 0.172228 0 200 255
0.366325 0.189286 0.162436 0 200 255
0.442949 0.236370 0.210270 0 200 255
0.441459 0.297753 0.242686 0 200 255
0.354137 0.195994 0.174617 0 200 255
0.438021 0.295392 0.218310 0 200 255
0.401907 0.352344 0.183520 0 200 255
0.392020 0.288361 0.210729 0 200 255
0.451372 0.222662 0.196862 0 200 255
0.397587 0.214008 0.200948 0 200 255
0.425869 0.285151 0.238657 0 200 255
0.417790 0.356516 0.195946 0 200 255
0.335985 0.324654 0.153590 0 200 255
0.407304 0.264560 0.200962 0 200 255
0.392604 0.198870 0.198865 0 200 255
0.390008 0.330250 0.179019 0 200 255
0.373358 0.191333 0.180852 0 200 255
0.448029 0.342636 0.213761 0 200 255
0.417838 0.316510 0.210567 0 200 255
0.489153 0.248435 0.213907 0 200 255
0.423831 0.334957 0.143798 0 200 255
0.370684 0.298663 0.218569 0 200 255
0.417131 0.353266 0.175518 0 200 255
0.454883 0.292084 0.244029 0 200 255
0.405518 0.270909 0.232962 0 200 255
0.427694 0.372815 0.170431 0 200 255
0.492087 0.244515 0.197037 0 200 255
0.350494 0.204948 0.162526 0 200 255
0.406545 0.201587 0.187884 0 200 255
0.422726 0.212446 0.203967 0 200 255
0.398692 0.320971 0.146204 0 200 255
0.391285 0.203227 0.169006 0 200 255
0.403203 0.207641 0.164258 0 200 255
0.409992 0.285404 0.221601 0 200 255
0.460537 0.262393 0.241723 0 200 255
0.414802 0.369961 0.160133 0 200 255
0.427725 0.254753 0.237445 0 200 255
0.473915 0.278918 0.197232 0 200 255
0.448978 0.259926 0.240292 0 200 255
0.417879 0.283750 0.232437 0 200 255
0.419394 0.198992 0.182559 0 200 255
0.412292 0.203583 0.200578 0 200 255
0.448815 0.273353 0.241651 0 200 255
0.427844 0.363203 0.147231 0 200 255
0.415240 0.332230 0.152881 0 200 255
0.426190 0.341019 0.162969 0 200 255
0.393027 0.187256 0.167995 0 200 255
0.414809 0.321949 0.192379 0 200 255
0.388954 0.210111 0.164613 0 200 255
0.336575 0.203033 0.168204 0 200 255
0.469444 0.295968 0.242466 0 200 255
0.414033 0.298121 0.217218 0 200 255
0.426006 0.326752 0.190371 0 200 255
0.470836 0.249162 0.239571 0 200 255
0.433453 0.306426 0.211326 0 200 255
0.394308 0.335058 0.133716 0 200 255
0.418559 0.220438 0.186085 0 200 255
0.410216 0.336411 0.162105 0 200 255
0.422925 0.204918 0.201717 0 200 255
0.364194 0.189084 0.187513 0 200 255
0.341766 0.314455 0.153726 0 200 255
0.424198 0.261061 0.196871 0 200 255
0.353777 0.213218 0.159398 0 200 255
0.375929 0.209081 0.167549 0 200 255
0.410338 0.341141 0.207067 0 200 255
0.450107 0.249191 0.239799 0 200 255
0.400337 0.266083 0.227905 0 200 255
0.438943 0.290540 0.202227 0 200 255
0.372078 0.287734 0.213346 0 200 255
0.428251 0.317585 0.210790 0 200 255
0.400616 0.318602 0.158259 0 200 255
0.390012 0.188559 0.189004 0 200 255
0.406132 0.282428 0.226612 0 200 255
0.418822 0.287500 0.243756 0 200 255
0.412196 0.194894 0.195006 0 200 255
0.395285 0.336061 0.160763 0 200 255
0.361793 0.294639 0.212033 0 200 255
0.442128 0.240921 0.230925 0 200 255
0.413361 0.347703 0.161702 0 200 255
0.394009 0.188078 0.180116 0 200 255
0.373741 0.296722 0.212602 0 200 255
0.431508 0.338490 0.204801 0 200 255
0.352055 0.298511 0.199252 0 200 255
0.419618 0.343487 0.181418 0 200 255
0.391822 0.295363 0.207944 0 200 255
0.403671 0.321006 0.166979 0 200 255
0.405971 0.336924 0.137038 0 200 255
0.409662 0.334800 0.193840 0 200 255
0.404171 0.275896 0.239703 0 200 255
0.353432 0.311677 0.200734 0 200 255
0.335250 0.197487 0.159213 0 200 255
0.390025 0.216841 0.187957 0 200 255
0.467616 0.300375 0.201560 0 200 255
0.428458 0.369545 0.187825 0 200 255
0.458316 0.225101 0.211902 0 200 255
0.426244 0.248680 0.200920 0 200 255
0.386353 0.190351 0.171613 0 200 255
0.436512 0.359616 0.189796 0 200 255
0.482046 0.251722 0.196539 0 200 255
0.401619 0.346087 0.180317 0 200 255
0.418387 0.367729 0.176423 0 200 255
0.443306 0.349671 0.201787 0 200 255
0.430321 0.308136 0.227098 0 200 255
0.347960 0.314946 0.191144 0 200 255
0.425815 0.275123 0.237744 0 200 255
0.419705 0.356398 0.202837 0 200 255
0.436553 0.243238 0.203205 0 200 255
0.404335 0.334236 0.157649 0 200 255
0.429515 0.342434 0.191240 0 200 255
0.429136 0.207183 0.199913 0 200 255
0.371768 0.306177 0.201562 0 200 255
0.492502 0.277003 0.232769 0 200 255
0.435713 0.252385 0.194789 0 200 255
0.427360 0.218254 0.197300 0 200 255
0.448434 0.233761 0.205392 0 200 255
0.349979 0.192585 0.182119 0 200 255
0.447249 0.274577 0.199016 0 200 255
0.414934 0.268888 0.230123 0 200 255
0.403637 0.308554 0.211506 0 200 255
0.355452 0.297958 0.184502 0 200 255
0.471776 0.229792 0.206440 0 200 255
0.408137 0.343972 0.191130 0 200 255
0.446810 0.311425 0.218765 0 200 255
0.380957 0.211297 0.171691 0 200 255
0.470033 0.221104 0.192596 0 200 255
0.393586 0.324840 0.184799 0 200 255
0.372104 0.303752 0.209865 0 200 255
0.500686 0.240694 0.223984 0 200 255
0.436729 0.281435 0.240336 0 200 255
0.429826 0.352712 0.182572 0 200 255
0.377802 0.199978 0.174869 0 200 255
0.414791 0.339976 0.173276 0 200 255
0.428089 0.309666 0.214310 0 200 255
0.469418 0.215839 0.206154 0 200 255
0.342740 0.198426 0.153365 0 200 255
0.357849 0.212884 0.177762 0 200 255
0.412866 0.274622 0.204775 0 200 255
0.387849 0.278963 0.214891 0 200 255
0.405347 0.320627 0.145061 0 200 255
0.442629 0.225756 0.201775 0 200 255
0.362319 0.294624 0.187786 0 200 255
0.490047 0.263819 0.198827 0 200 255
0.406757 0.347510 0.156346 0 200 255
0.406585 0.222621 0.197968 0 200 255
0.490363 0.275839 0.206029 0 200 255
0.402638 0.267922 0.204883 0 200 255
0.422402 0.243151 0.212066 0 200 255
0.424091 0.346207 0.152060 0 200 255
0.501679 0.235891 0.211792 0 200 255
0.402934 0.333012 0.173295 0 200 255
0.347857 0.313413 0.180574 0 200 255
0.469988 0.214548 0.195026 0 200 255
0.402242 0.220828 0.168194 0 200 255
0.424790 0.353093 0.187247 0 200 255
0.410480 0.327420 0.192487 0 200 255
0.484112 0.239258 0.208708 0 200 255
0.445089 0.314874 0.243943 0 200 255
0.412819 0.354629 0.162254 0 200 255
0.403236 0.202503 0.199353 0 200 255
0.373082 0.287950 0.199765 0 200 255
0.484086 0.298832 0.220366 0 200 255
0.350458 0.206276 0.174305 0 200 255
0.471115 0.238993 0.199897 0 200 255
0.481411 0.244731 0.236489 0 200 255
0.363421 0.307909 0.180547 0 200 255
0.327794 0.320983 0.162134 0 200 255
0.461237 0.277176 0.201595 0 200 255
0.403138 0.332776 0.197000 0 200 255
0.451408 0.305549 0.221359 0 200 255
0.441962 0.344740 0.192275 0 200 255
0.345875 0.321009 0.176903 0 200 255
0.399087 0.198398 0.174509 0 200 255
0.419782 0.266847 0.198110 0 200 255
0.497335 0.276050 0.204929 0 200 255
0.403936 0.269139 0.212536 0 200 255
0.413198 0.345254 0.154536 0 200 255
0.422353 0.334537 0.163388 0 200 255
0.430304 0.356601 0.204141 0 200 255
0.416724 0.344765 0.144679 0 200 255
0.406750 0.201406 0.179381 0 200 255
0.474863 0.225819 0.230653 0 200 255
0.433244 0.291689 0.239970 0 200 255
0.425359 0.263195 0.235416 0 200 255
0.423370 0.374809 0.149514 0 200 255
0.415211 0.208514 0.169855 0 200 255
0.481336 0.238838 0.232032 0 200 255
0.359036 0.198590 0.152609 0 200 255
0.407619 0.271548 0.201001 0 200 255
0.421137 0.222578 0.192318 0 200 255
0.330277 0.207581 0.167495 0 200 255
0.458549 0.245220 0.204675 0 200 255
0.344589 0.324158 0.162917 0 200 255
0.395366 0.337137 0.168476 0 200 255
0.411232 0.325344 0.206861 0 200 255
0.467815 0.228862 0.192794 0 200 255
0.349152 0.311969 0.169971 0 200 255
0.414358 0.196145 0.179362 0 200 255
0.466716 0.325699 0.230517 0 200 255
0.412679 0.246710 0.225315 0 200 255
0.483755 0.264083 0.235461 0 200 255
0.492816 0.290009 0.228119 0 200 255
0.366342 0.200643 0.171241 0 200 255
0.436663 0.230410 0.212589 0 200 255
0.418107 0.341535 0.166081 0 200 255
0.333778 0.312918 0.157020 0 200 255
0.394643 0.331262 0.155912 0 200 255
0.426665 0.360077 0.163583 0 200 255
0.392012 0.217124 0.175168 0 200 255
0.401609 0.341308 0.149928 0 200 255
0.464433 0.328037 0.218005 0 200 255
0.382069 0.197597 0.185646 0 200 255
0.392307 0.326350 0.167175 0 200 255
0.416986 0.257897 0.201959 0 200 255
0.414859 0.309998 0.191424 0 200 255
0.404756 0.326413 0.150634 0 200 255
0.486360 0.247639 0.199892 0 200 255
0.429899 0.330362 0.225896 0 200 255
0.401497 0.220917 0.181436 0 200 255
0.420069 0.373663 0.166904 0 200 255
0.409585 0.332691 0.141783 0 200 255
0.490875 0.242561 0.223636 0 200 255
0.421393 0.332474 0.156800 0 200 255
0.381746 0.295868 0.226823 0 200 255
0.399296 0.327789 0.188174 0 200 255
0.450000 0.339580 0.219837 0 200 255
0.414965 0.263764 0.239156 0 200 255
0.371095 0.201957 0.165084 0 200 255
0.469469 0.214646 0.215763 0 200 255
0.465315 0.257290 0.239016 0 200 255
0.342955 0.307780 0.175456 0 200 255
0.471146 0.216492 0.230120 0 200 255
0.434724 0.304273 0.237297 0 200 255
0.382856 0.196123 0.161824 0 200 255
0.418845 0.324857 0.225933 0 200 255
0.410176 0.340100 0.147693 0 200 255
0.413254 0.367251 0.166320 0 200 255
0.451703 0.243440 0.203542 0 200 255
0.415682 0.318617 0.217633 0 200 255
0.408035 0.349253 0.186536 0 200 255
0.334745 0.319451 0.173500 0 200 255
0.426311 0.336930 0.183744 0 200 255
0.405856 0.343599 0.176173 0 200 255
0.495635 0.234239 0.232471 0 200 255
0.369286 0.193324 0.188274 0 200 255
0.369309 0.199630 0.189933 0 200 255
0.476436 0.307251 0.208576 0 200 255
0.419038 0.206194 0.185257 0 200 255
