ply
format ascii 1.0
element vertex 1024
property float x
property float y
property float z
property uchar red
property uchar green
property uchar blue
end_header
0.497105 0.242413 0.284357 0 200 255
0.358538 0.383322 0.253026 0 200 255
0.354716 0.226225 0.204986 0 200 255
0.457176 0.336012 0.172312 0 200 255
0.493369 0.351441 0.274482 0 200 255
0.427121 0.296821 0.251027 0 200 255
0.448537 0.405667 0.223341 0 200 255
0.435031 0.219733 0.222792 0 200 255
0.519201 0.294398 0.247372 0 200 255
0.396061 0.341676 0.280481 0 200 255
0.473632 0.296601 0.288708 0 200 255
0.452624 0.347674 0.232364 0 200 255
0.464971 0.258448 0.243221 0 200 255
0.388004 0.215521 0.243040 0 200 255
0.505343 0.236610 0.237182 0 200 255
0.484408 0.380524 0.237016 0 200 255
0.477151 0.313473 0.247044 0 200 255
0.442725 0.266304 0.279603 0 200 255
0.445613 0.331099 0.270739 0 200 255
0.509828 0.314655 0.284818 0 200 255
0.417781 0.244236 0.250202 0 200 255
0.400960 0.234011 0.211635 0 200 255
0.455291 0.373137 0.261149 0 200 255
0.476840 0.220850 0.257435 0 200 255
0.523166 0.263601 0.268248 0 200 255
0.434511 0.300401 0.285611 0 200 255
0.475086 0.393221 0.205471 0 200 255
0.415770 0.330197 0.253796 0 200 255
0.376009 0.354149 0.256345 0 200 255
0.440010 0.343018 0.201456 0 200 255
0.506442 0.328821 0.250661 0 200 255
0.488648 0.282645 0.246518 0 200 255
0.498071 0.275849 0.284549 0 200 255
0.447471 0.235800 0.258400 0 200 255
0.374164 0.239608 0.227208 0 200 255
0.482500 0.349638 0.245056 0 200 255
0.456961 0.288217 0.248658 0 200 255
0.478205 0.328137 0.286010 0 200 255
0.470705 0.256690 0.285166 0 200 255
0.379707 0.211460 0.214696 0 200 255
0.448623 0.377205 0.231924 0 200 255
0.417616 0.215664 0.248360 0 200 255
0.407280 0.208104 0.223327 0 200 255
0.449497 0.320910 0.244928 0 200 255
0.416406 0.321004 0.280404 0 200 255
0.439123 0.264835 0.250874 0 200 255
0.523471 0.293165 0.275070 0 200 255
0.519438 0.236664 0.266705 0 200 255
0.465262 0.349480 0.272399 0 200 255
0.457448 0.307455 0.267650 0 200 255
0.512390 0.261853 0.244014 0 200 255
0.482705 0.372914 0.263223 0 200 255
0.442934 0.244643 0.224001 0 200 255
0.486019 0.245243 0.257026 0 200 255
0.472466 0.401546 0.229596 0 200 255
0.447611 0.326942 0.219525 0 200 255
0.350421 0.233108 0.228235 0 200 255
0.474268 0.286946 0.266147 0 200 255
0.400037 0.349578 0.255397 0 200 255
0.397690 0.237552 0.238151 0 200 255
0.418888 0.242041 0.226027 0 200 255
0.488989 0.317826 0.267420 0 200 255
0.467937 0.328411 0.263076 0 200 255
0.373348 0.373751 0.267942 0 200 255
0.497950 0.304493 0.244993 0 200 255
0.430896 0.280581 0.266440 0 200 255
0.508644 0.333831 0.272741 0 200 255
0.457889 0.318358 0.288074 0 200 255
0.367428 0.218413 0.232380 0 200 255
0.467135 0.364635 0.238106 0 200 255
0.450645 0.345855 0.254578 0 200 255
0.469644 0.236781 0.271253 0 200 255
0.430465 0.316528 0.263278 0 200 255
0.466373 0.236582 0.245529 0 200 255
0.466571 0.386950 0.248154 0 200 255
0.459429 0.334249 0.196263 0 200 255
0.434560 0.230920 0.241470 0 200 255
0.454484 0.287259 0.285720 0 200 255
0.486586 0.261901 0.241742 0 200 255
0.518291 0.313928 0.260368 0 200 255
0.447632 0.387161 0.213287 0 200 255
0.486391 0.227846 0.239827 0 200 255
0.466709 0.382076 0.221047 0 200 255
0.373116 0.235691 0.206788 0 200 255
0.459055 0.252749 0.261994 0 200 255
0.485115 0.224785 0.277124 0 200 255
0.450046 0.350442 0.184838 0 200 255
0.384641 0.358226 0.274776 0 200 255
0.494173 0.295628 0.287181 0 200 255
0.503688 0.250492 0.265482 0 200 255
0.397621 0.331049 0.263114 0 200 255
0.486645 0.336234 0.259726 0 200 255
0.418285 0.222675 0.213097 0 200 255
0.474261 0.275823 0.286496 0 200 255
0.509082 0.258294 0.282524 0 200 255
0.452878 0.351750 0.213108 0 200 255
0.391246 0.222872 0.225332 0 200 255
0.445520 0.248011 0.243505 0 200 255
0.461449 0.330526 0.232693 0 200 255
0.441315 0.296709 0.267281 0 200 255
0.524861 0.276348 0.250604 0 200 255
0.372727 0.371689 0.248083 0 200 255
0.470757 0.359574 0.257472 0 200 255
0.452648 0.395438 0.239087 0 200 255
0.352864 0.243332 0.212191 0 200 255
0.461187 0.405035 0.209718 0 200 255
0.413296 0.337239 0.272110 0 200 255
0.506187 0.279255 0.242181 0 200 255
0.441933 0.403266 0.206739 0 200 255
0.437568 0.282486 0.248444 0 200 255
0.490041 0.366017 0.245725 0 200 255
0.511470 0.232197 0.282674 0 200 255
0.472820 0.313503 0.274001 0 200 255
0.518207 0.244862 0.251082 0 200 255
0.447469 0.304049 0.252418 0 200 255
0.441825 0.337264 0.241955 0 200 255
0.466367 0.342700 0.247264 0 200 255
0.446060 0.382329 0.248808 0 200 255
0.416487 0.220660 0.231438 0 200 255
0.397320 0.215173 0.210730 0 200 255
0.444087 0.333958 0.185367 0 200 255
0.439477 0.343329 0.221772 0 200 255
0.437817 0.282473 0.283557 0 200 255
0.492497 0.259649 0.286646 0 200 255
0.451570 0.364449 0.245262 0 200 255
0.497125 0.348889 0.255073 0 200 255
0.424232 0.302339 0.270342 0 200 255
0.452478 0.270793 0.242195 0 200 255
0.359820 0.367278 0.258391 0 200 255
0.493063 0.312678 0.286441 0 200 255
0.387176 0.344178 0.265667 0 200 255
0.454463 0.254170 0.279717 0 200 255
0.403119 0.224356 0.247150 0 200 255
0.413760 0.315817 0.262413 0 200 255
0.473451 0.260032 0.257550 0 200 255
0.514426 0.274891 0.281270 0 200 255
0.443170 0.315115 0.281124 0 200 255
0.442876 0.255667 0.266943 0 200 255
0.492426 0.334963 0.275699 0 200 255
0.446573 0.228727 0.230339 0 200 255
0.471507 0.282608 0.243454 0 200 255
0.492649 0.320524 0.247493 0 200 255
0.364289 0.217811 0.215309 0 200 255
0.498587 0.251333 0.245309 0 200 255
0.440510 0.390732 0.227554 0 200 255
0.463312 0.302903 0.245982 0 200 255
0.442741 0.343228 0.172098 0 200 255
0.433644 0.244546 0.253866 0 200 255
0.403005 0.209412 0.238763 0 200 255
0.379337 0.228020 0.238474 0 200 255
0.509605 0.294104 0.282702 0 200 255
0.385610 0.226077 0.208167 0 200 255
0.483458 0.298237 0.245155 0 200 255
0.429624 0.234544 0.217309 0 200 255
0.480772 0.388788 0.223160 0 200 255
0.457831 0.336135 0.212002 0 200 255
0.430248 0.245559 0.238233 0 200 255
0.389059 0.361990 0.259347 0 200 255
0.450442 0.320349 0.260757 0 200 255
0.457569 0.272482 0.282462 0 200 255
0.428123 0.226561 0.254812 0 200 255
0.369952 0.358878 0.270128 0 200 255
0.456171 0.357878 0.263010 0 200 255
0.481050 0.384628 0.252811 0 200 255
0.477516 0.336796 0.272400 0 200 255
0.479847 0.357164 0.270005 0 200 255
0.462793 0.327798 0.248132 0 200 255
0.380329 0.210200 0.229924 0 200 255
0.459882 0.301394 0.283684 0 200 255
0.526059 0.278209 0.271264 0 200 255
0.519764 0.307915 0.274215 0 200 255
0.512043 0.309623 0.247279 0 200 255
0.483033 0.247506 0.285111 0 200 255
0.460388 0.395618 0.221944 0 200 255
0.450380 0.233899 0.243866 0 200 255
0.402622 0.328417 0.277681 0 200 255
0.478266 0.393495 0.240976 0 200 255
0.479469 0.242823 0.242187 0 200 255
0.468931 0.379102 0.235617 0 200 255
0.469714 0.372598 0.250591 0 200 255
0.344626 0.230658 0.214895 0 200 255
0.478195 0.313697 0.288731 0 200 255
0.442632 0.333673 0.256204 0 200 255
0.513596 0.269437 0.256642 0 200 255
0.360611 0.232261 0.217388 0 200 255
0.428746 0.215989 0.237546 0 200 255
0.471711 0.243405 0.257703 0 200 255
0.455647 0.347877 0.199188 0 200 255
0.405131 0.222848 0.221460 0 200 255
0.476422 0.346120 0.258397 0 200 255
0.482577 0.266674 0.279282 0 200 255
0.523125 0.300636 0.261750 0 200 255
0.491916 0.360841 0.263537 0 200 255
0.399239 0.350626 0.270003 0 200 255
0.512693 0.320344 0.271616 0 200 255
0.422712 0.327006 0.268614 0 200 255
0.375750 0.224168 0.222584 0 200 255
0.457398 0.337457 0.264915 0 200 255
0.475076 0.403117 0.215363 0 200 255
0.456448 0.240982 0.271595 0 200 255
0.504036 0.292337 0.247200 0 200 255
0.492397 0.239917 0.267828 0 200 255
0.500275 0.336008 0.262214 0 200 255
0.515438 0.255817 0.260196 0 200 255
0.415704 0.230342 0.250770 0 200 255
0.404496 0.237999 0.226395 0 200 255
0.442436 0.310232 0.268471 0 200 255
0.457225 0.245606 0.249900 0 200 255
0.411394 0.241879 0.238531 0 200 255
0.486565 0.284498 0.287961 0 200 255
0.422611 0.213059 0.221314 0 200 255
0.414648 0.235474 0.214199 0 200 255
0.501866 0.330749 0.284066 0 200 255
0.445999 0.332513 0.207183 0 200 255
0.457815 0.352161 0.243895 0 200 255
0.422725 0.307779 0.256875 0 200 255
0.446606 0.325807 0.233059 0 200 255
0.480221 0.366991 0.237040 0 200 255
0.499974 0.266066 0.244660 0 200 255
0.403422 0.337116 0.253113 0 200 255
0.446252 0.301564 0.278326 0 200 255
0.437511 0.399711 0.218405 0 200 255
0.462943 0.391534 0.209600 0 200 255
0.481841 0.231448 0.251387 0 200 255
0.477614 0.326243 0.254777 0 200 255
0.459140 0.340322 0.184861 0 200 255
0.524616 0.287820 0.262455 0 200 255
0.435993 0.268752 0.266991 0 200 255
0.365811 0.232215 0.233538 0 200 255
0.372198 0.223386 0.203303 0 200 255
0.436387 0.310287 0.253845 0 200 255
0.465052 0.244547 0.280305 0 200 255
0.461447 0.314854 0.249980 0 200 255
0.394213 0.225339 0.237631 0 200 255
0.434512 0.235038 0.229015 0 200 255
0.459285 0.327010 0.272251 0 200 255
0.460535 0.237776 0.259675 0 200 255
0.514616 0.243141 0.277133 0 200 255
0.463747 0.391297 0.234760 0 200 255
0.483405 0.237880 0.276408 0 200 255
0.457598 0.380802 0.240797 0 200 255
0.357517 0.222450 0.225808 0 200 255
0.362581 0.378973 0.264201 0 200 255
0.447477 0.249499 0.256606 0 200 255
0.454419 0.348099 0.173073 0 200 255
0.361372 0.241186 0.226220 0 200 255
0.381208 0.235179 0.218050 0 200 255
0.431088 0.292932 0.276453 0 200 255
0.432127 0.310139 0.275439 0 200 255
0.380017 0.370621 0.258206 0 200 255
0.393140 0.211156 0.222560 0 200 255
0.484921 0.345563 0.267360 0 200 255
0.469358 0.402914 0.200834 0 200 255
0.439965 0.344785 0.189415 0 200 255
0.457369 0.341942 0.222744 0 200 255
0.408332 0.343029 0.262522 0 200 255
0.490268 0.328127 0.287340 0 200 255
0.439993 0.227512 0.251732 0 200 255
0.498424 0.242817 0.257767 0 200 255
0.481294 0.322120 0.275659 0 200 255
0.471674 0.354475 0.242883 0 200 255
0.494081 0.236665 0.242683 0 200 255
0.496215 0.225080 0.281721 0 200 255
0.405302 0.324701 0.255945 0 200 255
0.438687 0.295292 0.255644 0 200 255
0.453003 0.388584 0.228281 0 200 255
0.446420 0.352935 0.223472 0 200 255
0.361058 0.236356 0.205449 0 200 255
0.472868 0.311462 0.262225 0 200 255
0.423582 0.224911 0.243573 0 200 255
0.514359 0.254755 0.272011 0 200 255
0.468033 0.324786 0.280807 0 200 255
0.385933 0.348009 0.254598 0 200 255
0.410026 0.214374 0.211830 0 200 255
0.467465 0.310526 0.284035 0 200 255
0.439578 0.221478 0.236315 0 200 255
0.364855 0.242801 0.214452 0 200 255
0.456964 0.382230 0.252847 0 200 255
0.457662 0.370194 0.234293 0 200 255
0.473259 0.300864 0.251628 0 200 255
0.441245 0.345529 0.233020 0 200 255
0.408667 0.320681 0.271523 0 200 255
0.441959 0.348482 0.211550 0 200 255
0.468656 0.269091 0.245536 0 200 255
0.406528 0.237196 0.247830 0 200 255
0.455606 0.335618 0.253028 0 200 255
0.447012 0.348303 0.243940 0 200 255
0.419698 0.312626 0.272623 0 200 255
0.503530 0.305250 0.286567 0 200 255
0.465531 0.284469 0.286416 0 200 255
0.466274 0.359997 0.267961 0 200 255
0.377297 0.349627 0.267308 0 200 255
0.394751 0.233152 0.221945 0 200 255
0.449380 0.329003 0.195400 0 200 255
0.449079 0.307956 0.287684 0 200 255
0.477883 0.248979 0.265425 0 200 255
0.473455 0.378440 0.259686 0 200 255
0.347762 0.235141 0.204637 0 200 255
0.414022 0.210735 0.236267 0 200 255
0.506801 0.243709 0.246769 0 200 255
0.458371 0.329792 0.221388 0 200 255
0.448019 0.277926 0.285093 0 200 255
0.391857 0.335911 0.271722 0 200 255
0.436054 0.274029 0.256613 0 200 255
0.507657 0.326467 0.261597 0 200 255
0.501798 0.285717 0.280645 0 200 255
0.359627 0.372385 0.248376 0 200 255
0.446578 0.332864 0.174310 0 200 255
0.473865 0.229789 0.263537 0 200 255
0.444827 0.386134 0.238349 0 200 255
0.369090 0.361320 0.250078 0 200 255
0.371203 0.378681 0.257110 0 200 255
0.451277 0.397548 0.211539 0 200 255
0.457555 0.340481 0.240888 0 200 255
0.385507 0.345696 0.276531 0 200 255
0.392565 0.337868 0.255206 0 200 255
0.486217 0.374653 0.251437 0 200 255
0.404550 0.217266 0.230935 0 200 255
0.379409 0.363723 0.266768 0 200 255
0.467440 0.340341 0.260998 0 200 255
0.517586 0.283141 0.246036 0 200 255
0.486273 0.303114 0.288350 0 200 255
0.487944 0.328914 0.267744 0 200 255
0.429936 0.224859 0.230976 0 200 255
0.433734 0.305028 0.263036 0 200 255
0.474927 0.385234 0.214599 0 200 255
0.461252 0.316977 0.276066 0 200 255
0.493865 0.354366 0.246248 0 200 255
0.503463 0.249441 0.279106 0 200 255
0.428986 0.291089 0.264705 0 200 255
0.451477 0.315558 0.271581 0 200 255
0.448193 0.280662 0.248067 0 200 255
0.486375 0.272167 0.245517 0 200 255
0.483396 0.316399 0.258344 0 200 255
0.474109 0.251917 0.244230 0 200 255
0.432804 0.220448 0.246815 0 200 255
0.375576 0.215881 0.238905 0 200 255
0.452225 0.380904 0.220707 0 200 255
0.448382 0.296728 0.244644 0 200 255
0.406578 0.225117 0.209951 0 200 255
0.466679 0.251785 0.253468 0 200 255
0.373053 0.213322 0.222790 0 200 255
0.448411 0.371603 0.252472 0 200 255
0.448754 0.339600 0.195054 0 200 255
0.429943 0.285336 0.255263 0 200 255
0.499531 0.342372 0.270674 0 200 255
0.441322 0.291993 0.286612 0 200 255
0.457563 0.260697 0.250432 0 200 255
0.380995 0.362637 0.251362 0 200 255
0.464647 0.368423 0.259906 0 200 255
0.510813 0.252420 0.251160 0 200 255
0.476014 0.286210 0.287018 0 200 255
0.454080 0.330153 0.186038 0 200 255
0.431605 0.244384 0.225165 0 200 255
0.491144 0.326511 0.256004 0 200 255
0.474569 0.389568 0.231950 0 200 255
0.501675 0.265178 0.285355 0 200 255
0.497837 0.325982 0.275293 0 200 255
0.440928 0.237856 0.246105 0 200 255
0.468274 0.266814 0.286316 0 200 255
0.475470 0.347319 0.272096 0 200 255
0.511303 0.319512 0.254732 0 200 255
0.517104 0.263531 0.278423 0 200 255
0.442744 0.335019 0.230158 0 200 255
0.520729 0.304223 0.252317 0 200 255
0.476878 0.290576 0.247523 0 200 255
0.425667 0.236364 0.252515 0 200 255
0.458222 0.347709 0.263695 0 200 255
0.480983 0.363502 0.259268 0 200 255
0.439428 0.228969 0.221220 0 200 255
0.426232 0.321825 0.276842 0 200 255
0.495569 0.311863 0.252313 0 200 255
0.470579 0.318679 0.254669 0 200 255
0.459271 0.371322 0.245051 0 200 255
0.353222 0.225109 0.216183 0 200 255
0.448370 0.337065 0.221580 0 200 255
0.395377 0.225406 0.211904 0 200 255
0.447551 0.373262 0.241335 0 200 255
0.367980 0.227550 0.212092 0 200 255
0.401722 0.339659 0.272242 0 200 255
0.383694 0.220492 0.217201 0 200 255
0.447133 0.409062 0.213284 0 200 255
0.354358 0.376021 0.258698 0 200 255
0.493269 0.297781 0.250954 0 200 255
0.384152 0.229969 0.226640 0 200 255
0.467333 0.292693 0.250924 0 200 255
0.457213 0.323617 0.238682 0 200 255
0.427944 0.222909 0.216375 0 200 255
0.411312 0.221294 0.242169 0 200 255
0.513179 0.236469 0.243490 0 200 255
0.384572 0.215470 0.206865 0 200 255
0.488393 0.344285 0.253245 0 200 255
0.365441 0.367581 0.267532 0 200 255
0.446540 0.350598 0.195976 0 200 255
0.448901 0.397884 0.230119 0 200 255
0.473798 0.363141 0.248621 0 200 255
0.386318 0.220115 0.234305 0 200 255
0.519842 0.245856 0.262759 0 200 255
0.489750 0.247282 0.247697 0 200 255
0.392571 0.353091 0.262997 0 200 255
0.479129 0.374631 0.243354 0 200 255
0.485948 0.274702 0.286396 0 200 255
0.420086 0.323247 0.259828 0 200 255
0.454750 0.356608 0.252169 0 200 255
0.350038 0.240920 0.222206 0 200 255
0.472062 0.352545 0.264486 0 200 255
0.452615 0.326260 0.252750 0 200 255
0.524182 0.270736 0.261584 0 200 255
0.444826 0.329162 0.247457 0 200 255
0.418178 0.333661 0.263013 0 200 255
0.448866 0.246699 0.269181 0 200 255
0.498786 0.284003 0.246467 0 200 255
0.500802 0.233423 0.285427 0 200 255
0.460571 0.261714 0.280869 0 200 255
0.476694 0.274713 0.245948 0 200 255
0.413026 0.330029 0.279008 0 200 255
0.397249 0.216660 0.246150 0 200 255
0.441511 0.338002 0.213843 0 200 255
0.484026 0.237223 0.263675 0 200 255
0.508863 0.300718 0.245041 0 200 255
0.392370 0.352519 0.277241 0 200 255
0.464282 0.339832 0.272249 0 200 255
0.493772 0.348555 0.264767 0 200 255
0.517036 0.287345 0.279389 0 200 255
0.484146 0.358260 0.240961 0 200 255
0.475133 0.261732 0.248178 0 200 255
0.449469 0.338576 0.166954 0 200 255
0.481590 0.256931 0.286611 0 200 255
0.491961 0.361056 0.253890 0 200 255
0.484417 0.305244 0.251714 0 200 255
0.514439 0.271159 0.242534 0 200 255
0.367992 0.361051 0.260916 0 200 255
0.524786 0.287691 0.251418 0 200 255
0.500113 0.319135 0.287332 0 200 255
0.443965 0.264907 0.259158 0 200 255
0.505537 0.316673 0.247253 0 200 255
0.513665 0.306337 0.281995 0 200 255
0.491246 0.281226 0.280267 0 200 255
0.445789 0.264286 0.270751 0 200 255
0.437108 0.295441 0.246196 0 200 255
0.367551 0.228853 0.224199 0 200 255
0.477278 0.228374 0.273022 0 200 255
0.455657 0.365602 0.255326 0 200 255
0.372656 0.216462 0.210734 0 200 255
0.499633 0.244600 0.238691 0 200 255
0.441958 0.274447 0.244502 0 200 255
0.458936 0.327228 0.260287 0 200 255
0.454580 0.389208 0.245986 0 200 255
0.474829 0.304633 0.282971 0 200 255
0.433179 0.309797 0.285576 0 200 255
0.413783 0.219129 0.222424 0 200 255
0.457481 0.380739 0.231060 0 200 255
0.494643 0.275389 0.242266 0 200 255
0.400222 0.207191 0.229519 0 200 255
0.436201 0.248093 0.245528 0 200 255
0.443705 0.292790 0.275489 0 200 255
0.441367 0.393609 0.210551 0 200 255
0.444234 0.341595 0.260989 0 200 255
0.466839 0.247889 0.264351 0 200 255
0.477876 0.353379 0.252299 0 200 255
0.493701 0.269855 0.278867 0 200 255
0.483843 0.294224 0.286812 0 200 255
0.481871 0.225285 0.265054 0 200 255
0.467041 0.402669 0.222127 0 200 255
0.433845 0.277511 0.274700 0 200 255
0.398007 0.232038 0.246350 0 200 255
0.435655 0.301305 0.276484 0 200 255
0.434579 0.234310 0.254799 0 200 255
0.409107 0.213061 0.245984 0 200 255
0.388646 0.209427 0.214178 0 200 255
0.456413 0.304745 0.258981 0 200 255
0.407333 0.337887 0.279230 0 200 255
0.424768 0.242202 0.218390 0 200 255
0.449027 0.338800 0.247561 0 200 255
0.426492 0.245739 0.247935 0 200 255
0.446138 0.302465 0.262112 0 200 255
0.487903 0.230819 0.283353 0 200 255
0.443736 0.384165 0.221220 0 200 255
0.467942 0.390166 0.225024 0 200 255
0.427305 0.317029 0.254761 0 200 255
0.477111 0.397093 0.222810 0 200 255
0.365987 0.379961 0.249074 0 200 255
0.442530 0.346587 0.180903 0 200 255
0.472258 0.243188 0.247657 0 200 255
0.398291 0.229937 0.229636 0 200 255
0.422640 0.221780 0.223709 0 200 255
0.484134 0.350267 0.275039 0 200 255
0.458407 0.338995 0.231847 0 200 255
0.468044 0.318688 0.268359 0 200 255
0.452801 0.252989 0.245399 0 200 255
0.454830 0.343629 0.207978 0 200 255
0.422787 0.214313 0.230389 0 200 255
0.456272 0.390748 0.215580 0 200 255
0.507440 0.324668 0.277480 0 200 255
0.460984 0.373831 0.253496 0 200 255
0.376054 0.231117 0.230299 0 200 255
0.495032 0.251193 0.285257 0 200 255
0.451410 0.262564 0.279499 0 200 255
0.474874 0.368574 0.263330 0 200 255
0.453414 0.243112 0.259359 0 200 255
0.345049 0.239623 0.214261 0 200 255
0.442176 0.242091 0.253853 0 200 255
0.477678 0.337666 0.255998 0 200 255
0.459940 0.344392 0.253148 0 200 255
0.471472 0.319462 0.288186 0 200 255
0.456890 0.358816 0.238106 0 200 255
0.479491 0.329753 0.265198 0 200 255
0.477794 0.264920 0.287251 0 200 255
0.480217 0.384755 0.243584 0 200 255
0.373109 0.240928 0.217082 0 200 255
0.448948 0.311725 0.262086 0 200 255
0.390265 0.360072 0.268199 0 200 255
0.377309 0.224027 0.210493 0 200 255
0.475344 0.343908 0.249918 0 200 255
0.455643 0.307265 0.246229 0 200 255
0.455080 0.325533 0.228354 0 200 255
0.482780 0.252442 0.245630 0 200 255
0.499385 0.320788 0.253131 0 200 255
0.520795 0.272319 0.275793 0 200 255
0.363274 0.220904 0.207151 0 200 255
0.358250 0.227793 0.232730 0 200 255
0.470582 0.406820 0.208590 0 200 255
0.449573 0.257503 0.261588 0 200 255
0.458600 0.236992 0.250746 0 200 255
0.456175 0.347514 0.190453 0 200 255
0.478728 0.371811 0.254971 0 200 255
0.394361 0.217761 0.231768 0 200 255
0.473405 0.381282 0.250191 0 200 255
0.461158 0.268042 0.241165 0 200 255
0.363016 0.228708 0.201715 0 200 255
0.474090 0.391376 0.248365 0 200 255
0.482476 0.365264 0.268151 0 200 255
0.485924 0.337332 0.270193 0 200 255
0.482788 0.321140 0.288431 0 200 255
0.444018 0.235880 0.223845 0 200 255
0.421688 0.239761 0.233943 0 200 255
0.489955 0.243562 0.239395 0 200 255
0.521889 0.279005 0.263707 0 200 255
0.434751 0.317324 0.270764 0 200 255
0.446571 0.328102 0.261538 0 200 255
0.488499 0.367764 0.258767 0 200 255
0.364976 0.218136 0.224095 0 200 255
0.474782 0.372960 0.233955 0 200 255
0.480640 0.275254 0.279600 0 200 255
0.411171 0.236510 0.231766 0 200 255
0.388430 0.230800 0.241001 0 200 255
0.453013 0.335565 0.203243 0 200 255
0.511819 0.247706 0.265809 0 200 255
0.486347 0.265774 0.287484 0 200 255
0.457383 0.277838 0.242209 0 200 255
0.440603 0.399308 0.227187 0 200 255
0.441589 0.340939 0.251267 0 200 255
0.384173 0.208943 0.222366 0 200 255
0.412753 0.320689 0.254599 0 200 255
0.467513 0.329372 0.272554 0 200 255
0.432029 0.302966 0.254590 0 200 255
0.411390 0.239354 0.221087 0 200 255
0.487227 0.371376 0.239204 0 200 255
0.516826 0.298611 0.280216 0 200 255
0.478577 0.394098 0.213208 0 200 255
0.465710 0.395315 0.202137 0 200 255
0.373366 0.231836 0.217873 0 200 255
0.513814 0.234381 0.272685 0 200 255
0.432601 0.297417 0.269121 0 200 255
0.495699 0.286152 0.286540 0 200 255
0.462883 0.250430 0.245043 0 200 255
0.387375 0.229408 0.217318 0 200 255
0.371211 0.225924 0.237347 0 200 255
0.467655 0.303385 0.288578 0 200 255
0.474241 0.383819 0.225226 0 200 255
0.465327 0.308038 0.263956 0 200 255
0.403060 0.325539 0.267457 0 200 255
0.443905 0.394163 0.235853 0 200 255
0.376826 0.362655 0.258802 0 200 255
0.449166 0.351349 0.205540 0 200 255
0.428467 0.324166 0.259942 0 200 255
0.502295 0.253073 0.257579 0 200 255
0.465142 0.292877 0.286863 0 200 255
0.438309 0.314433 0.261033 0 200 255
0.451963 0.313661 0.282201 0 200 255
0.395790 0.345360 0.262117 0 200 255
0.380952 0.232990 0.209297 0 200 255
0.420615 0.244431 0.242071 0 200 255
0.479829 0.255225 0.260093 0 200 255
0.447949 0.304222 0.270337 0 200 255
0.466631 0.260435 0.251169 0 200 255
0.352734 0.231986 0.211461 0 200 255
0.471964 0.309932 0.252554 0 200 255
0.482175 0.386085 0.231207 0 200 255
0.456451 0.268926 0.251157 0 200 255
0.487074 0.353473 0.265193 0 200 255
0.400647 0.211845 0.219068 0 200 255
0.504078 0.228703 0.279426 0 200 255
0.459135 0.385153 0.222462 0 200 255
0.471116 0.272639 0.279515 0 200 255
0.452102 0.241933 0.242810 0 200 255
0.446894 0.323147 0.268169 0 200 255
0.443464 0.230285 0.241121 0 200 255
0.437703 0.241986 0.238519 0 200 255
0.440351 0.391835 0.218551 0 200 255
0.437857 0.225985 0.228939 0 200 255
0.478920 0.246162 0.252974 0 200 255
0.521497 0.260307 0.256922 0 200 255
0.398732 0.217933 0.224807 0 200 255
0.400609 0.217271 0.238561 0 200 255
0.509812 0.285769 0.246440 0 200 255
0.453843 0.349499 0.224448 0 200 255
0.470048 0.373042 0.241048 0 200 255
0.509883 0.284036 0.281690 0 200 255
0.448404 0.346780 0.218414 0 200 255
0.456603 0.395171 0.231898 0 200 255
0.449667 0.341513 0.238956 0 200 255
0.478486 0.341031 0.265135 0 200 255
0.508735 0.268754 0.283346 0 200 255
0.493015 0.338362 0.265097 0 200 255
0.358091 0.243759 0.218899 0 200 255
0.447574 0.287524 0.243712 0 200 255
0.507507 0.246586 0.258989 0 200 255
0.418072 0.320573 0.271988 0 200 255
0.470142 0.394261 0.238819 0 200 255
0.463582 0.353635 0.262224 0 200 255
0.425250 0.216792 0.245825 0 200 255
0.453112 0.300012 0.287917 0 200 255
0.455369 0.387840 0.237483 0 200 255
0.454447 0.344774 0.247128 0 200 255
0.428534 0.299250 0.260853 0 200 255
0.497610 0.296078 0.244080 0 200 255
0.449991 0.325926 0.275109 0 200 255
0.488556 0.357459 0.272110 0 200 255
0.489685 0.320827 0.283969 0 200 255
0.452082 0.334942 0.179801 0 200 255
0.507596 0.243200 0.282046 0 200 255
0.464480 0.356890 0.239937 0 200 255
0.414980 0.210045 0.224584 0 200 255
0.383247 0.221185 0.226953 0 200 255
0.491185 0.254063 0.243627 0 200 255
0.441979 0.305027 0.285317 0 200 255
0.452780 0.403514 0.216682 0 200 255
0.507121 0.268062 0.241488 0 200 255
0.457214 0.366116 0.264495 0 200 255
0.520684 0.280300 0.278286 0 200 255
0.467365 0.401318 0.214214 0 200 255
0.440534 0.309305 0.276185 0 200 255
0.464425 0.397884 0.230291 0 200 255
0.420890 0.214688 0.238165 0 200 255
0.499774 0.334226 0.269983 0 200 255
0.493994 0.228368 0.242216 0 200 255
0.466024 0.385670 0.239942 0 200 255
0.443368 0.334485 0.197963 0 200 255
0.471534 0.240033 0.279223 0 200 255
0.463862 0.275579 0.246269 0 200 255
0.414452 0.222612 0.252242 0 200 255
0.463482 0.336505 0.253810 0 200 255
0.520015 0.291797 0.256296 0 200 255
0.456638 0.252674 0.253505 0 200 255
0.439544 0.406699 0.213534 0 200 255
0.517127 0.305339 0.264021 0 200 255
0.465706 0.382374 0.229130 0 200 255
0.451128 0.239510 0.251749 0 200 255
0.458041 0.342233 0.177226 0 200 255
0.419373 0.229687 0.216903 0 200 255
0.348077 0.228946 0.221837 0 200 255
0.499036 0.244249 0.268137 0 200 255
0.398077 0.330909 0.271680 0 200 255
0.484605 0.327689 0.280222 0 200 255
0.447956 0.252443 0.274557 0 200 255
0.392890 0.343748 0.272150 0 200 255
0.478422 0.356497 0.261911 0 200 255
0.416004 0.211960 0.216977 0 200 255
0.402939 0.219707 0.214431 0 200 255
0.469463 0.344279 0.267550 0 200 255
0.517893 0.315237 0.268153 0 200 255
0.394497 0.224947 0.245521 0 200 255
0.474716 0.235943 0.258660 0 200 255
0.366066 0.368321 0.252104 0 200 255
0.482398 0.319346 0.247522 0 200 255
0.422099 0.307726 0.264737 0 200 255
0.442725 0.338198 0.178864 0 200 255
0.497321 0.334594 0.255045 0 200 255
0.391582 0.354193 0.255257 0 200 255
0.443873 0.309865 0.256369 0 200 255
0.443293 0.383821 0.230997 0 200 255
0.452447 0.330025 0.214178 0 200 255
0.479171 0.225299 0.247321 0 200 255
0.447886 0.231701 0.250965 0 200 255
0.429297 0.238015 0.234638 0 200 255
0.467445 0.385573 0.212300 0 200 255
0.451509 0.338932 0.259896 0 200 255
0.391566 0.219647 0.207894 0 200 255
0.446354 0.259910 0.253640 0 200 255
0.448732 0.293147 0.284410 0 200 255
0.433486 0.217542 0.230130 0 200 255
0.380951 0.349546 0.260419 0 200 255
0.462829 0.320700 0.258544 0 200 255
0.426244 0.301681 0.277846 0 200 255
0.411797 0.339294 0.256620 0 200 255
0.481734 0.379063 0.258212 0 200 255
0.436465 0.303114 0.248200 0 200 255
0.516140 0.315515 0.276634 0 200 255
0.432323 0.285495 0.274581 0 200 255
0.466169 0.255862 0.261910 0 200 255
0.485579 0.324602 0.261743 0 200 255
0.466552 0.275577 0.287144 0 200 255
0.458048 0.280627 0.283970 0 200 255
0.456101 0.296970 0.244824 0 200 255
0.502145 0.238379 0.279471 0 200 255
0.476078 0.250421 0.283527 0 200 255
0.420363 0.329540 0.276734 0 200 255
0.509206 0.249103 0.274016 0 200 255
0.453951 0.399144 0.224191 0 200 255
0.441755 0.275487 0.281399 0 200 255
0.402584 0.235331 0.219011 0 200 255
0.475875 0.360738 0.241512 0 200 255
0.483509 0.343571 0.259934 0 200 255
0.401886 0.345571 0.277115 0 200 255
0.378387 0.356995 0.270280 0 200 255
0.467928 0.366881 0.245447 0 200 255
0.393183 0.345588 0.254880 0 200 255
0.477168 0.396744 0.233242 0 200 255
0.463227 0.293449 0.244523 0 200 255
0.423744 0.220481 0.252339 0 200 255
0.405831 0.344629 0.255081 0 200 255
0.444992 0.285585 0.284705 0 200 255
0.467408 0.234944 0.264200 0 200 255
0.497492 0.259644 0.241407 0 200 255
0.430764 0.235140 0.246997 0 200 255
0.449934 0.344830 0.178279 0 200 255
0.462283 0.375476 0.237227 0 200 255
0.499886 0.342162 0.257302 0 200 255
0.412626 0.327149 0.271981 0 200 255
0.412942 0.316066 0.275766 0 200 255
0.494319 0.303196 0.287606 0 200 255
0.381297 0.219862 0.241882 0 200 255
0.365974 0.235082 0.212848 0 200 255
0.446829 0.344144 0.225313 0 200 255
0.373061 0.365785 0.270295 0 200 255
0.514529 0.243303 0.258054 0 200 255
0.520681 0.275637 0.244371 0 200 255
0.354633 0.233888 0.201808 0 200 255
0.460134 0.397479 0.213272 0 200 255
0.464293 0.284772 0.243442 0 200 255
0.454501 0.336501 0.190033 0 200 255
0.511081 0.327071 0.268249 0 200 255
0.357764 0.235812 0.230015 0 200 255
0.471746 0.367457 0.255664 0 200 255
0.429643 0.322400 0.267870 0 200 255
0.407645 0.321556 0.263073 0 200 255
0.460496 0.333602 0.240677 0 200 255
0.474843 0.401100 0.206323 0 200 255
0.441837 0.249159 0.251423 0 200 255
0.500982 0.297537 0.284745 0 200 255
0.460825 0.311487 0.288152 0 200 255
0.397622 0.334585 0.278744 0 200 255
0.414502 0.237611 0.249222 0 200 255
0.461561 0.321989 0.266723 0 200 255
0.431547 0.293482 0.256805 0 200 255
0.478890 0.349933 0.265922 0 200 255
0.453465 0.318324 0.254259 0 200 255
0.372557 0.355775 0.263512 0 200 255
0.459105 0.339769 0.202497 0 200 255
0.388988 0.228487 0.233377 0 200 255
0.493256 0.320477 0.259800 0 200 255
0.373583 0.213469 0.232164 0 200 255
0.460766 0.378474 0.247102 0 200 255
0.479313 0.256893 0.251963 0 200 255
0.482042 0.286473 0.244128 0 200 255
0.463646 0.361011 0.259015 0 200 255
0.449606 0.388671 0.220271 0 200 255
0.466190 0.241686 0.251636 0 200 255
0.478083 0.313168 0.267193 0 200 255
0.487317 0.313758 0.252653 0 200 255
0.468467 0.379730 0.243770 0 200 255
0.525800 0.285568 0.270702 0 200 255
0.402963 0.348157 0.262007 0 200 255
0.368876 0.223671 0.219139 0 200 255
0.392296 0.336012 0.264100 0 200 255
0.468639 0.314142 0.247545 0 200 255
0.455943 0.348063 0.181153 0 200 255
0.368633 0.372184 0.262550 0 200 255
0.408350 0.342367 0.270376 0 200 255
0.485794 0.309785 0.246125 0 200 255
0.441504 0.344901 0.240496 0 200 255
0.477214 0.236092 0.266137 0 200 255
0.444707 0.241288 0.240562 0 200 255
0.383502 0.213996 0.237189 0 200 255
0.491047 0.324491 0.277775 0 200 255
0.404665 0.239673 0.236668 0 200 255
0.387836 0.216361 0.223912 0 200 255
0.431933 0.227322 0.220638 0 200 255
0.407479 0.208475 0.230631 0 200 255
0.465575 0.334204 0.267421 0 200 255
0.430504 0.227367 0.247244 0 200 255
0.475535 0.237399 0.250669 0 200 255
0.381499 0.351647 0.275169 0 200 255
0.398590 0.331330 0.255885 0 200 255
0.378105 0.223856 0.231378 0 200 255
0.438953 0.223856 0.244890 0 200 255
0.493230 0.247426 0.259978 0 200 255
0.364759 0.382073 0.257039 0 200 255
0.503625 0.256437 0.243635 0 200 255
0.475224 0.266697 0.278848 0 200 255
0.443987 0.331672 0.237871 0 200 255
0.447710 0.338960 0.210200 0 200 255
0.435426 0.236125 0.221908 0 200 255
0.457316 0.342527 0.215377 0 200 255
0.424048 0.223260 0.234877 0 200 255
0.407543 0.214746 0.218610 0 200 255
0.426152 0.243986 0.229887 0 200 255
0.488015 0.238665 0.254812 0 200 255
0.449896 0.247736 0.250036 0 200 255
0.471161 0.340574 0.254760 0 200 255
0.405999 0.333855 0.272095 0 200 255
0.358600 0.221514 0.212609 0 200 255
0.358574 0.372980 0.264138 0 200 255
0.382610 0.358369 0.258559 0 200 255
0.460092 0.353281 0.268512 0 200 255
0.457296 0.350366 0.257069 0 200 255
0.445963 0.350950 0.232701 0 200 255
0.476896 0.327795 0.275348 0 200 255
0.436751 0.267616 0.259771 0 200 255
0.522192 0.301317 0.272759 0 200 255
0.450865 0.270261 0.283755 0 200 255
0.447601 0.344323 0.187678 0 200 255
0.437234 0.292824 0.272388 0 200 255
0.446441 0.378908 0.225283 0 200 255
0.393961 0.231919 0.214927 0 200 255
0.446175 0.397259 0.206512 0 200 255
0.441933 0.338259 0.192046 0 200 255
0.443011 0.297253 0.249813 0 200 255
0.449159 0.370256 0.235051 0 200 255
0.441709 0.405129 0.220430 0 200 255
0.450826 0.378298 0.253051 0 200 255
0.465354 0.234860 0.255287 0 200 255
0.410007 0.323558 0.277910 0 200 255
0.451116 0.342455 0.201138 0 200 255
0.455785 0.248500 0.275620 0 200 255
0.514252 0.312430 0.253438 0 200 255
0.436254 0.294475 0.262809 0 200 255
0.444355 0.331559 0.215233 0 200 255
0.363818 0.224180 0.235227 0 200 255
0.449674 0.321346 0.237623 0 200 255
0.498254 0.313902 0.246087 0 200 255
0.422071 0.236434 0.215294 0 200 255
0.504320 0.311692 0.252136 0 200 255
0.380721 0.221403 0.204874 0 200 255
0.453787 0.347149 0.240029 0 200 255
0.508348 0.242341 0.240014 0 200 255
0.518090 0.278054 0.251655 0 200 255
0.431744 0.289826 0.250137 0 200 255
0.417708 0.312716 0.257083 0 200 255
0.433936 0.319165 0.257752 0 200 255
0.411982 0.220582 0.215389 0 200 255
0.386103 0.351320 0.265040 0 200 255
0.506954 0.335894 0.260088 0 200 255
0.481371 0.345409 0.253164 0 200 255
0.472342 0.305533 0.246490 0 200 255
0.481060 0.379150 0.248340 0 200 255
0.359329 0.242715 0.209592 0 200 255
0.369890 0.378984 0.263969 0 200 255
0.459805 0.336433 0.219201 0 200 255
0.464632 0.256029 0.280762 0 200 255
0.418676 0.332624 0.269904 0 200 255
0.512238 0.293876 0.247203 0 200 255
0.506809 0.323387 0.284316 0 200 255
0.472970 0.253739 0.264031 0 200 255
0.433230 0.275005 0.262951 0 200 255
0.441388 0.349404 0.227217 0 200 255
0.462781 0.389929 0.218685 0 200 255
0.487194 0.238587 0.282226 0 200 255
0.507785 0.303748 0.251232 0 200 255
0.459810 0.345715 0.270225 0 200 255
0.408560 0.230566 0.247104 0 200 255
0.444875 0.379727 0.242456 0 200 255
0.474226 0.384119 0.240102 0 200 255
0.475938 0.237089 0.274202 0 200 255
0.357000 0.228129 0.221827 0 200 255
0.435310 0.229481 0.234383 0 200 255
0.452930 0.364502 0.237683 0 200 255
0.450961 0.317706 0.287750 0 200 255
0.411080 0.230125 0.211543 0 200 255
0.493991 0.356009 0.259047 0 200 255
0.375227 0.374967 0.261331 0 200 255
0.393216 0.221380 0.218884 0 200 255
0.487398 0.364097 0.239251 0 200 255
0.449037 0.268511 0.247719 0 200 255
0.482056 0.225840 0.255388 0 200 255
0.421978 0.230484 0.253619 0 200 255
0.495706 0.332733 0.281709 0 200 255
0.358231 0.382139 0.259800 0 200 255
0.425449 0.308862 0.274362 0 200 255
0.497460 0.323215 0.269002 0 200 255
0.467579 0.348736 0.244192 0 200 255
0.470773 0.326966 0.254773 0 200 255
0.380614 0.226552 0.218254 0 200 255
0.440950 0.302775 0.270503 0 200 255
0.487718 0.226925 0.246511 0 200 255
0.406453 0.218263 0.249612 0 200 255
0.375163 0.367960 0.253320 0 200 255
0.445667 0.326774 0.254867 0 200 255
0.349018 0.234736 0.218281 0 200 255
0.428691 0.215553 0.223261 0 200 255
0.429991 0.226038 0.239964 0 200 255
0.498931 0.344024 0.264051 0 200 255
0.503579 0.291223 0.285296 0 200 255
0.455082 0.342332 0.195207 0 200 255
0.469979 0.391577 0.209711 0 200 255
0.454879 0.341858 0.169608 0 200 255
0.458849 0.330895 0.266643 0 200 255
0.491688 0.348015 0.248558 0 200 255
0.454217 0.312137 0.251448 0 200 255
0.504410 0.274036 0.282752 0 200 255
0.469791 0.387790 0.218324 0 200 255
0.485713 0.376243 0.244219 0 200 255
0.421519 0.330680 0.257853 0 200 255
0.365717 0.235340 0.225299 0 200 255
0.463684 0.401512 0.204426 0 200 255
0.499618 0.311065 0.287439 0 200 255
0.409941 0.333685 0.253175 0 200 255
0.381079 0.235924 0.225376 0 200 255
0.445448 0.399210 0.222391 0 200 255
0.473796 0.379875 0.230769 0 200 255
0.518923 0.242638 0.271882 0 200 255
0.501367 0.329059 0.255194 0 200 255
0.396789 0.226454 0.223699 0 200 255
0.401537 0.223105 0.228197 0 200 255
0.470214 0.336902 0.273772 0 200 255
0.445689 0.346865 0.201580 0 200 255
0.460085 0.385246 0.246211 0 200 255
0.484221 0.308367 0.284581 0 200 255
0.458514 0.240284 0.244825 0 200 255
0.440470 0.347593 0.195804 0 200 255
0.385892 0.342460 0.258482 0 200 255
0.417680 0.240793 0.219041 0 200 255
0.470992 0.394756 0.229497 0 200 255
0.478688 0.309247 0.252363 0 200 255
0.391734 0.353264 0.270551 0 200 255
0.376987 0.220668 0.216383 0 200 255
0.512231 0.274897 0.252902 0 200 255
0.518511 0.236983 0.260027 0 200 255
0.449712 0.383702 0.233392 0 200 255
0.431469 0.240879 0.219211 0 200 255
0.477121 0.258170 0.242814 0 200 255
0.460643 0.342383 0.259537 0 200 255
0.443924 0.332602 0.223985 0 200 255
0.385107 0.363811 0.270382 0 200 255
0.441683 0.342559 0.208364 0 200 255
0.442749 0.339477 0.235552 0 200 255
0.374712 0.357651 0.250510 0 200 255
0.505330 0.250269 0.246535 0 200 255
0.454411 0.235556 0.258030 0 200 255
0.441022 0.235406 0.256564 0 200 255
0.394250 0.234765 0.231978 0 200 255
0.378385 0.370344 0.265041 0 200 255
0.493025 0.241487 0.248564 0 200 255
0.504619 0.330725 0.265802 0 200 255
0.464492 0.333358 0.259650 0 200 255
0.428918 0.310577 0.253910 0 200 255
0.367729 0.233009 0.203773 0 200 255
0.432742 0.288176 0.280871 0 200 255
0.482323 0.324533 0.269497 0 200 255
0.450207 0.403751 0.209259 0 200 255
0.471966 0.357113 0.250880 0 200 255
0.500301 0.258633 0.285387 0 200 255
0.369713 0.222950 0.228034 0 200 255
0.461580 0.392262 0.228059 0 200 255
0.467151 0.378944 0.250513 0 200 255
0.474554 0.390977 0.224214 0 200 255
0.399275 0.342302 0.253794 0 200 255
0.524587 0.270282 0.253369 0 200 255
0.455389 0.334947 0.270759 0 200 255
0.492098 0.268461 0.285442 0 200 255
0.490000 0.345001 0.260468 0 200 255
0.460967 0.333290 0.226647 0 200 255
0.497091 0.324743 0.285376 0 200 255
0.509757 0.252495 0.261237 0 200 255
0.420534 0.216389 0.214918 0 200 255
0.348082 0.229143 0.207640 0 200 255
0.459512 0.365222 0.238372 0 200 255
0.470508 0.353302 0.270914 0 200 255
0.458959 0.245613 0.256679 0 200 255
0.415506 0.212741 0.242777 0 200 255
0.493994 0.355601 0.268791 0 200 255
0.515388 0.303512 0.248443 0 200 255
0.441720 0.290856 0.244881 0 200 255
0.450486 0.306464 0.276886 0 200 255
0.501948 0.299294 0.247930 0 200 255
0.458981 0.336769 0.247442 0 200 255
0.352289 0.226901 0.226861 0 200 255
0.429480 0.316318 0.274650 0 200 255
0.457681 0.237050 0.265604 0 200 255
0.474730 0.403212 0.222003 0 200 255
0.483835 0.237953 0.241219 0 200 255
0.469040 0.344770 0.275089 0 200 255
0.432655 0.242989 0.231537 0 200 255
0.492473 0.320586 0.272440 0 200 255
0.455567 0.294304 0.285686 0 200 255
0.410778 0.218688 0.228782 0 200 255
0.397076 0.211644 0.240597 0 200 255
0.441504 0.301989 0.254332 0 200 255
0.354137 0.240543 0.206160 0 200 255
0.478564 0.354790 0.243883 0 200 255
0.480795 0.242959 0.263551 0 200 255
0.501508 0.231869 0.239664 0 200 255
0.401488 0.239626 0.243097 0 200 255
0.471529 0.256060 0.250941 0 200 255
0.461629 0.401832 0.218495 0 200 255
0.432249 0.280282 0.251605 0 200 255
0.364935 0.362354 0.255257 0 200 255
0.516511 0.255560 0.252015 0 200 255
0.365989 0.372581 0.246793 0 200 255
0.391496 0.212987 0.208653 0 200 255
0.437334 0.271976 0.272542 0 200 255
0.451292 0.351744 0.191569 0 200 255
0.442640 0.298816 0.287298 0 200 255
0.370767 0.215787 0.217173 0 200 255
0.417594 0.223568 0.245807 0 200 255
0.375866 0.229843 0.205865 0 200 255
0.477006 0.362573 0.264749 0 200 255
0.384372 0.366397 0.255480 0 200 255
0.468545 0.392249 0.244806 0 200 255
0.438780 0.263232 0.264946 0 200 255
0.385350 0.365152 0.263665 0 200 255
0.381985 0.345046 0.269491 0 200 255
0.467423 0.318347 0.277597 0 200 255
