ply
format ascii 1.0
element vertex 1024
property float x
property float y
property float z
property uchar red
property uchar green
property uchar blue
end_header
0.479508 0.261113 0.181841 0 200 255
0.332186 0.383049 0.123837 0 200 255
0.352825 0.237149 0.106795 0 200 255
0.468859 0.383992 0.121939 0 200 255
0.401048 0.321648 0.162204 0 200 255
0.431673 0.345643 0.059628 0 200 255
0.426701 0.257657 0.123104 0 200 255
0.492586 0.334652 0.173502 0 200 255
0.422271 0.408735 0.087398 0 200 255
0.458092 0.303059 0.138488 0 200 255
0.422516 0.351324 0.117456 0 200 255
0.429233 0.274629 0.173317 0 200 255
0.366427 0.360924 0.157203 0 200 255
0.386143 0.235658 0.145251 0 200 255
0.444756 0.361353 0.162002 0 200 255
0.506990 0.293307 0.146210 0 200 255
0.484277 0.251262 0.134378 0 200 255
0.449562 0.316169 0.181783 0 200 255
0.427283 0.393683 0.127795 0 200 255
0.460763 0.394727 0.083846 0 200 255
0.387697 0.253163 0.110203 0 200 255
0.418601 0.293705 0.142273 0 200 255
0.475596 0.336107 0.139189 0 200 255
0.448418 0.250779 0.152913 0 200 255
0.484022 0.297149 0.178526 0 200 255
0.328770 0.264121 0.110958 0 200 255
0.431944 0.366259 0.087861 0 200 255
0.431891 0.330182 0.150236 0 200 255
0.392416 0.346429 0.140346 0 200 255
0.476193 0.367547 0.151754 0 200 255
0.408833 0.258504 0.150529 0 200 255
0.409239 0.230871 0.121729 0 200 255
0.502502 0.263615 0.160385 0 200 255
0.355382 0.247028 0.136587 0 200 255
0.351131 0.358682 0.129255 0 200 255
0.450619 0.361317 0.131532 0 200 255
0.449359 0.404539 0.109781 0 200 255
0.421671 0.305125 0.176108 0 200 255
0.457605 0.282408 0.178212 0 200 255
0.464186 0.342758 0.176956 0 200 255
0.464006 0.272518 0.140591 0 200 255
0.502170 0.321122 0.145917 0 200 255
0.425129 0.332662 0.177322 0 200 255
0.423197 0.356493 0.145395 0 200 255
0.455199 0.385611 0.145836 0 200 255
0.376130 0.230099 0.119599 0 200 255
0.380285 0.338553 0.163190 0 200 255
0.482607 0.294334 0.137355 0 200 255
0.356439 0.261726 0.113919 0 200 255
0.504807 0.311738 0.169423 0 200 255
0.441569 0.283902 0.136627 0 200 255
0.430249 0.385592 0.104057 0 200 255
0.454087 0.257748 0.176517 0 200 255
0.431817 0.341587 0.084189 0 200 255
0.478664 0.258460 0.157412 0 200 255
0.386987 0.258210 0.135571 0 200 255
0.470210 0.239786 0.173491 0 200 255
0.421182 0.238473 0.141208 0 200 255
0.458872 0.305803 0.162228 0 200 255
0.368282 0.345271 0.138498 0 200 255
0.451654 0.342734 0.146063 0 200 255
0.345591 0.377300 0.142641 0 200 255
0.502841 0.284316 0.171330 0 200 255
0.473940 0.318244 0.179423 0 200 255
0.490975 0.347926 0.154357 0 200 255
0.430745 0.265379 0.149947 0 200 255
0.465668 0.239354 0.143039 0 200 255
0.434162 0.377422 0.144696 0 200 255
0.338216 0.246415 0.121275 0 200 255
0.415298 0.315952 0.144942 0 200 255
0.493292 0.274803 0.138800 0 200 255
0.458244 0.401302 0.130622 0 200 255
0.437861 0.311765 0.138017 0 200 255
0.445885 0.380919 0.122922 0 200 255
0.437554 0.339886 0.129620 0 200 255
0.445606 0.334700 0.166563 0 200 255
0.456801 0.385511 0.103043 0 200 255
0.451577 0.272764 0.158065 0 200 255
0.404401 0.258411 0.122255 0 200 255
0.409232 0.335814 0.148227 0 200 255
0.469886 0.346769 0.156357 0 200 255
0.479117 0.315680 0.142514 0 200 255
0.440621 0.294620 0.179344 0 200 255
0.428733 0.405944 0.108769 0 200 255
0.458257 0.322573 0.144941 0 200 255
0.341505 0.252153 0.098666 0 200 255
0.372407 0.249857 0.124178 0 200 255
0.436661 0.351929 0.103133 0 200 255
0.439319 0.399271 0.092290 0 200 255
0.495980 0.251533 0.174786 0 200 255
0.428789 0.365959 0.129037 0 200 255
0.400283 0.341317 0.164838 0 200 255
0.464831 0.301169 0.182707 0 200 255
0.422413 0.356454 0.073798 0 200 255
0.473670 0.367775 0.131735 0 200 255
0.426550 0.345256 0.161464 0 200 255
0.394009 0.234303 0.110051 0 200 255
0.423356 0.366620 0.105264 0 200 255
0.411801 0.298688 0.160707 0 200 255
0.366490 0.366081 0.138142 0 200 255
0.422234 0.319724 0.163029 0 200 255
0.391449 0.328688 0.147349 0 200 255
0.371437 0.242884 0.106421 0 200 255
0.404725 0.237470 0.150545 0 200 255
0.428645 0.247225 0.156220 0 200 255
0.481560 0.349871 0.170846 0 200 255
0.421246 0.282583 0.158709 0 200 255
0.500923 0.255390 0.143973 0 200 255
0.357323 0.232764 0.125125 0 200 255
0.350550 0.359748 0.147581 0 200 255
0.487855 0.277145 0.178826 0 200 255
0.391172 0.226996 0.129377 0 200 255
0.458318 0.368475 0.150236 0 200 255
0.368819 0.235894 0.140846 0 200 255
0.456763 0.408896 0.093985 0 200 255
0.348881 0.376944 0.125004 0 200 255
0.383694 0.353351 0.154230 0 200 255
0.421413 0.353434 0.093286 0 200 255
0.445743 0.265535 0.141574 0 200 255
0.336306 0.367167 0.131413 0 200 255
0.442026 0.391371 0.136150 0 200 255
0.439107 0.257792 0.168625 0 200 255
0.434630 0.250343 0.140746 0 200 255
0.424415 0.240506 0.124788 0 200 255
0.344096 0.261763 0.125328 0 200 255
0.438769 0.354208 0.119872 0 200 255
0.463352 0.255827 0.144236 0 200 255
0.439953 0.360768 0.144317 0 200 255
0.440028 0.352655 0.074899 0 200 255
0.418017 0.254399 0.137356 0 200 255
0.494891 0.307007 0.141315 0 200 255
0.470139 0.381401 0.140475 0 200 255
0.490065 0.312303 0.176935 0 200 255
0.497714 0.332015 0.158165 0 200 255
0.409707 0.245350 0.114133 0 200 255
0.464654 0.356121 0.141789 0 200 255
0.400652 0.240026 0.132043 0 200 255
0.466973 0.289534 0.137992 0 200 255
0.368168 0.344727 0.154512 0 200 255
0.413614 0.318825 0.177221 0 200 255
0.459089 0.330014 0.159517 0 200 255
0.464009 0.396131 0.112438 0 200 255
0.438359 0.394877 0.115646 0 200 255
0.449094 0.404483 0.079913 0 200 255
0.503906 0.277663 0.153581 0 200 255
0.461790 0.242670 0.160599 0 200 255
0.443782 0.275031 0.179097 0 200 255
0.494923 0.334605 0.142887 0 200 255
0.395531 0.250500 0.149221 0 200 255
0.463527 0.259811 0.160814 0 200 255
0.434107 0.317710 0.180745 0 200 255
0.444137 0.326033 0.139409 0 200 255
0.419085 0.289667 0.172344 0 200 255
0.435479 0.344295 0.144341 0 200 255
0.467480 0.271373 0.182792 0 200 255
0.431030 0.380015 0.118587 0 200 255
0.424290 0.347143 0.132935 0 200 255
0.458108 0.329045 0.181140 0 200 255
0.412612 0.332337 0.163294 0 200 255
0.437291 0.320480 0.165354 0 200 255
0.376027 0.249159 0.142678 0 200 255
0.466697 0.360073 0.162867 0 200 255
0.381673 0.239662 0.130474 0 200 255
0.460655 0.371512 0.124301 0 200 255
0.353083 0.247237 0.118799 0 200 255
0.356033 0.251297 0.102451 0 200 255
0.498198 0.298363 0.174085 0 200 255
0.425084 0.394685 0.093627 0 200 255
0.343373 0.264433 0.106578 0 200 255
0.433021 0.296643 0.142294 0 200 255
0.508168 0.293386 0.160879 0 200 255
0.380401 0.354815 0.138975 0 200 255
0.506673 0.308040 0.150798 0 200 255
0.442509 0.345666 0.157124 0 200 255
0.471070 0.287411 0.181054 0 200 255
0.380426 0.336555 0.141910 0 200 255
0.403294 0.260662 0.136609 0 200 255
0.446258 0.376346 0.152565 0 200 255
0.481407 0.267341 0.142292 0 200 255
0.474817 0.332562 0.177666 0 200 255
0.360830 0.257512 0.127627 0 200 255
0.450049 0.343178 0.179034 0 200 255
0.465954 0.379800 0.154188 0 200 255
0.330833 0.250004 0.109706 0 200 255
0.457253 0.352795 0.154324 0 200 255
0.433484 0.411964 0.096887 0 200 255
0.450331 0.376719 0.135667 0 200 255
0.424802 0.281118 0.143468 0 200 255
0.365006 0.229993 0.110969 0 200 255
0.439738 0.353307 0.089708 0 200 255
0.441541 0.329362 0.180292 0 200 255
0.490231 0.266783 0.165914 0 200 255
0.472913 0.303408 0.141310 0 200 255
0.478006 0.351019 0.146186 0 200 255
0.424843 0.393892 0.114280 0 200 255
0.402920 0.320727 0.147872 0 200 255
0.463596 0.397025 0.098904 0 200 255
0.466986 0.251493 0.179541 0 200 255
0.391017 0.329950 0.165800 0 200 255
0.451464 0.391735 0.114733 0 200 255
0.433266 0.365755 0.115611 0 200 255
0.446512 0.324358 0.156462 0 200 255
0.415650 0.246546 0.153145 0 200 255
0.358158 0.370714 0.147489 0 200 255
0.439418 0.352526 0.133450 0 200 255
0.481295 0.356290 0.158130 0 200 255
0.328791 0.255949 0.121474 0 200 255
0.429063 0.339840 0.119057 0 200 255
0.432128 0.381222 0.132136 0 200 255
0.423630 0.305315 0.138292 0 200 255
0.453718 0.280695 0.142231 0 200 255
0.432944 0.358007 0.064083 0 200 255
0.420287 0.308733 0.154799 0 200 255
0.397681 0.230706 0.141363 0 200 255
0.419116 0.327541 0.151640 0 200 255
0.386356 0.241582 0.117729 0 200 255
0.471583 0.335622 0.162910 0 200 255
0.420274 0.364117 0.118576 0 200 255
0.496826 0.287314 0.138371 0 200 255
0.442195 0.391733 0.102465 0 200 255
0.366886 0.254174 0.112796 0 200 255
0.484874 0.270018 0.154463 0 200 255
0.452231 0.388323 0.091094 0 200 255
0.453341 0.388269 0.130810 0 200 255
0.487041 0.324588 0.179313 0 200 255
0.463261 0.392935 0.139007 0 200 255
0.398071 0.343462 0.151474 0 200 255
0.451855 0.350600 0.165744 0 200 255
0.447541 0.295891 0.137216 0 200 255
0.465172 0.313731 0.138653 0 200 255
0.334907 0.380497 0.136075 0 200 255
0.502962 0.318431 0.158694 0 200 255
0.354631 0.370957 0.134693 0 200 255
0.360852 0.352085 0.147112 0 200 255
0.482453 0.282023 0.140639 0 200 255
0.485512 0.326959 0.139010 0 200 255
0.432367 0.332042 0.163345 0 200 255
0.412556 0.232563 0.133955 0 200 255
0.341516 0.243279 0.108280 0 200 255
0.424005 0.347554 0.104207 0 200 255
0.453124 0.296610 0.181080 0 200 255
0.473057 0.258967 0.136809 0 200 255
0.410255 0.309904 0.166275 0 200 255
0.428942 0.319137 0.144974 0 200 255
0.498176 0.323546 0.172014 0 200 255
0.380650 0.228304 0.136749 0 200 255
0.364342 0.241402 0.119441 0 200 255
0.384791 0.251772 0.125128 0 200 255
0.440094 0.276016 0.146158 0 200 255
0.416029 0.255738 0.116973 0 200 255
0.340453 0.365974 0.143286 0 200 255
0.435356 0.340827 0.072282 0 200 255
0.373520 0.351809 0.163202 0 200 255
0.421145 0.257462 0.150100 0 200 255
0.437501 0.255807 0.156411 0 200 255
0.449629 0.260858 0.160541 0 200 255
0.397553 0.246096 0.111796 0 200 255
0.430213 0.400220 0.083669 0 200 255
0.446576 0.399604 0.123349 0 200 255
0.434844 0.363651 0.100284 0 200 255
0.389163 0.346903 0.162944 0 200 255
0.347155 0.240588 0.130412 0 200 255
0.461097 0.335750 0.143011 0 200 255
0.433420 0.305690 0.179283 0 200 255
0.421260 0.406012 0.099228 0 200 255
0.409952 0.305394 0.149436 0 200 255
0.495797 0.286553 0.152552 0 200 255
0.343780 0.255391 0.114536 0 200 255
0.428484 0.260310 0.137634 0 200 255
0.449092 0.308201 0.144561 0 200 255
0.339126 0.371795 0.120299 0 200 255
0.374564 0.359837 0.148123 0 200 255
0.429859 0.263967 0.161787 0 200 255
0.451195 0.353745 0.141470 0 200 255
0.415318 0.248050 0.126331 0 200 255
0.456403 0.339656 0.166795 0 200 255
0.479072 0.243623 0.180405 0 200 255
0.491868 0.346008 0.166480 0 200 255
0.476491 0.306722 0.179482 0 200 255
0.477410 0.244109 0.140740 0 200 255
0.359941 0.353279 0.134908 0 200 255
0.470493 0.371165 0.161718 0 200 255
0.489882 0.265204 0.178155 0 200 255
0.462346 0.293126 0.174571 0 200 255
0.434063 0.362637 0.076980 0 200 255
0.487330 0.345183 0.142346 0 200 255
0.440237 0.363718 0.126866 0 200 255
0.450587 0.252445 0.141622 0 200 255
0.439660 0.268140 0.156824 0 200 255
0.378457 0.234011 0.108943 0 200 255
0.367555 0.249520 0.134798 0 200 255
0.411600 0.316495 0.156872 0 200 255
0.429329 0.354768 0.084992 0 200 255
0.397176 0.236527 0.120884 0 200 255
0.458790 0.248647 0.169940 0 200 255
0.439062 0.402507 0.105117 0 200 255
0.344044 0.252141 0.131571 0 200 255
0.420346 0.357856 0.128175 0 200 255
0.474202 0.337168 0.151854 0 200 255
0.459167 0.366946 0.138988 0 200 255
0.455721 0.364139 0.160835 0 200 255
0.382922 0.334454 0.152794 0 200 255
0.438400 0.338892 0.174972 0 200 255
0.457266 0.382199 0.116779 0 200 255
0.456691 0.402833 0.118261 0 200 255
0.489774 0.260042 0.144397 0 200 255
0.398749 0.331635 0.155422 0 200 255
0.431405 0.285221 0.176366 0 200 255
0.478359 0.362962 0.141729 0 200 255
0.435554 0.353413 0.151567 0 200 255
0.436043 0.369462 0.137011 0 200 255
0.426519 0.295007 0.178856 0 200 255
0.497966 0.274568 0.168753 0 200 255
0.473107 0.349789 0.178188 0 200 255
0.467217 0.325373 0.138850 0 200 255
0.330718 0.257659 0.101562 0 200 255
0.425367 0.346528 0.069633 0 200 255
0.338356 0.266035 0.116777 0 200 255
0.371160 0.236325 0.128850 0 200 255
0.386023 0.226160 0.116303 0 200 255
0.443413 0.334735 0.146301 0 200 255
0.424402 0.321724 0.175584 0 200 255
0.356612 0.236042 0.135806 0 200 255
0.490509 0.316828 0.138733 0 200 255
0.431173 0.336239 0.137863 0 200 255
0.478630 0.272110 0.182209 0 200 255
0.507881 0.304361 0.161772 0 200 255
0.459721 0.404961 0.106121 0 200 255
0.438239 0.346189 0.112346 0 200 255
0.450707 0.401225 0.098923 0 200 255
0.437902 0.266898 0.174544 0 200 255
0.443406 0.384645 0.144635 0 200 255
0.456543 0.261160 0.152102 0 200 255
0.438744 0.366622 0.154580 0 200 255
0.462325 0.271780 0.156497 0 200 255
0.465201 0.393256 0.126375 0 200 255
0.447489 0.356683 0.151422 0 200 255
0.346080 0.238916 0.118113 0 200 255
0.374823 0.241013 0.116722 0 200 255
0.446849 0.305910 0.179671 0 200 255
0.490524 0.287601 0.179165 0 200 255
0.413159 0.259984 0.128346 0 200 255
0.496814 0.269557 0.153117 0 200 255
0.449994 0.393548 0.081942 0 200 255
0.437761 0.320508 0.151601 0 200 255
0.386002 0.246239 0.146865 0 200 255
0.484794 0.340405 0.178041 0 200 255
0.361053 0.243628 0.108927 0 200 255
0.376950 0.250729 0.111787 0 200 255
0.426338 0.342310 0.151201 0 200 255
0.394178 0.256543 0.119796 0 200 255
0.437561 0.398082 0.128862 0 200 255
0.393638 0.260652 0.143535 0 200 255
0.450383 0.334086 0.154332 0 200 255
0.404907 0.235648 0.113258 0 200 255
0.464981 0.312624 0.180490 0 200 255
0.419647 0.357103 0.108179 0 200 255
0.416507 0.328020 0.172317 0 200 255
0.450091 0.371229 0.124553 0 200 255
0.425407 0.272034 0.156613 0 200 255
0.461889 0.348585 0.163021 0 200 255
0.467373 0.361917 0.150789 0 200 255
0.430332 0.356497 0.111695 0 200 255
0.409747 0.242493 0.142861 0 200 255
0.458885 0.405171 0.084448 0 200 255
0.441640 0.255653 0.146358 0 200 255
0.486165 0.254080 0.177194 0 200 255
0.423320 0.397330 0.104603 0 200 255
0.443337 0.284283 0.174475 0 200 255
0.409734 0.321040 0.167627 0 200 255
0.420869 0.360556 0.085302 0 200 255
0.471640 0.378304 0.130842 0 200 255
0.394790 0.336531 0.141702 0 200 255
0.401834 0.229182 0.132151 0 200 255
0.454156 0.271773 0.147190 0 200 255
0.354750 0.361391 0.138409 0 200 255
0.435897 0.404692 0.116689 0 200 255
0.401262 0.255527 0.112246 0 200 255
0.471185 0.254937 0.165340 0 200 255
0.405010 0.247773 0.151582 0 200 255
0.438083 0.372864 0.120986 0 200 255
0.395333 0.240839 0.146183 0 200 255
0.472771 0.352696 0.166691 0 200 255
0.432243 0.410285 0.086990 0 200 255
0.346108 0.368003 0.128769 0 200 255
0.497323 0.297618 0.138534 0 200 255
0.431024 0.355918 0.137900 0 200 255
0.417171 0.237746 0.118345 0 200 255
0.395254 0.258565 0.129831 0 200 255
0.468280 0.262998 0.149300 0 200 255
0.388462 0.242399 0.107835 0 200 255
0.456396 0.251155 0.160279 0 200 255
0.407353 0.326493 0.155845 0 200 255
0.328219 0.376148 0.130018 0 200 255
0.502253 0.254711 0.164956 0 200 255
0.465042 0.247514 0.149498 0 200 255
0.476838 0.328116 0.145019 0 200 255
0.435598 0.267861 0.141606 0 200 255
0.458313 0.268520 0.180152 0 200 255
0.358944 0.245399 0.126790 0 200 255
0.453469 0.394717 0.139026 0 200 255
0.391551 0.337411 0.159263 0 200 255
0.448400 0.366778 0.151032 0 200 255
0.447212 0.404917 0.090235 0 200 255
0.440571 0.389874 0.124179 0 200 255
0.347927 0.244395 0.100808 0 200 255
0.434073 0.284602 0.143299 0 200 255
0.425014 0.247180 0.138456 0 200 255
0.418177 0.289205 0.151085 0 200 255
0.432264 0.390113 0.137219 0 200 255
0.457676 0.292915 0.137791 0 200 255
0.357614 0.356629 0.155283 0 200 255
0.455919 0.320800 0.175780 0 200 255
0.476028 0.257609 0.146144 0 200 255
0.426019 0.282358 0.167366 0 200 255
0.411810 0.261602 0.141542 0 200 255
0.432991 0.394120 0.099791 0 200 255
0.467519 0.325505 0.181293 0 200 255
0.371031 0.355717 0.136039 0 200 255
0.421623 0.310370 0.167760 0 200 255
0.430639 0.248659 0.123849 0 200 255
0.440304 0.346285 0.082406 0 200 255
0.341860 0.382599 0.128955 0 200 255
0.373396 0.341206 0.146955 0 200 255
0.424450 0.363694 0.093890 0 200 255
0.377904 0.239567 0.141328 0 200 255
0.469754 0.280447 0.140650 0 200 255
0.441885 0.344711 0.122299 0 200 255
0.464457 0.342784 0.149267 0 200 255
0.386532 0.234020 0.124149 0 200 255
0.484489 0.309028 0.137789 0 200 255
0.427319 0.318894 0.154756 0 200 255
0.431440 0.350502 0.095032 0 200 255
0.378738 0.344901 0.137200 0 200 255
0.435830 0.351419 0.161230 0 200 255
0.439633 0.347003 0.065014 0 200 255
0.461576 0.378382 0.143899 0 200 255
0.351417 0.255795 0.123019 0 200 255
0.395751 0.227583 0.117490 0 200 255
0.480782 0.288537 0.181495 0 200 255
0.442100 0.386319 0.113161 0 200 255
0.365155 0.362108 0.147702 0 200 255
0.365511 0.229236 0.120570 0 200 255
0.370372 0.350847 0.146417 0 200 255
0.492627 0.251037 0.141764 0 200 255
0.442695 0.342862 0.138148 0 200 255
0.452649 0.327312 0.166115 0 200 255
0.405433 0.338206 0.157380 0 200 255
0.350149 0.248643 0.109509 0 200 255
0.431033 0.361342 0.147914 0 200 255
0.474688 0.296634 0.180436 0 200 255
0.348479 0.369087 0.147382 0 200 255
0.450121 0.329143 0.175968 0 200 255
0.464667 0.387013 0.146401 0 200 255
0.425511 0.344935 0.142090 0 200 255
0.456179 0.395896 0.104709 0 200 255
0.472942 0.375142 0.147028 0 200 255
0.440862 0.370832 0.145574 0 200 255
0.471608 0.342362 0.169471 0 200 255
0.348595 0.256754 0.104262 0 200 255
0.355284 0.235020 0.116230 0 200 255
0.464348 0.365125 0.130120 0 200 255
0.424054 0.242774 0.149043 0 200 255
0.376571 0.252186 0.132249 0 200 255
0.416006 0.244101 0.135804 0 200 255
0.506879 0.284162 0.161595 0 200 255
0.481656 0.261868 0.165562 0 200 255
0.361309 0.252005 0.119951 0 200 255
0.381732 0.225876 0.125739 0 200 255
0.413427 0.250999 0.144722 0 200 255
0.461257 0.372046 0.158326 0 200 255
0.364612 0.352188 0.159829 0 200 255
0.377279 0.345676 0.156096 0 200 255
0.427581 0.358986 0.122450 0 200 255
0.491458 0.338464 0.160533 0 200 255
0.448867 0.286475 0.181586 0 200 255
0.470069 0.262714 0.180798 0 200 255
0.390621 0.348685 0.149133 0 200 255
0.455326 0.359823 0.147080 0 200 255
0.482718 0.260193 0.136174 0 200 255
0.415593 0.298329 0.169109 0 200 255
0.410860 0.327087 0.145790 0 200 255
0.460770 0.389446 0.094507 0 200 255
0.403502 0.331744 0.164180 0 200 255
0.450180 0.341695 0.160191 0 200 255
0.344905 0.360853 0.135619 0 200 255
0.503517 0.302315 0.143332 0 200 255
0.422605 0.248263 0.119540 0 200 255
0.425242 0.352630 0.062851 0 200 255
0.424944 0.345950 0.089484 0 200 255
0.476445 0.363711 0.160152 0 200 255
0.459960 0.385620 0.125204 0 200 255
0.337781 0.254698 0.124928 0 200 255
0.391132 0.338854 0.168159 0 200 255
0.379469 0.257330 0.140448 0 200 255
0.450812 0.375433 0.144531 0 200 255
0.452890 0.290277 0.174531 0 200 255
0.428690 0.257166 0.154906 0 200 255
0.411508 0.240266 0.129096 0 200 255
0.423181 0.349824 0.080805 0 200 255
0.482369 0.347069 0.162429 0 200 255
0.435618 0.249803 0.150107 0 200 255
0.498296 0.265716 0.169601 0 200 255
0.413031 0.296438 0.151651 0 200 255
0.438868 0.303322 0.142463 0 200 255
0.425357 0.272431 0.165643 0 200 255
0.415913 0.304887 0.142614 0 200 255
0.426335 0.355466 0.101039 0 200 255
0.453997 0.378476 0.127694 0 200 255
0.433103 0.258530 0.144906 0 200 255
0.505331 0.298953 0.154688 0 200 255
0.421100 0.354241 0.137005 0 200 255
0.502329 0.298018 0.166343 0 200 255
0.465251 0.353420 0.150150 0 200 255
0.391826 0.238230 0.129745 0 200 255
0.465589 0.298497 0.138277 0 200 255
0.464466 0.332756 0.150543 0 200 255
0.447367 0.317892 0.138994 0 200 255
0.420337 0.263170 0.142816 0 200 255
0.334037 0.372054 0.138315 0 200 255
0.428487 0.385452 0.125065 0 200 255
0.390059 0.329426 0.155960 0 200 255
0.485759 0.304878 0.174809 0 200 255
0.426197 0.363154 0.138731 0 200 255
0.463446 0.390853 0.105070 0 200 255
0.364211 0.237224 0.103927 0 200 255
0.428857 0.275175 0.149251 0 200 255
0.488123 0.353446 0.163827 0 200 255
0.419763 0.328151 0.160647 0 200 255
0.435908 0.390658 0.108352 0 200 255
0.405781 0.233668 0.140479 0 200 255
0.457008 0.376994 0.151141 0 200 255
0.457238 0.358614 0.137617 0 200 255
0.463092 0.257916 0.175263 0 200 255
0.388061 0.253831 0.143324 0 200 255
0.471117 0.360239 0.137835 0 200 255
0.427523 0.343075 0.110660 0 200 255
0.471724 0.321140 0.144837 0 200 255
0.456988 0.349541 0.146238 0 200 255
0.439640 0.292536 0.136759 0 200 255
0.429398 0.313213 0.137880 0 200 255
0.446808 0.394865 0.089872 0 200 255
0.447316 0.255561 0.167607 0 200 255
0.427065 0.341179 0.127463 0 200 255
0.448906 0.388930 0.122552 0 200 255
0.346860 0.378055 0.134182 0 200 255
0.445802 0.267836 0.150901 0 200 255
0.375696 0.357480 0.156245 0 200 255
0.437889 0.382004 0.138541 0 200 255
0.427250 0.342610 0.077062 0 200 255
0.346213 0.247209 0.124062 0 200 255
0.417268 0.233820 0.126986 0 200 255
0.410577 0.306605 0.157866 0 200 255
0.401567 0.261653 0.147442 0 200 255
0.439332 0.352141 0.144067 0 200 255
0.380853 0.347839 0.164810 0 200 255
0.470987 0.255103 0.152501 0 200 255
0.447669 0.273457 0.139229 0 200 255
0.447962 0.396774 0.106665 0 200 255
0.462847 0.287418 0.183133 0 200 255
0.424264 0.351463 0.152124 0 200 255
0.456062 0.400146 0.077878 0 200 255
0.463712 0.389366 0.117932 0 200 255
0.430589 0.329778 0.171290 0 200 255
0.422887 0.312775 0.146869 0 200 255
0.490215 0.263775 0.156396 0 200 255
0.456634 0.252521 0.148125 0 200 255
0.482067 0.316210 0.178444 0 200 255
0.446798 0.384432 0.136442 0 200 255
0.473528 0.374032 0.138223 0 200 255
0.452767 0.274752 0.181273 0 200 255
0.353856 0.366185 0.126066 0 200 255
0.480862 0.253020 0.183655 0 200 255
0.445783 0.398759 0.114989 0 200 255
0.438207 0.356933 0.081897 0 200 255
0.433224 0.328196 0.180038 0 200 255
0.445498 0.348531 0.149814 0 200 255
0.433623 0.358801 0.091394 0 200 255
0.362038 0.230788 0.132175 0 200 255
0.502102 0.324377 0.164679 0 200 255
0.448305 0.369550 0.158919 0 200 255
0.486955 0.300367 0.141157 0 200 255
0.459554 0.385549 0.137805 0 200 255
0.332988 0.256678 0.114230 0 200 255
0.479774 0.360151 0.149448 0 200 255
0.439926 0.382497 0.129494 0 200 255
0.504420 0.288900 0.154944 0 200 255
0.447718 0.394399 0.130379 0 200 255
0.457342 0.304452 0.181140 0 200 255
0.414450 0.239005 0.149838 0 200 255
0.425557 0.368313 0.113109 0 200 255
0.444776 0.353549 0.158619 0 200 255
0.456942 0.267240 0.140821 0 200 255
0.475263 0.289613 0.137622 0 200 255
0.471499 0.268977 0.140306 0 200 255
0.430581 0.385497 0.112343 0 200 255
0.428933 0.321167 0.167698 0 200 255
0.424580 0.237749 0.132604 0 200 255
0.357740 0.364690 0.153359 0 200 255
0.449610 0.388326 0.106049 0 200 255
0.379734 0.244844 0.124312 0 200 255
0.443939 0.261265 0.175001 0 200 255
0.497507 0.315814 0.176196 0 200 255
0.414780 0.291342 0.158384 0 200 255
0.365945 0.240237 0.134438 0 200 255
0.498061 0.315027 0.141536 0 200 255
0.438823 0.354267 0.110807 0 200 255
0.413472 0.332707 0.154701 0 200 255
0.473450 0.355365 0.155888 0 200 255
0.403528 0.255621 0.129924 0 200 255
0.346495 0.265009 0.116665 0 200 255
0.464013 0.251762 0.157294 0 200 255
0.380120 0.242541 0.110650 0 200 255
0.467316 0.369985 0.152226 0 200 255
0.472056 0.340761 0.178043 0 200 255
0.418980 0.360244 0.098912 0 200 255
0.458475 0.328900 0.139385 0 200 255
0.462483 0.398996 0.090609 0 200 255
0.439310 0.263318 0.148819 0 200 255
0.432112 0.399067 0.122871 0 200 255
0.388765 0.228497 0.137407 0 200 255
0.387593 0.332758 0.141193 0 200 255
0.435511 0.327304 0.143540 0 200 255
0.331956 0.374897 0.122553 0 200 255
0.489615 0.268560 0.142452 0 200 255
0.493440 0.325942 0.140390 0 200 255
0.376411 0.244460 0.134714 0 200 255
0.427870 0.311384 0.177700 0 200 255
0.440909 0.318963 0.176525 0 200 255
0.425039 0.253336 0.143719 0 200 255
0.453335 0.370221 0.131896 0 200 255
0.429891 0.354309 0.070598 0 200 255
0.498247 0.332857 0.150047 0 200 255
0.429715 0.326804 0.157252 0 200 255
0.401985 0.339589 0.145553 0 200 255
0.454624 0.259998 0.144342 0 200 255
0.424265 0.288929 0.139060 0 200 255
0.431740 0.367961 0.107931 0 200 255
0.477601 0.340869 0.145389 0 200 255
0.429560 0.357581 0.130141 0 200 255
0.408797 0.311327 0.143797 0 200 255
0.437001 0.345731 0.089931 0 200 255
0.398521 0.334460 0.169896 0 200 255
0.432492 0.405428 0.101484 0 200 255
0.406345 0.238305 0.122765 0 200 255
0.492358 0.250587 0.181902 0 200 255
0.498168 0.333254 0.166094 0 200 255
0.475542 0.288015 0.174404 0 200 255
0.441927 0.338099 0.160280 0 200 255
0.426779 0.360241 0.079691 0 200 255
0.358117 0.250851 0.110814 0 200 255
0.428035 0.368854 0.099144 0 200 255
0.489601 0.283971 0.137438 0 200 255
0.467260 0.387819 0.134322 0 200 255
0.432413 0.397834 0.107768 0 200 255
0.423434 0.400439 0.087912 0 200 255
0.436747 0.277041 0.175862 0 200 255
0.501079 0.261774 0.148784 0 200 255
0.458387 0.395370 0.120550 0 200 255
0.418033 0.312195 0.177249 0 200 255
0.440023 0.360769 0.136350 0 200 255
0.340564 0.380312 0.121436 0 200 255
0.470148 0.347591 0.146457 0 200 255
0.453971 0.391665 0.098336 0 200 255
0.464491 0.284596 0.174879 0 200 255
0.401459 0.229902 0.123073 0 200 255
0.498978 0.276148 0.144195 0 200 255
0.331489 0.249461 0.117760 0 200 255
0.326373 0.256562 0.109851 0 200 255
0.459461 0.393452 0.131837 0 200 255
0.468206 0.373754 0.125143 0 200 255
0.431393 0.394169 0.088877 0 200 255
0.416810 0.317774 0.169000 0 200 255
0.451659 0.334457 0.146533 0 200 255
0.458903 0.241381 0.153361 0 200 255
0.461901 0.272868 0.148264 0 200 255
0.496951 0.269841 0.161001 0 200 255
0.482367 0.350022 0.153480 0 200 255
0.403707 0.330323 0.147083 0 200 255
0.491768 0.295832 0.178144 0 200 255
0.494717 0.281108 0.177716 0 200 255
0.343631 0.370979 0.138129 0 200 255
0.459057 0.356992 0.160691 0 200 255
0.453911 0.408035 0.101226 0 200 255
0.429213 0.335902 0.157310 0 200 255
0.478190 0.340641 0.160902 0 200 255
0.381606 0.354995 0.146693 0 200 255
0.491129 0.293507 0.140936 0 200 255
0.427042 0.412721 0.092544 0 200 255
0.467705 0.334362 0.139122 0 200 255
0.440146 0.379187 0.116980 0 200 255
0.396299 0.239607 0.138578 0 200 255
0.414140 0.304913 0.174248 0 200 255
0.339228 0.250675 0.107800 0 200 255
0.432923 0.271559 0.158580 0 200 255
0.355007 0.254307 0.131623 0 200 255
0.352051 0.372993 0.141694 0 200 255
0.450572 0.339334 0.171862 0 200 255
0.498443 0.306073 0.174043 0 200 255
0.428424 0.401387 0.114969 0 200 255
0.506887 0.290565 0.167911 0 200 255
0.435028 0.344309 0.156021 0 200 255
0.477294 0.252418 0.140629 0 200 255
0.463261 0.364481 0.157609 0 200 255
0.423349 0.349359 0.124825 0 200 255
0.408460 0.257584 0.115805 0 200 255
0.442484 0.340663 0.151320 0 200 255
0.455197 0.336086 0.180426 0 200 255
0.355810 0.258675 0.105908 0 200 255
0.463578 0.335230 0.178128 0 200 255
0.445073 0.308410 0.138065 0 200 255
0.421630 0.320381 0.146806 0 200 255
0.377474 0.236014 0.124570 0 200 255
0.449125 0.257339 0.148897 0 200 255
0.480178 0.275331 0.137805 0 200 255
0.385193 0.237560 0.136886 0 200 255
0.384769 0.233221 0.113772 0 200 255
0.462027 0.344339 0.156714 0 200 255
0.434386 0.389538 0.129943 0 200 255
0.503152 0.277895 0.163740 0 200 255
0.435455 0.370926 0.127836 0 200 255
0.336721 0.262898 0.109859 0 200 255
0.412377 0.253540 0.132248 0 200 255
0.436365 0.358201 0.071002 0 200 255
0.370101 0.235328 0.109327 0 200 255
0.451944 0.316267 0.144784 0 200 255
0.466960 0.353115 0.159208 0 200 255
0.368267 0.246779 0.112237 0 200 255
0.497328 0.260611 0.155793 0 200 255
0.502929 0.292061 0.139982 0 200 255
0.442656 0.377088 0.141683 0 200 255
0.474455 0.278347 0.182857 0 200 255
0.460456 0.277050 0.182672 0 200 255
0.452605 0.403500 0.125628 0 200 255
0.397608 0.324200 0.155760 0 200 255
0.433976 0.377980 0.125613 0 200 255
0.335231 0.261438 0.122842 0 200 255
0.434537 0.362254 0.122220 0 200 255
0.467644 0.293818 0.182898 0 200 255
0.489278 0.256577 0.136313 0 200 255
0.354337 0.354188 0.140425 0 200 255
0.403844 0.319889 0.155418 0 200 255
0.369323 0.354450 0.153737 0 200 255
0.432181 0.346312 0.105246 0 200 255
0.452614 0.408818 0.086836 0 200 255
0.438880 0.375935 0.151410 0 200 255
0.417033 0.321625 0.156650 0 200 255
0.482156 0.331404 0.178438 0 200 255
0.393241 0.233764 0.147324 0 200 255
0.436410 0.403244 0.086456 0 200 255
0.363307 0.359889 0.134420 0 200 255
0.469862 0.243234 0.138283 0 200 255
0.436325 0.359854 0.106591 0 200 255
0.356257 0.261431 0.123041 0 200 255
0.377576 0.252210 0.119391 0 200 255
0.423260 0.312833 0.160223 0 200 255
0.424076 0.360112 0.113358 0 200 255
0.468540 0.329825 0.145107 0 200 255
0.429533 0.352754 0.146135 0 200 255
0.371833 0.362290 0.141556 0 200 255
0.451536 0.301238 0.141344 0 200 255
0.359573 0.244036 0.101719 0 200 255
0.453362 0.399144 0.112822 0 200 255
0.349550 0.241666 0.111755 0 200 255
0.386438 0.350633 0.138933 0 200 255
0.446149 0.298755 0.181854 0 200 255
0.427483 0.406918 0.082477 0 200 255
0.396177 0.344131 0.159459 0 200 255
0.425848 0.358646 0.152321 0 200 255
0.460803 0.403508 0.096850 0 200 255
0.428071 0.338642 0.144801 0 200 255
0.451071 0.360258 0.156735 0 200 255
0.447019 0.393655 0.097080 0 200 255
0.476308 0.264631 0.154277 0 200 255
0.444858 0.255111 0.157602 0 200 255
0.488110 0.335886 0.145195 0 200 255
0.344851 0.247892 0.116935 0 200 255
0.414711 0.253564 0.151434 0 200 255
0.437137 0.322118 0.138694 0 200 255
0.340863 0.246111 0.129041 0 200 255
0.376851 0.338618 0.154404 0 200 255
0.373016 0.344579 0.161871 0 200 255
0.428312 0.367605 0.121981 0 200 255
0.467666 0.343696 0.163526 0 200 255
0.449669 0.342952 0.153066 0 200 255
0.457234 0.343861 0.179708 0 200 255
0.504707 0.304498 0.168553 0 200 255
0.370259 0.237112 0.121708 0 200 255
0.457621 0.267855 0.160345 0 200 255
0.440868 0.345541 0.071991 0 200 255
0.438481 0.356045 0.097471 0 200 255
0.424659 0.283260 0.174650 0 200 255
0.441264 0.359316 0.153988 0 200 255
0.349489 0.366763 0.138525 0 200 255
0.434162 0.362637 0.132557 0 200 255
0.453996 0.327839 0.154606 0 200 255
0.362315 0.348657 0.140752 0 200 255
0.438004 0.285023 0.179289 0 200 255
0.340502 0.365654 0.124887 0 200 255
0.431539 0.335291 0.179316 0 200 255
0.432434 0.341420 0.065399 0 200 255
0.419862 0.357169 0.120683 0 200 255
0.461380 0.263084 0.147164 0 200 255
0.445569 0.356188 0.133942 0 200 255
0.363565 0.252766 0.106566 0 200 255
0.446715 0.384756 0.129107 0 200 255
0.440842 0.398476 0.099469 0 200 255
0.457815 0.392559 0.110819 0 200 255
0.442189 0.346517 0.130738 0 200 255
0.455876 0.276240 0.153533 0 200 255
0.387680 0.254763 0.117419 0 200 255
0.453865 0.320823 0.139316 0 200 255
0.350789 0.236286 0.122783 0 200 255
0.434300 0.386868 0.121205 0 200 255
0.497099 0.325857 0.149482 0 200 255
0.373186 0.243150 0.126513 0 200 255
0.357335 0.241751 0.117243 0 200 255
0.384678 0.341190 0.138411 0 200 255
0.337221 0.246011 0.113239 0 200 255
0.486529 0.247095 0.178443 0 200 255
0.363454 0.258764 0.120354 0 200 255
0.435645 0.407546 0.109024 0 200 255
0.385239 0.344118 0.157723 0 200 255
0.357739 0.367302 0.141279 0 200 255
0.435995 0.351389 0.060807 0 200 255
0.473901 0.373018 0.155804 0 200 255
0.436053 0.387496 0.142588 0 200 255
0.426189 0.391240 0.106746 0 200 255
0.471854 0.314080 0.144629 0 200 255
0.440530 0.253486 0.162940 0 200 255
0.500164 0.294912 0.147042 0 200 255
0.417797 0.324256 0.166184 0 200 255
0.424538 0.346766 0.096470 0 200 255
0.404050 0.254102 0.147816 0 200 255
0.434496 0.262665 0.156649 0 200 255
0.464684 0.317210 0.144754 0 200 255
0.409673 0.318469 0.148344 0 200 255
0.453309 0.381730 0.139611 0 200 255
0.337547 0.262533 0.102883 0 200 255
0.361908 0.246771 0.115230 0 200 255
0.433056 0.362385 0.140050 0 200 255
0.456311 0.373221 0.137643 0 200 255
0.361665 0.250493 0.131105 0 200 255
0.419968 0.298341 0.175623 0 200 255
0.362410 0.348708 0.154149 0 200 255
0.414658 0.314704 0.162917 0 200 255
0.398109 0.326493 0.148818 0 200 255
0.423320 0.249417 0.152242 0 200 255
0.341505 0.381477 0.138174 0 200 255
0.412246 0.312811 0.172308 0 200 255
0.407609 0.231850 0.129084 0 200 255
0.489260 0.320252 0.144681 0 200 255
0.360860 0.243362 0.138871 0 200 255
0.474874 0.359210 0.165352 0 200 255
0.465170 0.332855 0.157627 0 200 255
0.439114 0.345399 0.163208 0 200 255
0.385418 0.333872 0.163780 0 200 255
0.431430 0.245084 0.144015 0 200 255
0.470830 0.360020 0.145056 0 200 255
0.426261 0.280481 0.154373 0 200 255
0.447381 0.268072 0.161018 0 200 255
0.494302 0.339925 0.168800 0 200 255
0.426247 0.350960 0.110733 0 200 255
0.403535 0.248444 0.114899 0 200 255
0.427626 0.389597 0.099025 0 200 255
0.461071 0.377515 0.120850 0 200 255
0.437479 0.405687 0.094159 0 200 255
0.483166 0.264641 0.176554 0 200 255
0.467044 0.253347 0.138931 0 200 255
0.418754 0.256754 0.123253 0 200 255
0.446902 0.365606 0.127022 0 200 255
0.494971 0.257133 0.178717 0 200 255
0.460364 0.402816 0.124116 0 200 255
0.397513 0.327584 0.162214 0 200 255
0.335035 0.256082 0.106866 0 200 255
0.464902 0.237651 0.164170 0 200 255
0.417724 0.237601 0.134282 0 200 255
0.484781 0.282874 0.181092 0 200 255
0.390320 0.227838 0.121708 0 200 255
0.460546 0.383492 0.150634 0 200 255
0.417560 0.240967 0.124475 0 200 255
0.463205 0.398019 0.105875 0 200 255
0.433271 0.348295 0.083878 0 200 255
0.437802 0.392934 0.094436 0 200 255
0.464860 0.360090 0.135040 0 200 255
0.428421 0.390078 0.119759 0 200 255
0.461548 0.361633 0.144417 0 200 255
0.478401 0.343845 0.166990 0 200 255
0.353104 0.247104 0.130130 0 200 255
0.440209 0.350942 0.125908 0 200 255
0.428182 0.406836 0.095843 0 200 255
0.429580 0.302056 0.137442 0 200 255
0.463551 0.305939 0.141427 0 200 255
0.461114 0.323049 0.179818 0 200 255
0.354431 0.354158 0.148213 0 200 255
0.454197 0.254375 0.165889 0 200 255
0.347327 0.370661 0.122595 0 200 255
0.413432 0.234389 0.140473 0 200 255
0.431768 0.392917 0.113286 0 200 255
0.424061 0.264293 0.149114 0 200 255
0.423678 0.316214 0.180060 0 200 255
0.435605 0.387830 0.099955 0 200 255
0.446803 0.399799 0.084295 0 200 255
0.467302 0.347149 0.171684 0 200 255
0.365833 0.242009 0.127868 0 200 255
0.463345 0.237167 0.156913 0 200 255
0.333477 0.384832 0.130273 0 200 255
0.422366 0.401132 0.094594 0 200 255
0.394237 0.240375 0.113374 0 200 255
0.441172 0.398033 0.109779 0 200 255
0.403035 0.241519 0.143289 0 200 255
0.445938 0.404146 0.102783 0 200 255
0.395523 0.230224 0.134431 0 200 255
0.427577 0.361015 0.086994 0 200 255
0.469876 0.380990 0.148605 0 200 255
0.399471 0.231578 0.113020 0 200 255
0.409764 0.243095 0.152830 0 200 255
0.504089 0.317670 0.166230 0 200 255
0.477763 0.301658 0.175168 0 200 255
0.435906 0.296292 0.174785 0 200 255
0.479795 0.334198 0.145184 0 200 255
0.447328 0.273060 0.146886 0 200 255
0.439900 0.399191 0.122370 0 200 255
0.494362 0.291705 0.148421 0 200 255
0.401639 0.233344 0.146176 0 200 255
0.461128 0.402247 0.113204 0 200 255
0.501426 0.254544 0.158259 0 200 255
0.362473 0.234312 0.139191 0 200 255
0.471102 0.242812 0.145034 0 200 255
0.436458 0.359336 0.116162 0 200 255
0.482179 0.345609 0.146778 0 200 255
0.435040 0.249465 0.156807 0 200 255
0.414317 0.248413 0.117958 0 200 255
0.354780 0.373469 0.128464 0 200 255
0.346779 0.359471 0.141920 0 200 255
0.452343 0.372235 0.150299 0 200 255
0.494099 0.274689 0.175835 0 200 255
0.449942 0.329390 0.139715 0 200 255
0.458510 0.342182 0.146215 0 200 255
0.430578 0.342589 0.166120 0 200 255
0.471393 0.366242 0.156536 0 200 255
0.400398 0.337026 0.151537 0 200 255
0.354178 0.244296 0.105680 0 200 255
0.334795 0.369225 0.125222 0 200 255
0.458085 0.359407 0.153701 0 200 255
0.361877 0.258106 0.110231 0 200 255
0.367480 0.244741 0.139473 0 200 255
0.472797 0.253749 0.177128 0 200 255
0.419085 0.329373 0.178334 0 200 255
0.451057 0.356240 0.162248 0 200 255
0.391081 0.253124 0.126921 0 200 255
0.411078 0.260840 0.134634 0 200 255
0.444227 0.322579 0.181051 0 200 255
0.378900 0.233245 0.143225 0 200 255
0.363967 0.367675 0.144219 0 200 255
0.414628 0.309952 0.150804 0 200 255
0.423755 0.362198 0.132606 0 200 255
0.457898 0.390838 0.142716 0 200 255
0.382657 0.249802 0.142347 0 200 255
0.398640 0.244616 0.150544 0 200 255
0.464823 0.243661 0.173806 0 200 255
0.421614 0.353654 0.086650 0 200 255
0.395919 0.335015 0.163653 0 200 255
0.427282 0.314987 0.169469 0 200 255
0.455250 0.258316 0.157959 0 200 255
0.448301 0.251625 0.162355 0 200 255
0.418890 0.309864 0.139218 0 200 255
0.365393 0.234962 0.125867 0 200 255
0.431463 0.383604 0.138933 0 200 255
0.453657 0.396808 0.132286 0 200 255
0.455771 0.394455 0.088198 0 200 255
0.502616 0.313560 0.146119 0 200 255
0.442876 0.343415 0.144747 0 200 255
0.451812 0.388178 0.139806 0 200 255
0.438788 0.353852 0.066635 0 200 255
0.373682 0.230057 0.113450 0 200 255
0.350721 0.262506 0.107703 0 200 255
0.450127 0.403239 0.118998 0 200 255
0.473812 0.263774 0.145230 0 200 255
0.407791 0.315443 0.162173 0 200 255
0.326173 0.259169 0.115923 0 200 255
0.385731 0.246585 0.112162 0 200 255
0.366189 0.248846 0.126575 0 200 255
0.495052 0.327582 0.176213 0 200 255
0.485182 0.264642 0.160587 0 200 255
0.469343 0.257455 0.158755 0 200 255
0.385127 0.226977 0.132037 0 200 255
0.436733 0.311924 0.178953 0 200 255
0.477956 0.346426 0.175167 0 200 255
0.446104 0.290725 0.141060 0 200 255
0.453228 0.263496 0.179633 0 200 255
0.475547 0.369484 0.144893 0 200 255
0.479574 0.329785 0.138705 0 200 255
0.423035 0.404682 0.105426 0 200 255
0.469970 0.298065 0.176075 0 200 255
0.436831 0.358284 0.128333 0 200 255
0.498355 0.322956 0.157462 0 200 255
0.462554 0.277999 0.137267 0 200 255
0.477451 0.300440 0.137609 0 200 255
0.360521 0.234168 0.108408 0 200 255
0.335713 0.250306 0.102276 0 200 255
0.451131 0.384403 0.116089 0 200 255
0.366103 0.240445 0.111631 0 200 255
0.416043 0.263279 0.147766 0 200 255
0.410800 0.235160 0.116075 0 200 255
0.432806 0.287170 0.137419 0 200 255
0.462842 0.263817 0.179761 0 200 255
0.368794 0.246331 0.120025 0 200 255
0.428626 0.387146 0.132676 0 200 255
0.448716 0.335986 0.179630 0 200 255
0.453207 0.403471 0.093252 0 200 255
0.410250 0.235505 0.146288 0 200 255
0.436301 0.341847 0.120594 0 200 255
0.448786 0.335379 0.160752 0 200 255
0.472550 0.294413 0.141047 0 200 255
0.427918 0.280567 0.161427 0 200 255
0.381100 0.353481 0.160169 0 200 255
0.391560 0.347833 0.156815 0 200 255
0.446112 0.399495 0.094438 0 200 255
0.443682 0.392182 0.118137 0 200 255
0.434505 0.335128 0.171443 0 200 255
0.445272 0.350875 0.141863 0 200 255
0.485684 0.344465 0.167531 0 200 255
0.499245 0.275846 0.157651 0 200 255
