ply
format ascii 1.0
element vertex 1024
property float x
property float y
property float z
property uchar red
property uchar green
property uchar blue
end_header
0.462705 0.240572 0.239859 0 200 255
0.346419 0.365129 0.153729 0 200 255
0.346746 0.227809 0.166328 0 200 255
0.457861 0.364230 0.213848 0 200 255
0.379660 0.314065 0.224647 0 200 255
0.425087 0.343327 0.139821 0 200 255
0.406772 0.249075 0.196822 0 200 255
0.487344 0.296853 0.205481 0 200 255
0.439504 0.300514 0.246007 0 200 255
0.447206 0.393490 0.162682 0 200 255
0.406594 0.352232 0.192136 0 200 255
0.312889 0.263266 0.166768 0 200 255
0.467332 0.235680 0.191619 0 200 255
0.357266 0.347071 0.197329 0 200 255
0.423027 0.297035 0.201671 0 200 255
0.472604 0.330828 0.239849 0 200 255
0.422970 0.259516 0.238284 0 200 255
0.373262 0.223207 0.199122 0 200 255
0.423621 0.334484 0.226431 0 200 255
0.453006 0.271868 0.201971 0 200 255
0.381747 0.244652 0.166628 0 200 255
0.474417 0.284682 0.239674 0 200 255
0.457001 0.320554 0.206619 0 200 255
0.487783 0.259180 0.213541 0 200 255
0.403366 0.292068 0.242083 0 200 255
0.439836 0.228613 0.214403 0 200 255
0.439050 0.362705 0.180221 0 200 255
0.383686 0.326413 0.194247 0 200 255
0.340702 0.255125 0.183422 0 200 255
0.399567 0.276648 0.211712 0 200 255
0.424063 0.371412 0.153917 0 200 255
0.427706 0.329594 0.196414 0 200 255
0.398572 0.223355 0.180841 0 200 255
0.360891 0.341864 0.167414 0 200 255
0.444320 0.387057 0.197088 0 200 255
0.406313 0.348357 0.162538 0 200 255
0.429116 0.362372 0.208997 0 200 255
0.450662 0.268215 0.242617 0 200 255
0.430499 0.256437 0.210783 0 200 255
0.368245 0.250304 0.192790 0 200 255
0.407372 0.311311 0.220993 0 200 255
0.332730 0.248397 0.154075 0 200 255
0.439195 0.286103 0.222301 0 200 255
0.451182 0.340587 0.225489 0 200 255
0.417349 0.316228 0.245242 0 200 255
0.371564 0.221034 0.172477 0 200 255
0.344910 0.229287 0.192096 0 200 255
0.485481 0.305799 0.229827 0 200 255
0.485285 0.235218 0.222400 0 200 255
0.373027 0.337609 0.215162 0 200 255
0.464483 0.249022 0.213471 0 200 255
0.442552 0.314954 0.226044 0 200 255
0.396306 0.227962 0.206999 0 200 255
0.478616 0.260350 0.237901 0 200 255
0.450386 0.297966 0.202528 0 200 255
0.322287 0.242378 0.175281 0 200 255
0.492729 0.283270 0.224673 0 200 255
0.444351 0.346115 0.200974 0 200 255
0.465927 0.309030 0.245536 0 200 255
0.478436 0.326775 0.217464 0 200 255
0.478977 0.275390 0.199490 0 200 255
0.425948 0.281942 0.243619 0 200 255
0.354924 0.361057 0.178734 0 200 255
0.423537 0.345939 0.177548 0 200 255
0.358138 0.247706 0.165108 0 200 255
0.435959 0.240779 0.235929 0 200 255
0.418365 0.236465 0.213015 0 200 255
0.445834 0.242751 0.197431 0 200 255
0.408633 0.337200 0.209174 0 200 255
0.399093 0.298444 0.204128 0 200 255
0.419370 0.373235 0.183119 0 200 255
0.419160 0.271017 0.198007 0 200 255
0.443324 0.323804 0.246561 0 200 255
0.457964 0.363950 0.191692 0 200 255
0.407266 0.258331 0.221485 0 200 255
0.435122 0.362643 0.137051 0 200 255
0.401939 0.246444 0.174965 0 200 255
0.386817 0.247391 0.205192 0 200 255
0.438559 0.356244 0.159140 0 200 255
0.454540 0.376663 0.174827 0 200 255
0.452708 0.220596 0.229276 0 200 255
0.434562 0.386888 0.177983 0 200 255
0.392508 0.295536 0.223576 0 200 255
0.465604 0.345321 0.210430 0 200 255
0.426481 0.317004 0.212802 0 200 255
0.407010 0.353028 0.141797 0 200 255
0.443853 0.376051 0.152378 0 200 255
0.372228 0.347264 0.183299 0 200 255
0.393101 0.324524 0.213907 0 200 255
0.484069 0.238177 0.201608 0 200 255
0.422643 0.302798 0.229782 0 200 255
0.332497 0.262659 0.167386 0 200 255
0.360948 0.235323 0.182748 0 200 255
0.411099 0.334065 0.187474 0 200 255
0.386508 0.250257 0.185717 0 200 255
0.434729 0.351597 0.223471 0 200 255
0.407788 0.274384 0.237165 0 200 255
0.453007 0.287364 0.244985 0 200 255
0.441370 0.328831 0.213311 0 200 255
0.469607 0.306875 0.203499 0 200 255
0.365318 0.329896 0.195318 0 200 255
0.437770 0.284340 0.200320 0 200 255
0.412152 0.231316 0.195965 0 200 255
0.443900 0.248060 0.220850 0 200 255
0.422188 0.347178 0.201008 0 200 255
0.453826 0.226608 0.201305 0 200 255
0.421855 0.340045 0.157587 0 200 255
0.345091 0.350972 0.167113 0 200 255
0.459820 0.319965 0.227954 0 200 255
0.441687 0.369427 0.197144 0 200 255
0.382811 0.231155 0.186403 0 200 255
0.476982 0.230257 0.238049 0 200 255
0.422225 0.361349 0.168964 0 200 255
0.361774 0.357823 0.158352 0 200 255
0.468046 0.261858 0.200608 0 200 255
0.384390 0.312038 0.205525 0 200 255
0.402103 0.310274 0.237499 0 200 255
0.386857 0.228604 0.167182 0 200 255
0.322388 0.258419 0.180262 0 200 255
0.435434 0.372777 0.166465 0 200 255
0.429433 0.241062 0.200200 0 200 255
0.414055 0.236346 0.180256 0 200 255
0.459938 0.354918 0.227396 0 200 255
0.352174 0.246076 0.191770 0 200 255
0.443996 0.373500 0.212991 0 200 255
0.335995 0.233140 0.177681 0 200 255
0.350057 0.344861 0.182677 0 200 255
0.421099 0.355245 0.151297 0 200 255
0.477801 0.250995 0.224375 0 200 255
0.407012 0.357177 0.176469 0 200 255
0.438241 0.332178 0.233393 0 200 255
0.372075 0.321967 0.210535 0 200 255
0.467424 0.339516 0.226652 0 200 255
0.374182 0.342933 0.199400 0 200 255
0.316659 0.250131 0.157928 0 200 255
0.465529 0.283514 0.203578 0 200 255
0.392600 0.322154 0.229887 0 200 255
0.422474 0.358931 0.189852 0 200 255
0.491817 0.280808 0.208812 0 200 255
0.419299 0.298515 0.244788 0 200 255
0.361641 0.231907 0.162368 0 200 255
0.436483 0.347492 0.186713 0 200 255
0.419067 0.355700 0.131754 0 200 255
0.338356 0.247518 0.169658 0 200 255
0.457379 0.237756 0.222073 0 200 255
0.451036 0.251086 0.241894 0 200 255
0.426414 0.335690 0.210958 0 200 255
0.440544 0.310378 0.210274 0 200 255
0.345888 0.240168 0.156609 0 200 255
0.398832 0.236778 0.188964 0 200 255
0.435256 0.269003 0.201565 0 200 255
0.407766 0.296444 0.226507 0 200 255
0.437146 0.271262 0.235690 0 200 255
0.445659 0.256450 0.207720 0 200 255
0.489510 0.268817 0.231009 0 200 255
0.369609 0.248275 0.175364 0 200 255
0.363161 0.235609 0.197851 0 200 255
0.449363 0.388752 0.182811 0 200 255
0.414594 0.323615 0.205809 0 200 255
0.362386 0.334962 0.181284 0 200 255
0.457567 0.329470 0.239618 0 200 255
0.423715 0.239597 0.227206 0 200 255
0.398833 0.282087 0.227848 0 200 255
0.443648 0.358480 0.212817 0 200 255
0.417704 0.345754 0.217914 0 200 255
0.481183 0.311478 0.211871 0 200 255
0.402947 0.241847 0.209393 0 200 255
0.465347 0.271177 0.242479 0 200 255
0.415549 0.320614 0.229376 0 200 255
0.432080 0.318701 0.238124 0 200 255
0.411026 0.338696 0.172930 0 200 255
0.406802 0.262119 0.207041 0 200 255
0.437707 0.389570 0.151391 0 200 255
0.414503 0.308216 0.206454 0 200 255
0.426994 0.371613 0.196016 0 200 255
0.366187 0.220821 0.186412 0 200 255
0.417423 0.250226 0.207863 0 200 255
0.477076 0.316822 0.239674 0 200 255
0.410931 0.340212 0.147743 0 200 255
0.376283 0.237263 0.204224 0 200 255
0.350087 0.350558 0.153374 0 200 255
0.450041 0.310603 0.246504 0 200 255
0.486329 0.291894 0.235406 0 200 255
0.333101 0.244022 0.188946 0 200 255
0.391427 0.221994 0.193706 0 200 255
0.449496 0.235643 0.235955 0 200 255
0.382061 0.329945 0.223746 0 200 255
0.452037 0.338879 0.210795 0 200 255
0.436456 0.255121 0.240736 0 200 255
0.458926 0.351193 0.199151 0 200 255
0.360760 0.337175 0.207821 0 200 255
0.477117 0.251638 0.207303 0 200 255
0.453004 0.377281 0.202283 0 200 255
0.412431 0.342554 0.133724 0 200 255
0.487284 0.295489 0.220393 0 200 255
0.465086 0.257361 0.240298 0 200 255
0.350206 0.240551 0.174098 0 200 255
0.365218 0.354908 0.171560 0 200 255
0.432855 0.240625 0.213888 0 200 255
0.439823 0.281277 0.244947 0 200 255
0.393567 0.306021 0.214612 0 200 255
0.330355 0.237552 0.164493 0 200 255
0.383114 0.334259 0.206406 0 200 255
0.404040 0.285209 0.201910 0 200 255
0.427253 0.256894 0.197483 0 200 255
0.451034 0.375079 0.187922 0 200 255
0.351289 0.365567 0.166466 0 200 255
0.423172 0.304277 0.216111 0 200 255
0.389517 0.306830 0.230405 0 200 255
0.434489 0.387027 0.164260 0 200 255
0.312277 0.250607 0.171547 0 200 255
0.459257 0.241020 0.203991 0 200 255
0.445658 0.357132 0.193447 0 200 255
0.412129 0.330921 0.220471 0 200 255
0.453420 0.381702 0.161436 0 200 255
0.467188 0.295595 0.242366 0 200 255
0.436584 0.376556 0.187073 0 200 255
0.430736 0.322203 0.224329 0 200 255
0.425399 0.334432 0.184334 0 200 255
0.457647 0.253790 0.199494 0 200 255
0.481387 0.275017 0.214385 0 200 255
0.478791 0.304086 0.242409 0 200 255
0.447965 0.326898 0.225943 0 200 255
0.481124 0.317593 0.226448 0 200 255
0.432966 0.372952 0.144626 0 200 255
0.414763 0.247791 0.221384 0 200 255
0.374158 0.333251 0.186496 0 200 255
0.407816 0.297242 0.213561 0 200 255
0.475174 0.292695 0.204845 0 200 255
0.447226 0.354573 0.225607 0 200 255
0.362068 0.354887 0.188360 0 200 255
0.430379 0.348398 0.211852 0 200 255
0.437868 0.334634 0.202064 0 200 255
0.369657 0.236077 0.171245 0 200 255
0.480350 0.241361 0.232975 0 200 255
0.470402 0.324938 0.207858 0 200 255
0.411235 0.261736 0.234128 0 200 255
0.410764 0.349768 0.205768 0 200 255
0.397384 0.235219 0.171385 0 200 255
0.433438 0.353871 0.147941 0 200 255
0.417647 0.281721 0.204307 0 200 255
0.441617 0.230179 0.226685 0 200 255
0.347418 0.255948 0.168244 0 200 255
0.408488 0.356853 0.153746 0 200 255
0.450290 0.315627 0.216381 0 200 255
0.420047 0.271917 0.239368 0 200 255
0.423747 0.364222 0.143220 0 200 255
0.384513 0.226334 0.203124 0 200 255
0.480439 0.272936 0.238287 0 200 255
0.419730 0.348924 0.166227 0 200 255
0.481609 0.263523 0.201347 0 200 255
0.415026 0.287412 0.241815 0 200 255
0.441251 0.343990 0.216405 0 200 255
0.347032 0.227923 0.180133 0 200 255
0.408280 0.229540 0.208785 0 200 255
0.394865 0.290461 0.212330 0 200 255
0.386577 0.220828 0.181200 0 200 255
0.464474 0.333766 0.214005 0 200 255
0.446536 0.262699 0.197334 0 200 255
0.327149 0.250602 0.166275 0 200 255
0.394829 0.249715 0.194432 0 200 255
0.321814 0.262315 0.158755 0 200 255
0.448297 0.235995 0.207074 0 200 255
0.428516 0.376282 0.175651 0 200 255
0.442606 0.374168 0.176950 0 200 255
0.418048 0.243652 0.197420 0 200 255
0.360448 0.226779 0.174356 0 200 255
0.480607 0.242230 0.213917 0 200 255
0.449268 0.386656 0.150489 0 200 255
0.458692 0.318849 0.246487 0 200 255
0.462395 0.281635 0.237552 0 200 255
0.408327 0.345920 0.181987 0 200 255
0.461669 0.223361 0.236565 0 200 255
0.452833 0.309442 0.203968 0 200 255
0.447102 0.371943 0.164992 0 200 255
0.395501 0.299944 0.238243 0 200 255
0.438841 0.378776 0.203624 0 200 255
0.391455 0.321522 0.202719 0 200 255
0.370408 0.244637 0.163334 0 200 255
0.439974 0.363388 0.149705 0 200 255
0.342868 0.241110 0.183167 0 200 255
0.427134 0.309882 0.245585 0 200 255
0.423914 0.344730 0.189545 0 200 255
0.473707 0.328592 0.227938 0 200 255
0.402794 0.224449 0.193636 0 200 255
0.469685 0.242821 0.222820 0 200 255
0.396489 0.237600 0.200524 0 200 255
0.434099 0.292403 0.207803 0 200 255
0.379542 0.250657 0.195367 0 200 255
0.468211 0.248527 0.200574 0 200 255
0.421785 0.372987 0.166835 0 200 255
0.421119 0.249867 0.231861 0 200 255
0.427257 0.357835 0.178730 0 200 255
0.490500 0.269397 0.218634 0 200 255
0.464530 0.295681 0.201621 0 200 255
0.417151 0.325846 0.193801 0 200 255
0.396414 0.315598 0.220305 0 200 255
0.449647 0.386518 0.171437 0 200 255
0.433033 0.332805 0.220138 0 200 255
0.401797 0.271053 0.227599 0 200 255
0.450276 0.282854 0.200528 0 200 255
0.408642 0.274707 0.200264 0 200 255
0.373935 0.321901 0.199370 0 200 255
0.432736 0.302687 0.203302 0 200 255
0.464626 0.272418 0.198646 0 200 255
0.412009 0.305791 0.232006 0 200 255
0.340035 0.255122 0.159392 0 200 255
0.416714 0.354129 0.181457 0 200 255
0.373500 0.229612 0.162871 0 200 255
0.484921 0.259684 0.226298 0 200 255
0.331892 0.253585 0.176554 0 200 255
0.436319 0.361575 0.168718 0 200 255
0.362045 0.247328 0.183535 0 200 255
0.490111 0.270312 0.205417 0 200 255
0.359440 0.224849 0.194308 0 200 255
0.471654 0.248288 0.233283 0 200 255
0.372187 0.230953 0.183133 0 200 255
0.404141 0.308220 0.210456 0 200 255
0.458147 0.364950 0.202791 0 200 255
0.440635 0.244837 0.206986 0 200 255
0.417344 0.319873 0.218361 0 200 255
0.373267 0.323119 0.221462 0 200 255
0.411919 0.358283 0.166442 0 200 255
0.448301 0.366036 0.219896 0 200 255
0.375528 0.250258 0.184503 0 200 255
0.431005 0.361501 0.197769 0 200 255
0.401340 0.247079 0.185947 0 200 255
0.360338 0.347585 0.178157 0 200 255
0.357112 0.336863 0.193097 0 200 255
0.407041 0.342459 0.197133 0 200 255
0.391547 0.247221 0.170844 0 200 255
0.427736 0.357432 0.160302 0 200 255
0.447369 0.219655 0.219777 0 200 255
0.439934 0.356583 0.202782 0 200 255
0.452143 0.244542 0.212463 0 200 255
0.462517 0.311173 0.210399 0 200 255
0.432229 0.338999 0.193694 0 200 255
0.455283 0.329121 0.217139 0 200 255
0.457816 0.344563 0.217876 0 200 255
0.434665 0.370792 0.155663 0 200 255
0.431266 0.291283 0.243680 0 200 255
0.379361 0.229863 0.174772 0 200 255
0.412573 0.306928 0.242793 0 200 255
0.432031 0.307278 0.221360 0 200 255
0.430928 0.250831 0.219881 0 200 255
0.405941 0.230762 0.175907 0 200 255
0.402090 0.305280 0.228048 0 200 255
0.341846 0.356605 0.157992 0 200 255
0.458070 0.301977 0.245596 0 200 255
0.440908 0.313529 0.242108 0 200 255
0.468469 0.322514 0.244834 0 200 255
0.323613 0.247370 0.184424 0 200 255
0.411671 0.246523 0.179273 0 200 255
0.384546 0.317132 0.215904 0 200 255
0.427212 0.342596 0.220923 0 200 255
0.461595 0.354594 0.217113 0 200 255
0.474741 0.242008 0.195748 0 200 255
0.424426 0.310361 0.204191 0 200 255
0.356278 0.349952 0.162830 0 200 255
0.376517 0.220260 0.187194 0 200 255
0.403086 0.267378 0.215174 0 200 255
0.436385 0.386357 0.190456 0 200 255
0.380692 0.338224 0.192799 0 200 255
0.415803 0.354384 0.197259 0 200 255
0.381224 0.250045 0.175910 0 200 255
0.347133 0.354431 0.176593 0 200 255
0.484132 0.287611 0.202349 0 200 255
0.414307 0.347839 0.156132 0 200 255
0.369083 0.331262 0.206856 0 200 255
0.422142 0.353344 0.141233 0 200 255
0.411347 0.331746 0.199820 0 200 255
0.428029 0.313437 0.228854 0 200 255
0.362655 0.343449 0.187199 0 200 255
0.425093 0.326895 0.205884 0 200 255
0.368734 0.343562 0.208118 0 200 255
0.387375 0.235258 0.206972 0 200 255
0.406805 0.238858 0.200071 0 200 255
0.342720 0.238853 0.166121 0 200 255
0.422053 0.267085 0.206844 0 200 255
0.421951 0.255828 0.216112 0 200 255
0.414319 0.294424 0.206047 0 200 255
0.440539 0.251825 0.199716 0 200 255
0.391425 0.230025 0.178390 0 200 255
0.367936 0.349425 0.194466 0 200 255
0.447941 0.320728 0.233857 0 200 255
0.438056 0.258649 0.217000 0 200 255
0.422432 0.245676 0.215237 0 200 255
0.451819 0.277095 0.238271 0 200 255
0.433111 0.358414 0.188560 0 200 255
0.412105 0.338223 0.157830 0 200 255
0.461275 0.356725 0.207364 0 200 255
0.332032 0.242670 0.176987 0 200 255
0.456375 0.243469 0.194853 0 200 255
0.322317 0.264916 0.169216 0 200 255
0.443225 0.262721 0.239150 0 200 255
0.352526 0.233133 0.158829 0 200 255
0.425466 0.346458 0.150397 0 200 255
0.428599 0.370859 0.186256 0 200 255
0.447994 0.225261 0.210035 0 200 255
0.443347 0.274510 0.202326 0 200 255
0.460167 0.319531 0.218160 0 200 255
0.405889 0.347922 0.172702 0 200 255
0.453508 0.372586 0.210862 0 200 255
0.377939 0.329318 0.213454 0 200 255
0.397407 0.292125 0.232684 0 200 255
0.466282 0.231506 0.240659 0 200 255
0.421261 0.346231 0.130875 0 200 255
0.445924 0.366551 0.185944 0 200 255
0.491613 0.289566 0.214019 0 200 255
0.418554 0.311787 0.236695 0 200 255
0.442172 0.345533 0.225941 0 200 255
0.356309 0.233501 0.191232 0 200 255
0.441107 0.391102 0.171851 0 200 255
0.343231 0.239275 0.192683 0 200 255
0.466019 0.326533 0.234194 0 200 255
0.419897 0.235466 0.202248 0 200 255
0.345518 0.247634 0.163168 0 200 255
0.355678 0.362181 0.152258 0 200 255
0.417440 0.360634 0.158893 0 200 255
0.352456 0.343834 0.171608 0 200 255
0.443761 0.335388 0.222275 0 200 255
0.373565 0.246389 0.201559 0 200 255
0.336683 0.232895 0.187250 0 200 255
0.346715 0.251061 0.176458 0 200 255
0.459706 0.268237 0.235335 0 200 255
0.443932 0.244538 0.239634 0 200 255
0.453725 0.333585 0.231470 0 200 255
0.440103 0.300472 0.208915 0 200 255
0.359614 0.241251 0.175361 0 200 255
0.392359 0.229850 0.188280 0 200 255
0.418851 0.341545 0.209485 0 200 255
0.433930 0.356479 0.215316 0 200 255
0.423596 0.355496 0.205330 0 200 255
0.439378 0.368165 0.206235 0 200 255
0.319968 0.244541 0.164809 0 200 255
0.409367 0.341201 0.217710 0 200 255
0.324909 0.253644 0.154832 0 200 255
0.447123 0.348702 0.209617 0 200 255
0.472628 0.316050 0.205697 0 200 255
0.409764 0.351375 0.131891 0 200 255
0.434117 0.265223 0.242219 0 200 255
0.452865 0.349556 0.231180 0 200 255
0.443680 0.290301 0.204493 0 200 255
0.461546 0.339970 0.233935 0 200 255
0.336109 0.239949 0.156260 0 200 255
0.428867 0.341240 0.203834 0 200 255
0.413570 0.302772 0.222812 0 200 255
0.416979 0.338040 0.140520 0 200 255
0.401956 0.314928 0.227778 0 200 255
0.434259 0.368931 0.175197 0 200 255
0.373464 0.324859 0.190495 0 200 255
0.474029 0.334764 0.219261 0 200 255
0.365004 0.341424 0.199882 0 200 255
0.421925 0.363438 0.198035 0 200 255
0.437195 0.379721 0.159214 0 200 255
0.387485 0.237796 0.169054 0 200 255
0.419450 0.368190 0.175361 0 200 255
0.452645 0.356905 0.217079 0 200 255
0.362567 0.241210 0.190434 0 200 255
0.330820 0.259779 0.158354 0 200 255
0.410831 0.358581 0.186990 0 200 255
0.402508 0.281783 0.238564 0 200 255
0.482396 0.307640 0.220130 0 200 255
0.415178 0.358158 0.144793 0 200 255
0.419207 0.330303 0.212791 0 200 255
0.410760 0.297810 0.241497 0 200 255
0.436645 0.380048 0.172232 0 200 255
0.358457 0.361041 0.169970 0 200 255
0.435331 0.319125 0.211730 0 200 255
0.443597 0.383246 0.177520 0 200 255
0.445162 0.237834 0.215464 0 200 255
0.480895 0.266563 0.210939 0 200 255
0.458485 0.335756 0.222861 0 200 255
0.414996 0.349671 0.189487 0 200 255
0.395538 0.246960 0.207841 0 200 255
0.488558 0.302405 0.214619 0 200 255
0.396537 0.287279 0.220687 0 200 255
0.451695 0.382643 0.194175 0 200 255
0.460714 0.249338 0.241049 0 200 255
0.337772 0.260229 0.174744 0 200 255
0.438226 0.308969 0.231276 0 200 255
0.368383 0.230405 0.192612 0 200 255
0.400163 0.238850 0.179539 0 200 255
0.317853 0.254738 0.165769 0 200 255
0.429791 0.366273 0.163747 0 200 255
0.420949 0.338811 0.148708 0 200 255
0.480791 0.252400 0.215470 0 200 255
0.408083 0.348600 0.149700 0 200 255
0.352172 0.349396 0.190307 0 200 255
0.420132 0.337936 0.175337 0 200 255
0.457051 0.297442 0.208511 0 200 255
0.432478 0.273970 0.243343 0 200 255
0.352006 0.231070 0.173374 0 200 255
0.412344 0.244237 0.212167 0 200 255
0.381535 0.316813 0.198517 0 200 255
0.391684 0.230655 0.197665 0 200 255
0.425921 0.326665 0.218296 0 200 255
0.384014 0.221825 0.172718 0 200 255
0.479239 0.295551 0.239890 0 200 255
0.447657 0.366161 0.208942 0 200 255
0.381013 0.222776 0.194810 0 200 255
0.423721 0.288136 0.205191 0 200 255
0.445018 0.230707 0.200757 0 200 255
0.450600 0.370072 0.195218 0 200 255
0.436237 0.258623 0.204428 0 200 255
0.370603 0.338695 0.192475 0 200 255
0.424307 0.244158 0.206686 0 200 255
0.485841 0.276339 0.228223 0 200 255
0.435586 0.354084 0.180921 0 200 255
0.339109 0.231215 0.169665 0 200 255
0.457665 0.227585 0.193435 0 200 255
0.398209 0.298444 0.217550 0 200 255
0.446273 0.337765 0.204253 0 200 255
0.447059 0.319523 0.209210 0 200 255
0.391914 0.315055 0.211634 0 200 255
0.388255 0.306456 0.221756 0 200 255
0.361414 0.247397 0.197410 0 200 255
0.427826 0.268204 0.197027 0 200 255
0.420077 0.364545 0.183584 0 200 255
0.439031 0.365357 0.160910 0 200 255
0.436011 0.339380 0.225392 0 200 255
0.325722 0.244108 0.158270 0 200 255
0.432772 0.248243 0.208538 0 200 255
0.313330 0.257797 0.176341 0 200 255
0.331731 0.252654 0.185204 0 200 255
0.432419 0.314099 0.205254 0 200 255
0.351454 0.244680 0.183219 0 200 255
0.463834 0.348362 0.222860 0 200 255
0.342304 0.248193 0.188408 0 200 255
0.458380 0.343068 0.206214 0 200 255
0.479225 0.300266 0.205886 0 200 255
0.435322 0.237807 0.227832 0 200 255
0.353563 0.241966 0.160535 0 200 255
0.328018 0.238916 0.183662 0 200 255
0.437424 0.235938 0.219525 0 200 255
0.443209 0.347488 0.192128 0 200 255
0.363851 0.239557 0.165722 0 200 255
0.405291 0.249463 0.205315 0 200 255
0.416767 0.355189 0.172899 0 200 255
0.483024 0.317338 0.217915 0 200 255
0.386204 0.330313 0.215677 0 200 255
0.406371 0.225774 0.183586 0 200 255
0.461873 0.240572 0.215286 0 200 255
0.439690 0.236431 0.205406 0 200 255
0.457754 0.287154 0.204072 0 200 255
0.369738 0.231887 0.201941 0 200 255
0.313779 0.259286 0.158593 0 200 255
0.424143 0.277999 0.198369 0 200 255
0.434410 0.332584 0.209978 0 200 255
0.345022 0.359498 0.166146 0 200 255
0.415038 0.332737 0.179876 0 200 255
0.436246 0.317037 0.220283 0 200 255
0.486163 0.300363 0.236678 0 200 255
0.381563 0.321985 0.227166 0 200 255
0.441945 0.388040 0.158770 0 200 255
0.479529 0.232781 0.228191 0 200 255
0.473773 0.267670 0.198156 0 200 255
0.415730 0.311224 0.219342 0 200 255
0.483466 0.312885 0.234101 0 200 255
0.380651 0.234857 0.164923 0 200 255
0.453332 0.242605 0.238989 0 200 255
0.362617 0.356016 0.179953 0 200 255
0.441580 0.269576 0.243878 0 200 255
0.449190 0.252196 0.201288 0 200 255
0.418358 0.337313 0.217661 0 200 255
0.447157 0.379869 0.207835 0 200 255
0.424349 0.320029 0.241311 0 200 255
0.475280 0.282988 0.199822 0 200 255
0.424829 0.352325 0.194572 0 200 255
0.409650 0.313976 0.238388 0 200 255
0.442098 0.384097 0.146688 0 200 255
0.388518 0.330028 0.200153 0 200 255
0.473244 0.241321 0.237764 0 200 255
0.435678 0.379109 0.195816 0 200 255
0.392945 0.224979 0.171814 0 200 255
0.348213 0.358404 0.148983 0 200 255
0.454059 0.356664 0.193839 0 200 255
0.445846 0.336518 0.231001 0 200 255
0.434171 0.367501 0.192789 0 200 255
0.378624 0.316391 0.209979 0 200 255
0.479249 0.253917 0.232548 0 200 255
0.416609 0.342663 0.181303 0 200 255
0.355968 0.339906 0.178115 0 200 255
0.367822 0.327847 0.214677 0 200 255
0.388038 0.324055 0.222309 0 200 255
0.403824 0.242181 0.192922 0 200 255
0.425508 0.327319 0.230267 0 200 255
0.359252 0.222053 0.181942 0 200 255
0.489940 0.280168 0.216915 0 200 255
0.414386 0.343177 0.202162 0 200 255
0.466700 0.342079 0.218031 0 200 255
0.405798 0.299658 0.233930 0 200 255
0.376186 0.230562 0.196549 0 200 255
0.432208 0.354310 0.206286 0 200 255
0.475637 0.234377 0.198943 0 200 255
0.413324 0.303610 0.214541 0 200 255
0.446011 0.254476 0.215790 0 200 255
0.469612 0.226973 0.234545 0 200 255
0.423596 0.363110 0.153906 0 200 255
0.350480 0.236191 0.185973 0 200 255
0.451577 0.328118 0.245183 0 200 255
0.429745 0.375065 0.160899 0 200 255
0.327667 0.262902 0.175187 0 200 255
0.376837 0.339622 0.206795 0 200 255
0.451390 0.379108 0.153808 0 200 255
0.395462 0.300712 0.229862 0 200 255
0.423752 0.254442 0.204663 0 200 255
0.427390 0.265646 0.234990 0 200 255
0.428111 0.351411 0.183823 0 200 255
0.402400 0.316468 0.214713 0 200 255
0.403772 0.232811 0.194228 0 200 255
0.447765 0.303786 0.242481 0 200 255
0.409162 0.345016 0.141297 0 200 255
0.414151 0.340581 0.165437 0 200 255
0.441660 0.354333 0.186831 0 200 255
0.412457 0.330303 0.228650 0 200 255
0.450024 0.379772 0.181255 0 200 255
0.386549 0.315326 0.228896 0 200 255
0.411888 0.263538 0.226179 0 200 255
0.364440 0.350382 0.162847 0 200 255
0.452551 0.349330 0.222304 0 200 255
0.367616 0.224768 0.165778 0 200 255
0.482186 0.282448 0.238616 0 200 255
0.399164 0.275374 0.219730 0 200 255
0.400393 0.231224 0.182877 0 200 255
0.426159 0.299973 0.240729 0 200 255
0.356395 0.352677 0.173243 0 200 255
0.394138 0.249743 0.183049 0 200 255
0.401754 0.306321 0.217956 0 200 255
0.445396 0.373643 0.202973 0 200 255
0.401258 0.303268 0.242839 0 200 255
0.426458 0.236842 0.210720 0 200 255
0.432132 0.354950 0.166605 0 200 255
0.467768 0.330961 0.222634 0 200 255
0.342217 0.237867 0.175711 0 200 255
0.424849 0.347435 0.158757 0 200 255
0.397186 0.224147 0.199415 0 200 255
0.421195 0.370025 0.190652 0 200 255
0.429098 0.357404 0.141039 0 200 255
0.470835 0.262958 0.240980 0 200 255
0.405281 0.353240 0.183350 0 200 255
0.414417 0.287738 0.200059 0 200 255
0.355530 0.228090 0.165937 0 200 255
0.433075 0.248867 0.199427 0 200 255
0.454116 0.359955 0.225106 0 200 255
0.414673 0.277849 0.239944 0 200 255
0.367026 0.329621 0.186975 0 200 255
0.463720 0.323779 0.212130 0 200 255
0.448153 0.332798 0.214877 0 200 255
0.435297 0.316776 0.229317 0 200 255
0.477094 0.309192 0.205124 0 200 255
0.359314 0.334406 0.200453 0 200 255
0.465939 0.243220 0.193887 0 200 255
0.484427 0.244002 0.207074 0 200 255
0.456594 0.294349 0.243493 0 200 255
0.359875 0.344696 0.205279 0 200 255
0.447340 0.393291 0.154494 0 200 255
0.430522 0.275515 0.202455 0 200 255
0.316338 0.249325 0.178260 0 200 255
0.370206 0.339734 0.181819 0 200 255
0.350176 0.247092 0.169570 0 200 255
0.453394 0.229133 0.238264 0 200 255
0.389754 0.328333 0.207814 0 200 255
0.340350 0.259348 0.166087 0 200 255
0.492675 0.273722 0.224904 0 200 255
0.445545 0.351151 0.218679 0 200 255
0.407569 0.342413 0.189033 0 200 255
0.459125 0.276187 0.242252 0 200 255
0.400633 0.234307 0.208929 0 200 255
0.404860 0.292944 0.219495 0 200 255
0.473362 0.309802 0.242881 0 200 255
0.441888 0.337101 0.212618 0 200 255
0.472329 0.254708 0.237801 0 200 255
0.357836 0.351916 0.153818 0 200 255
0.433835 0.308996 0.241552 0 200 255
0.438579 0.359045 0.143136 0 200 255
0.470385 0.328587 0.214813 0 200 255
0.480426 0.255560 0.201367 0 200 255
0.353381 0.365818 0.158921 0 200 255
0.449821 0.378710 0.167836 0 200 255
0.376416 0.340853 0.186807 0 200 255
0.429677 0.367860 0.202325 0 200 255
0.473606 0.245558 0.214850 0 200 255
0.395171 0.314908 0.231632 0 200 255
0.413854 0.251538 0.229580 0 200 255
0.449180 0.325025 0.214309 0 200 255
0.411817 0.329103 0.210625 0 200 255
0.420276 0.368439 0.160046 0 200 255
0.458029 0.309555 0.243797 0 200 255
0.434538 0.316285 0.245638 0 200 255
0.426384 0.369407 0.172040 0 200 255
0.432323 0.329608 0.227191 0 200 255
0.456431 0.327597 0.227316 0 200 255
0.478399 0.321553 0.233657 0 200 255
0.387152 0.250387 0.196826 0 200 255
0.366243 0.242273 0.179217 0 200 255
0.310285 0.255970 0.164745 0 200 255
0.409737 0.338307 0.180711 0 200 255
0.412765 0.254403 0.217728 0 200 255
0.410279 0.264609 0.214588 0 200 255
0.417025 0.241715 0.205833 0 200 255
0.428641 0.368978 0.139602 0 200 255
0.467786 0.236663 0.234915 0 200 255
0.413348 0.355205 0.137553 0 200 255
0.483416 0.264794 0.233807 0 200 255
0.427723 0.351341 0.218468 0 200 255
0.366160 0.347017 0.169681 0 200 255
0.354308 0.351317 0.183164 0 200 255
0.423566 0.236372 0.220232 0 200 255
0.460366 0.236406 0.197954 0 200 255
0.436358 0.369473 0.182634 0 200 255
0.447513 0.307200 0.209843 0 200 255
0.411288 0.236508 0.209896 0 200 255
0.332318 0.244959 0.162061 0 200 255
0.488205 0.284798 0.233233 0 200 255
0.328896 0.236777 0.173260 0 200 255
0.378155 0.224620 0.168684 0 200 255
0.430117 0.293444 0.201364 0 200 255
0.458846 0.261265 0.200520 0 200 255
0.367541 0.241642 0.199494 0 200 255
0.457080 0.278257 0.202851 0 200 255
0.427185 0.245348 0.232842 0 200 255
0.418864 0.349062 0.208201 0 200 255
0.365237 0.226418 0.199002 0 200 255
0.443130 0.236683 0.231901 0 200 255
0.400979 0.276489 0.232871 0 200 255
0.435997 0.325631 0.220022 0 200 255
0.463722 0.287638 0.242040 0 200 255
0.376677 0.317517 0.217612 0 200 255
0.430419 0.257384 0.236757 0 200 255
0.440584 0.339579 0.197008 0 200 255
0.438669 0.350924 0.213305 0 200 255
0.451864 0.345241 0.201349 0 200 255
0.401374 0.301193 0.211004 0 200 255
0.438719 0.360422 0.196377 0 200 255
0.389043 0.249995 0.177419 0 200 255
0.489298 0.297579 0.230389 0 200 255
0.448767 0.343668 0.217127 0 200 255
0.440199 0.243635 0.214429 0 200 255
0.379175 0.221878 0.178512 0 200 255
0.343738 0.232737 0.161467 0 200 255
0.485863 0.244544 0.218806 0 200 255
0.365995 0.335503 0.213453 0 200 255
0.445789 0.276674 0.244870 0 200 255
0.411746 0.347026 0.212715 0 200 255
0.354761 0.342406 0.188002 0 200 255
0.445559 0.379837 0.198730 0 200 255
0.442687 0.220261 0.211803 0 200 255
0.429286 0.365896 0.180674 0 200 255
0.375340 0.330777 0.220336 0 200 255
0.437029 0.359749 0.209326 0 200 255
0.426951 0.365305 0.191519 0 200 255
0.399964 0.296087 0.226096 0 200 255
0.413178 0.351911 0.162746 0 200 255
0.377251 0.229858 0.204405 0 200 255
0.476724 0.318550 0.211422 0 200 255
0.469140 0.276805 0.202660 0 200 255
0.385585 0.222268 0.188944 0 200 255
0.410037 0.291870 0.231937 0 200 255
0.460953 0.264143 0.241430 0 200 255
0.321328 0.249700 0.170823 0 200 255
0.457897 0.343959 0.228829 0 200 255
0.430681 0.233910 0.216216 0 200 255
0.379995 0.249771 0.203123 0 200 255
0.460623 0.359267 0.198693 0 200 255
0.449195 0.319258 0.246608 0 200 255
0.443962 0.274001 0.236769 0 200 255
0.350374 0.360407 0.171721 0 200 255
0.485786 0.306599 0.208712 0 200 255
0.339641 0.248090 0.157075 0 200 255
0.454283 0.313152 0.210665 0 200 255
0.364976 0.229280 0.186143 0 200 255
0.406642 0.266372 0.230662 0 200 255
0.457680 0.322903 0.236230 0 200 255
0.381732 0.323560 0.218208 0 200 255
0.355996 0.247822 0.174056 0 200 255
0.335668 0.253229 0.165016 0 200 255
0.374382 0.238285 0.163158 0 200 255
0.443022 0.388768 0.186544 0 200 255
0.466503 0.333016 0.229945 0 200 255
0.339323 0.249826 0.176559 0 200 255
0.406114 0.354111 0.168097 0 200 255
0.455280 0.316827 0.222919 0 200 255
0.447245 0.370183 0.172897 0 200 255
0.368335 0.228514 0.177389 0 200 255
0.426228 0.370734 0.146480 0 200 255
0.371688 0.220198 0.181608 0 200 255
0.365320 0.348523 0.201671 0 200 255
0.385205 0.310213 0.213597 0 200 255
0.371165 0.222525 0.191649 0 200 255
0.437621 0.379738 0.180565 0 200 255
0.444518 0.359657 0.219980 0 200 255
0.408018 0.285390 0.242084 0 200 255
0.446187 0.392394 0.176921 0 200 255
0.422093 0.288908 0.242719 0 200 255
0.409086 0.351969 0.198967 0 200 255
0.450872 0.264375 0.236451 0 200 255
0.445071 0.378561 0.190145 0 200 255
0.380922 0.337040 0.199950 0 200 255
0.426801 0.336483 0.198487 0 200 255
0.436123 0.323448 0.245814 0 200 255
0.411141 0.241899 0.195150 0 200 255
0.442674 0.365571 0.215381 0 200 255
0.439639 0.310674 0.219890 0 200 255
0.425043 0.345501 0.169715 0 200 255
0.399416 0.228462 0.172885 0 200 255
0.430224 0.357824 0.153543 0 200 255
0.474816 0.268440 0.238462 0 200 255
0.434798 0.343446 0.219549 0 200 255
0.447845 0.374273 0.158090 0 200 255
0.415490 0.266794 0.236964 0 200 255
0.477769 0.246338 0.200627 0 200 255
0.374041 0.249490 0.169836 0 200 255
0.443613 0.326462 0.233680 0 200 255
0.364942 0.220762 0.177788 0 200 255
0.437530 0.367442 0.144295 0 200 255
0.441097 0.369998 0.189953 0 200 255
0.382592 0.242187 0.202686 0 200 255
0.446954 0.313861 0.204834 0 200 255
0.445808 0.285002 0.243754 0 200 255
0.364615 0.341871 0.177890 0 200 255
0.450485 0.388296 0.159045 0 200 255
0.400833 0.290476 0.205496 0 200 255
0.327219 0.256504 0.170274 0 200 255
0.332103 0.244129 0.169272 0 200 255
0.406090 0.239714 0.175706 0 200 255
0.415288 0.359303 0.151871 0 200 255
0.421832 0.248274 0.201279 0 200 255
0.349521 0.236009 0.193241 0 200 255
0.346482 0.365277 0.160829 0 200 255
0.412341 0.247724 0.203588 0 200 255
0.452743 0.337849 0.217944 0 200 255
0.413207 0.312512 0.230097 0 200 255
0.465336 0.313410 0.204301 0 200 255
0.471268 0.310907 0.210369 0 200 255
0.412751 0.347231 0.171123 0 200 255
0.346363 0.351096 0.160154 0 200 255
0.337123 0.235873 0.161950 0 200 255
0.424551 0.251138 0.211282 0 200 255
0.361850 0.352781 0.195744 0 200 255
0.427614 0.345434 0.195524 0 200 255
0.457165 0.304439 0.209471 0 200 255
0.469788 0.303205 0.244517 0 200 255
0.432376 0.241422 0.206598 0 200 255
0.458248 0.257766 0.242706 0 200 255
0.391999 0.221502 0.186166 0 200 255
0.463142 0.349946 0.204618 0 200 255
0.425885 0.252038 0.236900 0 200 255
0.442499 0.387016 0.165683 0 200 255
0.408407 0.344064 0.156384 0 200 255
0.424061 0.330542 0.190005 0 200 255
0.428859 0.328209 0.211642 0 200 255
0.410282 0.309832 0.213498 0 200 255
0.357657 0.239438 0.195835 0 200 255
0.439330 0.305338 0.203939 0 200 255
0.390633 0.241178 0.205157 0 200 255
0.341419 0.228529 0.184530 0 200 255
0.418784 0.309041 0.245204 0 200 255
0.429833 0.362382 0.171194 0 200 255
0.405804 0.355044 0.159935 0 200 255
0.398985 0.223049 0.187957 0 200 255
0.445972 0.352829 0.200006 0 200 255
0.417280 0.347444 0.196068 0 200 255
0.396257 0.244512 0.190030 0 200 255
0.369471 0.337756 0.204351 0 200 255
0.395039 0.287935 0.227657 0 200 255
0.368940 0.249797 0.182315 0 200 255
0.438751 0.320612 0.238618 0 200 255
0.416453 0.256894 0.233178 0 200 255
0.417241 0.325739 0.222093 0 200 255
0.465315 0.315854 0.244377 0 200 255
0.443083 0.363234 0.191350 0 200 255
0.365137 0.235537 0.177216 0 200 255
0.349624 0.238253 0.164874 0 200 255
0.425753 0.355681 0.211914 0 200 255
0.431139 0.345136 0.226037 0 200 255
0.449994 0.300789 0.208965 0 200 255
0.363112 0.248155 0.169900 0 200 255
0.365798 0.349409 0.185640 0 200 255
0.423549 0.342539 0.214449 0 200 255
0.421745 0.350442 0.186328 0 200 255
0.418942 0.340327 0.134289 0 200 255
0.418348 0.303980 0.202599 0 200 255
0.415595 0.268574 0.203381 0 200 255
0.451124 0.364499 0.191050 0 200 255
0.380180 0.335806 0.213921 0 200 255
0.441986 0.375873 0.162607 0 200 255
0.451529 0.383981 0.187432 0 200 255
0.437018 0.277695 0.239789 0 200 255
0.440479 0.260150 0.210275 0 200 255
0.396453 0.242467 0.171452 0 200 255
0.435725 0.337368 0.215610 0 200 255
0.329810 0.252737 0.160329 0 200 255
0.467029 0.280951 0.242557 0 200 255
0.369789 0.324744 0.204700 0 200 255
0.486810 0.278377 0.235616 0 200 255
0.414856 0.347552 0.128833 0 200 255
0.440886 0.371136 0.170536 0 200 255
0.408580 0.291094 0.201249 0 200 255
0.454105 0.238028 0.210041 0 200 255
0.395871 0.249564 0.175585 0 200 255
0.362351 0.335320 0.188999 0 200 255
0.479237 0.325429 0.225489 0 200 255
0.419042 0.242583 0.222445 0 200 255
0.407718 0.343858 0.208002 0 200 255
0.451231 0.326085 0.238681 0 200 255
0.332097 0.259111 0.180548 0 200 255
0.450157 0.229798 0.196372 0 200 255
0.484744 0.241002 0.227786 0 200 255
0.434355 0.298192 0.242205 0 200 255
0.411077 0.230054 0.180317 0 200 255
0.452503 0.323673 0.220120 0 200 255
0.447653 0.392784 0.169692 0 200 255
0.404132 0.270419 0.209178 0 200 255
0.422304 0.351240 0.172782 0 200 255
0.413575 0.352638 0.148426 0 200 255
0.438911 0.380691 0.151633 0 200 255
0.442793 0.225510 0.205667 0 200 255
0.384889 0.230634 0.197795 0 200 255
0.430475 0.343768 0.188060 0 200 255
0.401878 0.227868 0.203127 0 200 255
0.395391 0.302729 0.223385 0 200 255
0.434981 0.362973 0.203720 0 200 255
0.347871 0.235706 0.178770 0 200 255
0.420427 0.356991 0.164090 0 200 255
0.353030 0.348255 0.177128 0 200 255
0.355272 0.236964 0.179422 0 200 255
0.486002 0.278000 0.206752 0 200 255
0.465683 0.317096 0.211214 0 200 255
0.398087 0.308833 0.232259 0 200 255
0.347314 0.226211 0.173232 0 200 255
0.484482 0.235795 0.215723 0 200 255
0.448284 0.223574 0.198949 0 200 255
0.416666 0.343262 0.151409 0 200 255
0.434808 0.387699 0.170960 0 200 255
0.435211 0.388357 0.157692 0 200 255
0.421753 0.361362 0.177120 0 200 255
0.368861 0.350794 0.178661 0 200 255
0.337032 0.248919 0.183410 0 200 255
0.437782 0.242966 0.201190 0 200 255
0.390830 0.224135 0.202502 0 200 255
0.358543 0.361616 0.163277 0 200 255
0.484847 0.301348 0.222591 0 200 255
0.385347 0.249730 0.170279 0 200 255
0.456063 0.246881 0.203282 0 200 255
0.467219 0.250515 0.239891 0 200 255
0.449622 0.261638 0.243391 0 200 255
0.409337 0.227984 0.201050 0 200 255
0.431106 0.284800 0.199980 0 200 255
0.414324 0.322768 0.212435 0 200 255
0.426074 0.340514 0.180517 0 200 255
0.404701 0.310887 0.243627 0 200 255
0.398928 0.287190 0.236951 0 200 255
0.354975 0.340906 0.198507 0 200 255
0.429581 0.302967 0.245617 0 200 255
0.377664 0.320836 0.193757 0 200 255
0.474594 0.333943 0.231810 0 200 255
0.341896 0.229822 0.176336 0 200 255
0.327601 0.263580 0.162769 0 200 255
0.428514 0.331722 0.202835 0 200 255
0.455763 0.233992 0.234384 0 200 255
0.444213 0.256986 0.242377 0 200 255
0.440819 0.307434 0.244772 0 200 255
0.372434 0.229664 0.169432 0 200 255
0.418441 0.283666 0.237521 0 200 255
0.447458 0.224601 0.229999 0 200 255
0.465561 0.244757 0.235568 0 200 255
0.424368 0.348882 0.136108 0 200 255
0.468834 0.298701 0.205664 0 200 255
0.351215 0.346011 0.164496 0 200 255
0.444961 0.354380 0.206493 0 200 255
0.412711 0.259792 0.208930 0 200 255
0.321752 0.250575 0.162402 0 200 255
0.447338 0.378236 0.173957 0 200 255
0.383137 0.311138 0.219835 0 200 255
0.337538 0.240847 0.172104 0 200 255
0.450162 0.237869 0.196359 0 200 255
0.455334 0.315815 0.230478 0 200 255
0.415541 0.354316 0.156610 0 200 255
0.405765 0.311208 0.231693 0 200 255
0.325340 0.240759 0.167353 0 200 255
0.360130 0.247386 0.189856 0 200 255
0.469715 0.249266 0.221417 0 200 255
0.430168 0.254608 0.203159 0 200 255
0.455620 0.370914 0.204005 0 200 255
0.405756 0.264626 0.222715 0 200 255
0.385270 0.332792 0.193795 0 200 255
0.490738 0.290667 0.230678 0 200 255
0.351587 0.250089 0.163836 0 200 255
0.363824 0.221547 0.171351 0 200 255
0.411448 0.335606 0.214944 0 200 255
0.430654 0.368576 0.150945 0 200 255
0.348223 0.348763 0.172627 0 200 255
0.470896 0.287274 0.204098 0 200 255
0.414615 0.231763 0.203499 0 200 255
0.482833 0.254678 0.208373 0 200 255
0.427123 0.333085 0.217307 0 200 255
0.425492 0.349290 0.207569 0 200 255
0.373090 0.345236 0.190373 0 200 255
0.416095 0.356409 0.191032 0 200 255
0.434578 0.244094 0.219173 0 200 255
0.454954 0.281180 0.243030 0 200 255
0.468261 0.251581 0.206370 0 200 255
0.409227 0.280008 0.204066 0 200 255
0.318424 0.260827 0.172533 0 200 255
0.431857 0.373947 0.181052 0 200 255
0.396202 0.320440 0.224710 0 200 255
0.476688 0.327484 0.235803 0 200 255
0.330657 0.246492 0.183311 0 200 255
0.345848 0.248962 0.182581 0 200 255
0.357604 0.237686 0.163363 0 200 255
0.403404 0.303281 0.204929 0 200 255
0.353232 0.346909 0.157773 0 200 255
0.421937 0.354658 0.157815 0 200 255
0.444747 0.247572 0.202431 0 200 255
0.475831 0.245489 0.227241 0 200 255
0.437671 0.343134 0.191402 0 200 255
0.415111 0.360308 0.176559 0 200 255
0.430426 0.376644 0.167985 0 200 255
0.439562 0.357444 0.152308 0 200 255
0.432711 0.353315 0.159544 0 200 255
0.385956 0.229845 0.173498 0 200 255
0.447737 0.387402 0.191438 0 200 255
0.413957 0.237757 0.199271 0 200 255
