ply
format ascii 1.0
element vertex 1024
property float x
property float y
property float z
property uchar red
property uchar green
property uchar blue
end_header
0.463984 0.237805 0.243451 0 200 255
0.341163 0.358796 0.159998 0 200 255
0.348343 0.221024 0.169986 0 200 255
0.451726 0.363099 0.222441 0 200 255
0.376658 0.308624 0.229650 0 200 255
0.422285 0.341960 0.143908 0 200 255
0.487494 0.300757 0.218689 0 200 255
0.407601 0.244581 0.200553 0 200 255
0.433943 0.292446 0.249771 0 200 255
0.442742 0.390338 0.171049 0 200 255
0.403591 0.347935 0.197006 0 200 255
0.451329 0.271059 0.203182 0 200 255
0.313576 0.255581 0.170888 0 200 255
0.356025 0.343646 0.203266 0 200 255
0.459335 0.225029 0.196928 0 200 255
0.416835 0.304729 0.208418 0 200 255
0.466487 0.326152 0.247263 0 200 255
0.399994 0.271724 0.234408 0 200 255
0.375312 0.217197 0.202767 0 200 255
0.488308 0.257544 0.217248 0 200 255
0.469758 0.277636 0.245755 0 200 255
0.382739 0.239191 0.170381 0 200 255
0.426491 0.240210 0.236671 0 200 255
0.425479 0.336379 0.229099 0 200 255
0.455274 0.317797 0.210894 0 200 255
0.415937 0.367044 0.169471 0 200 255
0.438649 0.344664 0.194147 0 200 255
0.382070 0.322416 0.199104 0 200 255
0.341620 0.247973 0.187406 0 200 255
0.432877 0.378897 0.200084 0 200 255
0.403438 0.305901 0.247907 0 200 255
0.419605 0.273035 0.207494 0 200 255
0.356848 0.335534 0.173183 0 200 255
0.400549 0.218604 0.184439 0 200 255
0.406965 0.336376 0.169359 0 200 255
0.436303 0.239304 0.208736 0 200 255
0.441357 0.264066 0.245298 0 200 255
0.449390 0.216505 0.223219 0 200 255
0.437573 0.320922 0.249812 0 200 255
0.369049 0.244072 0.196600 0 200 255
0.333775 0.241382 0.157995 0 200 255
0.431315 0.368369 0.146489 0 200 255
0.393125 0.291929 0.211538 0 200 255
0.373658 0.215100 0.176113 0 200 255
0.478936 0.302163 0.244267 0 200 255
0.422396 0.358214 0.212345 0 200 255
0.464202 0.339555 0.222464 0 200 255
0.443381 0.284424 0.226724 0 200 255
0.460733 0.244466 0.216480 0 200 255
0.418402 0.327274 0.190961 0 200 255
0.346514 0.222154 0.195772 0 200 255
0.481665 0.279085 0.204607 0 200 255
0.486713 0.233432 0.225910 0 200 255
0.454281 0.364639 0.196995 0 200 255
0.370238 0.331293 0.220277 0 200 255
0.434689 0.313404 0.224562 0 200 255
0.398131 0.222954 0.210627 0 200 255
0.490783 0.277583 0.231104 0 200 255
0.454925 0.304149 0.247005 0 200 255
0.463780 0.295827 0.206017 0 200 255
0.407686 0.329870 0.214336 0 200 255
0.480800 0.234149 0.202614 0 200 255
0.439527 0.367032 0.175564 0 200 255
0.323529 0.234847 0.179143 0 200 255
0.408789 0.293215 0.228766 0 200 255
0.349156 0.355700 0.181655 0 200 255
0.409830 0.253267 0.224867 0 200 255
0.359013 0.241172 0.168923 0 200 255
0.445961 0.344999 0.234616 0 200 255
0.404042 0.351760 0.152709 0 200 255
0.415634 0.366892 0.191947 0 200 255
0.430039 0.351026 0.162510 0 200 255
0.434317 0.329659 0.209709 0 200 255
0.417469 0.231383 0.216925 0 200 255
0.398661 0.312363 0.224882 0 200 255
0.479153 0.258172 0.241633 0 200 255
0.414689 0.282136 0.247269 0 200 255
0.402846 0.241856 0.178690 0 200 255
0.387762 0.241940 0.208951 0 200 255
0.477651 0.318505 0.231084 0 200 255
0.414888 0.320457 0.237278 0 200 255
0.421520 0.260097 0.240703 0 200 255
0.453739 0.323378 0.230723 0 200 255
0.468461 0.259601 0.204372 0 200 255
0.360140 0.326739 0.191380 0 200 255
0.438169 0.301963 0.208115 0 200 255
0.419227 0.347101 0.181496 0 200 255
0.438642 0.255152 0.220786 0 200 255
0.446144 0.377951 0.155766 0 200 255
0.443704 0.347145 0.213061 0 200 255
0.362373 0.228714 0.186472 0 200 255
0.333194 0.255477 0.171471 0 200 255
0.445942 0.235424 0.236581 0 200 255
0.387280 0.244900 0.189493 0 200 255
0.423020 0.308550 0.249853 0 200 255
0.447160 0.382276 0.187908 0 200 255
0.380730 0.307864 0.211366 0 200 255
0.435877 0.282271 0.207880 0 200 255
0.399505 0.271764 0.215713 0 200 255
0.391547 0.297815 0.236010 0 200 255
0.452580 0.284164 0.248986 0 200 255
0.420292 0.341931 0.202650 0 200 255
0.402969 0.354134 0.175768 0 200 255
0.413619 0.227112 0.199424 0 200 255
0.461369 0.261282 0.245223 0 200 255
0.366391 0.343443 0.186642 0 200 255
0.462490 0.220373 0.238120 0 200 255
0.429976 0.381336 0.181981 0 200 255
0.428144 0.258709 0.200241 0 200 255
0.346414 0.338046 0.188351 0 200 255
0.451752 0.252716 0.203474 0 200 255
0.448008 0.375619 0.209536 0 200 255
0.357699 0.351408 0.165169 0 200 255
0.437836 0.361361 0.202965 0 200 255
0.384461 0.225645 0.190075 0 200 255
0.471597 0.325877 0.213881 0 200 255
0.478629 0.228039 0.241531 0 200 255
0.407503 0.348599 0.135734 0 200 255
0.460381 0.347406 0.207408 0 200 255
0.371837 0.336595 0.202066 0 200 255
0.341001 0.344434 0.171284 0 200 255
0.385217 0.323199 0.222750 0 200 255
0.357329 0.327512 0.208743 0 200 255
0.474671 0.245291 0.228268 0 200 255
0.420759 0.247201 0.211702 0 200 255
0.430942 0.383557 0.160984 0 200 255
0.407960 0.286619 0.205357 0 200 255
0.388578 0.223390 0.170833 0 200 255
0.323222 0.250826 0.184312 0 200 255
0.467657 0.243779 0.198742 0 200 255
0.422923 0.302540 0.229104 0 200 255
0.410167 0.334940 0.152777 0 200 255
0.469893 0.308651 0.214539 0 200 255
0.337476 0.225941 0.181416 0 200 255
0.353338 0.239130 0.195632 0 200 255
0.432762 0.230564 0.223047 0 200 255
0.415422 0.232291 0.183900 0 200 255
0.449489 0.227991 0.209779 0 200 255
0.431429 0.350983 0.224469 0 200 255
0.419198 0.360523 0.154136 0 200 255
0.431591 0.358914 0.188082 0 200 255
0.317671 0.242652 0.161891 0 200 255
0.419559 0.320557 0.208329 0 200 255
0.488881 0.293027 0.235643 0 200 255
0.363119 0.225555 0.166053 0 200 255
0.339449 0.240468 0.173558 0 200 255
0.415425 0.343102 0.218545 0 200 255
0.405907 0.337163 0.185150 0 200 255
0.451941 0.247865 0.245594 0 200 255
0.459154 0.337139 0.238365 0 200 255
0.444474 0.334481 0.222960 0 200 255
0.414629 0.350692 0.165631 0 200 255
0.347147 0.233469 0.160413 0 200 255
0.400214 0.231979 0.192639 0 200 255
0.430561 0.275133 0.247843 0 200 255
0.466443 0.292933 0.246413 0 200 255
0.466300 0.280009 0.207358 0 200 255
0.415692 0.315558 0.222696 0 200 255
0.370467 0.242206 0.179160 0 200 255
0.368724 0.316451 0.216748 0 200 255
0.364653 0.229132 0.201586 0 200 255
0.433896 0.366445 0.161376 0 200 255
0.450027 0.376857 0.170576 0 200 255
0.410580 0.258388 0.210119 0 200 255
0.450354 0.292794 0.212353 0 200 255
0.391819 0.318318 0.209825 0 200 255
0.404161 0.237132 0.213096 0 200 255
0.394936 0.285623 0.224968 0 200 255
0.403680 0.302218 0.214949 0 200 255
0.481335 0.273126 0.218237 0 200 255
0.479204 0.243388 0.214317 0 200 255
0.443453 0.241207 0.221855 0 200 255
0.368325 0.214563 0.190057 0 200 255
0.415022 0.296944 0.245695 0 200 255
0.377699 0.231348 0.207944 0 200 255
0.430369 0.353808 0.147341 0 200 255
0.438027 0.364403 0.217247 0 200 255
0.453210 0.318557 0.248637 0 200 255
0.458164 0.352046 0.229392 0 200 255
0.334320 0.236612 0.192811 0 200 255
0.393502 0.216845 0.197310 0 200 255
0.431269 0.323311 0.234641 0 200 255
0.436607 0.250494 0.244173 0 200 255
0.367781 0.319238 0.202661 0 200 255
0.347065 0.345677 0.157352 0 200 255
0.491485 0.283032 0.214352 0 200 255
0.467226 0.311554 0.246837 0 200 255
0.421256 0.338379 0.162482 0 200 255
0.402414 0.288960 0.244855 0 200 255
0.455645 0.233553 0.226361 0 200 255
0.426683 0.359432 0.174678 0 200 255
0.448622 0.312094 0.223208 0 200 255
0.388104 0.300493 0.222683 0 200 255
0.481985 0.256019 0.203761 0 200 255
0.472800 0.331266 0.233764 0 200 255
0.351484 0.233761 0.177899 0 200 255
0.480839 0.295643 0.207665 0 200 255
0.424201 0.367968 0.202723 0 200 255
0.423142 0.236528 0.202706 0 200 255
0.331701 0.230358 0.168288 0 200 255
0.436986 0.305323 0.235484 0 200 255
0.426820 0.325257 0.220393 0 200 255
0.481744 0.314006 0.218786 0 200 255
0.380342 0.328629 0.211307 0 200 255
0.388725 0.315102 0.233634 0 200 255
0.444020 0.367618 0.188300 0 200 255
0.430079 0.312123 0.211747 0 200 255
0.313302 0.242855 0.175521 0 200 255
0.405239 0.342320 0.209757 0 200 255
0.415878 0.241582 0.227728 0 200 255
0.449331 0.350418 0.199830 0 200 255
0.443861 0.331286 0.235930 0 200 255
0.490209 0.268821 0.209215 0 200 255
0.406724 0.333671 0.198023 0 200 255
0.419284 0.354418 0.198055 0 200 255
0.437895 0.253698 0.207668 0 200 255
0.408895 0.260092 0.236133 0 200 255
0.411852 0.307952 0.234376 0 200 255
0.442788 0.322396 0.217420 0 200 255
0.446961 0.239715 0.201071 0 200 255
0.453614 0.338186 0.213843 0 200 255
0.485455 0.257836 0.230014 0 200 255
0.422179 0.293084 0.205805 0 200 255
0.417443 0.354207 0.142081 0 200 255
0.442466 0.305327 0.250601 0 200 255
0.483994 0.306126 0.229993 0 200 255
0.429060 0.373481 0.171483 0 200 255
0.417561 0.334422 0.179916 0 200 255
0.427700 0.371076 0.189685 0 200 255
0.481908 0.280379 0.242528 0 200 255
0.412061 0.333204 0.226020 0 200 255
0.468954 0.250453 0.242516 0 200 255
0.373901 0.321819 0.228546 0 200 255
0.371063 0.230046 0.174971 0 200 255
0.411417 0.355213 0.188058 0 200 255
0.441986 0.389946 0.156844 0 200 255
0.426360 0.311756 0.238004 0 200 255
0.452066 0.270150 0.248281 0 200 255
0.398801 0.230454 0.175054 0 200 255
0.354887 0.346945 0.191117 0 200 255
0.443170 0.354953 0.227429 0 200 255
0.428891 0.247239 0.221466 0 200 255
0.402220 0.348340 0.164640 0 200 255
0.348286 0.249148 0.172229 0 200 255
0.408471 0.270546 0.243456 0 200 255
0.358032 0.347686 0.177027 0 200 255
0.456089 0.359272 0.208054 0 200 255
0.423092 0.334522 0.212210 0 200 255
0.426801 0.341666 0.192097 0 200 255
0.351496 0.332425 0.198118 0 200 255
0.386416 0.220812 0.206765 0 200 255
0.481575 0.239301 0.236545 0 200 255
0.420310 0.273480 0.240551 0 200 255
0.409966 0.337616 0.140648 0 200 255
0.372162 0.329953 0.191758 0 200 255
0.348650 0.220985 0.183791 0 200 255
0.388683 0.215530 0.184806 0 200 255
0.448387 0.283279 0.205040 0 200 255
0.451512 0.306562 0.208157 0 200 255
0.362949 0.338637 0.211908 0 200 255
0.443081 0.337368 0.205931 0 200 255
0.446267 0.317410 0.238148 0 200 255
0.328160 0.243299 0.170227 0 200 255
0.395636 0.244688 0.198189 0 200 255
0.322509 0.254956 0.162852 0 200 255
0.347693 0.358744 0.170098 0 200 255
0.432368 0.351470 0.212499 0 200 255
0.425661 0.327923 0.201143 0 200 255
0.419356 0.370789 0.180245 0 200 255
0.362295 0.220321 0.178046 0 200 255
0.402478 0.263385 0.226343 0 200 255
0.405145 0.290392 0.216246 0 200 255
0.408624 0.270255 0.204234 0 200 255
0.444691 0.223814 0.231177 0 200 255
0.476892 0.267483 0.202375 0 200 255
0.399556 0.299745 0.225605 0 200 255
0.371406 0.238677 0.167108 0 200 255
0.344150 0.234023 0.186984 0 200 255
0.435131 0.373099 0.209962 0 200 255
0.404744 0.219817 0.197233 0 200 255
0.413694 0.301029 0.221703 0 200 255
0.397861 0.232627 0.204208 0 200 255
0.422934 0.370022 0.160008 0 200 255
0.454276 0.327944 0.219245 0 200 255
0.380325 0.244926 0.199158 0 200 255
0.469065 0.249290 0.210046 0 200 255
0.410966 0.224320 0.210475 0 200 255
0.465414 0.328204 0.224219 0 200 255
0.393011 0.308012 0.215436 0 200 255
0.490657 0.267811 0.222423 0 200 255
0.435979 0.341039 0.228065 0 200 255
0.441521 0.225225 0.217933 0 200 255
0.445717 0.375070 0.196840 0 200 255
0.402102 0.302471 0.236754 0 200 255
0.441743 0.280896 0.247773 0 200 255
0.453497 0.342822 0.224647 0 200 255
0.340911 0.248232 0.163379 0 200 255
0.458861 0.275688 0.241211 0 200 255
0.375179 0.223812 0.166553 0 200 255
0.435432 0.265524 0.205443 0 200 255
0.451277 0.261183 0.240263 0 200 255
0.332841 0.246284 0.180533 0 200 255
0.464650 0.270044 0.202505 0 200 255
0.362972 0.240869 0.187340 0 200 255
0.489714 0.267091 0.234794 0 200 255
0.397443 0.282517 0.235710 0 200 255
0.361419 0.218233 0.197988 0 200 255
0.432759 0.385408 0.172003 0 200 255
0.373850 0.224977 0.186824 0 200 255
0.441686 0.377854 0.179310 0 200 255
0.460086 0.349137 0.218343 0 200 255
0.421239 0.346932 0.153710 0 200 255
0.376310 0.244406 0.188299 0 200 255
0.342365 0.347039 0.182352 0 200 255
0.412265 0.349311 0.204924 0 200 255
0.457279 0.231020 0.237932 0 200 255
0.402242 0.242400 0.189676 0 200 255
0.469308 0.229440 0.198399 0 200 255
0.437202 0.385119 0.191596 0 200 255
0.384705 0.312266 0.221798 0 200 255
0.392421 0.242180 0.174593 0 200 255
0.432618 0.305102 0.245767 0 200 255
0.458498 0.316796 0.222421 0 200 255
0.436178 0.356193 0.170351 0 200 255
0.481252 0.311637 0.239370 0 200 255
0.440110 0.389019 0.181553 0 200 255
0.417271 0.344261 0.133990 0 200 255
0.439960 0.374507 0.165285 0 200 255
0.422318 0.263077 0.210727 0 200 255
0.433343 0.333867 0.220208 0 200 255
0.418024 0.250814 0.236478 0 200 255
0.377190 0.313240 0.201966 0 200 255
0.430146 0.246767 0.204009 0 200 255
0.462710 0.321695 0.238219 0 200 255
0.415327 0.355316 0.175765 0 200 255
0.460452 0.238425 0.207593 0 200 255
0.381048 0.224262 0.178444 0 200 255
0.427276 0.232940 0.212882 0 200 255
0.476883 0.268412 0.239456 0 200 255
0.355789 0.334728 0.183798 0 200 255
0.351485 0.342589 0.167215 0 200 255
0.413559 0.321294 0.199531 0 200 255
0.407562 0.226367 0.179535 0 200 255
0.401727 0.349424 0.185242 0 200 255
0.437285 0.240743 0.239962 0 200 255
0.443347 0.383316 0.203138 0 200 255
0.436627 0.356928 0.156608 0 200 255
0.423254 0.234067 0.226388 0 200 255
0.362973 0.339885 0.196256 0 200 255
0.418081 0.342410 0.171685 0 200 255
0.324740 0.239765 0.188342 0 200 255
0.412574 0.242354 0.182980 0 200 255
0.425766 0.341857 0.220186 0 200 255
0.412622 0.310883 0.247538 0 200 255
0.409749 0.323136 0.227558 0 200 255
0.450119 0.220629 0.202423 0 200 255
0.429125 0.253536 0.237591 0 200 255
0.407360 0.343564 0.176889 0 200 255
0.351284 0.355618 0.158124 0 200 255
0.480576 0.290511 0.244443 0 200 255
0.378673 0.214470 0.190816 0 200 255
0.443056 0.312396 0.209429 0 200 255
0.425277 0.295810 0.244881 0 200 255
0.446170 0.242540 0.211989 0 200 255
0.381991 0.244502 0.179695 0 200 255
0.432593 0.336501 0.198874 0 200 255
0.437619 0.382050 0.151705 0 200 255
0.436039 0.369905 0.195588 0 200 255
0.427538 0.358258 0.203052 0 200 255
0.417124 0.326167 0.217247 0 200 255
0.446213 0.358536 0.194440 0 200 255
0.421990 0.363016 0.144540 0 200 255
0.399351 0.292209 0.232549 0 200 255
0.422279 0.346452 0.211584 0 200 255
0.457721 0.334407 0.228523 0 200 255
0.411233 0.341105 0.160780 0 200 255
0.449228 0.371076 0.178926 0 200 255
0.347386 0.338496 0.176471 0 200 255
0.478749 0.244449 0.204244 0 200 255
0.388877 0.229835 0.210659 0 200 255
0.337145 0.349991 0.163748 0 200 255
0.462395 0.252087 0.201115 0 200 255
0.344031 0.231962 0.169914 0 200 255
0.455705 0.293707 0.247816 0 200 255
0.393100 0.224954 0.182040 0 200 255
0.408107 0.234358 0.203743 0 200 255
0.472601 0.322392 0.240221 0 200 255
0.414224 0.241047 0.216215 0 200 255
0.404777 0.345116 0.144846 0 200 255
0.413049 0.346301 0.194101 0 200 255
0.366487 0.324926 0.211898 0 200 255
0.486939 0.242803 0.222393 0 200 255
0.426859 0.268995 0.201636 0 200 255
0.470690 0.241461 0.219146 0 200 255
0.403972 0.277992 0.208468 0 200 255
0.490192 0.285772 0.225463 0 200 255
0.455900 0.313983 0.233230 0 200 255
0.427750 0.284671 0.247297 0 200 255
0.397498 0.283644 0.215562 0 200 255
0.420785 0.356473 0.184962 0 200 255
0.421030 0.327983 0.232015 0 200 255
0.436698 0.234134 0.231446 0 200 255
0.399005 0.276576 0.225487 0 200 255
0.333266 0.235372 0.180839 0 200 255
0.442025 0.274423 0.203384 0 200 255
0.440282 0.297749 0.244331 0 200 255
0.446756 0.270411 0.239938 0 200 255
0.457464 0.240842 0.198481 0 200 255
0.454710 0.217564 0.232717 0 200 255
0.322962 0.257447 0.173342 0 200 255
0.429267 0.349461 0.186460 0 200 255
0.436866 0.354785 0.195681 0 200 255
0.429160 0.367908 0.179610 0 200 255
0.353970 0.226584 0.162541 0 200 255
0.478712 0.253210 0.213809 0 200 255
0.444530 0.231836 0.224651 0 200 255
0.444423 0.325468 0.228018 0 200 255
0.467895 0.228871 0.244168 0 200 255
0.375530 0.323294 0.218325 0 200 255
0.418905 0.359601 0.163844 0 200 255
0.450770 0.366677 0.213432 0 200 255
0.472201 0.300226 0.210266 0 200 255
0.344577 0.232088 0.196478 0 200 255
0.357798 0.226674 0.194942 0 200 255
0.346594 0.240846 0.167060 0 200 255
0.447627 0.383542 0.164023 0 200 255
0.413518 0.298599 0.236325 0 200 255
0.374562 0.240354 0.205337 0 200 255
0.440558 0.355132 0.217371 0 200 255
0.338187 0.225604 0.190981 0 200 255
0.423207 0.284188 0.209249 0 200 255
0.473226 0.286585 0.208272 0 200 255
0.347725 0.244148 0.180386 0 200 255
0.436529 0.374826 0.186775 0 200 255
0.472221 0.241223 0.236652 0 200 255
0.423733 0.350992 0.171377 0 200 255
0.411076 0.355804 0.157682 0 200 255
0.445573 0.324160 0.245810 0 200 255
0.394062 0.224767 0.191927 0 200 255
0.392456 0.317221 0.219410 0 200 255
0.363479 0.331182 0.199997 0 200 255
0.409447 0.287192 0.236049 0 200 255
0.455575 0.326452 0.243966 0 200 255
0.466104 0.240433 0.227364 0 200 255
0.321136 0.237070 0.168701 0 200 255
0.434274 0.332049 0.236653 0 200 255
0.360804 0.234733 0.179135 0 200 255
0.325822 0.246414 0.158824 0 200 255
0.457251 0.284470 0.208065 0 200 255
0.417517 0.244094 0.202944 0 200 255
0.454130 0.261732 0.204773 0 200 255
0.429218 0.299136 0.207346 0 200 255
0.415328 0.263944 0.202441 0 200 255
0.369281 0.321096 0.192832 0 200 255
0.337377 0.232999 0.160075 0 200 255
0.407121 0.338655 0.220253 0 200 255
0.476486 0.324713 0.221756 0 200 255
0.423140 0.239189 0.218457 0 200 255
0.348695 0.342662 0.196610 0 200 255
0.385127 0.303585 0.232527 0 200 255
0.440302 0.346093 0.204373 0 200 255
0.405932 0.306610 0.225273 0 200 255
0.388789 0.232590 0.172756 0 200 255
0.433163 0.316289 0.242358 0 200 255
0.426803 0.317075 0.227731 0 200 255
0.454541 0.239498 0.242613 0 200 255
0.404920 0.264151 0.214619 0 200 255
0.446303 0.253312 0.211475 0 200 255
0.363787 0.234742 0.194203 0 200 255
0.331578 0.252660 0.162409 0 200 255
0.444673 0.217005 0.215258 0 200 255
0.435426 0.237562 0.217717 0 200 255
0.409195 0.329448 0.188885 0 200 255
0.482744 0.250872 0.224688 0 200 255
0.429677 0.251066 0.213163 0 200 255
0.423741 0.351549 0.219058 0 200 255
0.487867 0.295745 0.226960 0 200 255
0.481148 0.264689 0.214721 0 200 255
0.398192 0.297975 0.243680 0 200 255
0.444449 0.343844 0.225688 0 200 255
0.396499 0.241892 0.211580 0 200 255
0.379275 0.331048 0.200061 0 200 255
0.361516 0.330768 0.216819 0 200 255
0.354417 0.336124 0.208294 0 200 255
0.421182 0.337918 0.152524 0 200 255
0.409648 0.326185 0.206097 0 200 255
0.464713 0.317566 0.215870 0 200 255
0.346771 0.350631 0.174510 0 200 255
0.423618 0.334121 0.188145 0 200 255
0.338543 0.253099 0.178793 0 200 255
0.429544 0.260380 0.244879 0 200 255
0.370095 0.224202 0.196307 0 200 255
0.401429 0.234163 0.183223 0 200 255
0.446043 0.366353 0.200298 0 200 255
0.430502 0.289106 0.205415 0 200 255
0.444906 0.253505 0.246137 0 200 255
0.318758 0.247197 0.169783 0 200 255
0.434359 0.322434 0.226208 0 200 255
0.375076 0.311053 0.220200 0 200 255
0.395067 0.309159 0.235873 0 200 255
0.353664 0.224228 0.177104 0 200 255
0.442315 0.333125 0.213773 0 200 255
0.461428 0.281350 0.247603 0 200 255
0.393371 0.225486 0.201318 0 200 255
0.386059 0.216457 0.176336 0 200 255
0.451153 0.372741 0.189735 0 200 255
0.446853 0.384618 0.176479 0 200 255
0.404850 0.342723 0.154804 0 200 255
0.381610 0.317406 0.228749 0 200 255
0.383065 0.217145 0.198438 0 200 255
0.418724 0.360913 0.204083 0 200 255
0.486030 0.288983 0.218035 0 200 255
0.408961 0.353004 0.145431 0 200 255
0.449119 0.337791 0.230463 0 200 255
0.463862 0.310985 0.208503 0 200 255
0.415452 0.340533 0.186054 0 200 255
0.394402 0.294549 0.219881 0 200 255
0.428732 0.364121 0.196214 0 200 255
0.454673 0.344593 0.233346 0 200 255
0.340626 0.224191 0.173374 0 200 255
0.402309 0.276780 0.242602 0 200 255
0.443672 0.371736 0.216133 0 200 255
0.441079 0.311507 0.230296 0 200 255
0.477737 0.307000 0.209715 0 200 255
0.471287 0.260466 0.244747 0 200 255
0.449611 0.353861 0.221616 0 200 255
0.412924 0.336627 0.212504 0 200 255
0.362368 0.240831 0.201216 0 200 255
0.434897 0.376343 0.157720 0 200 255
0.438864 0.272630 0.246884 0 200 255
0.430838 0.303488 0.225565 0 200 255
0.326889 0.236864 0.162149 0 200 255
0.369752 0.332962 0.211073 0 200 255
0.314175 0.250014 0.180396 0 200 255
0.332720 0.245249 0.189173 0 200 255
0.443044 0.233810 0.209234 0 200 255
0.352640 0.237815 0.187067 0 200 255
0.343411 0.241027 0.192309 0 200 255
0.437537 0.346706 0.220061 0 200 255
0.430140 0.360840 0.142296 0 200 255
0.460561 0.248623 0.245385 0 200 255
0.329363 0.231438 0.187476 0 200 255
0.450401 0.353195 0.233018 0 200 255
0.426696 0.326020 0.211513 0 200 255
0.352471 0.344768 0.182948 0 200 255
0.365093 0.233289 0.169479 0 200 255
0.440414 0.354938 0.208743 0 200 255
0.406122 0.244853 0.209050 0 200 255
0.412501 0.291899 0.210440 0 200 255
0.408236 0.221361 0.187184 0 200 255
0.428502 0.344663 0.230318 0 200 255
0.456036 0.301676 0.213611 0 200 255
0.371402 0.225691 0.205642 0 200 255
0.314555 0.251721 0.162666 0 200 255
0.423104 0.333374 0.220722 0 200 255
0.452870 0.343407 0.206278 0 200 255
0.463979 0.331247 0.234423 0 200 255
0.471404 0.301164 0.248232 0 200 255
0.416143 0.353211 0.150878 0 200 255
0.478799 0.251195 0.232904 0 200 255
0.447921 0.311828 0.248313 0 200 255
0.490048 0.277405 0.208058 0 200 255
0.417344 0.250770 0.221613 0 200 255
0.422086 0.300206 0.220305 0 200 255
0.425633 0.366584 0.167352 0 200 255
0.417235 0.307369 0.240960 0 200 255
0.481062 0.230737 0.231690 0 200 255
0.415888 0.363267 0.183422 0 200 255
0.382089 0.229366 0.168622 0 200 255
0.436769 0.389160 0.163621 0 200 255
0.430794 0.378913 0.191847 0 200 255
0.455426 0.235195 0.213627 0 200 255
0.366052 0.334975 0.186173 0 200 255
0.357921 0.233822 0.164825 0 200 255
0.445078 0.241078 0.243291 0 200 255
0.425892 0.354029 0.192748 0 200 255
0.444332 0.305561 0.214250 0 200 255
0.418227 0.237548 0.209511 0 200 255
0.426198 0.354781 0.155996 0 200 255
0.440513 0.375397 0.203824 0 200 255
0.394835 0.220021 0.175432 0 200 255
0.486685 0.274485 0.237783 0 200 255
0.433362 0.358754 0.179846 0 200 255
0.412050 0.319648 0.215663 0 200 255
0.487825 0.282995 0.237155 0 200 255
0.435013 0.233767 0.202544 0 200 255
0.385021 0.314225 0.204836 0 200 255
0.404992 0.237635 0.196626 0 200 255
0.433060 0.312378 0.249913 0 200 255
0.366904 0.322467 0.222296 0 200 255
0.422731 0.315780 0.245635 0 200 255
0.423987 0.367861 0.151991 0 200 255
0.465503 0.268464 0.246323 0 200 255
0.472735 0.276762 0.203146 0 200 255
0.361332 0.215502 0.185607 0 200 255
0.408423 0.334877 0.177547 0 200 255
0.446928 0.259676 0.201141 0 200 255
0.377891 0.224692 0.200230 0 200 255
0.446742 0.251285 0.219527 0 200 255
0.342908 0.352485 0.154876 0 200 255
0.471377 0.224515 0.238011 0 200 255
0.351892 0.229272 0.189723 0 200 255
0.430542 0.359769 0.212557 0 200 255
0.426839 0.336884 0.205200 0 200 255
0.404923 0.294787 0.238111 0 200 255
0.472125 0.287187 0.244660 0 200 255
0.328373 0.255504 0.179282 0 200 255
0.464670 0.236283 0.197122 0 200 255
0.364469 0.342084 0.204039 0 200 255
0.416464 0.335647 0.145243 0 200 255
0.372502 0.314713 0.208523 0 200 255
0.356311 0.335947 0.191880 0 200 255
0.405288 0.228259 0.197854 0 200 255
0.433768 0.313033 0.233596 0 200 255
0.369529 0.218687 0.169443 0 200 255
0.348117 0.349880 0.187673 0 200 255
0.403755 0.228835 0.210461 0 200 255
0.354057 0.354763 0.175229 0 200 255
0.415209 0.236927 0.199875 0 200 255
0.402014 0.226536 0.186518 0 200 255
0.413259 0.299590 0.213577 0 200 255
0.445727 0.369990 0.170192 0 200 255
0.457998 0.353027 0.202068 0 200 255
0.485218 0.298444 0.240734 0 200 255
0.403132 0.288295 0.225673 0 200 255
0.456120 0.358145 0.216079 0 200 255
0.394921 0.244749 0.186808 0 200 255
0.441634 0.367326 0.209654 0 200 255
0.456050 0.228114 0.203652 0 200 255
0.355720 0.351944 0.184722 0 200 255
0.343570 0.230851 0.179492 0 200 255
0.399169 0.219227 0.203020 0 200 255
0.473688 0.238557 0.197690 0 200 255
0.489697 0.278568 0.220795 0 200 255
0.407266 0.298917 0.246396 0 200 255
0.416951 0.339541 0.226696 0 200 255
0.429882 0.317046 0.218077 0 200 255
0.420574 0.352560 0.205750 0 200 255
0.456903 0.275565 0.206770 0 200 255
0.410660 0.260104 0.218470 0 200 255
0.447649 0.373592 0.163290 0 200 255
0.340704 0.353346 0.170073 0 200 255
0.392381 0.296529 0.228171 0 200 255
0.359355 0.342982 0.168522 0 200 255
0.410043 0.351656 0.181047 0 200 255
0.435186 0.361882 0.149053 0 200 255
0.434022 0.365188 0.170095 0 200 255
0.357305 0.221453 0.169643 0 200 255
0.438206 0.268844 0.239763 0 200 255
0.448563 0.313118 0.215324 0 200 255
0.481411 0.305877 0.218731 0 200 255
0.317406 0.241601 0.182212 0 200 255
0.351276 0.240351 0.173448 0 200 255
0.381732 0.305286 0.224114 0 200 255
0.341128 0.252387 0.170122 0 200 255
0.407176 0.352759 0.168947 0 200 255
0.471612 0.318913 0.247255 0 200 255
0.386772 0.323071 0.215001 0 200 255
0.386561 0.323576 0.205496 0 200 255
0.459220 0.294538 0.212551 0 200 255
0.420651 0.362030 0.195601 0 200 255
0.457563 0.311490 0.215031 0 200 255
0.449762 0.298673 0.207137 0 200 255
0.423021 0.336697 0.196895 0 200 255
0.469196 0.234128 0.238466 0 200 255
0.404427 0.339365 0.193111 0 200 255
0.420984 0.346230 0.164450 0 200 255
0.449268 0.378564 0.181284 0 200 255
0.431885 0.277426 0.203170 0 200 255
0.403612 0.341225 0.201067 0 200 255
0.407860 0.348723 0.159204 0 200 255
0.451435 0.222849 0.237496 0 200 255
0.443540 0.364474 0.222819 0 200 255
0.451419 0.331080 0.233881 0 200 255
0.396363 0.299548 0.214182 0 200 255
0.430154 0.330237 0.227893 0 200 255
0.445545 0.361165 0.215223 0 200 255
0.472397 0.316315 0.215640 0 200 255
0.461848 0.319976 0.248222 0 200 255
0.453890 0.242171 0.210543 0 200 255
0.476044 0.236406 0.241411 0 200 255
0.462980 0.342803 0.214884 0 200 255
0.432685 0.369365 0.154284 0 200 255
0.387941 0.244996 0.200601 0 200 255
0.474846 0.310244 0.247405 0 200 255
0.342900 0.344407 0.163754 0 200 255
0.367387 0.236035 0.182985 0 200 255
0.311159 0.248243 0.168784 0 200 255
0.448466 0.231312 0.218014 0 200 255
0.425416 0.240251 0.210373 0 200 255
0.471791 0.332519 0.223627 0 200 255
0.483778 0.262824 0.237568 0 200 255
0.421117 0.288531 0.246489 0 200 255
0.418257 0.353149 0.158429 0 200 255
0.436943 0.350201 0.189085 0 200 255
0.446101 0.341140 0.218682 0 200 255
0.371073 0.315514 0.225178 0 200 255
0.392219 0.306394 0.225364 0 200 255
0.433301 0.379021 0.166703 0 200 255
0.463775 0.338699 0.230414 0 200 255
0.333467 0.237841 0.165940 0 200 255
0.330277 0.229444 0.177048 0 200 255
0.380069 0.219005 0.172328 0 200 255
0.402023 0.347170 0.172188 0 200 255
0.368756 0.235350 0.203255 0 200 255
0.396618 0.290130 0.240026 0 200 255
0.425483 0.363027 0.186095 0 200 255
0.367149 0.220039 0.202681 0 200 255
0.410849 0.302218 0.229097 0 200 255
0.433757 0.358496 0.163479 0 200 255
0.417460 0.349613 0.188864 0 200 255
0.419965 0.360916 0.171499 0 200 255
0.415160 0.351430 0.135234 0 200 255
0.486485 0.285810 0.209388 0 200 255
0.424092 0.320986 0.234069 0 200 255
0.451808 0.329887 0.226124 0 200 255
0.389807 0.244800 0.181188 0 200 255
0.381236 0.216256 0.182138 0 200 255
0.345199 0.225929 0.165187 0 200 255
0.422965 0.355552 0.148659 0 200 255
0.443445 0.383619 0.195602 0 200 255
0.444574 0.222306 0.209166 0 200 255
0.412764 0.341633 0.202772 0 200 255
0.406374 0.330864 0.221703 0 200 255
0.450690 0.320635 0.224429 0 200 255
0.433254 0.378181 0.175550 0 200 255
0.413015 0.333866 0.160081 0 200 255
0.434057 0.230485 0.215674 0 200 255
0.441341 0.248569 0.203441 0 200 255
0.449240 0.277468 0.248942 0 200 255
0.461765 0.298612 0.247722 0 200 255
0.379004 0.223993 0.208081 0 200 255
0.412478 0.247747 0.213421 0 200 255
0.387643 0.216879 0.192560 0 200 255
0.414357 0.303789 0.249021 0 200 255
0.441026 0.377402 0.212079 0 200 255
0.359525 0.342421 0.183394 0 200 255
0.459960 0.265378 0.239165 0 200 255
0.478077 0.312060 0.227375 0 200 255
0.418860 0.313910 0.216161 0 200 255
0.407000 0.349630 0.190490 0 200 255
0.322372 0.242193 0.174773 0 200 255
0.439848 0.384005 0.174040 0 200 255
0.380834 0.244018 0.206908 0 200 255
0.443072 0.287093 0.208537 0 200 255
0.340697 0.241220 0.160981 0 200 255
0.388847 0.318262 0.226901 0 200 255
0.366729 0.222959 0.189838 0 200 255
0.455924 0.319923 0.240523 0 200 255
0.420031 0.324485 0.197592 0 200 255
0.420333 0.230697 0.207775 0 200 255
0.422818 0.369075 0.195426 0 200 255
0.436265 0.296804 0.213026 0 200 255
0.457054 0.355028 0.222693 0 200 255
0.472669 0.293523 0.205858 0 200 255
0.336606 0.246161 0.168987 0 200 255
0.449876 0.358741 0.228200 0 200 255
0.406020 0.257784 0.229553 0 200 255
0.423723 0.266937 0.242306 0 200 255
0.413205 0.314908 0.232385 0 200 255
0.485501 0.242307 0.210660 0 200 255
0.375665 0.232514 0.166888 0 200 255
0.446732 0.300401 0.246629 0 200 255
0.340367 0.242720 0.180484 0 200 255
0.452587 0.260723 0.247470 0 200 255
0.370101 0.222397 0.181074 0 200 255
0.443309 0.260589 0.239147 0 200 255
0.373839 0.214218 0.185238 0 200 255
0.362037 0.324024 0.200634 0 200 255
0.362116 0.341332 0.175104 0 200 255
0.373232 0.216463 0.195293 0 200 255
0.432852 0.372137 0.202898 0 200 255
0.434443 0.265903 0.246858 0 200 255
0.435426 0.367791 0.188479 0 200 255
0.434694 0.282371 0.249091 0 200 255
0.424149 0.304869 0.208183 0 200 255
0.363157 0.241924 0.179021 0 200 255
0.463105 0.237979 0.218880 0 200 255
0.452313 0.368152 0.203599 0 200 255
0.384012 0.310518 0.228991 0 200 255
0.437395 0.361326 0.210593 0 200 255
0.461112 0.345699 0.227335 0 200 255
0.413898 0.346318 0.211366 0 200 255
0.422392 0.339810 0.183758 0 200 255
0.462269 0.331214 0.218379 0 200 255
0.422285 0.347738 0.198742 0 200 255
0.407688 0.280557 0.246143 0 200 255
0.411596 0.232441 0.212786 0 200 255
0.411576 0.352165 0.198283 0 200 255
0.469290 0.249811 0.217273 0 200 255
0.399505 0.308104 0.218652 0 200 255
0.476710 0.249252 0.221017 0 200 255
0.418252 0.371828 0.187327 0 200 255
0.375593 0.319606 0.196038 0 200 255
0.435135 0.387729 0.156191 0 200 255
0.438313 0.307174 0.224111 0 200 255
0.442058 0.372466 0.158685 0 200 255
0.401143 0.223789 0.176511 0 200 255
0.388142 0.313819 0.214748 0 200 255
0.409247 0.294887 0.221774 0 200 255
0.405329 0.335206 0.208706 0 200 255
0.374827 0.243653 0.173631 0 200 255
0.425182 0.329659 0.194185 0 200 255
0.441730 0.322982 0.238026 0 200 255
0.423998 0.248911 0.239964 0 200 255
0.431586 0.355447 0.218415 0 200 255
0.429733 0.372280 0.161577 0 200 255
0.404965 0.341177 0.164432 0 200 255
0.409704 0.327165 0.197731 0 200 255
0.367066 0.214496 0.181434 0 200 255
0.383773 0.236563 0.206423 0 200 255
0.351516 0.233807 0.168012 0 200 255
0.417007 0.366650 0.162412 0 200 255
0.417473 0.341769 0.157255 0 200 255
0.492564 0.270091 0.228905 0 200 255
0.328083 0.249154 0.174294 0 200 255
0.399616 0.269746 0.222549 0 200 255
0.437043 0.384640 0.199411 0 200 255
0.333286 0.236923 0.173141 0 200 255
0.354692 0.239759 0.180001 0 200 255
0.425230 0.373529 0.183188 0 200 255
0.427987 0.355600 0.168014 0 200 255
0.353614 0.348910 0.158550 0 200 255
0.407302 0.235318 0.179384 0 200 255
0.425245 0.352543 0.181061 0 200 255
0.350950 0.228980 0.196989 0 200 255
0.441877 0.334479 0.229573 0 200 255
0.433427 0.288812 0.211880 0 200 255
0.418458 0.340774 0.209722 0 200 255
0.377068 0.326633 0.224413 0 200 255
0.420099 0.347968 0.139327 0 200 255
0.428422 0.234786 0.232539 0 200 255
0.401358 0.284529 0.206839 0 200 255
0.412894 0.343966 0.167124 0 200 255
0.338506 0.228886 0.165717 0 200 255
0.414090 0.289270 0.246776 0 200 255
0.423336 0.248573 0.204579 0 200 255
0.361854 0.346239 0.192069 0 200 255
0.362824 0.331890 0.209485 0 200 255
0.422386 0.301874 0.247061 0 200 255
0.440013 0.362029 0.196281 0 200 255
0.412387 0.251619 0.232305 0 200 255
0.417586 0.338276 0.138795 0 200 255
0.459622 0.272171 0.247493 0 200 255
0.442034 0.352325 0.201581 0 200 255
0.439748 0.339532 0.221260 0 200 255
0.357797 0.336362 0.202123 0 200 255
0.436583 0.318857 0.216909 0 200 255
0.415644 0.307683 0.222908 0 200 255
0.445274 0.373980 0.185566 0 200 255
0.370806 0.336068 0.194954 0 200 255
0.394079 0.216423 0.189766 0 200 255
0.485105 0.304249 0.236664 0 200 255
0.415696 0.335708 0.220565 0 200 255
0.427932 0.364123 0.207718 0 200 255
0.391857 0.235908 0.208872 0 200 255
0.343031 0.221394 0.188203 0 200 255
0.400991 0.218277 0.191553 0 200 255
0.402345 0.298576 0.209148 0 200 255
0.406492 0.344495 0.183943 0 200 255
0.366585 0.229267 0.180947 0 200 255
0.357231 0.328040 0.197582 0 200 255
0.474015 0.249755 0.205167 0 200 255
0.414220 0.336668 0.172469 0 200 255
0.397290 0.239581 0.193754 0 200 255
0.369744 0.243657 0.186122 0 200 255
0.444516 0.389752 0.163778 0 200 255
0.375306 0.315351 0.230828 0 200 255
0.354801 0.342117 0.174050 0 200 255
0.418205 0.356883 0.191377 0 200 255
0.358999 0.232590 0.199611 0 200 255
0.426172 0.324452 0.227229 0 200 255
0.401229 0.305097 0.230423 0 200 255
0.441190 0.233966 0.219000 0 200 255
0.441249 0.341084 0.199442 0 200 255
0.464460 0.279902 0.241578 0 200 255
0.424986 0.366113 0.174408 0 200 255
0.439520 0.309888 0.246350 0 200 255
0.420247 0.343552 0.191106 0 200 255
0.448052 0.378308 0.202673 0 200 255
0.441098 0.370980 0.180981 0 200 255
0.462496 0.319212 0.231803 0 200 255
0.415542 0.347471 0.175597 0 200 255
0.453788 0.236808 0.220113 0 200 255
0.433728 0.244629 0.212245 0 200 255
0.377763 0.329792 0.218089 0 200 255
0.460990 0.308670 0.246756 0 200 255
0.440994 0.256797 0.214070 0 200 255
0.424487 0.256640 0.209776 0 200 255
0.397540 0.237652 0.175164 0 200 255
0.330754 0.245572 0.164302 0 200 255
0.375487 0.332995 0.207322 0 200 255
0.440111 0.373251 0.172341 0 200 255
0.428435 0.331976 0.215840 0 200 255
0.413914 0.283490 0.204129 0 200 255
0.396644 0.244692 0.179339 0 200 255
0.332910 0.251767 0.184592 0 200 255
0.449296 0.334193 0.218148 0 200 255
0.417060 0.264492 0.243391 0 200 255
0.485969 0.239147 0.231345 0 200 255
0.410611 0.349438 0.152112 0 200 255
0.422057 0.246748 0.218793 0 200 255
0.425383 0.347088 0.224524 0 200 255
0.412735 0.225870 0.183930 0 200 255
0.459485 0.324003 0.217358 0 200 255
0.449789 0.222212 0.213524 0 200 255
0.386584 0.225155 0.201460 0 200 255
0.409510 0.304899 0.217180 0 200 255
0.475953 0.251753 0.239040 0 200 255
0.451691 0.370889 0.196452 0 200 255
0.403694 0.223137 0.206745 0 200 255
0.358684 0.228368 0.180138 0 200 255
0.346763 0.360405 0.163588 0 200 255
0.349284 0.228803 0.182517 0 200 255
0.385428 0.307710 0.216828 0 200 255
0.348964 0.219362 0.176870 0 200 255
0.484557 0.304895 0.212822 0 200 255
0.437591 0.306069 0.214367 0 200 255
0.436119 0.252187 0.214896 0 200 255
0.481390 0.263707 0.205720 0 200 255
0.484526 0.275424 0.212743 0 200 255
0.377783 0.317735 0.221432 0 200 255
0.461431 0.288079 0.248153 0 200 255
0.432323 0.342429 0.221687 0 200 255
0.485875 0.234035 0.219239 0 200 255
0.417267 0.365247 0.177012 0 200 255
0.419319 0.323335 0.227438 0 200 255
0.409151 0.343444 0.215970 0 200 255
0.397096 0.229825 0.210743 0 200 255
0.408259 0.309214 0.242686 0 200 255
0.442322 0.241185 0.206372 0 200 255
0.338113 0.241675 0.187327 0 200 255
0.392827 0.218907 0.206119 0 200 255
0.386111 0.244407 0.174055 0 200 255
0.483077 0.301341 0.225381 0 200 255
0.437312 0.347496 0.226826 0 200 255
0.403575 0.287003 0.232817 0 200 255
0.409334 0.325195 0.218849 0 200 255
0.447324 0.320128 0.232119 0 200 255
0.435972 0.384264 0.183811 0 200 255
0.428597 0.298887 0.249789 0 200 255
0.438535 0.368464 0.201603 0 200 255
0.421916 0.352961 0.165272 0 200 255
0.343460 0.222794 0.180024 0 200 255
0.427005 0.353469 0.207652 0 200 255
0.455214 0.358077 0.197627 0 200 255
0.328268 0.256324 0.166873 0 200 255
0.446063 0.342702 0.208550 0 200 255
0.374127 0.223777 0.173116 0 200 255
0.475077 0.324520 0.229975 0 200 255
0.394338 0.315162 0.229067 0 200 255
0.403213 0.291022 0.206806 0 200 255
0.412328 0.259382 0.225485 0 200 255
0.414613 0.273285 0.243929 0 200 255
0.322759 0.243177 0.166362 0 200 255
0.457065 0.330511 0.238949 0 200 255
0.437554 0.256340 0.241213 0 200 255
0.338809 0.233750 0.175927 0 200 255
0.390298 0.301576 0.216537 0 200 255
0.451464 0.235005 0.199951 0 200 255
0.339914 0.349476 0.175418 0 200 255
0.361750 0.330052 0.185194 0 200 255
0.326609 0.233401 0.171193 0 200 255
0.364591 0.241816 0.172401 0 200 255
0.361070 0.240803 0.193664 0 200 255
0.443606 0.384128 0.154174 0 200 255
0.429662 0.346603 0.216040 0 200 255
0.430463 0.271849 0.206396 0 200 255
0.487587 0.300626 0.231375 0 200 255
0.352598 0.243451 0.167748 0 200 255
0.365900 0.215265 0.175004 0 200 255
0.357417 0.346640 0.197585 0 200 255
0.486944 0.294058 0.213968 0 200 255
0.399285 0.293125 0.215102 0 200 255
0.414540 0.268877 0.207074 0 200 255
0.443052 0.350600 0.221407 0 200 255
0.403655 0.266383 0.232055 0 200 255
0.411426 0.341605 0.135315 0 200 255
0.408057 0.292640 0.248101 0 200 255
0.319182 0.253220 0.176617 0 200 255
0.430357 0.236973 0.205845 0 200 255
0.450958 0.232425 0.239527 0 200 255
0.434580 0.370452 0.182313 0 200 255
0.478621 0.317623 0.239543 0 200 255
0.421038 0.371089 0.170079 0 200 255
0.331803 0.239083 0.187209 0 200 255
0.346924 0.241957 0.186486 0 200 255
0.433883 0.243440 0.223241 0 200 255
0.413044 0.324089 0.192868 0 200 255
0.444777 0.328292 0.220947 0 200 255
0.451758 0.273914 0.242188 0 200 255
0.421017 0.338653 0.216788 0 200 255
0.387635 0.224553 0.177157 0 200 255
0.367467 0.318406 0.210323 0 200 255
0.393891 0.218479 0.182306 0 200 255
0.458904 0.254799 0.246450 0 200 255
0.320162 0.248594 0.161201 0 200 255
0.421521 0.357279 0.177948 0 200 255
0.407196 0.296443 0.215178 0 200 255
0.455098 0.226045 0.241775 0 200 255
0.359724 0.350245 0.171325 0 200 255
0.366645 0.327019 0.190080 0 200 255
0.355426 0.225389 0.185944 0 200 255
0.416822 0.276793 0.203030 0 200 255
0.446981 0.222556 0.220123 0 200 255
0.369022 0.227473 0.167844 0 200 255
0.466533 0.326016 0.218249 0 200 255
0.458033 0.341427 0.210433 0 200 255
0.486056 0.289715 0.241132 0 200 255
0.406129 0.347657 0.203821 0 200 255
0.350155 0.338266 0.183101 0 200 255
0.386901 0.224695 0.183801 0 200 255
0.406091 0.354185 0.162139 0 200 255
0.453723 0.313874 0.227165 0 200 255
0.403690 0.296820 0.231424 0 200 255
0.394622 0.287932 0.233701 0 200 255
0.315583 0.241720 0.167896 0 200 255
0.353768 0.355674 0.167920 0 200 255
0.466665 0.325430 0.234054 0 200 255
0.433303 0.356740 0.207619 0 200 255
0.384116 0.228402 0.206624 0 200 255
0.427761 0.261601 0.238851 0 200 255
0.468369 0.304619 0.207638 0 200 255
0.439494 0.385072 0.167747 0 200 255
