ply
format ascii 1.0
element vertex 1024
property float x
property float y
property float z
property uchar red
property uchar green
property uchar blue
end_header
0.469066 0.232157 0.250567 0 200 255
0.321782 0.331755 0.174451 0 200 255
0.348685 0.192187 0.185760 0 200 255
0.432762 0.352457 0.232692 0 200 255
0.388787 0.272419 0.220514 0 200 255
0.404894 0.329939 0.154693 0 200 255
0.420773 0.211783 0.191510 0 200 255
0.479860 0.298872 0.226874 0 200 255
0.430177 0.299548 0.259522 0 200 255
0.345865 0.310607 0.222297 0 200 255
0.419655 0.377772 0.182921 0 200 255
0.441896 0.261815 0.214271 0 200 255
0.389223 0.336373 0.205225 0 200 255
0.477957 0.231391 0.203161 0 200 255
0.414713 0.242394 0.247726 0 200 255
0.379688 0.219182 0.212976 0 200 255
0.437936 0.306430 0.218845 0 200 255
0.398341 0.310109 0.236090 0 200 255
0.464218 0.272383 0.254406 0 200 255
0.319131 0.217272 0.175010 0 200 255
0.385086 0.206118 0.175009 0 200 255
0.438960 0.219053 0.227098 0 200 255
0.489833 0.258832 0.228929 0 200 255
0.459446 0.325977 0.245144 0 200 255
0.399938 0.278310 0.256798 0 200 255
0.369277 0.291343 0.242245 0 200 255
0.419222 0.342449 0.183558 0 200 255
0.376325 0.303047 0.212303 0 200 255
0.341284 0.309361 0.188445 0 200 255
0.410778 0.362201 0.210134 0 200 255
0.410175 0.246148 0.215904 0 200 255
0.377972 0.189331 0.201068 0 200 255
0.408232 0.311226 0.206101 0 200 255
0.409473 0.212841 0.220163 0 200 255
0.415773 0.285881 0.229153 0 200 255
0.444387 0.250676 0.246949 0 200 255
0.469703 0.272801 0.210991 0 200 255
0.384202 0.336092 0.175702 0 200 255
0.428463 0.323375 0.241714 0 200 255
0.407658 0.339135 0.227320 0 200 255
0.471583 0.300528 0.253825 0 200 255
0.347128 0.219486 0.179366 0 200 255
0.435915 0.350745 0.205038 0 200 255
0.438893 0.275307 0.237542 0 200 255
0.458135 0.213418 0.209338 0 200 255
0.491962 0.232503 0.232706 0 200 255
0.398725 0.225441 0.194581 0 200 255
0.464232 0.238574 0.223775 0 200 255
0.413657 0.353366 0.161034 0 200 255
0.328857 0.206215 0.195638 0 200 255
0.445928 0.334237 0.221216 0 200 255
0.422790 0.266838 0.254949 0 200 255
0.359591 0.206026 0.205495 0 200 255
0.401864 0.196251 0.199372 0 200 255
0.397276 0.258466 0.240502 0 200 255
0.463648 0.210723 0.239512 0 200 255
0.485123 0.280929 0.242993 0 200 255
0.433164 0.238621 0.212493 0 200 255
0.446539 0.305589 0.242011 0 200 255
0.453196 0.287511 0.220900 0 200 255
0.399441 0.355014 0.190106 0 200 255
0.398863 0.320126 0.185920 0 200 255
0.424909 0.328171 0.208315 0 200 255
0.336852 0.202314 0.168036 0 200 255
0.362641 0.202024 0.170506 0 200 255
0.461108 0.308794 0.218538 0 200 255
0.478498 0.255287 0.249922 0 200 255
0.355124 0.298205 0.205838 0 200 255
0.394414 0.287878 0.236509 0 200 255
0.450802 0.290754 0.258165 0 200 255
0.410693 0.268218 0.212718 0 200 255
0.332760 0.328666 0.194760 0 200 255
0.372644 0.216816 0.189648 0 200 255
0.410564 0.296880 0.250831 0 200 255
0.442898 0.226418 0.246944 0 200 255
0.419055 0.228037 0.231668 0 200 255
0.415988 0.318265 0.225198 0 200 255
0.487803 0.278730 0.220397 0 200 255
0.391422 0.318841 0.218095 0 200 255
0.481097 0.254910 0.210205 0 200 255
0.445935 0.317660 0.259050 0 200 255
0.409327 0.341754 0.203848 0 200 255
0.351618 0.319014 0.204293 0 200 255
0.364830 0.307386 0.229804 0 200 255
0.419019 0.373286 0.162803 0 200 255
0.415204 0.227473 0.206795 0 200 255
0.429178 0.360365 0.187892 0 200 255
0.426862 0.301709 0.238387 0 200 255
0.388912 0.201332 0.216010 0 200 255
0.373652 0.285863 0.223359 0 200 255
0.442281 0.337747 0.242881 0 200 255
0.386303 0.336602 0.154767 0 200 255
0.445513 0.237332 0.230442 0 200 255
0.340332 0.325398 0.175959 0 200 255
0.404442 0.208076 0.181484 0 200 255
0.451396 0.231579 0.208414 0 200 255
0.402656 0.341736 0.173701 0 200 255
0.442655 0.271502 0.255961 0 200 255
0.456078 0.249943 0.208971 0 200 255
0.428657 0.363570 0.216880 0 200 255
0.432996 0.286191 0.221658 0 200 255
0.378380 0.190134 0.182200 0 200 255
0.422324 0.373583 0.200883 0 200 255
0.334715 0.311452 0.206084 0 200 255
0.428062 0.335745 0.226459 0 200 255
0.469400 0.311672 0.239229 0 200 255
0.424349 0.256091 0.209675 0 200 255
0.413319 0.360655 0.177818 0 200 255
0.393315 0.321338 0.168681 0 200 255
0.460897 0.247818 0.253970 0 200 255
0.485268 0.225386 0.248294 0 200 255
0.345627 0.213285 0.197659 0 200 255
0.441819 0.318512 0.231144 0 200 255
0.431352 0.221282 0.211101 0 200 255
0.418689 0.336882 0.163669 0 200 255
0.488875 0.241265 0.217656 0 200 255
0.387656 0.222041 0.181401 0 200 255
0.325575 0.316841 0.184293 0 200 255
0.402149 0.303599 0.220438 0 200 255
0.397338 0.257359 0.220021 0 200 255
0.418873 0.283358 0.258288 0 200 255
0.364602 0.195892 0.191188 0 200 255
0.396001 0.336838 0.188888 0 200 255
0.398101 0.225202 0.216698 0 200 255
0.405326 0.327504 0.213043 0 200 255
0.407476 0.241255 0.232236 0 200 255
0.407616 0.212095 0.202404 0 200 255
0.477925 0.241814 0.235433 0 200 255
0.431280 0.239203 0.250154 0 200 255
0.420125 0.347968 0.215349 0 200 255
0.413681 0.312991 0.242428 0 200 255
0.470407 0.288819 0.217242 0 200 255
0.382647 0.298420 0.230024 0 200 255
0.457980 0.323733 0.226253 0 200 255
0.324819 0.201813 0.180000 0 200 255
0.421240 0.299255 0.220762 0 200 255
0.408344 0.368950 0.191762 0 200 255
0.354778 0.296097 0.222922 0 200 255
0.391542 0.320300 0.201650 0 200 255
0.454705 0.223304 0.225163 0 200 255
0.402682 0.273581 0.237311 0 200 255
0.386904 0.201018 0.190904 0 200 255
0.413771 0.330588 0.239820 0 200 255
0.401809 0.284658 0.220882 0 200 255
0.416359 0.227667 0.190569 0 200 255
0.461226 0.313153 0.255972 0 200 255
0.386346 0.279812 0.248191 0 200 255
0.405727 0.263384 0.254725 0 200 255
0.418734 0.354068 0.198759 0 200 255
0.343884 0.196921 0.200335 0 200 255
0.332166 0.219923 0.187998 0 200 255
0.362761 0.311236 0.214416 0 200 255
0.400371 0.324997 0.230865 0 200 255
0.339923 0.206045 0.183860 0 200 255
0.356183 0.207760 0.185115 0 200 255
0.427699 0.363587 0.172587 0 200 255
0.429400 0.270752 0.216308 0 200 255
0.424326 0.214843 0.224460 0 200 255
0.433570 0.285588 0.254292 0 200 255
0.403050 0.348450 0.216161 0 200 255
0.384378 0.221574 0.198675 0 200 255
0.406316 0.327616 0.196824 0 200 255
0.488651 0.265950 0.242255 0 200 255
0.407116 0.297812 0.235284 0 200 255
0.373219 0.199927 0.210716 0 200 255
0.388006 0.270245 0.236700 0 200 255
0.480876 0.295701 0.243064 0 200 255
0.347513 0.322923 0.189213 0 200 255
0.357488 0.191324 0.203941 0 200 255
0.395112 0.331933 0.143633 0 200 255
0.471945 0.242177 0.211475 0 200 255
0.457029 0.208616 0.225831 0 200 255
0.403558 0.199975 0.213902 0 200 255
0.420461 0.211055 0.209629 0 200 255
0.439765 0.347643 0.218917 0 200 255
0.452266 0.272182 0.215439 0 200 255
0.433697 0.257096 0.255400 0 200 255
0.366653 0.291279 0.211780 0 200 255
0.465714 0.286838 0.255317 0 200 255
0.456586 0.225336 0.242253 0 200 255
0.405928 0.327476 0.172354 0 200 255
0.334989 0.216029 0.172203 0 200 255
0.419693 0.283748 0.215425 0 200 255
0.430196 0.322775 0.220433 0 200 255
0.396956 0.349542 0.203007 0 200 255
0.431085 0.222729 0.238328 0 200 255
0.403471 0.343909 0.158205 0 200 255
0.383839 0.294169 0.243553 0 200 255
0.395135 0.197382 0.179837 0 200 255
0.348834 0.195936 0.172150 0 200 255
0.362444 0.189979 0.178592 0 200 255
0.428717 0.340173 0.240017 0 200 255
0.431917 0.234290 0.228523 0 200 255
0.378926 0.281269 0.236362 0 200 255
0.372201 0.211471 0.176037 0 200 255
0.419935 0.357791 0.226166 0 200 255
0.466476 0.258454 0.212551 0 200 255
0.448317 0.244610 0.219103 0 200 255
0.415831 0.283964 0.242780 0 200 255
0.433514 0.312509 0.256298 0 200 255
0.451279 0.261104 0.254684 0 200 255
0.328533 0.321100 0.169504 0 200 255
0.387353 0.285348 0.224222 0 200 255
0.390338 0.192685 0.205460 0 200 255
0.408928 0.372055 0.171653 0 200 255
0.421414 0.338216 0.199229 0 200 255
0.435376 0.337233 0.211719 0 200 255
0.440539 0.319705 0.247016 0 200 255
0.422220 0.232164 0.219378 0 200 255
0.428584 0.362076 0.203405 0 200 255
0.385361 0.329737 0.194361 0 200 255
0.372983 0.205398 0.196447 0 200 255
0.347536 0.210004 0.169735 0 200 255
0.441333 0.229092 0.216557 0 200 255
0.479047 0.270588 0.225913 0 200 255
0.345662 0.305768 0.200270 0 200 255
0.451306 0.329931 0.235652 0 200 255
0.444843 0.304657 0.258223 0 200 255
0.415506 0.343268 0.152780 0 200 255
0.361910 0.309863 0.201499 0 200 255
0.478653 0.248842 0.224528 0 200 255
0.454237 0.234060 0.251574 0 200 255
0.393846 0.323196 0.155593 0 200 255
0.477019 0.272495 0.248603 0 200 255
0.368187 0.215684 0.208211 0 200 255
0.393825 0.331500 0.217626 0 200 255
0.408949 0.217038 0.190589 0 200 255
0.468676 0.220597 0.207567 0 200 255
0.421225 0.304127 0.251525 0 200 255
0.420507 0.254569 0.251903 0 200 255
0.392152 0.339665 0.166271 0 200 255
0.416304 0.306887 0.231079 0 200 255
0.464465 0.228970 0.232237 0 200 255
0.412887 0.202562 0.195497 0 200 255
0.442009 0.343381 0.230717 0 200 255
0.397150 0.212429 0.217265 0 200 255
0.472713 0.309494 0.227265 0 200 255
0.364112 0.292221 0.230429 0 200 255
0.403611 0.285052 0.245423 0 200 255
0.408356 0.338729 0.189994 0 200 255
0.399993 0.312606 0.196476 0 200 255
0.411776 0.225599 0.221630 0 200 255
0.439611 0.302536 0.232028 0 200 255
0.331086 0.332641 0.182785 0 200 255
0.388612 0.325741 0.181515 0 200 255
0.318578 0.210069 0.186954 0 200 255
0.409016 0.349721 0.181823 0 200 255
0.342398 0.318303 0.212995 0 200 255
0.467091 0.258524 0.253487 0 200 255
0.324718 0.209458 0.167222 0 200 255
0.392042 0.268854 0.248823 0 200 255
0.400819 0.273100 0.225071 0 200 255
0.485955 0.237092 0.243513 0 200 255
0.404033 0.249587 0.245738 0 200 255
0.335859 0.314039 0.177445 0 200 255
0.330547 0.316608 0.195508 0 200 255
0.443520 0.239846 0.252502 0 200 255
0.335230 0.196857 0.191154 0 200 255
0.452442 0.301637 0.223207 0 200 255
0.485438 0.288137 0.228085 0 200 255
0.439011 0.331133 0.230678 0 200 255
0.473668 0.242830 0.247306 0 200 255
0.422451 0.346173 0.228763 0 200 255
0.458290 0.301480 0.256699 0 200 255
0.400475 0.219445 0.182124 0 200 255
0.417679 0.348864 0.173476 0 200 255
0.344312 0.303884 0.212429 0 200 255
0.340673 0.324242 0.202658 0 200 255
0.483422 0.252446 0.239336 0 200 255
0.374405 0.301481 0.238414 0 200 255
0.399521 0.251673 0.230996 0 200 255
0.471881 0.215249 0.246779 0 200 255
0.417842 0.319496 0.212101 0 200 255
0.452606 0.214985 0.238205 0 200 255
0.437265 0.249580 0.214048 0 200 255
0.407202 0.356259 0.199795 0 200 255
0.405022 0.352284 0.168935 0 200 255
0.466672 0.234676 0.204207 0 200 255
0.399916 0.205216 0.191883 0 200 255
0.407909 0.287403 0.258015 0 200 255
0.443050 0.289874 0.215672 0 200 255
0.452806 0.316762 0.247404 0 200 255
0.450801 0.314139 0.225295 0 200 255
0.434489 0.312407 0.240390 0 200 255
0.479499 0.266654 0.210854 0 200 255
0.367627 0.203119 0.182709 0 200 255
0.419723 0.367539 0.190510 0 200 255
0.394215 0.203710 0.203701 0 200 255
0.488954 0.271913 0.231634 0 200 255
0.471241 0.300164 0.219025 0 200 255
0.395759 0.342145 0.149854 0 200 255
0.421102 0.371303 0.212081 0 200 255
0.380371 0.294386 0.219522 0 200 255
0.356843 0.213970 0.175493 0 200 255
0.414379 0.335136 0.176184 0 200 255
0.374112 0.303814 0.224115 0 200 255
0.413606 0.328970 0.228406 0 200 255
0.393030 0.224137 0.205670 0 200 255
0.424661 0.324549 0.230243 0 200 255
0.397195 0.311394 0.211724 0 200 255
0.412243 0.202623 0.207073 0 200 255
0.400885 0.333807 0.204710 0 200 255
0.395798 0.332965 0.176518 0 200 255
0.352428 0.202439 0.195307 0 200 255
0.438697 0.277210 0.216899 0 200 255
0.423295 0.233214 0.244794 0 200 255
0.404937 0.286048 0.232739 0 200 255
0.411933 0.309216 0.219564 0 200 255
0.476209 0.289555 0.252184 0 200 255
0.414677 0.357533 0.188569 0 200 255
0.423854 0.374323 0.173050 0 200 255
0.422908 0.249654 0.218806 0 200 255
0.404915 0.222860 0.204156 0 200 255
0.405643 0.328927 0.184280 0 200 255
0.372663 0.198014 0.174088 0 200 255
0.417486 0.362135 0.167579 0 200 255
0.427911 0.313977 0.226875 0 200 255
0.339372 0.196203 0.178684 0 200 255
0.443335 0.221661 0.236954 0 200 255
0.423882 0.314140 0.237682 0 200 255
0.408230 0.338676 0.216179 0 200 255
0.386635 0.330242 0.164637 0 200 255
0.352833 0.217751 0.188656 0 200 255
0.489690 0.267252 0.221668 0 200 255
0.397618 0.348358 0.180846 0 200 255
0.437299 0.242233 0.223220 0 200 255
0.393477 0.211395 0.179747 0 200 255
0.395932 0.312198 0.225641 0 200 255
0.350849 0.313654 0.193926 0 200 255
0.407864 0.316783 0.234009 0 200 255
0.378946 0.205021 0.184618 0 200 255
0.418661 0.295565 0.242105 0 200 255
0.356698 0.311006 0.223468 0 200 255
0.410368 0.273141 0.255472 0 200 255
0.386209 0.190505 0.193218 0 200 255
0.485710 0.231657 0.213926 0 200 255
0.411983 0.293115 0.222115 0 200 255
0.464977 0.232754 0.214769 0 200 255
0.408428 0.278978 0.214668 0 200 255
0.394273 0.286400 0.250943 0 200 255
0.474615 0.237466 0.226276 0 200 255
0.428918 0.224395 0.222243 0 200 255
0.419216 0.238203 0.228569 0 200 255
0.356347 0.189365 0.192610 0 200 255
0.422396 0.337706 0.216812 0 200 255
0.388259 0.326329 0.210227 0 200 255
0.447831 0.280583 0.257715 0 200 255
0.403296 0.335339 0.164418 0 200 255
0.425513 0.348054 0.204212 0 200 255
0.444232 0.239159 0.211025 0 200 255
0.450237 0.234000 0.219396 0 200 255
0.417330 0.295485 0.258810 0 200 255
0.422955 0.356598 0.179196 0 200 255
0.429644 0.293455 0.244280 0 200 255
0.368056 0.300090 0.206234 0 200 255
0.423817 0.290668 0.234388 0 200 255
0.398208 0.266804 0.215578 0 200 255
0.416346 0.345190 0.193240 0 200 255
0.479769 0.293430 0.217591 0 200 255
0.385069 0.337410 0.187289 0 200 255
0.352791 0.316397 0.215430 0 200 255
0.381195 0.207659 0.212950 0 200 255
0.392363 0.263094 0.230516 0 200 255
0.455007 0.269002 0.249034 0 200 255
0.475564 0.303270 0.238323 0 200 255
0.402405 0.323877 0.163268 0 200 255
0.457876 0.264852 0.210675 0 200 255
0.445414 0.328843 0.247591 0 200 255
0.332009 0.330699 0.171232 0 200 255
0.428926 0.248722 0.246835 0 200 255
0.455563 0.255401 0.247191 0 200 255
0.410733 0.371591 0.182055 0 200 255
0.419104 0.356067 0.208888 0 200 255
0.433079 0.356743 0.223312 0 200 255
0.426550 0.370115 0.183056 0 200 255
0.420460 0.335558 0.233817 0 200 255
0.410575 0.369014 0.202492 0 200 255
0.462549 0.218956 0.248739 0 200 255
0.444745 0.227795 0.226852 0 200 255
0.401421 0.342743 0.196870 0 200 255
0.406813 0.226827 0.187131 0 200 255
0.385702 0.195092 0.176772 0 200 255
0.412438 0.346296 0.221892 0 200 255
0.376201 0.197078 0.191550 0 200 255
0.390461 0.277299 0.229796 0 200 255
0.409595 0.317942 0.198596 0 200 255
0.322177 0.326611 0.183199 0 200 255
0.358125 0.300487 0.232999 0 200 255
0.407452 0.259413 0.216553 0 200 255
0.478669 0.283787 0.214224 0 200 255
0.456282 0.295449 0.215427 0 200 255
0.462931 0.322395 0.234980 0 200 255
0.401372 0.275266 0.247295 0 200 255
0.443215 0.260555 0.248675 0 200 255
0.431938 0.270239 0.257432 0 200 255
0.353189 0.307837 0.209801 0 200 255
0.361923 0.208200 0.195960 0 200 255
0.413153 0.235328 0.238038 0 200 255
0.414610 0.219687 0.213093 0 200 255
0.339059 0.328071 0.186789 0 200 255
0.436513 0.295473 0.222981 0 200 255
0.490358 0.241809 0.229382 0 200 255
0.481549 0.239077 0.208421 0 200 255
0.405104 0.304081 0.246615 0 200 255
0.374681 0.218149 0.199303 0 200 255
0.389590 0.219124 0.213932 0 200 255
0.440172 0.309779 0.249440 0 200 255
0.353494 0.204156 0.175234 0 200 255
0.429309 0.246666 0.208171 0 200 255
0.336845 0.212003 0.193318 0 200 255
0.448889 0.216262 0.228815 0 200 255
0.392854 0.293148 0.228352 0 200 255
0.436310 0.246999 0.253412 0 200 255
0.408959 0.351364 0.208880 0 200 255
0.424450 0.228915 0.209767 0 200 255
0.394092 0.277217 0.240336 0 200 255
0.425542 0.292219 0.254601 0 200 255
0.461494 0.275562 0.215539 0 200 255
0.474609 0.224116 0.251059 0 200 255
0.381729 0.220352 0.189023 0 200 255
0.381066 0.215347 0.178755 0 200 255
0.419756 0.270574 0.217756 0 200 255
0.341211 0.318034 0.194805 0 200 255
0.367469 0.198253 0.203045 0 200 255
0.344227 0.317883 0.180753 0 200 255
0.407814 0.323066 0.223041 0 200 255
0.376331 0.290551 0.235158 0 200 255
0.413298 0.209311 0.185850 0 200 255
0.459335 0.286094 0.213582 0 200 255
0.424461 0.316003 0.247081 0 200 255
0.405731 0.310751 0.226855 0 200 255
0.437080 0.329196 0.218585 0 200 255
0.396736 0.327688 0.196899 0 200 255
0.430403 0.331664 0.234847 0 200 255
0.391849 0.341861 0.175585 0 200 255
0.471960 0.307987 0.247839 0 200 255
0.404866 0.214526 0.211945 0 200 255
0.363870 0.212619 0.182141 0 200 255
0.410565 0.255353 0.252826 0 200 255
0.414369 0.324762 0.204917 0 200 255
0.337407 0.204249 0.199374 0 200 255
0.458249 0.280994 0.256145 0 200 255
0.417041 0.256977 0.215701 0 200 255
0.323678 0.219583 0.183743 0 200 255
0.431026 0.306092 0.246584 0 200 255
0.415814 0.359853 0.217828 0 200 255
0.378769 0.198717 0.202214 0 200 255
0.352131 0.199441 0.204305 0 200 255
0.451634 0.249622 0.254866 0 200 255
0.396333 0.195621 0.191699 0 200 255
0.442377 0.293664 0.255103 0 200 255
0.436933 0.324822 0.237345 0 200 255
0.406135 0.199670 0.187537 0 200 255
0.395768 0.319098 0.236773 0 200 255
0.355131 0.304146 0.198467 0 200 255
0.385510 0.288194 0.233618 0 200 255
0.391590 0.320595 0.191802 0 200 255
0.331549 0.206246 0.174651 0 200 255
0.346722 0.210127 0.188940 0 200 255
0.351960 0.304469 0.218420 0 200 255
0.418378 0.305187 0.240534 0 200 255
0.393119 0.325622 0.225073 0 200 255
0.416821 0.375957 0.193191 0 200 255
0.417335 0.208361 0.218029 0 200 255
0.437315 0.344604 0.239052 0 200 255
0.355307 0.198706 0.186827 0 200 255
0.461899 0.315877 0.246133 0 200 255
0.331238 0.204681 0.186876 0 200 255
0.342610 0.219852 0.187380 0 200 255
0.463512 0.244337 0.208516 0 200 255
0.400860 0.342469 0.207771 0 200 255
0.470604 0.236325 0.234652 0 200 255
0.336775 0.221037 0.180139 0 200 255
0.347475 0.201355 0.181598 0 200 255
0.320985 0.322158 0.175273 0 200 255
0.343999 0.201041 0.190363 0 200 255
0.412796 0.335040 0.197107 0 200 255
0.410097 0.337015 0.157296 0 200 255
0.351723 0.304537 0.227624 0 200 255
0.480414 0.262335 0.222225 0 200 255
0.415938 0.321010 0.234148 0 200 255
0.358534 0.295298 0.213774 0 200 255
0.452720 0.321478 0.238741 0 200 255
0.451499 0.212741 0.219917 0 200 255
0.330481 0.323769 0.187461 0 200 255
0.432769 0.343627 0.230687 0 200 255
0.375250 0.188090 0.191625 0 200 255
0.408771 0.307929 0.236792 0 200 255
0.443164 0.314799 0.239686 0 200 255
0.364613 0.290980 0.221517 0 200 255
0.419641 0.345649 0.161929 0 200 255
0.357775 0.194559 0.171682 0 200 255
0.402470 0.340722 0.182609 0 200 255
0.427315 0.340144 0.209100 0 200 255
0.456223 0.220390 0.216850 0 200 255
0.465171 0.240212 0.252037 0 200 255
0.427229 0.368019 0.195904 0 200 255
0.414379 0.266655 0.250825 0 200 255
0.317138 0.208831 0.177094 0 200 255
0.396143 0.338839 0.158237 0 200 255
0.415490 0.240387 0.220780 0 200 255
0.338275 0.310107 0.197602 0 200 255
0.420051 0.222093 0.221569 0 200 255
0.416750 0.346759 0.205053 0 200 255
0.414795 0.362023 0.198849 0 200 255
0.454822 0.319287 0.256183 0 200 255
0.425829 0.351546 0.222570 0 200 255
0.424823 0.366545 0.164740 0 200 255
0.365950 0.298285 0.237870 0 200 255
0.380480 0.192448 0.208964 0 200 255
0.401561 0.329316 0.222634 0 200 255
0.415759 0.377750 0.169690 0 200 255
0.333053 0.312441 0.185883 0 200 255
0.483331 0.272519 0.239733 0 200 255
0.389643 0.337461 0.194969 0 200 255
0.424585 0.306698 0.259261 0 200 255
0.452842 0.230579 0.229747 0 200 255
0.399282 0.326065 0.149138 0 200 255
0.486262 0.281285 0.233536 0 200 255
0.428951 0.278509 0.256714 0 200 255
0.434956 0.332895 0.242607 0 200 255
0.481084 0.294271 0.234248 0 200 255
0.433266 0.228966 0.244092 0 200 255
0.470523 0.277762 0.251552 0 200 255
0.432674 0.358445 0.210252 0 200 255
0.360207 0.302978 0.223633 0 200 255
0.388176 0.327173 0.172719 0 200 255
0.440814 0.223444 0.209886 0 200 255
0.423167 0.331433 0.241049 0 200 255
0.346729 0.210776 0.178598 0 200 255
0.449315 0.323985 0.227456 0 200 255
0.396353 0.204626 0.212178 0 200 255
0.436395 0.312010 0.227673 0 200 255
0.429880 0.237444 0.220510 0 200 255
0.409845 0.351564 0.192922 0 200 255
0.399532 0.289739 0.257297 0 200 255
0.410684 0.337696 0.168713 0 200 255
0.374931 0.293783 0.212700 0 200 255
0.398638 0.345638 0.189031 0 200 255
0.412028 0.244458 0.239734 0 200 255
0.397199 0.266856 0.237351 0 200 255
0.403221 0.251020 0.220506 0 200 255
0.477939 0.263914 0.250205 0 200 255
0.435208 0.298182 0.238036 0 200 255
0.414964 0.216125 0.205267 0 200 255
0.369388 0.308213 0.209835 0 200 255
0.334720 0.213171 0.182934 0 200 255
0.447579 0.251165 0.208897 0 200 255
0.420603 0.340895 0.172224 0 200 255
0.480058 0.247794 0.216131 0 200 255
0.441197 0.344311 0.211151 0 200 255
0.459854 0.229606 0.205332 0 200 255
0.479126 0.235323 0.248377 0 200 255
0.448785 0.224888 0.216492 0 200 255
0.470666 0.280385 0.215874 0 200 255
0.412801 0.355374 0.170545 0 200 255
0.487007 0.228677 0.238487 0 200 255
0.368087 0.206353 0.205917 0 200 255
0.402928 0.304084 0.231344 0 200 255
0.399451 0.320421 0.222781 0 200 255
0.460740 0.228518 0.220785 0 200 255
0.397503 0.327816 0.209762 0 200 255
0.418692 0.336218 0.225544 0 200 255
0.452602 0.241434 0.212509 0 200 255
0.442018 0.255522 0.255676 0 200 255
0.443980 0.301697 0.223623 0 200 255
0.422153 0.317165 0.219006 0 200 255
0.405813 0.355701 0.176769 0 200 255
0.403511 0.218828 0.219092 0 200 255
0.378361 0.286598 0.242898 0 200 255
0.324747 0.213940 0.191220 0 200 255
0.387229 0.201358 0.199590 0 200 255
0.464401 0.295673 0.256584 0 200 255
0.432353 0.318612 0.233968 0 200 255
0.353358 0.210795 0.194866 0 200 255
0.402392 0.205727 0.200798 0 200 255
0.341187 0.203739 0.175483 0 200 255
0.381043 0.281265 0.227937 0 200 255
0.447758 0.335316 0.230304 0 200 255
0.483760 0.246720 0.230902 0 200 255
0.358298 0.314570 0.207379 0 200 255
0.359515 0.198447 0.200082 0 200 255
0.398184 0.196021 0.208884 0 200 255
0.364339 0.209852 0.173796 0 200 255
0.415765 0.249331 0.210612 0 200 255
0.452002 0.312000 0.240625 0 200 255
0.409380 0.349096 0.155316 0 200 255
0.395162 0.279532 0.223319 0 200 255
0.478768 0.220615 0.244777 0 200 255
0.424722 0.277288 0.214016 0 200 255
0.392278 0.318512 0.209727 0 200 255
0.470403 0.249579 0.250872 0 200 255
0.447697 0.309773 0.218956 0 200 255
0.410534 0.341339 0.180748 0 200 255
0.449770 0.263138 0.211128 0 200 255
0.408019 0.223573 0.195577 0 200 255
0.369064 0.286654 0.234624 0 200 255
0.407719 0.244722 0.224742 0 200 255
0.478884 0.280541 0.248719 0 200 255
0.322984 0.203188 0.188108 0 200 255
0.370716 0.192678 0.183903 0 200 255
0.403282 0.206228 0.219266 0 200 255
0.440362 0.263634 0.256826 0 200 255
0.389623 0.329062 0.201442 0 200 255
0.398937 0.270654 0.253665 0 200 255
0.410416 0.228602 0.213394 0 200 255
0.367896 0.212348 0.199815 0 200 255
0.450815 0.298033 0.254341 0 200 255
0.410548 0.363829 0.185267 0 200 255
0.404176 0.278137 0.230634 0 200 255
0.459157 0.265538 0.255211 0 200 255
0.402618 0.333289 0.192193 0 200 255
0.384703 0.221879 0.207082 0 200 255
0.426593 0.302778 0.225862 0 200 255
0.369501 0.307129 0.217951 0 200 255
0.448404 0.309041 0.231237 0 200 255
0.436169 0.324237 0.227300 0 200 255
0.409858 0.320942 0.214891 0 200 255
0.389664 0.330997 0.149670 0 200 255
0.434250 0.229395 0.212501 0 200 255
0.350217 0.192585 0.197546 0 200 255
0.327507 0.220788 0.176676 0 200 255
0.370667 0.300100 0.231340 0 200 255
0.417804 0.219034 0.189393 0 200 255
0.417265 0.276064 0.252355 0 200 255
0.422483 0.360964 0.194367 0 200 255
0.411322 0.370922 0.164006 0 200 255
0.416965 0.372279 0.176733 0 200 255
0.407917 0.295440 0.258687 0 200 255
0.425065 0.230218 0.226758 0 200 255
0.451212 0.272402 0.255274 0 200 255
0.397730 0.259875 0.248412 0 200 255
0.369799 0.208746 0.189865 0 200 255
0.421434 0.365851 0.219566 0 200 255
0.334285 0.210673 0.166266 0 200 255
0.391875 0.280007 0.255158 0 200 255
0.408744 0.294528 0.242414 0 200 255
0.473003 0.262138 0.209560 0 200 255
0.373343 0.208857 0.211880 0 200 255
0.456973 0.316889 0.220985 0 200 255
0.422660 0.218478 0.207602 0 200 255
0.464551 0.295776 0.219192 0 200 255
0.411254 0.333885 0.222469 0 200 255
0.428326 0.329413 0.215439 0 200 255
0.402548 0.306129 0.208999 0 200 255
0.354087 0.192078 0.178302 0 200 255
0.405008 0.207303 0.208572 0 200 255
0.389838 0.209226 0.215452 0 200 255
0.405536 0.320777 0.192356 0 200 255
0.387577 0.201704 0.208172 0 200 255
0.408326 0.331003 0.204385 0 200 255
0.399856 0.289512 0.227350 0 200 255
0.401211 0.344662 0.165793 0 200 255
0.393945 0.220284 0.198289 0 200 255
0.402069 0.336003 0.150401 0 200 255
0.397727 0.328498 0.170242 0 200 255
0.426387 0.347730 0.235478 0 200 255
0.397243 0.336044 0.197390 0 200 255
0.386497 0.279763 0.238082 0 200 255
0.381074 0.290941 0.226603 0 200 255
0.484654 0.272231 0.213022 0 200 255
0.393883 0.203155 0.187235 0 200 255
0.448731 0.293895 0.222141 0 200 255
0.389001 0.222825 0.190808 0 200 255
0.444820 0.284119 0.220757 0 200 255
0.325226 0.210775 0.175839 0 200 255
0.429180 0.259892 0.214573 0 200 255
0.387779 0.286938 0.245212 0 200 255
0.411059 0.210149 0.194697 0 200 255
0.418659 0.363849 0.211724 0 200 255
0.436694 0.224775 0.221499 0 200 255
0.483671 0.260582 0.245001 0 200 255
0.335822 0.320131 0.172133 0 200 255
0.471630 0.245432 0.224590 0 200 255
0.468696 0.265904 0.251569 0 200 255
0.443286 0.297932 0.216836 0 200 255
0.398253 0.326072 0.179183 0 200 255
0.393873 0.269729 0.226083 0 200 255
0.451452 0.312325 0.257062 0 200 255
0.457865 0.235131 0.217863 0 200 255
0.333522 0.322332 0.200280 0 200 255
0.401046 0.316507 0.230297 0 200 255
0.472093 0.249918 0.210909 0 200 255
0.385117 0.192374 0.185764 0 200 255
0.393820 0.328297 0.186671 0 200 255
0.350183 0.206513 0.201512 0 200 255
0.421401 0.361419 0.186056 0 200 255
0.407715 0.282749 0.239261 0 200 255
0.401214 0.303099 0.239989 0 200 255
0.410476 0.345762 0.214009 0 200 255
0.394055 0.193071 0.198642 0 200 255
0.417051 0.205259 0.201435 0 200 255
0.408890 0.286731 0.225194 0 200 255
0.323549 0.326984 0.168631 0 200 255
0.420879 0.313464 0.230601 0 200 255
0.437139 0.304154 0.258325 0 200 255
0.474810 0.229628 0.245454 0 200 255
0.340837 0.310552 0.210691 0 200 255
0.431545 0.219738 0.231264 0 200 255
0.425701 0.235842 0.213598 0 200 255
0.455070 0.256536 0.212790 0 200 255
0.458593 0.290763 0.255552 0 200 255
0.409104 0.347667 0.163372 0 200 255
0.387281 0.295048 0.236524 0 200 255
0.420520 0.363089 0.203798 0 200 255
0.409813 0.280871 0.254541 0 200 255
0.427094 0.366466 0.209474 0 200 255
0.392406 0.318382 0.228393 0 200 255
0.405645 0.198852 0.206496 0 200 255
0.427890 0.357114 0.229136 0 200 255
0.395162 0.335817 0.209960 0 200 255
0.480602 0.248947 0.246289 0 200 255
0.450835 0.222949 0.231849 0 200 255
0.434192 0.343757 0.207447 0 200 255
0.346705 0.322410 0.198433 0 200 255
0.426918 0.216966 0.217663 0 200 255
0.410737 0.203812 0.214404 0 200 255
0.423211 0.374456 0.188732 0 200 255
0.378670 0.197976 0.178705 0 200 255
0.466047 0.305255 0.255910 0 200 255
0.396100 0.313603 0.204565 0 200 255
0.444388 0.326069 0.237710 0 200 255
0.484516 0.243988 0.238416 0 200 255
0.485675 0.238496 0.224486 0 200 255
0.411799 0.236539 0.228243 0 200 255
0.403182 0.334474 0.176628 0 200 255
0.461573 0.261236 0.249128 0 200 255
0.325287 0.216294 0.170340 0 200 255
0.444081 0.341518 0.218208 0 200 255
0.452900 0.237445 0.226664 0 200 255
0.351940 0.202168 0.168155 0 200 255
0.393091 0.204056 0.177061 0 200 255
0.415940 0.299038 0.226080 0 200 255
0.375858 0.287258 0.216327 0 200 255
0.385253 0.336863 0.167855 0 200 255
0.417986 0.352185 0.221152 0 200 255
0.396466 0.348445 0.195617 0 200 255
0.423876 0.240232 0.247305 0 200 255
0.428949 0.277005 0.220376 0 200 255
0.432754 0.292192 0.257695 0 200 255
0.436909 0.350948 0.226664 0 200 255
0.464635 0.312004 0.224287 0 200 255
0.347148 0.313493 0.201983 0 200 255
0.411670 0.335526 0.232483 0 200 255
0.341015 0.194437 0.187099 0 200 255
0.381715 0.215471 0.195332 0 200 255
0.414668 0.371401 0.208342 0 200 255
0.466991 0.228670 0.208586 0 200 255
0.340618 0.326021 0.195437 0 200 255
0.388811 0.330001 0.157099 0 200 255
0.419885 0.341904 0.209730 0 200 255
0.461341 0.218619 0.205103 0 200 255
0.358613 0.190742 0.184906 0 200 255
0.437174 0.256376 0.247592 0 200 255
0.396597 0.283562 0.243263 0 200 255
0.387472 0.194670 0.212012 0 200 255
0.444590 0.274541 0.213270 0 200 255
0.332941 0.199627 0.180022 0 200 255
0.430436 0.295733 0.232935 0 200 255
0.364861 0.196332 0.174680 0 200 255
0.394723 0.273066 0.234093 0 200 255
0.414662 0.341880 0.228023 0 200 255
0.425944 0.361929 0.223904 0 200 255
0.425485 0.322720 0.214240 0 200 255
0.342350 0.213754 0.173476 0 200 255
0.436659 0.352629 0.212387 0 200 255
0.435318 0.340396 0.244755 0 200 255
0.483945 0.274529 0.247171 0 200 255
0.410025 0.326636 0.234395 0 200 255
0.340578 0.318214 0.187477 0 200 255
0.358143 0.202040 0.180921 0 200 255
0.464511 0.265477 0.213774 0 200 255
0.411622 0.345484 0.187234 0 200 255
0.433298 0.318053 0.244938 0 200 255
0.395222 0.282820 0.230659 0 200 255
0.435120 0.268565 0.212278 0 200 255
0.424022 0.306183 0.233320 0 200 255
0.379436 0.301636 0.219001 0 200 255
0.403503 0.322409 0.236946 0 200 255
0.424710 0.223269 0.214685 0 200 255
0.467825 0.232613 0.226016 0 200 255
0.425776 0.224706 0.233709 0 200 255
0.422508 0.344078 0.221044 0 200 255
0.328406 0.316394 0.177584 0 200 255
0.478050 0.276750 0.212407 0 200 255
0.483889 0.287876 0.244836 0 200 255
0.402738 0.353335 0.205305 0 200 255
0.414374 0.289017 0.216592 0 200 255
0.384788 0.331839 0.182538 0 200 255
0.390230 0.337996 0.147599 0 200 255
0.465398 0.251880 0.208863 0 200 255
0.397743 0.309947 0.218973 0 200 255
0.399191 0.348921 0.173775 0 200 255
0.414239 0.353459 0.178177 0 200 255
0.444559 0.334002 0.237090 0 200 255
0.373327 0.192546 0.207754 0 200 255
0.397725 0.225141 0.185674 0 200 255
0.484754 0.253439 0.228371 0 200 255
0.398217 0.355754 0.197206 0 200 255
0.401213 0.322178 0.170749 0 200 255
0.349334 0.302531 0.205696 0 200 255
0.414062 0.312703 0.234728 0 200 255
0.423733 0.247789 0.251768 0 200 255
0.346811 0.311643 0.214593 0 200 255
0.361891 0.295796 0.205156 0 200 255
0.380462 0.297657 0.237579 0 200 255
0.406054 0.270417 0.244752 0 200 255
0.392189 0.194764 0.185878 0 200 255
0.418276 0.332006 0.201059 0 200 255
0.417277 0.215568 0.220365 0 200 255
0.420913 0.357943 0.172433 0 200 255
0.373775 0.204554 0.177214 0 200 255
0.399898 0.196770 0.185180 0 200 255
0.426143 0.341171 0.232570 0 200 255
0.420048 0.326668 0.236681 0 200 255
0.401093 0.287266 0.239065 0 200 255
0.324883 0.320424 0.190471 0 200 255
0.447630 0.224970 0.241642 0 200 255
0.489856 0.259451 0.236061 0 200 255
0.416331 0.370769 0.198164 0 200 255
0.343821 0.204559 0.166949 0 200 255
0.351971 0.298794 0.214066 0 200 255
0.392128 0.341396 0.184968 0 200 255
0.407222 0.305251 0.215703 0 200 255
0.385451 0.190674 0.200669 0 200 255
0.416667 0.236488 0.244126 0 200 255
0.406319 0.348765 0.175229 0 200 255
0.411530 0.350962 0.201775 0 200 255
0.410234 0.367033 0.176609 0 200 255
0.404713 0.358787 0.193045 0 200 255
0.414802 0.262217 0.211451 0 200 255
0.401278 0.309086 0.202509 0 200 255
0.427932 0.328874 0.224689 0 200 255
0.408138 0.294344 0.229181 0 200 255
0.400023 0.332638 0.214376 0 200 255
0.408951 0.357240 0.183203 0 200 255
0.454576 0.304612 0.217146 0 200 255
0.461025 0.303356 0.223071 0 200 255
0.415595 0.349231 0.166494 0 200 255
0.324467 0.209861 0.183046 0 200 255
0.405996 0.336163 0.200159 0 200 255
0.400202 0.324751 0.217255 0 200 255
0.340569 0.305821 0.205154 0 200 255
0.461504 0.236659 0.210031 0 200 255
0.413727 0.314222 0.214333 0 200 255
0.355192 0.313085 0.201246 0 200 255
0.395367 0.198370 0.215214 0 200 255
0.391257 0.292225 0.241573 0 200 255
0.477105 0.301516 0.244941 0 200 255
0.403589 0.226324 0.210107 0 200 255
0.412998 0.358451 0.204605 0 200 255
0.415548 0.310997 0.225294 0 200 255
0.431059 0.290884 0.216837 0 200 255
0.344747 0.319763 0.206170 0 200 255
0.405066 0.342919 0.222041 0 200 255
0.334993 0.322208 0.193268 0 200 255
0.417020 0.366618 0.162162 0 200 255
0.328245 0.330462 0.188787 0 200 255
0.460185 0.226449 0.248128 0 200 255
0.376128 0.219034 0.206978 0 200 255
0.427294 0.284999 0.258660 0 200 255
0.390710 0.324897 0.161586 0 200 255
0.434063 0.299616 0.217946 0 200 255
0.458614 0.256400 0.253354 0 200 255
0.381217 0.199200 0.210407 0 200 255
0.429235 0.262371 0.256076 0 200 255
0.450824 0.242838 0.253690 0 200 255
0.322664 0.204536 0.174005 0 200 255
0.425912 0.354966 0.208234 0 200 255
0.438162 0.232344 0.230789 0 200 255
0.428609 0.229786 0.216491 0 200 255
0.365351 0.203464 0.189451 0 200 255
0.347228 0.194880 0.178789 0 200 255
0.452547 0.326290 0.244882 0 200 255
0.408403 0.334966 0.182379 0 200 255
0.422170 0.357194 0.217411 0 200 255
0.413203 0.363580 0.191628 0 200 255
0.389221 0.337194 0.180301 0 200 255
0.404206 0.276319 0.219426 0 200 255
0.346262 0.307471 0.192822 0 200 255
0.438223 0.336870 0.237385 0 200 255
0.420840 0.354664 0.187480 0 200 255
0.336072 0.314229 0.191794 0 200 255
0.337181 0.319665 0.181161 0 200 255
0.377110 0.218339 0.183500 0 200 255
0.392258 0.263308 0.240526 0 200 255
0.403945 0.218651 0.198075 0 200 255
0.442481 0.246975 0.221825 0 200 255
0.416225 0.228858 0.217031 0 200 255
0.426244 0.243765 0.217699 0 200 255
0.405355 0.199735 0.194337 0 200 255
0.384517 0.214789 0.215445 0 200 255
0.404271 0.270136 0.214072 0 200 255
0.415024 0.373710 0.186933 0 200 255
0.411514 0.318592 0.205606 0 200 255
0.440039 0.311291 0.233404 0 200 255
0.436094 0.239486 0.230002 0 200 255
0.336860 0.329900 0.179729 0 200 255
0.399812 0.348835 0.210169 0 200 255
0.442724 0.245495 0.213982 0 200 255
0.490225 0.237872 0.238266 0 200 255
0.407306 0.331379 0.227483 0 200 255
0.392639 0.322341 0.177206 0 200 255
0.390207 0.334302 0.171753 0 200 255
0.449203 0.332099 0.242975 0 200 255
0.458490 0.326978 0.232631 0 200 255
0.490997 0.267026 0.235963 0 200 255
0.408614 0.202998 0.200914 0 200 255
0.330177 0.204940 0.168125 0 200 255
0.346502 0.217883 0.192589 0 200 255
0.399842 0.334521 0.183488 0 200 255
0.405400 0.214829 0.182862 0 200 255
0.358893 0.201033 0.193817 0 200 255
0.341506 0.197778 0.172287 0 200 255
0.424686 0.364938 0.178498 0 200 255
0.484938 0.251266 0.219288 0 200 255
0.454204 0.308099 0.224161 0 200 255
0.340699 0.311833 0.181617 0 200 255
0.429800 0.294690 0.223178 0 200 255
0.411514 0.365587 0.168151 0 200 255
0.414819 0.291166 0.254257 0 200 255
0.472918 0.302742 0.227086 0 200 255
0.481667 0.273550 0.220436 0 200 255
0.325494 0.334454 0.179459 0 200 255
0.344062 0.203664 0.201619 0 200 255
0.426487 0.368779 0.203158 0 200 255
0.490933 0.233058 0.226058 0 200 255
0.435671 0.262505 0.251880 0 200 255
0.406690 0.279325 0.248181 0 200 255
0.428154 0.358774 0.197294 0 200 255
0.437629 0.233684 0.219823 0 200 255
0.440578 0.244790 0.228529 0 200 255
0.462890 0.217563 0.211720 0 200 255
0.352601 0.319385 0.197281 0 200 255
0.387863 0.337325 0.161650 0 200 255
0.416031 0.353779 0.214924 0 200 255
0.389954 0.326018 0.217498 0 200 255
0.475507 0.298483 0.233622 0 200 255
0.415446 0.340977 0.219129 0 200 255
0.369325 0.198435 0.195209 0 200 255
0.398462 0.339076 0.168454 0 200 255
0.367222 0.203164 0.175265 0 200 255
0.395982 0.272114 0.244495 0 200 255
0.334700 0.203292 0.193324 0 200 255
0.389661 0.274968 0.244814 0 200 255
0.412627 0.334133 0.163033 0 200 255
0.396749 0.315769 0.191560 0 200 255
0.422485 0.321793 0.244391 0 200 255
0.408461 0.342664 0.153791 0 200 255
0.387703 0.278972 0.222286 0 200 255
0.446637 0.232043 0.213792 0 200 255
0.459721 0.320668 0.241125 0 200 255
0.455620 0.307377 0.258658 0 200 255
0.337447 0.318689 0.204418 0 200 255
0.459114 0.321600 0.250151 0 200 255
0.440306 0.329272 0.224419 0 200 255
0.394035 0.261548 0.223993 0 200 255
0.395932 0.257172 0.230016 0 200 255
0.403814 0.348537 0.186054 0 200 255
0.415818 0.342072 0.176799 0 200 255
0.398796 0.273530 0.215662 0 200 255
0.407723 0.290946 0.249999 0 200 255
0.318548 0.214903 0.182419 0 200 255
0.369473 0.288902 0.217518 0 200 255
0.407133 0.317727 0.226906 0 200 255
0.425518 0.320234 0.224374 0 200 255
0.361340 0.210439 0.188279 0 200 255
0.404133 0.256408 0.251698 0 200 255
0.398205 0.328122 0.156282 0 200 255
0.488162 0.237695 0.212136 0 200 255
0.458917 0.229672 0.227320 0 200 255
0.407411 0.325101 0.207258 0 200 255
0.393892 0.219025 0.181898 0 200 255
0.441189 0.334818 0.216663 0 200 255
0.436294 0.242877 0.216733 0 200 255
0.404942 0.335765 0.222120 0 200 255
0.369068 0.287691 0.228114 0 200 255
0.415670 0.348323 0.157124 0 200 255
0.343012 0.325781 0.182043 0 200 255
0.336488 0.208662 0.178469 0 200 255
0.390185 0.274830 0.251456 0 200 255
0.475246 0.225785 0.205299 0 200 255
0.345574 0.192761 0.192901 0 200 255
0.358625 0.295406 0.228725 0 200 255
0.428570 0.347109 0.226556 0 200 255
0.470829 0.236990 0.246370 0 200 255
0.410648 0.219561 0.218321 0 200 255
0.345336 0.304485 0.219999 0 200 255
0.394633 0.287043 0.224246 0 200 255
0.408433 0.289250 0.238539 0 200 255
0.454304 0.320888 0.232410 0 200 255
0.471407 0.245010 0.217357 0 200 255
0.401155 0.279819 0.240415 0 200 255
0.408011 0.254219 0.212604 0 200 255
0.464846 0.284758 0.216856 0 200 255
0.405597 0.329219 0.161240 0 200 255
0.387075 0.327265 0.188548 0 200 255
0.363381 0.193990 0.205858 0 200 255
0.468244 0.313359 0.248164 0 200 255
0.356268 0.213498 0.181998 0 200 255
0.410985 0.221359 0.206034 0 200 255
0.477085 0.295812 0.250542 0 200 255
0.425217 0.334167 0.212109 0 200 255
0.405384 0.226972 0.217211 0 200 255
0.401659 0.340356 0.213888 0 200 255
0.396581 0.218760 0.218696 0 200 255
0.403591 0.245903 0.234627 0 200 255
0.348367 0.316494 0.210537 0 200 255
0.371190 0.294667 0.236576 0 200 255
0.436659 0.323997 0.244060 0 200 255
0.457666 0.214705 0.220471 0 200 255
0.457686 0.213485 0.230077 0 200 255
0.414008 0.243859 0.233585 0 200 255
0.372686 0.297083 0.242857 0 200 255
0.394916 0.341058 0.193851 0 200 255
0.459499 0.215202 0.244433 0 200 255
0.427658 0.304718 0.251956 0 200 255
0.351396 0.314023 0.221285 0 200 255
0.413809 0.300826 0.254792 0 200 255
0.431328 0.355517 0.204654 0 200 255
0.489583 0.274106 0.240059 0 200 255
0.419097 0.378365 0.176489 0 200 255
0.363194 0.303694 0.202873 0 200 255
0.459963 0.236760 0.250364 0 200 255
