ply
format ascii 1.0
element vertex 1024
property float x
property float y
property float z
property uchar red
property uchar green
property uchar blue
end_header
0.463383 0.241928 0.240247 0 200 255
0.349736 0.369990 0.155607 0 200 255
0.346852 0.232237 0.167047 0 200 255
0.461831 0.365724 0.214360 0 200 255
0.385285 0.314081 0.227956 0 200 255
0.428029 0.348372 0.140012 0 200 255
0.407554 0.251936 0.197358 0 200 255
0.489460 0.297488 0.205759 0 200 255
0.445753 0.314127 0.246903 0 200 255
0.452013 0.395288 0.164612 0 200 255
0.409839 0.354263 0.194296 0 200 255
0.358719 0.346979 0.200394 0 200 255
0.432150 0.295653 0.201810 0 200 255
0.314174 0.268782 0.167610 0 200 255
0.467733 0.236881 0.191996 0 200 255
0.423460 0.268518 0.240340 0 200 255
0.373416 0.226915 0.199795 0 200 255
0.479976 0.330918 0.228074 0 200 255
0.471708 0.281324 0.242181 0 200 255
0.431275 0.342692 0.224624 0 200 255
0.382335 0.248097 0.167244 0 200 255
0.488886 0.259823 0.213843 0 200 255
0.443346 0.363419 0.181274 0 200 255
0.433746 0.236360 0.219399 0 200 255
0.399366 0.284332 0.214125 0 200 255
0.461112 0.275160 0.199307 0 200 255
0.456351 0.319883 0.205559 0 200 255
0.414373 0.301333 0.241671 0 200 255
0.383610 0.324642 0.195599 0 200 255
0.341750 0.259719 0.184181 0 200 255
0.366045 0.346846 0.169435 0 200 255
0.408497 0.355246 0.163308 0 200 255
0.448822 0.389013 0.197815 0 200 255
0.398666 0.226406 0.181438 0 200 255
0.432397 0.374663 0.154415 0 200 255
0.418366 0.326595 0.202726 0 200 255
0.435236 0.259642 0.202358 0 200 255
0.487001 0.304965 0.238025 0 200 255
0.369057 0.254120 0.193439 0 200 255
0.432955 0.365706 0.207421 0 200 255
0.445505 0.289785 0.225722 0 200 255
0.333483 0.253284 0.154851 0 200 255
0.377279 0.338292 0.217839 0 200 255
0.427040 0.342114 0.177753 0 200 255
0.371584 0.224748 0.173158 0 200 255
0.456844 0.342947 0.231897 0 200 255
0.448963 0.344778 0.201664 0 200 255
0.451545 0.265020 0.242528 0 200 255
0.345135 0.233749 0.192822 0 200 255
0.485757 0.235944 0.222726 0 200 255
0.465316 0.250309 0.213847 0 200 255
0.408400 0.261193 0.222021 0 200 255
0.396595 0.231104 0.207596 0 200 255
0.415607 0.305898 0.217153 0 200 255
0.452810 0.222228 0.229706 0 200 255
0.492885 0.284039 0.226095 0 200 255
0.322907 0.247590 0.176079 0 200 255
0.448381 0.225308 0.199390 0 200 255
0.469312 0.318317 0.246062 0 200 255
0.359701 0.363886 0.183933 0 200 255
0.418586 0.275408 0.198945 0 200 255
0.438980 0.319079 0.220694 0 200 255
0.423734 0.375284 0.183016 0 200 255
0.466854 0.299501 0.202284 0 200 255
0.358806 0.251737 0.165790 0 200 255
0.416447 0.325123 0.229037 0 200 255
0.484277 0.262443 0.235381 0 200 255
0.458247 0.379676 0.179178 0 200 255
0.379576 0.344753 0.187651 0 200 255
0.399400 0.324747 0.215005 0 200 255
0.402590 0.249396 0.175519 0 200 255
0.405220 0.279221 0.234796 0 200 255
0.411290 0.344299 0.213665 0 200 255
0.387588 0.250762 0.205790 0 200 255
0.435679 0.354680 0.162151 0 200 255
0.483514 0.318026 0.209264 0 200 255
0.467538 0.344685 0.212789 0 200 255
0.437312 0.246168 0.238365 0 200 255
0.437027 0.288334 0.245506 0 200 255
0.424441 0.239723 0.200537 0 200 255
0.462178 0.362370 0.193559 0 200 255
0.461396 0.299230 0.243909 0 200 255
0.427791 0.344571 0.199123 0 200 255
0.409960 0.357199 0.142849 0 200 255
0.438676 0.388530 0.179493 0 200 255
0.438563 0.365439 0.137467 0 200 255
0.458466 0.318161 0.225955 0 200 255
0.399441 0.303452 0.205356 0 200 255
0.447268 0.386144 0.147457 0 200 255
0.348309 0.355761 0.169875 0 200 255
0.488867 0.275613 0.201849 0 200 255
0.426068 0.316500 0.246104 0 200 255
0.484562 0.238923 0.201936 0 200 255
0.333753 0.267534 0.168174 0 200 255
0.361336 0.239267 0.183435 0 200 255
0.397372 0.296321 0.230101 0 200 255
0.451762 0.245225 0.199124 0 200 255
0.422128 0.341858 0.157428 0 200 255
0.387292 0.253608 0.186311 0 200 255
0.449856 0.374501 0.162345 0 200 255
0.440033 0.254916 0.219997 0 200 255
0.478178 0.259213 0.198867 0 200 255
0.450424 0.291691 0.204848 0 200 255
0.443662 0.355069 0.217755 0 200 255
0.450071 0.333054 0.217005 0 200 255
0.422607 0.250273 0.215257 0 200 255
0.454683 0.329750 0.245543 0 200 255
0.417542 0.358555 0.178678 0 200 255
0.365380 0.362096 0.159326 0 200 255
0.403201 0.312843 0.233397 0 200 255
0.383122 0.234605 0.187036 0 200 255
0.477366 0.231223 0.238403 0 200 255
0.432308 0.313057 0.205016 0 200 255
0.447001 0.375596 0.211353 0 200 255
0.413965 0.337401 0.188164 0 200 255
0.412638 0.236757 0.181630 0 200 255
0.368862 0.333589 0.195666 0 200 255
0.422046 0.252358 0.232362 0 200 255
0.454762 0.238066 0.223204 0 200 255
0.412054 0.236980 0.212834 0 200 255
0.475899 0.248505 0.230335 0 200 255
0.468814 0.264445 0.242141 0 200 255
0.442361 0.373504 0.195187 0 200 255
0.355026 0.347560 0.183890 0 200 255
0.387045 0.231927 0.167807 0 200 255
0.323546 0.263614 0.181075 0 200 255
0.455025 0.282415 0.243571 0 200 255
0.385855 0.315977 0.210431 0 200 255
0.375026 0.347601 0.204158 0 200 255
0.420314 0.286222 0.238006 0 200 255
0.426576 0.359916 0.192862 0 200 255
0.423060 0.360419 0.153003 0 200 255
0.352943 0.250293 0.192490 0 200 255
0.336311 0.237906 0.178434 0 200 255
0.436144 0.333177 0.208162 0 200 255
0.438665 0.273307 0.236130 0 200 255
0.486494 0.303938 0.221580 0 200 255
0.389195 0.330079 0.228381 0 200 255
0.444857 0.276362 0.202747 0 200 255
0.427381 0.367147 0.168612 0 200 255
0.317488 0.255539 0.158749 0 200 255
0.473437 0.284729 0.203934 0 200 255
0.387524 0.336960 0.205377 0 200 255
0.441429 0.334168 0.233788 0 200 255
0.425019 0.305226 0.230243 0 200 255
0.398992 0.238881 0.191581 0 200 255
0.456868 0.358617 0.228288 0 200 255
0.406857 0.267798 0.206759 0 200 255
0.361862 0.235850 0.163051 0 200 255
0.471465 0.329331 0.214330 0 200 255
0.339120 0.252206 0.170418 0 200 255
0.346372 0.244627 0.157342 0 200 255
0.440113 0.349113 0.186919 0 200 255
0.416807 0.301417 0.202172 0 200 255
0.444223 0.364071 0.151980 0 200 255
0.412181 0.343306 0.173135 0 200 255
0.447355 0.360263 0.202464 0 200 255
0.446161 0.308157 0.210117 0 200 255
0.439471 0.386209 0.163320 0 200 255
0.370317 0.252033 0.176011 0 200 255
0.445975 0.221444 0.215991 0 200 255
0.374720 0.326524 0.207957 0 200 255
0.462652 0.255898 0.197783 0 200 255
0.363624 0.239563 0.198536 0 200 255
0.419123 0.357135 0.130642 0 200 255
0.356527 0.369513 0.169271 0 200 255
0.437634 0.245417 0.206877 0 200 255
0.436777 0.319163 0.235827 0 200 255
0.428955 0.352588 0.213043 0 200 255
0.366245 0.224689 0.187110 0 200 255
0.410638 0.232354 0.198985 0 200 255
0.367464 0.352722 0.189815 0 200 255
0.415000 0.343200 0.144264 0 200 255
0.376802 0.240899 0.204867 0 200 255
0.353470 0.355175 0.154385 0 200 255
0.467156 0.330834 0.235095 0 200 255
0.453012 0.393322 0.179250 0 200 255
0.333805 0.248865 0.189716 0 200 255
0.391529 0.225242 0.194327 0 200 255
0.456860 0.375843 0.194380 0 200 255
0.493518 0.269677 0.225016 0 200 255
0.439453 0.374412 0.172285 0 200 255
0.422006 0.254155 0.201207 0 200 255
0.451372 0.250914 0.240389 0 200 255
0.367240 0.339725 0.181736 0 200 255
0.484390 0.278551 0.236439 0 200 255
0.482931 0.275830 0.214695 0 200 255
0.483322 0.318051 0.232817 0 200 255
0.449695 0.264056 0.197910 0 200 255
0.422388 0.335698 0.214693 0 200 255
0.475379 0.294883 0.241463 0 200 255
0.401126 0.247668 0.209099 0 200 255
0.436253 0.303819 0.246258 0 200 255
0.450032 0.237361 0.236384 0 200 255
0.376900 0.323639 0.221503 0 200 255
0.422779 0.352399 0.167090 0 200 255
0.426571 0.332633 0.191963 0 200 255
0.471209 0.313239 0.204714 0 200 255
0.430605 0.328903 0.226530 0 200 255
0.350748 0.244851 0.174818 0 200 255
0.405858 0.288138 0.202436 0 200 255
0.469645 0.342489 0.226311 0 200 255
0.366531 0.337905 0.209127 0 200 255
0.396090 0.308440 0.217790 0 200 255
0.493691 0.285027 0.210711 0 200 255
0.431430 0.356154 0.178840 0 200 255
0.330784 0.242512 0.165265 0 200 255
0.420563 0.288645 0.205394 0 200 255
0.404780 0.297706 0.217119 0 200 255
0.313161 0.256145 0.172380 0 200 255
0.418124 0.322603 0.215601 0 200 255
0.432712 0.258686 0.240332 0 200 255
0.410599 0.315365 0.244351 0 200 255
0.368504 0.359199 0.173752 0 200 255
0.418506 0.353620 0.204981 0 200 255
0.456995 0.384461 0.157350 0 200 255
0.452855 0.246170 0.212878 0 200 255
0.411709 0.266226 0.233658 0 200 255
0.402965 0.272925 0.220479 0 200 255
0.487291 0.291234 0.236625 0 200 255
0.478887 0.246256 0.211049 0 200 255
0.428924 0.372355 0.197072 0 200 255
0.412793 0.338679 0.200979 0 200 255
0.464367 0.350779 0.201848 0 200 255
0.435576 0.354947 0.148153 0 200 255
0.432065 0.277720 0.202912 0 200 255
0.444238 0.343567 0.223436 0 200 255
0.456446 0.345135 0.219230 0 200 255
0.427167 0.368780 0.144175 0 200 255
0.401114 0.301152 0.241342 0 200 255
0.394201 0.324917 0.203325 0 200 255
0.370049 0.239832 0.171910 0 200 255
0.442379 0.326625 0.245871 0 200 255
0.407238 0.314464 0.212990 0 200 255
0.397746 0.238283 0.171968 0 200 255
0.449565 0.366526 0.219756 0 200 255
0.427684 0.241102 0.229395 0 200 255
0.443999 0.362867 0.166893 0 200 255
0.465791 0.354289 0.220671 0 200 255
0.452392 0.330257 0.229223 0 200 255
0.348448 0.260338 0.168986 0 200 255
0.419466 0.345932 0.222877 0 200 255
0.436171 0.375589 0.184132 0 200 255
0.384753 0.229766 0.203758 0 200 255
0.473306 0.270123 0.201940 0 200 255
0.459513 0.305905 0.209831 0 200 255
0.347179 0.232328 0.180851 0 200 255
0.438399 0.338729 0.197485 0 200 255
0.450372 0.364736 0.191159 0 200 255
0.386614 0.224179 0.181837 0 200 255
0.412578 0.254888 0.210173 0 200 255
0.446687 0.258249 0.208146 0 200 255
0.328011 0.255659 0.167068 0 200 255
0.390074 0.333063 0.216686 0 200 255
0.441979 0.232111 0.227140 0 200 255
0.411727 0.300417 0.227173 0 200 255
0.395623 0.252870 0.195002 0 200 255
0.458305 0.376095 0.206326 0 200 255
0.323042 0.267547 0.159572 0 200 255
0.408426 0.289823 0.239345 0 200 255
0.360621 0.230771 0.175062 0 200 255
0.476961 0.303945 0.209541 0 200 255
0.465643 0.244268 0.224135 0 200 255
0.461864 0.224750 0.236967 0 200 255
0.457449 0.316095 0.246953 0 200 255
0.447773 0.374839 0.181853 0 200 255
0.410422 0.349885 0.183308 0 200 255
0.387039 0.337670 0.193569 0 200 255
0.460084 0.324941 0.215555 0 200 255
0.460407 0.229538 0.197580 0 200 255
0.399404 0.322858 0.228664 0 200 255
0.370990 0.248360 0.163984 0 200 255
0.343456 0.245641 0.183908 0 200 255
0.380368 0.254195 0.195981 0 200 255
0.460783 0.286542 0.204162 0 200 255
0.410891 0.349455 0.153567 0 200 255
0.420524 0.311805 0.205602 0 200 255
0.441023 0.384747 0.190128 0 200 255
0.445015 0.394322 0.155522 0 200 255
0.472265 0.307243 0.245183 0 200 255
0.439547 0.286340 0.200749 0 200 255
0.463349 0.244491 0.199347 0 200 255
0.482916 0.253590 0.221349 0 200 255
0.422207 0.317541 0.235323 0 200 255
0.418829 0.344905 0.133679 0 200 255
0.416871 0.362148 0.166741 0 200 255
0.462237 0.254279 0.240647 0 200 255
0.423379 0.269529 0.207331 0 200 255
0.461133 0.269662 0.235712 0 200 255
0.456459 0.386773 0.170536 0 200 255
0.426301 0.350169 0.187188 0 200 255
0.341018 0.259761 0.160153 0 200 255
0.373704 0.233262 0.163534 0 200 255
0.424942 0.298163 0.243882 0 200 255
0.447441 0.236216 0.214884 0 200 255
0.332876 0.258475 0.177336 0 200 255
0.440846 0.372797 0.145587 0 200 255
0.412133 0.248561 0.181306 0 200 255
0.423322 0.358423 0.141361 0 200 255
0.362757 0.251287 0.184206 0 200 255
0.453677 0.385145 0.187763 0 200 255
0.359624 0.228894 0.195019 0 200 255
0.372486 0.234664 0.183797 0 200 255
0.403898 0.227433 0.191179 0 200 255
0.457336 0.342393 0.208521 0 200 255
0.417001 0.246666 0.224307 0 200 255
0.475689 0.255741 0.238714 0 200 255
0.429236 0.320785 0.212319 0 200 255
0.424649 0.237997 0.213313 0 200 255
0.411581 0.312034 0.226221 0 200 255
0.389680 0.322516 0.219993 0 200 255
0.356011 0.349477 0.165037 0 200 255
0.345710 0.360562 0.160127 0 200 255
0.376312 0.253881 0.185130 0 200 255
0.492417 0.269790 0.210702 0 200 255
0.402040 0.250060 0.186501 0 200 255
0.453619 0.354254 0.195720 0 200 255
0.442601 0.381668 0.203316 0 200 255
0.378346 0.332400 0.189398 0 200 255
0.441269 0.310933 0.230108 0 200 255
0.392209 0.250426 0.171428 0 200 255
0.411086 0.360418 0.153558 0 200 255
0.477769 0.294582 0.201989 0 200 255
0.472512 0.250807 0.202861 0 200 255
0.416522 0.245300 0.206853 0 200 255
0.446944 0.304347 0.242307 0 200 255
0.414761 0.334721 0.222364 0 200 255
0.432421 0.257390 0.212575 0 200 255
0.390263 0.239864 0.208096 0 200 255
0.457055 0.323788 0.236491 0 200 255
0.436001 0.352368 0.224928 0 200 255
0.350988 0.357732 0.180116 0 200 255
0.379605 0.233383 0.175417 0 200 255
0.443514 0.279802 0.245208 0 200 255
0.367071 0.354545 0.200368 0 200 255
0.427962 0.350961 0.155744 0 200 255
0.434501 0.309441 0.221790 0 200 255
0.407494 0.356891 0.175503 0 200 255
0.481414 0.327652 0.217747 0 200 255
0.452100 0.294099 0.244396 0 200 255
0.432452 0.341551 0.213557 0 200 255
0.447198 0.383607 0.175539 0 200 255
0.395781 0.307119 0.228448 0 200 255
0.463522 0.362545 0.204396 0 200 255
0.475325 0.243005 0.196100 0 200 255
0.443510 0.392557 0.171011 0 200 255
0.447958 0.345920 0.213029 0 200 255
0.452969 0.317282 0.216752 0 200 255
0.414344 0.361920 0.188108 0 200 255
0.324419 0.252527 0.185223 0 200 255
0.355886 0.354105 0.192054 0 200 255
0.413280 0.242195 0.196548 0 200 255
0.372872 0.352564 0.180569 0 200 255
0.452554 0.372844 0.172310 0 200 255
0.422459 0.344936 0.209210 0 200 255
0.426925 0.365907 0.179803 0 200 255
0.371677 0.343576 0.194962 0 200 255
0.413754 0.345744 0.162846 0 200 255
0.488181 0.307276 0.208988 0 200 255
0.376561 0.223871 0.187862 0 200 255
0.399008 0.288203 0.223874 0 200 255
0.362212 0.352158 0.178005 0 200 255
0.401563 0.236625 0.181435 0 200 255
0.361750 0.343170 0.191270 0 200 255
0.436313 0.365151 0.196438 0 200 255
0.426213 0.268624 0.197390 0 200 255
0.381975 0.253514 0.176521 0 200 255
0.431553 0.376735 0.166092 0 200 255
0.450636 0.350318 0.227856 0 200 255
0.440921 0.370036 0.159845 0 200 255
0.437184 0.332498 0.219481 0 200 255
0.439731 0.356182 0.208316 0 200 255
0.485986 0.288336 0.202642 0 200 255
0.453815 0.356071 0.218444 0 200 255
0.424635 0.369795 0.158907 0 200 255
0.467113 0.323153 0.227857 0 200 255
0.439655 0.265527 0.243050 0 200 255
0.343189 0.243407 0.166861 0 200 255
0.473932 0.242385 0.238120 0 200 255
0.391681 0.233249 0.178999 0 200 255
0.491507 0.298176 0.230660 0 200 255
0.486073 0.313664 0.224176 0 200 255
0.476960 0.323703 0.242427 0 200 255
0.461733 0.337182 0.223195 0 200 255
0.365138 0.347988 0.208007 0 200 255
0.430391 0.357567 0.202193 0 200 255
0.425548 0.306681 0.216569 0 200 255
0.439126 0.244554 0.217479 0 200 255
0.410300 0.348266 0.203107 0 200 255
0.426670 0.277873 0.241406 0 200 255
0.464239 0.350397 0.229693 0 200 255
0.445078 0.365266 0.210970 0 200 255
0.442417 0.241860 0.198807 0 200 255
0.463257 0.276371 0.243617 0 200 255
0.332660 0.247561 0.177759 0 200 255
0.418967 0.350595 0.195370 0 200 255
0.430443 0.377138 0.175914 0 200 255
0.323657 0.270121 0.170034 0 200 255
0.448281 0.275540 0.236451 0 200 255
0.352783 0.237376 0.159537 0 200 255
0.479027 0.256084 0.210452 0 200 255
0.422952 0.259257 0.209507 0 200 255
0.466711 0.232767 0.241042 0 200 255
0.427414 0.307080 0.240723 0 200 255
0.447867 0.378151 0.153046 0 200 255
0.471246 0.332096 0.223858 0 200 255
0.466132 0.354814 0.210563 0 200 255
0.445046 0.356582 0.191690 0 200 255
0.463223 0.287630 0.242742 0 200 255
0.396999 0.240726 0.201107 0 200 255
0.488066 0.261616 0.224636 0 200 255
0.396861 0.293647 0.212879 0 200 255
0.343785 0.243787 0.193421 0 200 255
0.417825 0.354207 0.158952 0 200 255
0.356663 0.237590 0.191930 0 200 255
0.427754 0.360351 0.161722 0 200 255
0.455432 0.306639 0.246553 0 200 255
0.346264 0.252095 0.163908 0 200 255
0.359402 0.366624 0.153239 0 200 255
0.412622 0.279189 0.240994 0 200 255
0.479991 0.270394 0.239142 0 200 255
0.416842 0.259681 0.217349 0 200 255
0.374305 0.250085 0.202197 0 200 255
0.337017 0.237630 0.188001 0 200 255
0.411565 0.267382 0.215110 0 200 255
0.445546 0.336855 0.205851 0 200 255
0.441209 0.324330 0.212989 0 200 255
0.418975 0.310460 0.243850 0 200 255
0.347608 0.255468 0.177197 0 200 255
0.426703 0.344435 0.148645 0 200 255
0.403723 0.237482 0.208095 0 200 255
0.430692 0.315713 0.229291 0 200 255
0.425506 0.336458 0.229424 0 200 255
0.427916 0.328912 0.205848 0 200 255
0.445281 0.322911 0.233663 0 200 255
0.451693 0.383743 0.205274 0 200 255
0.418569 0.345108 0.180871 0 200 255
0.380803 0.332552 0.224667 0 200 255
0.453049 0.303252 0.203391 0 200 255
0.360151 0.245261 0.176048 0 200 255
0.437326 0.318390 0.246054 0 200 255
0.320631 0.249837 0.165616 0 200 255
0.356407 0.360479 0.172866 0 200 255
0.414921 0.331843 0.209800 0 200 255
0.325841 0.258783 0.155633 0 200 255
0.447243 0.317399 0.205562 0 200 255
0.381407 0.343510 0.198542 0 200 255
0.371173 0.330992 0.215424 0 200 255
0.416114 0.306299 0.233029 0 200 255
0.365045 0.352487 0.162004 0 200 255
0.441714 0.293056 0.208048 0 200 255
0.486580 0.245248 0.219124 0 200 255
0.470700 0.273080 0.237841 0 200 255
0.402103 0.311685 0.242987 0 200 255
0.336591 0.244728 0.157019 0 200 255
0.398469 0.231737 0.197599 0 200 255
0.395075 0.317076 0.211849 0 200 255
0.442140 0.240526 0.232529 0 200 255
0.424992 0.368597 0.189392 0 200 255
0.417542 0.329975 0.194095 0 200 255
0.461700 0.242523 0.210265 0 200 255
0.478885 0.313552 0.243529 0 200 255
0.409233 0.300657 0.209539 0 200 255
0.437047 0.360145 0.188640 0 200 255
0.387908 0.241103 0.169663 0 200 255
0.434871 0.358834 0.216425 0 200 255
0.363147 0.245167 0.191113 0 200 255
0.440120 0.230587 0.214865 0 200 255
0.442556 0.296603 0.244719 0 200 255
0.388147 0.233912 0.196256 0 200 255
0.331959 0.264719 0.159145 0 200 255
0.464525 0.317987 0.211488 0 200 255
0.419094 0.260977 0.235096 0 200 255
0.434606 0.361501 0.168695 0 200 255
0.455305 0.372656 0.216114 0 200 255
0.382787 0.323529 0.228497 0 200 255
0.482196 0.267391 0.211256 0 200 255
0.442921 0.371704 0.204164 0 200 255
0.413136 0.351492 0.136476 0 200 255
0.381234 0.330424 0.215501 0 200 255
0.492293 0.298028 0.217785 0 200 255
0.433875 0.251010 0.199894 0 200 255
0.351691 0.363135 0.149955 0 200 255
0.406079 0.295656 0.232569 0 200 255
0.338966 0.264925 0.175516 0 200 255
0.457500 0.378748 0.164687 0 200 255
0.462334 0.310361 0.241933 0 200 255
0.428384 0.289571 0.243125 0 200 255
0.368698 0.234224 0.193289 0 200 255
0.318853 0.260097 0.166591 0 200 255
0.387059 0.318510 0.201856 0 200 255
0.488348 0.271169 0.233128 0 200 255
0.403921 0.307258 0.222078 0 200 255
0.449115 0.338374 0.231339 0 200 255
0.458311 0.335740 0.214483 0 200 255
0.429516 0.341810 0.186502 0 200 255
0.363993 0.339717 0.200692 0 200 255
0.352285 0.235271 0.174099 0 200 255
0.441774 0.386028 0.154620 0 200 255
0.448236 0.232761 0.206679 0 200 255
0.476348 0.330933 0.237219 0 200 255
0.424178 0.351664 0.176214 0 200 255
0.439469 0.302309 0.209308 0 200 255
0.384051 0.225229 0.173362 0 200 255
0.482361 0.266314 0.202265 0 200 255
0.479993 0.238911 0.232619 0 200 255
0.381673 0.341473 0.210317 0 200 255
0.388313 0.312522 0.219143 0 200 255
0.419605 0.314580 0.219109 0 200 255
0.381141 0.226285 0.195461 0 200 255
0.453441 0.390681 0.152106 0 200 255
0.410165 0.277513 0.200784 0 200 255
0.416674 0.361562 0.146584 0 200 255
0.437717 0.347793 0.216890 0 200 255
0.339340 0.235888 0.170408 0 200 255
0.443161 0.361074 0.143764 0 200 255
0.432065 0.359458 0.141294 0 200 255
0.481037 0.286326 0.240394 0 200 255
0.373375 0.344438 0.212930 0 200 255
0.407161 0.229927 0.180726 0 200 255
0.445357 0.258846 0.242806 0 200 255
0.362169 0.251391 0.198083 0 200 255
0.404055 0.276893 0.212784 0 200 255
0.326351 0.249223 0.159061 0 200 255
0.314461 0.263292 0.177177 0 200 255
0.332708 0.257541 0.185986 0 200 255
0.433075 0.238706 0.200786 0 200 255
0.352155 0.248929 0.183940 0 200 255
0.367440 0.358809 0.183611 0 200 255
0.422713 0.336475 0.182750 0 200 255
0.343138 0.252734 0.189157 0 200 255
0.440862 0.261414 0.213756 0 200 255
0.418820 0.350192 0.215088 0 200 255
0.392640 0.233065 0.188887 0 200 255
0.410937 0.344943 0.191158 0 200 255
0.350275 0.363690 0.167010 0 200 255
0.396762 0.316631 0.220509 0 200 255
0.480489 0.276260 0.199806 0 200 255
0.328544 0.243934 0.184442 0 200 255
0.391881 0.332519 0.198534 0 200 255
0.364315 0.243448 0.166399 0 200 255
0.424116 0.281055 0.203354 0 200 255
0.411791 0.308768 0.208127 0 200 255
0.445562 0.248689 0.206016 0 200 255
0.444209 0.265954 0.235753 0 200 255
0.370118 0.235684 0.202612 0 200 255
0.464941 0.341317 0.234257 0 200 255
0.314911 0.264783 0.159430 0 200 255
0.354113 0.246169 0.161248 0 200 255
0.399873 0.290335 0.235713 0 200 255
0.425002 0.246548 0.207182 0 200 255
0.435424 0.275117 0.243863 0 200 255
0.423448 0.359562 0.171755 0 200 255
0.472497 0.246372 0.219432 0 200 255
0.412763 0.258929 0.229020 0 200 255
0.457620 0.365211 0.222277 0 200 255
0.419746 0.343710 0.168577 0 200 255
0.429620 0.330625 0.215996 0 200 255
0.438082 0.324834 0.227134 0 200 255
0.415007 0.351232 0.171747 0 200 255
0.447442 0.243861 0.219238 0 200 255
0.354318 0.351642 0.174292 0 200 255
0.380991 0.238330 0.165557 0 200 255
0.395845 0.252510 0.203500 0 200 255
0.363541 0.364347 0.169152 0 200 255
0.434548 0.359622 0.155140 0 200 255
0.456281 0.267888 0.201608 0 200 255
0.461213 0.369520 0.197982 0 200 255
0.405350 0.318586 0.220125 0 200 255
0.439034 0.267167 0.202996 0 200 255
0.422595 0.359416 0.185394 0 200 255
0.390852 0.320179 0.229731 0 200 255
0.430674 0.347206 0.206600 0 200 255
0.404433 0.245127 0.193478 0 200 255
0.419012 0.236866 0.207148 0 200 255
0.393055 0.228158 0.172425 0 200 255
0.418862 0.291675 0.244264 0 200 255
0.456024 0.374988 0.186049 0 200 255
0.431842 0.253045 0.220353 0 200 255
0.458056 0.329215 0.223099 0 200 255
0.447513 0.390824 0.187289 0 200 255
0.436411 0.311121 0.241975 0 200 255
0.409758 0.245055 0.211800 0 200 255
0.438387 0.368835 0.188566 0 200 255
0.456166 0.383897 0.196566 0 200 255
0.430695 0.336430 0.202702 0 200 255
0.458022 0.248803 0.204138 0 200 255
0.488636 0.291350 0.214344 0 200 255
0.468737 0.279415 0.199525 0 200 255
0.359329 0.226087 0.182658 0 200 255
0.357378 0.370305 0.161014 0 200 255
0.452008 0.284512 0.200922 0 200 255
0.408395 0.306835 0.236118 0 200 255
0.442408 0.338249 0.213439 0 200 255
0.376514 0.234191 0.197202 0 200 255
0.476020 0.235355 0.199297 0 200 255
0.469898 0.228141 0.234922 0 200 255
0.428905 0.303212 0.202965 0 200 255
0.467179 0.327398 0.242655 0 200 255
0.350911 0.240473 0.186690 0 200 255
0.481041 0.256207 0.228998 0 200 255
0.452832 0.275560 0.199686 0 200 255
0.439408 0.355663 0.181053 0 200 255
0.416790 0.359037 0.195489 0 200 255
0.447393 0.313946 0.225398 0 200 255
0.469062 0.337951 0.217382 0 200 255
0.375525 0.335991 0.209515 0 200 255
0.450208 0.351995 0.207884 0 200 255
0.406679 0.240621 0.176314 0 200 255
0.328955 0.267927 0.175989 0 200 255
0.380203 0.320711 0.214169 0 200 255
0.469194 0.263035 0.200966 0 200 255
0.428270 0.259193 0.197962 0 200 255
0.447726 0.286808 0.244160 0 200 255
0.477233 0.335760 0.219551 0 200 255
0.438107 0.367184 0.175956 0 200 255
0.370297 0.333725 0.187584 0 200 255
0.415720 0.359998 0.137713 0 200 255
0.409796 0.231613 0.207094 0 200 255
0.439742 0.383981 0.171182 0 200 255
0.425384 0.351061 0.132777 0 200 255
0.367710 0.228570 0.166466 0 200 255
0.426388 0.364303 0.199936 0 200 255
0.420228 0.328302 0.222553 0 200 255
0.417252 0.363321 0.158027 0 200 255
0.357746 0.355868 0.184270 0 200 255
0.455305 0.311022 0.204337 0 200 255
0.448870 0.323672 0.241951 0 200 255
0.400412 0.310479 0.211068 0 200 255
0.450081 0.253896 0.201706 0 200 255
0.487915 0.306498 0.230103 0 200 255
0.447333 0.347402 0.194168 0 200 255
0.394899 0.252900 0.183621 0 200 255
0.434177 0.371534 0.140496 0 200 255
0.489893 0.278236 0.221311 0 200 255
0.453220 0.362964 0.213481 0 200 255
0.486692 0.315326 0.216191 0 200 255
0.433962 0.367856 0.163739 0 200 255
0.376668 0.325817 0.200145 0 200 255
0.422471 0.240662 0.223254 0 200 255
0.342680 0.242429 0.176451 0 200 255
0.447007 0.256271 0.216216 0 200 255
0.415649 0.337276 0.178982 0 200 255
0.417599 0.345267 0.151730 0 200 255
0.453453 0.274537 0.243299 0 200 255
0.441419 0.253762 0.200160 0 200 255
0.430530 0.240909 0.208650 0 200 255
0.479851 0.322928 0.227341 0 200 255
0.435623 0.335352 0.228379 0 200 255
0.426888 0.354832 0.148706 0 200 255
0.355712 0.232193 0.166655 0 200 255
0.414914 0.249697 0.199586 0 200 255
0.416494 0.354293 0.186174 0 200 255
0.442433 0.378989 0.161544 0 200 255
0.471316 0.336725 0.231598 0 200 255
0.392745 0.331748 0.208468 0 200 255
0.460302 0.323372 0.245278 0 200 255
0.457921 0.333691 0.233861 0 200 255
0.451743 0.369191 0.208700 0 200 255
0.433987 0.369396 0.148287 0 200 255
0.440913 0.379571 0.179125 0 200 255
0.317196 0.254724 0.179081 0 200 255
0.350919 0.251394 0.170297 0 200 255
0.453756 0.230748 0.238686 0 200 255
0.359672 0.343928 0.178587 0 200 255
0.404999 0.274222 0.228644 0 200 255
0.341490 0.263969 0.166851 0 200 255
0.380755 0.321295 0.205764 0 200 255
0.407880 0.242448 0.202340 0 200 255
0.369944 0.331446 0.204010 0 200 255
0.442446 0.357547 0.159224 0 200 255
0.350773 0.354715 0.161807 0 200 255
0.448876 0.376924 0.202435 0 200 255
0.462230 0.298567 0.208833 0 200 255
0.361257 0.356302 0.154809 0 200 255
0.412467 0.362681 0.173553 0 200 255
0.454062 0.339562 0.224221 0 200 255
0.479553 0.310105 0.205423 0 200 255
0.478713 0.304125 0.242002 0 200 255
0.442178 0.238977 0.206086 0 200 255
0.435809 0.343370 0.190895 0 200 255
0.397314 0.306515 0.236092 0 200 255
0.446819 0.389454 0.164457 0 200 255
0.425995 0.341457 0.219018 0 200 255
0.405956 0.236663 0.194276 0 200 255
0.360487 0.366155 0.176293 0 200 255
0.409024 0.357862 0.184151 0 200 255
0.430457 0.374350 0.189254 0 200 255
0.373997 0.351400 0.193788 0 200 255
0.387972 0.253737 0.197418 0 200 255
0.413847 0.262496 0.209449 0 200 255
0.458060 0.368417 0.189600 0 200 255
0.446274 0.376981 0.168743 0 200 255
0.366815 0.246123 0.179883 0 200 255
0.311327 0.261577 0.165588 0 200 255
0.398944 0.298742 0.222067 0 200 255
0.468340 0.237878 0.235291 0 200 255
0.414355 0.251239 0.216739 0 200 255
0.439790 0.363200 0.204862 0 200 255
0.470091 0.248885 0.235349 0 200 255
0.332981 0.249853 0.162835 0 200 255
0.443557 0.237052 0.221519 0 200 255
0.329323 0.241777 0.174036 0 200 255
0.378251 0.228164 0.169340 0 200 255
0.493908 0.277006 0.228894 0 200 255
0.417638 0.346163 0.202973 0 200 255
0.368158 0.245488 0.200157 0 200 255
0.427987 0.247675 0.233329 0 200 255
0.365473 0.230325 0.199694 0 200 255
0.435938 0.237853 0.226545 0 200 255
0.391791 0.227171 0.202456 0 200 255
0.444726 0.246408 0.240073 0 200 255
0.367297 0.346942 0.200205 0 200 255
0.442898 0.376681 0.188323 0 200 255
0.401386 0.244391 0.181508 0 200 255
0.485390 0.241744 0.228109 0 200 255
0.406108 0.252373 0.205854 0 200 255
0.423590 0.371006 0.175310 0 200 255
0.389794 0.253271 0.178006 0 200 255
0.379232 0.225410 0.179169 0 200 255
0.343993 0.237265 0.162199 0 200 255
0.418003 0.242305 0.213620 0 200 255
0.429351 0.359600 0.210282 0 200 255
0.469353 0.308390 0.210186 0 200 255
0.442965 0.227399 0.206122 0 200 255
0.419995 0.320813 0.223378 0 200 255
0.425003 0.351448 0.201851 0 200 255
0.383258 0.319135 0.221963 0 200 255
0.400625 0.231561 0.175972 0 200 255
0.459110 0.350155 0.224220 0 200 255
0.421968 0.342689 0.140121 0 200 255
0.470633 0.299967 0.244485 0 200 255
0.445072 0.366757 0.198980 0 200 255
0.418593 0.274960 0.239438 0 200 255
0.372630 0.344909 0.181840 0 200 255
0.456979 0.351288 0.231692 0 200 255
0.377585 0.233471 0.205057 0 200 255
0.430715 0.349724 0.220363 0 200 255
0.425942 0.367112 0.151347 0 200 255
0.430433 0.338142 0.195443 0 200 255
0.410556 0.293895 0.201758 0 200 255
0.429092 0.353075 0.194459 0 200 255
0.406067 0.295558 0.224142 0 200 255
0.461194 0.355587 0.197116 0 200 255
0.385681 0.225655 0.189581 0 200 255
0.439779 0.374967 0.152638 0 200 255
0.429451 0.255957 0.205258 0 200 255
0.460702 0.280040 0.237665 0 200 255
0.322175 0.254943 0.171631 0 200 255
0.452829 0.229400 0.195063 0 200 255
0.380821 0.253308 0.203737 0 200 255
0.427231 0.322410 0.241754 0 200 255
0.453270 0.297395 0.208659 0 200 255
0.362524 0.356646 0.194194 0 200 255
0.340389 0.252748 0.157831 0 200 255
0.402141 0.304075 0.231026 0 200 255
0.430364 0.357263 0.186085 0 200 255
0.453541 0.268277 0.236187 0 200 255
0.456876 0.314694 0.211027 0 200 255
0.365245 0.233175 0.186832 0 200 255
0.336608 0.258007 0.165787 0 200 255
0.375241 0.338961 0.186056 0 200 255
0.485095 0.244739 0.207396 0 200 255
0.374803 0.241911 0.163806 0 200 255
0.450105 0.360023 0.223420 0 200 255
0.444345 0.271192 0.242917 0 200 255
0.441694 0.307290 0.204349 0 200 255
0.340180 0.254475 0.177318 0 200 255
0.459814 0.324674 0.229747 0 200 255
0.451300 0.391957 0.171116 0 200 255
0.394229 0.327540 0.222803 0 200 255
0.430467 0.266683 0.241499 0 200 255
0.368558 0.232314 0.178069 0 200 255
0.371714 0.223922 0.182290 0 200 255
0.400356 0.302054 0.213217 0 200 255
0.396930 0.245722 0.189462 0 200 255
0.474337 0.302157 0.202936 0 200 255
0.408108 0.304193 0.244173 0 200 255
0.371280 0.226275 0.192329 0 200 255
0.424821 0.373937 0.166731 0 200 255
0.363005 0.252266 0.175880 0 200 255
0.370458 0.353994 0.169004 0 200 255
0.476784 0.319479 0.211711 0 200 255
0.395366 0.314827 0.231805 0 200 255
0.489379 0.308012 0.216152 0 200 255
0.355424 0.346812 0.191296 0 200 255
0.439951 0.381336 0.196523 0 200 255
0.423550 0.328710 0.198041 0 200 255
0.412118 0.341500 0.221811 0 200 255
0.454067 0.244217 0.239402 0 200 255
0.405807 0.267512 0.225927 0 200 255
0.412614 0.337218 0.214718 0 200 255
0.426884 0.254401 0.237386 0 200 255
0.358877 0.346186 0.170844 0 200 255
0.428072 0.335025 0.221679 0 200 255
0.460873 0.369336 0.205644 0 200 255
0.476785 0.252329 0.217698 0 200 255
0.404700 0.317930 0.228291 0 200 255
0.460691 0.330933 0.239959 0 200 255
0.413194 0.266617 0.222130 0 200 255
0.428034 0.348769 0.170480 0 200 255
0.473304 0.326031 0.208165 0 200 255
0.460808 0.237803 0.198351 0 200 255
0.442196 0.312626 0.220296 0 200 255
0.454630 0.239603 0.210455 0 200 255
0.437583 0.325454 0.239278 0 200 255
0.453774 0.379938 0.171743 0 200 255
0.478486 0.247253 0.200967 0 200 255
0.415262 0.329930 0.217026 0 200 255
0.374762 0.253129 0.170468 0 200 255
0.483913 0.259621 0.204361 0 200 255
0.449789 0.337815 0.211656 0 200 255
0.364973 0.224649 0.178489 0 200 255
0.383227 0.245661 0.203304 0 200 255
0.490070 0.285432 0.233516 0 200 255
0.449290 0.341637 0.218577 0 200 255
0.402808 0.293494 0.206028 0 200 255
0.328285 0.261551 0.171071 0 200 255
0.332759 0.249025 0.170045 0 200 255
0.354306 0.250673 0.176852 0 200 255
0.423436 0.348179 0.160479 0 200 255
0.349966 0.240316 0.193959 0 200 255
0.412926 0.350084 0.209458 0 200 255
0.419228 0.312076 0.225748 0 200 255
0.452180 0.386383 0.180529 0 200 255
0.418116 0.350305 0.128983 0 200 255
0.435807 0.319404 0.210020 0 200 255
0.363545 0.353253 0.171135 0 200 255
0.384340 0.337973 0.217519 0 200 255
0.477135 0.276349 0.236607 0 200 255
0.337486 0.240616 0.162703 0 200 255
0.452112 0.326706 0.214677 0 200 255
0.412320 0.253720 0.224285 0 200 255
0.449304 0.380543 0.190816 0 200 255
0.392065 0.224725 0.186786 0 200 255
0.418764 0.283500 0.199513 0 200 255
0.415590 0.333000 0.229121 0 200 255
0.433736 0.351273 0.183328 0 200 255
0.411095 0.342100 0.206862 0 200 255
0.417019 0.236714 0.198792 0 200 255
0.453692 0.378350 0.211078 0 200 255
0.341600 0.233113 0.185264 0 200 255
0.350057 0.242499 0.165596 0 200 255
0.429834 0.356420 0.167109 0 200 255
0.445678 0.389195 0.179440 0 200 255
0.436031 0.376082 0.160776 0 200 255
0.413890 0.355522 0.149454 0 200 255
0.358217 0.243475 0.196534 0 200 255
0.444406 0.330724 0.213700 0 200 255
0.368074 0.359702 0.165815 0 200 255
0.433769 0.370329 0.201636 0 200 255
0.369708 0.253582 0.182962 0 200 255
0.446529 0.351294 0.201555 0 200 255
0.350112 0.369148 0.162705 0 200 255
0.365535 0.239413 0.177895 0 200 255
0.481074 0.327035 0.233940 0 200 255
0.453863 0.381549 0.151874 0 200 255
0.444736 0.249919 0.221287 0 200 255
0.449315 0.371797 0.196792 0 200 255
0.475480 0.263708 0.240346 0 200 255
0.432435 0.281365 0.244327 0 200 255
0.374022 0.349120 0.187177 0 200 255
0.431232 0.323878 0.221805 0 200 255
0.462362 0.360517 0.220420 0 200 255
0.445018 0.351051 0.223892 0 200 255
0.459372 0.268097 0.242208 0 200 255
0.466561 0.283888 0.237989 0 200 255
0.382994 0.237498 0.203564 0 200 255
0.463992 0.345575 0.206357 0 200 255
0.422249 0.328818 0.209775 0 200 255
0.468176 0.347886 0.221588 0 200 255
0.412829 0.311853 0.219237 0 200 255
0.393705 0.303678 0.222157 0 200 255
0.471677 0.329110 0.230047 0 200 255
0.492756 0.291227 0.230950 0 200 255
0.441737 0.369711 0.166670 0 200 255
0.391163 0.310737 0.213139 0 200 255
0.454603 0.389786 0.161398 0 200 255
0.435590 0.373725 0.194010 0 200 255
0.416831 0.318191 0.243711 0 200 255
0.405728 0.306223 0.205444 0 200 255
0.391834 0.234040 0.202311 0 200 255
0.457340 0.242750 0.218893 0 200 255
0.438276 0.362258 0.211554 0 200 255
0.396997 0.245552 0.172028 0 200 255
0.430787 0.366733 0.192699 0 200 255
0.330724 0.257712 0.161116 0 200 255
0.418923 0.339681 0.219062 0 200 255
0.369834 0.338686 0.215074 0 200 255
0.451816 0.380556 0.159538 0 200 255
0.409516 0.349949 0.175626 0 200 255
0.437104 0.361360 0.162285 0 200 255
0.396605 0.252667 0.176152 0 200 255
0.463407 0.356820 0.227482 0 200 255
0.480028 0.233468 0.228495 0 200 255
0.392941 0.323466 0.213200 0 200 255
0.394817 0.244870 0.208950 0 200 255
0.333273 0.263987 0.181335 0 200 255
0.430200 0.336235 0.209925 0 200 255
0.405490 0.295038 0.242607 0 200 255
0.429599 0.259814 0.234274 0 200 255
0.357738 0.355036 0.160499 0 200 255
0.370422 0.342619 0.204722 0 200 255
0.454163 0.240409 0.194966 0 200 255
0.429927 0.363639 0.173850 0 200 255
0.448170 0.227009 0.210476 0 200 255
0.455641 0.360027 0.192759 0 200 255
0.402151 0.230866 0.203708 0 200 255
0.433803 0.370753 0.171438 0 200 255
0.397613 0.228452 0.188771 0 200 255
0.348268 0.240081 0.179493 0 200 255
0.444087 0.245717 0.211930 0 200 255
0.355709 0.241096 0.180126 0 200 255
0.413757 0.355717 0.200555 0 200 255
0.422546 0.360918 0.135095 0 200 255
0.433581 0.250400 0.209007 0 200 255
0.447998 0.370591 0.187115 0 200 255
0.347386 0.230615 0.173948 0 200 255
0.410579 0.257398 0.216118 0 200 255
0.486254 0.277868 0.209178 0 200 255
0.420964 0.359282 0.162112 0 200 255
0.484950 0.236538 0.216051 0 200 255
0.409190 0.272301 0.235178 0 200 255
0.466375 0.293398 0.244274 0 200 255
0.438726 0.279743 0.240225 0 200 255
0.454011 0.228189 0.201728 0 200 255
0.485329 0.297420 0.238447 0 200 255
0.444750 0.354229 0.184901 0 200 255
0.469236 0.244964 0.212656 0 200 255
0.466606 0.325059 0.212457 0 200 255
0.417232 0.266950 0.238322 0 200 255
0.337879 0.253637 0.184174 0 200 255
0.444089 0.364060 0.158907 0 200 255
0.478587 0.247301 0.222121 0 200 255
0.431735 0.365646 0.138383 0 200 255
0.401966 0.284200 0.231680 0 200 255
0.386071 0.253088 0.170878 0 200 255
0.433483 0.353763 0.208030 0 200 255
0.422235 0.354607 0.190132 0 200 255
0.416956 0.271192 0.203885 0 200 255
0.439933 0.391375 0.158733 0 200 255
0.433470 0.242786 0.214361 0 200 255
0.432897 0.286984 0.200428 0 200 255
0.368333 0.339620 0.190057 0 200 255
0.405727 0.266959 0.219263 0 200 255
0.416295 0.290380 0.200553 0 200 255
0.440999 0.340185 0.230911 0 200 255
0.419133 0.309119 0.212486 0 200 255
0.492970 0.275936 0.208164 0 200 255
0.415854 0.315196 0.230578 0 200 255
0.455252 0.346982 0.201780 0 200 255
0.342097 0.234398 0.177070 0 200 255
0.349892 0.360642 0.174222 0 200 255
0.328878 0.268618 0.163572 0 200 255
0.456247 0.235538 0.234796 0 200 255
0.427388 0.346525 0.192778 0 200 255
0.489231 0.264963 0.230907 0 200 255
0.416958 0.252225 0.205940 0 200 255
0.372660 0.233349 0.170098 0 200 255
0.433442 0.367643 0.180666 0 200 255
0.447674 0.226377 0.230442 0 200 255
0.469154 0.254221 0.239191 0 200 255
0.406104 0.298608 0.203171 0 200 255
0.322605 0.255812 0.163209 0 200 255
0.424666 0.261111 0.238672 0 200 255
0.428278 0.275060 0.198182 0 200 255
0.338091 0.245563 0.172860 0 200 255
0.375589 0.330095 0.220263 0 200 255
0.325883 0.245880 0.168142 0 200 255
0.364419 0.252010 0.169259 0 200 255
0.360863 0.251401 0.190532 0 200 255
0.443248 0.360522 0.197298 0 200 255
0.473554 0.286019 0.237921 0 200 255
0.455619 0.261142 0.197988 0 200 255
0.465562 0.270607 0.241387 0 200 255
0.411706 0.348584 0.146177 0 200 255
0.352412 0.254349 0.164562 0 200 255
0.363856 0.225453 0.172054 0 200 255
0.409795 0.312675 0.233433 0 200 255
0.402054 0.318796 0.214111 0 200 255
0.444694 0.259938 0.199018 0 200 255
0.442332 0.388762 0.195162 0 200 255
0.354578 0.363129 0.178590 0 200 255
0.406031 0.308666 0.228396 0 200 255
0.446529 0.373341 0.175586 0 200 255
0.447636 0.358909 0.214216 0 200 255
0.482757 0.310131 0.239487 0 200 255
0.384471 0.326559 0.222933 0 200 255
0.445068 0.339915 0.199636 0 200 255
0.346504 0.363984 0.154599 0 200 255
0.410907 0.282798 0.204580 0 200 255
0.319641 0.266158 0.173358 0 200 255
0.373915 0.329029 0.195148 0 200 255
0.452062 0.320960 0.246980 0 200 255
0.414669 0.299964 0.233776 0 200 255
0.440611 0.371037 0.182600 0 200 255
0.433006 0.236296 0.212565 0 200 255
0.331428 0.251420 0.184091 0 200 255
0.449882 0.351856 0.214964 0 200 255
0.451020 0.394525 0.158083 0 200 255
0.358019 0.241757 0.164062 0 200 255
0.346690 0.253393 0.183321 0 200 255
0.410036 0.357148 0.169355 0 200 255
0.451103 0.327746 0.223345 0 200 255
0.402191 0.233527 0.187134 0 200 255
0.429358 0.374742 0.160301 0 200 255
0.437597 0.346071 0.224609 0 200 255
0.464335 0.321115 0.205792 0 200 255
0.426696 0.353585 0.162025 0 200 255
0.386195 0.233199 0.174124 0 200 255
0.404339 0.284778 0.239097 0 200 255
0.447809 0.226116 0.220111 0 200 255
0.458689 0.279731 0.203228 0 200 255
0.419067 0.244708 0.198055 0 200 255
0.392013 0.226736 0.179312 0 200 255
0.442323 0.363951 0.190215 0 200 255
0.418513 0.235841 0.213643 0 200 255
0.441928 0.342960 0.194067 0 200 255
0.424710 0.347626 0.217493 0 200 255
0.320322 0.261317 0.157992 0 200 255
0.420925 0.340335 0.176630 0 200 255
0.367870 0.237437 0.164814 0 200 255
0.487460 0.277038 0.228519 0 200 255
0.360664 0.344620 0.185006 0 200 255
