ply
format ascii 1.0
element vertex 1024
property float x
property float y
property float z
property uchar red
property uchar green
property uchar blue
end_header
0.463336 0.241071 0.243765 0 200 255
0.351773 0.369833 0.157327 0 200 255
0.345659 0.232839 0.172330 0 200 255
0.460326 0.366115 0.222266 0 200 255
0.396860 0.300029 0.210996 0 200 255
0.436036 0.361511 0.139469 0 200 255
0.491644 0.301574 0.217940 0 200 255
0.414362 0.238378 0.184340 0 200 255
0.439428 0.315160 0.249379 0 200 255
0.410820 0.354516 0.191885 0 200 255
0.445278 0.275475 0.206010 0 200 255
0.360444 0.343850 0.203092 0 200 255
0.453679 0.393481 0.177454 0 200 255
0.314905 0.270203 0.171043 0 200 255
0.472022 0.236168 0.196569 0 200 255
0.413684 0.265256 0.239666 0 200 255
0.374824 0.253462 0.205286 0 200 255
0.453294 0.319681 0.208958 0 200 255
0.476960 0.330837 0.242982 0 200 255
0.469335 0.281257 0.246117 0 200 255
0.430988 0.235548 0.220270 0 200 255
0.416005 0.334389 0.225108 0 200 255
0.490594 0.260431 0.221557 0 200 255
0.380920 0.244180 0.169506 0 200 255
0.404028 0.307163 0.246321 0 200 255
0.447003 0.354964 0.190331 0 200 255
0.379782 0.326739 0.228127 0 200 255
0.415672 0.341018 0.160039 0 200 255
0.427404 0.373979 0.169897 0 200 255
0.410522 0.268867 0.207661 0 200 255
0.384962 0.224152 0.194523 0 200 255
0.343703 0.262955 0.182578 0 200 255
0.367352 0.346726 0.172116 0 200 255
0.388714 0.331121 0.197895 0 200 255
0.447954 0.339608 0.232343 0 200 255
0.426396 0.306162 0.219606 0 200 255
0.444496 0.265326 0.239093 0 200 255
0.402108 0.240460 0.213236 0 200 255
0.475026 0.278551 0.202810 0 200 255
0.429646 0.331582 0.196381 0 200 255
0.431125 0.357304 0.214769 0 200 255
0.448244 0.385730 0.150020 0 200 255
0.442478 0.382525 0.201640 0 200 255
0.429002 0.289215 0.246290 0 200 255
0.353097 0.236515 0.199132 0 200 255
0.333771 0.254122 0.158342 0 200 255
0.470632 0.341276 0.217544 0 200 255
0.483271 0.304068 0.243497 0 200 255
0.448093 0.224352 0.203038 0 200 255
0.485620 0.234645 0.226285 0 200 255
0.460564 0.247517 0.216689 0 200 255
0.445692 0.290768 0.226714 0 200 255
0.324304 0.246949 0.181155 0 200 255
0.401198 0.285094 0.231597 0 200 255
0.459054 0.316476 0.233785 0 200 255
0.445560 0.358932 0.162478 0 200 255
0.452488 0.221441 0.233376 0 200 255
0.413171 0.352237 0.138087 0 200 255
0.430704 0.255382 0.204898 0 200 255
0.395134 0.252605 0.189281 0 200 255
0.491836 0.283504 0.234761 0 200 255
0.367550 0.224736 0.178280 0 200 255
0.462959 0.297482 0.211925 0 200 255
0.360089 0.363333 0.187016 0 200 255
0.358903 0.251868 0.169259 0 200 255
0.462237 0.370743 0.196853 0 200 255
0.476263 0.315793 0.208953 0 200 255
0.428019 0.352137 0.176252 0 200 255
0.478584 0.260824 0.242470 0 200 255
0.400145 0.318616 0.223784 0 200 255
0.416912 0.289870 0.203716 0 200 255
0.428741 0.367472 0.192199 0 200 255
0.450629 0.342468 0.209041 0 200 255
0.436609 0.242352 0.239910 0 200 255
0.447152 0.373002 0.178808 0 200 255
0.493987 0.279814 0.212303 0 200 255
0.420793 0.318607 0.238430 0 200 255
0.396134 0.230738 0.175526 0 200 255
0.481256 0.258260 0.202839 0 200 255
0.376980 0.350431 0.191969 0 200 255
0.455647 0.302125 0.249352 0 200 255
0.415642 0.248334 0.228010 0 200 255
0.420400 0.361425 0.155169 0 200 255
0.378377 0.342632 0.215201 0 200 255
0.434516 0.326339 0.222677 0 200 255
0.413659 0.339087 0.205844 0 200 255
0.362664 0.253126 0.189483 0 200 255
0.417058 0.336213 0.181694 0 200 255
0.420447 0.237861 0.203609 0 200 255
0.442144 0.251544 0.223083 0 200 255
0.455857 0.329043 0.248399 0 200 255
0.349927 0.355832 0.170814 0 200 255
0.429711 0.344754 0.147175 0 200 255
0.446433 0.243601 0.201370 0 200 255
0.410415 0.358474 0.171999 0 200 255
0.403601 0.227246 0.197551 0 200 255
0.484881 0.317152 0.229666 0 200 255
0.371144 0.234596 0.205056 0 200 255
0.385999 0.317057 0.210493 0 200 255
0.465038 0.352025 0.234209 0 200 255
0.459430 0.379250 0.165717 0 200 255
0.447103 0.364099 0.206982 0 200 255
0.455827 0.260071 0.201364 0 200 255
0.337383 0.245912 0.194718 0 200 255
0.467025 0.353841 0.203090 0 200 255
0.412497 0.300175 0.230261 0 200 255
0.426871 0.274445 0.201325 0 200 255
0.443131 0.301602 0.212393 0 200 255
0.441186 0.385374 0.167062 0 200 255
0.324978 0.264603 0.184892 0 200 255
0.459604 0.258457 0.246483 0 200 255
0.436460 0.372796 0.154084 0 200 255
0.365844 0.363909 0.167375 0 200 255
0.451746 0.281851 0.248602 0 200 255
0.371065 0.333726 0.190654 0 200 255
0.477169 0.230160 0.241999 0 200 255
0.485075 0.243333 0.210890 0 200 255
0.431370 0.350291 0.196160 0 200 255
0.401101 0.283232 0.211170 0 200 255
0.410557 0.288130 0.245778 0 200 255
0.442178 0.310297 0.233110 0 200 255
0.406509 0.265491 0.224107 0 200 255
0.470397 0.313926 0.249017 0 200 255
0.474546 0.247446 0.228452 0 200 255
0.407656 0.251531 0.200818 0 200 255
0.432521 0.344909 0.227376 0 200 255
0.428788 0.257876 0.242478 0 200 255
0.318843 0.253615 0.166510 0 200 255
0.331705 0.269223 0.168713 0 200 255
0.455197 0.378788 0.212279 0 200 255
0.430054 0.340180 0.210955 0 200 255
0.361572 0.235334 0.166620 0 200 255
0.479922 0.294032 0.208509 0 200 255
0.456638 0.386282 0.193434 0 200 255
0.374444 0.328441 0.206332 0 200 255
0.393613 0.331471 0.214156 0 200 255
0.446278 0.352397 0.221849 0 200 255
0.357129 0.347038 0.185194 0 200 255
0.396070 0.302383 0.229691 0 200 255
0.386370 0.240526 0.208016 0 200 255
0.447309 0.235389 0.218450 0 200 255
0.378870 0.253787 0.187734 0 200 255
0.459489 0.329726 0.220288 0 200 255
0.412666 0.308376 0.211152 0 200 255
0.368410 0.240842 0.180445 0 200 255
0.337899 0.247013 0.172392 0 200 255
0.423522 0.306397 0.248655 0 200 255
0.436006 0.315505 0.208642 0 200 255
0.417240 0.348807 0.218078 0 200 255
0.349449 0.243082 0.183987 0 200 255
0.364374 0.225587 0.193890 0 200 255
0.418524 0.325217 0.211602 0 200 255
0.440561 0.387634 0.183702 0 200 255
0.356695 0.354466 0.156903 0 200 255
0.380895 0.228224 0.171160 0 200 255
0.435594 0.287480 0.207525 0 200 255
0.417631 0.251896 0.213134 0 200 255
0.453002 0.394937 0.161362 0 200 255
0.475783 0.329348 0.227885 0 200 255
0.491259 0.268109 0.234605 0 200 255
0.435842 0.274671 0.247137 0 200 255
0.415780 0.235277 0.217539 0 200 255
0.394731 0.246168 0.174716 0 200 255
0.469040 0.248472 0.204400 0 200 255
0.445639 0.220647 0.219669 0 200 255
0.422574 0.277449 0.239969 0 200 255
0.458022 0.282754 0.206987 0 200 255
0.394154 0.252925 0.209186 0 200 255
0.429953 0.346727 0.161722 0 200 255
0.440266 0.300732 0.247000 0 200 255
0.470099 0.295880 0.245805 0 200 255
0.419265 0.354180 0.204644 0 200 255
0.460211 0.378835 0.181464 0 200 255
0.446804 0.371190 0.193233 0 200 255
0.449548 0.237497 0.235487 0 200 255
0.436968 0.363934 0.173992 0 200 255
0.346408 0.245110 0.160866 0 200 255
0.347082 0.260089 0.168166 0 200 255
0.429700 0.302544 0.206029 0 200 255
0.386220 0.314156 0.230940 0 200 255
0.366617 0.356498 0.200430 0 200 255
0.420547 0.318497 0.224147 0 200 255
0.396930 0.238763 0.192438 0 200 255
0.443229 0.342146 0.196864 0 200 255
0.463671 0.333946 0.237720 0 200 255
0.430388 0.339909 0.185020 0 200 255
0.434093 0.357201 0.153260 0 200 255
0.336868 0.236969 0.183931 0 200 255
0.432864 0.368030 0.205970 0 200 255
0.393295 0.329365 0.230299 0 200 255
0.468089 0.265645 0.204816 0 200 255
0.371645 0.356945 0.180511 0 200 255
0.390735 0.227305 0.206757 0 200 255
0.457818 0.344217 0.222000 0 200 255
0.425757 0.347956 0.134259 0 200 255
0.376807 0.233768 0.188999 0 200 255
0.446858 0.257379 0.211545 0 200 255
0.425850 0.304818 0.233291 0 200 255
0.407891 0.313777 0.234933 0 200 255
0.490231 0.300071 0.232479 0 200 255
0.372369 0.253088 0.175790 0 200 255
0.433603 0.241897 0.208563 0 200 255
0.411704 0.351133 0.152050 0 200 255
0.362195 0.248927 0.202275 0 200 255
0.445312 0.363798 0.149398 0 200 255
0.431518 0.376959 0.182355 0 200 255
0.430004 0.255723 0.219222 0 200 255
0.420358 0.362584 0.179950 0 200 255
0.315050 0.257973 0.178527 0 200 255
0.414436 0.345881 0.172803 0 200 255
0.428764 0.332102 0.233104 0 200 255
0.407036 0.296225 0.218889 0 200 255
0.423072 0.360040 0.142334 0 200 255
0.453113 0.316193 0.247400 0 200 255
0.483345 0.274505 0.217954 0 200 255
0.467279 0.353965 0.218376 0 200 255
0.445584 0.329919 0.216552 0 200 255
0.481604 0.285219 0.243573 0 200 255
0.447460 0.375080 0.161834 0 200 255
0.446357 0.322246 0.236573 0 200 255
0.416316 0.333379 0.194377 0 200 255
0.382711 0.343391 0.201270 0 200 255
0.477190 0.253608 0.217322 0 200 255
0.449541 0.246881 0.244458 0 200 255
0.417009 0.341285 0.145471 0 200 255
0.321755 0.265805 0.160948 0 200 255
0.355722 0.367338 0.174645 0 200 255
0.386348 0.253766 0.198955 0 200 255
0.372211 0.331801 0.218580 0 200 255
0.461470 0.268799 0.239021 0 200 255
0.460175 0.228402 0.201194 0 200 255
0.458177 0.238526 0.225483 0 200 255
0.404740 0.247249 0.182747 0 200 255
0.358020 0.233170 0.179567 0 200 255
0.408464 0.238942 0.198936 0 200 255
0.476667 0.327818 0.213044 0 200 255
0.405923 0.228930 0.184284 0 200 255
0.453785 0.315986 0.222294 0 200 255
0.487576 0.313719 0.217842 0 200 255
0.454647 0.357655 0.229654 0 200 255
0.470966 0.341029 0.230326 0 200 255
0.420679 0.354447 0.166028 0 200 255
0.448986 0.369659 0.218356 0 200 255
0.330291 0.256685 0.170538 0 200 255
0.427867 0.241365 0.231160 0 200 255
0.480848 0.316657 0.242910 0 200 255
0.482389 0.272659 0.241874 0 200 255
0.409189 0.230753 0.208148 0 200 255
0.480977 0.241073 0.236824 0 200 255
0.332892 0.256615 0.189948 0 200 255
0.405314 0.274946 0.237251 0 200 255
0.391481 0.310634 0.220230 0 200 255
0.451847 0.352553 0.202180 0 200 255
0.419888 0.348975 0.184863 0 200 255
0.439801 0.334389 0.205712 0 200 255
0.387227 0.225868 0.182338 0 200 255
0.440743 0.255334 0.245006 0 200 255
0.465974 0.311378 0.213724 0 200 255
0.494157 0.289797 0.219618 0 200 255
0.470633 0.250007 0.240210 0 200 255
0.429265 0.364445 0.162786 0 200 255
0.482646 0.256378 0.232072 0 200 255
0.462070 0.369553 0.208857 0 200 255
0.360410 0.240911 0.190742 0 200 255
0.413809 0.300421 0.245081 0 200 255
0.347402 0.252328 0.194051 0 200 255
0.400795 0.296496 0.242134 0 200 255
0.428113 0.318855 0.249100 0 200 255
0.401619 0.277593 0.222372 0 200 255
0.369002 0.348044 0.210299 0 200 255
0.403556 0.307398 0.221883 0 200 255
0.461579 0.223891 0.240616 0 200 255
0.356319 0.352342 0.195773 0 200 255
0.433492 0.320532 0.232949 0 200 255
0.386856 0.336117 0.223059 0 200 255
0.442985 0.228428 0.231738 0 200 255
0.437560 0.264910 0.206137 0 200 255
0.360010 0.355667 0.177763 0 200 255
0.445089 0.245687 0.212811 0 200 255
0.462010 0.242370 0.197312 0 200 255
0.443511 0.326092 0.248754 0 200 255
0.433120 0.357187 0.185466 0 200 255
0.453843 0.302253 0.206449 0 200 255
0.482835 0.270023 0.203051 0 200 255
0.438884 0.339279 0.219570 0 200 255
0.366836 0.341481 0.182414 0 200 255
0.493209 0.273369 0.223788 0 200 255
0.483731 0.304808 0.209909 0 200 255
0.389050 0.323341 0.221474 0 200 255
0.441458 0.365079 0.184922 0 200 255
0.362120 0.365109 0.155778 0 200 255
0.422806 0.357268 0.193054 0 200 255
0.429160 0.328756 0.209176 0 200 255
0.456055 0.360774 0.194252 0 200 255
0.452456 0.269210 0.246330 0 200 255
0.366943 0.336731 0.209201 0 200 255
0.345565 0.232690 0.189919 0 200 255
0.463080 0.343552 0.209360 0 200 255
0.446271 0.291256 0.208045 0 200 255
0.348393 0.253021 0.178643 0 200 255
0.419535 0.254022 0.237198 0 200 255
0.372057 0.236936 0.170498 0 200 255
0.439392 0.374785 0.170541 0 200 255
0.423709 0.268974 0.210650 0 200 255
0.397760 0.290477 0.221375 0 200 255
0.397600 0.318809 0.234680 0 200 255
0.459593 0.280240 0.240714 0 200 255
0.406837 0.298258 0.206274 0 200 255
0.410666 0.358152 0.160658 0 200 255
0.453575 0.329440 0.232054 0 200 255
0.428741 0.368208 0.147488 0 200 255
0.423362 0.244139 0.218696 0 200 255
0.411577 0.315262 0.247325 0 200 255
0.365871 0.353431 0.163075 0 200 255
0.419724 0.249399 0.202530 0 200 255
0.378530 0.226415 0.204110 0 200 255
0.417159 0.258593 0.221909 0 200 255
0.371332 0.343032 0.197912 0 200 255
0.492745 0.268304 0.214005 0 200 255
0.382218 0.337543 0.191790 0 200 255
0.359104 0.247583 0.180706 0 200 255
0.394454 0.324905 0.205425 0 200 255
0.453585 0.385806 0.204035 0 200 255
0.441237 0.355452 0.211064 0 200 255
0.384852 0.252982 0.174563 0 200 255
0.463997 0.319889 0.221423 0 200 255
0.435148 0.354015 0.167905 0 200 255
0.449217 0.383610 0.177486 0 200 255
0.457383 0.384942 0.155765 0 200 255
0.479494 0.234775 0.207444 0 200 255
0.424713 0.313869 0.212259 0 200 255
0.383008 0.322498 0.200941 0 200 255
0.459795 0.241370 0.207904 0 200 255
0.329917 0.245989 0.164178 0 200 255
0.435388 0.308837 0.224805 0 200 255
0.337148 0.254729 0.180288 0 200 255
0.417577 0.300911 0.205252 0 200 255
0.396287 0.308853 0.238353 0 200 255
0.440276 0.370722 0.142835 0 200 255
0.470261 0.243788 0.219398 0 200 255
0.412421 0.344147 0.193726 0 200 255
0.442322 0.391061 0.158169 0 200 255
0.423390 0.340288 0.219599 0 200 255
0.404360 0.315488 0.214563 0 200 255
0.428847 0.358641 0.203227 0 200 255
0.346873 0.361534 0.161669 0 200 255
0.441526 0.252905 0.203595 0 200 255
0.448393 0.374473 0.205460 0 200 255
0.348745 0.243171 0.173478 0 200 255
0.468576 0.264782 0.245636 0 200 255
0.424169 0.341272 0.175856 0 200 255
0.468609 0.324706 0.237134 0 200 255
0.338226 0.262507 0.163121 0 200 255
0.415354 0.309551 0.225787 0 200 255
0.436229 0.374169 0.195158 0 200 255
0.454355 0.358317 0.218658 0 200 255
0.395479 0.227570 0.188523 0 200 255
0.490171 0.296003 0.208853 0 200 255
0.362710 0.340824 0.192468 0 200 255
0.410327 0.353043 0.181577 0 200 255
0.461513 0.274021 0.202576 0 200 255
0.429074 0.267545 0.238791 0 200 255
0.407760 0.249178 0.214469 0 200 255
0.463592 0.320314 0.209114 0 200 255
0.412876 0.339310 0.216615 0 200 255
0.458196 0.342106 0.234654 0 200 255
0.367503 0.246234 0.168814 0 200 255
0.358366 0.370711 0.165292 0 200 255
0.445914 0.388952 0.192373 0 200 255
0.433641 0.245191 0.222606 0 200 255
0.357338 0.349450 0.167730 0 200 255
0.388701 0.237470 0.173471 0 200 255
0.453555 0.230015 0.242291 0 200 255
0.374180 0.223971 0.191518 0 200 255
0.436466 0.354460 0.223771 0 200 255
0.369083 0.357963 0.190652 0 200 255
0.321482 0.254983 0.186747 0 200 255
0.411420 0.282394 0.207802 0 200 255
0.486569 0.286876 0.205806 0 200 255
0.468083 0.304101 0.206230 0 200 255
0.445982 0.275221 0.240454 0 200 255
0.461987 0.321042 0.247843 0 200 255
0.418897 0.325640 0.231086 0 200 255
0.402808 0.237872 0.177982 0 200 255
0.410366 0.258495 0.230206 0 200 255
0.419793 0.288835 0.241911 0 200 255
0.332239 0.268395 0.179099 0 200 255
0.396929 0.240513 0.204648 0 200 255
0.448981 0.309661 0.213449 0 200 255
0.486571 0.243910 0.222612 0 200 255
0.438295 0.260608 0.216504 0 200 255
0.439609 0.365499 0.198776 0 200 255
0.477493 0.242819 0.201616 0 200 255
0.441671 0.331556 0.227278 0 200 255
0.452191 0.336069 0.223222 0 200 255
0.366878 0.233610 0.188447 0 200 255
0.458281 0.385766 0.173139 0 200 255
0.369197 0.254286 0.196889 0 200 255
0.338272 0.240615 0.164369 0 200 255
0.351162 0.355633 0.182275 0 200 255
0.363111 0.234193 0.199234 0 200 255
0.455598 0.372752 0.173595 0 200 255
0.352609 0.237687 0.163088 0 200 255
0.429156 0.263992 0.200234 0 200 255
0.378959 0.323237 0.213691 0 200 255
0.387970 0.233803 0.199846 0 200 255
0.426012 0.349847 0.210405 0 200 255
0.424303 0.340315 0.155325 0 200 255
0.441342 0.319441 0.215908 0 200 255
0.439806 0.230288 0.222248 0 200 255
0.435689 0.264175 0.245546 0 200 255
0.489391 0.291052 0.240567 0 200 255
0.441966 0.348712 0.229870 0 200 255
0.377070 0.233331 0.178626 0 200 255
0.461530 0.310218 0.247148 0 200 255
0.387320 0.338163 0.208147 0 200 255
0.405203 0.303337 0.236695 0 200 255
0.467817 0.283563 0.207123 0 200 255
0.466538 0.231871 0.244629 0 200 255
0.426241 0.289924 0.208819 0 200 255
0.330447 0.243022 0.188070 0 200 255
0.411547 0.348419 0.203157 0 200 255
0.433332 0.347674 0.216455 0 200 255
0.451935 0.348226 0.230182 0 200 255
0.478723 0.323457 0.236293 0 200 255
0.387013 0.233168 0.188739 0 200 255
0.445286 0.380065 0.188519 0 200 255
0.482547 0.326365 0.220614 0 200 255
0.399555 0.230751 0.209046 0 200 255
0.372074 0.244105 0.203564 0 200 255
0.402203 0.294921 0.229928 0 200 255
0.468550 0.294208 0.204763 0 200 255
0.411768 0.349104 0.163783 0 200 255
0.460305 0.293751 0.248373 0 200 255
0.426869 0.364882 0.173003 0 200 255
0.378809 0.328696 0.193459 0 200 255
0.341192 0.247900 0.186104 0 200 255
0.442174 0.282728 0.248583 0 200 255
0.438199 0.320813 0.241733 0 200 255
0.446974 0.392575 0.170682 0 200 255
0.413097 0.279036 0.244241 0 200 255
0.420022 0.277468 0.207195 0 200 255
0.419339 0.327122 0.200867 0 200 255
0.371380 0.355586 0.170505 0 200 255
0.364711 0.363908 0.177603 0 200 255
0.375549 0.349888 0.202935 0 200 255
0.456135 0.323478 0.239450 0 200 255
0.436199 0.237125 0.229771 0 200 255
0.331283 0.241338 0.177683 0 200 255
0.440674 0.355859 0.146627 0 200 255
0.425067 0.297191 0.243159 0 200 255
0.466075 0.347569 0.225157 0 200 255
0.416954 0.306048 0.236073 0 200 255
0.434742 0.340640 0.200580 0 200 255
0.458003 0.377297 0.191100 0 200 255
0.436883 0.346496 0.189588 0 200 255
0.399875 0.248213 0.196765 0 200 255
0.324948 0.257260 0.158518 0 200 255
0.346532 0.243015 0.194364 0 200 255
0.420025 0.349096 0.158205 0 200 255
0.361187 0.225263 0.185105 0 200 255
0.424857 0.370427 0.182844 0 200 255
0.356133 0.248140 0.194830 0 200 255
0.430821 0.336238 0.224351 0 200 255
0.463002 0.336207 0.225994 0 200 255
0.451525 0.351316 0.211796 0 200 255
0.456873 0.387855 0.184267 0 200 255
0.487052 0.312413 0.237350 0 200 255
0.459273 0.379286 0.200688 0 200 255
0.423891 0.333114 0.189038 0 200 255
0.427440 0.355548 0.159500 0 200 255
0.376660 0.224135 0.179864 0 200 255
0.417659 0.344177 0.136632 0 200 255
0.319403 0.262138 0.171190 0 200 255
0.414081 0.262091 0.212823 0 200 255
0.383091 0.249614 0.206487 0 200 255
0.461505 0.252679 0.201228 0 200 255
0.414497 0.303596 0.218840 0 200 255
0.395598 0.318190 0.215132 0 200 255
0.466034 0.244072 0.227741 0 200 255
0.319309 0.268784 0.178975 0 200 255
0.368214 0.228714 0.169191 0 200 255
0.461924 0.324605 0.230688 0 200 255
0.394080 0.225488 0.198432 0 200 255
0.343148 0.254218 0.162351 0 200 255
0.415200 0.358375 0.147690 0 200 255
0.482492 0.266051 0.214579 0 200 255
0.472501 0.322741 0.248047 0 200 255
0.441232 0.318817 0.228465 0 200 255
0.463266 0.358715 0.226911 0 200 255
0.442661 0.333555 0.236614 0 200 255
0.441445 0.225865 0.213523 0 200 255
0.393074 0.236221 0.212370 0 200 255
0.420082 0.343077 0.211230 0 200 255
0.428877 0.352080 0.141959 0 200 255
0.369852 0.249849 0.185109 0 200 255
0.447549 0.343907 0.219090 0 200 255
0.313660 0.263303 0.164023 0 200 255
0.471084 0.272099 0.241122 0 200 255
0.448054 0.231862 0.210270 0 200 255
0.461714 0.249921 0.244888 0 200 255
0.418895 0.327044 0.220919 0 200 255
0.430278 0.320181 0.215249 0 200 255
0.397495 0.326954 0.220804 0 200 255
0.432007 0.372892 0.161887 0 200 255
0.424419 0.238083 0.212251 0 200 255
0.368901 0.334573 0.199240 0 200 255
0.441144 0.365972 0.166409 0 200 255
0.325820 0.248223 0.171708 0 200 255
0.485720 0.307104 0.223426 0 200 255
0.479051 0.333801 0.234912 0 200 255
0.421245 0.355549 0.134599 0 200 255
0.482130 0.295317 0.243295 0 200 255
0.341651 0.257712 0.189939 0 200 255
0.412273 0.313415 0.218384 0 200 255
0.487894 0.275755 0.231767 0 200 255
0.369747 0.226728 0.201354 0 200 255
0.465113 0.361457 0.207074 0 200 255
0.359353 0.243815 0.165739 0 200 255
0.400717 0.307522 0.213525 0 200 255
0.447417 0.243066 0.222746 0 200 255
0.493093 0.283185 0.225317 0 200 255
0.338450 0.238310 0.173511 0 200 255
0.447172 0.310177 0.249800 0 200 255
0.470240 0.320062 0.214856 0 200 255
0.423139 0.258727 0.212904 0 200 255
0.415924 0.343764 0.225134 0 200 255
0.438093 0.363545 0.212266 0 200 255
0.436913 0.332673 0.213799 0 200 255
0.344661 0.233247 0.181228 0 200 255
0.426358 0.354912 0.149881 0 200 255
0.433645 0.249719 0.212468 0 200 255
0.444225 0.381613 0.156601 0 200 255
0.432840 0.304828 0.249104 0 200 255
0.424660 0.246821 0.210486 0 200 255
0.421240 0.345778 0.167349 0 200 255
0.369907 0.340756 0.216340 0 200 255
0.412532 0.344624 0.181230 0 200 255
0.444574 0.366789 0.158445 0 200 255
0.418540 0.349952 0.195878 0 200 255
0.323828 0.254981 0.177838 0 200 255
0.442082 0.238157 0.209632 0 200 255
0.342133 0.264876 0.174254 0 200 255
0.411698 0.267654 0.231563 0 200 255
0.377805 0.238802 0.208674 0 200 255
0.405083 0.275582 0.211974 0 200 255
0.457259 0.339578 0.214734 0 200 255
0.382369 0.330449 0.218337 0 200 255
0.374611 0.343684 0.185436 0 200 255
0.414216 0.243889 0.216630 0 200 255
0.367766 0.349478 0.189892 0 200 255
0.464286 0.361986 0.196486 0 200 255
0.380521 0.320537 0.222211 0 200 255
0.471374 0.333575 0.221305 0 200 255
0.453508 0.369659 0.210417 0 200 255
0.447959 0.263502 0.201106 0 200 255
0.478323 0.251907 0.208991 0 200 255
0.454082 0.239338 0.198499 0 200 255
0.475691 0.303727 0.247483 0 200 255
0.473891 0.241366 0.241633 0 200 255
0.389915 0.253006 0.181460 0 200 255
0.477939 0.285787 0.207441 0 200 255
0.438864 0.372612 0.181838 0 200 255
0.438700 0.353934 0.160149 0 200 255
0.479787 0.232496 0.232113 0 200 255
0.436125 0.360772 0.192585 0 200 255
0.423465 0.332392 0.216126 0 200 255
0.453273 0.371585 0.186928 0 200 255
0.440958 0.384496 0.175684 0 200 255
0.394813 0.244746 0.212462 0 200 255
0.454543 0.238643 0.213994 0 200 255
0.329795 0.263357 0.162134 0 200 255
0.450189 0.252931 0.205138 0 200 255
0.443443 0.270956 0.247605 0 200 255
0.457829 0.313698 0.213997 0 200 255
0.443125 0.311903 0.223285 0 200 255
0.460911 0.270870 0.247203 0 200 255
0.407629 0.315294 0.225877 0 200 255
0.401123 0.292827 0.209972 0 200 255
0.353265 0.363008 0.152620 0 200 255
0.447568 0.376696 0.170583 0 200 255
0.377494 0.336612 0.222980 0 200 255
0.385497 0.249539 0.190617 0 200 255
0.481506 0.250451 0.223850 0 200 255
0.350647 0.252223 0.170536 0 200 255
0.396319 0.233504 0.200050 0 200 255
0.427391 0.350625 0.188089 0 200 255
0.416792 0.270248 0.202354 0 200 255
0.373988 0.341809 0.207980 0 200 255
0.455371 0.393215 0.169323 0 200 255
0.457865 0.372381 0.217395 0 200 255
0.469658 0.227155 0.238543 0 200 255
0.432839 0.294932 0.204930 0 200 255
0.339422 0.256519 0.169405 0 200 255
0.453240 0.274539 0.202954 0 200 255
0.417059 0.360794 0.188222 0 200 255
0.456626 0.345997 0.204543 0 200 255
0.427043 0.368355 0.155590 0 200 255
0.412508 0.346412 0.211426 0 200 255
0.444581 0.364355 0.177216 0 200 255
0.351011 0.364831 0.168034 0 200 255
0.339277 0.237029 0.193099 0 200 255
0.323054 0.271417 0.171717 0 200 255
0.391200 0.320776 0.229833 0 200 255
0.440862 0.354829 0.183803 0 200 255
0.407715 0.268482 0.216501 0 200 255
0.458617 0.352519 0.224047 0 200 255
0.445572 0.357858 0.197916 0 200 255
0.353993 0.236696 0.186505 0 200 255
0.333193 0.263976 0.185967 0 200 255
0.447634 0.361438 0.214743 0 200 255
0.450255 0.393034 0.153852 0 200 255
0.431762 0.364569 0.182160 0 200 255
0.452540 0.327404 0.223972 0 200 255
0.430455 0.281213 0.247254 0 200 255
0.428022 0.247256 0.236812 0 200 255
0.453502 0.369178 0.197437 0 200 255
0.358008 0.355539 0.188136 0 200 255
0.440706 0.340778 0.228561 0 200 255
0.483318 0.325051 0.228648 0 200 255
0.422047 0.357020 0.173745 0 200 255
0.360203 0.346989 0.175917 0 200 255
0.424360 0.345879 0.225371 0 200 255
0.378300 0.234040 0.196943 0 200 255
0.423994 0.238335 0.224286 0 200 255
0.463697 0.301802 0.248729 0 200 255
0.445722 0.391370 0.178746 0 200 255
0.452724 0.291058 0.248897 0 200 255
0.442326 0.357200 0.169684 0 200 255
0.401957 0.286633 0.239460 0 200 255
0.437256 0.256440 0.209448 0 200 255
0.492042 0.294613 0.226858 0 200 255
0.415811 0.332606 0.210074 0 200 255
0.417272 0.243687 0.209221 0 200 255
0.475381 0.267348 0.201808 0 200 255
0.470945 0.333140 0.233022 0 200 255
0.426713 0.312462 0.244492 0 200 255
0.476115 0.302364 0.210118 0 200 255
0.358285 0.241984 0.175049 0 200 255
0.432027 0.347443 0.203780 0 200 255
0.418640 0.271337 0.243288 0 200 255
0.407887 0.302764 0.214384 0 200 255
0.448572 0.256323 0.246209 0 200 255
0.459186 0.353733 0.199309 0 200 255
0.403618 0.239022 0.185821 0 200 255
0.448210 0.348091 0.195109 0 200 255
0.425014 0.357836 0.184294 0 200 255
0.449959 0.323019 0.244854 0 200 255
0.425458 0.329552 0.226354 0 200 255
0.388809 0.228144 0.173952 0 200 255
0.463721 0.329906 0.248874 0 200 255
0.426062 0.342092 0.140694 0 200 255
0.489273 0.274109 0.205108 0 200 255
0.331524 0.249544 0.183030 0 200 255
0.342648 0.243079 0.179981 0 200 255
0.460344 0.304864 0.212867 0 200 255
0.453984 0.296433 0.211761 0 200 255
0.413956 0.246232 0.184752 0 200 255
0.474117 0.284998 0.241104 0 200 255
0.365913 0.351653 0.181558 0 200 255
0.414778 0.357097 0.198167 0 200 255
0.432506 0.277011 0.206167 0 200 255
0.447765 0.303725 0.245357 0 200 255
0.427421 0.365589 0.199859 0 200 255
0.447709 0.380918 0.209890 0 200 255
0.470046 0.346800 0.212000 0 200 255
0.431671 0.359650 0.145709 0 200 255
0.417127 0.314143 0.233146 0 200 255
0.412810 0.294438 0.235573 0 200 255
0.449136 0.336856 0.215885 0 200 255
0.463811 0.286788 0.245915 0 200 255
0.467363 0.257064 0.245311 0 200 255
0.485012 0.264365 0.237453 0 200 255
0.414435 0.250883 0.220198 0 200 255
0.469513 0.252190 0.217386 0 200 255
0.440265 0.238620 0.219396 0 200 255
0.363979 0.241332 0.202292 0 200 255
0.465534 0.326912 0.216240 0 200 255
0.439874 0.372365 0.161207 0 200 255
0.456206 0.309997 0.207336 0 200 255
0.361122 0.358410 0.194901 0 200 255
0.441678 0.358039 0.218424 0 200 255
0.453550 0.245665 0.210795 0 200 255
0.366772 0.348343 0.202552 0 200 255
0.411884 0.245039 0.202331 0 200 255
0.402004 0.233135 0.190726 0 200 255
0.471244 0.255869 0.203567 0 200 255
0.392974 0.309741 0.231396 0 200 255
0.432301 0.370387 0.174692 0 200 255
0.398937 0.326157 0.212342 0 200 255
0.420013 0.308657 0.215507 0 200 255
0.488970 0.277811 0.239140 0 200 255
0.468235 0.236915 0.238839 0 200 255
0.437314 0.328902 0.233573 0 200 255
0.409193 0.236431 0.213366 0 200 255
0.451583 0.364448 0.223408 0 200 255
0.386274 0.316134 0.218830 0 200 255
0.437099 0.358657 0.205417 0 200 255
0.352301 0.249332 0.187454 0 200 255
0.399741 0.246103 0.189366 0 200 255
0.401801 0.252197 0.208951 0 200 255
0.456582 0.266835 0.204933 0 200 255
0.351370 0.361207 0.176194 0 200 255
0.355505 0.232381 0.170263 0 200 255
0.406445 0.287787 0.205618 0 200 255
0.429095 0.349495 0.169122 0 200 255
0.423262 0.252295 0.220345 0 200 255
0.429869 0.342864 0.195128 0 200 255
0.410101 0.310069 0.241234 0 200 255
0.380229 0.225152 0.187008 0 200 255
0.311315 0.263482 0.171535 0 200 255
0.424986 0.349759 0.201952 0 200 255
0.432195 0.335029 0.205747 0 200 255
0.464775 0.361335 0.214685 0 200 255
0.358095 0.229513 0.195678 0 200 255
0.451124 0.379584 0.193427 0 200 255
0.489237 0.299812 0.240023 0 200 255
0.391490 0.232964 0.182594 0 200 255
0.487948 0.309119 0.230556 0 200 255
0.478951 0.254020 0.239095 0 200 255
0.399204 0.232167 0.182298 0 200 255
0.398239 0.302103 0.220908 0 200 255
0.481457 0.247903 0.231467 0 200 255
0.399272 0.324131 0.229588 0 200 255
0.363199 0.352966 0.170940 0 200 255
0.434024 0.372341 0.188181 0 200 255
0.481208 0.241776 0.217758 0 200 255
0.409449 0.259648 0.220354 0 200 255
0.384146 0.337646 0.216190 0 200 255
0.453616 0.380788 0.160797 0 200 255
0.449320 0.249548 0.219426 0 200 255
0.339004 0.248229 0.164228 0 200 255
0.353661 0.351505 0.176509 0 200 255
0.451273 0.392844 0.184549 0 200 255
0.458100 0.386727 0.163017 0 200 255
0.446782 0.336039 0.208667 0 200 255
0.427371 0.241619 0.204401 0 200 255
0.433531 0.356998 0.177689 0 200 255
0.418887 0.312247 0.248128 0 200 255
0.387045 0.338639 0.197399 0 200 255
0.421944 0.260725 0.239472 0 200 255
0.439980 0.347318 0.219857 0 200 255
0.436796 0.293779 0.211365 0 200 255
0.480477 0.318169 0.214645 0 200 255
0.444977 0.357524 0.155171 0 200 255
0.429561 0.358691 0.169511 0 200 255
0.460692 0.236665 0.201902 0 200 255
0.362601 0.360494 0.161592 0 200 255
0.449313 0.344211 0.201358 0 200 255
0.443905 0.363113 0.192929 0 200 255
0.452596 0.228350 0.198679 0 200 255
0.424666 0.348612 0.217832 0 200 255
0.417356 0.361044 0.162077 0 200 255
0.439055 0.272757 0.239417 0 200 255
0.430033 0.348159 0.153765 0 200 255
0.451265 0.286981 0.204609 0 200 255
0.452085 0.381761 0.184066 0 200 255
0.448342 0.313190 0.228376 0 200 255
0.383008 0.233547 0.208636 0 200 255
0.376731 0.336034 0.212300 0 200 255
0.344676 0.237266 0.165862 0 200 255
0.408824 0.307488 0.231191 0 200 255
0.445948 0.372783 0.212403 0 200 255
0.401467 0.241272 0.198639 0 200 255
0.385911 0.329264 0.231326 0 200 255
0.369773 0.233564 0.177754 0 200 255
0.468055 0.272980 0.205760 0 200 255
0.413187 0.250011 0.207580 0 200 255
0.433190 0.368205 0.141649 0 200 255
0.325854 0.249347 0.188471 0 200 255
0.351941 0.244644 0.165662 0 200 255
0.457738 0.365446 0.214680 0 200 255
0.362528 0.230686 0.174341 0 200 255
0.440554 0.283701 0.203669 0 200 255
0.375666 0.351415 0.184827 0 200 255
0.330131 0.258491 0.179092 0 200 255
0.430798 0.328642 0.216309 0 200 255
0.318106 0.262511 0.183390 0 200 255
0.418596 0.352116 0.211693 0 200 255
0.420271 0.344791 0.151172 0 200 255
0.477221 0.311152 0.246082 0 200 255
0.378234 0.254295 0.198870 0 200 255
0.417526 0.355940 0.182773 0 200 255
0.392668 0.333297 0.203648 0 200 255
0.462426 0.240905 0.219195 0 200 255
0.447771 0.387440 0.199927 0 200 255
0.361207 0.346972 0.196476 0 200 255
0.484113 0.280192 0.204226 0 200 255
0.417019 0.360704 0.169853 0 200 255
0.449540 0.357292 0.207915 0 200 255
0.458229 0.367266 0.191752 0 200 255
0.425966 0.309076 0.206922 0 200 255
0.465326 0.259458 0.201342 0 200 255
0.452488 0.265314 0.240195 0 200 255
0.458003 0.350221 0.234372 0 200 255
0.439644 0.368857 0.191184 0 200 255
0.442212 0.380010 0.181948 0 200 255
0.414586 0.234887 0.200540 0 200 255
0.478480 0.334543 0.222358 0 200 255
0.484269 0.256563 0.221103 0 200 255
0.352118 0.355230 0.162469 0 200 255
0.448138 0.389330 0.162124 0 200 255
0.441111 0.382435 0.194529 0 200 255
0.351925 0.237631 0.179631 0 200 255
0.380903 0.344565 0.190367 0 200 255
0.469776 0.329634 0.242302 0 200 255
0.393040 0.252976 0.196321 0 200 255
0.404260 0.319217 0.231384 0 200 255
0.425422 0.346805 0.180757 0 200 255
0.430106 0.241232 0.215390 0 200 255
0.373843 0.225914 0.172729 0 200 255
0.423010 0.283230 0.245069 0 200 255
0.440821 0.239500 0.234741 0 200 255
0.366363 0.361314 0.184151 0 200 255
0.413958 0.349552 0.144698 0 200 255
0.412138 0.359787 0.179911 0 200 255
0.456156 0.276622 0.246443 0 200 255
0.380190 0.253444 0.180695 0 200 255
0.442362 0.372147 0.149538 0 200 255
0.490733 0.261293 0.228662 0 200 255
0.452621 0.379456 0.153837 0 200 255
0.325242 0.251380 0.164054 0 200 255
0.414021 0.258911 0.236307 0 200 255
0.457727 0.336070 0.230903 0 200 255
0.445124 0.232689 0.226457 0 200 255
0.419286 0.282949 0.202727 0 200 255
0.410392 0.351490 0.174449 0 200 255
0.314546 0.256669 0.171565 0 200 255
0.416807 0.332710 0.231961 0 200 255
0.446240 0.371606 0.185981 0 200 255
0.372322 0.354138 0.196938 0 200 255
0.402279 0.309505 0.234253 0 200 255
0.396714 0.252283 0.179610 0 200 255
0.346965 0.253947 0.186817 0 200 255
0.468863 0.313447 0.207600 0 200 255
0.474706 0.310749 0.213671 0 200 255
0.476373 0.268172 0.243711 0 200 255
0.446319 0.288407 0.247468 0 200 255
0.444618 0.376638 0.197185 0 200 255
0.449411 0.380338 0.201645 0 200 255
0.395269 0.237721 0.176131 0 200 255
0.457517 0.245873 0.202976 0 200 255
0.362855 0.246110 0.195468 0 200 255
0.382742 0.320718 0.230289 0 200 255
0.356096 0.363187 0.181216 0 200 255
0.403721 0.321430 0.218415 0 200 255
0.422763 0.254729 0.205974 0 200 255
0.459816 0.375923 0.206901 0 200 255
0.382838 0.236234 0.169786 0 200 255
0.428260 0.360566 0.190092 0 200 255
0.439742 0.244460 0.206337 0 200 255
0.398641 0.303158 0.241854 0 200 255
0.413826 0.341192 0.187196 0 200 255
0.442544 0.306455 0.207379 0 200 255
0.415176 0.293384 0.245785 0 200 255
0.453273 0.237837 0.241379 0 200 255
0.487918 0.300736 0.225932 0 200 255
0.466270 0.340381 0.237025 0 200 255
0.382214 0.342852 0.208903 0 200 255
0.375706 0.326819 0.221982 0 200 255
0.387823 0.244189 0.171832 0 200 255
0.447755 0.314110 0.208233 0 200 255
0.374392 0.246624 0.167990 0 200 255
0.345825 0.248408 0.167301 0 200 255
0.453496 0.345360 0.215820 0 200 255
0.436580 0.322312 0.248312 0 200 255
0.430633 0.371727 0.199772 0 200 255
0.386260 0.225434 0.201817 0 200 255
0.363906 0.252155 0.174033 0 200 255
0.434382 0.364751 0.167435 0 200 255
0.418115 0.354905 0.154789 0 200 255
0.431357 0.335618 0.191037 0 200 255
0.492456 0.294041 0.235021 0 200 255
0.397920 0.299591 0.235735 0 200 255
0.390157 0.329851 0.223459 0 200 255
0.412769 0.299652 0.210029 0 200 255
0.333015 0.242764 0.170036 0 200 255
0.433958 0.353748 0.209601 0 200 255
0.428951 0.248733 0.205076 0 200 255
0.453997 0.379132 0.170418 0 200 255
0.437628 0.287877 0.248679 0 200 255
0.442856 0.364277 0.143005 0 200 255
0.439683 0.366476 0.206269 0 200 255
0.362643 0.238987 0.184549 0 200 255
0.448293 0.275900 0.246871 0 200 255
0.424028 0.360549 0.165921 0 200 255
0.472352 0.289424 0.246210 0 200 255
0.450171 0.357379 0.224472 0 200 255
0.419503 0.349305 0.131851 0 200 255
0.394493 0.311446 0.214153 0 200 255
0.379758 0.323386 0.206881 0 200 255
0.366687 0.357364 0.175108 0 200 255
0.485335 0.240490 0.231624 0 200 255
0.429041 0.362377 0.153016 0 200 255
0.407099 0.299493 0.244412 0 200 255
0.406567 0.305894 0.208490 0 200 255
0.435149 0.371957 0.147132 0 200 255
0.493848 0.268283 0.228319 0 200 255
0.459654 0.347285 0.228256 0 200 255
0.410841 0.231832 0.187969 0 200 255
0.454511 0.374848 0.164138 0 200 255
0.397425 0.252125 0.203293 0 200 255
0.425979 0.370143 0.164448 0 200 255
0.453936 0.307583 0.245707 0 200 255
0.433015 0.342350 0.221123 0 200 255
0.465855 0.347351 0.218044 0 200 255
0.483929 0.254075 0.212106 0 200 255
0.415627 0.332056 0.217752 0 200 255
0.416448 0.357648 0.140482 0 200 255
0.432425 0.259296 0.213411 0 200 255
0.442300 0.310696 0.213561 0 200 255
0.388575 0.246884 0.209343 0 200 255
0.416968 0.339951 0.176065 0 200 255
0.377324 0.224625 0.197707 0 200 255
0.357676 0.242360 0.200085 0 200 255
0.486694 0.276455 0.212420 0 200 255
0.438821 0.360189 0.162691 0 200 255
0.421166 0.318580 0.248655 0 200 255
0.484819 0.235200 0.219606 0 200 255
0.439207 0.279224 0.243463 0 200 255
0.442148 0.245258 0.218867 0 200 255
0.391708 0.232907 0.193573 0 200 255
0.453763 0.227173 0.205353 0 200 255
0.438679 0.331340 0.220158 0 200 255
0.386002 0.232965 0.177720 0 200 255
0.445191 0.264480 0.247024 0 200 255
0.468189 0.322140 0.230761 0 200 255
0.391661 0.233917 0.205900 0 200 255
0.418178 0.345286 0.205170 0 200 255
0.361311 0.367871 0.170946 0 200 255
0.359116 0.354965 0.163159 0 200 255
0.393931 0.225454 0.182137 0 200 255
0.344850 0.234387 0.196380 0 200 255
0.370561 0.331338 0.212088 0 200 255
0.451785 0.365136 0.191464 0 200 255
0.376046 0.338325 0.189308 0 200 255
0.459017 0.317428 0.226218 0 200 255
0.406681 0.297223 0.234399 0 200 255
0.412369 0.358271 0.154096 0 200 255
0.428043 0.254354 0.211625 0 200 255
0.463275 0.367139 0.202390 0 200 255
0.368291 0.341695 0.204483 0 200 255
0.422191 0.293449 0.247886 0 200 255
0.406008 0.227723 0.191344 0 200 255
0.420623 0.305961 0.222952 0 200 255
0.319944 0.269769 0.166049 0 200 255
0.408815 0.296531 0.226062 0 200 255
0.402762 0.301548 0.230407 0 200 255
0.447326 0.364662 0.198434 0 200 255
0.375870 0.347979 0.209611 0 200 255
0.399005 0.288296 0.214939 0 200 255
0.479692 0.279107 0.241781 0 200 255
0.327963 0.255432 0.184584 0 200 255
0.437327 0.310642 0.244976 0 200 255
0.453233 0.325801 0.217558 0 200 255
0.364414 0.232422 0.181514 0 200 255
0.436904 0.255444 0.220438 0 200 255
0.399629 0.283806 0.221141 0 200 255
0.411223 0.293474 0.204896 0 200 255
0.466055 0.274391 0.244938 0 200 255
0.431026 0.362193 0.208524 0 200 255
0.428881 0.357025 0.196803 0 200 255
0.377843 0.245588 0.206824 0 200 255
0.369852 0.250288 0.202278 0 200 255
0.407185 0.281718 0.242970 0 200 255
0.483476 0.239874 0.205486 0 200 255
0.433862 0.362895 0.201506 0 200 255
0.314350 0.264442 0.177367 0 200 255
0.453049 0.240487 0.220453 0 200 255
0.467828 0.353661 0.209639 0 200 255
0.435097 0.335518 0.229313 0 200 255
0.370619 0.225558 0.184050 0 200 255
0.323641 0.255955 0.171329 0 200 255
0.467904 0.231569 0.198856 0 200 255
0.483364 0.310722 0.213768 0 200 255
0.427759 0.374093 0.189137 0 200 255
0.441045 0.324225 0.224745 0 200 255
0.449342 0.343625 0.226282 0 200 255
0.438283 0.244606 0.212734 0 200 255
0.466350 0.245099 0.239431 0 200 255
0.352826 0.247796 0.178822 0 200 255
0.366198 0.239876 0.170686 0 200 255
0.320601 0.260670 0.164913 0 200 255
0.469235 0.251568 0.210170 0 200 255
0.410604 0.277091 0.204046 0 200 255
0.473485 0.291582 0.208173 0 200 255
0.362739 0.347696 0.207866 0 200 255
0.325729 0.269954 0.178486 0 200 255
0.426713 0.374328 0.177931 0 200 255
0.443411 0.379324 0.166033 0 200 255
0.362740 0.254068 0.197791 0 200 255
0.369753 0.252337 0.169271 0 200 255
0.362909 0.344290 0.186954 0 200 255
0.333364 0.250470 0.167413 0 200 255
0.454224 0.376736 0.179990 0 200 255
0.445562 0.248504 0.206332 0 200 255
0.403984 0.271091 0.226270 0 200 255
0.434059 0.238631 0.202949 0 200 255
0.415788 0.333646 0.202979 0 200 255
0.400616 0.296799 0.217983 0 200 255
0.472187 0.339729 0.224073 0 200 255
0.414813 0.233971 0.207620 0 200 255
0.413502 0.345515 0.155876 0 200 255
0.429187 0.328931 0.202681 0 200 255
0.447909 0.226140 0.214111 0 200 255
0.447538 0.225325 0.223752 0 200 255
0.413489 0.266316 0.225473 0 200 255
0.433612 0.372589 0.168596 0 200 255
0.449646 0.227044 0.238068 0 200 255
0.332805 0.253267 0.175717 0 200 255
0.444583 0.314884 0.245475 0 200 255
0.415001 0.342990 0.167043 0 200 255
0.489570 0.305539 0.235856 0 200 255
0.494341 0.275635 0.232141 0 200 255
0.411435 0.354984 0.166421 0 200 255
0.455786 0.247915 0.243250 0 200 255
0.409768 0.234526 0.181980 0 200 255
0.429281 0.301939 0.244251 0 200 255
0.422822 0.354103 0.179506 0 200 255
0.337831 0.266367 0.168259 0 200 255
0.438870 0.370566 0.175364 0 200 255
0.351564 0.369854 0.164069 0 200 255
0.385513 0.316894 0.225163 0 200 255
0.383734 0.225024 0.177014 0 200 255
