ply
format ascii 1.0
element vertex 1024
property float x
property float y
property float z
property uchar red
property uchar green
property uchar blue
end_header
0.630480 0.008253 0.032622 255 220 0
0.583512 -0.056289 0.044227 255 220 0
0.626693 0.001911 0.031715 255 220 0
0.571692 0.049207 0.054415 255 220 0
0.643224 0.078197 0.079166 255 220 0
0.607108 -0.025322 0.080679 255 220 0
0.570282 0.042943 0.060753 255 220 0
0.600821 0.066206 0.095768 255 220 0
0.617022 0.095942 0.074586 255 220 0
0.621770 -0.013433 0.076088 255 220 0
0.592672 -0.048502 0.037619 255 220 0
0.565715 0.000743 0.074734 255 220 0
0.603851 0.090590 0.048018 255 220 0
0.625763 0.075845 0.030480 255 220 0
0.566072 0.031315 0.055658 255 220 0
0.607628 0.066604 0.020231 255 220 0
0.621886 -0.020567 0.062550 255 220 0
0.575609 -0.030211 0.079860 255 220 0
0.587708 -0.034468 0.018020 255 220 0
0.589518 -0.019827 0.013984 255 220 0
0.568132 0.038182 0.044800 255 220 0
0.632993 0.090314 0.049426 255 220 0
0.628982 0.005489 0.085353 255 220 0
0.634955 -0.000654 0.064594 255 220 0
0.631383 -0.005675 0.047945 255 220 0
0.561706 0.017573 0.042674 255 220 0
0.610439 0.023070 0.013354 255 220 0
0.560828 -0.047849 0.060029 255 220 0
0.568065 0.037224 0.057719 255 220 0
0.580960 -0.009147 0.089982 255 220 0
0.583882 -0.030519 0.014430 255 220 0
0.597138 0.021001 0.100648 255 220 0
0.576775 0.060577 0.061428 255 220 0
0.569978 0.040249 0.063182 255 220 0
0.649512 0.044215 0.068980 255 220 0
0.644523 0.059688 0.042920 255 220 0
0.623793 0.096094 0.054260 255 220 0
0.595661 0.004645 0.098942 255 220 0
0.544483 -0.055154 0.036323 255 220 0
0.552934 -0.061065 0.024608 255 220 0
0.632153 0.063557 0.029581 255 220 0
0.631163 -0.002263 0.042072 255 220 0
0.590610 0.043339 0.013934 255 220 0
0.643109 0.052172 0.038641 255 220 0
0.582108 0.071621 0.057851 255 220 0
0.634498 0.009802 0.081183 255 220 0
0.579082 0.029545 0.015013 255 220 0
0.592365 0.080103 0.077961 255 220 0
0.612332 0.023196 0.101300 255 220 0
0.602426 0.064533 0.097016 255 220 0
0.638327 0.051149 0.031755 255 220 0
0.605390 -0.039936 0.052822 255 220 0
0.634386 0.079323 0.088363 255 220 0
0.644078 0.077082 0.051358 255 220 0
0.627138 -0.009188 0.071866 255 220 0
0.608880 0.020528 0.013035 255 220 0
0.565334 0.004010 0.073257 255 220 0
0.540240 -0.039554 0.023752 255 220 0
0.549342 -0.045517 0.011191 255 220 0
0.583564 0.032506 0.013352 255 220 0
0.594103 0.033560 0.099177 255 220 0
0.610621 0.050883 0.100942 255 220 0
0.565224 -0.004763 0.015821 255 220 0
0.614452 -0.030616 0.056348 255 220 0
0.645333 0.074982 0.052622 255 220 0
0.615853 0.077466 0.027856 255 220 0
0.579172 -0.043933 0.072891 255 220 0
0.555034 -0.063337 0.031503 255 220 0
0.551072 -0.025178 0.016625 255 220 0
0.637359 0.077792 0.041362 255 220 0
0.544723 -0.037395 0.015622 255 220 0
0.581999 0.042102 0.017995 255 220 0
0.637715 0.067290 0.036260 255 220 0
0.633553 -0.003409 0.062790 255 220 0
0.572537 -0.058401 0.027083 255 220 0
0.642703 0.049951 0.084599 255 220 0
0.614009 -0.021265 0.077480 255 220 0
0.643071 0.030293 0.079383 255 220 0
0.588230 -0.018844 0.090869 255 220 0
0.585465 0.045069 0.090841 255 220 0
0.564813 0.024201 0.035297 255 220 0
0.614135 0.087421 0.036736 255 220 0
0.619574 0.068856 0.024035 255 220 0
0.628436 0.096166 0.057434 255 220 0
0.582556 0.071945 0.053137 255 220 0
0.619367 0.063890 0.098600 255 220 0
0.584795 -0.046672 0.069551 255 220 0
0.559355 -0.052971 0.013542 255 220 0
0.571912 -0.018785 0.010679 255 220 0
0.582010 0.051396 0.023595 255 220 0
0.577700 0.053476 0.075724 255 220 0
0.609448 -0.033952 0.043332 255 220 0
0.589223 -0.016537 0.013105 255 220 0
0.589508 -0.051049 0.037291 255 220 0
0.578627 0.035937 0.017905 255 220 0
0.609049 0.031892 0.012334 255 220 0
0.586398 -0.034624 0.081356 255 220 0
0.598003 -0.028749 0.022484 255 220 0
0.558270 -0.048133 0.057623 255 220 0
0.602129 0.014637 0.100726 255 220 0
0.642017 0.016994 0.071838 255 220 0
0.574547 0.026206 0.017556 255 220 0
0.646065 0.030308 0.047678 255 220 0
0.618153 0.000329 0.092154 255 220 0
0.635946 -0.000114 0.056056 255 220 0
0.579582 0.066406 0.062838 255 220 0
0.587695 -0.050029 0.062028 255 220 0
0.594938 -0.035790 0.024328 255 220 0
0.589882 -0.003950 0.011407 255 220 0
0.554089 -0.029991 0.056616 255 220 0
0.613251 0.072312 0.096815 255 220 0
0.567935 -0.004761 0.014167 255 220 0
0.598546 0.014615 0.100446 255 220 0
0.577238 0.054543 0.034433 255 220 0
0.595523 -0.048290 0.048981 255 220 0
0.566074 0.032528 0.050401 255 220 0
0.571410 0.030699 0.076295 255 220 0
0.587570 -0.007093 0.094156 255 220 0
0.623108 0.074878 0.095233 255 220 0
0.561533 -0.030255 0.010204 255 220 0
0.615157 -0.003967 0.091911 255 220 0
0.605455 0.043861 0.012781 255 220 0
0.646949 0.037283 0.047417 255 220 0
0.641957 0.015767 0.048703 255 220 0
0.639606 0.044466 0.032726 255 220 0
0.585794 -0.006603 0.011052 255 220 0
0.573802 0.042590 0.074435 255 220 0
0.578827 0.045466 0.023208 255 220 0
0.620640 0.053949 0.019296 255 220 0
0.611458 -0.025946 0.074586 255 220 0
0.567807 0.029873 0.065848 255 220 0
0.609977 0.003057 0.017766 255 220 0
0.647493 0.042406 0.048345 255 220 0
0.575505 0.022824 0.084701 255 220 0
0.608007 0.017957 0.013055 255 220 0
0.605181 0.085901 0.037601 255 220 0
0.635990 0.001797 0.066670 255 220 0
0.549333 -0.021575 0.022955 255 220 0
0.625950 0.033218 0.097815 255 220 0
0.648835 0.040182 0.069731 255 220 0
0.600949 -0.023642 0.022066 255 220 0
0.609361 0.070528 0.022615 255 220 0
0.629216 -0.004268 0.040458 255 220 0
0.577840 -0.037016 0.077409 255 220 0
0.633976 0.085750 0.044385 255 220 0
0.637419 0.018984 0.083121 255 220 0
0.543009 -0.053936 0.034570 255 220 0
0.631476 0.089328 0.082676 255 220 0
0.569547 0.015156 0.078168 255 220 0
0.559349 0.000072 0.058412 255 220 0
0.600377 0.030347 0.010485 255 220 0
0.640406 0.008806 0.062175 255 220 0
0.647012 0.076716 0.068221 255 220 0
0.587914 0.079555 0.063302 255 220 0
0.548452 -0.025416 0.041067 255 220 0
0.636169 0.030906 0.030350 255 220 0
0.584818 0.069722 0.076953 255 220 0
0.618755 -0.014176 0.079630 255 220 0
0.607999 0.076270 0.026754 255 220 0
0.555988 -0.044143 0.009855 255 220 0
0.612054 0.035243 0.013420 255 220 0
0.572193 0.044766 0.036028 255 220 0
0.615839 -0.028558 0.059728 255 220 0
0.587640 0.062130 0.086968 255 220 0
0.584518 0.046381 0.018230 255 220 0
0.577522 0.001172 0.088323 255 220 0
0.568938 0.035049 0.064899 255 220 0
0.635093 0.041183 0.027707 255 220 0
0.620032 -0.012792 0.079452 255 220 0
0.647741 0.063633 0.052247 255 220 0
0.580421 -0.056780 0.035126 255 220 0
0.587033 -0.028844 0.085507 255 220 0
0.597702 -0.001378 0.013051 255 220 0
0.578138 -0.059010 0.044293 255 220 0
0.616763 0.096754 0.055796 255 220 0
0.623856 0.002770 0.088897 255 220 0
0.594255 -0.045895 0.035029 255 220 0
0.594409 0.028269 0.099745 255 220 0
0.544107 -0.051224 0.039736 255 220 0
0.641265 0.047386 0.035137 255 220 0
0.550960 -0.016578 0.026487 255 220 0
0.634540 -0.001852 0.051962 255 220 0
0.608472 -0.026808 0.077273 255 220 0
0.539474 -0.048576 0.029223 255 220 0
0.634547 0.034729 0.027808 255 220 0
0.628186 0.096445 0.058068 255 220 0
0.625198 0.075319 0.094546 255 220 0
0.560770 -0.034894 0.065527 255 220 0
0.568184 -0.062595 0.040152 255 220 0
0.637939 0.006018 0.068358 255 220 0
0.569994 -0.023095 0.010472 255 220 0
0.623765 0.055046 0.098576 255 220 0
0.650378 0.046018 0.063546 255 220 0
0.548734 -0.044215 0.048695 255 220 0
0.589298 0.040772 0.013531 255 220 0
0.589171 0.046448 0.093780 255 220 0
0.605078 0.066062 0.020014 255 220 0
0.615703 -0.024023 0.070924 255 220 0
0.642550 0.026032 0.041524 255 220 0
0.609027 0.071462 0.023224 255 220 0
0.641104 0.014449 0.071461 255 220 0
0.605476 0.032414 0.011393 255 220 0
0.582232 -0.047362 0.069556 255 220 0
0.553593 -0.011311 0.046670 255 220 0
0.632932 0.034559 0.026313 255 220 0
0.563007 -0.018068 0.071561 255 220 0
0.634516 0.093229 0.074039 255 220 0
0.623968 -0.010740 0.075924 255 220 0
0.607807 0.034452 0.102483 255 220 0
0.570943 -0.038389 0.072770 255 220 0
0.549496 -0.034792 0.012640 255 220 0
0.595235 -0.042534 0.067640 255 220 0
0.623922 0.036934 0.019340 255 220 0
0.560432 -0.056524 0.053474 255 220 0
0.574022 0.026851 0.018350 255 220 0
0.612014 0.052062 0.015629 255 220 0
0.587326 0.078719 0.055331 255 220 0
0.645609 0.060108 0.045320 255 220 0
0.644917 0.027769 0.073642 255 220 0
0.542176 -0.044269 0.016774 255 220 0
0.592273 0.064518 0.023798 255 220 0
0.632884 0.071826 0.092336 255 220 0
0.551713 -0.013508 0.031516 255 220 0
0.643405 0.059436 0.083867 255 220 0
0.626850 0.007099 0.029138 255 220 0
0.544908 -0.033358 0.018275 255 220 0
0.596143 -0.021544 0.017863 255 220 0
0.599881 0.036619 0.011143 255 220 0
0.555538 -0.006407 0.028006 255 220 0
0.584634 -0.024062 0.087387 255 220 0
0.638400 0.005693 0.065557 255 220 0
0.590096 -0.016778 0.092200 255 220 0
0.607850 0.036576 0.102398 255 220 0
0.638148 0.070590 0.088630 255 220 0
0.561612 0.008563 0.060784 255 220 0
0.612408 0.045226 0.101562 255 220 0
0.545502 -0.041255 0.013504 255 220 0
0.635306 0.089676 0.079268 255 220 0
0.556080 -0.046630 0.010311 255 220 0
0.545289 -0.034345 0.039383 255 220 0
0.559275 -0.050557 0.057092 255 220 0
0.579587 0.017917 0.012235 255 220 0
0.561202 0.009513 0.058684 255 220 0
0.561557 -0.023157 0.069044 255 220 0
0.627999 0.008711 0.088596 255 220 0
0.541123 -0.038269 0.021939 255 220 0
0.631867 0.078959 0.036544 255 220 0
0.616959 0.095243 0.051080 255 220 0
0.599830 -0.036227 0.073176 255 220 0
0.542478 -0.033886 0.025632 255 220 0
0.573869 -0.060722 0.043654 255 220 0
0.621560 0.004627 0.025403 255 220 0
0.619194 -0.020883 0.069499 255 220 0
0.597487 0.074019 0.028606 255 220 0
0.601553 0.012763 0.011610 255 220 0
0.557348 -0.054384 0.014162 255 220 0
0.643594 0.020953 0.048136 255 220 0
0.645551 0.075807 0.053953 255 220 0
0.612257 0.095960 0.070075 255 220 0
0.581779 0.062866 0.077323 255 220 0
0.567876 -0.046476 0.013056 255 220 0
0.636112 0.074224 0.037831 255 220 0
0.606654 0.034382 0.011769 255 220 0
0.646199 0.058871 0.046344 255 220 0
0.615541 0.030676 0.015013 255 220 0
0.575590 0.031635 0.018873 255 220 0
0.549764 -0.033681 0.012923 255 220 0
0.612428 0.091800 0.044078 255 220 0
0.626641 0.070763 0.028484 255 220 0
0.539579 -0.049572 0.027930 255 220 0
0.563382 -0.005121 0.071339 255 220 0
0.646039 0.070851 0.051393 255 220 0
0.645329 0.036877 0.077634 255 220 0
0.576653 0.057243 0.067510 255 220 0
0.640430 0.032642 0.035534 255 220 0
0.571108 -0.023502 0.079066 255 220 0
0.639507 0.006626 0.056636 255 220 0
0.579235 0.036146 0.017463 255 220 0
0.645856 0.061830 0.046440 255 220 0
0.573419 0.044638 0.071089 255 220 0
0.636905 0.020612 0.084746 255 220 0
0.547821 -0.057847 0.038534 255 220 0
0.541914 -0.044155 0.017189 255 220 0
0.604856 0.074112 0.025581 255 220 0
0.635210 0.051816 0.092650 255 220 0
0.552948 -0.040935 0.054657 255 220 0
0.647322 0.040386 0.048023 255 220 0
0.626813 0.057752 0.097309 255 220 0
0.577492 0.030012 0.016372 255 220 0
0.569572 -0.015863 0.079571 255 220 0
0.650498 0.049830 0.062252 255 220 0
0.573363 -0.048691 0.067413 255 220 0
0.633589 0.065473 0.093146 255 220 0
0.600440 0.079781 0.032766 255 220 0
0.567520 -0.034416 0.072063 255 220 0
0.541085 -0.042124 0.034646 255 220 0
0.571033 -0.007528 0.081997 255 220 0
0.612767 0.086313 0.087684 255 220 0
0.591492 -0.016383 0.092667 255 220 0
0.592416 0.000462 0.011356 255 220 0
0.546327 -0.027974 0.021605 255 220 0
0.591536 -0.016148 0.013903 255 220 0
0.632484 0.015245 0.031542 255 220 0
0.614384 -0.023469 0.073942 255 220 0
0.641923 0.084777 0.054768 255 220 0
0.640850 0.009649 0.055968 255 220 0
0.633737 0.080431 0.088189 255 220 0
0.603951 0.006942 0.099600 255 220 0
0.599053 -0.045426 0.048360 255 220 0
0.581934 0.023077 0.091315 255 220 0
0.604486 0.068153 0.096589 255 220 0
0.611269 0.046948 0.101421 255 220 0
0.579489 0.037846 0.018037 255 220 0
0.610519 -0.026301 0.075383 255 220 0
0.635083 0.012595 0.082490 255 220 0
0.581569 0.008671 0.091672 255 220 0
0.592274 -0.032298 0.082854 255 220 0
0.602230 -0.006272 0.016262 255 220 0
0.561453 0.012586 0.057113 255 220 0
0.633592 0.063950 0.093324 255 220 0
0.607237 -0.037552 0.058015 255 220 0
0.612890 0.088907 0.084794 255 220 0
0.539023 -0.044028 0.025628 255 220 0
0.575841 0.056845 0.042823 255 220 0
0.590145 0.044530 0.014495 255 220 0
0.593499 0.081908 0.043895 255 220 0
0.577172 -0.011186 0.086891 255 220 0
0.554487 -0.006291 0.034519 255 220 0
0.579745 0.065846 0.046766 255 220 0
0.568076 -0.024986 0.075907 255 220 0
0.604748 0.068698 0.096477 255 220 0
0.552161 -0.025270 0.015532 255 220 0
0.631924 0.009826 0.084887 255 220 0
0.564293 -0.006439 0.073245 255 220 0
0.596619 0.087670 0.054660 255 220 0
0.553593 -0.011358 0.046721 255 220 0
0.564350 -0.010753 0.014312 255 220 0
0.606694 0.058613 0.099446 255 220 0
0.583994 0.016224 0.093466 255 220 0
0.597418 -0.003791 0.097614 255 220 0
0.650413 0.055458 0.064251 255 220 0
0.613042 0.096173 0.070333 255 220 0
0.638989 0.006115 0.053616 255 220 0
0.648011 0.053343 0.050295 255 220 0
0.639487 0.026996 0.083949 255 220 0
0.639796 0.031002 0.084967 255 220 0
0.546988 -0.029488 0.040069 255 220 0
0.645407 0.059830 0.044784 255 220 0
0.642109 0.021411 0.075923 255 220 0
0.539631 -0.046810 0.031179 255 220 0
0.634335 0.080773 0.087594 255 220 0
0.575713 0.040872 0.079850 255 220 0
0.577501 0.034611 0.018339 255 220 0
0.611569 -0.025321 0.075339 255 220 0
0.613843 0.041729 0.014469 255 220 0
0.636593 0.017619 0.083558 255 220 0
0.640518 0.022895 0.039370 255 220 0
0.626798 0.080830 0.091397 255 220 0
0.599420 -0.033516 0.026953 255 220 0
0.544844 -0.041945 0.042265 255 220 0
0.565599 -0.056196 0.057248 255 220 0
0.622389 0.050450 0.099293 255 220 0
0.637566 0.034045 0.088541 255 220 0
0.557963 -0.059961 0.020686 255 220 0
0.628340 0.093199 0.050402 255 220 0
0.580725 -0.029189 0.083202 255 220 0
0.563985 0.007282 0.068922 255 220 0
0.567273 0.018855 0.023306 255 220 0
0.569513 0.021393 0.021317 255 220 0
0.595518 0.087189 0.064569 255 220 0
0.564851 0.028166 0.052563 255 220 0
0.609454 0.095027 0.055679 255 220 0
0.555008 -0.058697 0.018777 255 220 0
0.642829 0.031014 0.039911 255 220 0
0.580486 0.067731 0.064781 255 220 0
0.561869 -0.008217 0.016946 255 220 0
0.583744 -0.033959 0.081432 255 220 0
0.641693 0.051595 0.086094 255 220 0
0.580425 0.068370 0.061592 255 220 0
0.609028 0.093140 0.074800 255 220 0
0.603221 0.090752 0.073489 255 220 0
0.600991 0.019994 0.010600 255 220 0
0.560515 -0.012496 0.066724 255 220 0
0.585756 0.040440 0.014877 255 220 0
0.563174 -0.009819 0.071605 255 220 0
0.584322 0.033496 0.013279 255 220 0
0.582150 0.055813 0.083087 255 220 0
0.647504 0.068926 0.073360 255 220 0
0.580618 -0.019324 0.011256 255 220 0
0.563103 -0.061955 0.026480 255 220 0
0.563566 -0.040775 0.010183 255 220 0
0.604990 0.076675 0.092551 255 220 0
0.572288 -0.060958 0.036054 255 220 0
0.573897 0.010901 0.014051 255 220 0
0.568179 0.035829 0.038754 255 220 0
0.629998 0.041553 0.095997 255 220 0
0.624987 -0.005928 0.080079 255 220 0
0.633535 0.045746 0.026399 255 220 0
0.563682 0.006038 0.068616 255 220 0
0.625172 -0.016387 0.061278 255 220 0
0.592806 0.072036 0.086700 255 220 0
0.607263 0.063244 0.018548 255 220 0
0.616526 0.044842 0.101110 255 220 0
0.591639 0.000673 0.011202 255 220 0
0.561273 0.016118 0.050215 255 220 0
0.628672 0.089503 0.083985 255 220 0
0.571035 0.040601 0.066859 255 220 0
0.572114 0.050443 0.052682 255 220 0
0.622653 -0.020341 0.058766 255 220 0
0.540206 -0.049672 0.031415 255 220 0
0.641945 0.058616 0.038265 255 220 0
0.629959 0.048971 0.023981 255 220 0
0.568885 0.041148 0.048599 255 220 0
0.611070 -0.030300 0.067935 255 220 0
0.632943 0.007797 0.081889 255 220 0
0.611176 -0.010617 0.023758 255 220 0
0.634522 0.089175 0.049368 255 220 0
0.586065 -0.004356 0.010962 255 220 0
0.561866 -0.055073 0.015927 255 220 0
0.562048 -0.011275 0.015489 255 220 0
0.636635 0.008961 0.076396 255 220 0
0.642480 0.060004 0.085153 255 220 0
0.634298 0.000446 0.069791 255 220 0
0.576583 0.057705 0.066557 255 220 0
0.582711 -0.023029 0.012244 255 220 0
0.551940 -0.024006 0.050195 255 220 0
0.604178 0.025317 0.011051 255 220 0
0.639402 0.018362 0.040118 255 220 0
0.612397 0.062101 0.099366 255 220 0
0.574368 -0.001115 0.012225 255 220 0
0.589633 0.027412 0.097157 255 220 0
0.599224 0.037079 0.011203 255 220 0
0.559387 0.006743 0.053488 255 220 0
0.587496 0.078680 0.053535 255 220 0
0.576371 0.056114 0.067996 255 220 0
0.570265 -0.060960 0.031537 255 220 0
0.580140 -0.057385 0.037023 255 220 0
0.644288 0.079552 0.075994 255 220 0
0.627283 0.059295 0.024563 255 220 0
0.546787 -0.057200 0.020886 255 220 0
0.574897 0.042608 0.026902 255 220 0
0.606099 0.019983 0.012023 255 220 0
0.624702 0.018245 0.023108 255 220 0
0.638372 0.015140 0.040389 255 220 0
0.575633 0.013596 0.013518 255 220 0
0.602560 -0.042389 0.048902 255 220 0
0.576895 -0.058076 0.032437 255 220 0
0.608771 -0.036089 0.047653 255 220 0
0.578135 -0.058594 0.049786 255 220 0
0.637970 0.072310 0.038874 255 220 0
0.567913 0.032046 0.064059 255 220 0
0.645388 0.021829 0.061402 255 220 0
0.636192 0.074747 0.038200 255 220 0
0.629512 0.032495 0.095487 255 220 0
0.626933 -0.004058 0.079244 255 220 0
0.558925 -0.054634 0.014664 255 220 0
0.637146 0.092223 0.071921 255 220 0
0.566085 0.031455 0.055407 255 220 0
0.616064 -0.028765 0.052847 255 220 0
0.545166 -0.043037 0.043103 255 220 0
0.602822 -0.005998 0.096641 255 220 0
0.569439 0.013171 0.017963 255 220 0
0.595486 -0.030176 0.083813 255 220 0
0.573320 -0.043857 0.014292 255 220 0
0.618838 0.063890 0.098679 255 220 0
0.613170 0.077131 0.027304 255 220 0
0.551007 -0.017379 0.042078 255 220 0
0.591333 0.038442 0.096887 255 220 0
0.551995 -0.012601 0.036088 255 220 0
0.567462 -0.061887 0.030978 255 220 0
0.586811 -0.034129 0.017316 255 220 0
0.622179 0.076897 0.029326 255 220 0
0.546942 -0.039871 0.045468 255 220 0
0.644075 0.021248 0.049541 255 220 0
0.607859 0.079281 0.029286 255 220 0
0.597754 0.088504 0.054452 255 220 0
0.615827 0.045127 0.015584 255 220 0
0.571041 0.047257 0.048678 255 220 0
0.601014 -0.032135 0.027493 255 220 0
0.574015 0.033741 0.021897 255 220 0
0.569650 0.043561 0.052050 255 220 0
0.564862 -0.029908 0.010062 255 220 0
0.621186 -0.016979 0.072029 255 220 0
0.615690 0.005827 0.096011 255 220 0
0.648967 0.065458 0.058350 255 220 0
0.584643 0.005135 0.093905 255 220 0
0.571521 0.041676 0.033936 255 220 0
0.555781 -0.002773 0.035161 255 220 0
0.552677 -0.060794 0.024013 255 220 0
0.640046 0.007686 0.057977 255 220 0
0.587774 -0.024776 0.087998 255 220 0
0.545621 -0.041245 0.043479 255 220 0
0.568067 0.015010 0.020198 255 220 0
0.587567 0.013694 0.096053 255 220 0
0.556134 -0.051345 0.053889 255 220 0
0.619748 -0.008422 0.084333 255 220 0
0.636847 0.059652 0.091250 255 220 0
0.630140 0.060412 0.095628 255 220 0
0.590819 -0.051273 0.042115 255 220 0
0.569913 0.041133 0.061694 255 220 0
0.600735 0.050276 0.014178 255 220 0
0.579555 0.050563 0.026059 255 220 0
0.619660 0.016040 0.020069 255 220 0
0.638764 0.010145 0.045713 255 220 0
0.603566 0.008190 0.013176 255 220 0
0.547438 -0.023382 0.027977 255 220 0
0.592700 -0.044173 0.029861 255 220 0
0.589973 0.078015 0.042645 255 220 0
0.590476 -0.002587 0.011365 255 220 0
0.608281 0.027628 0.012145 255 220 0
0.592751 0.082577 0.073959 255 220 0
0.579936 -0.020110 0.086599 255 220 0
0.639761 0.007244 0.060895 255 220 0
0.612427 -0.032936 0.054120 255 220 0
0.634218 0.000161 0.046286 255 220 0
0.577327 0.055234 0.035094 255 220 0
0.563411 0.003764 0.021032 255 220 0
0.569497 -0.042766 0.012307 255 220 0
0.597455 0.013722 0.010531 255 220 0
0.621497 -0.004114 0.029617 255 220 0
0.624251 0.054000 0.021235 255 220 0
0.616164 0.045965 0.101075 255 220 0
0.562057 -0.030879 0.068134 255 220 0
0.632688 0.085711 0.043017 255 220 0
0.592250 -0.016368 0.092802 255 220 0
0.632294 0.075703 0.091389 255 220 0
0.598601 0.045385 0.099430 255 220 0
0.614490 0.045616 0.015164 255 220 0
0.598215 0.089438 0.061220 255 220 0
0.614955 -0.029305 0.060763 255 220 0
0.601248 0.080041 0.087794 255 220 0
0.613462 -0.023822 0.035325 255 220 0
0.626261 0.024014 0.096043 255 220 0
0.572606 0.031724 0.022674 255 220 0
0.635016 0.005563 0.075857 255 220 0
0.591724 0.061586 0.091262 255 220 0
0.563941 -0.012318 0.073056 255 220 0
0.620428 0.003156 0.091985 255 220 0
0.604168 -0.017460 0.021539 255 220 0
0.599777 0.036842 0.011174 255 220 0
0.597488 0.044087 0.099202 255 220 0
0.571864 -0.030073 0.010622 255 220 0
0.612849 -0.016475 0.084215 255 220 0
0.636272 0.000566 0.054926 255 220 0
0.584610 0.053702 0.087227 255 220 0
0.627984 -0.006415 0.040514 255 220 0
0.602503 -0.041647 0.044451 255 220 0
0.575005 0.014280 0.085379 255 220 0
0.571188 0.014113 0.016641 255 220 0
0.609891 -0.033982 0.044693 255 220 0
0.581500 -0.033921 0.014407 255 220 0
0.590914 0.014953 0.098021 255 220 0
0.574336 -0.052443 0.064287 255 220 0
0.598645 0.018252 0.010295 255 220 0
0.644512 0.034826 0.078528 255 220 0
0.589973 -0.035473 0.020041 255 220 0
0.567422 0.022506 0.070759 255 220 0
0.557936 -0.056440 0.051548 255 220 0
0.575818 0.056620 0.042427 255 220 0
0.589653 -0.007715 0.011795 255 220 0
0.605505 0.044486 0.101398 255 220 0
0.560265 -0.060526 0.048808 255 220 0
0.575445 0.010191 0.086190 255 220 0
0.630990 0.096386 0.068223 255 220 0
0.595356 0.079865 0.082528 255 220 0
0.584330 -0.031614 0.083134 255 220 0
0.589004 -0.052465 0.052482 255 220 0
0.595485 -0.006493 0.096702 255 220 0
0.581569 0.067665 0.043433 255 220 0
0.628950 0.097297 0.066563 255 220 0
0.634693 0.094652 0.068284 255 220 0
0.574028 0.047158 0.033518 255 220 0
0.600811 0.016682 0.010866 255 220 0
0.611816 -0.009644 0.023822 255 220 0
0.583389 -0.012670 0.090746 255 220 0
0.575869 0.053193 0.069852 255 220 0
0.546033 -0.029112 0.036561 255 220 0
0.549124 -0.038008 0.011808 255 220 0
0.599775 -0.032118 0.026227 255 220 0
0.644673 0.019486 0.060286 255 220 0
0.552785 -0.010880 0.039899 255 220 0
0.599587 -0.043413 0.041060 255 220 0
0.596495 0.076376 0.087048 255 220 0
0.632278 0.063027 0.094233 255 220 0
0.610703 0.071778 0.023501 255 220 0
0.576624 0.017424 0.086727 255 220 0
0.570309 0.007117 0.080717 255 220 0
0.638813 0.090080 0.073675 255 220 0
0.644685 0.038139 0.079347 255 220 0
0.642747 0.018976 0.047532 255 220 0
0.614971 0.063978 0.020210 255 220 0
0.639283 0.035423 0.033259 255 220 0
0.575830 0.013885 0.086280 255 220 0
0.633292 0.009225 0.082556 255 220 0
0.605384 0.066932 0.020483 255 220 0
0.632325 -0.005900 0.059927 255 220 0
0.648693 0.034196 0.063532 255 220 0
0.636221 0.039831 0.090958 255 220 0
0.618460 0.042155 0.100890 255 220 0
0.573243 0.043815 0.071368 255 220 0
0.576313 0.053816 0.070678 255 220 0
0.576908 0.018663 0.086876 255 220 0
0.632720 0.022657 0.028949 255 220 0
0.600832 -0.034895 0.074180 255 220 0
0.621338 0.018432 0.020592 255 220 0
0.581653 -0.036634 0.079057 255 220 0
0.645082 0.051665 0.042486 255 220 0
0.597321 -0.046758 0.046947 255 220 0
0.638662 0.004896 0.059328 255 220 0
0.617549 0.097818 0.060137 255 220 0
0.609567 -0.030393 0.037107 255 220 0
0.627350 0.097590 0.062250 255 220 0
0.555247 -0.033488 0.010652 255 220 0
0.595247 -0.023841 0.018221 255 220 0
0.568814 -0.011747 0.012203 255 220 0
0.553020 -0.009966 0.038188 255 220 0
0.627783 0.059826 0.025072 255 220 0
0.638559 0.022451 0.036392 255 220 0
0.553513 -0.016910 0.050894 255 220 0
0.608140 -0.037187 0.050151 255 220 0
0.598109 0.060976 0.018666 255 220 0
0.568096 0.009330 0.017988 255 220 0
0.620351 0.084135 0.033958 255 220 0
0.572732 -0.055906 0.023182 255 220 0
0.642203 0.058999 0.038771 255 220 0
0.610340 0.063238 0.018840 255 220 0
0.627246 0.020766 0.094482 255 220 0
0.611047 0.010243 0.016275 255 220 0
0.541507 -0.046712 0.036332 255 220 0
0.557085 -0.012759 0.058403 255 220 0
0.575626 0.021931 0.015213 255 220 0
0.645185 0.022032 0.064905 255 220 0
0.645933 0.045930 0.078807 255 220 0
0.594144 -0.034657 0.022868 255 220 0
0.590868 0.079658 0.075754 255 220 0
0.543193 -0.033469 0.032165 255 220 0
0.600521 0.010943 0.011621 255 220 0
0.599431 0.013143 0.010997 255 220 0
0.644585 0.023275 0.049027 255 220 0
0.592025 0.079237 0.041096 255 220 0
0.639273 0.018089 0.040054 255 220 0
0.581973 0.057431 0.028656 255 220 0
0.612697 0.044890 0.014476 255 220 0
0.633278 0.094024 0.073753 255 220 0
0.589941 -0.011628 0.093950 255 220 0
0.608804 0.058750 0.099717 255 220 0
0.588590 0.061205 0.024253 255 220 0
0.642888 0.041354 0.083148 255 220 0
0.624076 0.097348 0.072185 255 220 0
0.632961 0.061659 0.029589 255 220 0
0.554855 -0.004762 0.039991 255 220 0
0.583537 0.054216 0.023973 255 220 0
0.586407 -0.007252 0.093563 255 220 0
0.574898 0.020726 0.015440 255 220 0
0.579950 0.041189 0.085798 255 220 0
0.627058 0.097150 0.059517 255 220 0
0.615321 -0.019435 0.078011 255 220 0
0.558966 -0.003039 0.023483 255 220 0
0.622534 -0.013346 0.074919 255 220 0
0.582986 0.023042 0.011591 255 220 0
0.619626 -0.001846 0.026663 255 220 0
0.563187 -0.063768 0.037206 255 220 0
0.554443 -0.011621 0.050298 255 220 0
0.617877 -0.007244 0.027837 255 220 0
0.576144 0.046766 0.077322 255 220 0
0.562546 0.001325 0.067440 255 220 0
0.577573 0.040856 0.021713 255 220 0
0.591598 0.083690 0.058889 255 220 0
0.571909 -0.012326 0.082355 255 220 0
0.607874 0.065945 0.098108 255 220 0
0.578078 0.032251 0.016769 255 220 0
0.642768 0.034379 0.081542 255 220 0
0.649674 0.052081 0.056111 255 220 0
0.570537 0.025516 0.022063 255 220 0
0.586207 0.041743 0.092312 255 220 0
0.542004 -0.037787 0.019944 255 220 0
0.557575 -0.049509 0.011358 255 220 0
0.618024 0.083756 0.033082 255 220 0
0.594904 0.081785 0.041191 255 220 0
0.573342 -0.004832 0.084387 255 220 0
0.554684 -0.016064 0.019197 255 220 0
0.601622 -0.017887 0.091127 255 220 0
0.602289 0.065315 0.096727 255 220 0
0.608839 -0.031739 0.069015 255 220 0
0.571170 -0.055902 0.059885 255 220 0
0.549176 -0.033125 0.013585 255 220 0
0.582321 -0.032817 0.081782 255 220 0
0.565314 -0.048705 0.062978 255 220 0
0.567708 -0.005959 0.013969 255 220 0
0.559209 0.008952 0.040838 255 220 0
0.590416 0.005229 0.010635 255 220 0
0.607482 0.042826 0.012900 255 220 0
0.595339 0.029493 0.100083 255 220 0
0.611511 0.095225 0.053853 255 220 0
0.642172 0.081998 0.052052 255 220 0
0.581570 0.059861 0.031752 255 220 0
0.581325 0.068077 0.045470 255 220 0
0.584595 -0.048323 0.067418 255 220 0
0.625859 0.015820 0.024787 255 220 0
0.596437 0.076438 0.031934 255 220 0
0.578800 -0.057542 0.034344 255 220 0
0.550700 -0.056239 0.044645 255 220 0
0.576581 0.049258 0.076477 255 220 0
0.587292 0.076302 0.073145 255 220 0
0.589405 -0.019326 0.090980 255 220 0
0.565678 -0.020262 0.011320 255 220 0
0.580487 -0.048341 0.021438 255 220 0
0.645327 0.021806 0.062505 255 220 0
0.622792 -0.014810 0.072247 255 220 0
0.559116 -0.010892 0.062894 255 220 0
0.647422 0.069794 0.054896 255 220 0
0.619271 -0.015955 0.035793 255 220 0
0.572487 0.051344 0.054362 255 220 0
0.587798 -0.044888 0.024881 255 220 0
0.550259 -0.041450 0.010759 255 220 0
0.589026 -0.052674 0.042708 255 220 0
0.634977 0.050443 0.028275 255 220 0
0.634813 0.085135 0.084198 255 220 0
0.567579 0.037198 0.048628 255 220 0
0.602035 0.071173 0.023971 255 220 0
0.586167 0.000014 0.094510 255 220 0
0.638059 0.008613 0.072411 255 220 0
0.623366 0.002998 0.089503 255 220 0
0.618280 -0.018347 0.036772 255 220 0
0.587919 0.071396 0.080990 255 220 0
0.604517 0.020913 0.101573 255 220 0
0.585879 -0.053320 0.035720 255 220 0
0.605295 0.062271 0.098456 255 220 0
0.584162 0.049560 0.088189 255 220 0
0.630225 0.089588 0.045710 255 220 0
0.615682 0.010923 0.097568 255 220 0
0.574646 0.055441 0.045888 255 220 0
0.640069 0.026206 0.082715 255 220 0
0.600240 0.053948 0.098538 255 220 0
0.621435 0.096078 0.075822 255 220 0
0.580468 0.035986 0.087761 255 220 0
0.635184 0.030364 0.029363 255 220 0
0.630819 0.067272 0.094460 255 220 0
0.557749 -0.001712 0.054215 255 220 0
0.559889 -0.030341 0.065675 255 220 0
0.549125 -0.049013 0.012088 255 220 0
0.609981 0.026204 0.012849 255 220 0
0.585336 -0.009508 0.011194 255 220 0
0.589477 -0.038151 0.021222 255 220 0
0.590566 -0.043437 0.070550 255 220 0
0.541983 -0.053004 0.033059 255 220 0
0.602370 -0.001842 0.098002 255 220 0
0.610358 -0.000518 0.019185 255 220 0
0.611237 -0.008988 0.091620 255 220 0
0.556312 -0.050642 0.011714 255 220 0
0.561055 -0.015726 0.068318 255 220 0
0.557002 -0.061951 0.043827 255 220 0
0.563457 0.019941 0.058494 255 220 0
0.602014 -0.002096 0.014991 255 220 0
0.592658 0.047256 0.096075 255 220 0
0.630760 0.055335 0.025929 255 220 0
0.648270 0.049389 0.074230 255 220 0
0.619347 0.091671 0.043356 255 220 0
0.583222 -0.022460 0.012295 255 220 0
0.590344 0.077790 0.077739 255 220 0
0.622631 -0.006336 0.082856 255 220 0
0.595746 -0.018321 0.092085 255 220 0
0.560324 0.011434 0.052532 255 220 0
0.595580 -0.034830 0.024236 255 220 0
0.620083 0.092500 0.081977 255 220 0
0.617724 0.002109 0.023356 255 220 0
0.621226 -0.009770 0.033048 255 220 0
0.597443 0.082875 0.039688 255 220 0
0.568207 -0.007304 0.078914 255 220 0
0.569656 -0.014535 0.011487 255 220 0
0.560651 0.014312 0.044289 255 220 0
0.566452 0.033013 0.044363 255 220 0
0.589493 0.077791 0.043256 255 220 0
0.637480 0.010644 0.042177 255 220 0
0.625603 0.082284 0.034560 255 220 0
0.649208 0.040665 0.068488 255 220 0
0.603259 -0.039889 0.061266 255 220 0
0.568974 0.012458 0.018185 255 220 0
0.623114 -0.006814 0.081754 255 220 0
0.563657 -0.007535 0.015885 255 220 0
0.577221 0.021953 0.014128 255 220 0
0.558266 -0.008777 0.059784 255 220 0
0.578140 0.042735 0.082898 255 220 0
0.589012 0.061535 0.088743 255 220 0
0.555600 -0.047316 0.010480 255 220 0
0.644358 0.032551 0.077860 255 220 0
0.638781 0.025465 0.084332 255 220 0
0.633581 0.065624 0.031532 255 220 0
0.630501 0.096817 0.065030 255 220 0
0.556766 -0.021494 0.014272 255 220 0
0.546671 -0.025473 0.032838 255 220 0
0.642677 0.017891 0.048555 255 220 0
0.583531 0.063212 0.032222 255 220 0
0.571385 -0.015752 0.011025 255 220 0
0.585122 -0.007147 0.092900 255 220 0
0.569905 0.031773 0.071608 255 220 0
0.567240 0.025295 0.068036 255 220 0
0.570341 -0.028625 0.010344 255 220 0
0.599083 0.085040 0.041561 255 220 0
0.624014 0.066526 0.025133 255 220 0
0.591001 0.081611 0.071469 255 220 0
0.572093 -0.013522 0.011185 255 220 0
0.568976 0.039386 0.041513 255 220 0
0.620928 -0.014443 0.036843 255 220 0
0.631161 0.082336 0.038397 255 220 0
0.646707 0.038906 0.075343 255 220 0
0.559672 -0.002841 0.060983 255 220 0
0.541922 -0.039528 0.035196 255 220 0
0.559469 0.010308 0.044590 255 220 0
0.607440 0.047939 0.013841 255 220 0
0.610897 -0.005523 0.021374 255 220 0
0.571626 0.024433 0.079039 255 220 0
0.570871 0.041951 0.064768 255 220 0
0.586850 0.052998 0.020116 255 220 0
0.608479 0.019004 0.013090 255 220 0
0.543128 -0.051162 0.037863 255 220 0
0.625417 -0.009975 0.039778 255 220 0
0.618288 0.082155 0.031767 255 220 0
0.584945 0.053104 0.021769 255 220 0
0.650482 0.053520 0.063996 255 220 0
0.571451 0.013792 0.081227 255 220 0
0.576404 0.056354 0.039538 255 220 0
0.548785 -0.026516 0.018394 255 220 0
0.617910 0.056144 0.099807 255 220 0
0.632849 0.077875 0.036715 255 220 0
0.647849 0.046777 0.049320 255 220 0
0.619364 -0.023012 0.064668 255 220 0
0.560585 0.002936 0.060739 255 220 0
0.567655 0.030133 0.065028 255 220 0
0.589735 0.081693 0.063211 255 220 0
0.595895 0.025976 0.009950 255 220 0
0.594707 0.068206 0.025053 255 220 0
0.599329 -0.033717 0.077341 255 220 0
0.600958 -0.043785 0.048456 255 220 0
0.572033 0.041075 0.069996 255 220 0
0.597064 0.021472 0.009953 255 220 0
0.589372 -0.044910 0.026589 255 220 0
0.612110 0.047183 0.101368 255 220 0
0.622843 -0.020215 0.056841 255 220 0
0.543682 -0.031377 0.028877 255 220 0
0.621271 0.027219 0.018657 255 220 0
0.609738 0.091346 0.044329 255 220 0
0.578873 0.064307 0.046842 255 220 0
0.639922 0.019975 0.040038 255 220 0
0.625387 0.096026 0.075589 255 220 0
0.546683 -0.026037 0.023893 255 220 0
0.602597 0.064297 0.019332 255 220 0
0.604757 0.089940 0.077571 255 220 0
0.638973 0.030174 0.085804 255 220 0
0.623849 0.075248 0.094932 255 220 0
0.589670 -0.052193 0.051648 255 220 0
0.638365 0.010366 0.044473 255 220 0
0.618530 0.057806 0.099529 255 220 0
0.628886 -0.010429 0.050106 255 220 0
0.631656 -0.002352 0.072268 255 220 0
0.619986 -0.022215 0.046716 255 220 0
0.555399 -0.008593 0.051230 255 220 0
0.583828 -0.056115 0.046465 255 220 0
0.622561 0.097970 0.060086 255 220 0
0.552562 -0.013865 0.044975 255 220 0
0.579961 -0.051198 0.065472 255 220 0
0.563470 -0.063223 0.032052 255 220 0
0.595447 0.084561 0.046397 255 220 0
0.572782 0.001532 0.013153 255 220 0
0.638770 0.091794 0.062631 255 220 0
0.618523 -0.006027 0.087670 255 220 0
0.595207 0.046084 0.097780 255 220 0
0.569716 0.038430 0.035888 255 220 0
0.625592 -0.003952 0.034308 255 220 0
0.616223 -0.027899 0.049015 255 220 0
0.599326 0.045801 0.013054 255 220 0
0.597888 -0.015778 0.016837 255 220 0
0.589390 0.009550 0.097002 255 220 0
0.574829 0.046961 0.073444 255 220 0
0.617144 0.069734 0.097641 255 220 0
0.614030 0.044088 0.101535 255 220 0
0.558949 0.002606 0.029282 255 220 0
0.564531 -0.040816 0.066721 255 220 0
0.619513 0.075500 0.027517 255 220 0
0.594242 -0.044323 0.032300 255 220 0
0.563319 -0.005661 0.071311 255 220 0
0.588252 0.040060 0.013669 255 220 0
0.624325 0.084186 0.035500 255 220 0
0.569508 0.042635 0.046639 255 220 0
0.605223 0.007571 0.014023 255 220 0
0.593868 0.074347 0.031814 255 220 0
0.593018 0.025849 0.099184 255 220 0
0.600831 -0.023984 0.086957 255 220 0
0.571938 -0.034895 0.011222 255 220 0
0.641419 0.015038 0.071228 255 220 0
0.574341 -0.035307 0.076527 255 220 0
0.637581 0.049150 0.090492 255 220 0
0.633147 0.021202 0.089477 255 220 0
0.632518 0.004205 0.079124 255 220 0
0.563274 0.014121 0.028367 255 220 0
0.578557 0.064841 0.060308 255 220 0
0.597335 -0.046710 0.052278 255 220 0
0.619123 -0.020896 0.069622 255 220 0
0.610829 0.092387 0.078224 255 220 0
0.543929 -0.056093 0.033101 255 220 0
0.592093 -0.048604 0.036572 255 220 0
0.647227 0.032430 0.050283 255 220 0
0.572068 0.023222 0.080070 255 220 0
0.562669 0.007339 0.064985 255 220 0
0.551209 -0.015682 0.040095 255 220 0
0.600100 -0.024281 0.087071 255 220 0
0.590555 -0.051834 0.049924 255 220 0
0.597220 -0.019888 0.091067 255 220 0
0.640102 0.008696 0.064431 255 220 0
0.560590 0.006582 0.058529 255 220 0
0.554953 -0.014593 0.053597 255 220 0
0.606288 0.008869 0.014188 255 220 0
0.548702 -0.060070 0.026231 255 220 0
0.620403 0.067630 0.097774 255 220 0
0.599645 0.076909 0.089208 255 220 0
0.565529 -0.000734 0.074657 255 220 0
0.576375 -0.059083 0.035482 255 220 0
0.598955 0.058648 0.097017 255 220 0
0.601329 0.083092 0.084784 255 220 0
0.596012 0.080658 0.037802 255 220 0
0.610595 -0.005751 0.021250 255 220 0
0.633708 0.043902 0.026445 255 220 0
0.549020 -0.038510 0.048750 255 220 0
0.593336 -0.046758 0.061816 255 220 0
0.569835 0.028058 0.074003 255 220 0
0.559977 -0.013814 0.065851 255 220 0
0.573225 -0.029226 0.010788 255 220 0
0.596176 -0.002012 0.097907 255 220 0
0.613443 0.075695 0.095419 255 220 0
0.572906 -0.010171 0.083527 255 220 0
0.615366 0.091554 0.042969 255 220 0
0.631061 0.007044 0.083935 255 220 0
0.637130 0.014040 0.038878 255 220 0
0.553832 -0.021496 0.053765 255 220 0
0.593109 0.040646 0.012508 255 220 0
0.606313 0.093438 0.054074 255 220 0
0.629023 -0.008578 0.046123 255 220 0
0.593686 0.016770 0.099332 255 220 0
0.584211 0.022292 0.011109 255 220 0
0.623186 0.054053 0.020649 255 220 0
0.593706 -0.032634 0.021285 255 220 0
0.588069 -0.053544 0.045397 255 220 0
0.593829 0.084128 0.049160 255 220 0
0.600262 0.085898 0.041754 255 220 0
0.604681 -0.039948 0.046095 255 220 0
0.631020 0.062727 0.028393 255 220 0
0.581835 0.064089 0.076154 255 220 0
0.563531 -0.009550 0.072219 255 220 0
0.566665 -0.006950 0.076936 255 220 0
0.612641 0.047469 0.014860 255 220 0
0.628871 0.096747 0.070485 255 220 0
0.589846 0.050007 0.016802 255 220 0
0.634185 0.017579 0.032557 255 220 0
0.639902 0.083167 0.049211 255 220 0
0.628780 0.046718 0.096808 255 220 0
0.629520 0.026920 0.094437 255 220 0
0.619905 -0.010071 0.031665 255 220 0
0.621223 0.058814 0.020909 255 220 0
0.572147 0.050015 0.047891 255 220 0
0.576107 0.043154 0.079450 255 220 0
0.563397 0.022574 0.041139 255 220 0
0.631920 0.029998 0.026184 255 220 0
0.606599 0.079393 0.091397 255 220 0
0.645754 0.055674 0.044550 255 220 0
0.640635 0.047618 0.087057 255 220 0
0.597008 0.048888 0.098141 255 220 0
0.630704 0.096260 0.060645 255 220 0
0.625619 0.098133 0.064764 255 220 0
0.583139 0.055058 0.084837 255 220 0
0.594745 -0.016468 0.015413 255 220 0
0.608620 0.035608 0.102449 255 220 0
0.592018 0.079673 0.041957 255 220 0
0.634464 -0.001489 0.064483 255 220 0
0.616611 0.058525 0.099704 255 220 0
0.593655 0.034976 0.098775 255 220 0
0.598288 0.062718 0.019514 255 220 0
0.582720 0.033846 0.014178 255 220 0
0.635912 0.028487 0.030683 255 220 0
0.594271 -0.019895 0.091296 255 220 0
0.602811 -0.025551 0.024624 255 220 0
0.615226 0.075501 0.095654 255 220 0
0.635599 0.014043 0.036354 255 220 0
0.619153 0.091244 0.083539 255 220 0
0.559141 -0.022565 0.065298 255 220 0
0.598518 0.033099 0.101026 255 220 0
0.601826 0.018329 0.010934 255 220 0
0.639426 0.066428 0.088168 255 220 0
0.566569 -0.006090 0.076780 255 220 0
0.642983 0.066764 0.083655 255 220 0
0.570852 0.026429 0.022119 255 220 0
0.614090 0.023676 0.015031 255 220 0
0.644225 0.033030 0.041984 255 220 0
0.640261 0.067795 0.039486 255 220 0
0.585636 0.076773 0.057964 255 220 0
0.595175 -0.045833 0.061157 255 220 0
0.595206 -0.046862 0.039326 255 220 0
0.644010 0.061636 0.042603 255 220 0
0.599860 -0.044555 0.046685 255 220 0
0.605127 0.093679 0.064146 255 220 0
0.568989 0.033397 0.066760 255 220 0
0.552160 -0.013858 0.027152 255 220 0
0.573897 -0.009270 0.084505 255 220 0
0.586174 0.077356 0.055974 255 220 0
0.609830 0.051118 0.100892 255 220 0
0.602103 -0.031351 0.078003 255 220 0
0.625786 -0.000488 0.084375 255 220 0
0.629249 0.071202 0.094367 255 220 0
0.564721 -0.053668 0.058962 255 220 0
0.629371 0.010192 0.088062 255 220 0
0.632286 -0.005018 0.049998 255 220 0
0.594243 0.024183 0.009854 255 220 0
0.547493 -0.024106 0.034921 255 220 0
0.600032 -0.044551 0.052731 255 220 0
0.634345 0.020931 0.031371 255 220 0
0.643548 0.021219 0.071773 255 220 0
0.591238 0.064879 0.089347 255 220 0
0.603054 0.019828 0.011114 255 220 0
0.580613 -0.037871 0.015374 255 220 0
0.610611 0.095990 0.066591 255 220 0
0.598066 -0.010398 0.015327 255 220 0
0.610855 0.047398 0.014375 255 220 0
0.647512 0.031708 0.052190 255 220 0
0.591507 0.044515 0.014043 255 220 0
0.618667 -0.024624 0.062423 255 220 0
