ply
format ascii 1.0
element vertex 1024
property float x
property float y
property float z
property uchar red
property uchar green
property uchar blue
end_header
0.627759 0.012800 0.028081 255 220 0
0.586466 -0.054942 0.042646 255 220 0
0.624190 0.006309 0.027364 255 220 0
0.571312 0.048921 0.061504 255 220 0
0.644393 0.080585 0.076552 255 220 0
0.614075 -0.024788 0.076895 255 220 0
0.571246 0.042232 0.067558 255 220 0
0.605843 0.065197 0.098790 255 220 0
0.616963 0.096998 0.077331 255 220 0
0.627212 -0.011817 0.070849 255 220 0
0.594055 -0.046266 0.035207 255 220 0
0.571045 -0.000895 0.079268 255 220 0
0.599972 0.092416 0.052871 255 220 0
0.619474 0.080010 0.031171 255 220 0
0.566843 0.030689 0.062432 255 220 0
0.600400 0.070327 0.023316 255 220 0
0.625499 -0.018143 0.057020 255 220 0
0.583130 -0.031460 0.080721 255 220 0
0.585330 -0.031446 0.017603 255 220 0
0.585753 -0.016516 0.014307 255 220 0
0.566795 0.038276 0.051862 255 220 0
0.628940 0.093768 0.049657 255 220 0
0.634888 0.006932 0.080092 255 220 0
0.637741 0.002351 0.058293 255 220 0
0.631790 -0.001908 0.042118 255 220 0
0.561123 0.017482 0.049419 255 220 0
0.604186 0.027499 0.013225 255 220 0
0.566232 -0.048767 0.062342 255 220 0
0.568851 0.036576 0.064539 255 220 0
0.589005 -0.010734 0.091242 255 220 0
0.580789 -0.027528 0.014928 255 220 0
0.605199 0.019648 0.101195 255 220 0
0.576895 0.060148 0.068365 255 220 0
0.571467 0.039390 0.069821 255 220 0
0.650611 0.047671 0.063284 255 220 0
0.640752 0.064294 0.039412 255 220 0
0.620365 0.098712 0.056248 255 220 0
0.604264 0.003359 0.098668 255 220 0
0.546666 -0.055645 0.041072 255 220 0
0.553403 -0.060368 0.027809 255 220 0
0.626227 0.068190 0.028470 255 220 0
0.630463 0.001818 0.036591 255 220 0
0.583744 0.046504 0.018253 255 220 0
0.639038 0.056966 0.034922 255 220 0
0.581041 0.071673 0.064730 255 220 0
0.639447 0.011793 0.075400 255 220 0
0.573226 0.032019 0.020220 255 220 0
0.593969 0.079573 0.083491 255 220 0
0.620174 0.022689 0.099593 255 220 0
0.607707 0.063552 0.099657 255 220 0
0.633267 0.056061 0.028821 255 220 0
0.608618 -0.037856 0.048752 255 220 0
0.637103 0.080662 0.087079 255 220 0
0.640822 0.081119 0.048943 255 220 0
0.631619 -0.007030 0.066125 255 220 0
0.602722 0.024892 0.012988 255 220 0
0.570273 0.002423 0.078088 255 220 0
0.539705 -0.039624 0.030382 255 220 0
0.546949 -0.044313 0.016180 255 220 0
0.577233 0.035328 0.018073 255 220 0
0.601358 0.032072 0.101053 255 220 0
0.617081 0.050203 0.101336 255 220 0
0.561365 -0.003032 0.020933 255 220 0
0.617663 -0.028239 0.051416 255 220 0
0.642364 0.079027 0.049853 255 220 0
0.609204 0.081196 0.030252 255 220 0
0.586191 -0.044527 0.072388 255 220 0
0.556692 -0.062905 0.034123 255 220 0
0.548538 -0.024254 0.022604 255 220 0
0.632559 0.082007 0.040198 255 220 0
0.542712 -0.036744 0.021808 255 220 0
0.575969 0.044533 0.023527 255 220 0
0.632601 0.071853 0.034422 255 220 0
0.636204 -0.000374 0.056554 255 220 0
0.572996 -0.056707 0.027341 255 220 0
0.646128 0.052091 0.080123 255 220 0
0.620167 -0.020157 0.072925 255 220 0
0.646610 0.032821 0.073630 255 220 0
0.596787 -0.020023 0.090333 255 220 0
0.590943 0.043514 0.094956 255 220 0
0.562677 0.024694 0.042099 255 220 0
0.608451 0.090508 0.039928 255 220 0
0.612678 0.073052 0.025333 255 220 0
0.625448 0.098873 0.058650 255 220 0
0.580710 0.072293 0.060035 255 220 0
0.624694 0.063813 0.098511 255 220 0
0.591331 -0.046736 0.068032 255 220 0
0.557561 -0.051290 0.016429 255 220 0
0.567815 -0.016320 0.013888 255 220 0
0.576426 0.053476 0.029657 255 220 0
0.580450 0.052305 0.081837 255 220 0
0.610803 -0.031109 0.039158 255 220 0
0.585160 -0.013204 0.013704 255 220 0
0.591008 -0.048971 0.035214 255 220 0
0.572930 0.038197 0.023562 255 220 0
0.602222 0.036267 0.013021 255 220 0
0.594221 -0.035312 0.080206 255 220 0
0.595917 -0.025399 0.020759 255 220 0
0.563337 -0.049062 0.060354 255 220 0
0.610441 0.013594 0.100067 255 220 0
0.645007 0.019937 0.065484 255 220 0
0.569326 0.028280 0.023219 255 220 0
0.644468 0.034830 0.041920 255 220 0
0.625557 0.000765 0.088156 255 220 0
0.637320 0.003437 0.049759 255 220 0
0.579606 0.066041 0.069696 255 220 0
0.593145 -0.049479 0.059941 255 220 0
0.593535 -0.032701 0.022594 255 220 0
0.584925 -0.000524 0.012758 255 220 0
0.558170 -0.031168 0.061217 255 220 0
0.617967 0.071951 0.098270 255 220 0
0.563771 -0.002776 0.018877 255 220 0
0.606865 0.013378 0.100354 255 220 0
0.573310 0.055710 0.041294 255 220 0
0.598681 -0.046539 0.045968 255 220 0
0.565942 0.032199 0.057332 255 220 0
0.575450 0.029203 0.081887 255 220 0
0.596091 -0.008539 0.094451 255 220 0
0.627305 0.075176 0.095329 255 220 0
0.558065 -0.028332 0.014297 255 220 0
0.622774 -0.003678 0.088105 255 220 0
0.598168 0.047960 0.014816 255 220 0
0.644957 0.041848 0.041983 255 220 0
0.641291 0.020039 0.042616 255 220 0
0.635009 0.049420 0.029137 255 220 0
0.580967 -0.003387 0.012876 255 220 0
0.576931 0.041302 0.080461 255 220 0
0.573515 0.047401 0.029385 255 220 0
0.613693 0.058530 0.019512 255 220 0
0.617415 -0.024806 0.070166 255 220 0
0.570260 0.028769 0.072105 255 220 0
0.605414 0.007272 0.016325 255 220 0
0.645393 0.046933 0.043150 255 220 0
0.581221 0.021112 0.089005 255 220 0
0.601990 0.022277 0.012976 255 220 0
0.599837 0.088419 0.042089 255 220 0
0.638976 0.004736 0.060336 255 220 0
0.547664 -0.021128 0.029353 255 220 0
0.632551 0.033675 0.094678 255 220 0
0.650261 0.043568 0.063865 255 220 0
0.598506 -0.020112 0.020221 255 220 0
0.602300 0.074202 0.025650 255 220 0
0.628383 -0.000203 0.035175 255 220 0
0.585266 -0.037970 0.077505 255 220 0
0.629321 0.089566 0.044233 255 220 0
0.642191 0.021004 0.077456 255 220 0
0.544872 -0.054417 0.039657 255 220 0
0.632834 0.090788 0.082593 255 220 0
0.574672 0.013496 0.083000 255 220 0
0.562180 -0.001001 0.064142 255 220 0
0.593452 0.034326 0.012461 255 220 0
0.642266 0.012238 0.055675 255 220 0
0.646442 0.079959 0.065074 255 220 0
0.587254 0.079608 0.069711 255 220 0
0.549892 -0.026047 0.047085 255 220 0
0.631900 0.035840 0.026441 255 220 0
0.586874 0.068844 0.083000 255 220 0
0.624846 -0.012937 0.074764 255 220 0
0.601342 0.079607 0.030322 255 220 0
0.553220 -0.042478 0.013909 255 220 0
0.605196 0.039722 0.013839 255 220 0
0.569069 0.045579 0.043014 255 220 0
0.619474 -0.026299 0.054664 255 220 0
0.591634 0.060867 0.091924 255 220 0
0.578281 0.048932 0.023645 255 220 0
0.584846 -0.000555 0.090829 255 220 0
0.570971 0.034048 0.071334 255 220 0
0.629914 0.046172 0.024685 255 220 0
0.626008 -0.011473 0.074480 255 220 0
0.645231 0.067879 0.048357 255 220 0
0.581982 -0.055091 0.034132 255 220 0
0.595232 -0.029752 0.084577 255 220 0
0.592773 0.002404 0.013318 255 220 0
0.581311 -0.057973 0.043377 255 220 0
0.613649 0.098869 0.058912 255 220 0
0.630537 0.003719 0.084211 255 220 0
0.595073 -0.043426 0.032579 255 220 0
0.602008 0.026784 0.101215 255 220 0
0.546652 -0.051945 0.044754 255 220 0
0.636890 0.052289 0.031443 255 220 0
0.549592 -0.016255 0.032907 255 220 0
0.635361 0.001857 0.045832 255 220 0
0.614945 -0.025994 0.073226 255 220 0
0.540267 -0.048975 0.035298 255 220 0
0.629706 0.039701 0.024444 255 220 0
0.625290 0.099101 0.059332 255 220 0
0.629233 0.075777 0.094352 255 220 0
0.566427 -0.036174 0.068623 255 220 0
0.571008 -0.061892 0.040626 255 220 0
0.640963 0.008959 0.061971 255 220 0
0.566100 -0.020716 0.013702 255 220 0
0.629456 0.055258 0.097211 255 220 0
0.650504 0.049829 0.057913 255 220 0
0.552311 -0.045203 0.053316 255 220 0
0.582511 0.043892 0.017893 255 220 0
0.595001 0.044938 0.097360 255 220 0
0.597877 0.069650 0.023467 255 220 0
0.620918 -0.022431 0.066017 255 220 0
0.640223 0.030716 0.036127 255 220 0
0.602023 0.075079 0.026365 255 220 0
0.644170 0.017369 0.065088 255 220 0
0.598524 0.036633 0.012689 255 220 0
0.588839 -0.047573 0.068395 255 220 0
0.555174 -0.012010 0.052727 255 220 0
0.627883 0.039523 0.023214 255 220 0
0.568782 -0.019619 0.075327 255 220 0
0.634253 0.095350 0.073862 255 220 0
0.629221 -0.008995 0.070520 255 220 0
0.615355 0.033574 0.102212 255 220 0
0.577789 -0.039477 0.073929 255 220 0
0.546812 -0.033699 0.018292 255 220 0
0.601114 -0.041890 0.064779 255 220 0
0.617764 0.041762 0.017917 255 220 0
0.565211 -0.057060 0.055372 255 220 0
0.568905 0.028846 0.024126 255 220 0
0.604692 0.056354 0.017131 255 220 0
0.585434 0.079197 0.061893 255 220 0
0.642188 0.064638 0.041633 255 220 0
0.647631 0.030743 0.067516 255 220 0
0.540721 -0.043810 0.022891 255 220 0
0.585937 0.067143 0.029108 255 220 0
0.636626 0.072874 0.090736 255 220 0
0.550993 -0.013439 0.037946 255 220 0
0.646240 0.061628 0.079918 255 220 0
0.623678 0.011637 0.025143 255 220 0
0.543124 -0.032861 0.024660 255 220 0
0.592990 -0.018062 0.016973 255 220 0
0.592763 0.040510 0.013601 255 220 0
0.553854 -0.005936 0.034354 255 220 0
0.592936 -0.025234 0.087123 255 220 0
0.640983 0.008823 0.059118 255 220 0
0.598739 -0.017931 0.091486 255 220 0
0.615280 0.035698 0.102263 255 220 0
0.641280 0.072163 0.086174 255 220 0
0.564378 0.007458 0.066684 255 220 0
0.619218 0.044635 0.101292 255 220 0
0.543329 -0.040423 0.019345 255 220 0
0.636045 0.091555 0.078656 255 220 0
0.553505 -0.044977 0.014180 255 220 0
0.546938 -0.035034 0.045333 255 220 0
0.564360 -0.051388 0.059514 255 220 0
0.573844 0.020619 0.016636 255 220 0
0.563590 0.008502 0.064741 255 220 0
0.567196 -0.024632 0.072739 255 220 0
0.634284 0.009900 0.083655 255 220 0
0.540221 -0.038188 0.028541 255 220 0
0.626313 0.083124 0.036392 255 220 0
0.613158 0.097646 0.054134 255 220 0
0.606226 -0.035653 0.069928 255 220 0
0.541937 -0.033952 0.032256 255 220 0
0.577084 -0.059893 0.043305 255 220 0
0.617983 0.009078 0.022132 255 220 0
0.623977 -0.019015 0.064270 255 220 0
0.591387 0.076642 0.033652 255 220 0
0.595648 0.016806 0.012225 255 220 0
0.555751 -0.052852 0.017263 255 220 0
0.642562 0.025336 0.042142 255 220 0
0.642754 0.079786 0.051185 255 220 0
0.611540 0.096995 0.073637 255 220 0
0.584271 0.061811 0.083391 255 220 0
0.565567 -0.044290 0.015039 255 220 0
0.630936 0.078580 0.036680 255 220 0
0.599649 0.038642 0.013005 255 220 0
0.642994 0.063381 0.042468 255 220 0
0.609112 0.035283 0.014559 255 220 0
0.570302 0.033676 0.024711 255 220 0
0.547067 -0.032592 0.018601 255 220 0
0.607735 0.094351 0.047720 255 220 0
0.620266 0.075112 0.028731 255 220 0
0.540212 -0.049887 0.033942 255 220 0
0.568485 -0.006681 0.075903 255 220 0
0.643064 0.075022 0.048258 255 220 0
0.648235 0.039616 0.071985 255 220 0
0.577915 0.056469 0.074157 255 220 0
0.636849 0.037523 0.030993 255 220 0
0.578238 -0.024991 0.081089 255 220 0
0.640596 0.010330 0.050215 255 220 0
0.573448 0.038466 0.023046 255 220 0
0.642528 0.066304 0.042812 255 220 0
0.575916 0.043512 0.077361 255 220 0
0.641865 0.022504 0.079245 255 220 0
0.550443 -0.058260 0.042548 255 220 0
0.540524 -0.043735 0.023348 255 220 0
0.598161 0.077340 0.029518 255 220 0
0.639944 0.053050 0.089359 255 220 0
0.557264 -0.042029 0.058744 255 220 0
0.645271 0.044928 0.042727 255 220 0
0.632125 0.058206 0.095662 255 220 0
0.571853 0.032313 0.021840 255 220 0
0.576433 -0.017497 0.082332 255 220 0
0.650228 0.053710 0.056870 255 220 0
0.579816 -0.049295 0.067590 255 220 0
0.637760 0.066537 0.091003 255 220 0
0.594685 0.082319 0.037667 255 220 0
0.574107 -0.035677 0.074032 255 220 0
0.542412 -0.042761 0.040814 255 220 0
0.577857 -0.009244 0.085042 255 220 0
0.615342 0.086400 0.090272 255 220 0
0.600171 -0.017482 0.091754 255 220 0
0.587199 0.004025 0.012600 255 220 0
0.544796 -0.027603 0.028073 255 220 0
0.587550 -0.012727 0.014152 255 220 0
0.629221 0.019948 0.027162 255 220 0
0.620075 -0.022128 0.069235 255 220 0
0.638871 0.088466 0.053151 255 220 0
0.641665 0.013459 0.049546 255 220 0
0.636382 0.081738 0.087083 255 220 0
0.612430 0.006096 0.098163 255 220 0
0.601922 -0.043442 0.044991 255 220 0
0.588609 0.021362 0.094528 255 220 0
0.609493 0.067306 0.099151 255 220 0
0.617988 0.046292 0.101446 255 220 0
0.573709 0.040142 0.023683 255 220 0
0.616635 -0.025260 0.071075 255 220 0
0.640097 0.014536 0.076780 255 220 0
0.589008 0.006963 0.093987 255 220 0
0.600141 -0.032735 0.080911 255 220 0
0.597990 -0.002392 0.015446 255 220 0
0.563436 0.011669 0.063357 255 220 0
0.637867 0.065009 0.091078 255 220 0
0.611157 -0.035669 0.053736 255 220 0
0.614872 0.089159 0.087576 255 220 0
0.539023 -0.044263 0.032127 255 220 0
0.573169 0.057441 0.049933 255 220 0
0.583318 0.047631 0.018958 255 220 0
0.589527 0.083394 0.049865 255 220 0
0.584873 -0.012811 0.088657 255 220 0
0.553859 -0.006256 0.040945 255 220 0
0.577211 0.066415 0.053798 255 220 0
0.574813 -0.026466 0.078356 255 220 0
0.609707 0.067870 0.099035 255 220 0
0.549440 -0.024219 0.021350 255 220 0
0.637503 0.011453 0.079456 255 220 0
0.569753 -0.008051 0.077551 255 220 0
0.594052 0.088701 0.060362 255 220 0
0.555184 -0.012059 0.052774 255 220 0
0.560553 -0.008967 0.019188 255 220 0
0.612593 0.057763 0.100989 255 220 0
0.591319 0.014529 0.095871 255 220 0
0.606195 -0.004869 0.096527 255 220 0
0.650192 0.059199 0.059225 255 220 0
0.612345 0.097239 0.073782 255 220 0
0.639625 0.009963 0.047287 255 220 0
0.645685 0.057752 0.045712 255 220 0
0.643971 0.029063 0.078475 255 220 0
0.644244 0.033015 0.079693 255 220 0
0.548487 -0.030133 0.046063 255 220 0
0.641916 0.064380 0.041119 255 220 0
0.645539 0.024111 0.069786 255 220 0
0.540651 -0.047318 0.037318 255 220 0
0.636858 0.082148 0.086425 255 220 0
0.579768 0.039391 0.085383 255 220 0
0.571954 0.036785 0.024080 255 220 0
0.617615 -0.024220 0.070931 255 220 0
0.606812 0.046230 0.015019 255 220 0
0.641513 0.019570 0.077926 255 220 0
0.638026 0.027594 0.034117 255 220 0
0.630037 0.081545 0.091362 255 220 0
0.598265 -0.030323 0.024625 255 220 0
0.547333 -0.042800 0.047742 255 220 0
0.570895 -0.056646 0.058300 255 220 0
0.628438 0.050555 0.097831 255 220 0
0.642472 0.035712 0.083767 255 220 0
0.557677 -0.058749 0.023227 255 220 0
0.624369 0.096314 0.051541 255 220 0
0.588660 -0.030333 0.083277 255 220 0
0.568087 0.005854 0.074244 255 220 0
0.563437 0.020197 0.029544 255 220 0
0.565202 0.022972 0.027399 255 220 0
0.594582 0.087589 0.070267 255 220 0
0.565296 0.027656 0.059367 255 220 0
0.606510 0.096727 0.059831 255 220 0
0.554395 -0.057552 0.021894 255 220 0
0.639996 0.035789 0.034822 255 220 0
0.580744 0.067303 0.071556 255 220 0
0.558407 -0.006735 0.022341 255 220 0
0.591584 -0.034809 0.080743 255 220 0
0.645293 0.053585 0.081864 255 220 0
0.580141 0.068119 0.068466 255 220 0
0.609253 0.093724 0.078616 255 220 0
0.603434 0.091079 0.078079 255 220 0
0.594580 0.024037 0.011795 255 220 0
0.565277 -0.013935 0.071320 255 220 0
0.579252 0.043276 0.019755 255 220 0
0.568552 -0.011392 0.075887 255 220 0
0.577920 0.036363 0.017947 255 220 0
0.585906 0.054473 0.088546 255 220 0
0.648131 0.071929 0.069547 255 220 0
0.576516 -0.016380 0.013052 255 220 0
0.563772 -0.060767 0.027996 255 220 0
0.560579 -0.038696 0.013262 255 220 0
0.608926 0.076060 0.095654 255 220 0
0.574317 -0.059785 0.036051 255 220 0
0.568868 0.013189 0.018858 255 220 0
0.565985 0.036281 0.045742 255 220 0
0.635843 0.042323 0.092799 255 220 0
0.630659 -0.004378 0.074770 255 220 0
0.627946 0.050703 0.023942 255 220 0
0.567800 0.004613 0.073909 255 220 0
0.628330 -0.013712 0.055526 255 220 0
0.596201 0.071058 0.091500 255 220 0
0.599933 0.067053 0.021493 255 220 0
0.623224 0.044518 0.100174 255 220 0
0.586398 0.004199 0.012584 255 220 0
0.561978 0.015574 0.056821 255 220 0
0.630271 0.090724 0.084335 255 220 0
0.573083 0.039592 0.073301 255 220 0
0.571390 0.050277 0.059811 255 220 0
0.625637 -0.017656 0.053187 255 220 0
0.541394 -0.050150 0.037270 255 220 0
0.637515 0.063342 0.035160 255 220 0
0.623875 0.053846 0.022335 255 220 0
0.568003 0.041059 0.055683 255 220 0
0.616176 -0.028786 0.063386 255 220 0
0.638125 0.009663 0.076208 255 220 0
0.608225 -0.006629 0.021139 255 220 0
0.630493 0.092726 0.049284 255 220 0
0.581110 -0.001126 0.012893 255 220 0
0.560522 -0.053375 0.018246 255 220 0
0.558498 -0.009689 0.020675 255 220 0
0.640825 0.011355 0.070292 255 220 0
0.645508 0.062066 0.081368 255 220 0
0.637874 0.003111 0.063590 255 220 0
0.577671 0.056980 0.073259 255 220 0
0.578918 -0.020007 0.013452 255 220 0
0.554728 -0.024960 0.055623 255 220 0
0.597534 0.029503 0.012089 255 220 0
0.637267 0.022968 0.034731 255 220 0
0.618033 0.061577 0.100244 255 220 0
0.569624 0.001346 0.016192 255 220 0
0.596926 0.025798 0.099359 255 220 0
0.592102 0.040926 0.013794 255 220 0
0.561101 0.005932 0.059725 255 220 0
0.585315 0.079271 0.060095 255 220 0
0.577770 0.055300 0.074606 255 220 0
0.571596 -0.059646 0.031918 255 220 0
0.582038 -0.055818 0.036005 255 220 0
0.644866 0.082180 0.073348 255 220 0
0.620827 0.063945 0.024010 255 220 0
0.546557 -0.056663 0.025365 255 220 0
0.570374 0.044111 0.033454 255 220 0
0.599844 0.024244 0.012393 255 220 0
0.620049 0.022965 0.020274 255 220 0
0.636452 0.019681 0.034947 255 220 0
0.570362 0.016008 0.018237 255 220 0
0.605318 -0.040242 0.045173 255 220 0
0.578136 -0.056435 0.031951 255 220 0
0.610933 -0.033527 0.043381 255 220 0
0.582171 -0.057873 0.048818 255 220 0
0.633028 0.076722 0.037288 255 220 0
0.569972 0.031043 0.070468 255 220 0
0.646419 0.025552 0.054989 255 220 0
0.631048 0.079085 0.037065 255 220 0
0.635724 0.033297 0.091776 255 220 0
0.632352 -0.002352 0.073765 255 220 0
0.557399 -0.053038 0.017493 255 220 0
0.636554 0.094623 0.071295 255 220 0
0.566808 0.030843 0.062192 255 220 0
0.618600 -0.026098 0.047835 255 220 0
0.547838 -0.043917 0.048445 255 220 0
0.611473 -0.006697 0.094572 255 220 0
0.564991 0.014966 0.023563 255 220 0
0.603358 -0.030487 0.081491 255 220 0
0.571004 -0.041432 0.015573 255 220 0
0.624185 0.063777 0.098671 255 220 0
0.606486 0.080737 0.030108 255 220 0
0.552182 -0.017945 0.048209 255 220 0
0.598022 0.036906 0.099554 255 220 0
0.551961 -0.012782 0.042466 255 220 0
0.568789 -0.060702 0.031746 255 220 0
0.584316 -0.031120 0.017073 255 220 0
0.615704 0.080915 0.030667 255 220 0
0.549815 -0.040793 0.050704 255 220 0
0.643247 0.025577 0.043471 255 220 0
0.601464 0.082455 0.033038 255 220 0
0.595096 0.089611 0.060032 255 220 0
0.608781 0.049668 0.016030 255 220 0
0.569844 0.047269 0.055825 255 220 0
0.599855 -0.028884 0.024998 255 220 0
0.569132 0.035509 0.028077 255 220 0
0.569194 0.043310 0.059122 255 220 0
0.561308 -0.027783 0.013656 255 220 0
0.626157 -0.015153 0.066707 255 220 0
0.623481 0.005878 0.092707 255 220 0
0.647332 0.069419 0.054297 255 220 0
0.592570 0.003491 0.095471 255 220 0
0.568220 0.042580 0.040855 255 220 0
0.555066 -0.002712 0.041606 255 220 0
0.553041 -0.060079 0.027281 255 220 0
0.641291 0.011341 0.051521 255 220 0
0.596165 -0.025798 0.087184 255 220 0
0.548260 -0.042126 0.048862 255 220 0
0.563907 0.016590 0.026102 255 220 0
0.595380 0.012069 0.097691 255 220 0
0.560788 -0.052173 0.056799 255 220 0
0.626300 -0.007415 0.079622 255 220 0
0.640951 0.061035 0.088238 255 220 0
0.635006 0.061148 0.093658 255 220 0
0.593086 -0.049394 0.039746 255 220 0
0.571121 0.040353 0.068423 255 220 0
0.593427 0.053997 0.017358 255 220 0
0.574443 0.052360 0.032415 255 220 0
0.614698 0.020647 0.017927 255 220 0
0.637937 0.014420 0.039802 255 220 0
0.598107 0.012276 0.013149 255 220 0
0.546691 -0.023327 0.034480 255 220 0
0.592626 -0.041505 0.027844 255 220 0
0.586040 0.079378 0.048931 255 220 0
0.585437 0.000872 0.012713 255 220 0
0.601643 0.031984 0.012674 255 220 0
0.593587 0.082291 0.079650 255 220 0
0.587986 -0.021525 0.087346 255 220 0
0.641500 0.010716 0.054413 255 220 0
0.615423 -0.030541 0.049386 255 220 0
0.634034 0.004170 0.040423 255 220 0
0.573470 0.056367 0.041977 255 220 0
0.560000 0.005061 0.026915 255 220 0
0.566864 -0.040454 0.014291 255 220 0
0.591388 0.017583 0.011869 255 220 0
0.619024 0.000120 0.025717 255 220 0
0.617562 0.058681 0.020858 255 220 0
0.622807 0.045619 0.100270 255 220 0
0.567918 -0.032247 0.071254 255 220 0
0.627834 0.089530 0.043086 255 220 0
0.600939 -0.017431 0.091768 255 220 0
0.635704 0.076757 0.090151 255 220 0
0.605256 0.044106 0.101374 255 220 0
0.607372 0.050102 0.015858 255 220 0
0.596593 0.090180 0.066690 255 220 0
0.618805 -0.027156 0.055773 255 220 0
0.604309 0.079468 0.091778 255 220 0
0.612980 -0.020319 0.031305 255 220 0
0.633021 0.024622 0.092276 255 220 0
0.567965 0.033372 0.028931 255 220 0
0.639308 0.007905 0.069791 255 220 0
0.596376 0.060319 0.095476 255 220 0
0.569662 -0.013920 0.077032 255 220 0
0.627635 0.003725 0.087819 255 220 0
0.601293 -0.013732 0.019603 255 220 0
0.592655 0.040724 0.013663 255 220 0
0.604187 0.042761 0.101239 255 220 0
0.568309 -0.027569 0.013095 255 220 0
0.619872 -0.015838 0.080059 255 220 0
0.637427 0.004198 0.048640 255 220 0
0.589099 0.052276 0.092099 255 220 0
0.627281 -0.002418 0.035282 255 220 0
0.604511 -0.039250 0.040845 255 220 0
0.581254 0.012529 0.089188 255 220 0
0.566456 0.016083 0.022047 255 220 0
0.611459 -0.031192 0.040428 255 220 0
0.578603 -0.031057 0.015055 255 220 0
0.598935 0.013407 0.099187 255 220 0
0.580455 -0.052798 0.064109 255 220 0
0.592303 0.022181 0.011749 255 220 0
0.647672 0.037472 0.072859 255 220 0
0.587937 -0.032431 0.019172 255 220 0
0.571029 0.021123 0.076519 255 220 0
0.562436 -0.057011 0.053873 255 220 0
0.573092 0.057239 0.049532 255 220 0
0.584945 -0.004311 0.012927 255 220 0
0.612422 0.043502 0.102168 255 220 0
0.564491 -0.060790 0.050538 255 220 0
0.582016 0.008434 0.089649 255 220 0
0.629689 0.098624 0.068893 255 220 0
0.597663 0.079250 0.087505 255 220 0
0.592321 -0.032535 0.082482 255 220 0
0.593020 -0.051284 0.050169 255 220 0
0.604274 -0.007623 0.095753 255 220 0
0.578385 0.068526 0.050347 255 220 0
0.627366 0.099507 0.067639 255 220 0
0.633433 0.097109 0.068257 255 220 0
0.570358 0.048215 0.040411 255 220 0
0.594606 0.020711 0.011867 255 220 0
0.608819 -0.005625 0.021164 255 220 0
0.591694 -0.014146 0.091380 255 220 0
0.577716 0.052253 0.076321 255 220 0
0.546964 -0.029613 0.042781 255 220 0
0.546468 -0.036878 0.017318 255 220 0
0.598430 -0.028867 0.023946 255 220 0
0.645648 0.023240 0.053848 255 220 0
0.553268 -0.011238 0.046211 255 220 0
0.601177 -0.040987 0.037847 255 220 0
0.599682 0.075580 0.091549 255 220 0
0.636762 0.063960 0.092120 255 220 0
0.603704 0.075476 0.026395 255 220 0
0.582913 0.015680 0.090470 255 220 0
0.576225 0.005383 0.084861 255 220 0
0.638583 0.092485 0.072620 255 220 0
0.647813 0.040737 0.073858 255 220 0
0.641726 0.023350 0.041550 255 220 0
0.607762 0.068141 0.021966 255 220 0
0.635216 0.040358 0.029116 255 220 0
0.582231 0.012133 0.089921 255 220 0
0.638506 0.011068 0.076904 255 220 0
0.598212 0.070508 0.023938 255 220 0
0.634655 -0.002763 0.053762 255 220 0
0.649416 0.037949 0.057384 255 220 0
0.641253 0.041262 0.086742 255 220 0
0.625226 0.041966 0.099475 255 220 0
0.575827 0.042666 0.077609 255 220 0
0.578256 0.052852 0.077106 255 220 0
0.583157 0.016923 0.090654 255 220 0
0.628677 0.027498 0.025060 255 220 0
0.607311 -0.034324 0.070847 255 220 0
0.616320 0.023099 0.018337 255 220 0
0.589272 -0.037461 0.078555 255 220 0
0.641625 0.056356 0.038367 255 220 0
0.600052 -0.044791 0.043783 255 220 0
0.640279 0.008402 0.052887 255 220 0
0.615070 0.099727 0.063135 255 220 0
0.609747 -0.027199 0.033240 255 220 0
0.625082 0.099953 0.063660 255 220 0
0.552098 -0.031948 0.015513 255 220 0
0.592277 -0.020424 0.017316 255 220 0
0.564663 -0.009575 0.016342 255 220 0
0.553180 -0.010216 0.044548 255 220 0
0.621376 0.064475 0.024468 255 220 0
0.635638 0.027208 0.031461 255 220 0
0.556046 -0.017837 0.056533 255 220 0
0.610766 -0.034802 0.045869 255 220 0
0.591038 0.064249 0.022899 255 220 0
0.563858 0.011058 0.023545 255 220 0
0.614293 0.087756 0.035996 255 220 0
0.572440 -0.053984 0.023630 255 220 0
0.637832 0.063710 0.035643 255 220 0
0.603013 0.067210 0.021296 255 220 0
0.633900 0.021532 0.090368 255 220 0
0.605880 0.014583 0.015161 255 220 0
0.543323 -0.047406 0.042107 255 220 0
0.560571 -0.013921 0.063643 255 220 0
0.570221 0.024216 0.020458 255 220 0
0.646771 0.025542 0.058486 255 220 0
0.648577 0.048606 0.073644 255 220 0
0.592462 -0.031535 0.021354 255 220 0
0.592161 0.079169 0.081522 255 220 0
0.543670 -0.033870 0.038609 255 220 0
0.594721 0.014930 0.012278 255 220 0
0.593439 0.017095 0.011979 255 220 0
0.643568 0.027656 0.043017 255 220 0
0.587754 0.080806 0.047163 255 220 0
0.637143 0.022692 0.034670 255 220 0
0.576908 0.059197 0.035048 255 220 0
0.605530 0.049313 0.015415 255 220 0
0.632948 0.096087 0.073827 255 220 0
0.598616 -0.012908 0.093575 255 220 0
0.614711 0.058007 0.100934 255 220 0
0.582541 0.063599 0.029917 255 220 0
0.646496 0.043618 0.078098 255 220 0
0.623463 0.098950 0.073949 255 220 0
0.627117 0.066345 0.028225 255 220 0
0.555026 -0.005025 0.046379 255 220 0
0.577855 0.056353 0.029975 255 220 0
0.594857 -0.008732 0.094039 255 220 0
0.569599 0.022960 0.020717 255 220 0
0.584885 0.039613 0.090599 255 220 0
0.624377 0.099654 0.060984 255 220 0
0.621456 -0.018287 0.073363 255 220 0
0.556343 -0.002120 0.029581 255 220 0
0.627773 -0.011618 0.069583 255 220 0
0.576841 0.025963 0.015804 255 220 0
0.616594 0.002441 0.023250 255 220 0
0.565667 -0.063184 0.038431 255 220 0
0.556610 -0.012477 0.056148 255 220 0
0.615322 -0.003109 0.024326 255 220 0
0.579499 0.045435 0.083214 255 220 0
0.566721 -0.000083 0.072617 255 220 0
0.572263 0.042819 0.027805 255 220 0
0.589974 0.084197 0.065056 255 220 0
0.579012 -0.013995 0.084941 255 220 0
0.613184 0.065216 0.099969 255 220 0
0.572386 0.034556 0.022287 255 220 0
0.646459 0.036752 0.076074 255 220 0
0.648320 0.056257 0.051097 255 220 0
0.566130 0.027099 0.028245 255 220 0
0.592072 0.040159 0.096069 255 220 0
0.540745 -0.037541 0.026470 255 220 0
0.555287 -0.047819 0.014786 255 220 0
0.611877 0.087293 0.035475 255 220 0
0.590484 0.083508 0.046971 255 220 0
0.580386 -0.006559 0.087212 255 220 0
0.552067 -0.015106 0.025172 255 220 0
0.609983 -0.018300 0.088544 255 220 0
0.607488 0.064340 0.099445 255 220 0
0.614220 -0.030413 0.064706 255 220 0
0.576796 -0.056178 0.060042 255 220 0
0.546567 -0.032110 0.019382 255 220 0
0.590182 -0.033773 0.081386 255 220 0
0.571170 -0.049526 0.064485 255 220 0
0.563574 -0.003972 0.018638 255 220 0
0.558786 0.008849 0.047434 255 220 0
0.584880 0.008700 0.012519 255 220 0
0.600236 0.047041 0.014546 255 220 0
0.602920 0.028039 0.101482 255 220 0
0.608234 0.097150 0.057722 255 220 0
0.638815 0.085867 0.050252 255 220 0
0.576891 0.061418 0.038322 255 220 0
0.578452 0.068806 0.052420 255 220 0
0.590871 -0.048271 0.065853 255 220 0
0.621577 0.020520 0.021587 255 220 0
0.590768 0.078801 0.037256 255 220 0
0.580295 -0.055900 0.033567 255 220 0
0.554185 -0.056839 0.048223 255 220 0
0.579674 0.047993 0.082477 255 220 0
0.588380 0.075765 0.079293 255 220 0
0.597985 -0.020441 0.090225 255 220 0
0.561845 -0.018194 0.015404 255 220 0
0.579436 -0.045890 0.021191 255 220 0
0.646536 0.025463 0.056084 255 220 0
0.627670 -0.012909 0.066812 255 220 0
0.563204 -0.012199 0.067872 255 220 0
0.645042 0.073848 0.051423 255 220 0
0.618398 -0.012165 0.031371 255 220 0
0.571983 0.051100 0.061467 255 220 0
0.587028 -0.042218 0.023661 255 220 0
0.547586 -0.040181 0.015879 255 220 0
0.591482 -0.050930 0.040520 255 220 0
0.629440 0.055361 0.025873 255 220 0
0.636572 0.086718 0.083291 255 220 0
0.566913 0.037043 0.055657 255 220 0
0.595264 0.074338 0.028182 255 220 0
0.594419 -0.001558 0.095489 255 220 0
0.641605 0.011320 0.066118 255 220 0
0.630140 0.003883 0.084901 255 220 0
0.617695 -0.014664 0.032334 255 220 0
0.590497 0.070462 0.086600 255 220 0
0.612625 0.019941 0.100940 255 220 0
0.587289 -0.051357 0.034088 255 220 0
0.610877 0.061384 0.100475 255 220 0
0.589013 0.048066 0.092845 255 220 0
0.625650 0.093095 0.046383 255 220 0
0.623475 0.010868 0.094579 255 220 0
0.572551 0.055797 0.053048 255 220 0
0.644386 0.028381 0.077115 255 220 0
0.606312 0.052788 0.100802 255 220 0
0.621505 0.097321 0.077864 255 220 0
0.585965 0.034346 0.092108 255 220 0
0.630797 0.035299 0.025588 255 220 0
0.635153 0.068093 0.092852 255 220 0
0.560015 -0.002632 0.060141 255 220 0
0.565360 -0.031697 0.069207 255 220 0
0.547050 -0.047862 0.016868 255 220 0
0.603501 0.030624 0.013006 255 220 0
0.580679 -0.006317 0.012896 255 220 0
0.587767 -0.035196 0.020236 255 220 0
0.597023 -0.043231 0.068322 255 220 0
0.543573 -0.053461 0.038391 255 220 0
0.611044 -0.002659 0.096259 255 220 0
0.606192 0.003651 0.017427 255 220 0
0.619108 -0.008895 0.088104 255 220 0
0.554154 -0.049043 0.015261 255 220 0
0.566222 -0.017214 0.072593 255 220 0
0.560544 -0.062116 0.046049 255 220 0
0.565275 0.019037 0.064888 255 220 0
0.597370 0.001830 0.014503 255 220 0
0.598768 0.045815 0.099126 255 220 0
0.624667 0.060124 0.024548 255 220 0
0.649978 0.052453 0.068994 255 220 0
0.614446 0.094669 0.045912 255 220 0
0.579403 -0.019412 0.013459 255 220 0
0.592055 0.077163 0.083437 255 220 0
0.628803 -0.005082 0.077851 255 220 0
0.604366 -0.019131 0.090383 255 220 0
0.561643 0.010717 0.058945 255 220 0
0.594106 -0.031701 0.022465 255 220 0
0.621335 0.093322 0.083906 255 220 0
0.613995 0.006461 0.020551 255 220 0
0.619583 -0.005729 0.028767 255 220 0
0.592692 0.084830 0.045163 255 220 0
0.574564 -0.009010 0.082464 255 220 0
0.565514 -0.012262 0.015320 255 220 0
0.560501 0.014078 0.050961 255 220 0
0.565320 0.033052 0.051355 255 220 0
0.585676 0.079092 0.049594 255 220 0
0.636079 0.015045 0.036552 255 220 0
0.619658 0.086185 0.035641 255 220 0
0.650405 0.044142 0.062613 255 220 0
0.607872 -0.038418 0.057411 255 220 0
0.564603 0.014215 0.023808 255 220 0
0.629125 -0.005466 0.076657 255 220 0
0.559966 -0.005890 0.021060 255 220 0
0.571619 0.024394 0.019140 255 220 0
0.561764 -0.009963 0.065081 255 220 0
0.582560 0.041214 0.088128 255 220 0
0.593300 0.060253 0.093417 255 220 0
0.553092 -0.045699 0.014376 255 220 0
0.647525 0.035234 0.072075 255 220 0
0.643412 0.027473 0.078863 255 220 0
0.627847 0.070222 0.030304 255 220 0
0.628673 0.099207 0.065853 255 220 0
0.553593 -0.020113 0.019633 255 220 0
0.546817 -0.025735 0.039252 255 220 0
0.641874 0.022206 0.042497 255 220 0
0.578736 0.064846 0.038697 255 220 0
0.567204 -0.013347 0.014512 255 220 0
0.593479 -0.008664 0.093594 255 220 0
0.573161 0.030454 0.077575 255 220 0
0.570277 0.024047 0.074048 255 220 0
0.566692 -0.026200 0.013157 255 220 0
0.594505 0.086976 0.046893 255 220 0
0.617344 0.070927 0.025562 255 220 0
0.591509 0.081369 0.077408 255 220 0
0.567819 -0.011093 0.014705 255 220 0
0.567041 0.039714 0.048571 255 220 0
0.620127 -0.010621 0.032245 255 220 0
0.625751 0.086342 0.038551 255 220 0
0.649126 0.041850 0.069645 255 220 0
0.563053 -0.004033 0.066433 255 220 0
0.543200 -0.040156 0.041396 255 220 0
0.559579 0.010000 0.051179 255 220 0
0.600096 0.052080 0.015817 255 220 0
0.607319 -0.001432 0.019170 255 220 0
0.576410 0.022814 0.084143 255 220 0
0.572520 0.041047 0.071355 255 220 0
0.580561 0.055555 0.025573 255 220 0
0.602410 0.023347 0.013005 255 220 0
0.545384 -0.051834 0.043066 255 220 0
0.624806 -0.006074 0.034725 255 220 0
0.612004 0.085788 0.034031 255 220 0
0.578943 0.055454 0.027508 255 220 0
0.650313 0.057286 0.058834 255 220 0
0.577107 0.012073 0.085624 255 220 0
0.573220 0.057174 0.046575 255 220 0
0.546632 -0.025823 0.024618 255 220 0
0.623828 0.055938 0.099418 255 220 0
0.627362 0.082091 0.036334 255 220 0
0.645689 0.051255 0.044343 255 220 0
0.623472 -0.020850 0.059343 255 220 0
0.563632 0.001792 0.066430 255 220 0
0.569966 0.029066 0.071338 255 220 0
0.588929 0.081850 0.069475 255 220 0
0.589160 0.029737 0.012350 255 220 0
0.588358 0.070890 0.030205 255 220 0
0.606279 -0.033420 0.074275 255 220 0
0.603735 -0.041701 0.044893 255 220 0
0.574548 0.039942 0.076266 255 220 0
0.590533 0.025317 0.011873 255 220 0
0.588855 -0.042247 0.025096 255 220 0
0.618798 0.046578 0.101277 255 220 0
0.625509 -0.017409 0.051268 255 220 0
0.543523 -0.031567 0.035430 255 220 0
0.615514 0.031964 0.017020 255 220 0
0.605145 0.093726 0.048360 255 220 0
0.576439 0.064825 0.053908 255 220 0
0.637688 0.024610 0.034676 255 220 0
0.625366 0.097513 0.077009 255 220 0
0.545420 -0.025783 0.030400 255 220 0
0.595407 0.067784 0.023069 255 220 0
0.605644 0.090126 0.081806 255 220 0
0.643608 0.032094 0.080593 255 220 0
0.627970 0.075605 0.094940 255 220 0
0.593530 -0.050926 0.049260 255 220 0
0.637334 0.014688 0.038657 255 220 0
0.624314 0.057647 0.099156 255 220 0
0.629907 -0.006916 0.044326 255 220 0
0.635804 0.000025 0.066261 255 220 0
0.621163 -0.018989 0.041609 255 220 0
0.557554 -0.009456 0.057115 255 220 0
0.587129 -0.054879 0.044813 255 220 0
0.619995 0.100175 0.062307 255 220 0
0.554010 -0.014518 0.051051 255 220 0
0.586130 -0.051295 0.064474 255 220 0
0.565091 -0.062328 0.033345 255 220 0
0.591720 0.086008 0.052199 255 220 0
0.568080 0.003838 0.017530 255 220 0
0.636684 0.094823 0.061857 255 220 0
0.625511 -0.005291 0.083261 255 220 0
0.601611 0.044699 0.100328 255 220 0
0.566913 0.039127 0.042848 255 220 0
0.623807 0.000253 0.029706 255 220 0
0.618100 -0.025005 0.044091 255 220 0
0.592076 0.049519 0.016177 255 220 0
0.594265 -0.012154 0.016069 255 220 0
0.597532 0.007991 0.098066 255 220 0
0.577571 0.045774 0.079613 255 220 0
0.622064 0.069562 0.098301 255 220 0
0.620869 0.043597 0.100935 255 220 0
0.556982 0.003172 0.035670 255 220 0
0.570615 -0.041924 0.068817 255 220 0
0.612852 0.079471 0.029212 255 220 0
0.594545 -0.041704 0.029996 255 220 0
0.568445 -0.007222 0.075850 255 220 0
0.581537 0.043113 0.018147 255 220 0
0.618456 0.087952 0.036894 255 220 0
0.568230 0.042689 0.053751 255 220 0
0.599907 0.011708 0.013682 255 220 0
0.588319 0.076573 0.037404 255 220 0
0.600665 0.024323 0.100721 255 220 0
0.608830 -0.024183 0.084156 255 220 0
0.568713 -0.032405 0.013357 255 220 0
0.644415 0.017989 0.064847 255 220 0
0.581593 -0.036422 0.077299 255 220 0
0.642064 0.050655 0.086683 255 220 0
0.638892 0.022599 0.084537 255 220 0
0.637436 0.006217 0.073314 255 220 0
0.560538 0.014955 0.034847 255 220 0
0.578265 0.064567 0.067262 255 220 0
0.600920 -0.045048 0.049036 255 220 0
0.623928 -0.019039 0.064402 255 220 0
0.611615 0.092883 0.081656 255 220 0
0.545648 -0.056428 0.037922 255 220 0
0.593322 -0.046341 0.034261 255 220 0
0.645928 0.036864 0.044444 255 220 0
0.577070 0.021574 0.085010 255 220 0
0.566155 0.006059 0.070576 255 220 0
0.551980 -0.016128 0.046335 255 220 0
0.608143 -0.024528 0.084364 255 220 0
0.594107 -0.050417 0.047445 255 220 0
0.605731 -0.020548 0.089045 255 220 0
0.642334 0.011981 0.057939 255 220 0
0.563105 0.005553 0.064492 255 220 0
0.557787 -0.015598 0.059122 255 220 0
0.600920 0.013054 0.013763 255 220 0
0.549443 -0.059718 0.030141 255 220 0
0.625400 0.067648 0.097780 255 220 0
0.603109 0.076172 0.093217 255 220 0
0.570921 -0.002374 0.079124 255 220 0
0.578162 -0.057643 0.034968 255 220 0
0.604572 0.057484 0.099815 255 220 0
0.603757 0.082686 0.089001 255 220 0
0.591086 0.082645 0.043383 255 220 0
0.607012 -0.001669 0.019079 255 220 0
0.628213 0.048873 0.023838 255 220 0
0.552324 -0.039504 0.053702 255 220 0
0.598512 -0.045877 0.059061 255 220 0
0.573658 0.026611 0.079701 255 220 0
0.564671 -0.015230 0.070457 255 220 0
0.569635 -0.026655 0.013100 255 220 0
0.604930 -0.003186 0.097128 255 220 0
0.617767 0.075414 0.097086 255 220 0
0.580078 -0.011856 0.086081 255 220 0
0.610465 0.094341 0.046149 255 220 0
0.636634 0.008685 0.078471 255 220 0
0.635038 0.018599 0.033580 255 220 0
0.557045 -0.022552 0.059009 255 220 0
0.586110 0.044048 0.016277 255 220 0
0.603232 0.095052 0.058639 255 220 0
0.629312 -0.004834 0.040503 255 220 0
0.601790 0.015305 0.100163 255 220 0
0.578008 0.025315 0.015087 255 220 0
0.616416 0.058706 0.020452 255 220 0
0.591678 -0.029454 0.019997 255 220 0
0.591013 -0.052006 0.043263 255 220 0
0.590590 0.085323 0.055147 255 220 0
0.595656 0.087889 0.046954 255 220 0
0.606839 -0.037523 0.042234 255 220 0
0.624959 0.067365 0.027422 255 220 0
0.584079 0.063101 0.082310 255 220 0
0.568989 -0.011138 0.076455 255 220 0
0.572709 -0.008634 0.080781 255 220 0
0.605411 0.051857 0.015972 255 220 0
0.627946 0.098730 0.071480 255 220 0
0.583127 0.052940 0.021639 255 220 0
0.630948 0.022315 0.028049 255 220 0
0.636064 0.087062 0.047887 255 220 0
0.634522 0.047353 0.094131 255 220 0
0.635835 0.027802 0.090373 255 220 0
0.618074 -0.006027 0.027592 255 220 0
0.614290 0.063321 0.021331 255 220 0
0.570674 0.050127 0.055058 255 220 0
0.579981 0.041711 0.085078 255 220 0
0.562299 0.022653 0.047970 255 220 0
0.627086 0.034926 0.022945 255 220 0
0.610194 0.078929 0.094444 255 220 0
0.642423 0.060272 0.040559 255 220 0
0.644598 0.049505 0.082717 255 220 0
0.603309 0.047578 0.100586 255 220 0
0.628196 0.098916 0.061464 255 220 0
0.623753 0.100248 0.066445 255 220 0
0.587199 0.053677 0.090065 255 220 0
0.590972 -0.012944 0.015114 255 220 0
0.616095 0.034776 0.102128 255 220 0
0.587865 0.081191 0.048041 255 220 0
0.637280 0.001496 0.058206 255 220 0
0.622415 0.058241 0.099677 255 220 0
0.600783 0.033480 0.100820 255 220 0
0.591266 0.065948 0.023822 255 220 0
0.576468 0.036567 0.019108 255 220 0
0.631817 0.033396 0.026650 255 220 0
0.602861 -0.020741 0.089734 255 220 0
0.600845 -0.022052 0.022323 255 220 0
0.619573 0.075311 0.097025 255 220 0
0.633123 0.018657 0.031335 255 220 0
0.620731 0.091926 0.085509 255 220 0
0.564184 -0.023969 0.069467 255 220 0
0.606030 0.031765 0.102150 255 220 0
0.595537 0.022408 0.011883 255 220 0
0.642669 0.068117 0.085243 255 220 0
0.572548 -0.007773 0.080699 255 220 0
0.645433 0.068919 0.080258 255 220 0
0.566405 0.028024 0.028311 255 220 0
0.608025 0.028221 0.014343 255 220 0
0.641607 0.037761 0.036778 255 220 0
0.635604 0.072321 0.037234 255 220 0
0.584286 0.077007 0.064626 255 220 0
0.600174 -0.044810 0.058183 255 220 0
0.596748 -0.044580 0.036599 255 220 0
0.640101 0.066224 0.039308 255 220 0
0.602405 -0.042431 0.043270 255 220 0
0.603670 0.094644 0.068766 255 220 0
0.571401 0.032297 0.073050 255 220 0
0.550750 -0.013512 0.033552 255 220 0
0.581168 -0.010956 0.086949 255 220 0
0.584468 0.077735 0.062619 255 220 0
0.616282 0.050394 0.101426 255 220 0
0.609005 -0.030937 0.074648 255 220 0
0.631872 0.000845 0.079237 255 220 0
0.633400 0.071922 0.093267 255 220 0
0.570181 -0.054276 0.060294 255 220 0
0.635479 0.011486 0.083010 255 220 0
0.632978 -0.001317 0.044042 255 220 0
0.587604 0.027859 0.012398 255 220 0
0.547896 -0.024445 0.041265 255 220 0
0.603547 -0.042764 0.049201 255 220 0
0.630752 0.025734 0.027076 255 220 0
0.646300 0.024242 0.065458 255 220 0
0.595430 0.063681 0.093883 255 220 0
0.596704 0.023963 0.011966 255 220 0
0.578076 -0.035101 0.015887 255 220 0
0.609356 0.097128 0.070465 255 220 0
0.593936 -0.006695 0.014907 255 220 0
0.603576 0.051710 0.015770 255 220 0
0.646551 0.036051 0.046230 255 220 0
0.584589 0.047723 0.018297 255 220 0
0.622503 -0.022369 0.057134 255 220 0
