ply
format ascii 1.0
element vertex 1024
property float x
property float y
property float z
property uchar red
property uchar green
property uchar blue
end_header
0.627773 0.012142 0.028215 255 220 0
0.585546 -0.054992 0.042914 255 220 0
0.624125 0.005694 0.027514 255 220 0
0.571636 0.049148 0.061188 255 220 0
0.645045 0.079949 0.076432 255 220 0
0.613376 -0.025025 0.077147 255 220 0
0.571455 0.042491 0.067275 255 220 0
0.606196 0.065166 0.098560 255 220 0
0.617824 0.096715 0.076999 255 220 0
0.626707 -0.012253 0.071100 255 220 0
0.593281 -0.046452 0.035469 255 220 0
0.570646 -0.000572 0.079196 255 220 0
0.600892 0.092229 0.052481 255 220 0
0.620336 0.079468 0.030935 255 220 0
0.566930 0.030980 0.062185 255 220 0
0.601177 0.069990 0.023036 255 220 0
0.624979 -0.018625 0.057295 255 220 0
0.582331 -0.031280 0.080857 255 220 0
0.584831 -0.031609 0.017750 255 220 0
0.585460 -0.016702 0.014384 255 220 0
0.567029 0.038514 0.051578 255 220 0
0.629889 0.093194 0.049399 255 220 0
0.634579 0.006442 0.080289 255 220 0
0.637477 0.001716 0.058526 255 220 0
0.631549 -0.002546 0.042344 255 220 0
0.561102 0.017782 0.049209 255 220 0
0.604461 0.027067 0.013174 255 220 0
0.565299 -0.048461 0.062482 255 220 0
0.569003 0.036851 0.064273 255 220 0
0.588421 -0.010579 0.091304 255 220 0
0.580353 -0.027646 0.015035 255 220 0
0.604955 0.019642 0.101186 255 220 0
0.577330 0.060337 0.068021 255 220 0
0.571629 0.039658 0.069553 255 220 0
0.650903 0.046892 0.063356 255 220 0
0.641372 0.063521 0.039356 255 220 0
0.621348 0.098280 0.055925 255 220 0
0.603824 0.003354 0.098734 255 220 0
0.545748 -0.055194 0.041152 255 220 0
0.552487 -0.060069 0.027946 255 220 0
0.626949 0.067549 0.028325 255 220 0
0.630296 0.001168 0.036792 255 220 0
0.584241 0.046358 0.018010 255 220 0
0.639584 0.056194 0.034894 255 220 0
0.581640 0.071790 0.064349 255 220 0
0.639222 0.011221 0.075595 255 220 0
0.573529 0.032018 0.019998 255 220 0
0.594580 0.079617 0.083134 255 220 0
0.619976 0.022483 0.099641 255 220 0
0.608034 0.063502 0.099444 255 220 0
0.633832 0.055332 0.028770 255 220 0
0.607886 -0.038161 0.049043 255 220 0
0.637706 0.080171 0.086924 255 220 0
0.641612 0.080391 0.048805 255 220 0
0.631198 -0.007546 0.066374 255 220 0
0.602965 0.024478 0.012943 255 220 0
0.569921 0.002750 0.077996 255 220 0
0.539044 -0.039138 0.030350 255 220 0
0.546295 -0.043991 0.016207 255 220 0
0.577588 0.035265 0.017854 255 220 0
0.601275 0.032113 0.100964 255 220 0
0.617228 0.050042 0.101234 255 220 0
0.561216 -0.002874 0.020826 255 220 0
0.617041 -0.028648 0.051703 255 220 0
0.643123 0.078284 0.049732 255 220 0
0.610086 0.080780 0.029961 255 220 0
0.585263 -0.044427 0.072603 255 220 0
0.555713 -0.062616 0.034288 255 220 0
0.548110 -0.023921 0.022540 255 220 0
0.633402 0.081341 0.040016 255 220 0
0.542129 -0.036339 0.021777 255 220 0
0.576416 0.044513 0.023257 255 220 0
0.633342 0.071159 0.034290 255 220 0
0.635913 -0.000997 0.056793 255 220 0
0.572127 -0.056661 0.027553 255 220 0
0.646397 0.051453 0.080152 255 220 0
0.619546 -0.020492 0.073183 255 220 0
0.646663 0.032146 0.073756 255 220 0
0.596087 -0.019972 0.090478 255 220 0
0.591036 0.043657 0.094761 255 220 0
0.562783 0.024937 0.041861 255 220 0
0.609408 0.090149 0.039588 255 220 0
0.613479 0.072568 0.025099 255 220 0
0.626421 0.098389 0.058350 255 220 0
0.581339 0.072390 0.059650 255 220 0
0.625028 0.063540 0.098378 255 220 0
0.590395 -0.046723 0.068282 255 220 0
0.556815 -0.051102 0.016541 255 220 0
0.567528 -0.016278 0.013878 255 220 0
0.576959 0.053479 0.029345 255 220 0
0.580720 0.052516 0.081549 255 220 0
0.610203 -0.031491 0.039426 255 220 0
0.584913 -0.013386 0.013762 255 220 0
0.590200 -0.049117 0.035475 255 220 0
0.573296 0.038216 0.023308 255 220 0
0.602611 0.035859 0.012917 255 220 0
0.593374 -0.035277 0.080414 255 220 0
0.595479 -0.025682 0.020928 255 220 0
0.562411 -0.048729 0.060482 255 220 0
0.610125 0.013516 0.100113 255 220 0
0.644933 0.019244 0.065666 255 220 0
0.569567 0.028344 0.022996 255 220 0
0.644697 0.034025 0.042026 255 220 0
0.625132 0.000435 0.088338 255 220 0
0.637110 0.002766 0.049985 255 220 0
0.580110 0.066201 0.069337 255 220 0
0.592212 -0.049530 0.060214 255 220 0
0.592995 -0.032944 0.022787 255 220 0
0.584845 -0.000708 0.012752 255 220 0
0.557470 -0.030766 0.061231 255 220 0
0.618407 0.071762 0.098065 255 220 0
0.563635 -0.002660 0.018780 255 220 0
0.606545 0.013347 0.100383 255 220 0
0.573817 0.055811 0.040956 255 220 0
0.597852 -0.046731 0.046254 255 220 0
0.566072 0.032476 0.057073 255 220 0
0.575424 0.029481 0.081687 255 220 0
0.595519 -0.008460 0.094536 255 220 0
0.627800 0.074853 0.095153 255 220 0
0.557624 -0.028162 0.014298 255 220 0
0.622292 -0.003972 0.088295 255 220 0
0.598699 0.047611 0.014636 255 220 0
0.645276 0.041037 0.042057 255 220 0
0.641328 0.019279 0.042780 255 220 0
0.635487 0.048670 0.029126 255 220 0
0.580850 -0.003520 0.012865 255 220 0
0.577066 0.041552 0.080210 255 220 0
0.573971 0.047441 0.029089 255 220 0
0.614335 0.058005 0.019355 255 220 0
0.616748 -0.025119 0.070434 255 220 0
0.570276 0.029064 0.071883 255 220 0
0.605415 0.006842 0.016380 255 220 0
0.645772 0.046121 0.043202 255 220 0
0.581057 0.021352 0.088874 255 220 0
0.602199 0.021873 0.012940 255 220 0
0.600757 0.088181 0.041718 255 220 0
0.638732 0.004095 0.060564 255 220 0
0.547245 -0.020751 0.029268 255 220 0
0.632516 0.033285 0.094731 255 220 0
0.650498 0.042797 0.063956 255 220 0
0.598138 -0.020432 0.020376 255 220 0
0.603115 0.073852 0.025361 255 220 0
0.628196 -0.000832 0.035376 255 220 0
0.584398 -0.037833 0.077684 255 220 0
0.630243 0.088961 0.043998 255 220 0
0.642074 0.020406 0.077619 255 220 0
0.543976 -0.053950 0.039723 255 220 0
0.633589 0.090329 0.082367 255 220 0
0.574439 0.013791 0.082874 255 220 0
0.561852 -0.000639 0.064028 255 220 0
0.593819 0.034028 0.012325 255 220 0
0.642140 0.011531 0.055882 255 220 0
0.647140 0.079239 0.064967 255 220 0
0.587931 0.079669 0.069321 255 220 0
0.549325 -0.025610 0.047035 255 220 0
0.632217 0.035119 0.026482 255 220 0
0.587349 0.068977 0.082661 255 220 0
0.624308 -0.013323 0.075010 255 220 0
0.602205 0.079292 0.030001 255 220 0
0.552599 -0.042247 0.013957 255 220 0
0.605625 0.039279 0.013733 255 220 0
0.569438 0.045743 0.042705 255 220 0
0.618862 -0.026716 0.054950 255 220 0
0.591964 0.060984 0.091647 255 220 0
0.578784 0.048882 0.023364 255 220 0
0.584395 -0.000351 0.090821 255 220 0
0.571057 0.034330 0.071089 255 220 0
0.630372 0.045466 0.024666 255 220 0
0.625491 -0.011876 0.074724 255 220 0
0.645854 0.067093 0.048304 255 220 0
0.581100 -0.055126 0.034380 255 220 0
0.594435 -0.029708 0.084763 255 220 0
0.592727 0.002121 0.013335 255 220 0
0.580349 -0.057953 0.043635 255 220 0
0.614622 0.098537 0.058555 255 220 0
0.630168 0.003305 0.084403 255 220 0
0.594348 -0.043638 0.032832 255 220 0
0.601857 0.026818 0.101155 255 220 0
0.545765 -0.051476 0.044815 255 220 0
0.637393 0.051527 0.031428 255 220 0
0.549218 -0.015885 0.032807 255 220 0
0.635150 0.001191 0.046056 255 220 0
0.614249 -0.026260 0.073489 255 220 0
0.539463 -0.048471 0.035315 255 220 0
0.630082 0.038998 0.024456 255 220 0
0.626263 0.098622 0.059030 255 220 0
0.629740 0.075424 0.094183 255 220 0
0.565626 -0.035841 0.068702 255 220 0
0.570010 -0.061754 0.040854 255 220 0
0.640766 0.008301 0.062187 255 220 0
0.565759 -0.020653 0.013705 255 220 0
0.629686 0.054918 0.097143 255 220 0
0.650849 0.049025 0.057974 255 220 0
0.551469 -0.044764 0.053372 255 220 0
0.582977 0.043760 0.017658 255 220 0
0.595102 0.045040 0.097177 255 220 0
0.598645 0.069346 0.023178 255 220 0
0.620301 -0.022809 0.066291 255 220 0
0.640427 0.029936 0.036233 255 220 0
0.602846 0.074736 0.026070 255 220 0
0.644066 0.016685 0.065278 255 220 0
0.598919 0.036270 0.012567 255 220 0
0.587891 -0.047527 0.068637 255 220 0
0.554760 -0.011614 0.052634 255 220 0
0.628262 0.038837 0.023218 255 220 0
0.568161 -0.019284 0.075335 255 220 0
0.635108 0.094829 0.073621 255 220 0
0.628754 -0.009459 0.070767 255 220 0
0.615285 0.033442 0.102183 255 220 0
0.576920 -0.039262 0.074078 255 220 0
0.546284 -0.033365 0.018265 255 220 0
0.600255 -0.042019 0.065053 255 220 0
0.618199 0.041179 0.017862 255 220 0
0.564205 -0.056775 0.055548 255 220 0
0.569149 0.028920 0.023898 255 220 0
0.605319 0.055933 0.016941 255 220 0
0.586143 0.079243 0.061497 255 220 0
0.642801 0.063858 0.041582 255 220 0
0.647686 0.030025 0.067657 255 220 0
0.540042 -0.043374 0.022885 255 220 0
0.586647 0.067021 0.028774 255 220 0
0.637112 0.072409 0.090616 255 220 0
0.550631 -0.013063 0.037840 255 220 0
0.646633 0.060986 0.079900 255 220 0
0.623691 0.011017 0.025263 255 220 0
0.542577 -0.032449 0.024611 255 220 0
0.592665 -0.018327 0.017092 255 220 0
0.593204 0.040225 0.013432 255 220 0
0.553605 -0.005615 0.034225 255 220 0
0.592185 -0.025149 0.087275 255 220 0
0.640797 0.008151 0.059335 255 220 0
0.598061 -0.017899 0.091631 255 220 0
0.615237 0.035567 0.102223 255 220 0
0.641778 0.071616 0.086080 255 220 0
0.564147 0.007803 0.066538 255 220 0
0.619294 0.044447 0.101227 255 220 0
0.542709 -0.040039 0.019335 255 220 0
0.636828 0.091035 0.078442 255 220 0
0.552851 -0.044748 0.014241 255 220 0
0.546265 -0.034567 0.045313 255 220 0
0.563408 -0.051072 0.059658 255 220 0
0.574017 0.020593 0.016473 255 220 0
0.563381 0.008848 0.064587 255 220 0
0.566524 -0.024289 0.072764 255 220 0
0.633996 0.009435 0.083834 255 220 0
0.539587 -0.037718 0.028505 255 220 0
0.627189 0.082519 0.036174 255 220 0
0.614138 0.097296 0.053781 255 220 0
0.605422 -0.035823 0.070196 255 220 0
0.541339 -0.033486 0.032207 255 220 0
0.576099 -0.059819 0.043553 255 220 0
0.617979 0.008516 0.022237 255 220 0
0.623411 -0.019441 0.064542 255 220 0
0.592197 0.076471 0.033297 255 220 0
0.595792 0.016480 0.012185 255 220 0
0.554981 -0.052636 0.017374 255 220 0
0.642668 0.024557 0.042286 255 220 0
0.643516 0.079045 0.051062 255 220 0
0.612419 0.096763 0.073279 255 220 0
0.584655 0.061980 0.083074 255 220 0
0.564917 -0.044211 0.015155 255 220 0
0.631752 0.077918 0.036506 255 220 0
0.600069 0.038266 0.012877 255 220 0
0.643587 0.062595 0.042427 255 220 0
0.609481 0.034794 0.014493 255 220 0
0.570605 0.033735 0.024466 255 220 0
0.546551 -0.032260 0.018570 255 220 0
0.608704 0.094039 0.047357 255 220 0
0.621077 0.074547 0.028523 255 220 0
0.539402 -0.049389 0.033963 255 220 0
0.568028 -0.006341 0.075847 255 220 0
0.643779 0.074263 0.048160 255 220 0
0.648383 0.038911 0.072086 255 220 0
0.578275 0.056674 0.073836 255 220 0
0.637165 0.036761 0.031050 255 220 0
0.577520 -0.024748 0.081169 255 220 0
0.640472 0.009618 0.050423 255 220 0
0.573820 0.038476 0.022793 255 220 0
0.643157 0.065526 0.042755 255 220 0
0.576095 0.043760 0.077094 255 220 0
0.641759 0.021919 0.079399 255 220 0
0.549485 -0.057850 0.042659 255 220 0
0.539843 -0.043294 0.023341 255 220 0
0.598998 0.077062 0.029193 255 220 0
0.640182 0.052537 0.089353 255 220 0
0.556435 -0.041627 0.058808 255 220 0
0.645626 0.044116 0.042787 255 220 0
0.632400 0.057824 0.095593 255 220 0
0.572152 0.032338 0.021610 255 220 0
0.575805 -0.017226 0.082367 255 220 0
0.650628 0.052904 0.056911 255 220 0
0.578851 -0.049137 0.067798 255 220 0
0.638164 0.066059 0.090920 255 220 0
0.595548 0.082126 0.037300 255 220 0
0.573286 -0.035415 0.074146 255 220 0
0.541661 -0.042258 0.040810 255 220 0
0.577322 -0.008977 0.085043 255 220 0
0.616005 0.086203 0.089983 255 220 0
0.599497 -0.017467 0.091903 255 220 0
0.587178 0.003810 0.012583 255 220 0
0.544300 -0.027196 0.028007 255 220 0
0.587307 -0.012937 0.014219 255 220 0
0.629331 0.019266 0.027269 255 220 0
0.619447 -0.022480 0.069503 255 220 0
0.639735 0.087783 0.052966 255 220 0
0.641585 0.012730 0.049743 255 220 0
0.636999 0.081257 0.086919 255 220 0
0.612027 0.005983 0.098255 255 220 0
0.601137 -0.043680 0.045277 255 220 0
0.588421 0.021535 0.094430 255 220 0
0.609870 0.067230 0.098928 255 220 0
0.618085 0.046121 0.101367 255 220 0
0.574099 0.040152 0.023423 255 220 0
0.615958 -0.025558 0.071342 255 220 0
0.639901 0.013962 0.076964 255 220 0
0.588638 0.007129 0.093962 255 220 0
0.599322 -0.032772 0.081135 255 220 0
0.597872 -0.002731 0.015512 255 220 0
0.563274 0.012010 0.063187 255 220 0
0.638250 0.064530 0.091003 255 220 0
0.610430 -0.035983 0.054028 255 220 0
0.615584 0.088955 0.087272 255 220 0
0.538295 -0.043759 0.032115 255 220 0
0.573656 0.057587 0.049585 255 220 0
0.583827 0.047494 0.018707 255 220 0
0.590346 0.083327 0.049468 255 220 0
0.584275 -0.012616 0.088710 255 220 0
0.553574 -0.005903 0.040817 255 220 0
0.577796 0.066527 0.053425 255 220 0
0.574090 -0.026193 0.078427 255 220 0
0.610092 0.067791 0.098811 255 220 0
0.549018 -0.023904 0.021290 255 220 0
0.637255 0.010926 0.079643 255 220 0
0.569270 -0.007719 0.077507 255 220 0
0.594889 0.088628 0.059960 255 220 0
0.554769 -0.011663 0.052681 255 220 0
0.560336 -0.008807 0.019106 255 220 0
0.612839 0.057657 0.100828 255 220 0
0.591037 0.014675 0.095820 255 220 0
0.605659 -0.004909 0.096642 255 220 0
0.650651 0.058405 0.059238 255 220 0
0.613226 0.096997 0.073427 255 220 0
0.639511 0.009249 0.047492 255 220 0
0.646190 0.056948 0.045711 255 220 0
0.643953 0.028447 0.078607 255 220 0
0.644271 0.032401 0.079807 255 220 0
0.547872 -0.029683 0.046026 255 220 0
0.642529 0.063601 0.041068 255 220 0
0.645498 0.023432 0.069949 255 220 0
0.539858 -0.046809 0.037328 255 220 0
0.637484 0.081657 0.086261 255 220 0
0.579855 0.039630 0.085155 255 220 0
0.572300 0.036819 0.023828 255 220 0
0.616952 -0.024531 0.071198 255 220 0
0.607319 0.045772 0.014889 255 220 0
0.641376 0.018984 0.078092 255 220 0
0.638200 0.026833 0.034228 255 220 0
0.630632 0.081166 0.091168 255 220 0
0.597745 -0.030617 0.024830 255 220 0
0.546548 -0.042325 0.047762 255 220 0
0.569880 -0.056420 0.058501 255 220 0
0.628605 0.050232 0.097782 255 220 0
0.642514 0.035141 0.083859 255 220 0
0.556803 -0.058527 0.023375 255 220 0
0.625343 0.095808 0.051248 255 220 0
0.587863 -0.030212 0.083433 255 220 0
0.567799 0.006190 0.074125 255 220 0
0.563545 0.020369 0.029332 255 220 0
0.565356 0.023110 0.027182 255 220 0
0.595357 0.087558 0.069873 255 220 0
0.565357 0.027952 0.059127 255 220 0
0.607451 0.096491 0.059451 255 220 0
0.553543 -0.057295 0.022022 255 220 0
0.640272 0.035006 0.034902 255 220 0
0.581255 0.067458 0.071196 255 220 0
0.558204 -0.006532 0.022238 255 220 0
0.590741 -0.034737 0.080936 255 220 0
0.645573 0.052966 0.081881 255 220 0
0.580677 0.068267 0.068099 255 220 0
0.610066 0.093547 0.078262 255 220 0
0.604217 0.090974 0.077711 255 220 0
0.594818 0.023722 0.011715 255 220 0
0.564748 -0.013576 0.071284 255 220 0
0.579701 0.043194 0.019507 255 220 0
0.568034 -0.011052 0.075855 255 220 0
0.578289 0.036291 0.017726 255 220 0
0.586171 0.054648 0.088273 255 220 0
0.648704 0.071211 0.069488 255 220 0
0.576232 -0.016454 0.013084 255 220 0
0.562849 -0.060599 0.028184 255 220 0
0.560009 -0.038563 0.013327 255 220 0
0.609433 0.075973 0.095386 255 220 0
0.573367 -0.059712 0.036284 255 220 0
0.568936 0.013239 0.018707 255 220 0
0.566222 0.036500 0.045464 255 220 0
0.635928 0.041881 0.092826 255 220 0
0.630231 -0.004839 0.075002 255 220 0
0.628466 0.050019 0.023891 255 220 0
0.567497 0.004951 0.073794 255 220 0
0.627874 -0.014238 0.055793 255 220 0
0.596664 0.071114 0.091195 255 220 0
0.600677 0.066713 0.021227 255 220 0
0.623303 0.044274 0.100129 255 220 0
0.586379 0.003994 0.012562 255 220 0
0.561897 0.015901 0.056625 255 220 0
0.631017 0.090306 0.084098 255 220 0
0.573231 0.039856 0.073040 255 220 0
0.571739 0.050495 0.059490 255 220 0
0.625141 -0.018159 0.053460 255 220 0
0.540565 -0.049651 0.037298 255 220 0
0.638143 0.062589 0.035093 255 220 0
0.624443 0.053205 0.022249 255 220 0
0.568254 0.041300 0.055391 255 220 0
0.615490 -0.029116 0.063668 255 220 0
0.637869 0.009112 0.076407 255 220 0
0.608025 -0.007070 0.021275 255 220 0
0.631431 0.092131 0.049039 255 220 0
0.581022 -0.001261 0.012872 255 220 0
0.559741 -0.053215 0.018382 255 220 0
0.558265 -0.009495 0.020587 255 220 0
0.640619 0.010740 0.070495 255 220 0
0.645899 0.061441 0.081344 255 220 0
0.637595 0.002501 0.063819 255 220 0
0.578042 0.057184 0.072935 255 220 0
0.578586 -0.020109 0.013513 255 220 0
0.554134 -0.024543 0.055591 255 220 0
0.597842 0.029151 0.011996 255 220 0
0.637379 0.022220 0.034861 255 220 0
0.618330 0.061398 0.100090 255 220 0
0.569553 0.001374 0.016103 255 220 0
0.596771 0.025888 0.099280 255 220 0
0.592548 0.040651 0.013619 255 220 0
0.560883 0.006286 0.059572 255 220 0
0.586034 0.079310 0.059698 255 220 0
0.578113 0.055509 0.074290 255 220 0
0.570668 -0.059559 0.032138 255 220 0
0.581139 -0.055845 0.036257 255 220 0
0.645554 0.081521 0.073223 255 220 0
0.621517 0.063351 0.023860 255 220 0
0.545701 -0.056289 0.025450 255 220 0
0.570769 0.044211 0.033159 255 220 0
0.600082 0.023864 0.012337 255 220 0
0.620231 0.022366 0.020322 255 220 0
0.636521 0.018945 0.035089 255 220 0
0.570469 0.016035 0.018080 255 220 0
0.604572 -0.040522 0.045460 255 220 0
0.577249 -0.056432 0.032187 255 220 0
0.610282 -0.033889 0.043662 255 220 0
0.581185 -0.057838 0.049080 255 220 0
0.633818 0.076036 0.037134 255 220 0
0.570024 0.031334 0.070234 255 220 0
0.646467 0.024788 0.055150 255 220 0
0.631869 0.078423 0.036890 255 220 0
0.635698 0.032852 0.091847 255 220 0
0.631955 -0.002840 0.073995 255 220 0
0.556626 -0.052842 0.017613 255 220 0
0.637412 0.094060 0.071069 255 220 0
0.566897 0.031133 0.061944 255 220 0
0.618022 -0.026537 0.048116 255 220 0
0.547036 -0.043446 0.048473 255 220 0
0.610922 -0.006814 0.094723 255 220 0
0.565060 0.015089 0.023385 255 220 0
0.602566 -0.030563 0.081720 255 220 0
0.570388 -0.041420 0.015702 255 220 0
0.624518 0.063511 0.098537 255 220 0
0.607364 0.080355 0.029806 255 220 0
0.551713 -0.017532 0.048130 255 220 0
0.598008 0.036982 0.099425 255 220 0
0.551586 -0.012395 0.042361 255 220 0
0.567848 -0.060580 0.031958 255 220 0
0.583823 -0.031272 0.017214 255 220 0
0.616580 0.080418 0.030409 255 220 0
0.549042 -0.040336 0.050727 255 220 0
0.643351 0.024796 0.043616 255 220 0
0.602350 0.082152 0.032703 255 220 0
0.595947 0.089523 0.059632 255 220 0
0.609327 0.049190 0.015892 255 220 0
0.570173 0.047487 0.055510 255 220 0
0.599352 -0.029197 0.025203 255 220 0
0.569443 0.035599 0.027817 255 220 0
0.569457 0.043553 0.058824 255 220 0
0.560876 -0.027658 0.013670 255 220 0
0.625630 -0.015595 0.066970 255 220 0
0.623100 0.005597 0.092853 255 220 0
0.647945 0.068636 0.054247 255 220 0
0.592148 0.003620 0.095480 255 220 0
0.568561 0.042745 0.040556 255 220 0
0.554824 -0.002370 0.041467 255 220 0
0.552132 -0.059778 0.027414 255 220 0
0.641173 0.010626 0.051728 255 220 0
0.595406 -0.025753 0.087354 255 220 0
0.547479 -0.041658 0.048884 255 220 0
0.563985 0.016739 0.025911 255 220 0
0.595057 0.012172 0.097672 255 220 0
0.559838 -0.051825 0.056930 255 220 0
0.625810 -0.007796 0.079848 255 220 0
0.641297 0.060503 0.088198 255 220 0
0.635328 0.060719 0.093588 255 220 0
0.592250 -0.049544 0.040019 255 220 0
0.571302 0.040618 0.068149 255 220 0
0.594023 0.053722 0.017126 255 220 0
0.574948 0.052402 0.032099 255 220 0
0.614862 0.020105 0.017960 255 220 0
0.637915 0.013690 0.039977 255 220 0
0.598188 0.011923 0.013144 255 220 0
0.546219 -0.022912 0.034402 255 220 0
0.591948 -0.041709 0.028077 255 220 0
0.586813 0.079352 0.048538 255 220 0
0.585375 0.000680 0.012703 255 220 0
0.601978 0.031582 0.012589 255 220 0
0.594251 0.082321 0.079278 255 220 0
0.587282 -0.021376 0.087456 255 220 0
0.641361 0.010013 0.054623 255 220 0
0.614781 -0.030931 0.049673 255 220 0
0.633878 0.003494 0.040629 255 220 0
0.573981 0.056469 0.041636 255 220 0
0.559927 0.005265 0.026762 255 220 0
0.566266 -0.040396 0.014394 255 220 0
0.591544 0.017310 0.011805 255 220 0
0.618888 -0.000436 0.025871 255 220 0
0.618200 0.058113 0.020718 255 220 0
0.622899 0.045380 0.100218 255 220 0
0.567155 -0.031920 0.071321 255 220 0
0.628760 0.088938 0.042843 255 220 0
0.600266 -0.017426 0.091920 255 220 0
0.636242 0.076300 0.090008 255 220 0
0.605326 0.044098 0.101245 255 220 0
0.607925 0.049641 0.015712 255 220 0
0.597418 0.090106 0.066294 255 220 0
0.618176 -0.027558 0.056060 255 220 0
0.604878 0.079420 0.091471 255 220 0
0.612555 -0.020769 0.031531 255 220 0
0.632881 0.024215 0.092376 255 220 0
0.568245 0.033482 0.028676 255 220 0
0.639060 0.007307 0.070004 255 220 0
0.596682 0.060393 0.095224 255 220 0
0.569106 -0.013589 0.077017 255 220 0
0.627249 0.003367 0.087996 255 220 0
0.601010 -0.014091 0.019740 255 220 0
0.593098 0.040441 0.013492 255 220 0
0.604240 0.042765 0.101111 255 220 0
0.567882 -0.027537 0.013142 255 220 0
0.619272 -0.016133 0.080295 255 220 0
0.637232 0.003520 0.048862 255 220 0
0.589319 0.052427 0.091852 255 220 0
0.627066 -0.003032 0.035488 255 220 0
0.603799 -0.039542 0.041123 255 220 0
0.580979 0.012771 0.089099 255 220 0
0.566547 0.016180 0.021871 255 220 0
0.610852 -0.031575 0.040699 255 220 0
0.578121 -0.031147 0.015168 255 220 0
0.598622 0.013472 0.099179 255 220 0
0.579461 -0.052665 0.064337 255 220 0
0.592519 0.021895 0.011667 255 220 0
0.647788 0.036780 0.072967 255 220 0
0.587417 -0.032619 0.019337 255 220 0
0.570925 0.021431 0.076338 255 220 0
0.561439 -0.056698 0.054036 255 220 0
0.573580 0.057383 0.049184 255 220 0
0.584815 -0.004495 0.012940 255 220 0
0.612480 0.043406 0.102076 255 220 0
0.563461 -0.060519 0.050729 255 220 0
0.581686 0.008668 0.089583 255 220 0
0.630610 0.098136 0.068614 255 220 0
0.598250 0.079266 0.087166 255 220 0
0.591499 -0.032464 0.082667 255 220 0
0.592111 -0.051381 0.050450 255 220 0
0.603707 -0.007642 0.095873 255 220 0
0.579013 0.068606 0.049969 255 220 0
0.628305 0.099042 0.067345 255 220 0
0.634337 0.096570 0.068004 255 220 0
0.570773 0.048349 0.040095 255 220 0
0.594802 0.020396 0.011804 255 220 0
0.608631 -0.006073 0.021298 255 220 0
0.591065 -0.014025 0.091472 255 220 0
0.578012 0.052472 0.076020 255 220 0
0.546372 -0.029160 0.042734 255 220 0
0.545903 -0.036544 0.017306 255 220 0
0.597932 -0.029166 0.024144 255 220 0
0.645672 0.022480 0.054017 255 220 0
0.552895 -0.010850 0.046104 255 220 0
0.600458 -0.041251 0.038117 255 220 0
0.600203 0.075591 0.091238 255 220 0
0.637127 0.063501 0.092045 255 220 0
0.604532 0.075111 0.026106 255 220 0
0.582672 0.015906 0.090373 255 220 0
0.575879 0.005668 0.084783 255 220 0
0.639407 0.091902 0.072414 255 220 0
0.647966 0.040047 0.073951 255 220 0
0.641810 0.022579 0.041700 255 220 0
0.608517 0.067704 0.021733 255 220 0
0.635578 0.039607 0.029151 255 220 0
0.581947 0.012365 0.089838 255 220 0
0.638265 0.010516 0.077098 255 220 0
0.598988 0.070202 0.023647 255 220 0
0.634347 -0.003381 0.054005 255 220 0
0.649611 0.037157 0.057498 255 220 0
0.641352 0.040720 0.086800 255 220 0
0.625275 0.041693 0.099452 255 220 0
0.575994 0.042916 0.077345 255 220 0
0.578556 0.053068 0.076804 255 220 0
0.582931 0.017147 0.090552 255 220 0
0.628893 0.026812 0.025126 255 220 0
0.606519 -0.034503 0.071113 255 220 0
0.616513 0.022538 0.018366 255 220 0
0.588405 -0.037370 0.078750 255 220 0
0.642147 0.055567 0.038354 255 220 0
0.599255 -0.045010 0.044066 255 220 0
0.640118 0.007707 0.053103 255 220 0
0.616033 0.099397 0.062781 255 220 0
0.609225 -0.027597 0.033484 255 220 0
0.626045 0.099498 0.063353 255 220 0
0.551605 -0.031696 0.015504 255 220 0
0.591919 -0.020678 0.017443 255 220 0
0.564452 -0.009481 0.016283 255 220 0
0.552828 -0.009835 0.044436 255 220 0
0.622070 0.063875 0.024318 255 220 0
0.635820 0.026464 0.031562 255 220 0
0.555538 -0.017432 0.056472 255 220 0
0.610087 -0.035149 0.046155 255 220 0
0.591740 0.064031 0.022605 255 220 0
0.563877 0.011195 0.023381 255 220 0
0.615232 0.087303 0.035698 255 220 0
0.571624 -0.053950 0.023827 255 220 0
0.638462 0.062956 0.035575 255 220 0
0.603759 0.066830 0.021044 255 220 0
0.633730 0.021104 0.090488 255 220 0
0.605980 0.014140 0.015182 255 220 0
0.542506 -0.046908 0.042130 255 220 0
0.560080 -0.013539 0.063585 255 220 0
0.570423 0.024256 0.020260 255 220 0
0.646802 0.024791 0.058649 255 220 0
0.648832 0.047905 0.073701 255 220 0
0.591943 -0.031770 0.021537 255 220 0
0.592775 0.079226 0.081158 255 220 0
0.543044 -0.033395 0.038568 255 220 0
0.594841 0.014617 0.012243 255 220 0
0.593588 0.016796 0.011928 255 220 0
0.643701 0.026869 0.043154 255 220 0
0.588553 0.080749 0.046770 255 220 0
0.637251 0.021946 0.034800 255 220 0
0.577489 0.059221 0.034710 255 220 0
0.606074 0.048873 0.015264 255 220 0
0.633813 0.095582 0.073576 255 220 0
0.597992 -0.012865 0.093694 255 220 0
0.614960 0.057874 0.100781 255 220 0
0.583202 0.063524 0.029585 255 220 0
0.646666 0.042966 0.078170 255 220 0
0.624364 0.098567 0.073639 255 220 0
0.627817 0.065691 0.028093 255 220 0
0.554732 -0.004659 0.046251 255 220 0
0.578423 0.056340 0.029655 255 220 0
0.594285 -0.008639 0.094119 255 220 0
0.569784 0.023009 0.020522 255 220 0
0.584950 0.039813 0.090393 255 220 0
0.625349 0.099195 0.060675 255 220 0
0.620857 -0.018636 0.073619 255 220 0
0.556165 -0.001855 0.029445 255 220 0
0.627277 -0.012068 0.069836 255 220 0
0.577087 0.025894 0.015630 255 220 0
0.616499 0.001903 0.023382 255 220 0
0.564663 -0.062989 0.038640 255 220 0
0.556173 -0.012082 0.056063 255 220 0
0.615151 -0.003625 0.024479 255 220 0
0.579675 0.045666 0.082954 255 220 0
0.566364 0.000263 0.072520 255 220 0
0.572669 0.042867 0.027525 255 220 0
0.590732 0.084200 0.064657 255 220 0
0.578417 -0.013744 0.084971 255 220 0
0.613531 0.065097 0.099774 255 220 0
0.572711 0.034576 0.022048 255 220 0
0.646551 0.036091 0.076180 255 220 0
0.648780 0.055446 0.051117 255 220 0
0.566333 0.027229 0.028013 255 220 0
0.592118 0.040293 0.095896 255 220 0
0.540130 -0.037089 0.026433 255 220 0
0.554593 -0.047610 0.014870 255 220 0
0.612813 0.086868 0.035167 255 220 0
0.591318 0.083414 0.046579 255 220 0
0.579875 -0.006315 0.087212 255 220 0
0.551744 -0.014807 0.025079 255 220 0
0.609313 -0.018426 0.088744 255 220 0
0.607826 0.064292 0.099227 255 220 0
0.613508 -0.030712 0.064987 255 220 0
0.575778 -0.056019 0.060269 255 220 0
0.546054 -0.031768 0.019347 255 220 0
0.589349 -0.033681 0.081567 255 220 0
0.570217 -0.049273 0.064652 255 220 0
0.563424 -0.003854 0.018547 255 220 0
0.558664 0.009170 0.047255 255 220 0
0.584919 0.008514 0.012467 255 220 0
0.600756 0.046665 0.014380 255 220 0
0.602784 0.028063 0.101421 255 220 0
0.609191 0.096881 0.057348 255 220 0
0.639660 0.085171 0.050080 255 220 0
0.577484 0.061457 0.037972 255 220 0
0.579074 0.068895 0.052041 255 220 0
0.589926 -0.048263 0.066109 255 220 0
0.621722 0.019908 0.021654 255 220 0
0.591589 0.078655 0.036888 255 220 0
0.579406 -0.055917 0.033810 255 220 0
0.553217 -0.056448 0.048345 255 220 0
0.579885 0.048218 0.082206 255 220 0
0.588962 0.075860 0.078927 255 220 0
0.597281 -0.020406 0.090378 255 220 0
0.561527 -0.018068 0.015374 255 220 0
0.578735 -0.045959 0.021381 255 220 0
0.646578 0.024702 0.056246 255 220 0
0.627170 -0.013371 0.067072 255 220 0
0.562714 -0.011830 0.067818 255 220 0
0.645726 0.073080 0.051340 255 220 0
0.618077 -0.012685 0.031583 255 220 0
0.572335 0.051319 0.061144 255 220 0
0.586362 -0.042372 0.023870 255 220 0
0.546986 -0.039869 0.015888 255 220 0
0.590623 -0.051055 0.040793 255 220 0
0.630010 0.054666 0.025806 255 220 0
0.637271 0.086215 0.083104 255 220 0
0.567113 0.037299 0.055379 255 220 0
0.596070 0.074090 0.027857 255 220 0
0.593932 -0.001452 0.095532 255 220 0
0.641419 0.010675 0.066325 255 220 0
0.629770 0.003478 0.085089 255 220 0
0.617338 -0.015169 0.032555 255 220 0
0.590976 0.070566 0.086271 255 220 0
0.612386 0.019838 0.100965 255 220 0
0.586455 -0.051461 0.034342 255 220 0
0.611172 0.061297 0.100288 255 220 0
0.589176 0.048223 0.092618 255 220 0
0.626607 0.092548 0.046112 255 220 0
0.623149 0.010596 0.094700 255 220 0
0.573003 0.055965 0.052705 255 220 0
0.644365 0.027752 0.077252 255 220 0
0.606496 0.052762 0.100635 255 220 0
0.622367 0.096983 0.077552 255 220 0
0.585955 0.034539 0.091934 255 220 0
0.631111 0.034587 0.025626 255 220 0
0.635568 0.067657 0.092749 255 220 0
0.559685 -0.002262 0.060025 255 220 0
0.564614 -0.031347 0.069259 255 220 0
0.546347 -0.047537 0.016912 255 220 0
0.603818 0.030200 0.012936 255 220 0
0.580525 -0.006446 0.012898 255 220 0
0.587207 -0.035377 0.020414 255 220 0
0.596130 -0.043290 0.068582 255 220 0
0.542696 -0.052984 0.038446 255 220 0
0.610538 -0.002763 0.096387 255 220 0
0.606142 0.003217 0.017503 255 220 0
0.618559 -0.009142 0.088302 255 220 0
0.553443 -0.048816 0.015345 255 220 0
0.565646 -0.016860 0.072578 255 220 0
0.559519 -0.061817 0.046228 255 220 0
0.565200 0.019361 0.064690 255 220 0
0.597311 0.001495 0.014546 255 220 0
0.598871 0.045878 0.098957 255 220 0
0.625305 0.059483 0.024435 255 220 0
0.650304 0.051710 0.069039 255 220 0
0.615426 0.094262 0.045579 255 220 0
0.579077 -0.019521 0.013519 255 220 0
0.592634 0.077231 0.083082 255 220 0
0.628351 -0.005504 0.078077 255 220 0
0.603677 -0.019177 0.090560 255 220 0
0.561490 0.011059 0.058770 255 220 0
0.593580 -0.031952 0.022656 255 220 0
0.622117 0.093016 0.083613 255 220 0
0.613965 0.005942 0.020651 255 220 0
0.619357 -0.006278 0.028953 255 220 0
0.593552 0.084699 0.044775 255 220 0
0.574045 -0.008714 0.082448 255 220 0
0.565273 -0.012185 0.015278 255 220 0
0.560429 0.014394 0.050765 255 220 0
0.565489 0.033307 0.051089 255 220 0
0.586442 0.079074 0.049200 255 220 0
0.636080 0.014322 0.036715 255 220 0
0.620578 0.085661 0.035376 255 220 0
0.650655 0.043363 0.062702 255 220 0
0.607091 -0.038671 0.057701 255 220 0
0.564661 0.014344 0.023632 255 220 0
0.628674 -0.005898 0.076887 255 220 0
0.559780 -0.005713 0.020960 255 220 0
0.571829 0.024409 0.018948 255 220 0
0.561316 -0.009590 0.065009 255 220 0
0.582657 0.041431 0.087904 255 220 0
0.593616 0.060357 0.093151 255 220 0
0.552428 -0.045464 0.014439 255 220 0
0.647616 0.034540 0.072193 255 220 0
0.643372 0.026866 0.078999 255 220 0
0.628587 0.069569 0.030157 255 220 0
0.629616 0.098718 0.065567 255 220 0
0.553232 -0.019861 0.019572 255 220 0
0.546292 -0.025298 0.039186 255 220 0
0.641939 0.021438 0.042653 255 220 0
0.579372 0.064864 0.038340 255 220 0
0.566952 -0.013295 0.014484 255 220 0
0.592910 -0.008556 0.093667 255 220 0
0.573172 0.030740 0.077359 255 220 0
0.570222 0.024353 0.073849 255 220 0
0.566282 -0.026146 0.013189 255 220 0
0.595384 0.086830 0.046503 255 220 0
0.618116 0.070384 0.025361 255 220 0
0.592171 0.081414 0.077030 255 220 0
0.567595 -0.011048 0.014669 255 220 0
0.567308 0.039933 0.048280 255 220 0
0.619822 -0.011159 0.032457 255 220 0
0.626658 0.085755 0.038314 255 220 0
0.649314 0.041123 0.069739 255 220 0
0.562675 -0.003670 0.066338 255 220 0
0.542479 -0.039660 0.041383 255 220 0
0.559454 0.010330 0.050999 255 220 0
0.600675 0.051711 0.015626 255 220 0
0.607194 -0.001871 0.019276 255 220 0
0.576291 0.023091 0.083980 255 220 0
0.572696 0.041309 0.071084 255 220 0
0.581140 0.055485 0.025271 255 220 0
0.602633 0.022937 0.012966 255 220 0
0.544505 -0.051357 0.043121 255 220 0
0.624547 -0.006660 0.034938 255 220 0
0.612928 0.085354 0.033731 255 220 0
0.579512 0.055414 0.027198 255 220 0
0.650750 0.056488 0.058858 255 220 0
0.576843 0.012349 0.085517 255 220 0
0.573720 0.057302 0.046229 255 220 0
0.546175 -0.025456 0.024552 255 220 0
0.624057 0.055681 0.099320 255 220 0
0.628225 0.081473 0.036126 255 220 0
0.646117 0.050444 0.044375 255 220 0
0.622907 -0.021294 0.059622 255 220 0
0.563329 0.002147 0.066309 255 220 0
0.569989 0.029361 0.071114 255 220 0
0.589636 0.081889 0.069083 255 220 0
0.589469 0.029494 0.012216 255 220 0
0.589111 0.070741 0.029864 255 220 0
0.605483 -0.033569 0.074532 255 220 0
0.602973 -0.041963 0.045180 255 220 0
0.574686 0.040202 0.076010 255 220 0
0.590788 0.025054 0.011767 255 220 0
0.588181 -0.042416 0.025313 255 220 0
0.618898 0.046396 0.101201 255 220 0
0.625026 -0.017920 0.051539 255 220 0
0.542941 -0.031106 0.035377 255 220 0
0.615828 0.031406 0.017001 255 220 0
0.606103 0.093451 0.047988 255 220 0
0.577003 0.064948 0.053539 255 220 0
0.637822 0.023857 0.034800 255 220 0
0.626235 0.097121 0.076715 255 220 0
0.544936 -0.025372 0.030327 255 220 0
0.596153 0.067510 0.022777 255 220 0
0.606397 0.090011 0.081453 255 220 0
0.643619 0.031492 0.080708 255 220 0
0.628471 0.075271 0.094766 255 220 0
0.592629 -0.051034 0.049542 255 220 0
0.637321 0.013960 0.038828 255 220 0
0.624566 0.057383 0.099052 255 220 0
0.629591 -0.007519 0.044568 255 220 0
0.635473 -0.000545 0.066496 255 220 0
0.620705 -0.019492 0.041868 255 220 0
0.557152 -0.009069 0.057021 255 220 0
0.586200 -0.054927 0.045084 255 220 0
0.620968 0.099778 0.061974 255 220 0
0.553571 -0.014115 0.050964 255 220 0
0.585154 -0.051233 0.064722 255 220 0
0.564122 -0.062151 0.033547 255 220 0
0.592562 0.085925 0.051800 255 220 0
0.568035 0.003892 0.017421 255 220 0
0.637589 0.094211 0.061630 255 220 0
0.625031 -0.005644 0.083472 255 220 0
0.601694 0.044732 0.100178 255 220 0
0.567200 0.039319 0.042560 255 220 0
0.623653 -0.000346 0.029883 255 220 0
0.617554 -0.025457 0.044364 255 220 0
0.592620 0.049255 0.015960 255 220 0
0.594019 -0.012440 0.016165 255 220 0
0.597155 0.008069 0.098077 255 220 0
0.577768 0.046012 0.079343 255 220 0
0.622473 0.069321 0.098127 255 220 0
0.620932 0.043386 0.100883 255 220 0
0.556844 0.003459 0.035511 255 220 0
0.569739 -0.041643 0.068944 255 220 0
0.613717 0.079003 0.028947 255 220 0
0.593854 -0.041922 0.030238 255 220 0
0.567981 -0.006881 0.075796 255 220 0
0.581992 0.042995 0.017910 255 220 0
0.619393 0.087450 0.036615 255 220 0
0.568511 0.042918 0.053452 255 220 0
0.599978 0.011335 0.013688 255 220 0
0.589110 0.076460 0.037035 255 220 0
0.600484 0.024372 0.100667 255 220 0
0.608105 -0.024316 0.084380 255 220 0
0.568222 -0.032376 0.013430 255 220 0
0.644319 0.017300 0.065036 255 220 0
0.580746 -0.036239 0.077452 255 220 0
0.642284 0.050102 0.086699 255 220 0
0.638763 0.022079 0.084676 255 220 0
0.637150 0.005661 0.073526 255 220 0
0.560554 0.015191 0.034647 255 220 0
0.578762 0.064732 0.066903 255 220 0
0.600095 -0.045253 0.049325 255 220 0
0.623361 -0.019464 0.064673 255 220 0
0.612404 0.092690 0.081318 255 220 0
0.544735 -0.055980 0.038002 255 220 0
0.592551 -0.046522 0.034520 255 220 0
0.646172 0.036053 0.044547 255 220 0
0.576931 0.021847 0.084856 255 220 0
0.565887 0.006401 0.070446 255 220 0
0.551543 -0.015722 0.046246 255 220 0
0.607413 -0.024652 0.084586 255 220 0
0.593222 -0.050542 0.047728 255 220 0
0.605030 -0.020618 0.089235 255 220 0
0.642194 0.011285 0.058147 255 220 0
0.562859 0.005904 0.064350 255 220 0
0.557296 -0.015203 0.059059 255 220 0
0.601008 0.012668 0.013767 255 220 0
0.548525 -0.059356 0.030254 255 220 0
0.625786 0.067362 0.097632 255 220 0
0.603629 0.076147 0.092920 255 220 0
0.570503 -0.002050 0.079058 255 220 0
0.577245 -0.057626 0.035209 255 220 0
0.604821 0.057475 0.099617 255 220 0
0.604380 0.082631 0.088675 255 220 0
0.591927 0.082526 0.042998 255 220 0
0.606885 -0.002105 0.019185 255 220 0
0.628710 0.048184 0.023797 255 220 0
0.551553 -0.039064 0.053729 255 220 0
0.597630 -0.046001 0.059342 255 220 0
0.573609 0.026901 0.079506 255 220 0
0.564130 -0.014867 0.070425 255 220 0
0.569220 -0.026640 0.013149 255 220 0
0.604414 -0.003207 0.097229 255 220 0
0.618258 0.075221 0.096863 255 220 0
0.579505 -0.011613 0.086106 255 220 0
0.611440 0.093987 0.045799 255 220 0
0.636356 0.008165 0.078667 255 220 0
0.635100 0.017874 0.033721 255 220 0
0.556465 -0.022148 0.058976 255 220 0
0.586585 0.043862 0.016058 255 220 0
0.604158 0.094852 0.058251 255 220 0
0.629041 -0.005449 0.040731 255 220 0
0.601496 0.015338 0.100159 255 220 0
0.578249 0.025228 0.014921 255 220 0
0.617056 0.058151 0.020307 255 220 0
0.591192 -0.029686 0.020166 255 220 0
0.590127 -0.052112 0.043538 255 220 0
0.591409 0.085269 0.054746 255 220 0
0.596546 0.087728 0.046565 255 220 0
0.606142 -0.037838 0.042515 255 220 0
0.625676 0.066734 0.027275 255 220 0
0.584485 0.063267 0.081986 255 220 0
0.568472 -0.010801 0.076423 255 220 0
0.572203 -0.008323 0.080755 255 220 0
0.605985 0.051422 0.015808 255 220 0
0.628856 0.098277 0.071192 255 220 0
0.583691 0.052818 0.021362 255 220 0
0.631084 0.021615 0.028152 255 220 0
0.636935 0.086389 0.047696 255 220 0
0.634665 0.046934 0.094127 255 220 0
0.635745 0.027349 0.090471 255 220 0
0.617850 -0.006562 0.027773 255 220 0
0.614985 0.062797 0.021153 255 220 0
0.571044 0.050331 0.054733 255 220 0
0.580100 0.041945 0.084839 255 220 0
0.562351 0.022931 0.047741 255 220 0
0.627408 0.034249 0.022968 255 220 0
0.610743 0.078819 0.094167 255 220 0
0.642985 0.059484 0.040530 255 220 0
0.644822 0.048899 0.082751 255 220 0
0.603427 0.047590 0.100430 255 220 0
0.629156 0.098410 0.061177 255 220 0
0.624707 0.099824 0.066130 255 220 0
0.587447 0.053843 0.089802 255 220 0
0.590721 -0.013194 0.015198 255 220 0
0.616041 0.034634 0.102096 255 220 0
0.588665 0.081136 0.047647 255 220 0
0.637005 0.000868 0.058441 255 220 0
0.622672 0.058003 0.099561 255 220 0
0.600719 0.033527 0.100721 255 220 0
0.591986 0.065731 0.023520 255 220 0
0.576834 0.036519 0.018879 255 220 0
0.632102 0.032677 0.026703 255 220 0
0.602154 -0.020770 0.089911 255 220 0
0.600442 -0.022391 0.022499 255 220 0
0.620062 0.075095 0.096811 255 220 0
0.633197 0.017946 0.031466 255 220 0
0.621487 0.091636 0.085219 255 220 0
0.563536 -0.023604 0.069475 255 220 0
0.605937 0.031752 0.102085 255 220 0
0.595755 0.022081 0.011815 255 220 0
0.643119 0.067547 0.085176 255 220 0
0.572053 -0.007461 0.080668 255 220 0
0.645918 0.068289 0.080201 255 220 0
0.566619 0.028151 0.028075 255 220 0
0.608304 0.027745 0.014307 255 220 0
0.641898 0.036967 0.036856 255 220 0
0.636337 0.071602 0.037113 255 220 0
0.584954 0.077081 0.064235 255 220 0
0.599309 -0.044960 0.058467 255 220 0
0.595989 -0.044794 0.036866 255 220 0
0.640746 0.065459 0.039239 255 220 0
0.601641 -0.042684 0.043553 255 220 0
0.604542 0.094489 0.068382 255 220 0
0.571457 0.032583 0.072817 255 220 0
0.550408 -0.013154 0.033445 255 220 0
0.580602 -0.010722 0.086974 255 220 0
0.585155 0.077796 0.062225 255 220 0
0.616431 0.050244 0.101319 255 220 0
0.608239 -0.031119 0.074906 255 220 0
0.631490 0.000389 0.079449 255 220 0
0.633862 0.071511 0.093136 255 220 0
0.569188 -0.054031 0.060480 255 220 0
0.635214 0.011003 0.083187 255 220 0
0.632734 -0.001961 0.044270 255 220 0
0.587889 0.027636 0.012266 255 220 0
0.547377 -0.024011 0.041198 255 220 0
0.602750 -0.043001 0.049492 255 220 0
0.630936 0.025031 0.027162 255 220 0
0.646282 0.023532 0.065624 255 220 0
0.595787 0.063760 0.093610 255 220 0
0.596941 0.023621 0.011896 255 220 0
0.577539 -0.035179 0.016018 255 220 0
0.610252 0.096909 0.070096 255 220 0
0.593765 -0.006983 0.014975 255 220 0
0.604149 0.051297 0.015598 255 220 0
0.646776 0.035241 0.046340 255 220 0
0.585102 0.047565 0.018052 255 220 0
0.621929 -0.022811 0.057415 255 220 0
