ply
format ascii 1.0
element vertex 1024
property float x
property float y
property float z
property uchar red
property uchar green
property uchar blue
end_header
0.628078 0.012343 0.028211 255 220 0
0.586066 -0.054763 0.043638 255 220 0
0.624442 0.005881 0.027578 255 220 0
0.571982 0.049496 0.061090 255 220 0
0.645377 0.080593 0.075789 255 220 0
0.613958 -0.024443 0.077509 255 220 0
0.571841 0.042890 0.067233 255 220 0
0.606649 0.065908 0.098191 255 220 0
0.618120 0.097301 0.076320 255 220 0
0.627236 -0.011693 0.071304 255 220 0
0.593752 -0.046267 0.036092 255 220 0
0.571178 -0.000073 0.079519 255 220 0
0.601103 0.092570 0.051906 255 220 0
0.620494 0.079672 0.030394 255 220 0
0.567322 0.031326 0.062257 255 220 0
0.601326 0.070084 0.022649 255 220 0
0.625469 -0.018185 0.057559 255 220 0
0.582941 -0.030739 0.081393 255 220 0
0.585198 -0.031593 0.018282 255 220 0
0.585779 -0.016714 0.014788 255 220 0
0.567363 0.038771 0.051587 255 220 0
0.630086 0.093575 0.048703 255 220 0
0.635099 0.007097 0.080304 255 220 0
0.637923 0.002195 0.058570 255 220 0
0.631943 -0.002217 0.042448 255 220 0
0.561475 0.018006 0.049416 255 220 0
0.604673 0.027087 0.013136 255 220 0
0.565880 -0.048113 0.063229 255 220 0
0.569390 0.037219 0.064288 255 220 0
0.589024 -0.009937 0.091641 255 220 0
0.580700 -0.027664 0.015551 255 220 0
0.605525 0.020405 0.101204 255 220 0
0.577677 0.060755 0.067806 255 220 0
0.572030 0.040076 0.069534 255 220 0
0.651262 0.047441 0.062968 255 220 0
0.641599 0.063845 0.038866 255 220 0
0.621558 0.098697 0.055220 255 220 0
0.604423 0.004094 0.098894 255 220 0
0.546262 -0.055071 0.042033 255 220 0
0.552961 -0.060042 0.028842 255 220 0
0.627125 0.067746 0.027858 255 220 0
0.630660 0.001448 0.036870 255 220 0
0.584427 0.046371 0.017888 255 220 0
0.639812 0.056477 0.034473 255 220 0
0.581945 0.072186 0.064021 255 220 0
0.639713 0.011847 0.075552 255 220 0
0.573756 0.032024 0.020038 255 220 0
0.594939 0.080201 0.082689 255 220 0
0.620533 0.023267 0.099577 255 220 0
0.608494 0.064255 0.099082 255 220 0
0.634038 0.055550 0.028379 255 220 0
0.608389 -0.037829 0.049538 255 220 0
0.638079 0.080887 0.086306 255 220 0
0.641836 0.080795 0.048172 255 220 0
0.631697 -0.007015 0.066521 255 220 0
0.603182 0.024492 0.012932 255 220 0
0.570442 0.003237 0.078294 255 220 0
0.539478 -0.039123 0.031123 255 220 0
0.546686 -0.044077 0.016993 255 220 0
0.577799 0.035261 0.017851 255 220 0
0.601815 0.032865 0.100892 255 220 0
0.617727 0.050832 0.100949 255 220 0
0.561529 -0.002889 0.021207 255 220 0
0.617533 -0.028272 0.052082 255 220 0
0.643356 0.078699 0.049111 255 220 0
0.610237 0.080952 0.029448 255 220 0
0.585873 -0.043949 0.073239 255 220 0
0.556217 -0.062528 0.035193 255 220 0
0.548478 -0.023951 0.023149 255 220 0
0.633591 0.081652 0.039407 255 220 0
0.542523 -0.036389 0.022514 255 220 0
0.576626 0.044552 0.023180 255 220 0
0.633532 0.071422 0.033767 255 220 0
0.636359 -0.000536 0.056867 255 220 0
0.572591 -0.056592 0.028345 255 220 0
0.646811 0.052133 0.079743 255 220 0
0.620102 -0.019930 0.073484 255 220 0
0.647097 0.032774 0.073508 255 220 0
0.596708 -0.019318 0.090865 255 220 0
0.591525 0.044332 0.094632 255 220 0
0.563112 0.025102 0.042002 255 220 0
0.609574 0.090400 0.038998 255 220 0
0.613630 0.072708 0.024643 255 220 0
0.626641 0.098837 0.057624 255 220 0
0.581625 0.072746 0.059319 255 220 0
0.625484 0.064323 0.097949 255 220 0
0.590994 -0.046269 0.068917 255 220 0
0.557224 -0.051161 0.017346 255 220 0
0.567845 -0.016336 0.014348 255 220 0
0.577172 0.053571 0.029191 255 220 0
0.581137 0.053056 0.081386 255 220 0
0.610653 -0.031235 0.039857 255 220 0
0.585222 -0.013405 0.014140 255 220 0
0.590676 -0.048940 0.036132 255 220 0
0.573521 0.038249 0.023297 255 220 0
0.602801 0.035872 0.012812 255 220 0
0.593992 -0.034714 0.080940 255 220 0
0.595845 -0.025616 0.021368 255 220 0
0.562984 -0.048405 0.061243 255 220 0
0.610705 0.014282 0.100163 255 220 0
0.645366 0.019800 0.065533 255 220 0
0.569815 0.028366 0.023083 255 220 0
0.645004 0.034381 0.041771 255 220 0
0.625697 0.001136 0.088440 255 220 0
0.637521 0.003172 0.050023 255 220 0
0.580447 0.066636 0.069062 255 220 0
0.592786 -0.049139 0.060866 255 220 0
0.593385 -0.032868 0.023298 255 220 0
0.585120 -0.000736 0.013024 255 220 0
0.558004 -0.030448 0.061860 255 220 0
0.618843 0.072527 0.097592 255 220 0
0.563939 -0.002686 0.019150 255 220 0
0.607127 0.014106 0.100449 255 220 0
0.574069 0.055993 0.040793 255 220 0
0.598365 -0.046445 0.046861 255 220 0
0.566441 0.032777 0.057137 255 220 0
0.575896 0.030011 0.081739 255 220 0
0.596129 -0.007774 0.094828 255 220 0
0.628217 0.075615 0.094619 255 220 0
0.557970 -0.028239 0.014907 255 220 0
0.622867 -0.003277 0.088445 255 220 0
0.598868 0.047629 0.014447 255 220 0
0.645567 0.041393 0.041741 255 220 0
0.641672 0.019634 0.042662 255 220 0
0.635710 0.048896 0.028785 255 220 0
0.581133 -0.003556 0.013176 255 220 0
0.577504 0.042073 0.080154 255 220 0
0.574197 0.047523 0.028997 255 220 0
0.614499 0.058099 0.019017 255 220 0
0.617304 -0.024586 0.070785 255 220 0
0.570710 0.029500 0.071959 255 220 0
0.605687 0.006892 0.016508 255 220 0
0.646055 0.046489 0.042841 255 220 0
0.581576 0.021956 0.088971 255 220 0
0.602423 0.021886 0.012954 255 220 0
0.600936 0.088430 0.041178 255 220 0
0.639181 0.004594 0.060583 255 220 0
0.547632 -0.020726 0.029854 255 220 0
0.633029 0.034057 0.094528 255 220 0
0.650869 0.043350 0.063604 255 220 0
0.598489 -0.020364 0.020762 255 220 0
0.603265 0.073970 0.024933 255 220 0
0.628559 -0.000569 0.035479 255 220 0
0.585012 -0.037314 0.078267 255 220 0
0.630429 0.089297 0.043337 255 220 0
0.642551 0.021056 0.077487 255 220 0
0.544482 -0.053843 0.040600 255 220 0
0.633920 0.090997 0.081680 255 220 0
0.574952 0.014329 0.083062 255 220 0
0.562326 -0.000288 0.064386 255 220 0
0.594012 0.034015 0.012270 255 220 0
0.642554 0.011998 0.055826 255 220 0
0.647429 0.079792 0.064322 255 220 0
0.588237 0.080121 0.068902 255 220 0
0.549792 -0.025430 0.047653 255 220 0
0.632461 0.035315 0.026268 255 220 0
0.587732 0.069541 0.082334 255 220 0
0.624854 -0.012735 0.075232 255 220 0
0.602359 0.079446 0.029531 255 220 0
0.552977 -0.042338 0.014703 255 220 0
0.605810 0.039306 0.013588 255 220 0
0.569720 0.045930 0.042645 255 220 0
0.619361 -0.026309 0.055307 255 220 0
0.592401 0.061635 0.091368 255 220 0
0.578985 0.048928 0.023242 255 220 0
0.584972 0.000278 0.091088 255 220 0
0.571477 0.034760 0.071117 255 220 0
0.630585 0.045642 0.024371 255 220 0
0.626032 -0.011287 0.074929 255 220 0
0.646107 0.067503 0.047766 255 220 0
0.581587 -0.054979 0.035123 255 220 0
0.595058 -0.029107 0.085238 255 220 0
0.592998 0.002116 0.013552 255 220 0
0.580879 -0.057730 0.044404 255 220 0
0.614842 0.098960 0.057874 255 220 0
0.630711 0.003985 0.084461 255 220 0
0.594802 -0.043473 0.033427 255 220 0
0.602410 0.027573 0.101125 255 220 0
0.546284 -0.051323 0.045665 255 220 0
0.637618 0.051776 0.031055 255 220 0
0.549607 -0.015826 0.033345 255 220 0
0.635549 0.001560 0.046115 255 220 0
0.614819 -0.025708 0.073858 255 220 0
0.539938 -0.048412 0.036164 255 220 0
0.630309 0.039171 0.024217 255 220 0
0.626485 0.099076 0.058303 255 220 0
0.630152 0.076183 0.093636 255 220 0
0.566201 -0.035441 0.069342 255 220 0
0.570538 -0.061577 0.041696 255 220 0
0.641211 0.008818 0.062164 255 220 0
0.566085 -0.020716 0.014219 255 220 0
0.630158 0.055702 0.096769 255 220 0
0.651183 0.049528 0.057568 255 220 0
0.552005 -0.044526 0.054142 255 220 0
0.583167 0.043767 0.017562 255 220 0
0.595597 0.045745 0.097021 255 220 0
0.598796 0.069435 0.022807 255 220 0
0.620835 -0.022304 0.066608 255 220 0
0.640721 0.030233 0.036030 255 220 0
0.602996 0.074858 0.025636 255 220 0
0.644503 0.017235 0.065170 255 220 0
0.599107 0.036272 0.012472 255 220 0
0.588492 -0.047076 0.069289 255 220 0
0.555215 -0.011375 0.053113 255 220 0
0.628485 0.038996 0.022987 255 220 0
0.568723 -0.018823 0.075826 255 220 0
0.635395 0.095426 0.072891 255 220 0
0.629274 -0.008896 0.070939 255 220 0
0.615826 0.034236 0.102045 255 220 0
0.577523 -0.038791 0.074703 255 220 0
0.546658 -0.033434 0.018961 255 220 0
0.600829 -0.041569 0.065610 255 220 0
0.618396 0.041269 0.017651 255 220 0
0.564778 -0.056488 0.056370 255 220 0
0.569398 0.028949 0.023981 255 220 0
0.605478 0.055986 0.016656 255 220 0
0.586420 0.079625 0.061089 255 220 0
0.643036 0.064204 0.041084 255 220 0
0.648102 0.030603 0.067423 255 220 0
0.540458 -0.043419 0.023689 255 220 0
0.586825 0.067129 0.028469 255 220 0
0.637518 0.073154 0.090066 255 220 0
0.551033 -0.012959 0.038348 255 220 0
0.647023 0.061664 0.079410 255 220 0
0.623987 0.011184 0.025285 255 220 0
0.542973 -0.032473 0.025314 255 220 0
0.592998 -0.018300 0.017482 255 220 0
0.593386 0.040221 0.013326 255 220 0
0.553976 -0.005535 0.034659 255 220 0
0.592806 -0.024532 0.087721 255 220 0
0.641232 0.008644 0.059312 255 220 0
0.598682 -0.017231 0.091992 255 220 0
0.615773 0.036361 0.102068 255 220 0
0.642168 0.072334 0.085519 255 220 0
0.564611 0.008180 0.066817 255 220 0
0.619806 0.045242 0.100981 255 220 0
0.543103 -0.040108 0.020101 255 220 0
0.637142 0.091677 0.077737 255 220 0
0.553236 -0.044836 0.015008 255 220 0
0.546746 -0.034408 0.046019 255 220 0
0.563983 -0.050753 0.060434 255 220 0
0.574257 0.020571 0.016608 255 220 0
0.563835 0.009207 0.064860 255 220 0
0.567087 -0.023853 0.073303 255 220 0
0.634523 0.010119 0.083826 255 220 0
0.540011 -0.037717 0.029263 255 220 0
0.627360 0.082783 0.035579 255 220 0
0.614343 0.097678 0.053112 255 220 0
0.606002 -0.035318 0.070680 255 220 0
0.541767 -0.033450 0.032923 255 220 0
0.576632 -0.059606 0.044354 255 220 0
0.618269 0.008644 0.022302 255 220 0
0.623931 -0.018943 0.064819 255 220 0
0.592371 0.076630 0.032890 255 220 0
0.596025 0.016472 0.012270 255 220 0
0.555397 -0.052692 0.018198 255 220 0
0.642998 0.024910 0.042119 255 220 0
0.643752 0.079472 0.050433 255 220 0
0.612700 0.097305 0.072621 255 220 0
0.585056 0.062542 0.082816 255 220 0
0.565304 -0.044263 0.015870 255 220 0
0.631935 0.078196 0.035933 255 220 0
0.600253 0.038273 0.012762 255 220 0
0.643829 0.062950 0.041936 255 220 0
0.609679 0.034836 0.014371 255 220 0
0.570845 0.033771 0.024503 255 220 0
0.546924 -0.032326 0.019256 255 220 0
0.608891 0.094354 0.046738 255 220 0
0.621237 0.074733 0.028020 255 220 0
0.539874 -0.049342 0.034820 255 220 0
0.568561 -0.005876 0.076229 255 220 0
0.644015 0.074667 0.047571 255 220 0
0.648795 0.039528 0.071774 255 220 0
0.578652 0.057144 0.073648 255 220 0
0.637423 0.037006 0.030802 255 220 0
0.578117 -0.024216 0.081669 255 220 0
0.640869 0.010035 0.050390 255 220 0
0.574043 0.038505 0.022777 255 220 0
0.643393 0.065883 0.042241 255 220 0
0.576515 0.044252 0.077023 255 220 0
0.642239 0.022583 0.079256 255 220 0
0.550010 -0.057705 0.043548 255 220 0
0.540260 -0.043336 0.024145 255 220 0
0.599155 0.077202 0.028755 255 220 0
0.640629 0.053280 0.088958 255 220 0
0.556985 -0.041331 0.059532 255 220 0
0.645912 0.044479 0.042444 255 220 0
0.632859 0.058602 0.095184 255 220 0
0.572385 0.032354 0.021652 255 220 0
0.576389 -0.016688 0.082810 255 220 0
0.650948 0.053398 0.056474 255 220 0
0.579453 -0.048713 0.068498 255 220 0
0.638585 0.066810 0.090420 255 220 0
0.595725 0.082326 0.036832 255 220 0
0.573881 -0.034951 0.074752 255 220 0
0.542143 -0.042148 0.041598 255 220 0
0.577897 -0.008414 0.085411 255 220 0
0.616376 0.086895 0.089399 255 220 0
0.600118 -0.016794 0.092255 255 220 0
0.587442 0.003786 0.012807 255 220 0
0.544697 -0.027188 0.028659 255 220 0
0.587617 -0.012946 0.014584 255 220 0
0.629616 0.019462 0.027199 255 220 0
0.619993 -0.021949 0.069821 255 220 0
0.639958 0.088218 0.052278 255 220 0
0.641971 0.013144 0.049680 255 220 0
0.637369 0.081971 0.086295 255 220 0
0.612618 0.006738 0.098361 255 220 0
0.601639 -0.043395 0.045845 255 220 0
0.588961 0.022202 0.094498 255 220 0
0.610320 0.067983 0.098527 255 220 0
0.618593 0.046914 0.101111 255 220 0
0.574320 0.040187 0.023393 255 220 0
0.616518 -0.025020 0.071699 255 220 0
0.640390 0.014601 0.076896 255 220 0
0.589210 0.007794 0.094150 255 220 0
0.599938 -0.032189 0.081618 255 220 0
0.598162 -0.002705 0.015750 255 220 0
0.563715 0.012357 0.063434 255 220 0
0.638675 0.065282 0.090515 255 220 0
0.610947 -0.035603 0.054495 255 220 0
0.615938 0.089622 0.086667 255 220 0
0.538747 -0.043730 0.032929 255 220 0
0.573938 0.057841 0.049408 255 220 0
0.584012 0.047512 0.018577 255 220 0
0.590567 0.083618 0.049010 255 220 0
0.584873 -0.012005 0.089080 255 220 0
0.553971 -0.005766 0.041253 255 220 0
0.578071 0.066823 0.053157 255 220 0
0.574680 -0.025692 0.078952 255 220 0
0.610540 0.068544 0.098404 255 220 0
0.549381 -0.023942 0.021895 255 220 0
0.637761 0.011582 0.079610 255 220 0
0.569813 -0.007237 0.077896 255 220 0
0.595138 0.089017 0.059439 255 220 0
0.555225 -0.011424 0.053160 255 220 0
0.560656 -0.008837 0.019541 255 220 0
0.613319 0.058433 0.100496 255 220 0
0.591598 0.015360 0.095935 255 220 0
0.606269 -0.004182 0.096865 255 220 0
0.650967 0.058918 0.058755 255 220 0
0.613507 0.097542 0.072763 255 220 0
0.639897 0.009640 0.047466 255 220 0
0.646458 0.057337 0.045258 255 220 0
0.644415 0.029109 0.078400 255 220 0
0.644728 0.033074 0.079566 255 220 0
0.548345 -0.029515 0.046684 255 220 0
0.642762 0.063942 0.040573 255 220 0
0.645938 0.024025 0.069780 255 220 0
0.540337 -0.046732 0.038162 255 220 0
0.637850 0.082367 0.085632 255 220 0
0.580317 0.040198 0.085103 255 220 0
0.572531 0.036854 0.023833 255 220 0
0.617509 -0.023992 0.071543 255 220 0
0.607494 0.045812 0.014682 255 220 0
0.641857 0.019636 0.077975 255 220 0
0.638494 0.027108 0.034059 255 220 0
0.631019 0.081901 0.090569 255 220 0
0.598137 -0.030512 0.025302 255 220 0
0.547057 -0.042145 0.048532 255 220 0
0.570463 -0.056095 0.059298 255 220 0
0.629090 0.051019 0.097451 255 220 0
0.642980 0.035843 0.083601 255 220 0
0.557256 -0.058528 0.024242 255 220 0
0.625541 0.096194 0.050549 255 220 0
0.588481 -0.029636 0.083939 255 220 0
0.568296 0.006639 0.074402 255 220 0
0.563836 0.020430 0.029509 255 220 0
0.565632 0.023158 0.027329 255 220 0
0.595647 0.088032 0.069359 255 220 0
0.565746 0.028269 0.059232 255 220 0
0.607679 0.096905 0.058815 255 220 0
0.553988 -0.057315 0.022891 255 220 0
0.640549 0.035291 0.034657 255 220 0
0.581597 0.067912 0.070905 255 220 0
0.558530 -0.006541 0.022662 255 220 0
0.591360 -0.034176 0.081468 255 220 0
0.645989 0.053659 0.081462 255 220 0
0.581005 0.068692 0.067804 255 220 0
0.610374 0.094125 0.077640 255 220 0
0.604529 0.091534 0.077133 255 220 0
0.595033 0.023707 0.011742 255 220 0
0.565281 -0.013157 0.071740 255 220 0
0.579900 0.043210 0.019429 255 220 0
0.568579 -0.010587 0.076276 255 220 0
0.578498 0.036288 0.017712 255 220 0
0.586609 0.055257 0.088071 255 220 0
0.649030 0.071806 0.068904 255 220 0
0.576546 -0.016499 0.013521 255 220 0
0.563325 -0.060546 0.029044 255 220 0
0.560376 -0.038642 0.014014 255 220 0
0.609848 0.076695 0.094913 255 220 0
0.573872 -0.059566 0.037096 255 220 0
0.569202 0.013224 0.018923 255 220 0
0.566537 0.036703 0.045494 255 220 0
0.636413 0.042644 0.092537 255 220 0
0.630757 -0.004238 0.075129 255 220 0
0.628665 0.050183 0.023566 255 220 0
0.567995 0.005397 0.074083 255 220 0
0.628348 -0.013804 0.056009 255 220 0
0.597075 0.071771 0.090813 255 220 0
0.600827 0.066790 0.020870 255 220 0
0.623811 0.045069 0.099869 255 220 0
0.586643 0.003968 0.012789 255 220 0
0.562304 0.016189 0.056844 255 220 0
0.631355 0.090982 0.083421 255 220 0
0.573645 0.040307 0.073013 255 220 0
0.572075 0.050828 0.059380 255 220 0
0.625615 -0.017750 0.053720 255 220 0
0.541051 -0.049573 0.038153 255 220 0
0.638356 0.062870 0.034624 255 220 0
0.624628 0.053347 0.021913 255 220 0
0.568596 0.041591 0.055372 255 220 0
0.616029 -0.028644 0.064057 255 220 0
0.638368 0.009742 0.076387 255 220 0
0.608348 -0.006972 0.021509 255 220 0
0.631629 0.092513 0.048346 255 220 0
0.581300 -0.001297 0.013163 255 220 0
0.560161 -0.053252 0.019193 255 220 0
0.558592 -0.009518 0.021035 255 220 0
0.641091 0.011327 0.070451 255 220 0
0.646294 0.062129 0.080853 255 220 0
0.638060 0.003025 0.063857 255 220 0
0.578414 0.057645 0.072743 255 220 0
0.578910 -0.020145 0.013972 255 220 0
0.554632 -0.024280 0.056181 255 220 0
0.598044 0.029145 0.011966 255 220 0
0.637686 0.022499 0.034734 255 220 0
0.618798 0.062181 0.099705 255 220 0
0.569837 0.001339 0.016416 255 220 0
0.597319 0.026616 0.099278 255 220 0
0.592730 0.040647 0.013513 255 220 0
0.561324 0.006596 0.059876 255 220 0
0.586303 0.079677 0.059290 255 220 0
0.578495 0.055982 0.074112 255 220 0
0.571157 -0.059454 0.032959 255 220 0
0.581635 -0.055682 0.037006 255 220 0
0.645870 0.082140 0.072564 255 220 0
0.621685 0.063498 0.023449 255 220 0
0.546156 -0.056298 0.026341 255 220 0
0.571019 0.044321 0.033107 255 220 0
0.600298 0.023867 0.012343 255 220 0
0.620482 0.022483 0.020262 255 220 0
0.636837 0.019224 0.034994 255 220 0
0.570727 0.016018 0.018266 255 220 0
0.605068 -0.040228 0.045989 255 220 0
0.577730 -0.056312 0.032956 255 220 0
0.610755 -0.033597 0.044112 255 220 0
0.581735 -0.057566 0.049845 255 220 0
0.634007 0.076324 0.036568 255 220 0
0.570447 0.031755 0.070292 255 220 0
0.646846 0.025259 0.054966 255 220 0
0.632052 0.078704 0.036312 255 220 0
0.636200 0.033606 0.091635 255 220 0
0.632472 -0.002243 0.074099 255 220 0
0.557042 -0.052892 0.018433 255 220 0
0.637690 0.094641 0.070336 255 220 0
0.567289 0.031477 0.062015 255 220 0
0.618495 -0.026190 0.048474 255 220 0
0.547550 -0.043259 0.049250 255 220 0
0.611529 -0.006091 0.094941 255 220 0
0.565340 0.015104 0.023600 255 220 0
0.603178 -0.029968 0.082171 255 220 0
0.570770 -0.041455 0.016372 255 220 0
0.624974 0.064295 0.098110 255 220 0
0.607515 0.080520 0.029307 255 220 0
0.552166 -0.017338 0.048671 255 220 0
0.598531 0.037713 0.099325 255 220 0
0.552004 -0.012250 0.042859 255 220 0
0.568339 -0.060483 0.032799 255 220 0
0.584188 -0.031264 0.017747 255 220 0
0.616733 0.080609 0.029874 255 220 0
0.549558 -0.040125 0.051469 255 220 0
0.643685 0.025163 0.043445 255 220 0
0.602508 0.082329 0.032209 255 220 0
0.596192 0.089912 0.059099 255 220 0
0.609498 0.049243 0.015649 255 220 0
0.570502 0.047784 0.055432 255 220 0
0.599742 -0.029085 0.025657 255 220 0
0.569692 0.035661 0.027843 255 220 0
0.569808 0.043876 0.058781 255 220 0
0.561219 -0.027733 0.014262 255 220 0
0.626150 -0.015072 0.067206 255 220 0
0.623670 0.006332 0.092920 255 220 0
0.648219 0.069100 0.053688 255 220 0
0.592734 0.004305 0.095683 255 220 0
0.568843 0.042912 0.040525 255 220 0
0.555215 -0.002226 0.041868 255 220 0
0.552603 -0.059756 0.028310 255 220 0
0.641573 0.011056 0.051683 255 220 0
0.596029 -0.025128 0.087792 255 220 0
0.547991 -0.041466 0.049644 255 220 0
0.564271 0.016773 0.026117 255 220 0
0.595631 0.012882 0.097792 255 220 0
0.560405 -0.051537 0.057727 255 220 0
0.626361 -0.007164 0.080017 255 220 0
0.641720 0.061238 0.087732 255 220 0
0.635772 0.061486 0.093143 255 220 0
0.592746 -0.049324 0.040671 255 220 0
0.571696 0.041023 0.068123 255 220 0
0.594188 0.053750 0.016903 255 220 0
0.575175 0.052512 0.031961 255 220 0
0.615109 0.020190 0.017940 255 220 0
0.638262 0.014013 0.039920 255 220 0
0.598435 0.011929 0.013258 255 220 0
0.546631 -0.022846 0.035010 255 220 0
0.592379 -0.041590 0.028665 255 220 0
0.587039 0.079627 0.048127 255 220 0
0.585647 0.000653 0.012961 255 220 0
0.602178 0.031591 0.012523 255 220 0
0.594589 0.082871 0.078812 255 220 0
0.587895 -0.020769 0.087889 255 220 0
0.641773 0.010468 0.054583 255 220 0
0.615270 -0.030578 0.050081 255 220 0
0.634251 0.003814 0.040674 255 220 0
0.574235 0.056657 0.041468 255 220 0
0.560243 0.005297 0.027079 255 220 0
0.566641 -0.040452 0.015072 255 220 0
0.591774 0.017288 0.011899 255 220 0
0.619213 -0.000275 0.026008 255 220 0
0.618368 0.058227 0.020365 255 220 0
0.623405 0.046175 0.099950 255 220 0
0.567731 -0.031494 0.071921 255 220 0
0.628942 0.089262 0.042189 255 220 0
0.600887 -0.016751 0.092269 255 220 0
0.636636 0.077039 0.089429 255 220 0
0.605839 0.044861 0.101056 255 220 0
0.608093 0.049689 0.015470 255 220 0
0.597688 0.090554 0.065750 255 220 0
0.618682 -0.027143 0.056426 255 220 0
0.605270 0.080099 0.090987 255 220 0
0.612950 -0.020574 0.031863 255 220 0
0.633406 0.024967 0.092248 255 220 0
0.568502 0.033548 0.028724 255 220 0
0.639538 0.007886 0.069995 255 220 0
0.597134 0.061085 0.094933 255 220 0
0.569661 -0.013111 0.077455 255 220 0
0.627806 0.004070 0.088065 255 220 0
0.601344 -0.014023 0.020062 255 220 0
0.593280 0.040437 0.013385 255 220 0
0.604755 0.043525 0.100937 255 220 0
0.568222 -0.027600 0.013706 255 220 0
0.619845 -0.015512 0.080560 255 220 0
0.637637 0.003917 0.048893 255 220 0
0.589776 0.053074 0.091656 255 220 0
0.627435 -0.002771 0.035615 255 220 0
0.604275 -0.039286 0.041647 255 220 0
0.581518 0.013376 0.089269 255 220 0
0.566818 0.016185 0.022071 255 220 0
0.611308 -0.031307 0.041129 255 220 0
0.578478 -0.031169 0.015722 255 220 0
0.599199 0.014203 0.099274 255 220 0
0.580059 -0.052269 0.065065 255 220 0
0.592737 0.021875 0.011718 255 220 0
0.648209 0.037403 0.072676 255 220 0
0.587793 -0.032584 0.019867 255 220 0
0.571395 0.021905 0.076475 255 220 0
0.562006 -0.056431 0.054868 255 220 0
0.573860 0.057634 0.049010 255 220 0
0.585100 -0.004521 0.013244 255 220 0
0.612997 0.044192 0.101865 255 220 0
0.564024 -0.060275 0.051585 255 220 0
0.582237 0.009279 0.089785 255 220 0
0.630870 0.098680 0.067874 255 220 0
0.598626 0.079893 0.086710 255 220 0
0.592119 -0.031887 0.083177 255 220 0
0.592651 -0.051073 0.051118 255 220 0
0.604321 -0.006926 0.096126 255 220 0
0.579270 0.068875 0.049679 255 220 0
0.628557 0.099571 0.066606 255 220 0
0.634598 0.097118 0.067263 255 220 0
0.571039 0.048517 0.040007 255 220 0
0.595024 0.020382 0.011859 255 220 0
0.608952 -0.005974 0.021522 255 220 0
0.591676 -0.013375 0.091828 255 220 0
0.578408 0.052959 0.075868 255 220 0
0.546831 -0.029023 0.043394 255 220 0
0.546281 -0.036622 0.018030 255 220 0
0.598318 -0.029067 0.024604 255 220 0
0.646052 0.022939 0.053855 255 220 0
0.553324 -0.010671 0.046584 255 220 0
0.600926 -0.041028 0.038668 255 220 0
0.600603 0.076257 0.090805 255 220 0
0.637558 0.064259 0.091569 255 220 0
0.604682 0.075238 0.025662 255 220 0
0.583209 0.016527 0.090510 255 220 0
0.576418 0.006226 0.085033 255 220 0
0.639696 0.092499 0.071691 255 220 0
0.648383 0.040679 0.073632 255 220 0
0.642143 0.022926 0.041553 255 220 0
0.608667 0.067803 0.021337 255 220 0
0.635822 0.039833 0.028885 255 220 0
0.582490 0.012979 0.090008 255 220 0
0.638763 0.011153 0.077065 255 220 0
0.599140 0.070296 0.023267 255 220 0
0.634788 -0.002947 0.054105 255 220 0
0.649971 0.037654 0.057197 255 220 0
0.641817 0.041445 0.086500 255 220 0
0.625786 0.042487 0.099207 255 220 0
0.576417 0.043410 0.077282 255 220 0
0.578953 0.053563 0.076645 255 220 0
0.583466 0.017769 0.090677 255 220 0
0.629152 0.026989 0.024995 255 220 0
0.607100 -0.033989 0.071583 255 220 0
0.616756 0.022630 0.018319 255 220 0
0.589022 -0.036833 0.079313 255 220 0
0.642390 0.055885 0.037928 255 220 0
0.599756 -0.044740 0.044653 255 220 0
0.640529 0.008146 0.053087 255 220 0
0.616268 0.099859 0.062087 255 220 0
0.609643 -0.027393 0.033886 255 220 0
0.626281 0.099987 0.062619 255 220 0
0.551964 -0.031777 0.016165 255 220 0
0.592259 -0.020649 0.017855 255 220 0
0.564762 -0.009526 0.016708 255 220 0
0.553248 -0.009670 0.044908 255 220 0
0.622239 0.064028 0.023901 255 220 0
0.636105 0.026711 0.031406 255 220 0
0.556023 -0.017159 0.056996 255 220 0
0.610572 -0.034836 0.046617 255 220 0
0.591902 0.064099 0.022304 255 220 0
0.564166 0.011208 0.023634 255 220 0
0.615390 0.087535 0.035110 255 220 0
0.572067 -0.053913 0.024597 255 220 0
0.638676 0.063241 0.035102 255 220 0
0.603909 0.066913 0.020674 255 220 0
0.634255 0.021843 0.090382 255 220 0
0.606230 0.014181 0.015246 255 220 0
0.543004 -0.046784 0.042954 255 220 0
0.560583 -0.013196 0.064058 255 220 0
0.570669 0.024257 0.020377 255 220 0
0.647195 0.025292 0.058463 255 220 0
0.649229 0.048536 0.073313 255 220 0
0.592325 -0.031706 0.022042 255 220 0
0.593128 0.079789 0.080724 255 220 0
0.543496 -0.033301 0.039276 255 220 0
0.595078 0.014607 0.012347 255 220 0
0.593819 0.016780 0.012018 255 220 0
0.644029 0.027232 0.042964 255 220 0
0.588769 0.081013 0.046341 255 220 0
0.637559 0.022224 0.034677 255 220 0
0.577709 0.059358 0.034505 255 220 0
0.606243 0.048913 0.015035 255 220 0
0.634097 0.096176 0.072844 255 220 0
0.598609 -0.012180 0.094013 255 220 0
0.615439 0.058655 0.100439 255 220 0
0.583392 0.063632 0.029322 255 220 0
0.647092 0.043630 0.077831 255 220 0
0.624642 0.099140 0.072919 255 220 0
0.627996 0.065889 0.027638 255 220 0
0.555146 -0.004475 0.046671 255 220 0
0.578631 0.056437 0.029471 255 220 0
0.594894 -0.007959 0.094417 255 220 0
0.570034 0.023011 0.020652 255 220 0
0.585431 0.040437 0.090321 255 220 0
0.625576 0.099660 0.059947 255 220 0
0.621409 -0.018068 0.073898 255 220 0
0.556508 -0.001808 0.029837 255 220 0
0.627800 -0.011516 0.070036 255 220 0
0.577311 0.025871 0.015708 255 220 0
0.616810 0.002038 0.023508 255 220 0
0.565185 -0.062843 0.039513 255 220 0
0.556643 -0.011811 0.056540 255 220 0
0.615479 -0.003484 0.024657 255 220 0
0.580113 0.046215 0.082853 255 220 0
0.566869 0.000696 0.072853 255 220 0
0.572900 0.042934 0.027477 255 220 0
0.591009 0.084620 0.064189 255 220 0
0.579003 -0.013178 0.085375 255 220 0
0.613988 0.065866 0.099377 255 220 0
0.572940 0.034597 0.022069 255 220 0
0.646985 0.036738 0.075899 255 220 0
0.649072 0.055887 0.050666 255 220 0
0.566602 0.027286 0.028121 255 220 0
0.592619 0.040981 0.095791 255 220 0
0.540544 -0.037104 0.027184 255 220 0
0.554987 -0.047688 0.015654 255 220 0
0.612970 0.087090 0.034592 255 220 0
0.591528 0.083683 0.046116 255 220 0
0.580452 -0.005727 0.087547 255 220 0
0.552101 -0.014807 0.025598 255 220 0
0.609924 -0.017757 0.089066 255 220 0
0.608283 0.065043 0.098859 255 220 0
0.614056 -0.030232 0.065398 255 220 0
0.576367 -0.055665 0.061039 255 220 0
0.546428 -0.031829 0.020031 255 220 0
0.589969 -0.033118 0.082096 255 220 0
0.570807 -0.048896 0.065387 255 220 0
0.563730 -0.003883 0.018928 255 220 0
0.559050 0.009372 0.047544 255 220 0
0.585172 0.008483 0.012661 255 220 0
0.600927 0.046685 0.014192 255 220 0
0.603335 0.028822 0.101377 255 220 0
0.609410 0.097281 0.056702 255 220 0
0.639878 0.085581 0.049414 255 220 0
0.577712 0.061623 0.037749 255 220 0
0.579338 0.069181 0.051748 255 220 0
0.590520 -0.047828 0.066759 255 220 0
0.621983 0.020040 0.021608 255 220 0
0.591771 0.078843 0.036465 255 220 0
0.579893 -0.055778 0.034567 255 220 0
0.553761 -0.056247 0.049207 255 220 0
0.580315 0.048762 0.082082 255 220 0
0.589314 0.076396 0.078536 255 220 0
0.597903 -0.019750 0.090764 255 220 0
0.561854 -0.018128 0.015882 255 220 0
0.579150 -0.045926 0.022057 255 220 0
0.646962 0.025182 0.056062 255 220 0
0.627685 -0.012843 0.067283 255 220 0
0.563229 -0.011445 0.068267 255 220 0
0.645978 0.073514 0.050752 255 220 0
0.618454 -0.012477 0.031825 255 220 0
0.572676 0.051667 0.061025 255 220 0
0.586778 -0.042301 0.024486 255 220 0
0.547366 -0.039956 0.016637 255 220 0
0.591125 -0.050832 0.041464 255 220 0
0.630206 0.054850 0.025436 255 220 0
0.637615 0.086897 0.082437 255 220 0
0.567465 0.037588 0.055398 255 220 0
0.596228 0.074213 0.027456 255 220 0
0.594530 -0.000762 0.095771 255 220 0
0.641874 0.011228 0.066279 255 220 0
0.630315 0.004163 0.085148 255 220 0
0.617723 -0.014955 0.032821 255 220 0
0.591369 0.071169 0.085916 255 220 0
0.612955 0.020616 0.100953 255 220 0
0.586934 -0.051301 0.035034 255 220 0
0.611640 0.062065 0.099932 255 220 0
0.589646 0.048876 0.092458 255 220 0
0.626792 0.092894 0.045436 255 220 0
0.623715 0.011346 0.094725 255 220 0
0.573300 0.056244 0.052544 255 220 0
0.644823 0.028404 0.077050 255 220 0
0.606986 0.053522 0.100369 255 220 0
0.622664 0.097583 0.076853 255 220 0
0.586455 0.035180 0.091901 255 220 0
0.631353 0.034773 0.025421 255 220 0
0.635992 0.068417 0.092245 255 220 0
0.560148 -0.001950 0.060405 255 220 0
0.565180 -0.030945 0.069865 255 220 0
0.546749 -0.047617 0.017727 255 220 0
0.604022 0.030217 0.012874 255 220 0
0.580814 -0.006482 0.013235 255 220 0
0.587593 -0.035333 0.020968 255 220 0
0.596722 -0.042820 0.069166 255 220 0
0.543194 -0.052891 0.039320 255 220 0
0.611141 -0.002027 0.096573 255 220 0
0.606426 0.003278 0.017659 255 220 0
0.619147 -0.008455 0.088510 255 220 0
0.553841 -0.048893 0.016144 255 220 0
0.566191 -0.016428 0.073058 255 220 0
0.560067 -0.061619 0.047111 255 220 0
0.565629 0.019724 0.064867 255 220 0
0.597588 0.001510 0.014750 255 220 0
0.599371 0.046607 0.098779 255 220 0
0.625485 0.059645 0.024043 255 220 0
0.650674 0.052306 0.068613 255 220 0
0.615606 0.094578 0.044932 255 220 0
0.579400 -0.019555 0.013972 255 220 0
0.593000 0.077811 0.082665 255 220 0
0.628891 -0.004881 0.078217 255 220 0
0.604297 -0.018505 0.090911 255 220 0
0.561916 0.011364 0.059032 255 220 0
0.593967 -0.031876 0.023157 255 220 0
0.622447 0.093668 0.082948 255 220 0
0.614255 0.006048 0.020753 255 220 0
0.619708 -0.006089 0.029137 255 220 0
0.593751 0.084957 0.044293 255 220 0
0.574610 -0.008180 0.082826 255 220 0
0.565585 -0.012236 0.015723 255 220 0
0.560816 0.014630 0.051003 255 220 0
0.565834 0.033556 0.051148 255 220 0
0.586671 0.079353 0.048793 255 220 0
0.636413 0.014614 0.036660 255 220 0
0.620738 0.085903 0.034781 255 220 0
0.651020 0.043906 0.062345 255 220 0
0.607630 -0.038268 0.058204 255 220 0
0.564944 0.014360 0.023855 255 220 0
0.629210 -0.005285 0.077029 255 220 0
0.560099 -0.005730 0.021371 255 220 0
0.572070 0.024402 0.019058 255 220 0
0.561815 -0.009232 0.065445 255 220 0
0.583125 0.042029 0.087827 255 220 0
0.594060 0.061024 0.092872 255 220 0
0.552815 -0.045551 0.015213 255 220 0
0.648038 0.035157 0.071922 255 220 0
0.643839 0.027530 0.078808 255 220 0
0.628765 0.069786 0.029666 255 220 0
0.629862 0.099234 0.064826 255 220 0
0.553579 -0.019904 0.020128 255 220 0
0.546728 -0.025192 0.039814 255 220 0
0.642278 0.021793 0.042515 255 220 0
0.579593 0.065036 0.038080 255 220 0
0.567264 -0.013349 0.014931 255 220 0
0.593517 -0.007883 0.093970 255 220 0
0.573624 0.031228 0.077409 255 220 0
0.570675 0.024804 0.073964 255 220 0
0.566619 -0.026213 0.013747 255 220 0
0.595585 0.087108 0.045996 255 220 0
0.618273 0.070537 0.024905 255 220 0
0.592503 0.081941 0.076580 255 220 0
0.567903 -0.011099 0.015095 255 220 0
0.567626 0.040162 0.048277 255 220 0
0.620198 -0.010940 0.032680 255 220 0
0.626830 0.086036 0.037695 255 220 0
0.649711 0.041722 0.069405 255 220 0
0.563166 -0.003298 0.066718 255 220 0
0.542957 -0.039544 0.042147 255 220 0
0.559852 0.010565 0.051275 255 220 0
0.600839 0.051742 0.015395 255 220 0
0.607498 -0.001792 0.019470 255 220 0
0.576786 0.023642 0.084081 255 220 0
0.573099 0.041743 0.071047 255 220 0
0.581332 0.055552 0.025083 255 220 0
0.602854 0.022951 0.012970 255 220 0
0.545018 -0.051220 0.043975 255 220 0
0.624922 -0.006409 0.035105 255 220 0
0.613082 0.085565 0.033169 255 220 0
0.579712 0.055493 0.027018 255 220 0
0.651069 0.056999 0.058390 255 220 0
0.577370 0.012915 0.085707 255 220 0
0.573989 0.057528 0.046054 255 220 0
0.546554 -0.025473 0.025182 255 220 0
0.624535 0.056471 0.098961 255 220 0
0.628398 0.081739 0.035536 255 220 0
0.646394 0.050822 0.043977 255 220 0
0.623412 -0.020839 0.059917 255 220 0
0.563806 0.002520 0.066638 255 220 0
0.570420 0.029789 0.071188 255 220 0
0.589936 0.082343 0.068639 255 220 0
0.589672 0.029471 0.012216 255 220 0
0.589285 0.070864 0.029517 255 220 0
0.606074 -0.033028 0.074998 255 220 0
0.603470 -0.041674 0.045726 255 220 0
0.575111 0.040682 0.075974 255 220 0
0.590999 0.025031 0.011799 255 220 0
0.588603 -0.042329 0.025922 255 220 0
0.619405 0.047189 0.100940 255 220 0
0.625491 -0.017528 0.051798 255 220 0
0.543375 -0.031039 0.036067 255 220 0
0.616044 0.031484 0.016882 255 220 0
0.606294 0.093765 0.047383 255 220 0
0.577282 0.065243 0.053287 255 220 0
0.638124 0.024136 0.034658 255 220 0
0.626528 0.097724 0.076000 255 220 0
0.545338 -0.025343 0.030961 255 220 0
0.596308 0.067590 0.022431 255 220 0
0.606725 0.090608 0.080875 255 220 0
0.644081 0.032171 0.080477 255 220 0
0.628886 0.076032 0.094225 255 220 0
0.593165 -0.050732 0.050206 255 220 0
0.637662 0.014272 0.038771 255 220 0
0.625039 0.058171 0.098677 255 220 0
0.630005 -0.007175 0.044721 255 220 0
0.635955 -0.000003 0.066567 255 220 0
0.621137 -0.019191 0.042157 255 220 0
0.557618 -0.008788 0.057468 255 220 0
0.586727 -0.054677 0.045805 255 220 0
0.621198 0.100245 0.061258 255 220 0
0.554026 -0.013893 0.051469 255 220 0
0.585749 -0.050821 0.065416 255 220 0
0.564622 -0.062049 0.034415 255 220 0
0.592785 0.086240 0.051311 255 220 0
0.568318 0.003864 0.017719 255 220 0
0.637830 0.094713 0.060896 255 220 0
0.625592 -0.004983 0.083626 255 220 0
0.602201 0.045477 0.099998 255 220 0
0.567497 0.039500 0.042563 255 220 0
0.623993 -0.000140 0.030000 255 220 0
0.618009 -0.025142 0.044716 255 220 0
0.592791 0.049270 0.015781 255 220 0
0.594335 -0.012418 0.016499 255 220 0
0.597740 0.008787 0.098224 255 220 0
0.578192 0.046527 0.079246 255 220 0
0.622914 0.070097 0.097660 255 220 0
0.621445 0.044182 0.100640 255 220 0
0.557198 0.003558 0.035855 255 220 0
0.570328 -0.041231 0.069617 255 220 0
0.613869 0.079175 0.028435 255 220 0
0.594294 -0.041780 0.030821 255 220 0
0.568515 -0.006417 0.076183 255 220 0
0.582185 0.043002 0.017825 255 220 0
0.619554 0.087699 0.036009 255 220 0
0.568842 0.043193 0.053418 255 220 0
0.600229 0.011349 0.013800 255 220 0
0.589299 0.076643 0.036640 255 220 0
0.601041 0.025119 0.100663 255 220 0
0.608713 -0.023686 0.084757 255 220 0
0.568575 -0.032435 0.014032 255 220 0
0.644755 0.017849 0.064922 255 220 0
0.581355 -0.035731 0.078036 255 220 0
0.642726 0.050827 0.086317 255 220 0
0.639263 0.022780 0.084543 255 220 0
0.637645 0.006265 0.073538 255 220 0
0.560877 0.015290 0.034879 255 220 0
0.579094 0.065144 0.066646 255 220 0
0.600617 -0.044936 0.049911 255 220 0
0.623882 -0.018965 0.064951 255 220 0
0.612725 0.093300 0.080694 255 220 0
0.545238 -0.055885 0.038893 255 220 0
0.593018 -0.046347 0.035146 255 220 0
0.646483 0.036433 0.044270 255 220 0
0.577433 0.022408 0.084965 255 220 0
0.566369 0.006815 0.070730 255 220 0
0.551984 -0.015544 0.046773 255 220 0
0.608022 -0.024022 0.084968 255 220 0
0.593750 -0.050254 0.048385 255 220 0
0.605648 -0.019954 0.089593 255 220 0
0.642617 0.011771 0.058092 255 220 0
0.563319 0.006260 0.064649 255 220 0
0.557785 -0.014904 0.059558 255 220 0
0.601256 0.012686 0.013864 255 220 0
0.549006 -0.059318 0.031160 255 220 0
0.626230 0.068141 0.097168 255 220 0
0.604034 0.076835 0.092469 255 220 0
0.571039 -0.001552 0.079394 255 220 0
0.577741 -0.057480 0.035989 255 220 0
0.605296 0.058223 0.099318 255 220 0
0.604754 0.083285 0.088166 255 220 0
0.592124 0.082766 0.042540 255 220 0
0.607189 -0.002028 0.019383 255 220 0
0.628913 0.048349 0.023487 255 220 0
0.552077 -0.038822 0.054452 255 220 0
0.598191 -0.045605 0.059943 255 220 0
0.574078 0.027408 0.079587 255 220 0
0.564662 -0.014457 0.070894 255 220 0
0.569558 -0.026700 0.013700 255 220 0
0.605022 -0.002478 0.097442 255 220 0
0.618681 0.075976 0.096363 255 220 0
0.580090 -0.011035 0.086487 255 220 0
0.611622 0.094295 0.045170 255 220 0
0.636865 0.008810 0.078661 255 220 0
0.635413 0.018138 0.033640 255 220 0
0.556970 -0.021852 0.059536 255 220 0
0.586769 0.043864 0.015948 255 220 0
0.604386 0.095248 0.057642 255 220 0
0.629435 -0.005139 0.040869 255 220 0
0.602072 0.016084 0.100227 255 220 0
0.578472 0.025202 0.015000 255 220 0
0.617222 0.058259 0.019958 255 220 0
0.591564 -0.029636 0.020656 255 220 0
0.590643 -0.051867 0.044221 255 220 0
0.591646 0.085606 0.054267 255 220 0
0.596745 0.088009 0.046046 255 220 0
0.606620 -0.037565 0.043015 255 220 0
0.625850 0.066920 0.026820 255 220 0
0.584878 0.063818 0.081718 255 220 0
0.569018 -0.010330 0.076840 255 220 0
0.572760 -0.007807 0.081137 255 220 0
0.606151 0.051466 0.015559 255 220 0
0.629125 0.098839 0.070457 255 220 0
0.583874 0.052857 0.021187 255 220 0
0.631366 0.021823 0.028055 255 220 0
0.637142 0.086772 0.047031 255 220 0
0.635143 0.047705 0.093801 255 220 0
0.636255 0.028092 0.090305 255 220 0
0.618197 -0.006387 0.027965 255 220 0
0.615144 0.062907 0.020773 255 220 0
0.571362 0.050622 0.054628 255 220 0
0.580554 0.042511 0.084768 255 220 0
0.562707 0.023145 0.047899 255 220 0
0.627641 0.034404 0.022779 255 220 0
0.611147 0.079534 0.093666 255 220 0
0.643227 0.059822 0.040068 255 220 0
0.645252 0.049598 0.082369 255 220 0
0.603928 0.048342 0.100219 255 220 0
0.629386 0.098889 0.060440 255 220 0
0.624953 0.100334 0.065399 255 220 0
0.587893 0.054468 0.089602 255 220 0
0.591035 -0.013187 0.015552 255 220 0
0.616579 0.035429 0.101946 255 220 0
0.588884 0.081408 0.047213 255 220 0
0.637453 0.001345 0.058494 255 220 0
0.623146 0.058791 0.099188 255 220 0
0.601255 0.034276 0.100640 255 220 0
0.592147 0.065807 0.023205 255 220 0
0.577047 0.036522 0.018868 255 220 0
0.632353 0.032874 0.026510 255 220 0
0.602776 -0.020108 0.090281 255 220 0
0.600806 -0.022300 0.022892 255 220 0
0.620485 0.075854 0.096305 255 220 0
0.633501 0.018186 0.031392 255 220 0
0.621827 0.092300 0.084568 255 220 0
0.564085 -0.023202 0.070020 255 220 0
0.606482 0.032524 0.101997 255 220 0
0.595973 0.022069 0.011853 255 220 0
0.643515 0.068261 0.084643 255 220 0
0.572608 -0.006946 0.081043 255 220 0
0.646292 0.068967 0.079652 255 220 0
0.566887 0.028209 0.028175 255 220 0
0.608519 0.027784 0.014248 255 220 0
0.642178 0.037272 0.036588 255 220 0
0.636537 0.071896 0.036575 255 220 0
0.585247 0.077484 0.063850 255 220 0
0.599865 -0.044567 0.059053 255 220 0
0.596461 -0.044591 0.037464 255 220 0
0.640968 0.065780 0.038736 255 220 0
0.602134 -0.042412 0.044112 255 220 0
0.604810 0.094971 0.067774 255 220 0
0.571887 0.033028 0.072858 255 220 0
0.550793 -0.013087 0.033955 255 220 0
0.581188 -0.010135 0.087344 255 220 0
0.585438 0.078183 0.061833 255 220 0
0.616930 0.051033 0.101035 255 220 0
0.608826 -0.030568 0.075340 255 220 0
0.632021 0.001031 0.079527 255 220 0
0.634279 0.072270 0.092606 255 220 0
0.569773 -0.053691 0.061259 255 220 0
0.635735 0.011684 0.083161 255 220 0
0.633134 -0.001613 0.044365 255 220 0
0.588096 0.027610 0.012287 255 220 0
0.547818 -0.023885 0.041810 255 220 0
0.603267 -0.042677 0.050048 255 220 0
0.631207 0.025230 0.027037 255 220 0
0.646705 0.024090 0.065451 255 220 0
0.596224 0.064435 0.093294 255 220 0
0.597156 0.023613 0.011916 255 220 0
0.577908 -0.035195 0.016608 255 220 0
0.610521 0.097419 0.069445 255 220 0
0.594064 -0.006972 0.015265 255 220 0
0.604314 0.051336 0.015357 255 220 0
0.647096 0.035637 0.046067 255 220 0
0.585285 0.047581 0.017917 255 220 0
0.622429 -0.022377 0.057726 255 220 0
