ply
format ascii 1.0
element vertex 1024
property float x
property float y
property float z
property uchar red
property uchar green
property uchar blue
end_header
0.628825 0.011803 0.029685 255 220 0
0.586716 -0.055246 0.045099 255 220 0
0.625263 0.005297 0.029069 255 220 0
0.571212 0.049289 0.059408 255 220 0
0.643745 0.081328 0.076209 255 220 0
0.613032 -0.023886 0.079282 255 220 0
0.570874 0.042834 0.065702 255 220 0
0.604268 0.066880 0.097427 255 220 0
0.616370 0.097823 0.075257 255 220 0
0.626453 -0.011183 0.073291 255 220 0
0.594633 -0.046875 0.037653 255 220 0
0.570034 0.000179 0.079007 255 220 0
0.600364 0.092361 0.050317 255 220 0
0.620681 0.079100 0.029908 255 220 0
0.566639 0.031116 0.060839 255 220 0
0.601903 0.069172 0.021655 255 220 0
0.625277 -0.018022 0.059652 255 220 0
0.581932 -0.030336 0.082097 255 220 0
0.586685 -0.032709 0.019165 255 220 0
0.587298 -0.017915 0.015330 255 220 0
0.567047 0.038299 0.049998 255 220 0
0.629444 0.093523 0.048232 255 220 0
0.633821 0.007883 0.082127 255 220 0
0.637536 0.002477 0.060649 255 220 0
0.632228 -0.002375 0.044417 255 220 0
0.561398 0.017440 0.048110 255 220 0
0.605930 0.025985 0.013343 255 220 0
0.565725 -0.048285 0.063711 255 220 0
0.568582 0.037074 0.062803 255 220 0
0.587456 -0.009242 0.092061 255 220 0
0.582271 -0.028884 0.016163 255 220 0
0.603351 0.021456 0.101515 255 220 0
0.576556 0.060754 0.066063 255 220 0
0.570993 0.040079 0.068077 255 220 0
0.650368 0.047922 0.064451 255 220 0
0.641548 0.063657 0.039591 255 220 0
0.620628 0.098732 0.054280 255 220 0
0.602457 0.005085 0.099565 255 220 0
0.547010 -0.055915 0.041938 255 220 0
0.554260 -0.061151 0.029147 255 220 0
0.627492 0.067171 0.027929 255 220 0
0.631140 0.001142 0.038705 255 220 0
0.585374 0.045214 0.016819 255 220 0
0.639988 0.056169 0.035314 255 220 0
0.580889 0.072124 0.062169 255 220 0
0.638584 0.012554 0.077445 255 220 0
0.574729 0.030838 0.018901 255 220 0
0.593078 0.080696 0.081129 255 220 0
0.618390 0.024400 0.100408 255 220 0
0.606089 0.065264 0.098430 255 220 0
0.634465 0.055047 0.029022 255 220 0
0.608668 -0.037994 0.051452 255 220 0
0.636035 0.081819 0.086421 255 220 0
0.641296 0.080829 0.048478 255 220 0
0.631066 -0.006588 0.068573 255 220 0
0.604466 0.023374 0.013145 255 220 0
0.569322 0.003452 0.077673 255 220 0
0.540548 -0.040293 0.030380 255 220 0
0.548344 -0.045531 0.016671 255 220 0
0.578833 0.034054 0.016796 255 220 0
0.599567 0.033875 0.100749 255 220 0
0.615336 0.051966 0.100989 255 220 0
0.562714 -0.004134 0.020449 255 220 0
0.617635 -0.028304 0.054117 255 220 0
0.642792 0.078769 0.049527 255 220 0
0.610461 0.080274 0.028529 255 220 0
0.585277 -0.043716 0.074393 255 220 0
0.557280 -0.063455 0.035680 255 220 0
0.549748 -0.025247 0.022395 255 220 0
0.633397 0.081405 0.039377 255 220 0
0.543911 -0.037745 0.021833 255 220 0
0.577384 0.043462 0.021844 255 220 0
0.633634 0.071041 0.033994 255 220 0
0.636060 -0.000308 0.058953 255 220 0
0.573869 -0.057556 0.029337 255 220 0
0.645225 0.052986 0.080917 255 220 0
0.619297 -0.019422 0.075391 255 220 0
0.645895 0.033483 0.075177 255 220 0
0.595232 -0.018577 0.091819 255 220 0
0.589451 0.045102 0.093810 255 220 0
0.563276 0.024367 0.040594 255 220 0
0.609354 0.089946 0.037810 255 220 0
0.614100 0.071943 0.024065 255 220 0
0.625611 0.098972 0.056878 255 220 0
0.580751 0.072567 0.057445 255 220 0
0.623109 0.065443 0.097965 255 220 0
0.590581 -0.046099 0.070335 255 220 0
0.558910 -0.052519 0.017612 255 220 0
0.569392 -0.017693 0.014177 255 220 0
0.577627 0.052628 0.027647 255 220 0
0.579532 0.053417 0.079955 255 220 0
0.611265 -0.031619 0.041708 255 220 0
0.586743 -0.014627 0.014579 255 220 0
0.591578 -0.049570 0.037639 255 220 0
0.574322 0.037138 0.021994 255 220 0
0.604009 0.034744 0.012730 255 220 0
0.593020 -0.034231 0.082178 255 220 0
0.597158 -0.026572 0.022519 255 220 0
0.562912 -0.048648 0.061620 255 220 0
0.608611 0.015351 0.100829 255 220 0
0.644573 0.020305 0.067463 255 220 0
0.570697 0.027224 0.021877 255 220 0
0.645045 0.034300 0.043353 255 220 0
0.624147 0.002047 0.090032 255 220 0
0.637465 0.003242 0.052071 255 220 0
0.579233 0.066687 0.067281 255 220 0
0.592710 -0.049150 0.062433 255 220 0
0.594676 -0.033794 0.024529 255 220 0
0.586595 -0.001990 0.013148 255 220 0
0.557783 -0.030722 0.061599 255 220 0
0.616429 0.073581 0.097145 255 220 0
0.565203 -0.003961 0.018484 255 220 0
0.605026 0.015154 0.100978 255 220 0
0.574052 0.055307 0.039056 255 220 0
0.598819 -0.046753 0.048596 255 220 0
0.565950 0.032434 0.055654 255 220 0
0.574445 0.030345 0.080669 255 220 0
0.594415 -0.006945 0.095471 255 220 0
0.625891 0.076672 0.094467 255 220 0
0.559588 -0.029658 0.014640 255 220 0
0.621351 -0.002389 0.090035 255 220 0
0.599931 0.046505 0.013918 255 220 0
0.645559 0.041314 0.043172 255 220 0
0.641786 0.019552 0.044475 255 220 0
0.636167 0.048418 0.029657 255 220 0
0.582625 -0.004838 0.013213 255 220 0
0.576029 0.042377 0.078851 255 220 0
0.574706 0.046554 0.027486 255 220 0
0.615294 0.057209 0.018840 255 220 0
0.616641 -0.024165 0.072700 255 220 0
0.569654 0.029554 0.070708 255 220 0
0.606953 0.005887 0.017249 255 220 0
0.645966 0.046438 0.044164 255 220 0
0.579892 0.022515 0.088315 255 220 0
0.603725 0.020763 0.013202 255 220 0
0.600651 0.087960 0.039696 255 220 0
0.638696 0.004934 0.062650 255 220 0
0.548614 -0.021867 0.028980 255 220 0
0.630998 0.035163 0.095590 255 220 0
0.649979 0.043846 0.065171 255 220 0
0.599787 -0.021315 0.021888 255 220 0
0.603722 0.073128 0.023917 255 220 0
0.629111 -0.000925 0.037283 255 220 0
0.584172 -0.036968 0.079218 255 220 0
0.630028 0.089118 0.042991 255 220 0
0.641278 0.021829 0.079262 255 220 0
0.545279 -0.054737 0.040407 255 220 0
0.631990 0.091779 0.081388 255 220 0
0.573562 0.014693 0.082340 255 220 0
0.561788 -0.000476 0.063549 255 220 0
0.595261 0.032804 0.011888 255 220 0
0.642201 0.012247 0.057847 255 220 0
0.646254 0.080265 0.064855 255 220 0
0.586926 0.080227 0.067096 255 220 0
0.550104 -0.026119 0.046960 255 220 0
0.633118 0.034755 0.027350 255 220 0
0.585967 0.069972 0.080754 255 220 0
0.623926 -0.012149 0.077147 255 220 0
0.602597 0.078708 0.028339 255 220 0
0.554708 -0.043798 0.014588 255 220 0
0.606961 0.038220 0.013538 255 220 0
0.569705 0.045258 0.040982 255 220 0
0.619321 -0.026247 0.057362 255 220 0
0.590331 0.062327 0.090157 255 220 0
0.579707 0.047857 0.021890 255 220 0
0.583357 0.000923 0.091097 255 220 0
0.570415 0.034799 0.069768 255 220 0
0.631244 0.045017 0.025127 255 220 0
0.625104 -0.010699 0.076855 255 220 0
0.645674 0.067566 0.048569 255 220 0
0.582579 -0.055705 0.036422 255 220 0
0.593875 -0.028513 0.086375 255 220 0
0.594425 0.000938 0.013916 255 220 0
0.581524 -0.058235 0.045733 255 220 0
0.613811 0.099006 0.056661 255 220 0
0.629294 0.004838 0.086184 255 220 0
0.595767 -0.044138 0.034963 255 220 0
0.600190 0.028595 0.101136 255 220 0
0.546861 -0.052079 0.045475 255 220 0
0.637964 0.051368 0.031929 255 220 0
0.550415 -0.016868 0.032424 255 220 0
0.635660 0.001519 0.048129 255 220 0
0.614045 -0.025232 0.075700 255 220 0
0.540875 -0.049453 0.035663 255 220 0
0.631021 0.038542 0.025122 255 220 0
0.625426 0.099226 0.057545 255 220 0
0.627859 0.077231 0.093548 255 220 0
0.565714 -0.035465 0.069518 255 220 0
0.571326 -0.062231 0.042716 255 220 0
0.640632 0.009212 0.064204 255 220 0
0.567670 -0.022088 0.014086 255 220 0
0.627887 0.056833 0.097182 255 220 0
0.650487 0.049877 0.059002 255 220 0
0.552195 -0.045032 0.054000 255 220 0
0.584147 0.042593 0.016508 255 220 0
0.593415 0.046606 0.096321 255 220 0
0.599374 0.068507 0.021728 255 220 0
0.620319 -0.021957 0.068610 255 220 0
0.641022 0.029979 0.037551 255 220 0
0.603419 0.074031 0.024586 255 220 0
0.643743 0.017726 0.067130 255 220 0
0.600329 0.035105 0.012235 255 220 0
0.588073 -0.046917 0.070627 255 220 0
0.555207 -0.011891 0.052281 255 220 0
0.629248 0.038322 0.023826 255 220 0
0.567859 -0.018675 0.075684 255 220 0
0.633779 0.096005 0.072556 255 220 0
0.628485 -0.008380 0.072938 255 220 0
0.613512 0.035386 0.102419 255 220 0
0.576840 -0.038592 0.075400 255 220 0
0.548162 -0.034844 0.018374 255 220 0
0.600506 -0.041402 0.067302 255 220 0
0.619361 0.040384 0.018043 255 220 0
0.564955 -0.056833 0.057023 255 220 0
0.570241 0.027824 0.022745 255 220 0
0.606388 0.054966 0.016179 255 220 0
0.585423 0.079526 0.059232 255 220 0
0.642893 0.064081 0.041854 255 220 0
0.647154 0.031173 0.069192 255 220 0
0.541851 -0.044761 0.023099 255 220 0
0.587205 0.066243 0.026971 255 220 0
0.635381 0.074176 0.090346 255 220 0
0.551623 -0.013868 0.037407 255 220 0
0.645382 0.062507 0.080358 255 220 0
0.624862 0.010539 0.026630 255 220 0
0.544222 -0.033759 0.024551 255 220 0
0.594416 -0.019376 0.018344 255 220 0
0.594551 0.039028 0.012766 255 220 0
0.554655 -0.006512 0.033654 255 220 0
0.591495 -0.023897 0.088654 255 220 0
0.640766 0.008968 0.061361 255 220 0
0.597145 -0.016447 0.092971 255 220 0
0.613443 0.037511 0.102387 255 220 0
0.640213 0.073283 0.086006 255 220 0
0.563914 0.008067 0.065858 255 220 0
0.617451 0.046396 0.101241 255 220 0
0.544613 -0.041516 0.019537 255 220 0
0.635361 0.092389 0.077558 255 220 0
0.554972 -0.046285 0.014964 255 220 0
0.547189 -0.035158 0.045430 255 220 0
0.563959 -0.051007 0.060910 255 220 0
0.575447 0.019309 0.015776 255 220 0
0.563209 0.009039 0.063847 255 220 0
0.566361 -0.023777 0.073224 255 220 0
0.633085 0.010985 0.085548 255 220 0
0.541144 -0.038928 0.028509 255 220 0
0.627315 0.082392 0.035281 255 220 0
0.613509 0.097604 0.051917 255 220 0
0.605430 -0.034988 0.072416 255 220 0
0.542724 -0.034559 0.032129 255 220 0
0.577296 -0.060146 0.045563 255 220 0
0.619284 0.007881 0.023489 255 220 0
0.623459 -0.018616 0.066862 255 220 0
0.592504 0.075893 0.031372 255 220 0
0.597398 0.015282 0.012400 255 220 0
0.557061 -0.054043 0.018430 255 220 0
0.643095 0.024825 0.043855 255 220 0
0.643130 0.079577 0.050844 255 220 0
0.611101 0.097693 0.071349 255 220 0
0.583324 0.062966 0.081303 255 220 0
0.566992 -0.045594 0.016285 255 220 0
0.631905 0.077852 0.035927 255 220 0
0.601448 0.037122 0.012520 255 220 0
0.643661 0.062854 0.042767 255 220 0
0.610828 0.033802 0.014582 255 220 0
0.571632 0.032670 0.023204 255 220 0
0.548408 -0.033727 0.018652 255 220 0
0.608337 0.094082 0.045416 255 220 0
0.621552 0.074112 0.027688 255 220 0
0.540871 -0.050415 0.034341 255 220 0
0.567590 -0.005723 0.075761 255 220 0
0.643541 0.074706 0.048114 255 220 0
0.647611 0.040207 0.073346 255 220 0
0.577326 0.057294 0.072026 255 220 0
0.637885 0.036596 0.032033 255 220 0
0.577054 -0.023847 0.082023 255 220 0
0.640746 0.010139 0.052400 255 220 0
0.574862 0.037386 0.021489 255 220 0
0.643192 0.065790 0.042982 255 220 0
0.575149 0.044472 0.075631 255 220 0
0.640886 0.023396 0.080979 255 220 0
0.550714 -0.058481 0.043664 255 220 0
0.541635 -0.044668 0.023545 255 220 0
0.599442 0.076419 0.027493 255 220 0
0.638675 0.054306 0.089851 255 220 0
0.556936 -0.041667 0.059501 255 220 0
0.645854 0.044419 0.043812 255 220 0
0.630628 0.059715 0.095634 255 220 0
0.573293 0.031196 0.020452 255 220 0
0.575229 -0.016308 0.082910 255 220 0
0.650268 0.053717 0.057804 255 220 0
0.579083 -0.048646 0.069523 255 220 0
0.636479 0.067851 0.090897 255 220 0
0.595659 0.081710 0.035301 255 220 0
0.573171 -0.034782 0.075211 255 220 0
0.542819 -0.043041 0.041024 255 220 0
0.576574 -0.007961 0.085363 255 220 0
0.614185 0.087724 0.088510 255 220 0
0.598567 -0.015993 0.093280 255 220 0
0.588891 0.002544 0.012912 255 220 0
0.545775 -0.028380 0.027830 255 220 0
0.589115 -0.014138 0.015106 255 220 0
0.630351 0.018907 0.028559 255 220 0
0.619348 -0.021531 0.071778 255 220 0
0.639205 0.088334 0.052323 255 220 0
0.641854 0.013238 0.051657 255 220 0
0.635319 0.082896 0.086355 255 220 0
0.610647 0.007782 0.099290 255 220 0
0.602108 -0.043702 0.047635 255 220 0
0.587052 0.022955 0.094120 255 220 0
0.607908 0.068992 0.097856 255 220 0
0.616223 0.048060 0.101282 255 220 0
0.575103 0.039085 0.022073 255 220 0
0.615824 -0.024583 0.073593 255 220 0
0.639188 0.015345 0.078746 255 220 0
0.587417 0.008545 0.094137 255 220 0
0.598916 -0.031643 0.083026 255 220 0
0.599533 -0.003787 0.016433 255 220 0
0.563123 0.012152 0.062340 255 220 0
0.636576 0.066326 0.091034 255 220 0
0.611012 -0.035626 0.056450 255 220 0
0.613835 0.090381 0.085696 255 220 0
0.539779 -0.044861 0.032270 255 220 0
0.573567 0.057363 0.047610 255 220 0
0.584925 0.046368 0.017463 255 220 0
0.590015 0.083256 0.047230 255 220 0
0.583425 -0.011406 0.089391 255 220 0
0.554392 -0.006584 0.040247 255 220 0
0.577485 0.066467 0.051296 255 220 0
0.573737 -0.025417 0.079210 255 220 0
0.608128 0.069551 0.097728 255 220 0
0.550700 -0.025262 0.021178 255 220 0
0.636477 0.012372 0.081428 255 220 0
0.568785 -0.007033 0.077509 255 220 0
0.594132 0.088945 0.057695 255 220 0
0.555215 -0.011939 0.052330 255 220 0
0.561950 -0.010128 0.018897 255 220 0
0.610895 0.059518 0.100176 255 220 0
0.589679 0.016172 0.095828 255 220 0
0.604441 -0.003222 0.097815 255 220 0
0.650158 0.059291 0.059948 255 220 0
0.611899 0.097940 0.071517 255 220 0
0.639893 0.009664 0.049450 255 220 0
0.646196 0.057345 0.046327 255 220 0
0.643047 0.029917 0.080049 255 220 0
0.643286 0.033911 0.081128 255 220 0
0.548725 -0.030238 0.046037 255 220 0
0.642642 0.063804 0.041339 255 220 0
0.644946 0.024637 0.071623 255 220 0
0.541183 -0.047722 0.037633 255 220 0
0.635823 0.083280 0.085702 255 220 0
0.578657 0.040647 0.083953 255 220 0
0.573321 0.035749 0.022524 255 220 0
0.616813 -0.023551 0.073450 255 220 0
0.608553 0.044764 0.014537 255 220 0
0.640576 0.020416 0.079758 255 220 0
0.638896 0.026789 0.035572 255 220 0
0.628805 0.082879 0.090377 255 220 0
0.599329 -0.031352 0.026659 255 220 0
0.547455 -0.042829 0.048143 255 220 0
0.570517 -0.056322 0.060161 255 220 0
0.626827 0.052160 0.097937 255 220 0
0.641360 0.036764 0.085022 255 220 0
0.558722 -0.059716 0.024684 255 220 0
0.624811 0.096149 0.049832 255 220 0
0.587358 -0.029127 0.084831 255 220 0
0.567308 0.006741 0.073618 255 220 0
0.564526 0.019399 0.028257 255 220 0
0.566387 0.022087 0.026083 255 220 0
0.594256 0.088206 0.067649 255 220 0
0.565204 0.027973 0.057830 255 220 0
0.606632 0.096916 0.057370 255 220 0
0.555501 -0.058563 0.023176 255 220 0
0.640868 0.035001 0.036049 255 220 0
0.580300 0.068016 0.069137 255 220 0
0.559687 -0.007774 0.021874 255 220 0
0.590365 -0.033702 0.082588 255 220 0
0.644325 0.054546 0.082565 255 220 0
0.579825 0.068716 0.065997 255 220 0
0.608601 0.094618 0.076349 255 220 0
0.602799 0.091968 0.075677 255 220 0
0.596376 0.022494 0.011655 255 220 0
0.564542 -0.013138 0.071327 255 220 0
0.580813 0.042055 0.018258 255 220 0
0.567639 -0.010431 0.075925 255 220 0
0.579528 0.035083 0.016658 255 220 0
0.584720 0.055824 0.086793 255 220 0
0.647730 0.072406 0.069692 255 220 0
0.578120 -0.017805 0.013697 255 220 0
0.564611 -0.061566 0.029769 255 220 0
0.562102 -0.040059 0.014099 255 220 0
0.607517 0.077609 0.094013 255 220 0
0.574825 -0.060306 0.038203 255 220 0
0.570357 0.011980 0.018071 255 220 0
0.566478 0.036077 0.043930 255 220 0
0.634397 0.043727 0.093523 255 220 0
0.629767 -0.003609 0.077067 255 220 0
0.629325 0.049522 0.024135 255 220 0
0.567029 0.005489 0.073318 255 220 0
0.628183 -0.013657 0.058108 255 220 0
0.594951 0.072484 0.089537 255 220 0
0.601498 0.065832 0.019939 255 220 0
0.621498 0.046228 0.100291 255 220 0
0.588092 0.002719 0.012857 255 220 0
0.561946 0.015812 0.055608 255 220 0
0.629359 0.091786 0.083026 255 220 0
0.572467 0.040407 0.071610 255 220 0
0.571362 0.050580 0.057671 255 220 0
0.625571 -0.017680 0.055812 255 220 0
0.541917 -0.050556 0.037722 255 220 0
0.638482 0.062552 0.035249 255 220 0
0.625335 0.052611 0.022247 255 220 0
0.568110 0.041221 0.053758 255 220 0
0.615663 -0.028396 0.066030 255 220 0
0.637223 0.010458 0.078278 255 220 0
0.609514 -0.007829 0.022691 255 220 0
0.631007 0.092464 0.047962 255 220 0
0.582776 -0.002578 0.013151 255 220 0
0.561787 -0.054540 0.019624 255 220 0
0.559834 -0.010789 0.020325 255 220 0
0.640167 0.011920 0.072416 255 220 0
0.644593 0.063001 0.081759 255 220 0
0.637458 0.003436 0.065914 255 220 0
0.577120 0.057771 0.071101 255 220 0
0.580490 -0.021419 0.014330 255 220 0
0.554595 -0.024722 0.055641 255 220 0
0.599337 0.027960 0.011863 255 220 0
0.638095 0.022192 0.036329 255 220 0
0.616374 0.063289 0.099509 255 220 0
0.571175 0.000043 0.015885 255 220 0
0.595183 0.027551 0.099115 255 220 0
0.593884 0.039453 0.012916 255 220 0
0.560915 0.006288 0.058834 255 220 0
0.585377 0.079532 0.057429 255 220 0
0.577159 0.056143 0.072512 255 220 0
0.572274 -0.060316 0.033961 255 220 0
0.582557 -0.056362 0.038322 255 220 0
0.644354 0.082800 0.072970 255 220 0
0.622261 0.062773 0.023416 255 220 0
0.547533 -0.057525 0.026289 255 220 0
0.571390 0.043427 0.031545 255 220 0
0.601612 0.022711 0.012458 255 220 0
0.621476 0.021684 0.021196 255 220 0
0.637260 0.018917 0.036635 255 220 0
0.571886 0.014770 0.017406 255 220 0
0.605506 -0.040505 0.047835 255 220 0
0.578820 -0.057122 0.034139 255 220 0
0.611215 -0.033875 0.046021 255 220 0
0.582164 -0.057933 0.051197 255 220 0
0.633964 0.076013 0.036690 255 220 0
0.569441 0.031766 0.068977 255 220 0
0.646429 0.025517 0.056831 255 220 0
0.632003 0.078371 0.036298 255 220 0
0.634285 0.034668 0.092836 255 220 0
0.631507 -0.001626 0.076056 255 220 0
0.558698 -0.054224 0.018734 255 220 0
0.636180 0.095177 0.070114 255 220 0
0.566614 0.031261 0.060592 255 220 0
0.618724 -0.026302 0.050500 255 220 0
0.547928 -0.043921 0.048907 255 220 0
0.609786 -0.005135 0.096147 255 220 0
0.566300 0.013942 0.022546 255 220 0
0.602116 -0.029382 0.083651 255 220 0
0.572414 -0.042731 0.016933 255 220 0
0.622594 0.065414 0.098106 255 220 0
0.607750 0.079817 0.028292 255 220 0
0.552377 -0.017985 0.047871 255 220 0
0.596313 0.038656 0.098936 255 220 0
0.552409 -0.013042 0.041934 255 220 0
0.569472 -0.061372 0.033715 255 220 0
0.585694 -0.032401 0.018582 255 220 0
0.616937 0.079994 0.029218 255 220 0
0.549824 -0.040718 0.051126 255 220 0
0.643727 0.025115 0.045200 255 220 0
0.602619 0.081656 0.030949 255 220 0
0.595192 0.089840 0.057375 255 220 0
0.610493 0.048234 0.015497 255 220 0
0.569968 0.047428 0.053740 255 220 0
0.600909 -0.029904 0.027041 255 220 0
0.570334 0.034631 0.026448 255 220 0
0.569170 0.043597 0.057155 255 220 0
0.562856 -0.029142 0.014111 255 220 0
0.625554 -0.014670 0.069238 255 220 0
0.621909 0.007333 0.094299 255 220 0
0.647539 0.069324 0.054528 255 220 0
0.590902 0.005124 0.095894 255 220 0
0.568933 0.042182 0.038904 255 220 0
0.555585 -0.003019 0.040823 255 220 0
0.553921 -0.060881 0.028594 255 220 0
0.641391 0.011197 0.053694 255 220 0
0.594716 -0.024465 0.088866 255 220 0
0.548339 -0.042116 0.049274 255 220 0
0.565121 0.015664 0.024976 255 220 0
0.593653 0.013773 0.097903 255 220 0
0.560496 -0.051886 0.058084 255 220 0
0.625203 -0.006450 0.081848 255 220 0
0.639758 0.062241 0.088473 255 220 0
0.633599 0.062573 0.093638 255 220 0
0.593469 -0.049827 0.042264 255 220 0
0.570708 0.040989 0.066632 255 220 0
0.595114 0.052645 0.016037 255 220 0
0.575530 0.051621 0.030362 255 220 0
0.616216 0.019291 0.018722 255 220 0
0.638526 0.013839 0.041740 255 220 0
0.599799 0.010784 0.013593 255 220 0
0.547426 -0.023869 0.034143 255 220 0
0.593521 -0.042391 0.030065 255 220 0
0.586553 0.079217 0.046308 255 220 0
0.587114 -0.000599 0.013072 255 220 0
0.603428 0.030452 0.012521 255 220 0
0.592862 0.083268 0.077177 255 220 0
0.586554 -0.020171 0.088536 255 220 0
0.641481 0.010681 0.056613 255 220 0
0.615470 -0.030676 0.052086 255 220 0
0.634562 0.003629 0.042587 255 220 0
0.574186 0.055988 0.039720 255 220 0
0.561139 0.004182 0.026062 255 220 0
0.568333 -0.041793 0.015447 255 220 0
0.593159 0.016055 0.011842 255 220 0
0.620144 -0.000937 0.027447 255 220 0
0.619106 0.057402 0.020335 255 220 0
0.621082 0.047332 0.100329 255 220 0
0.567113 -0.031445 0.072057 255 220 0
0.628588 0.089043 0.041786 255 220 0
0.599334 -0.015942 0.093323 255 220 0
0.634498 0.078036 0.089579 255 220 0
0.603496 0.045903 0.100776 255 220 0
0.609094 0.048664 0.015252 255 220 0
0.596420 0.090656 0.064062 255 220 0
0.618604 -0.027060 0.058474 255 220 0
0.603073 0.080879 0.089827 255 220 0
0.613800 -0.021137 0.033550 255 220 0
0.631530 0.026025 0.093551 255 220 0
0.569126 0.032531 0.027334 255 220 0
0.638658 0.008457 0.071984 255 220 0
0.594924 0.061902 0.093917 255 220 0
0.568692 -0.012918 0.077208 255 220 0
0.626248 0.004987 0.089668 255 220 0
0.602622 -0.014970 0.021144 255 220 0
0.594441 0.039244 0.012815 255 220 0
0.602427 0.044556 0.100648 255 220 0
0.569875 -0.028965 0.013828 255 220 0
0.618730 -0.014836 0.082341 255 220 0
0.637619 0.003960 0.050928 255 220 0
0.587759 0.053754 0.090552 255 220 0
0.627998 -0.003132 0.037428 255 220 0
0.604879 -0.039675 0.043443 255 220 0
0.579885 0.013945 0.088822 255 220 0
0.567830 0.014998 0.021050 255 220 0
0.611869 -0.031654 0.043006 255 220 0
0.580068 -0.032401 0.016333 255 220 0
0.597150 0.015158 0.099490 255 220 0
0.579850 -0.052280 0.066205 255 220 0
0.594096 0.020643 0.011586 255 220 0
0.647005 0.038099 0.074276 255 220 0
0.589222 -0.033640 0.020874 255 220 0
0.570214 0.022078 0.075434 255 220 0
0.562244 -0.056834 0.055411 255 220 0
0.573507 0.057146 0.047214 255 220 0
0.586593 -0.005769 0.013461 255 220 0
0.610621 0.045312 0.101882 255 220 0
0.564417 -0.060741 0.052307 255 220 0
0.580612 0.009868 0.089467 255 220 0
0.629433 0.099099 0.067287 255 220 0
0.596606 0.080516 0.085299 255 220 0
0.591040 -0.031366 0.084269 255 220 0
0.592974 -0.051322 0.052738 255 220 0
0.602542 -0.006000 0.097069 255 220 0
0.578806 0.068443 0.047818 255 220 0
0.627166 0.099940 0.065907 255 220 0
0.633194 0.097553 0.066861 255 220 0
0.571109 0.047790 0.038335 255 220 0
0.596387 0.019173 0.011854 255 220 0
0.610110 -0.006826 0.022704 255 220 0
0.590124 -0.012653 0.092437 255 220 0
0.577023 0.053163 0.074337 255 220 0
0.547338 -0.029838 0.042678 255 220 0
0.547845 -0.038057 0.017507 255 220 0
0.599527 -0.029923 0.025933 255 220 0
0.645697 0.023165 0.055747 255 220 0
0.553570 -0.011362 0.045668 255 220 0
0.601663 -0.041516 0.040379 255 220 0
0.598445 0.076996 0.089556 255 220 0
0.635426 0.065320 0.092068 255 220 0
0.605100 0.074425 0.024669 255 220 0
0.581503 0.017138 0.090050 255 220 0
0.575007 0.006652 0.084566 255 220 0
0.638145 0.093085 0.071600 255 220 0
0.647118 0.041399 0.075156 255 220 0
0.642276 0.022820 0.043304 255 220 0
0.609306 0.066920 0.020688 255 220 0
0.636341 0.039362 0.029985 255 220 0
0.580829 0.013574 0.089608 255 220 0
0.637581 0.011888 0.078935 255 220 0
0.599692 0.069381 0.022180 255 220 0
0.634616 -0.002798 0.056192 255 220 0
0.649375 0.037988 0.058877 255 220 0
0.640044 0.042425 0.087734 255 220 0
0.623517 0.043647 0.099771 255 220 0
0.575047 0.043635 0.075907 255 220 0
0.577534 0.053790 0.075121 255 220 0
0.581743 0.018386 0.090197 255 220 0
0.629921 0.026373 0.026153 255 220 0
0.606481 -0.033628 0.073328 255 220 0
0.617829 0.021753 0.019105 255 220 0
0.588133 -0.036429 0.080410 255 220 0
0.642431 0.055682 0.038881 255 220 0
0.600283 -0.045091 0.046404 255 220 0
0.640314 0.008313 0.055127 255 220 0
0.615063 0.100018 0.060903 255 220 0
0.610465 -0.027931 0.035609 255 220 0
0.625046 0.100241 0.061826 255 220 0
0.553563 -0.033212 0.015749 255 220 0
0.593680 -0.021721 0.018746 255 220 0
0.566170 -0.010853 0.016245 255 220 0
0.553553 -0.010403 0.043966 255 220 0
0.622792 0.063318 0.023876 255 220 0
0.636617 0.026309 0.032838 255 220 0
0.555901 -0.017572 0.056335 255 220 0
0.610943 -0.035055 0.048546 255 220 0
0.592543 0.063105 0.021087 255 220 0
0.565153 0.010039 0.022629 255 220 0
0.615339 0.087035 0.034224 255 220 0
0.573474 -0.054974 0.025507 255 220 0
0.638780 0.062937 0.035731 255 220 0
0.604584 0.065975 0.019861 255 220 0
0.632474 0.022863 0.091798 255 220 0
0.607494 0.013147 0.015830 255 220 0
0.543659 -0.047635 0.042526 255 220 0
0.560151 -0.013402 0.063471 255 220 0
0.571687 0.023057 0.019310 255 220 0
0.646640 0.025638 0.060337 255 220 0
0.647920 0.049253 0.074677 255 220 0
0.593659 -0.032672 0.023203 255 220 0
0.591349 0.080222 0.079105 255 220 0
0.544200 -0.034241 0.038539 255 220 0
0.596462 0.013412 0.012485 255 220 0
0.595202 0.015566 0.012054 255 220 0
0.644074 0.027174 0.044682 255 220 0
0.588343 0.080572 0.044558 255 220 0
0.637972 0.021914 0.036273 255 220 0
0.577913 0.058548 0.032834 255 220 0
0.607267 0.047863 0.014764 255 220 0
0.632480 0.096743 0.072441 255 220 0
0.596957 -0.011349 0.094863 255 220 0
0.613014 0.059755 0.100197 255 220 0
0.583766 0.062740 0.027774 255 220 0
0.645641 0.044441 0.079228 255 220 0
0.623008 0.099631 0.072070 255 220 0
0.628384 0.065316 0.027790 255 220 0
0.555343 -0.005151 0.045674 255 220 0
0.579053 0.055512 0.027914 255 220 0
0.593198 -0.007150 0.095016 255 220 0
0.571051 0.021813 0.019591 255 220 0
0.583559 0.041054 0.089359 255 220 0
0.624449 0.099843 0.059136 255 220 0
0.620575 -0.017540 0.075811 255 220 0
0.557350 -0.002884 0.028845 255 220 0
0.627066 -0.011033 0.072042 255 220 0
0.578497 0.024611 0.014866 255 220 0
0.617825 0.001294 0.024798 255 220 0
0.566072 -0.063593 0.040357 255 220 0
0.556501 -0.012232 0.055772 255 220 0
0.616489 -0.004208 0.026030 255 220 0
0.578500 0.046606 0.081548 255 220 0
0.565985 0.000750 0.072161 255 220 0
0.573502 0.041919 0.026029 255 220 0
0.589851 0.084631 0.062386 255 220 0
0.577714 -0.012715 0.085487 255 220 0
0.611555 0.066926 0.098901 255 220 0
0.573816 0.033453 0.020835 255 220 0
0.645660 0.037503 0.077464 255 220 0
0.648605 0.056048 0.051867 255 220 0
0.567296 0.026240 0.026811 255 220 0
0.590522 0.041789 0.095093 255 220 0
0.541755 -0.038362 0.026438 255 220 0
0.556717 -0.049106 0.015749 255 220 0
0.612944 0.086558 0.033623 255 220 0
0.591089 0.083259 0.044376 255 220 0
0.579023 -0.005203 0.087531 255 220 0
0.553206 -0.016018 0.024758 255 220 0
0.608497 -0.016953 0.090503 255 220 0
0.605881 0.066044 0.098180 255 220 0
0.613649 -0.029967 0.067330 255 220 0
0.576345 -0.055803 0.062122 255 220 0
0.547879 -0.033215 0.019393 255 220 0
0.588943 -0.032640 0.083135 255 220 0
0.570569 -0.048975 0.066080 255 220 0
0.565011 -0.005165 0.018283 255 220 0
0.559111 0.008744 0.046358 255 220 0
0.586596 0.007218 0.012561 255 220 0
0.602005 0.045572 0.013767 255 220 0
0.601095 0.029857 0.101394 255 220 0
0.608442 0.097255 0.055318 255 220 0
0.639256 0.085628 0.049524 255 220 0
0.577772 0.060890 0.036019 255 220 0
0.578790 0.068801 0.049880 255 220 0
0.590204 -0.047714 0.068198 255 220 0
0.622941 0.019286 0.022660 255 220 0
0.591748 0.078188 0.034864 255 220 0
0.580913 -0.056532 0.035819 255 220 0
0.554228 -0.056856 0.049428 255 220 0
0.578714 0.049134 0.080723 255 220 0
0.587649 0.076745 0.076854 255 220 0
0.596433 -0.019002 0.091776 255 220 0
0.563359 -0.019495 0.015518 255 220 0
0.580595 -0.046994 0.023051 255 220 0
0.646502 0.025468 0.057932 255 220 0
0.627069 -0.012428 0.069320 255 220 0
0.562616 -0.011528 0.067736 255 220 0
0.645384 0.073647 0.051398 255 220 0
0.619243 -0.012999 0.033529 255 220 0
0.571892 0.051464 0.059317 255 220 0
0.588095 -0.043249 0.025688 255 220 0
0.549008 -0.041415 0.016240 255 220 0
0.591829 -0.051328 0.043029 255 220 0
0.630758 0.054245 0.025949 255 220 0
0.635681 0.087729 0.082390 255 220 0
0.567007 0.037210 0.053838 255 220 0
0.596590 0.073375 0.026154 255 220 0
0.592730 0.000075 0.096177 255 220 0
0.641115 0.011726 0.068281 255 220 0
0.628871 0.005029 0.086850 255 220 0
0.618491 -0.015458 0.034556 255 220 0
0.589448 0.071717 0.084435 255 220 0
0.610783 0.021721 0.101550 255 220 0
0.587898 -0.051988 0.036452 255 220 0
0.609214 0.063121 0.099457 255 220 0
0.587626 0.049576 0.091452 255 220 0
0.626286 0.092735 0.044855 255 220 0
0.621846 0.012390 0.095980 255 220 0
0.572818 0.055838 0.050757 255 220 0
0.643514 0.029182 0.078734 255 220 0
0.604607 0.054554 0.099922 255 220 0
0.620888 0.098155 0.075961 255 220 0
0.584557 0.035845 0.091108 255 220 0
0.632048 0.034184 0.026474 255 220 0
0.633805 0.069481 0.092579 255 220 0
0.559780 -0.002252 0.059527 255 220 0
0.564642 -0.030966 0.069889 255 220 0
0.548403 -0.049052 0.017494 255 220 0
0.605266 0.029102 0.012979 255 220 0
0.582325 -0.007764 0.013332 255 220 0
0.588999 -0.036362 0.022034 255 220 0
0.596270 -0.042599 0.070723 255 220 0
0.544036 -0.053827 0.039054 255 220 0
0.609305 -0.001036 0.097662 255 220 0
0.607672 0.002308 0.018517 255 220 0
0.617668 -0.007593 0.090081 255 220 0
0.555561 -0.050309 0.016223 255 220 0
0.565422 -0.016368 0.072760 255 220 0
0.560650 -0.062226 0.047715 255 220 0
0.564927 0.019568 0.063666 255 220 0
0.598968 0.000399 0.015308 255 220 0
0.597110 0.047540 0.098204 255 220 0
0.626061 0.058966 0.024253 255 220 0
0.649523 0.052918 0.069947 255 220 0
0.615117 0.094316 0.043871 255 220 0
0.580976 -0.020826 0.014334 255 220 0
0.591158 0.078290 0.081088 255 220 0
0.627785 -0.004192 0.080094 255 220 0
0.602807 -0.017702 0.092143 255 220 0
0.561507 0.011039 0.057897 255 220 0
0.595256 -0.032801 0.024386 255 220 0
0.620458 0.094387 0.082137 255 220 0
0.615353 0.005216 0.021847 255 220 0
0.620557 -0.006669 0.030735 255 220 0
0.593373 0.084506 0.042611 255 220 0
0.573390 -0.007817 0.082646 255 220 0
0.567051 -0.013579 0.015360 255 220 0
0.560701 0.014098 0.049752 255 220 0
0.565574 0.033062 0.049629 255 220 0
0.586161 0.078957 0.046966 255 220 0
0.636804 0.014346 0.038397 255 220 0
0.620707 0.085439 0.034147 255 220 0
0.650176 0.044372 0.063906 255 220 0
0.607570 -0.038227 0.060089 255 220 0
0.565900 0.013202 0.022803 255 220 0
0.628154 -0.004622 0.078929 255 220 0
0.561300 -0.006981 0.020626 255 220 0
0.573138 0.023181 0.018044 255 220 0
0.561299 -0.009395 0.064806 255 220 0
0.581343 0.042566 0.086738 255 220 0
0.591934 0.061766 0.091739 255 220 0
0.554549 -0.046998 0.015170 255 220 0
0.646881 0.035834 0.073571 255 220 0
0.642467 0.028344 0.080473 255 220 0
0.629044 0.069267 0.029750 255 220 0
0.628542 0.099571 0.064189 255 220 0
0.554936 -0.021234 0.019478 255 220 0
0.547350 -0.026096 0.039003 255 220 0
0.642381 0.021712 0.044299 255 220 0
0.579614 0.064326 0.036339 255 220 0
0.568768 -0.014697 0.014663 255 220 0
0.591839 -0.007096 0.094514 255 220 0
0.572337 0.031438 0.076225 255 220 0
0.569573 0.024909 0.072826 255 220 0
0.568262 -0.027590 0.013772 255 220 0
0.595123 0.086712 0.044331 255 220 0
0.618744 0.069817 0.024563 255 220 0
0.590873 0.082268 0.074888 255 220 0
0.569384 -0.012439 0.014796 255 220 0
0.567431 0.039611 0.046668 255 220 0
0.620941 -0.011428 0.034414 255 220 0
0.626678 0.085691 0.037293 255 220 0
0.648605 0.042350 0.070961 255 220 0
0.562556 -0.003422 0.065985 255 220 0
0.543593 -0.040417 0.041539 255 220 0
0.559756 0.010034 0.050087 255 220 0
0.601833 0.050655 0.014841 255 220 0
0.608707 -0.002708 0.020493 255 220 0
0.575288 0.024043 0.083201 255 220 0
0.571989 0.041790 0.069590 255 220 0
0.581932 0.054542 0.023659 255 220 0
0.604148 0.021832 0.013208 255 220 0
0.545662 -0.052029 0.043734 255 220 0
0.625533 -0.006801 0.036910 255 220 0
0.613124 0.084999 0.032244 255 220 0
0.580237 0.054518 0.025529 255 220 0
0.650288 0.057364 0.059635 255 220 0
0.575883 0.013364 0.085112 255 220 0
0.573753 0.056969 0.044270 255 220 0
0.547756 -0.026735 0.024387 255 220 0
0.622177 0.057610 0.099132 255 220 0
0.628361 0.081356 0.035305 255 220 0
0.646230 0.050801 0.045205 255 220 0
0.623147 -0.020634 0.061991 255 220 0
0.563157 0.002398 0.065787 255 220 0
0.569392 0.029822 0.069919 255 220 0
0.588619 0.082455 0.066845 255 220 0
0.590960 0.028224 0.011776 255 220 0
0.589595 0.070022 0.028023 255 220 0
0.605315 -0.032592 0.076675 255 220 0
0.603931 -0.041970 0.047546 255 220 0
0.573812 0.040866 0.074617 255 220 0
0.592333 0.023786 0.011521 255 220 0
0.589862 -0.043227 0.027195 255 220 0
0.617039 0.048338 0.101136 255 220 0
0.625522 -0.017505 0.053881 255 220 0
0.544190 -0.032060 0.035273 255 220 0
0.617112 0.030564 0.017424 255 220 0
0.605721 0.093488 0.045974 255 220 0
0.576703 0.064884 0.051434 255 220 0
0.638525 0.023829 0.036229 255 220 0
0.624781 0.098306 0.075257 255 220 0
0.546311 -0.026475 0.030109 255 220 0
0.596915 0.066633 0.021301 255 220 0
0.604852 0.091151 0.079524 255 220 0
0.642610 0.033026 0.082035 255 220 0
0.626572 0.077084 0.094090 255 220 0
0.593521 -0.050999 0.051839 255 220 0
0.637971 0.014066 0.040563 255 220 0
0.622679 0.059306 0.098826 255 220 0
0.630238 -0.007292 0.046734 255 220 0
0.635270 0.000458 0.068613 255 220 0
0.621564 -0.019439 0.044120 255 220 0
0.557418 -0.009180 0.056663 255 220 0
0.587291 -0.055102 0.047287 255 220 0
0.620020 0.100424 0.060259 255 220 0
0.554102 -0.014458 0.050654 255 220 0
0.585511 -0.050778 0.066743 255 220 0
0.565706 -0.062928 0.035223 255 220 0
0.592122 0.085952 0.049552 255 220 0
0.569588 0.002587 0.017065 255 220 0
0.636692 0.095020 0.060688 255 220 0
0.624276 -0.004189 0.085369 255 220 0
0.599898 0.046464 0.099561 255 220 0
0.567533 0.038809 0.040971 255 220 0
0.624762 -0.000666 0.031619 255 220 0
0.618380 -0.025350 0.046700 255 220 0
0.593794 0.048129 0.014971 255 220 0
0.595748 -0.013509 0.017270 255 220 0
0.595773 0.009707 0.098518 255 220 0
0.576720 0.046814 0.077862 255 220 0
0.620511 0.071186 0.097433 255 220 0
0.619111 0.045341 0.100990 255 220 0
0.557763 0.002632 0.034752 255 220 0
0.569869 -0.041213 0.070097 255 220 0
0.614142 0.078503 0.027703 255 220 0
0.595351 -0.042513 0.032298 255 220 0
0.567549 -0.006265 0.075727 255 220 0
0.583161 0.041827 0.016751 255 220 0
0.619463 0.087254 0.035283 255 220 0
0.568422 0.042777 0.051777 255 220 0
0.601575 0.010232 0.014220 255 220 0
0.589286 0.075973 0.034996 255 220 0
0.598858 0.026119 0.100682 255 220 0
0.607500 -0.022995 0.086297 255 220 0
0.570249 -0.033788 0.014287 255 220 0
0.643999 0.018335 0.066876 255 220 0
0.580515 -0.035421 0.078805 255 220 0
0.640893 0.051807 0.087356 255 220 0
0.637702 0.023698 0.086139 255 220 0
0.636638 0.006907 0.075489 255 220 0
0.561394 0.014367 0.033632 255 220 0
0.577986 0.065125 0.064852 255 220 0
0.600937 -0.045151 0.051694 255 220 0
0.623404 -0.018635 0.066992 255 220 0
0.610835 0.093886 0.079513 255 220 0
0.546117 -0.056814 0.038782 255 220 0
0.593938 -0.046984 0.036682 255 220 0
0.646410 0.036424 0.045856 255 220 0
0.575908 0.022835 0.084140 255 220 0
0.565526 0.006812 0.069869 255 220 0
0.552258 -0.016240 0.045924 255 220 0
0.606803 -0.023331 0.086490 255 220 0
0.594174 -0.050561 0.050031 255 220 0
0.604220 -0.019171 0.090915 255 220 0
0.642177 0.012076 0.060120 255 220 0
0.562723 0.006084 0.063689 255 220 0
0.557545 -0.015242 0.058907 255 220 0
0.602589 0.011578 0.014291 255 220 0
0.550211 -0.060404 0.031290 255 220 0
0.623858 0.069246 0.097120 255 220 0
0.601804 0.077643 0.091339 255 220 0
0.569910 -0.001304 0.078914 255 220 0
0.578719 -0.058216 0.037197 255 220 0
0.602927 0.059214 0.098689 255 220 0
0.602646 0.083992 0.086911 255 220 0
0.591832 0.082259 0.040850 255 220 0
0.608404 -0.002948 0.020400 255 220 0
0.629590 0.047688 0.024111 255 220 0
0.552214 -0.039322 0.054172 255 220 0
0.598123 -0.045596 0.061637 255 220 0
0.572733 0.027677 0.078512 255 220 0
0.563966 -0.014463 0.070490 255 220 0
0.571204 -0.028055 0.013852 255 220 0
0.603159 -0.001515 0.098301 255 220 0
0.616290 0.076997 0.095826 255 220 0
0.578741 -0.010538 0.086589 255 220 0
0.611128 0.094007 0.043959 255 220 0
0.635638 0.009570 0.080513 255 220 0
0.635898 0.017787 0.035254 255 220 0
0.556781 -0.022194 0.059025 255 220 0
0.587809 0.042680 0.015035 255 220 0
0.603399 0.095205 0.056109 255 220 0
0.629806 -0.005354 0.042814 255 220 0
0.599970 0.017085 0.100509 255 220 0
0.579689 0.023934 0.014222 255 220 0
0.617977 0.057414 0.019882 255 220 0
0.592938 -0.030642 0.021738 255 220 0
0.591245 -0.052300 0.045789 255 220 0
0.590871 0.085381 0.052475 255 220 0
0.596274 0.087624 0.044404 255 220 0
0.607155 -0.037903 0.044860 255 220 0
0.626264 0.066310 0.026863 255 220 0
0.583180 0.064214 0.080168 255 220 0
0.568054 -0.010157 0.076500 255 220 0
0.571606 -0.007500 0.080877 255 220 0
0.607136 0.050427 0.015220 255 220 0
0.627587 0.099307 0.069795 255 220 0
0.584646 0.051774 0.019933 255 220 0
0.632049 0.021302 0.029425 255 220 0
0.636608 0.086739 0.047006 255 220 0
0.633042 0.048806 0.094610 255 220 0
0.634431 0.029124 0.091646 255 220 0
0.619095 -0.007008 0.029512 255 220 0
0.615835 0.062064 0.020500 255 220 0
0.570839 0.050253 0.052901 255 220 0
0.578891 0.042953 0.083570 255 220 0
0.562652 0.022551 0.046517 255 220 0
0.628445 0.033720 0.023698 255 220 0
0.608844 0.080428 0.092748 255 220 0
0.643155 0.059677 0.040955 255 220 0
0.643581 0.050502 0.083542 255 220 0
0.601595 0.049347 0.099780 255 220 0
0.628242 0.099115 0.059798 255 220 0
0.623607 0.100644 0.064541 255 220 0
0.585948 0.055083 0.088392 255 220 0
0.592494 -0.014327 0.016213 255 220 0
0.614259 0.036583 0.102319 255 220 0
0.588420 0.080990 0.045424 255 220 0
0.637075 0.001621 0.060576 255 220 0
0.620763 0.059924 0.099247 255 220 0
0.599007 0.035274 0.100441 255 220 0
0.592740 0.064836 0.021954 255 220 0
0.578031 0.035333 0.017751 255 220 0
0.633017 0.032320 0.027648 255 220 0
0.601323 -0.019331 0.091494 255 220 0
0.602032 -0.023180 0.024154 255 220 0
0.618096 0.076889 0.095842 255 220 0
0.634076 0.017765 0.032932 255 220 0
0.619783 0.093054 0.083765 255 220 0
0.563486 -0.023231 0.069810 255 220 0
0.604189 0.033598 0.102046 255 220 0
0.597323 0.020867 0.011843 255 220 0
0.641622 0.069201 0.085285 255 220 0
0.571451 -0.006643 0.080756 255 220 0
0.644589 0.069808 0.080391 255 220 0
0.567572 0.027166 0.026853 255 220 0
0.609723 0.026739 0.014588 255 220 0
0.642405 0.037042 0.037993 255 220 0
0.636523 0.071607 0.036905 255 220 0
0.584157 0.077443 0.061996 255 220 0
0.599823 -0.044567 0.060788 255 220 0
0.597274 -0.045144 0.039089 255 220 0
0.640908 0.065583 0.039388 255 220 0
0.602665 -0.042757 0.045899 255 220 0
0.603424 0.095178 0.066254 255 220 0
0.570769 0.033113 0.071566 255 220 0
0.551557 -0.014105 0.033012 255 220 0
0.579798 -0.009608 0.087465 255 220 0
0.584423 0.078094 0.059972 255 220 0
0.614535 0.052162 0.101039 255 220 0
0.608033 -0.030103 0.077064 255 220 0
0.630819 0.001775 0.081380 255 220 0
0.632051 0.073328 0.092778 255 220 0
0.569733 -0.053877 0.062034 255 220 0
0.634310 0.012543 0.084893 255 220 0
0.633339 -0.001715 0.046365 255 220 0
0.589396 0.026353 0.011831 255 220 0
0.548351 -0.024733 0.041008 255 220 0
0.603564 -0.042869 0.051880 255 220 0
0.631906 0.024682 0.028318 255 220 0
0.645883 0.024603 0.067327 255 220 0
0.594056 0.065204 0.092162 255 220 0
0.598491 0.022421 0.011915 255 220 0
0.579492 -0.036409 0.017295 255 220 0
0.609047 0.097712 0.068088 255 220 0
0.595488 -0.008097 0.015892 255 220 0
0.605310 0.050277 0.014950 255 220 0
0.646957 0.035677 0.047696 255 220 0
0.586222 0.046431 0.016852 255 220 0
0.622262 -0.022233 0.059802 255 220 0
