ply
format ascii 1.0
element vertex 1024
property float x
property float y
property float z
property uchar red
property uchar green
property uchar blue
end_header
0.631025 0.008618 0.033202 255 220 0
0.585121 -0.056326 0.046670 255 220 0
0.627341 0.002192 0.032478 255 220 0
0.571601 0.049207 0.053926 255 220 0
0.642677 0.080032 0.077757 255 220 0
0.608246 -0.023975 0.082210 255 220 0
0.570299 0.043101 0.060438 255 220 0
0.600491 0.067825 0.094747 255 220 0
0.616187 0.097216 0.072720 255 220 0
0.622709 -0.011984 0.077268 255 220 0
0.594147 -0.048580 0.039834 255 220 0
0.566431 0.001240 0.075598 255 220 0
0.603079 0.090911 0.046330 255 220 0
0.625211 0.076038 0.029180 255 220 0
0.566274 0.031269 0.055675 255 220 0
0.607218 0.066223 0.019219 255 220 0
0.622928 -0.019490 0.063934 255 220 0
0.576831 -0.029394 0.081573 255 220 0
0.588938 -0.035182 0.019858 255 220 0
0.590506 -0.020631 0.015413 255 220 0
0.568212 0.037862 0.044627 255 220 0
0.632223 0.091146 0.047705 255 220 0
0.629622 0.007304 0.085992 255 220 0
0.635674 0.000681 0.065404 255 220 0
0.632169 -0.004861 0.048906 255 220 0
0.562119 0.017100 0.043086 255 220 0
0.610728 0.022565 0.013556 255 220 0
0.562319 -0.047817 0.062262 255 220 0
0.568173 0.037264 0.057568 255 220 0
0.581849 -0.007972 0.091095 255 220 0
0.585045 -0.031396 0.016165 255 220 0
0.597546 0.022720 0.100892 255 220 0
0.576506 0.060850 0.060611 255 220 0
0.570041 0.040472 0.062941 255 220 0
0.649506 0.045885 0.068515 255 220 0
0.644242 0.060541 0.042040 255 220 0
0.622935 0.096909 0.052388 255 220 0
0.596332 0.006301 0.099645 255 220 0
0.546072 -0.056045 0.038792 255 220 0
0.554606 -0.062143 0.027235 255 220 0
0.631798 0.063835 0.028616 255 220 0
0.631887 -0.001617 0.042941 255 220 0
0.590573 0.042518 0.013597 255 220 0
0.642946 0.052887 0.037975 255 220 0
0.581656 0.071875 0.056720 255 220 0
0.635064 0.011588 0.081695 255 220 0
0.579272 0.028575 0.015078 255 220 0
0.591793 0.081080 0.076571 255 220 0
0.612702 0.025178 0.101462 255 220 0
0.602123 0.066213 0.096039 255 220 0
0.638175 0.051594 0.031126 255 220 0
0.606739 -0.039388 0.054774 255 220 0
0.633831 0.081271 0.086932 255 220 0
0.643523 0.078154 0.049990 255 220 0
0.628004 -0.007772 0.072923 255 220 0
0.609210 0.019989 0.013310 255 220 0
0.565995 0.004458 0.074031 255 220 0
0.541565 -0.040872 0.025797 255 220 0
0.550749 -0.047036 0.013395 255 220 0
0.583704 0.031560 0.013328 255 220 0
0.594305 0.035183 0.099076 255 220 0
0.610542 0.052813 0.100333 255 220 0
0.565973 -0.005918 0.016863 255 220 0
0.615652 -0.029828 0.058026 255 220 0
0.644812 0.076111 0.051310 255 220 0
0.615273 0.077425 0.026526 255 220 0
0.580608 -0.043247 0.074985 255 220 0
0.556749 -0.064187 0.034188 255 220 0
0.552155 -0.026528 0.018256 255 220 0
0.636784 0.078476 0.039988 255 220 0
0.546004 -0.038869 0.017603 255 220 0
0.581988 0.041255 0.017703 255 220 0
0.637305 0.067843 0.035180 255 220 0
0.634316 -0.002146 0.063680 255 220 0
0.574165 -0.059095 0.029608 255 220 0
0.642620 0.051944 0.083977 255 220 0
0.615078 -0.019898 0.078890 255 220 0
0.643301 0.032157 0.079312 255 220 0
0.589276 -0.017521 0.092242 255 220 0
0.585474 0.046312 0.090433 255 220 0
0.565110 0.023570 0.035523 255 220 0
0.613402 0.087595 0.035127 255 220 0
0.619130 0.068773 0.022942 255 220 0
0.627579 0.097145 0.055552 255 220 0
0.582094 0.072074 0.051998 255 220 0
0.619074 0.065889 0.097617 255 220 0
0.586272 -0.045986 0.071714 255 220 0
0.560884 -0.054259 0.015938 255 220 0
0.572882 -0.019967 0.012104 255 220 0
0.581853 0.050702 0.023042 255 220 0
0.577560 0.054167 0.075099 255 220 0
0.610691 -0.033606 0.045116 255 220 0
0.590157 -0.017372 0.014442 255 220 0
0.591025 -0.051186 0.039582 255 220 0
0.578716 0.035037 0.017790 255 220 0
0.609194 0.031330 0.012292 255 220 0
0.587691 -0.033589 0.083176 255 220 0
0.599143 -0.029174 0.024147 255 220 0
0.559763 -0.048210 0.059868 255 220 0
0.602639 0.016443 0.101141 255 220 0
0.642456 0.018636 0.072143 255 220 0
0.574794 0.025236 0.017719 255 220 0
0.646264 0.031334 0.047615 255 220 0
0.618885 0.002161 0.092949 255 220 0
0.636648 0.000999 0.056853 255 220 0
0.579220 0.066761 0.061854 255 220 0
0.589219 -0.049504 0.064284 255 220 0
0.596195 -0.036209 0.026191 255 220 0
0.590611 -0.004829 0.012393 255 220 0
0.555288 -0.030172 0.058361 255 220 0
0.612820 0.074158 0.095606 255 220 0
0.568682 -0.005918 0.015206 255 220 0
0.599057 0.016354 0.100867 255 220 0
0.577042 0.054072 0.033795 255 220 0
0.597006 -0.048005 0.051182 255 220 0
0.566251 0.032334 0.050387 255 220 0
0.571640 0.031316 0.076314 255 220 0
0.588428 -0.005696 0.095201 255 220 0
0.622633 0.076838 0.093939 255 220 0
0.562690 -0.031612 0.011965 255 220 0
0.615959 -0.002187 0.092830 255 220 0
0.605407 0.043248 0.012410 255 220 0
0.647035 0.038313 0.047157 255 220 0
0.642394 0.016763 0.049051 255 220 0
0.639562 0.044962 0.032282 255 220 0
0.586566 -0.007557 0.012118 255 220 0
0.573837 0.043188 0.074119 255 220 0
0.578766 0.044712 0.022825 255 220 0
0.620433 0.053759 0.018619 255 220 0
0.612600 -0.024699 0.076131 255 220 0
0.568041 0.030141 0.065899 255 220 0
0.610595 0.002677 0.018526 255 220 0
0.647496 0.043468 0.047942 255 220 0
0.575870 0.023746 0.084931 255 220 0
0.608379 0.017406 0.013403 255 220 0
0.604474 0.085955 0.036047 255 220 0
0.636672 0.003206 0.067409 255 220 0
0.550364 -0.022779 0.024485 255 220 0
0.626153 0.035318 0.097679 255 220 0
0.648896 0.041864 0.069380 255 220 0
0.602005 -0.024034 0.023582 255 220 0
0.608890 0.070239 0.021489 255 220 0
0.629972 -0.003699 0.041387 255 220 0
0.579169 -0.036228 0.079309 255 220 0
0.633275 0.086459 0.042791 255 220 0
0.637838 0.020866 0.083372 255 220 0
0.544576 -0.054900 0.037008 255 220 0
0.630754 0.091065 0.080971 255 220 0
0.570031 0.015803 0.078623 255 220 0
0.560061 0.000010 0.059310 255 220 0
0.600547 0.029595 0.010499 255 220 0
0.640969 0.010157 0.062714 255 220 0
0.646479 0.078307 0.066852 255 220 0
0.587338 0.080051 0.061939 255 220 0
0.549562 -0.026126 0.042699 255 220 0
0.636344 0.031288 0.030290 255 220 0
0.584415 0.070555 0.075863 255 220 0
0.619710 -0.012676 0.080834 255 220 0
0.607438 0.076071 0.025468 255 220 0
0.557371 -0.045593 0.012011 255 220 0
0.612145 0.034760 0.013280 255 220 0
0.572157 0.044263 0.035669 255 220 0
0.617009 -0.027653 0.061346 255 220 0
0.587368 0.063291 0.086083 255 220 0
0.584437 0.045580 0.017816 255 220 0
0.578242 0.002240 0.089153 255 220 0
0.569087 0.035306 0.064805 255 220 0
0.635099 0.041468 0.027363 255 220 0
0.620964 -0.011277 0.080616 255 220 0
0.647404 0.064797 0.051249 255 220 0
0.582030 -0.057122 0.037591 255 220 0
0.588236 -0.027686 0.087163 255 220 0
0.598390 -0.002086 0.013954 255 220 0
0.579792 -0.059131 0.046819 255 220 0
0.615896 0.097498 0.053916 255 220 0
0.624544 0.004603 0.089618 255 220 0
0.595686 -0.046021 0.037171 255 220 0
0.594698 0.029915 0.099790 255 220 0
0.545635 -0.052027 0.042095 255 220 0
0.641176 0.047975 0.034608 255 220 0
0.551912 -0.017659 0.027874 255 220 0
0.635267 -0.000876 0.052811 255 220 0
0.609632 -0.025534 0.078845 255 220 0
0.540950 -0.049750 0.031518 255 220 0
0.634657 0.035011 0.027645 255 220 0
0.627325 0.097438 0.056179 255 220 0
0.624714 0.077293 0.093237 255 220 0
0.562056 -0.034716 0.067397 255 220 0
0.569894 -0.062992 0.042795 255 220 0
0.638554 0.007503 0.068975 255 220 0
0.571034 -0.024312 0.012021 255 220 0
0.623615 0.057120 0.097833 255 220 0
0.650338 0.047549 0.063032 255 220 0
0.550156 -0.044697 0.050848 255 220 0
0.589303 0.039920 0.013269 255 220 0
0.589160 0.047833 0.093327 255 220 0
0.604677 0.065633 0.019020 255 220 0
0.616811 -0.022811 0.072411 255 220 0
0.642814 0.026832 0.041588 255 220 0
0.608541 0.071184 0.022073 255 220 0
0.641584 0.016067 0.071838 255 220 0
0.605613 0.031768 0.011341 255 220 0
0.583721 -0.046717 0.071742 255 220 0
0.554479 -0.011789 0.047899 255 220 0
0.633044 0.034773 0.026157 255 220 0
0.564025 -0.017693 0.072955 255 220 0
0.633722 0.094772 0.072225 255 220 0
0.624863 -0.009261 0.077027 255 220 0
0.607997 0.036388 0.102335 255 220 0
0.572291 -0.037842 0.074720 255 220 0
0.550731 -0.036274 0.014544 255 220 0
0.596642 -0.041735 0.069673 255 220 0
0.623990 0.036807 0.019134 255 220 0
0.562057 -0.056677 0.055952 255 220 0
0.574260 0.025893 0.018495 255 220 0
0.611835 0.051630 0.015018 255 220 0
0.586756 0.078983 0.053995 255 220 0
0.645323 0.061045 0.044426 255 220 0
0.645183 0.029503 0.073641 255 220 0
0.543570 -0.045749 0.018950 255 220 0
0.591902 0.063989 0.022864 255 220 0
0.632455 0.073865 0.091115 255 220 0
0.552621 -0.014438 0.032815 255 220 0
0.643167 0.061415 0.082980 255 220 0
0.627411 0.007308 0.029757 255 220 0
0.546126 -0.034757 0.020142 255 220 0
0.597162 -0.022132 0.019328 255 220 0
0.599950 0.035874 0.010982 255 220 0
0.556327 -0.007376 0.029102 255 220 0
0.585761 -0.022892 0.088912 255 220 0
0.639017 0.007108 0.066184 255 220 0
0.591109 -0.015389 0.093512 255 220 0
0.608005 0.038509 0.102192 255 220 0
0.637734 0.072612 0.087437 255 220 0
0.562188 0.008599 0.061441 255 220 0
0.612421 0.047206 0.101108 255 220 0
0.546844 -0.042774 0.015593 255 220 0
0.634574 0.091379 0.077550 255 220 0
0.557504 -0.048064 0.012537 255 220 0
0.546542 -0.035148 0.041269 255 220 0
0.560806 -0.050631 0.059404 255 220 0
0.579963 0.016883 0.012625 255 220 0
0.561760 0.009484 0.059315 255 220 0
0.562656 -0.022873 0.070583 255 220 0
0.628591 0.010599 0.089145 255 220 0
0.542425 -0.039625 0.023947 255 220 0
0.631268 0.079419 0.035147 255 220 0
0.616112 0.095859 0.049243 255 220 0
0.601139 -0.035202 0.075025 255 220 0
0.543712 -0.035119 0.027514 255 220 0
0.575551 -0.060930 0.046234 255 220 0
0.622158 0.004648 0.026100 255 220 0
0.620248 -0.019655 0.070893 255 220 0
0.596966 0.073703 0.027397 255 220 0
0.602009 0.012071 0.012113 255 220 0
0.558901 -0.055686 0.016600 255 220 0
0.643946 0.021957 0.048337 255 220 0
0.645019 0.076977 0.052618 255 220 0
0.611418 0.097030 0.068217 255 220 0
0.581488 0.063663 0.076429 255 220 0
0.569299 -0.047642 0.015259 255 220 0
0.635592 0.074791 0.036559 255 220 0
0.606758 0.033765 0.011661 255 220 0
0.645934 0.059847 0.045483 255 220 0
0.615708 0.030296 0.014995 255 220 0
0.575751 0.030715 0.018883 255 220 0
0.550981 -0.035151 0.014794 255 220 0
0.611632 0.092150 0.042347 255 220 0
0.626169 0.070918 0.027326 255 220 0
0.541070 -0.050779 0.030254 255 220 0
0.564190 -0.004753 0.072371 255 220 0
0.645584 0.071960 0.050196 255 220 0
0.645451 0.038725 0.077376 255 220 0
0.576444 0.057686 0.066784 255 220 0
0.640581 0.033237 0.035418 255 220 0
0.572220 -0.022784 0.080598 255 220 0
0.640101 0.007809 0.057239 255 220 0
0.579320 0.035243 0.017342 255 220 0
0.645543 0.062802 0.045498 255 220 0
0.573418 0.045135 0.070719 255 220 0
0.637298 0.022531 0.084952 255 220 0
0.549455 -0.058621 0.041073 255 220 0
0.543306 -0.045627 0.019362 255 220 0
0.604330 0.073831 0.024361 255 220 0
0.635105 0.053912 0.091984 255 220 0
0.554322 -0.041184 0.056710 255 220 0
0.647358 0.041437 0.047676 255 220 0
0.626617 0.059839 0.096487 255 220 0
0.577675 0.029054 0.016425 255 220 0
0.570561 -0.015160 0.080892 255 220 0
0.650394 0.051325 0.061631 255 220 0
0.574872 -0.048249 0.069649 255 220 0
0.633263 0.067549 0.092100 255 220 0
0.599829 0.079627 0.031391 255 220 0
0.568803 -0.033946 0.073907 255 220 0
0.542461 -0.043123 0.036757 255 220 0
0.571889 -0.006738 0.083081 255 220 0
0.612101 0.087889 0.086088 255 220 0
0.592499 -0.014959 0.093966 255 220 0
0.593072 -0.000379 0.012215 255 220 0
0.547461 -0.029260 0.023319 255 220 0
0.592465 -0.016924 0.015226 255 220 0
0.632914 0.015608 0.031924 255 220 0
0.615485 -0.022193 0.075414 255 220 0
0.641246 0.085906 0.053187 255 220 0
0.641394 0.010833 0.056486 255 220 0
0.633164 0.082364 0.086728 255 220 0
0.604584 0.008749 0.100227 255 220 0
0.600488 -0.045102 0.050477 255 220 0
0.582301 0.024288 0.091526 255 220 0
0.604124 0.069853 0.095508 255 220 0
0.611254 0.048904 0.100920 255 220 0
0.579548 0.036962 0.017868 255 220 0
0.611668 -0.025046 0.076939 255 220 0
0.635604 0.014425 0.082923 255 220 0
0.582170 0.009894 0.092286 255 220 0
0.593530 -0.031127 0.084600 255 220 0
0.602998 -0.006814 0.017293 255 220 0
0.561960 0.012516 0.057660 255 220 0
0.633291 0.066032 0.092321 255 220 0
0.608553 -0.036830 0.059897 255 220 0
0.612179 0.090403 0.083127 255 220 0
0.540421 -0.045312 0.027799 255 220 0
0.575615 0.056585 0.042119 255 220 0
0.590090 0.043717 0.014126 255 220 0
0.592865 0.081951 0.042466 255 220 0
0.578092 -0.010158 0.088067 255 220 0
0.555280 -0.007096 0.035611 255 220 0
0.579376 0.065755 0.045804 255 220 0
0.569209 -0.024404 0.077486 255 220 0
0.604377 0.070399 0.095381 255 220 0
0.553244 -0.026633 0.017165 255 220 0
0.632493 0.011673 0.085400 255 220 0
0.565124 -0.006003 0.074312 255 220 0
0.595902 0.088061 0.053062 255 220 0
0.554480 -0.011834 0.047951 255 220 0
0.565195 -0.011961 0.015523 255 220 0
0.606489 0.060433 0.098627 255 220 0
0.584474 0.017532 0.093865 255 220 0
0.598225 -0.002139 0.098551 255 220 0
0.650220 0.057005 0.063473 255 220 0
0.612199 0.097263 0.068468 255 220 0
0.639588 0.007205 0.054235 255 220 0
0.647839 0.054462 0.049585 255 220 0
0.639775 0.028931 0.083973 255 220 0
0.640020 0.032968 0.084878 255 220 0
0.548163 -0.030247 0.041817 255 220 0
0.645125 0.060749 0.043899 255 220 0
0.642480 0.023167 0.076103 255 220 0
0.541080 -0.047927 0.033424 255 220 0
0.633755 0.082699 0.086122 255 220 0
0.575781 0.041653 0.079577 255 220 0
0.577612 0.033706 0.018263 255 220 0
0.612702 -0.024051 0.076866 255 220 0
0.613830 0.041299 0.014145 255 220 0
0.637034 0.019501 0.083848 255 220 0
0.640831 0.023603 0.039524 255 220 0
0.626222 0.082740 0.089933 255 220 0
0.600642 -0.033791 0.028745 255 220 0
0.546224 -0.042671 0.044363 255 220 0
0.567221 -0.056160 0.059708 255 220 0
0.622314 0.052524 0.098681 255 220 0
0.637745 0.036073 0.088369 255 220 0
0.559613 -0.061068 0.023276 255 220 0
0.627525 0.093981 0.048607 255 220 0
0.581932 -0.028196 0.084878 255 220 0
0.564590 0.007586 0.069608 255 220 0
0.567646 0.017930 0.023683 255 220 0
0.569843 0.020448 0.021620 255 220 0
0.594818 0.087839 0.062982 255 220 0
0.565101 0.028015 0.052671 255 220 0
0.608617 0.095650 0.053856 255 220 0
0.556636 -0.059906 0.021338 255 220 0
0.643011 0.031770 0.039836 255 220 0
0.580104 0.068154 0.063758 255 220 0
0.562676 -0.009392 0.018088 255 220 0
0.585026 -0.032965 0.083237 255 220 0
0.641585 0.053612 0.085427 255 220 0
0.580029 0.068702 0.060552 255 220 0
0.608239 0.094292 0.073024 255 220 0
0.602471 0.091774 0.071788 255 220 0
0.601329 0.019260 0.010902 255 220 0
0.561439 -0.012300 0.067968 255 220 0
0.585768 0.039568 0.014628 255 220 0
0.564059 -0.009445 0.072768 255 220 0
0.584446 0.032560 0.013226 255 220 0
0.581978 0.056781 0.082387 255 220 0
0.647101 0.070673 0.072207 255 220 0
0.581596 -0.020349 0.012684 255 220 0
0.564790 -0.062816 0.029117 255 220 0
0.564894 -0.042094 0.012235 255 220 0
0.604486 0.078266 0.091233 255 220 0
0.573967 -0.061403 0.038647 255 220 0
0.574389 0.009830 0.014644 255 220 0
0.568291 0.035343 0.038649 255 220 0
0.630063 0.043663 0.095623 255 220 0
0.625808 -0.004319 0.081044 255 220 0
0.633466 0.045967 0.025931 255 220 0
0.564306 0.006328 0.069338 255 220 0
0.626144 -0.015294 0.062542 255 220 0
0.592373 0.073269 0.085531 255 220 0
0.606906 0.062811 0.017631 255 220 0
0.616544 0.046875 0.100661 255 220 0
0.592292 -0.000185 0.012056 255 220 0
0.561716 0.015850 0.050665 255 220 0
0.627949 0.091231 0.082279 255 220 0
0.571096 0.040943 0.066606 255 220 0
0.572002 0.050401 0.052158 255 220 0
0.623688 -0.019357 0.060145 255 220 0
0.541701 -0.050772 0.033739 255 220 0
0.641677 0.059298 0.037420 255 220 0
0.629835 0.049065 0.023428 255 220 0
0.568920 0.040945 0.048341 255 220 0
0.612277 -0.029242 0.069604 255 220 0
0.633543 0.009578 0.082459 255 220 0
0.612022 -0.010802 0.024896 255 220 0
0.633770 0.090031 0.047677 255 220 0
0.586800 -0.005309 0.011965 255 220 0
0.563432 -0.056252 0.018378 255 220 0
0.562903 -0.012486 0.016716 255 220 0
0.637210 0.010649 0.076931 255 220 0
0.642235 0.062004 0.084250 255 220 0
0.635004 0.001916 0.070569 255 220 0
0.576366 0.058119 0.065819 255 220 0
0.583750 -0.023991 0.013772 255 220 0
0.553035 -0.024404 0.051779 255 220 0
0.604429 0.024644 0.011200 255 220 0
0.639789 0.019076 0.040401 255 220 0
0.612134 0.064009 0.098442 255 220 0
0.575053 -0.002223 0.013153 255 220 0
0.589934 0.028908 0.097234 255 220 0
0.599285 0.036324 0.011030 255 220 0
0.559986 0.006541 0.054202 255 220 0
0.586925 0.078897 0.052201 255 220 0
0.576181 0.056566 0.067302 255 220 0
0.571940 -0.061564 0.034134 255 220 0
0.581760 -0.057677 0.039504 255 220 0
0.643716 0.081315 0.074547 255 220 0
0.626993 0.059356 0.023725 255 220 0
0.548394 -0.058484 0.023416 255 220 0
0.574887 0.041896 0.026603 255 220 0
0.606437 0.019372 0.012318 255 220 0
0.625077 0.018245 0.023421 255 220 0
0.638812 0.015846 0.040763 255 220 0
0.576081 0.012537 0.014033 255 220 0
0.603945 -0.041995 0.050929 255 220 0
0.578523 -0.058549 0.034944 255 220 0
0.610052 -0.035633 0.049495 255 220 0
0.579788 -0.058562 0.052299 255 220 0
0.637482 0.072937 0.037652 255 220 0
0.568111 0.032264 0.064050 255 220 0
0.645739 0.023232 0.061571 255 220 0
0.635663 0.075325 0.036914 255 220 0
0.629724 0.034588 0.095367 255 220 0
0.627722 -0.002441 0.080154 255 220 0
0.560483 -0.055897 0.017107 255 220 0
0.636366 0.093750 0.070132 255 220 0
0.566283 0.031402 0.055420 255 220 0
0.617230 -0.028049 0.054473 255 220 0
0.546564 -0.043734 0.045231 255 220 0
0.603663 -0.004285 0.097633 255 220 0
0.569899 0.012136 0.018497 255 220 0
0.596708 -0.028927 0.085495 255 220 0
0.574700 -0.044902 0.016414 255 220 0
0.618545 0.065883 0.097696 255 220 0
0.612595 0.077032 0.025987 255 220 0
0.551987 -0.018023 0.043481 255 220 0
0.591455 0.039953 0.096654 255 220 0
0.552892 -0.013399 0.037359 255 220 0
0.569152 -0.062552 0.033605 255 220 0
0.588035 -0.034877 0.019147 255 220 0
0.621609 0.076999 0.028002 255 220 0
0.548291 -0.040474 0.047503 255 220 0
0.644424 0.022299 0.049733 255 220 0
0.607252 0.079150 0.027916 255 220 0
0.597023 0.088907 0.052828 255 220 0
0.615759 0.044759 0.015161 255 220 0
0.570976 0.047088 0.048246 255 220 0
0.602213 -0.032370 0.029244 255 220 0
0.574144 0.032879 0.021849 255 220 0
0.569649 0.043465 0.051722 255 220 0
0.566013 -0.031216 0.011808 255 220 0
0.622179 -0.015651 0.073311 255 220 0
0.616337 0.007724 0.096654 255 220 0
0.648607 0.066811 0.057297 255 220 0
0.585303 0.006472 0.094613 255 220 0
0.571533 0.041106 0.033665 255 220 0
0.556518 -0.003541 0.036153 255 220 0
0.554345 -0.061893 0.026633 255 220 0
0.640623 0.008914 0.058549 255 220 0
0.588913 -0.023539 0.089538 255 220 0
0.546991 -0.041924 0.045556 255 220 0
0.568499 0.014014 0.020682 255 220 0
0.588090 0.015134 0.096516 255 220 0
0.557675 -0.051558 0.056229 255 220 0
0.620614 -0.006778 0.085374 255 220 0
0.636613 0.061731 0.090363 255 220 0
0.629900 0.062504 0.094728 255 220 0
0.592344 -0.051254 0.044408 255 220 0
0.569961 0.041313 0.061430 255 220 0
0.600585 0.049623 0.013634 255 220 0
0.579415 0.049898 0.025531 255 220 0
0.620069 0.015875 0.020451 255 220 0
0.639289 0.011008 0.046223 255 220 0
0.604097 0.007576 0.013803 255 220 0
0.548503 -0.024474 0.029559 255 220 0
0.594098 -0.044470 0.031959 255 220 0
0.589402 0.077968 0.041331 255 220 0
0.591182 -0.003458 0.012312 255 220 0
0.608495 0.027051 0.012224 255 220 0
0.592135 0.083447 0.072501 255 220 0
0.580999 -0.019040 0.088020 255 220 0
0.640348 0.008549 0.061479 255 220 0
0.613663 -0.032241 0.055867 255 220 0
0.634907 0.000972 0.047081 255 220 0
0.577119 0.054783 0.034436 255 220 0
0.564027 0.002721 0.021836 255 220 0
0.570858 -0.043929 0.014405 255 220 0
0.597895 0.012932 0.011013 255 220 0
0.622241 -0.003972 0.030556 255 220 0
0.624044 0.053922 0.020550 255 220 0
0.616165 0.047991 0.100595 255 220 0
0.563279 -0.030609 0.069888 255 220 0
0.631986 0.086361 0.041427 255 220 0
0.593257 -0.014928 0.094099 255 220 0
0.631801 0.077703 0.090061 255 220 0
0.598611 0.047081 0.098992 255 220 0
0.614415 0.045215 0.014730 255 220 0
0.597475 0.090037 0.059567 255 220 0
0.616138 -0.028386 0.062402 255 220 0
0.600685 0.081436 0.086389 255 220 0
0.614532 -0.023640 0.036823 255 220 0
0.626611 0.026074 0.096164 255 220 0
0.572768 0.030862 0.022684 255 220 0
0.635645 0.007211 0.076488 255 220 0
0.591465 0.062934 0.090384 255 220 0
0.564867 -0.011890 0.074288 255 220 0
0.621113 0.005019 0.092698 255 220 0
0.605123 -0.017818 0.022878 255 220 0
0.599842 0.036095 0.011008 255 220 0
0.597520 0.045760 0.098802 255 220 0
0.573018 -0.031252 0.012363 255 220 0
0.613847 -0.014941 0.085490 255 220 0
0.636962 0.001652 0.055704 255 220 0
0.584476 0.054826 0.086581 255 220 0
0.628775 -0.005862 0.041504 255 220 0
0.603872 -0.041379 0.046459 255 220 0
0.575510 0.015218 0.085848 255 220 0
0.571631 0.013069 0.017147 255 220 0
0.611135 -0.033591 0.046477 255 220 0
0.582719 -0.034836 0.016240 255 220 0
0.591418 0.016501 0.098444 255 220 0
0.575903 -0.052070 0.066628 255 220 0
0.599011 0.017473 0.010649 255 220 0
0.644667 0.036687 0.078328 255 220 0
0.591221 -0.036093 0.021904 255 220 0
0.567781 0.022909 0.071015 255 220 0
0.559558 -0.056687 0.054028 255 220 0
0.575595 0.056349 0.041730 255 220 0
0.590443 -0.008584 0.012886 255 220 0
0.605531 0.046349 0.100975 255 220 0
0.561950 -0.060810 0.051401 255 220 0
0.576017 0.011161 0.086772 255 220 0
0.630140 0.097708 0.066327 255 220 0
0.594792 0.081019 0.081138 255 220 0
0.585576 -0.030564 0.084872 255 220 0
0.590558 -0.052185 0.054808 255 220 0
0.596335 -0.004897 0.097717 255 220 0
0.581167 0.067509 0.042418 255 220 0
0.628083 0.098538 0.064646 255 220 0
0.633870 0.096037 0.066432 255 220 0
0.573950 0.046614 0.033091 255 220 0
0.601203 0.015955 0.011261 255 220 0
0.612646 -0.009817 0.024931 255 220 0
0.584335 -0.011432 0.091953 255 220 0
0.575728 0.053691 0.069240 255 220 0
0.547199 -0.029984 0.038301 255 220 0
0.550410 -0.039517 0.013802 255 220 0
0.600973 -0.032408 0.027980 255 220 0
0.645060 0.020848 0.060522 255 220 0
0.553658 -0.011560 0.041119 255 220 0
0.600982 -0.043286 0.043123 255 220 0
0.595992 0.077676 0.085752 255 220 0
0.631993 0.065114 0.093257 255 220 0
0.610212 0.071535 0.022338 255 220 0
0.577079 0.018424 0.087105 255 220 0
0.570927 0.007853 0.081394 255 220 0
0.638068 0.091684 0.071943 255 220 0
0.644788 0.040023 0.079055 255 220 0
0.643131 0.019950 0.047790 255 220 0
0.614602 0.063716 0.019261 255 220 0
0.639386 0.035934 0.033067 255 220 0
0.576342 0.014862 0.086759 255 220 0
0.633868 0.011030 0.083085 255 220 0
0.604969 0.066521 0.019464 255 220 0
0.633126 -0.004735 0.060889 255 220 0
0.648844 0.035705 0.063350 255 220 0
0.636309 0.041902 0.090625 255 220 0
0.618521 0.044215 0.100513 255 220 0
0.573256 0.044317 0.071020 255 220 0
0.576163 0.054343 0.070047 255 220 0
0.577343 0.019671 0.087219 255 220 0
0.633028 0.022948 0.029125 255 220 0
0.602121 -0.033827 0.075990 255 220 0
0.621708 0.018307 0.020906 255 220 0
0.582977 -0.035739 0.080941 255 220 0
0.644931 0.052519 0.041830 255 220 0
0.598776 -0.046501 0.049104 255 220 0
0.639285 0.006141 0.059980 255 220 0
0.616669 0.098695 0.058224 255 220 0
0.610746 -0.030221 0.038793 255 220 0
0.626474 0.098685 0.060329 255 220 0
0.556458 -0.034933 0.012511 255 220 0
0.596304 -0.024432 0.019752 255 220 0
0.569672 -0.012941 0.013436 255 220 0
0.553876 -0.010690 0.039383 255 220 0
0.627484 0.059909 0.024219 255 220 0
0.638877 0.023045 0.036562 255 220 0
0.554493 -0.017268 0.052277 255 220 0
0.609442 -0.036670 0.052024 255 220 0
0.597790 0.060399 0.017825 255 220 0
0.568618 0.008276 0.018631 255 220 0
0.619668 0.084334 0.032433 255 220 0
0.574316 -0.056706 0.025638 255 220 0
0.641929 0.059699 0.037915 255 220 0
0.609982 0.062863 0.017918 255 220 0
0.627648 0.022800 0.094693 255 220 0
0.611547 0.009836 0.016833 255 220 0
0.542959 -0.047655 0.038570 255 220 0
0.558005 -0.012851 0.059662 255 220 0
0.575940 0.020914 0.015495 255 220 0
0.645535 0.023530 0.065067 255 220 0
0.645909 0.047816 0.078295 255 220 0
0.595380 -0.035130 0.024700 255 220 0
0.590301 0.080549 0.074379 255 220 0
0.544426 -0.034508 0.034032 255 220 0
0.601007 0.010235 0.012176 255 220 0
0.599880 0.012398 0.011492 255 220 0
0.644900 0.024318 0.049161 255 220 0
0.591431 0.079180 0.039745 255 220 0
0.639664 0.018799 0.040344 255 220 0
0.581723 0.056874 0.027933 255 220 0
0.612633 0.044441 0.014065 255 220 0
0.632471 0.095539 0.071918 255 220 0
0.590872 -0.010195 0.095117 255 220 0
0.608597 0.060612 0.098892 255 220 0
0.588274 0.060630 0.023417 255 220 0
0.642943 0.043314 0.082767 255 220 0
0.623215 0.098668 0.070271 255 220 0
0.632637 0.061951 0.028675 255 220 0
0.555629 -0.005409 0.041037 255 220 0
0.583335 0.053555 0.023338 255 220 0
0.587267 -0.005890 0.094614 255 220 0
0.575232 0.019705 0.015757 255 220 0
0.580018 0.042204 0.085508 255 220 0
0.626187 0.098165 0.057609 255 220 0
0.616360 -0.018033 0.079368 255 220 0
0.559695 -0.004081 0.024482 255 220 0
0.623471 -0.011917 0.076096 255 220 0
0.583278 0.022042 0.011833 255 220 0
0.620331 -0.001818 0.027542 255 220 0
0.564914 -0.064327 0.039889 255 220 0
0.555338 -0.011983 0.051533 255 220 0
0.618671 -0.007209 0.028870 255 220 0
0.576114 0.047480 0.076885 255 220 0
0.563246 0.001566 0.068295 255 220 0
0.577586 0.040043 0.021461 255 220 0
0.590949 0.084120 0.057407 255 220 0
0.572843 -0.011509 0.083573 255 220 0
0.607548 0.067743 0.097083 255 220 0
0.578226 0.031312 0.016759 255 220 0
0.642934 0.036296 0.081356 255 220 0
0.649528 0.053390 0.055431 255 220 0
0.570800 0.024607 0.022249 255 220 0
0.586271 0.043042 0.091995 255 220 0
0.543296 -0.039184 0.021939 255 220 0
0.559046 -0.050888 0.013661 255 220 0
0.617347 0.083893 0.031572 255 220 0
0.594270 0.081775 0.039764 255 220 0
0.574156 -0.003939 0.085392 255 220 0
0.555620 -0.017289 0.020568 255 220 0
0.602650 -0.016341 0.092455 255 220 0
0.601973 0.066985 0.095728 255 220 0
0.610071 -0.030687 0.070728 255 220 0
0.572789 -0.055702 0.062329 255 220 0
0.550385 -0.034586 0.015441 255 220 0
0.583586 -0.031836 0.083557 255 220 0
0.566821 -0.048517 0.065228 255 220 0
0.568474 -0.007124 0.015042 255 220 0
0.559760 0.008392 0.041495 255 220 0
0.590995 0.004332 0.011364 255 220 0
0.607451 0.042250 0.012555 255 220 0
0.595609 0.031163 0.100093 255 220 0
0.610668 0.095831 0.052023 255 220 0
0.641538 0.083057 0.050549 255 220 0
0.581284 0.059383 0.030960 255 220 0
0.580918 0.067974 0.044444 255 220 0
0.586097 -0.047700 0.069629 255 220 0
0.626275 0.015887 0.025165 255 220 0
0.595880 0.076197 0.030658 255 220 0
0.580421 -0.057931 0.036833 255 220 0
0.552313 -0.056796 0.047133 255 220 0
0.576510 0.049955 0.075971 255 220 0
0.586778 0.077065 0.071870 255 220 0
0.590458 -0.017981 0.092365 255 220 0
0.566674 -0.021527 0.012796 255 220 0
0.581946 -0.049068 0.023672 255 220 0
0.645678 0.023239 0.062674 255 220 0
0.623750 -0.013451 0.073466 255 220 0
0.560009 -0.010827 0.064097 255 220 0
0.646988 0.071023 0.053725 255 220 0
0.620213 -0.015670 0.037063 255 220 0
0.572362 0.051355 0.053811 255 220 0
0.589203 -0.045402 0.027007 255 220 0
0.551600 -0.042968 0.012848 255 220 0
0.590575 -0.052667 0.045043 255 220 0
0.634833 0.050737 0.027672 255 220 0
0.634160 0.086971 0.082606 255 220 0
0.567679 0.036977 0.048482 255 220 0
0.601555 0.070803 0.022837 255 220 0
0.586911 0.001395 0.095358 255 220 0
0.638635 0.010212 0.072954 255 220 0
0.624051 0.004840 0.090218 255 220 0
0.619262 -0.018050 0.038110 255 220 0
0.587492 0.072390 0.079848 255 220 0
0.604926 0.022778 0.101808 255 220 0
0.587432 -0.053559 0.038081 255 220 0
0.605030 0.064040 0.097537 255 220 0
0.584096 0.050706 0.087659 255 220 0
0.629464 0.090272 0.044015 255 220 0
0.616248 0.012861 0.098069 255 220 0
0.574446 0.055248 0.045223 255 220 0
0.640370 0.028116 0.082761 255 220 0
0.600110 0.055642 0.097859 255 220 0
0.620598 0.097458 0.073945 255 220 0
0.580623 0.037068 0.087615 255 220 0
0.635367 0.030702 0.029320 255 220 0
0.630465 0.069340 0.093367 255 220 0
0.558486 -0.001916 0.055167 255 220 0
0.561101 -0.030175 0.067418 255 220 0
0.550590 -0.050509 0.014389 255 220 0
0.610219 0.025676 0.012964 255 220 0
0.586155 -0.010463 0.012341 255 220 0
0.590769 -0.038744 0.023159 255 220 0
0.591991 -0.042632 0.072614 255 220 0
0.543534 -0.054027 0.035473 255 220 0
0.603145 -0.000101 0.098878 255 220 0
0.611036 -0.000850 0.020043 255 220 0
0.612121 -0.007277 0.092686 255 220 0
0.557802 -0.052031 0.014051 255 220 0
0.562032 -0.015475 0.069651 255 220 0
0.558707 -0.062426 0.046466 255 220 0
0.563846 0.019937 0.058832 255 220 0
0.602714 -0.002679 0.015907 255 220 0
0.592636 0.048761 0.095594 255 220 0
0.630535 0.055493 0.025197 255 220 0
0.648185 0.051183 0.073620 255 220 0
0.618550 0.092112 0.041618 255 220 0
0.584252 -0.023412 0.013806 255 220 0
0.589810 0.078730 0.076416 255 220 0
0.623462 -0.004688 0.083835 255 220 0
0.596784 -0.016843 0.093433 255 220 0
0.560846 0.011217 0.053114 255 220 0
0.596821 -0.035242 0.026071 255 220 0
0.619310 0.094031 0.080200 255 220 0
0.618361 0.002012 0.024129 255 220 0
0.622065 -0.009534 0.034144 255 220 0
0.596789 0.082864 0.038229 255 220 0
0.569056 -0.006646 0.079997 255 220 0
0.570559 -0.015733 0.012797 255 220 0
0.561118 0.013869 0.044793 255 220 0
0.566615 0.032657 0.044337 255 220 0
0.588926 0.077753 0.041948 255 220 0
0.637994 0.011388 0.042676 255 220 0
0.624950 0.082586 0.033079 255 220 0
0.649259 0.042318 0.068123 255 220 0
0.604616 -0.039140 0.063217 255 220 0
0.569446 0.011421 0.018740 255 220 0
0.623951 -0.005188 0.082746 255 220 0
0.564452 -0.008711 0.017006 255 220 0
0.577534 0.020932 0.014408 255 220 0
0.559123 -0.008814 0.060931 255 220 0
0.578181 0.043639 0.082569 255 220 0
0.588752 0.062769 0.087871 255 220 0
0.557035 -0.048753 0.012725 255 220 0
0.644551 0.034392 0.077724 255 220 0
0.639096 0.027400 0.084400 255 220 0
0.633194 0.065979 0.030507 255 220 0
0.629640 0.098041 0.063125 255 220 0
0.557786 -0.022820 0.015793 255 220 0
0.547774 -0.026441 0.034477 255 220 0
0.643080 0.018893 0.048842 255 220 0
0.583191 0.062777 0.031333 255 220 0
0.572307 -0.016934 0.012366 255 220 0
0.585980 -0.005825 0.093950 255 220 0
0.570113 0.032234 0.071601 255 220 0
0.567551 0.025616 0.068215 255 220 0
0.571471 -0.029837 0.012047 255 220 0
0.598396 0.085106 0.040038 255 220 0
0.623607 0.066546 0.024097 255 220 0
0.590398 0.082384 0.070041 255 220 0
0.572979 -0.014690 0.012463 255 220 0
0.569033 0.038987 0.041307 255 220 0
0.621847 -0.014103 0.038068 255 220 0
0.630510 0.082834 0.036905 255 220 0
0.646793 0.040712 0.075028 255 220 0
0.560434 -0.002825 0.061961 255 220 0
0.543256 -0.040499 0.037234 255 220 0
0.560002 0.009856 0.045208 255 220 0
0.607326 0.047385 0.013352 255 220 0
0.611657 -0.005782 0.022371 255 220 0
0.571961 0.025134 0.079232 255 220 0
0.570908 0.042231 0.064478 255 220 0
0.586664 0.052284 0.019513 255 220 0
0.608834 0.018462 0.013409 255 220 0
0.544654 -0.052034 0.040222 255 220 0
0.626266 -0.009483 0.040871 255 220 0
0.617636 0.082260 0.030301 255 220 0
0.584759 0.052405 0.021165 255 220 0
0.650320 0.055061 0.063272 255 220 0
0.571961 0.014556 0.081716 255 220 0
0.576183 0.056012 0.038848 255 220 0
0.549891 -0.027853 0.020064 255 220 0
0.617743 0.058157 0.099041 255 220 0
0.632269 0.078356 0.035346 255 220 0
0.647783 0.047870 0.048794 255 220 0
0.620448 -0.021916 0.066124 255 220 0
0.561252 0.002957 0.061555 255 220 0
0.567884 0.030375 0.065073 255 220 0
0.589123 0.082215 0.061785 255 220 0
0.596135 0.025138 0.010092 255 220 0
0.594277 0.067749 0.024012 255 220 0
0.600601 -0.032586 0.079119 255 220 0
0.602366 -0.043429 0.050524 255 220 0
0.572089 0.041520 0.069726 255 220 0
0.597378 0.020656 0.010220 255 220 0
0.590779 -0.045352 0.028713 255 220 0
0.612091 0.049150 0.100860 255 220 0
0.623874 -0.019282 0.058217 255 220 0
0.544878 -0.032501 0.030687 255 220 0
0.621496 0.027035 0.018725 255 220 0
0.608949 0.091659 0.042613 255 220 0
0.578530 0.064204 0.045924 255 220 0
0.640283 0.020693 0.040274 255 220 0
0.624550 0.097463 0.073708 255 220 0
0.547787 -0.027254 0.025551 255 220 0
0.602224 0.063810 0.018391 255 220 0
0.604024 0.091102 0.075888 255 220 0
0.639212 0.032151 0.085739 255 220 0
0.623368 0.077211 0.093627 255 220 0
0.591219 -0.051926 0.053966 255 220 0
0.638886 0.011189 0.044978 255 220 0
0.618337 0.059821 0.098716 255 220 0
0.629751 -0.009592 0.051203 255 220 0
0.632411 -0.000855 0.073126 255 220 0
0.621040 -0.021611 0.048156 255 220 0
0.556245 -0.008915 0.052378 255 220 0
0.585437 -0.056085 0.048902 255 220 0
0.621678 0.098927 0.058162 255 220 0
0.553488 -0.014405 0.046277 255 220 0
0.581508 -0.050702 0.067770 255 220 0
0.565183 -0.063921 0.034722 255 220 0
0.594772 0.084704 0.044891 255 220 0
0.573425 0.000422 0.014009 255 220 0
0.637988 0.093087 0.060855 255 220 0
0.619354 -0.004310 0.088644 255 220 0
0.595205 0.047679 0.097327 255 220 0
0.569783 0.037887 0.035710 255 220 0
0.626338 -0.003613 0.035235 255 220 0
0.617372 -0.027288 0.050618 255 220 0
0.599248 0.045095 0.012637 255 220 0
0.598812 -0.016369 0.018140 255 220 0
0.589981 0.011047 0.097578 255 220 0
0.574792 0.047545 0.073006 255 220 0
0.616756 0.071668 0.096498 255 220 0
0.614062 0.046093 0.101110 255 220 0
0.559592 0.001723 0.030122 255 220 0
0.565913 -0.040540 0.068750 255 220 0
0.618964 0.075509 0.026237 255 220 0
0.595644 -0.044526 0.034399 255 220 0
0.564135 -0.005295 0.072359 255 220 0
0.588269 0.039195 0.013428 255 220 0
0.623642 0.084492 0.033968 255 220 0
0.569517 0.042386 0.046339 255 220 0
0.605765 0.007008 0.014665 255 220 0
0.593346 0.074062 0.030600 255 220 0
0.593346 0.027458 0.099300 255 220 0
0.601954 -0.022564 0.088457 255 220 0
0.573171 -0.036053 0.013097 255 220 0
0.641889 0.016655 0.071588 255 220 0
0.575642 -0.034602 0.078385 255 220 0
0.637517 0.051225 0.089897 255 220 0
0.633536 0.023191 0.089670 255 220 0
0.633172 0.005904 0.079796 255 220 0
0.563729 0.013276 0.028879 255 220 0
0.578218 0.065109 0.059370 255 220 0
0.598795 -0.046304 0.054431 255 220 0
0.620178 -0.019666 0.071017 255 220 0
0.610056 0.093664 0.076465 255 220 0
0.545529 -0.057082 0.035598 255 220 0
0.593569 -0.048720 0.038792 255 220 0
0.647394 0.033547 0.050158 255 220 0
0.572424 0.023960 0.080296 255 220 0
0.563269 0.007510 0.065673 255 220 0
0.552160 -0.016379 0.041451 255 220 0
0.601229 -0.022870 0.088580 255 220 0
0.592096 -0.051601 0.052231 255 220 0
0.598281 -0.018414 0.092456 255 220 0
0.640669 0.010105 0.064972 255 220 0
0.561196 0.006540 0.059243 255 220 0
0.555899 -0.014853 0.054913 255 220 0
0.606809 0.008327 0.014792 255 220 0
0.550360 -0.061172 0.028836 255 220 0
0.620048 0.069621 0.096685 255 220 0
0.599135 0.078320 0.087892 255 220 0
0.566269 -0.000242 0.075563 255 220 0
0.578023 -0.059479 0.038017 255 220 0
0.598748 0.060275 0.096209 255 220 0
0.600714 0.084403 0.083295 255 220 0
0.595392 0.080572 0.036406 255 220 0
0.611359 -0.006018 0.022253 255 220 0
0.633669 0.044128 0.026027 255 220 0
0.550350 -0.038989 0.050743 255 220 0
0.594806 -0.046150 0.063973 255 220 0
0.570106 0.028587 0.074099 255 220 0
0.560921 -0.013650 0.067133 255 220 0
0.574365 -0.030379 0.012503 255 220 0
0.596954 -0.000373 0.098796 255 220 0
0.612956 0.077504 0.094115 255 220 0
0.573806 -0.009306 0.084683 255 220 0
0.614572 0.091920 0.041241 255 220 0
0.631674 0.008853 0.084528 255 220 0
0.637586 0.014685 0.039284 255 220 0
0.554890 -0.021765 0.055275 255 220 0
0.593114 0.039827 0.012244 255 220 0
0.605500 0.093967 0.052301 255 220 0
0.629854 -0.007851 0.047170 255 220 0
0.594161 0.018399 0.099700 255 220 0
0.584515 0.021300 0.011370 255 220 0
0.622978 0.053942 0.019965 255 220 0
0.594908 -0.033160 0.023062 255 220 0
0.589634 -0.053476 0.047756 255 220 0
0.593164 0.084322 0.047666 255 220 0
0.599561 0.085988 0.040205 255 220 0
0.606024 -0.039599 0.048051 255 220 0
0.630677 0.062954 0.027452 255 220 0
0.581523 0.064854 0.075226 255 220 0
0.564411 -0.009153 0.073375 255 220 0
0.567507 -0.006372 0.078013 255 220 0
0.612536 0.047028 0.014377 255 220 0
0.628017 0.098098 0.068581 255 220 0
0.589704 0.049250 0.016279 255 220 0
0.634579 0.017997 0.032871 255 220 0
0.639246 0.084108 0.047680 255 220 0
0.628763 0.048829 0.096292 255 220 0
0.629821 0.028987 0.094473 255 220 0
0.620748 -0.009895 0.032772 255 220 0
0.620938 0.058676 0.020095 255 220 0
0.572037 0.049840 0.047381 255 220 0
0.576138 0.043928 0.079114 255 220 0
0.563726 0.022083 0.041410 255 220 0
0.632106 0.030195 0.026157 255 220 0
0.606049 0.080976 0.090001 255 220 0
0.645539 0.056595 0.043779 255 220 0
0.640592 0.049648 0.086503 255 220 0
0.596961 0.050520 0.097608 255 220 0
0.629848 0.097365 0.058757 255 220 0
0.624737 0.099270 0.062829 255 220 0
0.582981 0.056091 0.084156 255 220 0
0.595680 -0.017150 0.016740 255 220 0
0.608791 0.037556 0.102269 255 220 0
0.591419 0.079639 0.040593 255 220 0
0.635197 -0.000164 0.065317 255 220 0
0.616406 0.060513 0.098873 255 220 0
0.593835 0.036579 0.098635 255 220 0
0.597942 0.062167 0.018624 255 220 0
0.582839 0.032909 0.014117 255 220 0
0.636126 0.028875 0.030691 255 220 0
0.595333 -0.018462 0.092689 255 220 0
0.603900 -0.025840 0.026190 255 220 0
0.614743 0.077345 0.094353 255 220 0
0.636053 0.014592 0.036764 255 220 0
0.618402 0.092805 0.081798 255 220 0
0.560227 -0.022426 0.066826 255 220 0
0.598729 0.034845 0.100931 255 220 0
0.602191 0.017619 0.011281 255 220 0
0.639080 0.068459 0.087089 255 220 0
0.567397 -0.005519 0.077833 255 220 0
0.642626 0.068726 0.082563 255 220 0
0.571100 0.025526 0.022280 255 220 0
0.614370 0.023277 0.015210 255 220 0
0.644375 0.033866 0.041849 255 220 0
0.639845 0.068479 0.038388 255 220 0
0.585100 0.077084 0.056684 255 220 0
0.596629 -0.045214 0.063286 255 220 0
0.596656 -0.046852 0.041491 255 220 0
0.643697 0.062471 0.041669 255 220 0
0.601279 -0.044265 0.048776 255 220 0
0.604320 0.094469 0.062364 255 220 0
0.569167 0.033707 0.066711 255 220 0
0.553069 -0.014902 0.028461 255 220 0
0.574783 -0.008362 0.085634 255 220 0
0.585627 0.077620 0.054677 255 220 0
0.609748 0.053034 0.100277 255 220 0
0.603337 -0.030157 0.079711 255 220 0
0.626523 0.001252 0.085186 255 220 0
0.628832 0.073239 0.093167 255 220 0
0.566304 -0.053599 0.061352 255 220 0
0.629938 0.012086 0.088568 255 220 0
0.633062 -0.004131 0.050939 255 220 0
0.594513 0.023317 0.010049 255 220 0
0.548576 -0.025004 0.036519 255 220 0
0.601457 -0.044089 0.054820 255 220 0
0.634683 0.021317 0.031592 255 220 0
0.643918 0.022883 0.071957 255 220 0
0.590924 0.066164 0.088379 255 220 0
0.603395 0.019142 0.011418 255 220 0
0.581896 -0.038771 0.017319 255 220 0
0.609768 0.096936 0.064736 255 220 0
0.598901 -0.011031 0.016479 255 220 0
0.610751 0.046915 0.013897 255 220 0
0.647693 0.032883 0.052084 255 220 0
0.591452 0.043711 0.013673 255 220 0
0.619776 -0.023601 0.063925 255 220 0
