ply
format ascii 1.0
element vertex 1024
property float x
property float y
property float z
property uchar red
property uchar green
property uchar blue
end_header
0.627936 0.011533 0.028279 255 220 0
0.584831 -0.055163 0.042417 255 220 0
0.624224 0.005126 0.027528 255 220 0
0.571871 0.049091 0.060748 255 220 0
0.645451 0.079060 0.076800 255 220 0
0.612634 -0.025563 0.076990 255 220 0
0.571555 0.042425 0.066819 255 220 0
0.606219 0.064663 0.098501 255 220 0
0.618411 0.096121 0.077121 255 220 0
0.626165 -0.012927 0.071104 255 220 0
0.592734 -0.046694 0.035068 255 220 0
0.570154 -0.000648 0.078649 255 220 0
0.601682 0.091865 0.052422 255 220 0
0.621206 0.078930 0.031052 255 220 0
0.566957 0.030973 0.061661 255 220 0
0.602026 0.069677 0.022939 255 220 0
0.624509 -0.019255 0.057270 255 220 0
0.581486 -0.031485 0.080370 255 220 0
0.584628 -0.031727 0.017292 255 220 0
0.585454 -0.016822 0.013961 255 220 0
0.567246 0.038525 0.051070 255 220 0
0.630719 0.092519 0.049638 255 220 0
0.634146 0.005664 0.080408 255 220 0
0.637214 0.000947 0.058667 255 220 0
0.631406 -0.003221 0.042417 255 220 0
0.561118 0.017863 0.048601 255 220 0
0.604943 0.026739 0.013029 255 220 0
0.564457 -0.048446 0.061789 255 220 0
0.569072 0.036818 0.063781 255 220 0
0.587694 -0.010871 0.090919 255 220 0
0.580221 -0.027711 0.014539 255 220 0
0.604455 0.019150 0.101027 255 220 0
0.577617 0.060204 0.067659 255 220 0
0.571675 0.039586 0.069094 255 220 0
0.651082 0.045964 0.063721 255 220 0
0.641979 0.062740 0.039656 255 220 0
0.622167 0.097686 0.056086 255 220 0
0.603172 0.002880 0.098532 255 220 0
0.545053 -0.054926 0.040248 255 220 0
0.551873 -0.059851 0.027102 255 220 0
0.627715 0.066945 0.028486 255 220 0
0.630250 0.000517 0.036860 255 220 0
0.584886 0.046240 0.017695 255 220 0
0.640158 0.055441 0.035162 255 220 0
0.582089 0.071616 0.064054 255 220 0
0.638888 0.010401 0.075771 255 220 0
0.573998 0.032015 0.019546 255 220 0
0.594920 0.079267 0.082984 255 220 0
0.619521 0.021830 0.099641 255 220 0
0.608030 0.062977 0.099401 255 220 0
0.634459 0.054653 0.028978 255 220 0
0.607288 -0.038588 0.048806 255 220 0
0.638009 0.079343 0.087216 255 220 0
0.642306 0.079589 0.049139 255 220 0
0.630755 -0.008261 0.066433 255 220 0
0.603421 0.024166 0.012778 255 220 0
0.569478 0.002684 0.077448 255 220 0
0.538635 -0.038779 0.029410 255 220 0
0.545977 -0.043685 0.015332 255 220 0
0.578114 0.035221 0.017450 255 220 0
0.600914 0.031661 0.100791 255 220 0
0.617058 0.049414 0.101258 255 220 0
0.561298 -0.002742 0.020181 255 220 0
0.616520 -0.029179 0.051577 255 220 0
0.643785 0.077464 0.050078 255 220 0
0.610981 0.080357 0.029975 255 220 0
0.584359 -0.044649 0.072122 255 220 0
0.555006 -0.062444 0.033472 255 220 0
0.547946 -0.023648 0.021721 255 220 0
0.634198 0.080645 0.040269 255 220 0
0.541838 -0.035998 0.020874 255 220 0
0.576988 0.044471 0.022858 255 220 0
0.634085 0.070475 0.034523 255 220 0
0.635638 -0.001746 0.056913 255 220 0
0.571552 -0.056657 0.026917 255 220 0
0.646455 0.050544 0.080478 255 220 0
0.618893 -0.021090 0.073098 255 220 0
0.646575 0.031247 0.074048 255 220 0
0.595265 -0.020345 0.090153 255 220 0
0.590866 0.043327 0.094506 255 220 0
0.562953 0.025013 0.041285 255 220 0
0.610307 0.089715 0.039613 255 220 0
0.614334 0.072117 0.025133 255 220 0
0.627216 0.097734 0.058563 255 220 0
0.581842 0.072228 0.059353 255 220 0
0.625033 0.062831 0.098508 255 220 0
0.589510 -0.046993 0.067849 255 220 0
0.556415 -0.050911 0.015760 255 220 0
0.567534 -0.016202 0.013273 255 220 0
0.577566 0.053420 0.028969 255 220 0
0.580782 0.052323 0.081207 255 220 0
0.609776 -0.031926 0.039226 255 220 0
0.584950 -0.013499 0.013339 255 220 0
0.589624 -0.049326 0.035037 255 220 0
0.573799 0.038209 0.022866 255 220 0
0.603191 0.035551 0.012770 255 220 0
0.592488 -0.035601 0.080033 255 220 0
0.595307 -0.025923 0.020590 255 220 0
0.561586 -0.048678 0.059760 255 220 0
0.609568 0.012970 0.099995 255 220 0
0.644788 0.018379 0.065916 255 220 0
0.569966 0.028380 0.022497 255 220 0
0.644955 0.033204 0.042304 255 220 0
0.624551 -0.000253 0.088349 255 220 0
0.636946 0.002016 0.050125 255 220 0
0.580446 0.066035 0.069015 255 220 0
0.591378 -0.049804 0.059795 255 220 0
0.592725 -0.033161 0.022410 255 220 0
0.585030 -0.000820 0.012353 255 220 0
0.556834 -0.030664 0.060493 255 220 0
0.618506 0.071125 0.098143 255 220 0
0.563740 -0.002550 0.018161 255 220 0
0.605984 0.012839 0.100229 255 220 0
0.574331 0.055766 0.040551 255 220 0
0.597191 -0.047042 0.045898 255 220 0
0.566167 0.032488 0.056544 255 220 0
0.575234 0.029346 0.081247 255 220 0
0.594782 -0.008835 0.094227 255 220 0
0.627962 0.074119 0.095334 255 220 0
0.557497 -0.027978 0.013569 255 220 0
0.621664 -0.004629 0.088269 255 220 0
0.599390 0.047342 0.014471 255 220 0
0.645610 0.040209 0.042354 255 220 0
0.641418 0.018495 0.042995 255 220 0
0.636038 0.047973 0.029339 255 220 0
0.581004 -0.003588 0.012420 255 220 0
0.577023 0.041401 0.079809 255 220 0
0.574516 0.047415 0.028671 255 220 0
0.615090 0.057556 0.019370 255 220 0
0.616073 -0.025681 0.070311 255 220 0
0.570182 0.029004 0.071390 255 220 0
0.605643 0.006499 0.016205 255 220 0
0.646149 0.045286 0.043513 255 220 0
0.580704 0.021144 0.088474 255 220 0
0.602627 0.021570 0.012762 255 220 0
0.601614 0.087838 0.041650 255 220 0
0.638475 0.003308 0.060722 255 220 0
0.547047 -0.020480 0.028447 255 220 0
0.632228 0.032503 0.094881 255 220 0
0.650626 0.041873 0.064308 255 220 0
0.598028 -0.020701 0.020076 255 220 0
0.603983 0.073513 0.025291 255 220 0
0.628144 -0.001458 0.035419 255 220 0
0.583514 -0.038055 0.077206 255 220 0
0.631081 0.088291 0.044233 255 220 0
0.641819 0.019551 0.077842 255 220 0
0.543309 -0.053660 0.038803 255 220 0
0.634049 0.089554 0.082637 255 220 0
0.574066 0.013666 0.082393 255 220 0
0.561516 -0.000591 0.063392 255 220 0
0.594387 0.033817 0.012085 255 220 0
0.642011 0.010715 0.056089 255 220 0
0.647656 0.078348 0.065355 255 220 0
0.588413 0.079417 0.069105 255 220 0
0.548892 -0.025394 0.046224 255 220 0
0.632647 0.034463 0.026636 255 220 0
0.587579 0.068707 0.082418 255 220 0
0.623714 -0.013977 0.074987 255 220 0
0.603084 0.078955 0.029932 255 220 0
0.552323 -0.042006 0.013149 255 220 0
0.606234 0.038936 0.013624 255 220 0
0.569825 0.045743 0.042236 255 220 0
0.618327 -0.027273 0.054847 255 220 0
0.592014 0.060649 0.091435 255 220 0
0.579403 0.048815 0.022998 255 220 0
0.583785 -0.000598 0.090414 255 220 0
0.571029 0.034262 0.070614 255 220 0
0.630934 0.044833 0.024820 255 220 0
0.624915 -0.012542 0.074716 255 220 0
0.646408 0.066247 0.048657 255 220 0
0.580471 -0.055233 0.033837 255 220 0
0.593566 -0.030053 0.084403 255 220 0
0.592936 0.001922 0.013022 255 220 0
0.579595 -0.058068 0.043079 255 220 0
0.615418 0.098011 0.058648 255 220 0
0.629659 0.002569 0.084471 255 220 0
0.593858 -0.043887 0.032447 255 220 0
0.601436 0.026359 0.100978 255 220 0
0.545072 -0.051215 0.043919 255 220 0
0.637951 0.050804 0.031665 255 220 0
0.549036 -0.015643 0.032015 255 220 0
0.635009 0.000470 0.046173 255 220 0
0.613530 -0.026801 0.073338 255 220 0
0.538901 -0.048125 0.034360 255 220 0
0.630576 0.038368 0.024595 255 220 0
0.627054 0.097968 0.059243 255 220 0
0.629918 0.074671 0.094385 255 220 0
0.564858 -0.035841 0.068037 255 220 0
0.569244 -0.061750 0.040186 255 220 0
0.640537 0.007489 0.062375 255 220 0
0.565719 -0.020556 0.013073 255 220 0
0.629610 0.054161 0.097305 255 220 0
0.651107 0.048108 0.058342 255 220 0
0.550761 -0.044582 0.052546 255 220 0
0.583597 0.043657 0.017325 255 220 0
0.594921 0.044662 0.096967 255 220 0
0.599486 0.069060 0.023054 255 220 0
0.619693 -0.023404 0.066209 255 220 0
0.640700 0.029173 0.036460 255 220 0
0.603716 0.074399 0.025999 255 220 0
0.643897 0.015830 0.065515 255 220 0
0.599508 0.036003 0.012383 255 220 0
0.586993 -0.047770 0.068177 255 220 0
0.554421 -0.011468 0.051905 255 220 0
0.628767 0.038229 0.023338 255 220 0
0.567505 -0.019325 0.074728 255 220 0
0.635707 0.094052 0.073915 255 220 0
0.628245 -0.010154 0.070797 255 220 0
0.614924 0.032834 0.102156 255 220 0
0.576058 -0.039396 0.073522 255 220 0
0.546061 -0.033063 0.017410 255 220 0
0.599452 -0.042391 0.064730 255 220 0
0.618785 0.040691 0.017884 255 220 0
0.563343 -0.056735 0.054829 255 220 0
0.569545 0.028958 0.023396 255 220 0
0.606077 0.055587 0.016860 255 220 0
0.586702 0.079024 0.061263 255 220 0
0.643389 0.063057 0.041898 255 220 0
0.647638 0.029126 0.067956 255 220 0
0.539663 -0.043012 0.021946 255 220 0
0.587407 0.066856 0.028523 255 220 0
0.637293 0.071581 0.090887 255 220 0
0.550429 -0.012845 0.037067 255 220 0
0.646797 0.060074 0.080247 255 220 0
0.623872 0.010458 0.025283 255 220 0
0.542299 -0.032118 0.023720 255 220 0
0.592612 -0.018531 0.016740 255 220 0
0.593828 0.040019 0.013197 255 220 0
0.553520 -0.005424 0.033497 255 220 0
0.591340 -0.025474 0.086901 255 220 0
0.640596 0.007343 0.059522 255 220 0
0.597250 -0.018296 0.091330 255 220 0
0.614899 0.034960 0.102200 255 220 0
0.641996 0.070745 0.086398 255 220 0
0.563877 0.007821 0.065942 255 220 0
0.619062 0.043797 0.101262 255 220 0
0.542403 -0.039700 0.018430 255 220 0
0.637336 0.090231 0.078747 255 220 0
0.552544 -0.044510 0.013432 255 220 0
0.545752 -0.034313 0.044454 255 220 0
0.562566 -0.051031 0.058941 255 220 0
0.574398 0.020592 0.016005 255 220 0
0.563142 0.008877 0.063985 255 220 0
0.565840 -0.024307 0.072130 255 220 0
0.633559 0.008657 0.083953 255 220 0
0.539213 -0.037361 0.027572 255 220 0
0.628038 0.081897 0.036366 255 220 0
0.614969 0.096785 0.053867 255 220 0
0.604634 -0.036260 0.069937 255 220 0
0.540973 -0.033156 0.031301 255 220 0
0.575325 -0.059887 0.042950 255 220 0
0.618164 0.008024 0.022195 255 220 0
0.622858 -0.020067 0.064498 255 220 0
0.593013 0.076237 0.033121 255 220 0
0.596169 0.016248 0.011932 255 220 0
0.554556 -0.052426 0.016570 255 220 0
0.642820 0.023759 0.042525 255 220 0
0.644172 0.078218 0.051413 255 220 0
0.613045 0.096235 0.073346 255 220 0
0.584805 0.061740 0.082789 255 220 0
0.564605 -0.044107 0.014469 255 220 0
0.632547 0.077246 0.036736 255 220 0
0.600676 0.037986 0.012709 255 220 0
0.644153 0.061784 0.042748 255 220 0
0.610032 0.034408 0.014415 255 220 0
0.571047 0.033755 0.023987 255 220 0
0.546337 -0.031962 0.017720 255 220 0
0.609566 0.093599 0.047382 255 220 0
0.621917 0.074007 0.028638 255 220 0
0.538844 -0.049040 0.033006 255 220 0
0.567508 -0.006382 0.075262 255 220 0
0.644413 0.073439 0.048506 255 220 0
0.648386 0.037996 0.072409 255 220 0
0.578462 0.056521 0.073477 255 220 0
0.637566 0.036042 0.031257 255 220 0
0.576744 -0.024901 0.080646 255 220 0
0.640378 0.008830 0.050610 255 220 0
0.574331 0.038464 0.022356 255 220 0
0.643751 0.064719 0.043077 255 220 0
0.576108 0.043625 0.076687 255 220 0
0.641503 0.021063 0.079621 255 220 0
0.548744 -0.057625 0.041789 255 220 0
0.539461 -0.042931 0.022401 255 220 0
0.599862 0.076761 0.029087 255 220 0
0.640158 0.051679 0.089617 255 220 0
0.555706 -0.041509 0.058038 255 220 0
0.645986 0.043283 0.043094 255 220 0
0.632371 0.057040 0.095788 255 220 0
0.572609 0.032347 0.021144 255 220 0
0.575099 -0.017363 0.081841 255 220 0
0.650939 0.051990 0.057285 255 220 0
0.577945 -0.049279 0.067242 255 220 0
0.638271 0.065219 0.091190 255 220 0
0.596385 0.081848 0.037168 255 220 0
0.572466 -0.035509 0.073559 255 220 0
0.541111 -0.041946 0.039889 255 220 0
0.576678 -0.009137 0.084548 255 220 0
0.616345 0.085607 0.090065 255 220 0
0.598688 -0.017881 0.091618 255 220 0
0.587414 0.003673 0.012217 255 220 0
0.544044 -0.026890 0.027143 255 220 0
0.587343 -0.013077 0.013822 255 220 0
0.629581 0.018641 0.027362 255 220 0
0.618810 -0.023071 0.069413 255 220 0
0.640468 0.086994 0.053296 255 220 0
0.641532 0.011931 0.049948 255 220 0
0.637313 0.080436 0.087206 255 220 0
0.611407 0.005420 0.098143 255 220 0
0.600518 -0.044026 0.044960 255 220 0
0.588013 0.021235 0.094107 255 220 0
0.609912 0.066685 0.098910 255 220 0
0.617870 0.045483 0.101393 255 220 0
0.574622 0.040136 0.022993 255 220 0
0.615269 -0.026114 0.071211 255 220 0
0.639583 0.013132 0.077153 255 220 0
0.588077 0.006829 0.093613 255 220 0
0.598457 -0.033163 0.080820 255 220 0
0.598005 -0.002989 0.015243 255 220 0
0.563084 0.012043 0.062590 255 220 0
0.638340 0.063690 0.091271 255 220 0
0.609805 -0.036446 0.053821 255 220 0
0.615981 0.088367 0.087355 255 220 0
0.537817 -0.043394 0.031158 255 220 0
0.574102 0.057527 0.049182 255 220 0
0.584477 0.047380 0.018390 255 220 0
0.591072 0.083084 0.049285 255 220 0
0.583553 -0.012858 0.088278 255 220 0
0.553419 -0.005723 0.040088 255 220 0
0.578299 0.066415 0.053081 255 220 0
0.573326 -0.026304 0.077866 255 220 0
0.610141 0.067244 0.098797 255 220 0
0.548867 -0.023638 0.020480 255 220 0
0.636876 0.010121 0.079798 255 220 0
0.568718 -0.007776 0.076933 255 220 0
0.595565 0.088316 0.059833 255 220 0
0.554429 -0.011517 0.051952 255 220 0
0.560371 -0.008661 0.018442 255 220 0
0.612757 0.057077 0.100823 255 220 0
0.590539 0.014345 0.095510 255 220 0
0.604938 -0.005399 0.096444 255 220 0
0.650998 0.057487 0.059623 255 220 0
0.613853 0.096460 0.073502 255 220 0
0.639443 0.008477 0.047669 255 220 0
0.646660 0.056103 0.046048 255 220 0
0.643776 0.027568 0.078864 255 220 0
0.644124 0.031517 0.080075 255 220 0
0.547405 -0.029449 0.045193 255 220 0
0.643119 0.062804 0.041380 255 220 0
0.645355 0.022553 0.070214 255 220 0
0.539294 -0.046471 0.036380 255 220 0
0.637810 0.080833 0.086554 255 220 0
0.579740 0.039440 0.084779 255 220 0
0.572783 0.036822 0.023373 255 220 0
0.616276 -0.025098 0.071079 255 220 0
0.607987 0.045408 0.014809 255 220 0
0.641101 0.018135 0.078305 255 220 0
0.638460 0.026098 0.034426 255 220 0
0.630903 0.080408 0.091390 255 220 0
0.597479 -0.030889 0.024505 255 220 0
0.545925 -0.042079 0.046891 255 220 0
0.568991 -0.056447 0.057841 255 220 0
0.628471 0.049486 0.097923 255 220 0
0.642356 0.034268 0.084114 255 220 0
0.556252 -0.058348 0.022579 255 220 0
0.626183 0.095179 0.051446 255 220 0
0.587002 -0.030482 0.083005 255 220 0
0.567433 0.006154 0.073562 255 220 0
0.563793 0.020459 0.028756 255 220 0
0.565655 0.023184 0.026629 255 220 0
0.595920 0.087223 0.069748 255 220 0
0.565383 0.027968 0.058582 255 220 0
0.608216 0.096042 0.059467 255 220 0
0.553020 -0.057078 0.021194 255 220 0
0.640614 0.034247 0.035137 255 220 0
0.581587 0.067277 0.070888 255 220 0
0.558232 -0.006369 0.021556 255 220 0
0.589856 -0.035034 0.080529 255 220 0
0.645629 0.052063 0.082202 255 220 0
0.581049 0.068097 0.067787 255 220 0
0.610607 0.093036 0.078298 255 220 0
0.604735 0.090528 0.077682 255 220 0
0.595280 0.023502 0.011465 255 220 0
0.564197 -0.013573 0.070652 255 220 0
0.580297 0.043124 0.019139 255 220 0
0.567463 -0.011093 0.075261 255 220 0
0.578828 0.036240 0.017331 255 220 0
0.586187 0.054382 0.087990 255 220 0
0.649086 0.070295 0.069876 255 220 0
0.576243 -0.016471 0.012567 255 220 0
0.562226 -0.060494 0.027445 255 220 0
0.559779 -0.038401 0.012602 255 220 0
0.609606 0.075439 0.095381 255 220 0
0.572669 -0.059737 0.035654 255 220 0
0.569214 0.013290 0.018172 255 220 0
0.566481 0.036530 0.044945 255 220 0
0.635752 0.041064 0.093027 255 220 0
0.629729 -0.005559 0.075056 255 220 0
0.629085 0.049407 0.024035 255 220 0
0.567121 0.004919 0.073226 255 220 0
0.627466 -0.014897 0.055805 255 220 0
0.596829 0.070727 0.091051 255 220 0
0.601509 0.066409 0.021119 255 220 0
0.623080 0.043582 0.100205 255 220 0
0.586618 0.003866 0.012189 255 220 0
0.561817 0.015960 0.056022 255 220 0
0.631460 0.089556 0.084341 255 220 0
0.573243 0.039760 0.072597 255 220 0
0.572006 0.050439 0.059053 255 220 0
0.624715 -0.018783 0.053437 255 220 0
0.539971 -0.049320 0.036352 255 220 0
0.638784 0.061851 0.035358 255 220 0
0.625114 0.052641 0.022358 255 220 0
0.568463 0.041290 0.054901 255 220 0
0.614841 -0.029653 0.063525 255 220 0
0.637504 0.008305 0.076565 255 220 0
0.608051 -0.007449 0.021100 255 220 0
0.632253 0.091439 0.049292 255 220 0
0.581201 -0.001331 0.012433 255 220 0
0.559298 -0.053059 0.017626 255 220 0
0.558277 -0.009329 0.019899 255 220 0
0.640332 0.009914 0.070685 255 220 0
0.646054 0.060535 0.081685 255 220 0
0.637286 0.001721 0.063963 255 220 0
0.578243 0.057035 0.072574 255 220 0
0.578552 -0.020153 0.013013 255 220 0
0.553624 -0.024395 0.054831 255 220 0
0.598359 0.028897 0.011788 255 220 0
0.637582 0.021494 0.035042 255 220 0
0.618296 0.060759 0.100148 255 220 0
0.569728 0.001424 0.015552 255 220 0
0.596360 0.025489 0.099050 255 220 0
0.593175 0.040451 0.013378 255 220 0
0.560668 0.006351 0.058939 255 220 0
0.586611 0.079096 0.059462 255 220 0
0.578283 0.055357 0.073927 255 220 0
0.570015 -0.059547 0.031481 255 220 0
0.580482 -0.055955 0.035714 255 220 0
0.646010 0.080632 0.073599 255 220 0
0.622283 0.062814 0.023958 255 220 0
0.545154 -0.055992 0.024544 255 220 0
0.571237 0.044214 0.032701 255 220 0
0.600538 0.023585 0.012142 255 220 0
0.620587 0.021853 0.020329 255 220 0
0.636686 0.018227 0.035255 255 220 0
0.570784 0.016070 0.017566 255 220 0
0.603986 -0.040906 0.045185 255 220 0
0.576628 -0.056492 0.031603 255 220 0
0.609786 -0.034332 0.043458 255 220 0
0.580375 -0.057972 0.048532 255 220 0
0.634585 0.075341 0.037381 255 220 0
0.569972 0.031279 0.069743 255 220 0
0.646489 0.023925 0.055428 255 220 0
0.632665 0.077749 0.037122 255 220 0
0.635434 0.032040 0.092027 255 220 0
0.631484 -0.003577 0.074070 255 220 0
0.556195 -0.052650 0.016826 255 220 0
0.638028 0.093263 0.071385 255 220 0
0.566929 0.031127 0.061420 255 220 0
0.617560 -0.027074 0.048005 255 220 0
0.546393 -0.043206 0.047605 255 220 0
0.610199 -0.007358 0.094574 255 220 0
0.565311 0.015173 0.022814 255 220 0
0.601718 -0.030991 0.081441 255 220 0
0.570100 -0.041377 0.015077 255 220 0
0.624521 0.062808 0.098662 255 220 0
0.608256 0.079962 0.029792 255 220 0
0.551357 -0.017344 0.047359 255 220 0
0.597716 0.036568 0.099229 255 220 0
0.551344 -0.012196 0.041599 255 220 0
0.567186 -0.060537 0.031270 255 220 0
0.583630 -0.031379 0.016746 255 220 0
0.617466 0.079923 0.030489 255 220 0
0.548410 -0.040122 0.049884 255 220 0
0.643492 0.023988 0.043863 255 220 0
0.603233 0.081808 0.032641 255 220 0
0.596635 0.089200 0.059517 255 220 0
0.610022 0.048802 0.015839 255 220 0
0.570448 0.047456 0.055052 255 220 0
0.599097 -0.029487 0.024897 255 220 0
0.569872 0.035627 0.027330 255 220 0
0.569656 0.043524 0.058351 255 220 0
0.560760 -0.027508 0.012975 255 220 0
0.625093 -0.016250 0.066957 255 220 0
0.622530 0.004923 0.092853 255 220 0
0.648455 0.067755 0.054624 255 220 0
0.591533 0.003279 0.095160 255 220 0
0.568938 0.042759 0.040073 255 220 0
0.554701 -0.002206 0.040757 255 220 0
0.551526 -0.059555 0.026568 255 220 0
0.641077 0.009828 0.051924 255 220 0
0.594553 -0.026113 0.087012 255 220 0
0.546852 -0.041424 0.048023 255 220 0
0.564228 0.016831 0.025332 255 220 0
0.594513 0.011795 0.097398 255 220 0
0.559017 -0.051740 0.056176 255 220 0
0.625226 -0.008475 0.079850 255 220 0
0.641371 0.059634 0.088489 255 220 0
0.635351 0.059906 0.093818 255 220 0
0.591623 -0.049783 0.039601 255 220 0
0.571373 0.040552 0.067688 255 220 0
0.594756 0.053499 0.016925 255 220 0
0.575516 0.052361 0.031700 255 220 0
0.615218 0.019655 0.017908 255 220 0
0.637973 0.012948 0.040146 255 220 0
0.598505 0.011664 0.012906 255 220 0
0.545945 -0.022639 0.033565 255 220 0
0.591528 -0.041923 0.027671 255 220 0
0.587505 0.079149 0.048311 255 220 0
0.585576 0.000563 0.012312 255 220 0
0.602516 0.031281 0.012428 255 220 0
0.594660 0.081981 0.079131 255 220 0
0.586477 -0.021648 0.087039 255 220 0
0.641229 0.009208 0.054820 255 220 0
0.614256 -0.031435 0.049521 255 220 0
0.633819 0.002796 0.040738 255 220 0
0.574496 0.056420 0.041235 255 220 0
0.560036 0.005400 0.026119 255 220 0
0.566003 -0.040305 0.013730 255 220 0
0.591935 0.017125 0.011510 255 220 0
0.618938 -0.000944 0.025821 255 220 0
0.618941 0.057619 0.020772 255 220 0
0.622688 0.044692 0.100291 255 220 0
0.566403 -0.031942 0.070678 255 220 0
0.629611 0.088287 0.043064 255 220 0
0.599456 -0.017848 0.091643 255 220 0
0.636471 0.075483 0.090278 255 220 0
0.605092 0.043600 0.101137 255 220 0
0.608626 0.049268 0.015645 255 220 0
0.598045 0.089755 0.066195 255 220 0
0.617622 -0.028110 0.055948 255 220 0
0.605129 0.078943 0.091426 255 220 0
0.612326 -0.021216 0.031376 255 220 0
0.632518 0.023433 0.092512 255 220 0
0.568642 0.033521 0.028173 255 220 0
0.638741 0.006499 0.070171 255 220 0
0.596689 0.060000 0.095059 255 220 0
0.568495 -0.013643 0.076430 255 220 0
0.626704 0.002656 0.088034 255 220 0
0.600976 -0.014391 0.019481 255 220 0
0.593724 0.040235 0.013256 255 220 0
0.603993 0.042280 0.100989 255 220 0
0.567772 -0.027462 0.012519 255 220 0
0.618594 -0.016742 0.080215 255 220 0
0.637088 0.002770 0.049005 255 220 0
0.589274 0.052121 0.091597 255 220 0
0.626989 -0.003646 0.035516 255 220 0
0.603268 -0.039910 0.040842 255 220 0
0.580530 0.012563 0.088683 255 220 0
0.566825 0.016251 0.021317 255 220 0
0.610412 -0.032020 0.040506 255 220 0
0.577951 -0.031187 0.014643 255 220 0
0.598076 0.013053 0.098943 255 220 0
0.578552 -0.052807 0.063782 255 220 0
0.592961 0.021700 0.011390 255 220 0
0.647759 0.035869 0.073280 255 220 0
0.587186 -0.032769 0.018903 255 220 0
0.570703 0.021356 0.075837 255 220 0
0.560593 -0.056625 0.053289 255 220 0
0.574027 0.057325 0.048780 255 220 0
0.584957 -0.004606 0.012534 255 220 0
0.612229 0.042828 0.102039 255 220 0
0.562607 -0.060462 0.049995 255 220 0
0.581188 0.008452 0.089166 255 220 0
0.631297 0.097417 0.068870 255 220 0
0.598545 0.078869 0.087054 255 220 0
0.590621 -0.032773 0.082272 255 220 0
0.591356 -0.051637 0.050027 255 220 0
0.602964 -0.008109 0.095650 255 220 0
0.579574 0.068486 0.049642 255 220 0
0.629014 0.098351 0.067578 255 220 0
0.635013 0.095812 0.068294 255 220 0
0.571215 0.048339 0.039645 255 220 0
0.595226 0.020176 0.011547 255 220 0
0.608668 -0.006460 0.021132 255 220 0
0.590299 -0.014346 0.091107 255 220 0
0.578130 0.052317 0.075650 255 220 0
0.545944 -0.028903 0.041887 255 220 0
0.545655 -0.036236 0.016440 255 220 0
0.597689 -0.029439 0.023824 255 220 0
0.645681 0.021628 0.054282 255 220 0
0.552632 -0.010672 0.045358 255 220 0
0.599939 -0.041576 0.037799 255 220 0
0.600415 0.075165 0.091138 255 220 0
0.637195 0.062671 0.092299 255 220 0
0.605406 0.074756 0.026053 255 220 0
0.582245 0.015678 0.089980 255 220 0
0.575397 0.005524 0.084301 255 220 0
0.639986 0.091081 0.072747 255 220 0
0.647963 0.039133 0.074272 255 220 0
0.641947 0.021792 0.041926 255 220 0
0.609354 0.067313 0.021707 255 220 0
0.636030 0.038909 0.029347 255 220 0
0.581486 0.012146 0.089431 255 220 0
0.637908 0.009704 0.077263 255 220 0
0.599834 0.069912 0.023528 255 220 0
0.634075 -0.004107 0.054105 255 220 0
0.649744 0.036255 0.057831 255 220 0
0.641225 0.039855 0.087054 255 220 0
0.625031 0.040981 0.099543 255 220 0
0.575995 0.042782 0.076937 255 220 0
0.578673 0.052906 0.076441 255 220 0
0.582515 0.016915 0.090164 255 220 0
0.629247 0.026195 0.025230 255 220 0
0.605736 -0.034955 0.070868 255 220 0
0.616891 0.022069 0.018335 255 220 0
0.587515 -0.037637 0.078314 255 220 0
0.642678 0.054780 0.038647 255 220 0
0.598635 -0.045333 0.043729 255 220 0
0.639976 0.006918 0.053283 255 220 0
0.616795 0.098848 0.062890 255 220 0
0.608902 -0.028010 0.033282 255 220 0
0.626801 0.098838 0.063565 255 220 0
0.551428 -0.031448 0.014706 255 220 0
0.591838 -0.020874 0.017079 255 220 0
0.564507 -0.009376 0.015660 255 220 0
0.552593 -0.009653 0.043691 255 220 0
0.622838 0.063332 0.024423 255 220 0
0.636104 0.025760 0.031735 255 220 0
0.555097 -0.017301 0.055740 255 220 0
0.609551 -0.035595 0.045947 255 220 0
0.592530 0.063822 0.022400 255 220 0
0.564086 0.011293 0.022791 255 220 0
0.616139 0.086813 0.035777 255 220 0
0.571116 -0.053934 0.023191 255 220 0
0.639102 0.062213 0.035845 255 220 0
0.604594 0.066493 0.020968 255 220 0
0.633352 0.020317 0.090626 255 220 0
0.606300 0.013793 0.015027 255 220 0
0.541891 -0.046607 0.041209 255 220 0
0.559608 -0.013471 0.062906 255 220 0
0.570806 0.024287 0.019761 255 220 0
0.646789 0.023918 0.058929 255 220 0
0.648917 0.046981 0.074046 255 220 0
0.591699 -0.031973 0.021151 255 220 0
0.593132 0.078899 0.080990 255 220 0
0.542613 -0.033094 0.037678 255 220 0
0.595197 0.014396 0.011976 255 220 0
0.593971 0.016589 0.011652 255 220 0
0.643869 0.026058 0.043408 255 220 0
0.589278 0.080530 0.046564 255 220 0
0.637452 0.021220 0.034979 255 220 0
0.578104 0.059146 0.034350 255 220 0
0.606772 0.048522 0.015177 255 220 0
0.634420 0.094820 0.073859 255 220 0
0.597215 -0.013265 0.093402 255 220 0
0.614880 0.057271 0.100798 255 220 0
0.583916 0.063397 0.029291 255 220 0
0.646652 0.042058 0.078483 255 220 0
0.625005 0.097908 0.073831 255 220 0
0.628565 0.065078 0.028260 255 220 0
0.554534 -0.004502 0.045535 255 220 0
0.579059 0.056264 0.029299 255 220 0
0.593550 -0.009000 0.093797 255 220 0
0.570150 0.023047 0.020015 255 220 0
0.584782 0.039558 0.090069 255 220 0
0.626129 0.098548 0.060879 255 220 0
0.620219 -0.019250 0.073550 255 220 0
0.556170 -0.001683 0.028750 255 220 0
0.626750 -0.012745 0.069846 255 220 0
0.577534 0.025861 0.015203 255 220 0
0.616601 0.001426 0.023311 255 220 0
0.563906 -0.062923 0.037915 255 220 0
0.555794 -0.011958 0.055348 255 220 0
0.615181 -0.004088 0.024384 255 220 0
0.579648 0.045481 0.082588 255 220 0
0.565950 0.000246 0.071932 255 220 0
0.573180 0.042860 0.027084 255 220 0
0.591312 0.083925 0.064478 255 220 0
0.577722 -0.013914 0.084478 255 220 0
0.613540 0.064511 0.099790 255 220 0
0.573188 0.034578 0.021592 255 220 0
0.646482 0.035188 0.076479 255 220 0
0.649178 0.054563 0.051477 255 220 0
0.566668 0.027290 0.027478 255 220 0
0.591899 0.039950 0.095646 255 220 0
0.539783 -0.036734 0.025507 255 220 0
0.554248 -0.047392 0.014073 255 220 0
0.613721 0.086405 0.035220 255 220 0
0.592074 0.083166 0.046405 255 220 0
0.579238 -0.006506 0.086748 255 220 0
0.551653 -0.014578 0.024315 255 220 0
0.608524 -0.018941 0.088557 255 220 0
0.607832 0.063769 0.099183 255 220 0
0.612828 -0.031229 0.064821 255 220 0
0.574875 -0.056113 0.059669 255 220 0
0.545837 -0.031465 0.018492 255 220 0
0.588470 -0.033964 0.081148 255 220 0
0.569343 -0.049315 0.064009 255 220 0
0.563518 -0.003742 0.017923 255 220 0
0.558607 0.009282 0.046606 255 220 0
0.585208 0.008402 0.012087 255 220 0
0.601440 0.046374 0.014235 255 220 0
0.602373 0.027594 0.101256 255 220 0
0.609982 0.096417 0.057383 255 220 0
0.640394 0.084388 0.050404 255 220 0
0.578090 0.061377 0.037616 255 220 0
0.579617 0.068771 0.051715 255 220 0
0.589046 -0.048523 0.065668 255 220 0
0.622037 0.019376 0.021671 255 220 0
0.592392 0.078422 0.036709 255 220 0
0.578774 -0.056003 0.033249 255 220 0
0.552434 -0.056275 0.047515 255 220 0
0.579894 0.048032 0.081846 255 220 0
0.589305 0.075579 0.078714 255 220 0
0.596455 -0.020792 0.090065 255 220 0
0.561499 -0.017929 0.014703 255 220 0
0.578339 -0.046016 0.020833 255 220 0
0.646588 0.023836 0.056525 255 220 0
0.626657 -0.014042 0.067078 255 220 0
0.562217 -0.011799 0.067169 255 220 0
0.646315 0.072229 0.051702 255 220 0
0.617935 -0.013193 0.031500 255 220 0
0.572594 0.051254 0.060715 255 220 0
0.585978 -0.042517 0.023407 255 220 0
0.546716 -0.039570 0.015028 255 220 0
0.589971 -0.051278 0.040355 255 220 0
0.630661 0.054034 0.025974 255 220 0
0.637679 0.085398 0.083404 255 220 0
0.567279 0.037302 0.054869 255 220 0
0.596915 0.073824 0.027716 255 220 0
0.593261 -0.001813 0.095220 255 220 0
0.641173 0.009847 0.066523 255 220 0
0.629256 0.002745 0.085154 255 220 0
0.617159 -0.015670 0.032459 255 220 0
0.591186 0.070251 0.086067 255 220 0
0.611890 0.019265 0.100882 255 220 0
0.585866 -0.051626 0.033862 255 220 0
0.611134 0.060736 0.100272 255 220 0
0.589077 0.047917 0.092353 255 220 0
0.627463 0.091914 0.046317 255 220 0
0.622615 0.009917 0.094710 255 220 0
0.573399 0.055908 0.052292 255 220 0
0.644194 0.026872 0.077513 255 220 0
0.606362 0.052252 0.100556 255 220 0
0.622951 0.096338 0.077720 255 220 0
0.585714 0.034271 0.091610 255 220 0
0.631544 0.033945 0.025767 255 220 0
0.635675 0.066843 0.092995 255 220 0
0.559373 -0.002183 0.059364 255 220 0
0.563889 -0.031338 0.068592 255 220 0
0.545983 -0.047232 0.016030 255 220 0
0.604336 0.029879 0.012791 255 220 0
0.580646 -0.006510 0.012445 255 220 0
0.586935 -0.035526 0.019973 255 220 0
0.595278 -0.043623 0.068215 255 220 0
0.542053 -0.052678 0.037515 255 220 0
0.609842 -0.003306 0.096243 255 220 0
0.606319 0.002864 0.017329 255 220 0
0.617875 -0.009757 0.088228 255 220 0
0.553080 -0.048587 0.014534 255 220 0
0.565045 -0.016869 0.071949 255 220 0
0.558698 -0.061708 0.045452 255 220 0
0.565075 0.019369 0.064127 255 220 0
0.597500 0.001243 0.014279 255 220 0
0.598680 0.045455 0.098786 255 220 0
0.626023 0.058905 0.024565 255 220 0
0.650478 0.050779 0.069407 255 220 0
0.616308 0.093752 0.045673 255 220 0
0.579050 -0.019570 0.013026 255 220 0
0.592949 0.076903 0.082909 255 220 0
0.627811 -0.006209 0.078110 255 220 0
0.602862 -0.019634 0.090315 255 220 0
0.561335 0.011119 0.058153 255 220 0
0.593322 -0.032175 0.022287 255 220 0
0.622596 0.092364 0.083771 255 220 0
0.614139 0.005498 0.020562 255 220 0
0.619312 -0.006795 0.028896 255 220 0
0.594340 0.084429 0.044627 255 220 0
0.573431 -0.008833 0.081920 255 220 0
0.565309 -0.012086 0.014658 255 220 0
0.560392 0.014480 0.050144 255 220 0
0.565655 0.033335 0.050556 255 220 0
0.587124 0.078874 0.048968 255 220 0
0.636179 0.013607 0.036868 255 220 0
0.621469 0.085113 0.035507 255 220 0
0.650802 0.042440 0.063057 255 220 0
0.606400 -0.039104 0.057454 255 220 0
0.564902 0.014433 0.023056 255 220 0
0.628141 -0.006604 0.076922 255 220 0
0.559829 -0.005565 0.020295 255 220 0
0.572227 0.024427 0.018464 255 220 0
0.560873 -0.009538 0.064350 255 220 0
0.582533 0.041205 0.087560 255 220 0
0.593644 0.060000 0.092955 255 220 0
0.552111 -0.045222 0.013623 255 220 0
0.647570 0.033633 0.072500 255 220 0
0.643173 0.025994 0.079248 255 220 0
0.629356 0.068944 0.030339 255 220 0
0.630340 0.098015 0.065813 255 220 0
0.553142 -0.019638 0.018814 255 220 0
0.545942 -0.025034 0.038345 255 220 0
0.642054 0.020647 0.042878 255 220 0
0.580011 0.064762 0.038010 255 220 0
0.566985 -0.013213 0.013879 255 220 0
0.592180 -0.008901 0.093332 255 220 0
0.573040 0.030637 0.076898 255 220 0
0.570057 0.024289 0.073346 255 220 0
0.566188 -0.026054 0.012552 255 220 0
0.596177 0.086537 0.046378 255 220 0
0.618944 0.069882 0.025438 255 220 0
0.592594 0.081102 0.076860 255 220 0
0.567650 -0.010974 0.014075 255 220 0
0.567575 0.039946 0.047779 255 220 0
0.619688 -0.011688 0.032395 255 220 0
0.627521 0.085135 0.038507 255 220 0
0.649365 0.040201 0.070076 255 220 0
0.562282 -0.003636 0.065704 255 220 0
0.541951 -0.039358 0.040476 255 220 0
0.559371 0.010427 0.050360 255 220 0
0.601401 0.051418 0.015489 255 220 0
0.607298 -0.002239 0.019103 255 220 0
0.576008 0.022943 0.083536 255 220 0
0.572744 0.041222 0.070639 255 220 0
0.581810 0.055388 0.024941 255 220 0
0.603072 0.022629 0.012795 255 220 0
0.543832 -0.051079 0.042212 255 220 0
0.624436 -0.007245 0.034933 255 220 0
0.613834 0.084893 0.033783 255 220 0
0.580162 0.055331 0.026852 255 220 0
0.651080 0.055570 0.059240 255 220 0
0.576427 0.012193 0.085058 255 220 0
0.574197 0.057248 0.045826 255 220 0
0.545973 -0.025165 0.023711 255 220 0
0.623967 0.054982 0.099425 255 220 0
0.629063 0.080840 0.036326 255 220 0
0.646530 0.049603 0.044698 255 220 0
0.622384 -0.021905 0.059570 255 220 0
0.563000 0.002173 0.065693 255 220 0
0.569907 0.029305 0.070618 255 220 0
0.590145 0.081618 0.068888 255 220 0
0.589989 0.029331 0.011923 255 220 0
0.589900 0.070548 0.029645 255 220 0
0.604675 -0.034015 0.074278 255 220 0
0.602374 -0.042328 0.044885 255 220 0
0.574671 0.040085 0.075582 255 220 0
0.591263 0.024878 0.011478 255 220 0
0.587783 -0.042584 0.024868 255 220 0
0.618688 0.045749 0.101236 255 220 0
0.624622 -0.018539 0.051516 255 220 0
0.542567 -0.030799 0.034491 255 220 0
0.616316 0.030946 0.016981 255 220 0
0.606952 0.093038 0.047985 255 220 0
0.577488 0.064845 0.053184 255 220 0
0.638043 0.023125 0.034988 255 220 0
0.626828 0.096436 0.076923 255 220 0
0.544676 -0.025078 0.029473 255 220 0
0.596979 0.067253 0.022625 255 220 0
0.606866 0.089535 0.081444 255 220 0
0.643453 0.030614 0.080968 255 220 0
0.628641 0.074530 0.094954 255 220 0
0.591888 -0.051294 0.049125 255 220 0
0.637393 0.013227 0.038992 255 220 0
0.624497 0.056678 0.099166 255 220 0
0.629371 -0.008176 0.044611 255 220 0
0.635104 -0.001306 0.066612 255 220 0
0.620384 -0.020047 0.041798 255 220 0
0.556796 -0.008957 0.056321 255 220 0
0.585462 -0.055108 0.044593 255 220 0
0.621742 0.099177 0.062134 255 220 0
0.553223 -0.013953 0.050218 255 220 0
0.584256 -0.051439 0.064227 255 220 0
0.563426 -0.062070 0.032818 255 220 0
0.593291 0.085653 0.051644 255 220 0
0.568225 0.003956 0.016860 255 220 0
0.638303 0.093429 0.061950 255 220 0
0.624434 -0.006322 0.083470 255 220 0
0.601478 0.044276 0.100034 255 220 0
0.567519 0.039344 0.042057 255 220 0
0.623662 -0.000912 0.029880 255 220 0
0.617142 -0.025981 0.044251 255 220 0
0.593317 0.049049 0.015736 255 220 0
0.594040 -0.012658 0.015837 255 220 0
0.596561 0.007668 0.097817 255 220 0
0.577782 0.045855 0.078958 255 220 0
0.622544 0.068640 0.098243 255 220 0
0.620693 0.042719 0.100933 255 220 0
0.556844 0.003612 0.034833 255 220 0
0.568904 -0.041688 0.068310 255 220 0
0.614603 0.078542 0.028995 255 220 0
0.593410 -0.042161 0.029852 255 220 0
0.567455 -0.006922 0.075210 255 220 0
0.582601 0.042902 0.017566 255 220 0
0.620292 0.086912 0.036737 255 220 0
0.568758 0.042909 0.052968 255 220 0
0.600283 0.011056 0.013467 255 220 0
0.589888 0.076253 0.036827 255 220 0
0.600042 0.023929 0.100472 255 220 0
0.607297 -0.024810 0.084170 255 220 0
0.568057 -0.032305 0.012801 255 220 0
0.644159 0.016443 0.065276 255 220 0
0.579882 -0.036421 0.076941 255 220 0
0.642260 0.049226 0.086981 255 220 0
0.638454 0.021247 0.084868 255 220 0
0.636777 0.004868 0.073671 255 220 0
0.560691 0.015304 0.034030 255 220 0
0.579107 0.064585 0.066565 255 220 0
0.599419 -0.045594 0.048995 255 220 0
0.622806 -0.020089 0.064629 255 220 0
0.612903 0.092148 0.081376 255 220 0
0.544063 -0.055695 0.037086 255 220 0
0.592013 -0.046754 0.034111 255 220 0
0.646426 0.035211 0.044844 255 220 0
0.576625 0.021691 0.084416 255 220 0
0.565561 0.006392 0.069865 255 220 0
0.551226 -0.015529 0.045477 255 220 0
0.606599 -0.025138 0.084368 255 220 0
0.592505 -0.050805 0.047318 255 220 0
0.604213 -0.021087 0.089001 255 220 0
0.642039 0.010464 0.058354 255 220 0
0.562591 0.005939 0.063737 255 220 0
0.556852 -0.015096 0.058349 255 220 0
0.601327 0.012378 0.013559 255 220 0
0.547895 -0.059099 0.029372 255 220 0
0.625841 0.066646 0.097778 255 220 0
0.603830 0.075681 0.092856 255 220 0
0.569997 -0.002124 0.078507 255 220 0
0.576580 -0.057691 0.034623 255 220 0
0.604750 0.056985 0.099529 255 220 0
0.604695 0.082164 0.088631 255 220 0
0.592710 0.082277 0.042829 255 220 0
0.606987 -0.002469 0.019009 255 220 0
0.629311 0.047571 0.023940 255 220 0
0.550904 -0.038883 0.052915 255 220 0
0.596842 -0.046333 0.058985 255 220 0
0.573414 0.026790 0.079042 255 220 0
0.563573 -0.014855 0.069784 255 220 0
0.569120 -0.026580 0.012542 255 220 0
0.603705 -0.003684 0.097021 255 220 0
0.618407 0.074588 0.096947 255 220 0
0.578821 -0.011798 0.085628 255 220 0
0.612318 0.093519 0.045852 255 220 0
0.635957 0.007371 0.078808 255 220 0
0.635268 0.017175 0.033871 255 220 0
0.555947 -0.022031 0.058244 255 220 0
0.587222 0.043722 0.015762 255 220 0
0.604918 0.094441 0.058230 255 220 0
0.628883 -0.006093 0.040773 255 220 0
0.600960 0.014886 0.099956 255 220 0
0.578696 0.025183 0.014505 255 220 0
0.617802 0.057670 0.020349 255 220 0
0.590984 -0.029879 0.019776 255 220 0
0.589436 -0.052334 0.043094 255 220 0
0.592102 0.085004 0.054577 255 220 0
0.597349 0.087423 0.046453 255 220 0
0.605615 -0.038234 0.042261 255 220 0
0.626444 0.066146 0.027422 255 220 0
0.584659 0.063030 0.081703 255 220 0
0.567897 -0.010847 0.075834 255 220 0
0.571611 -0.008418 0.080209 255 220 0
0.606706 0.051070 0.015725 255 220 0
0.629518 0.097573 0.071429 255 220 0
0.584372 0.052700 0.021054 255 220 0
0.631350 0.020969 0.028267 255 220 0
0.637707 0.085640 0.047994 255 220 0
0.634531 0.046128 0.094324 255 220 0
0.635435 0.026539 0.090642 255 220 0
0.617814 -0.007061 0.027699 255 220 0
0.615774 0.062337 0.021183 255 220 0
0.571358 0.050291 0.054289 255 220 0
0.580013 0.041753 0.084470 255 220 0
0.562439 0.023001 0.047156 255 220 0
0.627865 0.033652 0.023070 255 220 0
0.610960 0.078273 0.094181 255 220 0
0.643537 0.058683 0.040840 255 220 0
0.644825 0.048003 0.083057 255 220 0
0.603240 0.047115 0.100309 255 220 0
0.629921 0.097721 0.061418 255 220 0
0.625438 0.099174 0.066328 255 220 0
0.587438 0.053561 0.089531 255 220 0
0.590744 -0.013373 0.014836 255 220 0
0.615694 0.034018 0.102079 255 220 0
0.589386 0.080915 0.047442 255 220 0
0.636734 0.000103 0.058576 255 220 0
0.622605 0.057318 0.099657 255 220 0
0.600376 0.033082 0.100546 255 220 0
0.592785 0.065518 0.023321 255 220 0
0.577364 0.036481 0.018470 255 220 0
0.632503 0.032021 0.026851 255 220 0
0.601329 -0.021209 0.089647 255 220 0
0.600289 -0.022689 0.022218 255 220 0
0.620210 0.074443 0.096913 255 220 0
0.633388 0.017271 0.031596 255 220 0
0.621934 0.090988 0.085368 255 220 0
0.562893 -0.023583 0.068812 255 220 0
0.605560 0.031247 0.101959 255 220 0
0.596197 0.021850 0.011572 255 220 0
0.643302 0.066664 0.085499 255 220 0
0.571471 -0.007555 0.080122 255 220 0
0.646158 0.067384 0.080555 255 220 0
0.566965 0.028209 0.027545 255 220 0
0.608781 0.027373 0.014203 255 220 0
0.642241 0.036186 0.037111 255 220 0
0.637056 0.070879 0.037378 255 220 0
0.585461 0.076871 0.063984 255 220 0
0.598542 -0.045309 0.058129 255 220 0
0.595445 -0.045068 0.036495 255 220 0
0.641375 0.064684 0.039537 255 220 0
0.601052 -0.043032 0.043244 255 220 0
0.605194 0.094056 0.068364 255 220 0
0.571392 0.032507 0.072342 255 220 0
0.550249 -0.012926 0.032670 255 220 0
0.579919 -0.010921 0.086509 255 220 0
0.585690 0.077587 0.061977 255 220 0
0.616263 0.049624 0.101336 255 220 0
0.607453 -0.031596 0.074684 255 220 0
0.630999 -0.000352 0.079525 255 220 0
0.634007 0.070714 0.093372 255 220 0
0.568305 -0.054054 0.059817 255 220 0
0.634801 0.010213 0.083322 255 220 0
0.632578 -0.002653 0.044357 255 220 0
0.588388 0.027490 0.011952 255 220 0
0.547021 -0.023763 0.040371 255 220 0
0.602096 -0.043372 0.049193 255 220 0
0.631250 0.024388 0.027283 255 220 0
0.646184 0.022652 0.065897 255 220 0
0.595847 0.063379 0.093443 255 220 0
0.597399 0.023378 0.011668 255 220 0
0.577315 -0.035215 0.015479 255 220 0
0.610913 0.096410 0.070140 255 220 0
0.593858 -0.007196 0.014655 255 220 0
0.604871 0.050966 0.015496 255 220 0
0.647002 0.034389 0.046642 255 220 0
0.585759 0.047439 0.017749 255 220 0
0.621412 -0.023407 0.057350 255 220 0
