ply
format ascii 1.0
element vertex 1024
property float x
property float y
property float z
property uchar red
property uchar green
property uchar blue
end_header
0.629800 0.010316 0.030728 255 220 0
0.584871 -0.055180 0.044797 255 220 0
0.626066 0.003918 0.030010 255 220 0
0.572033 0.049961 0.057172 255 220 0
0.644648 0.079920 0.077157 255 220 0
0.610478 -0.024233 0.079881 255 220 0
0.571184 0.043599 0.063512 255 220 0
0.603744 0.066985 0.096570 255 220 0
0.617892 0.097251 0.074680 255 220 0
0.624574 -0.012033 0.074416 255 220 0
0.593404 -0.047156 0.037657 255 220 0
0.568335 0.001163 0.077231 255 220 0
0.602954 0.091980 0.049047 255 220 0
0.623806 0.077833 0.029807 255 220 0
0.566818 0.031960 0.058578 255 220 0
0.605145 0.068395 0.020753 255 220 0
0.623846 -0.019003 0.060812 255 220 0
0.579089 -0.029669 0.081238 255 220 0
0.586822 -0.032982 0.018645 255 220 0
0.588093 -0.018264 0.014682 255 220 0
0.567983 0.038989 0.047691 255 220 0
0.632123 0.092204 0.048379 255 220 0
0.632108 0.006903 0.083392 255 220 0
0.636690 0.001112 0.062182 255 220 0
0.632027 -0.003775 0.045765 255 220 0
0.561770 0.018296 0.045759 255 220 0
0.608191 0.025002 0.013126 255 220 0
0.563231 -0.047331 0.062278 255 220 0
0.568853 0.037878 0.060569 255 220 0
0.584792 -0.008634 0.091228 255 220 0
0.582683 -0.029058 0.015388 255 220 0
0.601179 0.021667 0.101110 255 220 0
0.577410 0.061336 0.063954 255 220 0
0.571099 0.040872 0.065921 255 220 0
0.650766 0.046178 0.066107 255 220 0
0.643673 0.061866 0.040672 255 220 0
0.623194 0.097762 0.053929 255 220 0
0.599859 0.005309 0.099300 255 220 0
0.545364 -0.054644 0.039700 255 220 0
0.553058 -0.060266 0.027338 255 220 0
0.630321 0.065672 0.028297 255 220 0
0.631331 -0.000298 0.039968 255 220 0
0.588115 0.044908 0.015377 255 220 0
0.642085 0.054377 0.036407 255 220 0
0.582289 0.072515 0.060152 255 220 0
0.637241 0.011362 0.078897 255 220 0
0.576928 0.030900 0.017093 255 220 0
0.593808 0.080939 0.079591 255 220 0
0.616341 0.024123 0.100710 255 220 0
0.605461 0.065326 0.097679 255 220 0
0.636843 0.053350 0.029864 255 220 0
0.607027 -0.038546 0.052029 255 220 0
0.636470 0.080781 0.086972 255 220 0
0.643538 0.079148 0.049346 255 220 0
0.629556 -0.007644 0.069880 255 220 0
0.606656 0.022436 0.012885 255 220 0
0.567794 0.004440 0.075828 255 220 0
0.539975 -0.038974 0.027666 255 220 0
0.548258 -0.044627 0.014414 255 220 0
0.581229 0.033959 0.015156 255 220 0
0.597835 0.034187 0.100022 255 220 0
0.614143 0.051777 0.100835 255 220 0
0.563742 -0.003656 0.018436 255 220 0
0.616159 -0.029109 0.055023 255 220 0
0.644915 0.077056 0.050490 255 220 0
0.613708 0.079310 0.027915 255 220 0
0.582376 -0.043243 0.073856 255 220 0
0.555681 -0.062581 0.034037 255 220 0
0.550028 -0.024326 0.019976 255 220 0
0.636114 0.079857 0.039863 255 220 0
0.543830 -0.036640 0.019267 255 220 0
0.579838 0.043470 0.020022 255 220 0
0.636282 0.069424 0.034612 255 220 0
0.635210 -0.001646 0.060447 255 220 0
0.572739 -0.057285 0.028450 255 220 0
0.644991 0.051606 0.082244 255 220 0
0.617065 -0.020017 0.076254 255 220 0
0.645317 0.032022 0.076760 255 220 0
0.592268 -0.018211 0.091470 255 220 0
0.588433 0.045638 0.092471 255 220 0
0.564231 0.025066 0.038267 255 220 0
0.612460 0.089127 0.037023 255 220 0
0.617293 0.070813 0.023728 255 220 0
0.628050 0.097879 0.056765 255 220 0
0.582395 0.072902 0.055422 255 220 0
0.622480 0.064964 0.098048 255 220 0
0.587792 -0.045842 0.070089 255 220 0
0.558537 -0.051929 0.015950 255 220 0
0.570281 -0.017495 0.012649 255 220 0
0.580091 0.052697 0.025729 255 220 0
0.579471 0.054085 0.078055 255 220 0
0.610298 -0.032379 0.042354 255 220 0
0.587680 -0.014969 0.013868 255 220 0
0.590268 -0.049754 0.037522 255 220 0
0.576572 0.037248 0.020092 255 220 0
0.606583 0.033808 0.012323 255 220 0
0.590029 -0.033908 0.081906 255 220 0
0.597310 -0.027134 0.022441 255 220 0
0.560513 -0.047632 0.060056 255 220 0
0.606269 0.015392 0.100750 255 220 0
0.643952 0.018795 0.069136 255 220 0
0.572642 0.027452 0.019907 255 220 0
0.646044 0.032464 0.044925 255 220 0
0.621880 0.001472 0.090876 255 220 0
0.637061 0.001771 0.053603 255 220 0
0.580213 0.067197 0.065237 255 220 0
0.590205 -0.049058 0.062336 255 220 0
0.594504 -0.034249 0.024406 255 220 0
0.588006 -0.002354 0.012292 255 220 0
0.555967 -0.029556 0.059585 255 220 0
0.616112 0.073297 0.096812 255 220 0
0.566327 -0.003586 0.016593 255 220 0
0.602676 0.015310 0.100726 255 220 0
0.576051 0.055630 0.036918 255 220 0
0.597054 -0.047027 0.048789 255 220 0
0.566425 0.033234 0.053350 255 220 0
0.573621 0.031195 0.078774 255 220 0
0.591646 -0.006514 0.094949 255 220 0
0.625787 0.076056 0.094567 255 220 0
0.560089 -0.029140 0.012763 255 220 0
0.618947 -0.002873 0.090791 255 220 0
0.602830 0.045706 0.013180 255 220 0
0.646790 0.039456 0.044692 255 220 0
0.642265 0.017841 0.046049 255 220 0
0.638300 0.046680 0.030655 255 220 0
0.583948 -0.005074 0.012194 255 220 0
0.575675 0.043147 0.076903 255 220 0
0.576989 0.046716 0.025492 255 220 0
0.618268 0.055984 0.018731 255 220 0
0.614394 -0.024708 0.073487 255 220 0
0.569298 0.030429 0.068600 255 220 0
0.608381 0.004932 0.017299 255 220 0
0.647312 0.044577 0.045647 255 220 0
0.578437 0.023294 0.086764 255 220 0
0.605830 0.019850 0.012934 255 220 0
0.603617 0.087439 0.038502 255 220 0
0.637829 0.003557 0.064211 255 220 0
0.548684 -0.020829 0.026460 255 220 0
0.629506 0.034425 0.096398 255 220 0
0.650212 0.042124 0.066853 255 220 0
0.600133 -0.021971 0.021881 255 220 0
0.606977 0.072320 0.023057 255 220 0
0.629309 -0.002318 0.038470 255 220 0
0.581253 -0.036404 0.078546 255 220 0
0.632821 0.087717 0.043221 255 220 0
0.640137 0.020571 0.080742 255 220 0
0.543748 -0.053432 0.038072 255 220 0
0.632995 0.090799 0.081636 255 220 0
0.572158 0.015600 0.080572 255 220 0
0.560835 0.000572 0.061395 255 220 0
0.597830 0.032133 0.011074 255 220 0
0.641796 0.010695 0.059506 255 220 0
0.647672 0.078635 0.065952 255 220 0
0.588334 0.080485 0.065279 255 220 0
0.549160 -0.024899 0.044538 255 220 0
0.634931 0.033091 0.028353 255 220 0
0.586384 0.070439 0.078986 255 220 0
0.621832 -0.012871 0.078153 255 220 0
0.605817 0.077988 0.027357 255 220 0
0.554768 -0.043120 0.012628 255 220 0
0.609602 0.037200 0.013236 255 220 0
0.571298 0.045747 0.038740 255 220 0
0.617749 -0.027066 0.058323 255 220 0
0.590039 0.062780 0.088676 255 220 0
0.582295 0.047791 0.020134 255 220 0
0.581071 0.001641 0.089952 255 220 0
0.570271 0.035635 0.067640 255 220 0
0.633496 0.043378 0.025927 255 220 0
0.623070 -0.011463 0.077904 255 220 0
0.647481 0.065757 0.049798 255 220 0
0.581148 -0.055619 0.035933 255 220 0
0.590861 -0.028167 0.086076 255 220 0
0.595878 0.000337 0.013410 255 220 0
0.579561 -0.057997 0.045209 255 220 0
0.616281 0.098279 0.055969 255 220 0
0.627295 0.004052 0.087255 255 220 0
0.594755 -0.044490 0.034995 255 220 0
0.598270 0.028896 0.100498 255 220 0
0.545166 -0.050762 0.043182 255 220 0
0.640077 0.049600 0.032980 255 220 0
0.550474 -0.015846 0.029932 255 220 0
0.635397 0.000056 0.049597 255 220 0
0.611622 -0.025655 0.076368 255 220 0
0.539752 -0.048073 0.033060 255 220 0
0.633067 0.036914 0.025982 255 220 0
0.627841 0.098147 0.057419 255 220 0
0.627814 0.076541 0.093739 255 220 0
0.563347 -0.034445 0.067935 255 220 0
0.569399 -0.061709 0.041739 255 220 0
0.639823 0.007791 0.065811 255 220 0
0.568426 -0.021835 0.012523 255 220 0
0.627014 0.056200 0.097596 255 220 0
0.651212 0.048059 0.060650 255 220 0
0.550300 -0.043778 0.051880 255 220 0
0.586822 0.042323 0.015035 255 220 0
0.592315 0.047049 0.095157 255 220 0
0.602595 0.067810 0.020709 255 220 0
0.618334 -0.022668 0.069559 255 220 0
0.642173 0.028199 0.038981 255 220 0
0.606672 0.073241 0.023701 255 220 0
0.643058 0.016239 0.068791 255 220 0
0.602945 0.034278 0.011644 255 220 0
0.585248 -0.046577 0.070267 255 220 0
0.554449 -0.010772 0.049945 255 220 0
0.631354 0.036733 0.024604 255 220 0
0.565724 -0.017654 0.074014 255 220 0
0.635346 0.094854 0.072857 255 220 0
0.626709 -0.009300 0.074132 255 220 0
0.611723 0.035282 0.102357 255 220 0
0.574067 -0.037845 0.074391 255 220 0
0.548334 -0.033919 0.015989 255 220 0
0.597998 -0.041497 0.067495 255 220 0
0.621831 0.039030 0.018320 255 220 0
0.562515 -0.055934 0.055655 255 220 0
0.572164 0.028077 0.020745 255 220 0
0.609436 0.053988 0.015661 255 220 0
0.587194 0.079733 0.057360 255 220 0
0.644920 0.062276 0.042994 255 220 0
0.646792 0.029598 0.070870 255 220 0
0.541488 -0.043572 0.020508 255 220 0
0.590120 0.065995 0.025373 255 220 0
0.635382 0.073212 0.090944 255 220 0
0.551532 -0.012823 0.034935 255 220 0
0.645479 0.061111 0.081588 255 220 0
0.625951 0.009138 0.027496 255 220 0
0.544135 -0.032632 0.021953 255 220 0
0.595005 -0.019909 0.018057 255 220 0
0.597276 0.038386 0.011847 255 220 0
0.554977 -0.005614 0.031255 255 220 0
0.588521 -0.023450 0.088185 255 220 0
0.640087 0.007507 0.062981 255 220 0
0.594189 -0.016128 0.092691 255 220 0
0.611724 0.037408 0.102298 255 220 0
0.640388 0.072113 0.086857 255 220 0
0.563118 0.009073 0.063711 255 220 0
0.616065 0.046147 0.101253 255 220 0
0.544522 -0.040461 0.017050 255 220 0
0.636566 0.091255 0.077970 255 220 0
0.554934 -0.045609 0.013044 255 220 0
0.546035 -0.033861 0.042966 255 220 0
0.561518 -0.050031 0.059424 255 220 0
0.577429 0.019316 0.014134 255 220 0
0.562542 0.010041 0.061657 255 220 0
0.564185 -0.022738 0.071540 255 220 0
0.631305 0.010069 0.086738 255 220 0
0.540705 -0.037652 0.025812 255 220 0
0.630273 0.080983 0.035462 255 220 0
0.616166 0.096828 0.051231 255 220 0
0.602869 -0.035176 0.072773 255 220 0
0.542246 -0.033290 0.029456 255 220 0
0.575288 -0.059777 0.044852 255 220 0
0.620451 0.006617 0.024114 255 220 0
0.621661 -0.019449 0.067930 255 220 0
0.595503 0.075529 0.029922 255 220 0
0.599378 0.014560 0.011884 255 220 0
0.556603 -0.053385 0.016693 255 220 0
0.643771 0.023062 0.045435 255 220 0
0.645214 0.077869 0.051813 255 220 0
0.612818 0.097238 0.070520 255 220 0
0.583495 0.063526 0.079482 255 220 0
0.566891 -0.045279 0.014945 255 220 0
0.634678 0.076310 0.036383 255 220 0
0.604113 0.036263 0.011961 255 220 0
0.645603 0.061038 0.043957 255 220 0
0.613270 0.032677 0.014518 255 220 0
0.573685 0.032882 0.021218 255 220 0
0.548603 -0.032806 0.016266 255 220 0
0.611207 0.093389 0.044525 255 220 0
0.624625 0.072792 0.027687 255 220 0
0.539782 -0.049051 0.031750 255 220 0
0.565865 -0.004700 0.073934 255 220 0
0.645601 0.072954 0.049160 255 220 0
0.647334 0.038665 0.074941 255 220 0
0.577778 0.057929 0.069985 255 220 0
0.639521 0.034841 0.033243 255 220 0
0.574429 -0.023032 0.080853 255 220 0
0.640541 0.008565 0.054017 255 220 0
0.577143 0.037473 0.019611 255 220 0
0.645218 0.063989 0.044116 255 220 0
0.575020 0.045228 0.073621 255 220 0
0.639712 0.022170 0.082420 255 220 0
0.548896 -0.057304 0.041633 255 220 0
0.541254 -0.043467 0.020941 255 220 0
0.602636 0.075789 0.026383 255 220 0
0.638060 0.053244 0.090831 255 220 0
0.554873 -0.040494 0.057570 255 220 0
0.647153 0.042557 0.045311 255 220 0
0.629918 0.058975 0.096152 255 220 0
0.575430 0.031323 0.018567 255 220 0
0.572805 -0.015428 0.081566 255 220 0
0.651175 0.051888 0.059400 255 220 0
0.576272 -0.048038 0.068742 255 220 0
0.636249 0.066863 0.091619 255 220 0
0.598647 0.081294 0.033936 255 220 0
0.570536 -0.033924 0.073981 255 220 0
0.541636 -0.041657 0.038438 255 220 0
0.574295 -0.007097 0.083990 255 220 0
0.614744 0.087394 0.087921 255 220 0
0.595608 -0.015714 0.093064 255 220 0
0.590454 0.002103 0.012119 255 220 0
0.545698 -0.027264 0.025244 255 220 0
0.590038 -0.014549 0.014505 255 220 0
0.631604 0.017354 0.029599 255 220 0
0.617224 -0.022172 0.072670 255 220 0
0.641502 0.086763 0.053001 255 220 0
0.641782 0.011619 0.053295 255 220 0
0.635792 0.081879 0.086859 255 220 0
0.608135 0.007744 0.099397 255 220 0
0.600481 -0.044094 0.047957 255 220 0
0.585315 0.023583 0.092908 255 220 0
0.607424 0.068987 0.097154 255 220 0
0.614890 0.047850 0.101215 255 220 0
0.577410 0.039170 0.020188 255 220 0
0.613520 -0.025089 0.074344 255 220 0
0.637869 0.014149 0.080195 255 220 0
0.585219 0.009170 0.093103 255 220 0
0.595957 -0.031496 0.083014 255 220 0
0.600704 -0.004513 0.016227 255 220 0
0.562630 0.013136 0.060114 255 220 0
0.636291 0.065338 0.091776 255 220 0
0.609199 -0.036191 0.057108 255 220 0
0.614616 0.090024 0.085064 255 220 0
0.538969 -0.043491 0.029566 255 220 0
0.575217 0.057808 0.045415 255 220 0
0.587672 0.046084 0.015985 255 220 0
0.592482 0.083166 0.045557 255 220 0
0.580828 -0.010704 0.088387 255 220 0
0.554391 -0.005594 0.037827 255 220 0
0.579239 0.066830 0.049188 255 220 0
0.571205 -0.024532 0.077899 255 220 0
0.607668 0.069538 0.097031 255 220 0
0.551038 -0.024386 0.018808 255 220 0
0.634937 0.011296 0.082774 255 220 0
0.566931 -0.006025 0.075753 255 220 0
0.596264 0.088855 0.056148 255 220 0
0.554453 -0.010819 0.049995 255 220 0
0.562863 -0.009642 0.016914 255 220 0
0.609991 0.059454 0.099723 255 220 0
0.587638 0.016743 0.094818 255 220 0
0.601659 -0.003078 0.097741 255 220 0
0.651138 0.057489 0.061474 255 220 0
0.613615 0.097462 0.070724 255 220 0
0.639818 0.008080 0.051034 255 220 0
0.647784 0.055497 0.047697 255 220 0
0.642123 0.028608 0.081526 255 220 0
0.642437 0.032606 0.082570 255 220 0
0.547697 -0.028984 0.043593 255 220 0
0.644685 0.062001 0.042470 255 220 0
0.644261 0.023166 0.073262 255 220 0
0.540019 -0.046327 0.035023 255 220 0
0.636340 0.082239 0.086227 255 220 0
0.577995 0.041400 0.082146 255 220 0
0.575502 0.035898 0.020588 255 220 0
0.614548 -0.024090 0.074239 255 220 0
0.611351 0.043703 0.014240 255 220 0
0.639367 0.019186 0.081218 255 220 0
0.640045 0.025052 0.036936 255 220 0
0.629094 0.082117 0.090557 255 220 0
0.599123 -0.031928 0.026735 255 220 0
0.545925 -0.041502 0.045773 255 220 0
0.567931 -0.055559 0.059057 255 220 0
0.625770 0.051572 0.098349 255 220 0
0.640416 0.035567 0.086334 255 220 0
0.557775 -0.059027 0.023084 255 220 0
0.627504 0.094994 0.049720 255 220 0
0.584411 -0.028596 0.084222 255 220 0
0.566086 0.007739 0.071642 255 220 0
0.565921 0.019905 0.026063 255 220 0
0.567971 0.022506 0.023953 255 220 0
0.595880 0.088237 0.066103 255 220 0
0.565432 0.028826 0.055537 255 220 0
0.609013 0.096425 0.056348 255 220 0
0.554670 -0.057793 0.021406 255 220 0
0.642253 0.033203 0.037417 255 220 0
0.581230 0.068515 0.067128 255 220 0
0.560534 -0.007181 0.019751 255 220 0
0.587376 -0.033291 0.082180 255 220 0
0.644063 0.053215 0.083828 255 220 0
0.580931 0.069190 0.063960 255 220 0
0.609981 0.094306 0.075425 255 220 0
0.604137 0.091831 0.074499 255 220 0
0.598624 0.021791 0.011010 255 220 0
0.562801 -0.012071 0.069439 255 220 0
0.583390 0.041912 0.016625 255 220 0
0.565756 -0.009405 0.074153 255 220 0
0.581964 0.034964 0.015041 255 220 0
0.584394 0.056413 0.085113 255 220 0
0.648659 0.070796 0.070941 255 220 0
0.579014 -0.017887 0.012599 255 220 0
0.563348 -0.060997 0.028472 255 220 0
0.562292 -0.039622 0.012461 255 220 0
0.607496 0.077563 0.093201 255 220 0
0.573174 -0.059951 0.037382 255 220 0
0.572002 0.012180 0.016258 255 220 0
0.567639 0.036710 0.041627 255 220 0
0.633273 0.042851 0.094405 255 220 0
0.627941 -0.004520 0.078266 255 220 0
0.631773 0.047928 0.024793 255 220 0
0.565782 0.006493 0.071343 255 220 0
0.626962 -0.014751 0.059364 255 220 0
0.595006 0.072779 0.088171 255 220 0
0.604718 0.065048 0.019056 255 220 0
0.620146 0.045840 0.100505 255 220 0
0.589665 0.002302 0.012023 255 220 0
0.561899 0.016745 0.053292 255 220 0
0.630289 0.090909 0.083143 255 220 0
0.572409 0.041199 0.069518 255 220 0
0.572309 0.051225 0.055430 255 220 0
0.624337 -0.018719 0.056987 255 220 0
0.540657 -0.049181 0.035180 255 220 0
0.640789 0.060804 0.036198 255 220 0
0.627980 0.051117 0.022677 255 220 0
0.568955 0.041923 0.051466 255 220 0
0.613606 -0.028989 0.066824 255 220 0
0.635774 0.009321 0.079686 255 220 0
0.610234 -0.008788 0.023012 255 220 0
0.633662 0.091093 0.048198 255 220 0
0.584174 -0.002822 0.012114 255 220 0
0.561247 -0.054015 0.018124 255 220 0
0.560660 -0.010218 0.018244 255 220 0
0.639045 0.010616 0.073960 255 220 0
0.644639 0.061647 0.082943 255 220 0
0.636386 0.002139 0.067427 255 220 0
0.577633 0.058401 0.069046 255 220 0
0.581233 -0.021566 0.013387 255 220 0
0.553265 -0.023534 0.053412 255 220 0
0.601745 0.027164 0.011303 255 220 0
0.639062 0.020492 0.037703 255 220 0
0.615614 0.063043 0.099284 255 220 0
0.572543 0.000197 0.014247 255 220 0
0.593337 0.027985 0.098245 255 220 0
0.596617 0.038834 0.011959 255 220 0
0.560409 0.007300 0.056569 255 220 0
0.587236 0.079718 0.055556 255 220 0
0.577551 0.056790 0.070476 255 220 0
0.570834 -0.059936 0.033020 255 220 0
0.581013 -0.056251 0.037837 255 220 0
0.645461 0.081331 0.073935 255 220 0
0.625178 0.061384 0.023581 255 220 0
0.546597 -0.056467 0.024114 255 220 0
0.573381 0.043746 0.029417 255 220 0
0.603820 0.021854 0.012067 255 220 0
0.623192 0.020315 0.021779 255 220 0
0.638108 0.017249 0.038004 255 220 0
0.573650 0.014911 0.015638 255 220 0
0.603966 -0.041002 0.048288 255 220 0
0.577462 -0.056946 0.033484 255 220 0
0.609966 -0.034579 0.046683 255 220 0
0.579943 -0.057646 0.050694 255 220 0
0.636638 0.074417 0.037266 255 220 0
0.569240 0.032624 0.066835 255 220 0
0.646490 0.023812 0.058551 255 220 0
0.634775 0.076829 0.036752 255 220 0
0.632905 0.033793 0.093813 255 220 0
0.629790 -0.002606 0.077319 255 220 0
0.558216 -0.053613 0.017079 255 220 0
0.637835 0.093921 0.070545 255 220 0
0.566810 0.032103 0.058328 255 220 0
0.617486 -0.027188 0.051442 255 220 0
0.546324 -0.042598 0.046572 255 220 0
0.607016 -0.005178 0.096358 255 220 0
0.567796 0.014324 0.020506 255 220 0
0.599193 -0.029329 0.083770 255 220 0
0.572364 -0.042579 0.015826 255 220 0
0.621958 0.064954 0.098164 255 220 0
0.610999 0.078934 0.027550 255 220 0
0.551645 -0.016830 0.045469 255 220 0
0.594828 0.039046 0.097999 255 220 0
0.552123 -0.011965 0.039486 255 220 0
0.568014 -0.060906 0.032649 255 220 0
0.585871 -0.032650 0.018011 255 220 0
0.620132 0.078835 0.028924 255 220 0
0.548211 -0.039428 0.048845 255 220 0
0.644345 0.023349 0.046807 255 220 0
0.605807 0.080966 0.029932 255 220 0
0.597367 0.089711 0.055870 255 220 0
0.613352 0.047122 0.015255 255 220 0
0.571008 0.048069 0.051471 255 220 0
0.600727 -0.030525 0.027178 255 220 0
0.572294 0.034924 0.024373 255 220 0
0.569923 0.044308 0.054885 255 220 0
0.563393 -0.028733 0.012389 255 220 0
0.623763 -0.015541 0.070363 255 220 0
0.619606 0.006879 0.094970 255 220 0
0.649108 0.067531 0.055821 255 220 0
0.588504 0.005664 0.095066 255 220 0
0.570530 0.042671 0.036661 255 220 0
0.555668 -0.002061 0.038421 255 220 0
0.552755 -0.059992 0.026766 255 220 0
0.641156 0.009619 0.055329 255 220 0
0.591709 -0.024116 0.088561 255 220 0
0.546775 -0.040802 0.046938 255 220 0
0.566556 0.016112 0.022856 255 220 0
0.591428 0.014247 0.097111 255 220 0
0.558170 -0.050836 0.056442 255 220 0
0.623061 -0.007156 0.082849 255 220 0
0.639461 0.061123 0.089420 255 220 0
0.633072 0.061713 0.094273 255 220 0
0.591923 -0.050012 0.042236 255 220 0
0.570913 0.041772 0.064453 255 220 0
0.598114 0.052020 0.014992 255 220 0
0.577833 0.051791 0.028349 255 220 0
0.617984 0.018057 0.019077 255 220 0
0.638962 0.012199 0.043221 255 220 0
0.601574 0.010005 0.013243 255 220 0
0.547182 -0.022728 0.031580 255 220 0
0.592807 -0.042735 0.029974 255 220 0
0.588942 0.079226 0.044510 255 220 0
0.588572 -0.000980 0.012226 255 220 0
0.605876 0.029534 0.012133 255 220 0
0.593867 0.083466 0.075605 255 220 0
0.583714 -0.019573 0.087783 255 220 0
0.641087 0.009137 0.058255 255 220 0
0.614020 -0.031438 0.052915 255 220 0
0.634638 0.002130 0.043985 255 220 0
0.576175 0.056315 0.037580 255 220 0
0.562161 0.004776 0.023873 255 220 0
0.568392 -0.041532 0.014132 255 220 0
0.595198 0.015459 0.011111 255 220 0
0.620835 -0.002173 0.028207 255 220 0
0.622007 0.056075 0.020408 255 220 0
0.619764 0.046957 0.100510 255 220 0
0.564748 -0.030439 0.070496 255 220 0
0.631439 0.087672 0.041948 255 220 0
0.596373 -0.015687 0.093144 255 220 0
0.634661 0.077088 0.090092 255 220 0
0.602140 0.046086 0.100109 255 220 0
0.611981 0.047593 0.014937 255 220 0
0.598293 0.090573 0.062600 255 220 0
0.616953 -0.027842 0.059408 255 220 0
0.603368 0.080918 0.088767 255 220 0
0.613560 -0.022086 0.034214 255 220 0
0.629844 0.025249 0.094489 255 220 0
0.570977 0.032874 0.025221 255 220 0
0.637449 0.007197 0.073492 255 220 0
0.594427 0.062258 0.092661 255 220 0
0.566665 -0.011907 0.075513 255 220 0
0.624089 0.004341 0.090584 255 220 0
0.603202 -0.015727 0.021207 255 220 0
0.597171 0.038607 0.011889 255 220 0
0.601037 0.044772 0.099944 255 220 0
0.570419 -0.028781 0.012448 255 220 0
0.616307 -0.015328 0.083116 255 220 0
0.637294 0.002469 0.052462 255 220 0
0.587178 0.054297 0.089039 255 220 0
0.628120 -0.004487 0.038585 255 220 0
0.603580 -0.040209 0.043862 255 220 0
0.578131 0.014736 0.087365 255 220 0
0.569430 0.015313 0.019075 255 220 0
0.610837 -0.032417 0.043679 255 220 0
0.580364 -0.032502 0.015489 255 220 0
0.594886 0.015542 0.098853 255 220 0
0.577083 -0.051735 0.065506 255 220 0
0.596292 0.020012 0.010850 255 220 0
0.646617 0.036589 0.075863 255 220 0
0.589241 -0.033970 0.020487 255 220 0
0.569388 0.022999 0.073429 255 220 0
0.559887 -0.055871 0.053913 255 220 0
0.575169 0.057588 0.045019 255 220 0
0.587868 -0.006126 0.012646 255 220 0
0.609181 0.045286 0.101570 255 220 0
0.562083 -0.059883 0.050962 255 220 0
0.578695 0.010646 0.088089 255 220 0
0.631362 0.098017 0.067347 255 220 0
0.597120 0.080700 0.083931 255 220 0
0.588043 -0.030956 0.083866 255 220 0
0.590871 -0.051358 0.052690 255 220 0
0.599712 -0.005804 0.096933 255 220 0
0.580790 0.068720 0.045758 255 220 0
0.629193 0.098911 0.065849 255 220 0
0.635088 0.096349 0.067123 255 220 0
0.572909 0.048201 0.036137 255 220 0
0.598519 0.018474 0.011246 255 220 0
0.610861 -0.007804 0.023042 255 220 0
0.587328 -0.012123 0.091771 255 220 0
0.577232 0.053839 0.072325 255 220 0
0.546489 -0.028583 0.040166 255 220 0
0.547958 -0.037130 0.015143 255 220 0
0.599401 -0.030515 0.026004 255 220 0
0.645736 0.021471 0.057458 255 220 0
0.553154 -0.010275 0.043254 255 220 0
0.600460 -0.041986 0.040665 255 220 0
0.598637 0.077179 0.088312 255 220 0
0.635060 0.064382 0.092764 255 220 0
0.608358 0.073583 0.023862 255 220 0
0.579788 0.017892 0.088636 255 220 0
0.573236 0.007547 0.082956 255 220 0
0.639658 0.091787 0.072148 255 220 0
0.646792 0.039894 0.076712 255 220 0
0.642916 0.021077 0.044868 255 220 0
0.612511 0.065900 0.020175 255 220 0
0.638167 0.037628 0.031092 255 220 0
0.579024 0.014345 0.088200 255 220 0
0.636145 0.010747 0.080344 255 220 0
0.602920 0.068680 0.021167 255 220 0
0.633824 -0.004124 0.057646 255 220 0
0.649729 0.036210 0.060601 255 220 0
0.639150 0.041300 0.088915 255 220 0
0.622104 0.043191 0.100113 255 220 0
0.574878 0.044398 0.073901 255 220 0
0.577723 0.054459 0.073125 255 220 0
0.580061 0.019134 0.088780 255 220 0
0.631530 0.024799 0.027093 255 220 0
0.603918 -0.033839 0.073721 255 220 0
0.619655 0.020472 0.019511 255 220 0
0.585167 -0.035974 0.079924 255 220 0
0.644335 0.053860 0.040095 255 220 0
0.598676 -0.045440 0.046653 255 220 0
0.639918 0.006789 0.056740 255 220 0
0.617356 0.099306 0.060256 255 220 0
0.609913 -0.028745 0.036182 255 220 0
0.627285 0.099227 0.061665 255 220 0
0.553906 -0.032490 0.013614 255 220 0
0.594176 -0.022225 0.018449 255 220 0
0.567182 -0.010532 0.014481 255 220 0
0.553250 -0.009337 0.041542 255 220 0
0.625704 0.061918 0.024061 255 220 0
0.637887 0.024609 0.034099 255 220 0
0.554764 -0.016421 0.054090 255 220 0
0.609533 -0.035717 0.049205 255 220 0
0.595635 0.062618 0.019794 255 220 0
0.566523 0.010460 0.020576 255 220 0
0.618517 0.085985 0.033768 255 220 0
0.572614 -0.054740 0.024577 255 220 0
0.641075 0.061185 0.036689 255 220 0
0.607807 0.065094 0.019128 255 220 0
0.630771 0.022038 0.092819 255 220 0
0.609221 0.012154 0.015829 255 220 0
0.542255 -0.046257 0.040031 255 220 0
0.558792 -0.012296 0.061380 255 220 0
0.573623 0.023224 0.017438 255 220 0
0.646533 0.023971 0.062061 255 220 0
0.647867 0.047712 0.076186 255 220 0
0.593588 -0.033113 0.023020 255 220 0
0.592165 0.080493 0.077490 255 220 0
0.543417 -0.032938 0.035927 255 220 0
0.598380 0.012722 0.011944 255 220 0
0.597211 0.014909 0.011427 255 220 0
0.644783 0.025390 0.046284 255 220 0
0.590857 0.080503 0.042836 255 220 0
0.638933 0.020217 0.037644 255 220 0
0.580313 0.058670 0.030858 255 220 0
0.610156 0.046843 0.014369 255 220 0
0.634078 0.095631 0.072670 255 220 0
0.594072 -0.011003 0.094515 255 220 0
0.612112 0.059625 0.099845 255 220 0
0.586536 0.062612 0.026045 255 220 0
0.645217 0.043033 0.080672 255 220 0
0.624732 0.098810 0.071803 255 220 0
0.631160 0.063788 0.028222 255 220 0
0.555122 -0.004123 0.043278 255 220 0
0.581594 0.055538 0.026033 255 220 0
0.590447 -0.006686 0.094437 255 220 0
0.572934 0.022004 0.017701 255 220 0
0.582639 0.041721 0.087782 255 220 0
0.626807 0.098814 0.058954 255 220 0
0.618380 -0.018171 0.076714 255 220 0
0.558017 -0.002133 0.026544 255 220 0
0.625252 -0.011918 0.073197 255 220 0
0.580687 0.024508 0.013317 255 220 0
0.618720 0.000097 0.025423 255 220 0
0.564226 -0.062935 0.039140 255 220 0
0.555561 -0.011110 0.053498 255 220 0
0.617151 -0.005345 0.026649 255 220 0
0.578145 0.047330 0.079672 255 220 0
0.564645 0.001775 0.070188 255 220 0
0.575710 0.042103 0.024029 255 220 0
0.591624 0.084736 0.060670 255 220 0
0.575275 -0.011883 0.084222 255 220 0
0.610948 0.066821 0.098400 255 220 0
0.576005 0.033567 0.018950 255 220 0
0.645100 0.036076 0.078988 255 220 0
0.649878 0.054196 0.053363 255 220 0
0.568975 0.026637 0.024678 255 220 0
0.589334 0.042310 0.093842 255 220 0
0.541433 -0.037131 0.023767 255 220 0
0.556547 -0.048474 0.013944 255 220 0
0.616140 0.085576 0.033055 255 220 0
0.593693 0.083099 0.042759 255 220 0
0.576723 -0.004390 0.086245 255 220 0
0.553660 -0.015180 0.022404 255 220 0
0.605626 -0.017020 0.090789 255 220 0
0.605291 0.066109 0.097410 255 220 0
0.611483 -0.030480 0.068042 255 220 0
0.573670 -0.055197 0.061295 255 220 0
0.548054 -0.032268 0.016975 255 220 0
0.585963 -0.032178 0.082644 255 220 0
0.567930 -0.048142 0.064890 255 220 0
0.566107 -0.004785 0.016396 255 220 0
0.559294 0.009655 0.043993 255 220 0
0.588329 0.006842 0.011604 255 220 0
0.604877 0.044706 0.013141 255 220 0
0.599201 0.030132 0.100785 255 220 0
0.610931 0.096681 0.054384 255 220 0
0.641604 0.084022 0.050238 255 220 0
0.580091 0.061055 0.034006 255 220 0
0.580685 0.069104 0.047813 255 220 0
0.587468 -0.047471 0.067955 255 220 0
0.624506 0.017891 0.023340 255 220 0
0.594652 0.077890 0.033348 255 220 0
0.579488 -0.056400 0.035258 255 220 0
0.552176 -0.055716 0.047545 255 220 0
0.578480 0.049839 0.078830 255 220 0
0.588470 0.077106 0.075099 255 220 0
0.593456 -0.018674 0.091491 255 220 0
0.564134 -0.019090 0.013712 255 220 0
0.580097 -0.047019 0.022385 255 220 0
0.646507 0.023775 0.059655 255 220 0
0.625343 -0.013346 0.070494 255 220 0
0.561105 -0.010447 0.065739 255 220 0
0.647248 0.071879 0.052542 255 220 0
0.619254 -0.014123 0.034371 255 220 0
0.572786 0.052113 0.057090 255 220 0
0.587575 -0.043478 0.025345 255 220 0
0.549073 -0.040539 0.013972 255 220 0
0.590201 -0.051452 0.042937 255 220 0
0.633266 0.052627 0.026622 255 220 0
0.636502 0.086648 0.082863 255 220 0
0.567721 0.037951 0.051536 255 220 0
0.599756 0.072819 0.024939 255 220 0
0.590153 0.000564 0.095494 255 220 0
0.640187 0.010340 0.069879 255 220 0
0.626845 0.004265 0.087897 255 220 0
0.618376 -0.016544 0.035387 255 220 0
0.589736 0.072119 0.082814 255 220 0
0.608605 0.021699 0.101507 255 220 0
0.586576 -0.052070 0.036183 255 220 0
0.608463 0.063099 0.098882 255 220 0
0.586869 0.050137 0.089977 255 220 0
0.629110 0.091473 0.044860 255 220 0
0.619623 0.011956 0.096590 255 220 0
0.574267 0.056347 0.048539 255 220 0
0.642630 0.027843 0.080243 255 220 0
0.603567 0.054687 0.099215 255 220 0
0.622379 0.097451 0.075601 255 220 0
0.583384 0.036506 0.089635 255 220 0
0.633887 0.032543 0.027431 255 220 0
0.633550 0.068598 0.093149 255 220 0
0.558970 -0.001190 0.057300 255 220 0
0.562402 -0.029910 0.068204 255 220 0
0.548164 -0.048136 0.015279 255 220 0
0.607646 0.028133 0.012696 255 220 0
0.583550 -0.007988 0.012330 255 220 0
0.588875 -0.036670 0.021665 255 220 0
0.593565 -0.042517 0.070718 255 220 0
0.542602 -0.052500 0.036650 255 220 0
0.606593 -0.001047 0.097802 255 220 0
0.608923 0.001349 0.018640 255 220 0
0.615101 -0.007958 0.090714 255 220 0
0.555332 -0.049633 0.014374 255 220 0
0.563507 -0.015309 0.070949 255 220 0
0.558499 -0.061306 0.046207 255 220 0
0.564603 0.020508 0.061444 255 220 0
0.600329 -0.000327 0.015029 255 220 0
0.595943 0.047890 0.097209 255 220 0
0.628810 0.057470 0.024646 255 220 0
0.649814 0.051266 0.071499 255 220 0
0.618058 0.093391 0.043311 255 220 0
0.581737 -0.020988 0.013409 255 220 0
0.591816 0.078594 0.079483 255 220 0
0.625796 -0.005003 0.081198 255 220 0
0.599842 -0.017570 0.092156 255 220 0
0.561197 0.012018 0.055609 255 220 0
0.595121 -0.033277 0.024281 255 220 0
0.621529 0.093776 0.081790 255 220 0
0.616521 0.004056 0.022311 255 220 0
0.620904 -0.007873 0.031575 255 220 0
0.596099 0.084252 0.041094 255 220 0
0.571253 -0.006888 0.081118 255 220 0
0.568017 -0.013295 0.013670 255 220 0
0.560887 0.014999 0.047402 255 220 0
0.566363 0.033797 0.047308 255 220 0
0.588511 0.078986 0.045151 255 220 0
0.637421 0.012717 0.039792 255 220 0
0.623829 0.084220 0.033972 255 220 0
0.650487 0.042628 0.065592 255 220 0
0.605502 -0.038636 0.060603 255 220 0
0.567360 0.013600 0.020751 255 220 0
0.626207 -0.005458 0.080058 255 220 0
0.562230 -0.006455 0.018575 255 220 0
0.575136 0.023287 0.016243 255 220 0
0.560001 -0.008311 0.062726 255 220 0
0.580602 0.043269 0.085039 255 220 0
0.591544 0.062189 0.090341 255 220 0
0.554478 -0.046306 0.013237 255 220 0
0.646455 0.034320 0.075178 255 220 0
0.641473 0.027060 0.081938 255 220 0
0.631850 0.067741 0.030168 255 220 0
0.630639 0.098477 0.064204 255 220 0
0.555477 -0.020514 0.017273 255 220 0
0.546798 -0.024890 0.036455 255 220 0
0.642938 0.019979 0.045878 255 220 0
0.582024 0.064435 0.034378 255 220 0
0.569729 -0.014476 0.013071 255 220 0
0.589116 -0.006596 0.093868 255 220 0
0.571768 0.032297 0.074220 255 220 0
0.568966 0.025815 0.070762 255 220 0
0.568856 -0.027357 0.012298 255 220 0
0.597832 0.086423 0.042873 255 220 0
0.621837 0.068548 0.024476 255 220 0
0.591960 0.082500 0.073233 255 220 0
0.570410 -0.012236 0.013209 255 220 0
0.568571 0.040247 0.044369 255 220 0
0.620957 -0.012595 0.035320 255 220 0
0.629645 0.084325 0.037404 255 220 0
0.648511 0.040745 0.072584 255 220 0
0.561389 -0.002365 0.063899 255 220 0
0.542467 -0.039053 0.038962 255 220 0
0.559797 0.010971 0.047734 255 220 0
0.604816 0.049805 0.014149 255 220 0
0.609700 -0.003672 0.020721 255 220 0
0.574138 0.024902 0.081414 255 220 0
0.572074 0.042570 0.067462 255 220 0
0.584644 0.054425 0.021936 255 220 0
0.606286 0.020905 0.012949 255 220 0
0.544056 -0.050695 0.041384 255 220 0
0.625567 -0.008083 0.037987 255 220 0
0.616337 0.083995 0.031704 255 220 0
0.582860 0.054477 0.023721 255 220 0
0.651222 0.055556 0.061189 255 220 0
0.574298 0.014234 0.083470 255 220 0
0.575553 0.057366 0.042092 255 220 0
0.547895 -0.025725 0.021885 255 220 0
0.621243 0.057180 0.099254 255 220 0
0.631283 0.079915 0.035549 255 220 0
0.647664 0.048942 0.046651 255 220 0
0.621522 -0.021518 0.063073 255 220 0
0.562185 0.003429 0.063666 255 220 0
0.569083 0.030695 0.067796 255 220 0
0.590107 0.082656 0.065087 255 220 0
0.593394 0.027689 0.010802 255 220 0
0.592575 0.069711 0.026500 255 220 0
0.602624 -0.032725 0.076995 255 220 0
0.602361 -0.042421 0.047939 255 220 0
0.573620 0.041653 0.072582 255 220 0
0.594637 0.023207 0.010663 255 220 0
0.589267 -0.043493 0.026937 255 220 0
0.615721 0.048099 0.101106 255 220 0
0.624388 -0.018567 0.055055 255 220 0
0.543635 -0.030799 0.032640 255 220 0
0.619302 0.029279 0.017700 255 220 0
0.608549 0.092884 0.044959 255 220 0
0.578401 0.065275 0.049305 255 220 0
0.639548 0.022114 0.037606 255 220 0
0.626305 0.097471 0.075088 255 220 0
0.546183 -0.025348 0.027526 255 220 0
0.600102 0.066009 0.020182 255 220 0
0.605974 0.090998 0.078450 255 220 0
0.641690 0.031754 0.083453 255 220 0
0.626498 0.076442 0.094219 255 220 0
0.591472 -0.051065 0.051815 255 220 0
0.638472 0.012428 0.042015 255 220 0
0.621814 0.058856 0.098955 255 220 0
0.629770 -0.008597 0.048036 255 220 0
0.633975 -0.000734 0.070048 255 220 0
0.620850 -0.020498 0.045134 255 220 0
0.556530 -0.008076 0.054399 255 220 0
0.585342 -0.055027 0.047009 255 220 0
0.622349 0.099547 0.059852 255 220 0
0.553343 -0.013324 0.048294 255 220 0
0.582756 -0.050404 0.066305 255 220 0
0.564132 -0.062324 0.033987 255 220 0
0.594558 0.085823 0.047949 255 220 0
0.570983 0.002804 0.015319 255 220 0
0.638800 0.093630 0.061158 255 220 0
0.622036 -0.004823 0.086295 255 220 0
0.598626 0.046744 0.098713 255 220 0
0.568924 0.039371 0.038694 255 220 0
0.625251 -0.001994 0.032597 255 220 0
0.617357 -0.026274 0.047619 255 220 0
0.596704 0.047534 0.013912 255 220 0
0.596575 -0.014101 0.016985 255 220 0
0.593384 0.010124 0.097874 255 220 0
0.576555 0.047547 0.075900 255 220 0
0.620097 0.070779 0.097325 255 220 0
0.617700 0.045038 0.101095 255 220 0
0.558318 0.003442 0.032403 255 220 0
0.567283 -0.040313 0.068782 255 220 0
0.617367 0.077413 0.027291 255 220 0
0.594521 -0.042887 0.032295 255 220 0
0.565809 -0.005241 0.073904 255 220 0
0.585800 0.041591 0.015238 255 220 0
0.622589 0.086088 0.035025 255 220 0
0.569412 0.043444 0.049486 255 220 0
0.603298 0.009406 0.013962 255 220 0
0.592117 0.075756 0.033383 255 220 0
0.596883 0.026458 0.100006 255 220 0
0.604643 -0.023080 0.086606 255 220 0
0.570617 -0.033607 0.012979 255 220 0
0.643345 0.016837 0.068544 255 220 0
0.577672 -0.034747 0.077937 255 220 0
0.640316 0.050645 0.088475 255 220 0
0.636292 0.022637 0.087414 255 220 0
0.635213 0.005755 0.076911 255 220 0
0.562372 0.015042 0.031333 255 220 0
0.579037 0.065644 0.062766 255 220 0
0.599069 -0.045454 0.051970 255 220 0
0.621600 -0.019465 0.068058 255 220 0
0.612034 0.093544 0.078702 255 220 0
0.544598 -0.055555 0.036513 255 220 0
0.592754 -0.047255 0.036653 255 220 0
0.647353 0.034575 0.047469 255 220 0
0.574673 0.023687 0.082395 255 220 0
0.564492 0.007818 0.067810 255 220 0
0.551676 -0.015106 0.043499 255 220 0
0.603927 -0.023392 0.086768 255 220 0
0.592225 -0.050670 0.050037 255 220 0
0.601265 -0.019098 0.091015 255 220 0
0.641655 0.010553 0.061776 255 220 0
0.561971 0.007101 0.061508 255 220 0
0.556354 -0.014111 0.056714 255 220 0
0.604350 0.010720 0.014068 255 220 0
0.548935 -0.059365 0.029271 255 220 0
0.623391 0.068731 0.097199 255 220 0
0.601924 0.077742 0.090250 255 220 0
0.568169 -0.000316 0.077148 255 220 0
0.577177 -0.057997 0.036545 255 220 0
0.602099 0.059381 0.097850 255 220 0
0.603183 0.084005 0.085798 255 220 0
0.594575 0.082033 0.039285 255 220 0
0.609394 -0.003903 0.020615 255 220 0
0.631980 0.046086 0.024802 255 220 0
0.550494 -0.038070 0.051989 255 220 0
0.595761 -0.045685 0.061767 255 220 0
0.571932 0.028554 0.076565 255 220 0
0.562225 -0.013387 0.068589 255 220 0
0.571774 -0.027912 0.012528 255 220 0
0.600411 -0.001325 0.098145 255 220 0
0.616147 0.076699 0.095449 255 220 0
0.576317 -0.009725 0.085349 255 220 0
0.614062 0.093208 0.043207 255 220 0
0.634055 0.008511 0.081850 255 220 0
0.636780 0.016145 0.036570 255 220 0
0.555364 -0.021033 0.056871 255 220 0
0.590551 0.042276 0.013742 255 220 0
0.605792 0.094800 0.054949 255 220 0
0.629592 -0.006697 0.044078 255 220 0
0.597713 0.017392 0.099988 255 220 0
0.581887 0.023786 0.012739 255 220 0
0.620903 0.056117 0.019901 255 220 0
0.593005 -0.031080 0.021499 255 220 0
0.589453 -0.052369 0.045676 255 220 0
0.593149 0.085329 0.050814 255 220 0
0.599007 0.087299 0.042993 255 220 0
0.605840 -0.038491 0.045369 255 220 0
0.629121 0.064836 0.027181 255 220 0
0.583447 0.064764 0.078328 255 220 0
0.566151 -0.009137 0.074744 255 220 0
0.569568 -0.006538 0.079260 255 220 0
0.610084 0.049416 0.014790 255 220 0
0.629404 0.098314 0.069759 255 220 0
0.587446 0.051527 0.018379 255 220 0
0.633334 0.019705 0.030521 255 220 0
0.639118 0.085183 0.047580 255 220 0
0.632030 0.047984 0.095368 255 220 0
0.632932 0.028232 0.092693 255 220 0
0.619494 -0.008181 0.030285 255 220 0
0.618883 0.060840 0.020362 255 220 0
0.572009 0.050854 0.050644 255 220 0
0.578321 0.043693 0.081750 255 220 0
0.563262 0.023344 0.044173 255 220 0
0.630411 0.032157 0.024488 255 220 0
0.608973 0.080322 0.091972 255 220 0
0.645085 0.057856 0.042157 255 220 0
0.643143 0.049209 0.084812 255 220 0
0.600401 0.049575 0.098982 255 220 0
0.630539 0.097975 0.059809 255 220 0
0.625729 0.099709 0.064302 255 220 0
0.585518 0.055655 0.086778 255 220 0
0.593351 -0.014830 0.015779 255 220 0
0.612512 0.036453 0.102281 255 220 0
0.590905 0.080928 0.043700 255 220 0
0.636207 0.000270 0.062096 255 220 0
0.619900 0.059538 0.099274 255 220 0
0.597336 0.035600 0.099672 255 220 0
0.595845 0.064353 0.020650 255 220 0
0.580424 0.035274 0.016056 255 220 0
0.634739 0.030664 0.028672 255 220 0
0.598341 -0.019160 0.091453 255 220 0
0.602204 -0.023876 0.024275 255 220 0
0.617946 0.076534 0.095555 255 220 0
0.635074 0.016151 0.034162 255 220 0
0.620734 0.092486 0.083398 255 220 0
0.561499 -0.022145 0.067983 255 220 0
0.602378 0.033783 0.101547 255 220 0
0.599508 0.020138 0.011262 255 220 0
0.641700 0.067980 0.086251 255 220 0
0.569447 -0.005678 0.079122 255 220 0
0.644920 0.068432 0.081501 255 220 0
0.569278 0.027555 0.024724 255 220 0
0.611941 0.025653 0.014548 255 220 0
0.643758 0.035219 0.039412 255 220 0
0.639042 0.069936 0.037655 255 220 0
0.585729 0.077726 0.060081 255 220 0
0.597532 -0.044721 0.060991 255 220 0
0.596026 -0.045491 0.039201 255 220 0
0.643107 0.063808 0.040417 255 220 0
0.601152 -0.043189 0.046240 255 220 0
0.605323 0.094901 0.065083 255 220 0
0.570482 0.033961 0.069471 255 220 0
0.551673 -0.013113 0.030546 255 220 0
0.577359 -0.008818 0.086266 255 220 0
0.586114 0.078342 0.058065 255 220 0
0.613347 0.051999 0.100844 255 220 0
0.605398 -0.030317 0.077489 255 220 0
0.628952 0.000883 0.082565 255 220 0
0.631912 0.072499 0.093219 255 220 0
0.567135 -0.053067 0.060862 255 220 0
0.632611 0.011580 0.086127 255 220 0
0.633062 -0.003125 0.047757 255 220 0
0.591771 0.025868 0.010800 255 220 0
0.547744 -0.023533 0.038492 255 220 0
0.601755 -0.043253 0.052259 255 220 0
0.633353 0.023074 0.029371 255 220 0
0.645404 0.023048 0.069018 255 220 0
0.593752 0.065564 0.090829 255 220 0
0.600721 0.021656 0.011374 255 220 0
0.579614 -0.036478 0.016465 255 220 0
0.610928 0.097280 0.067162 255 220 0
0.596555 -0.008701 0.015536 255 220 0
0.608270 0.049319 0.014432 255 220 0
0.647786 0.033835 0.049341 255 220 0
0.588998 0.046099 0.015437 255 220 0
0.620695 -0.023116 0.060861 255 220 0
