ply
format ascii 1.0
element vertex 1024
property float x
property float y
property float z
property uchar red
property uchar green
property uchar blue
end_header
0.630550 0.009127 0.032781 255 220 0
0.584773 -0.055952 0.046030 255 220 0
0.626847 0.002715 0.032023 255 220 0
0.571498 0.049484 0.054969 255 220 0
0.642965 0.079895 0.078153 255 220 0
0.608473 -0.024128 0.081666 255 220 0
0.570287 0.043288 0.061414 255 220 0
0.601024 0.067495 0.095606 255 220 0
0.616423 0.097176 0.073759 255 220 0
0.622875 -0.012084 0.076675 255 220 0
0.593704 -0.048120 0.039167 255 220 0
0.566594 0.001222 0.076042 255 220 0
0.602910 0.091256 0.047484 255 220 0
0.624762 0.076602 0.029794 255 220 0
0.566175 0.031528 0.056547 255 220 0
0.606608 0.066947 0.019970 255 220 0
0.622883 -0.019402 0.063236 255 220 0
0.577044 -0.029504 0.081428 255 220 0
0.588211 -0.034437 0.019463 255 220 0
0.589730 -0.019827 0.015199 255 220 0
0.567954 0.038273 0.045564 255 220 0
0.632072 0.091441 0.048421 255 220 0
0.629943 0.007072 0.085563 255 220 0
0.635675 0.000733 0.064795 255 220 0
0.631914 -0.004573 0.048276 255 220 0
0.561812 0.017542 0.043825 255 220 0
0.609977 0.023369 0.013642 255 220 0
0.562219 -0.047638 0.062083 255 220 0
0.568110 0.037494 0.058495 255 220 0
0.582233 -0.008223 0.091173 255 220 0
0.584267 -0.030596 0.015882 255 220 0
0.598115 0.022311 0.101161 255 220 0
0.576517 0.061025 0.061742 255 220 0
0.570063 0.040624 0.063884 255 220 0
0.649610 0.045874 0.068330 255 220 0
0.643965 0.060906 0.042147 255 220 0
0.622863 0.097148 0.053325 255 220 0
0.596862 0.005913 0.099703 255 220 0
0.545609 -0.055519 0.038748 255 220 0
0.553960 -0.061463 0.026979 255 220 0
0.631324 0.064402 0.028960 255 220 0
0.631547 -0.001246 0.042362 255 220 0
0.589850 0.043342 0.014268 255 220 0
0.642598 0.053311 0.037994 255 220 0
0.581622 0.072099 0.057928 255 220 0
0.635325 0.011410 0.081245 255 220 0
0.578555 0.029391 0.015724 255 220 0
0.592070 0.081013 0.077751 255 220 0
0.613281 0.024746 0.101536 255 220 0
0.602674 0.065864 0.096851 255 220 0
0.637722 0.052120 0.031201 255 220 0
0.606532 -0.039152 0.054043 255 220 0
0.634260 0.081015 0.087477 255 220 0
0.643388 0.078407 0.050352 255 220 0
0.628108 -0.007817 0.072309 255 220 0
0.608452 0.020799 0.013383 255 220 0
0.566139 0.004462 0.074527 255 220 0
0.540925 -0.040160 0.026036 255 220 0
0.549914 -0.046159 0.013412 255 220 0
0.582963 0.032396 0.013950 255 220 0
0.594864 0.034802 0.099569 255 220 0
0.611140 0.052395 0.100828 255 220 0
0.565241 -0.005109 0.017226 255 220 0
0.615505 -0.029648 0.057293 255 220 0
0.644695 0.076343 0.051624 255 220 0
0.614786 0.078037 0.027311 255 220 0
0.580704 -0.043267 0.074590 255 220 0
0.556205 -0.063606 0.033869 255 220 0
0.551419 -0.025723 0.018539 255 220 0
0.636500 0.078876 0.040459 255 220 0
0.545242 -0.038047 0.017805 255 220 0
0.581326 0.042030 0.018486 255 220 0
0.636935 0.068311 0.035496 255 220 0
0.634287 -0.002068 0.063052 255 220 0
0.573556 -0.058469 0.029098 255 220 0
0.642966 0.051722 0.083978 255 220 0
0.615259 -0.020012 0.078300 255 220 0
0.643551 0.032002 0.079026 255 220 0
0.589664 -0.017796 0.092074 255 220 0
0.585917 0.046061 0.091219 255 220 0
0.564697 0.024114 0.036309 255 220 0
0.613059 0.088087 0.036081 255 220 0
0.618578 0.069432 0.023548 255 220 0
0.627555 0.097334 0.056421 255 220 0
0.581990 0.072364 0.053204 255 220 0
0.619646 0.065500 0.098167 255 220 0
0.586315 -0.045966 0.071196 255 220 0
0.560077 -0.053427 0.015700 255 220 0
0.572059 -0.019098 0.012167 255 220 0
0.581284 0.051401 0.023958 255 220 0
0.577782 0.054139 0.076117 255 220 0
0.610345 -0.033240 0.044408 255 220 0
0.589370 -0.016555 0.014279 255 220 0
0.590575 -0.050719 0.038926 255 220 0
0.578047 0.035814 0.018535 255 220 0
0.608435 0.032153 0.012525 255 220 0
0.587923 -0.033733 0.082808 255 220 0
0.598487 -0.028501 0.023680 255 220 0
0.559627 -0.047995 0.059723 255 220 0
0.603204 0.016026 0.101245 255 220 0
0.642581 0.018584 0.071682 255 220 0
0.574113 0.026019 0.018386 255 220 0
0.646034 0.031622 0.047280 255 220 0
0.619306 0.001844 0.092609 255 220 0
0.636520 0.001170 0.056235 255 220 0
0.579258 0.066916 0.063026 255 220 0
0.589145 -0.049383 0.063673 255 220 0
0.595561 -0.035561 0.025670 255 220 0
0.589809 -0.003984 0.012399 255 220 0
0.555152 -0.029933 0.058536 255 220 0
0.613373 0.073803 0.096367 255 220 0
0.567924 -0.005089 0.015528 255 220 0
0.599618 0.015945 0.101024 255 220 0
0.576640 0.054625 0.034828 255 220 0
0.596734 -0.047707 0.050478 255 220 0
0.566073 0.032667 0.051275 255 220 0
0.571852 0.031279 0.077101 255 220 0
0.588876 -0.006012 0.095210 255 220 0
0.623163 0.076495 0.094589 255 220 0
0.561851 -0.030729 0.012018 255 220 0
0.616372 -0.002500 0.092474 255 220 0
0.604665 0.044072 0.012867 255 220 0
0.646807 0.038605 0.046908 255 220 0
0.642168 0.017036 0.048569 255 220 0
0.639119 0.045471 0.032243 255 220 0
0.585757 -0.006703 0.012147 255 220 0
0.574031 0.043178 0.075040 255 220 0
0.578186 0.045418 0.023704 255 220 0
0.619796 0.054479 0.018995 255 220 0
0.612734 -0.024771 0.075512 255 220 0
0.568095 0.030254 0.066726 255 220 0
0.609893 0.003414 0.018334 255 220 0
0.647287 0.043749 0.047758 255 220 0
0.576203 0.023585 0.085546 255 220 0
0.607619 0.018216 0.013453 255 220 0
0.604144 0.086444 0.037112 255 220 0
0.636706 0.003228 0.066820 255 220 0
0.549726 -0.022059 0.024846 255 220 0
0.626686 0.034923 0.097693 255 220 0
0.649007 0.041842 0.069148 255 220 0
0.601347 -0.023356 0.023145 255 220 0
0.608319 0.070929 0.022271 255 220 0
0.629605 -0.003303 0.040807 255 220 0
0.579339 -0.036308 0.079034 255 220 0
0.633044 0.086823 0.043427 255 220 0
0.638135 0.020661 0.083010 255 220 0
0.544088 -0.054348 0.037003 255 220 0
0.631106 0.090894 0.081702 255 220 0
0.570259 0.015738 0.079216 255 220 0
0.559978 0.000228 0.059836 255 220 0
0.599759 0.030452 0.010839 255 220 0
0.640941 0.010240 0.062158 255 220 0
0.646599 0.078320 0.067169 255 220 0
0.587393 0.080195 0.063175 255 220 0
0.549195 -0.025661 0.043021 255 220 0
0.635854 0.031829 0.030108 255 220 0
0.584668 0.070507 0.077008 255 220 0
0.619929 -0.012822 0.080276 255 220 0
0.606935 0.076707 0.026353 255 220 0
0.556516 -0.044703 0.011949 255 220 0
0.611405 0.035565 0.013516 255 220 0
0.571771 0.044796 0.036638 255 220 0
0.616915 -0.027522 0.060622 255 220 0
0.587767 0.063098 0.087078 255 220 0
0.583782 0.046350 0.018622 255 220 0
0.578610 0.002019 0.089429 255 220 0
0.569131 0.035433 0.065689 255 220 0
0.634577 0.042051 0.027344 255 220 0
0.621182 -0.011422 0.080059 255 220 0
0.647272 0.065029 0.051366 255 220 0
0.581544 -0.056617 0.036988 255 220 0
0.588535 -0.027886 0.086868 255 220 0
0.597614 -0.001271 0.013881 255 220 0
0.579442 -0.058753 0.046220 255 220 0
0.615849 0.097722 0.054967 255 220 0
0.624917 0.004326 0.089227 255 220 0
0.595205 -0.045526 0.036517 255 220 0
0.595260 0.029524 0.100204 255 220 0
0.545227 -0.051547 0.042113 255 220 0
0.640772 0.048449 0.034586 255 220 0
0.551332 -0.016989 0.028283 255 220 0
0.635076 -0.000646 0.052189 255 220 0
0.609805 -0.025641 0.078260 255 220 0
0.540385 -0.049117 0.031641 255 220 0
0.634132 0.035591 0.027541 255 220 0
0.627311 0.097619 0.057056 255 220 0
0.625235 0.076958 0.093863 255 220 0
0.562050 -0.034610 0.067404 255 220 0
0.569479 -0.062546 0.042292 255 220 0
0.638617 0.007501 0.068418 255 220 0
0.570204 -0.023439 0.012050 255 220 0
0.624179 0.056724 0.098191 255 220 0
0.650361 0.047614 0.062859 255 220 0
0.549889 -0.044346 0.050899 255 220 0
0.588572 0.040750 0.013923 255 220 0
0.589648 0.047537 0.094077 255 220 0
0.604063 0.066363 0.019801 255 220 0
0.616890 -0.022835 0.071757 255 220 0
0.642487 0.027208 0.041243 255 220 0
0.607980 0.071867 0.022873 255 220 0
0.641701 0.016021 0.071354 255 220 0
0.604840 0.032608 0.011635 255 220 0
0.583763 -0.046694 0.071253 255 220 0
0.554209 -0.011403 0.048347 255 220 0
0.632496 0.035376 0.026075 255 220 0
0.564125 -0.017670 0.073170 255 220 0
0.633946 0.094720 0.072964 255 220 0
0.625028 -0.009360 0.076439 255 220 0
0.608604 0.035947 0.102638 255 220 0
0.572391 -0.037850 0.074527 255 220 0
0.549927 -0.035414 0.014711 255 220 0
0.596658 -0.041697 0.069058 255 220 0
0.623339 0.037517 0.019218 255 220 0
0.561851 -0.056409 0.055654 255 220 0
0.573591 0.026667 0.019179 255 220 0
0.611142 0.052410 0.015495 255 220 0
0.586690 0.079239 0.055227 255 220 0
0.645083 0.061375 0.044522 255 220 0
0.645344 0.029427 0.073291 255 220 0
0.542821 -0.044942 0.019093 255 220 0
0.591346 0.064678 0.023815 255 220 0
0.632938 0.073552 0.091576 255 220 0
0.552120 -0.013838 0.033257 255 220 0
0.643510 0.061206 0.083106 255 220 0
0.626883 0.007869 0.029373 255 220 0
0.545408 -0.033971 0.020400 255 220 0
0.596442 -0.021390 0.018992 255 220 0
0.599177 0.036725 0.011419 255 220 0
0.555778 -0.006729 0.029588 255 220 0
0.586093 -0.023115 0.088722 255 220 0
0.639037 0.007144 0.065615 255 220 0
0.591519 -0.015683 0.093345 255 220 0
0.608613 0.038070 0.102525 255 220 0
0.638159 0.072345 0.087801 255 220 0
0.562148 0.008784 0.062055 255 220 0
0.613024 0.046776 0.101496 255 220 0
0.546047 -0.041924 0.015729 255 220 0
0.634874 0.091253 0.078228 255 220 0
0.556653 -0.047182 0.012437 255 220 0
0.546143 -0.034659 0.041510 255 220 0
0.560660 -0.050410 0.059209 255 220 0
0.579194 0.017734 0.013097 255 220 0
0.561689 0.009699 0.059949 255 220 0
0.562713 -0.022815 0.070747 255 220 0
0.628964 0.010324 0.088778 255 220 0
0.541759 -0.038888 0.024191 255 220 0
0.630913 0.079892 0.035716 255 220 0
0.615992 0.096150 0.050269 255 220 0
0.601244 -0.035245 0.074433 255 220 0
0.543106 -0.034434 0.027802 255 220 0
0.575191 -0.060539 0.045674 255 220 0
0.621572 0.005266 0.025759 255 220 0
0.620308 -0.019662 0.070231 255 220 0
0.596490 0.074323 0.028406 255 220 0
0.601223 0.012906 0.012184 255 220 0
0.558102 -0.054862 0.016372 255 220 0
0.643716 0.022238 0.047905 255 220 0
0.644923 0.077191 0.052941 255 220 0
0.611587 0.097059 0.069326 255 220 0
0.581742 0.063611 0.077521 255 220 0
0.568488 -0.046811 0.014987 255 220 0
0.635251 0.075241 0.036998 255 220 0
0.605993 0.034599 0.011965 255 220 0
0.645708 0.060162 0.045554 255 220 0
0.614987 0.031074 0.015114 255 220 0
0.575094 0.031481 0.019611 255 220 0
0.550182 -0.034295 0.014974 255 220 0
0.611403 0.092542 0.043390 255 220 0
0.625685 0.071508 0.027854 255 220 0
0.540485 -0.050128 0.030361 255 220 0
0.564297 -0.004723 0.072766 255 220 0
0.645445 0.072208 0.050440 255 220 0
0.645680 0.038595 0.077151 255 220 0
0.576545 0.057775 0.067870 255 220 0
0.640170 0.033701 0.035198 255 220 0
0.572428 -0.022876 0.080616 255 220 0
0.639987 0.007970 0.056665 255 220 0
0.578645 0.036026 0.018081 255 220 0
0.645321 0.063116 0.045615 255 220 0
0.573563 0.045174 0.071674 255 220 0
0.637622 0.022304 0.084621 255 220 0
0.549023 -0.058130 0.040941 255 220 0
0.542563 -0.044826 0.019510 255 220 0
0.603808 0.074486 0.025261 255 220 0
0.635575 0.053586 0.092125 255 220 0
0.554148 -0.040919 0.056746 255 220 0
0.647142 0.041721 0.047466 255 220 0
0.627164 0.059458 0.096839 255 220 0
0.576979 0.029852 0.017102 255 220 0
0.570783 -0.015255 0.081042 255 220 0
0.650401 0.051409 0.061511 255 220 0
0.574882 -0.048187 0.069272 255 220 0
0.633752 0.067222 0.092461 255 220 0
0.599421 0.080186 0.032439 255 220 0
0.568896 -0.033939 0.073821 255 220 0
0.541984 -0.042566 0.036949 255 220 0
0.572155 -0.006866 0.083329 255 220 0
0.612528 0.087666 0.087055 255 220 0
0.592917 -0.015261 0.093785 255 220 0
0.592273 0.000465 0.012247 255 220 0
0.546798 -0.028521 0.023633 255 220 0
0.591690 -0.016120 0.015034 255 220 0
0.632429 0.016132 0.031574 255 220 0
0.615610 -0.022258 0.074788 255 220 0
0.641171 0.086115 0.053692 255 220 0
0.641272 0.011003 0.055935 255 220 0
0.633591 0.082111 0.087298 255 220 0
0.605125 0.008344 0.100194 255 220 0
0.600209 -0.044799 0.049761 255 220 0
0.582733 0.024027 0.092050 255 220 0
0.604671 0.069509 0.096340 255 220 0
0.611856 0.048478 0.101350 255 220 0
0.578883 0.037738 0.018627 255 220 0
0.611814 -0.025129 0.076329 255 220 0
0.635887 0.014229 0.082504 255 220 0
0.582594 0.009624 0.092610 255 220 0
0.593785 -0.031297 0.084178 255 220 0
0.602267 -0.006050 0.017084 255 220 0
0.561868 0.012753 0.058333 255 220 0
0.633782 0.065702 0.092659 255 220 0
0.608426 -0.036668 0.059173 255 220 0
0.612564 0.090222 0.084128 255 220 0
0.539807 -0.044626 0.027993 255 220 0
0.575342 0.057022 0.043208 255 220 0
0.589376 0.044533 0.014821 255 220 0
0.592628 0.082363 0.043649 255 220 0
0.578428 -0.010362 0.088172 255 220 0
0.554830 -0.006539 0.036115 255 220 0
0.579170 0.066136 0.046963 255 220 0
0.569368 -0.024449 0.077528 255 220 0
0.604923 0.070056 0.096217 255 220 0
0.552491 -0.025813 0.017429 255 220 0
0.632811 0.011446 0.084990 255 220 0
0.565259 -0.006001 0.074674 255 220 0
0.595832 0.088320 0.054283 255 220 0
0.554210 -0.011449 0.048398 255 220 0
0.564434 -0.011132 0.015813 255 220 0
0.607071 0.060043 0.099291 255 220 0
0.584932 0.017237 0.094260 255 220 0
0.598728 -0.002513 0.098462 255 220 0
0.650262 0.057063 0.063435 255 220 0
0.612372 0.097288 0.069569 255 220 0
0.639428 0.007409 0.053661 255 220 0
0.647668 0.054718 0.049550 255 220 0
0.640092 0.028715 0.083695 255 220 0
0.640356 0.032739 0.084652 255 220 0
0.547778 -0.029768 0.042103 255 220 0
0.644876 0.061087 0.043994 255 220 0
0.642671 0.023059 0.075704 255 220 0
0.540547 -0.047321 0.033571 255 220 0
0.634174 0.082453 0.086689 255 220 0
0.576055 0.041565 0.080446 255 220 0
0.576949 0.034478 0.019006 255 220 0
0.612848 -0.024134 0.076255 255 220 0
0.613111 0.042091 0.014447 255 220 0
0.637337 0.019290 0.083478 255 220 0
0.640469 0.024011 0.039165 255 220 0
0.626699 0.082449 0.090613 255 220 0
0.600049 -0.033183 0.028190 255 220 0
0.545862 -0.042224 0.044503 255 220 0
0.567072 -0.055950 0.059338 255 220 0
0.622885 0.052118 0.098994 255 220 0
0.638137 0.035797 0.088221 255 220 0
0.558908 -0.060338 0.022960 255 220 0
0.627392 0.094269 0.049434 255 220 0
0.582197 -0.028358 0.084672 255 220 0
0.564671 0.007653 0.070170 255 220 0
0.567047 0.018639 0.024353 255 220 0
0.569215 0.021183 0.022293 255 220 0
0.594898 0.087960 0.064214 255 220 0
0.564952 0.028318 0.053516 255 220 0
0.608567 0.095884 0.054992 255 220 0
0.555903 -0.059145 0.021083 255 220 0
0.642664 0.032170 0.039557 255 220 0
0.580172 0.068281 0.064936 255 220 0
0.561957 -0.008597 0.018452 255 220 0
0.585259 -0.033107 0.082918 255 220 0
0.641955 0.053371 0.085467 255 220 0
0.580050 0.068875 0.061740 255 220 0
0.608477 0.094256 0.074142 255 220 0
0.602688 0.091763 0.072958 255 220 0
0.600534 0.020112 0.011085 255 220 0
0.561470 -0.012205 0.068299 255 220 0
0.585057 0.040382 0.015331 255 220 0
0.564166 -0.009420 0.073099 255 220 0
0.583705 0.033396 0.013850 255 220 0
0.582313 0.056646 0.083374 255 220 0
0.647292 0.070611 0.072406 255 220 0
0.580780 -0.019497 0.012609 255 220 0
0.564171 -0.062173 0.028697 255 220 0
0.564046 -0.041216 0.012107 255 220 0
0.604979 0.077980 0.092178 255 220 0
0.573492 -0.060904 0.038106 255 220 0
0.573642 0.010659 0.015101 255 220 0
0.567940 0.035838 0.039551 255 220 0
0.630576 0.043292 0.095695 255 220 0
0.626040 -0.004476 0.080511 255 220 0
0.632928 0.046572 0.025999 255 220 0
0.564381 0.006400 0.069887 255 220 0
0.626083 -0.015191 0.061853 255 220 0
0.592776 0.073076 0.086591 255 220 0
0.606267 0.063558 0.018339 255 220 0
0.617139 0.046447 0.100982 255 220 0
0.591491 0.000662 0.012102 255 220 0
0.561522 0.016186 0.051391 255 220 0
0.628321 0.091045 0.083054 255 220 0
0.571173 0.041042 0.067538 255 220 0
0.571873 0.050702 0.053212 255 220 0
0.623585 -0.019217 0.059438 255 220 0
0.541169 -0.050171 0.033836 255 220 0
0.641329 0.059731 0.037549 255 220 0
0.629264 0.049708 0.023596 255 220 0
0.568722 0.041303 0.049310 255 220 0
0.612306 -0.029222 0.068929 255 220 0
0.633813 0.009392 0.082004 255 220 0
0.611399 -0.010155 0.024492 255 220 0
0.633617 0.090325 0.048354 255 220 0
0.585992 -0.004454 0.012023 255 220 0
0.562658 -0.055458 0.018072 255 220 0
0.562160 -0.011672 0.017034 255 220 0
0.637397 0.010536 0.076436 255 220 0
0.642597 0.061778 0.084399 255 220 0
0.635085 0.001895 0.069987 255 220 0
0.576453 0.058223 0.066913 255 220 0
0.582946 -0.023156 0.013613 255 220 0
0.552808 -0.024071 0.052071 255 220 0
0.603645 0.025488 0.011411 255 220 0
0.639435 0.019473 0.039993 255 220 0
0.612718 0.063616 0.099071 255 220 0
0.574268 -0.001373 0.013432 255 220 0
0.590457 0.028559 0.097706 255 220 0
0.598514 0.037175 0.011483 255 220 0
0.559834 0.006830 0.054822 255 220 0
0.586831 0.079178 0.053429 255 220 0
0.576288 0.056649 0.068377 255 220 0
0.571397 -0.060999 0.033623 255 220 0
0.581302 -0.057199 0.038897 255 220 0
0.643957 0.081222 0.074946 255 220 0
0.626440 0.059997 0.024080 255 220 0
0.547695 -0.057744 0.023306 255 220 0
0.574361 0.042553 0.027500 255 220 0
0.605663 0.020198 0.012425 255 220 0
0.624467 0.018896 0.023228 255 220 0
0.638459 0.016239 0.040325 255 220 0
0.575328 0.013372 0.014503 255 220 0
0.603677 -0.041702 0.050204 255 220 0
0.577995 -0.058003 0.034374 255 220 0
0.609770 -0.035326 0.048768 255 220 0
0.579522 -0.058261 0.051707 255 220 0
0.637155 0.073370 0.038036 255 220 0
0.568139 0.032403 0.064906 255 220 0
0.645709 0.023325 0.061127 255 220 0
0.635328 0.075770 0.037358 255 220 0
0.630222 0.034222 0.095318 255 220 0
0.627943 -0.002588 0.079619 255 220 0
0.559691 -0.055081 0.016852 255 220 0
0.636556 0.093726 0.070818 255 220 0
0.566181 0.031664 0.056294 255 220 0
0.617032 -0.027821 0.053742 255 220 0
0.546214 -0.043300 0.045351 255 220 0
0.604148 -0.004652 0.097432 255 220 0
0.569213 0.012915 0.019053 255 220 0
0.596979 -0.029114 0.085056 255 220 0
0.573910 -0.044093 0.016098 255 220 0
0.619119 0.065493 0.098254 255 220 0
0.612100 0.077654 0.026807 255 220 0
0.551643 -0.017573 0.043880 255 220 0
0.591983 0.039608 0.097258 255 220 0
0.552461 -0.012864 0.037810 255 220 0
0.568600 -0.061976 0.033121 255 220 0
0.587297 -0.034121 0.018769 255 220 0
0.621143 0.077584 0.028685 255 220 0
0.547980 -0.040074 0.047642 255 220 0
0.644215 0.022560 0.049298 255 220 0
0.606789 0.079751 0.028846 255 220 0
0.596951 0.089168 0.054044 255 220 0
0.615060 0.045533 0.015483 255 220 0
0.570785 0.047445 0.049270 255 220 0
0.601630 -0.031771 0.028685 255 220 0
0.573535 0.033604 0.022631 255 220 0
0.569505 0.043775 0.052714 255 220 0
0.565172 -0.030334 0.011816 255 220 0
0.622281 -0.015694 0.072675 255 220 0
0.616821 0.007357 0.096430 255 220 0
0.648568 0.066956 0.057422 255 220 0
0.585759 0.006166 0.094840 255 220 0
0.571113 0.041667 0.034600 255 220 0
0.556081 -0.002994 0.036688 255 220 0
0.553690 -0.061204 0.026384 255 220 0
0.640530 0.009056 0.057982 255 220 0
0.589254 -0.023774 0.089291 255 220 0
0.546648 -0.041495 0.045695 255 220 0
0.567849 0.014764 0.021285 255 220 0
0.588584 0.014797 0.096823 255 220 0
0.557480 -0.051289 0.056068 255 220 0
0.620909 -0.006990 0.084884 255 220 0
0.637069 0.061425 0.090591 255 220 0
0.630423 0.062144 0.095067 255 220 0
0.591967 -0.050856 0.043730 255 220 0
0.569961 0.041486 0.062385 255 220 0
0.599870 0.050434 0.014253 255 220 0
0.578882 0.050564 0.026472 255 220 0
0.619412 0.016574 0.020301 255 220 0
0.639013 0.011325 0.045709 255 220 0
0.603331 0.008385 0.013780 255 220 0
0.547941 -0.023824 0.029923 255 220 0
0.593541 -0.043899 0.031352 255 220 0
0.589143 0.078399 0.042511 255 220 0
0.590381 -0.002613 0.012329 255 220 0
0.607730 0.027876 0.012407 255 220 0
0.592354 0.083437 0.073710 255 220 0
0.581323 -0.019246 0.087957 255 220 0
0.640299 0.008651 0.060911 255 220 0
0.613481 -0.032029 0.055131 255 220 0
0.634632 0.001282 0.046492 255 220 0
0.576728 0.055327 0.035478 255 220 0
0.563381 0.003461 0.022349 255 220 0
0.570039 -0.043087 0.014161 255 220 0
0.597094 0.013787 0.011159 255 220 0
0.621711 -0.003416 0.030092 255 220 0
0.623437 0.054611 0.020874 255 220 0
0.616760 0.047564 0.100937 255 220 0
0.563317 -0.030541 0.069934 255 220 0
0.631735 0.086745 0.042081 255 220 0
0.593676 -0.015233 0.093906 255 220 0
0.632273 0.077405 0.090586 255 220 0
0.599183 0.046696 0.099587 255 220 0
0.613709 0.045997 0.015078 255 220 0
0.597506 0.090202 0.060791 255 220 0
0.616059 -0.028268 0.061681 255 220 0
0.601110 0.081222 0.087438 255 220 0
0.614073 -0.023162 0.036199 255 220 0
0.627110 0.025701 0.096042 255 220 0
0.572169 0.031578 0.023459 255 220 0
0.635822 0.007107 0.075969 255 220 0
0.591927 0.062676 0.091312 255 220 0
0.564994 -0.011887 0.074571 255 220 0
0.621534 0.004703 0.092365 255 220 0
0.604462 -0.017134 0.022481 255 220 0
0.599070 0.036946 0.011449 255 220 0
0.598087 0.045378 0.099395 255 220 0
0.572184 -0.030385 0.012265 255 220 0
0.614134 -0.015147 0.084987 255 220 0
0.636817 0.001838 0.055091 255 220 0
0.584872 0.054630 0.087501 255 220 0
0.628407 -0.005467 0.040912 255 220 0
0.603537 -0.041023 0.045744 255 220 0
0.575846 0.015045 0.086348 255 220 0
0.570926 0.013865 0.017690 255 220 0
0.610809 -0.033244 0.045762 255 220 0
0.581938 -0.034034 0.015944 255 220 0
0.591944 0.016134 0.098719 255 220 0
0.575862 -0.051967 0.066182 255 220 0
0.598211 0.018331 0.010842 255 220 0
0.644908 0.036544 0.078086 255 220 0
0.590523 -0.035379 0.021461 255 220 0
0.567903 0.022951 0.071743 255 220 0
0.559323 -0.056389 0.053768 255 220 0
0.575316 0.056792 0.042815 255 220 0
0.589644 -0.007746 0.012842 255 220 0
0.606130 0.045929 0.101455 255 220 0
0.561670 -0.060477 0.051047 255 220 0
0.576360 0.010975 0.087208 255 220 0
0.630279 0.097743 0.067163 255 220 0
0.595137 0.080885 0.082271 255 220 0
0.585837 -0.030730 0.084578 255 220 0
0.590337 -0.051932 0.054141 255 220 0
0.596822 -0.005257 0.097618 255 220 0
0.580912 0.067935 0.043576 255 220 0
0.628198 0.098599 0.065525 255 220 0
0.634008 0.096066 0.067188 255 220 0
0.573529 0.047180 0.034067 255 220 0
0.600409 0.016802 0.011399 255 220 0
0.612025 -0.009172 0.024531 255 220 0
0.584728 -0.011698 0.091945 255 220 0
0.575861 0.053747 0.070280 255 220 0
0.546762 -0.029455 0.038605 255 220 0
0.549590 -0.038646 0.013929 255 220 0
0.600371 -0.031790 0.027439 255 220 0
0.645012 0.020956 0.060055 255 220 0
0.553286 -0.011078 0.041584 255 220 0
0.600595 -0.042880 0.042427 255 220 0
0.596403 0.077476 0.086819 255 220 0
0.632497 0.064772 0.093602 255 220 0
0.609656 0.072211 0.023118 255 220 0
0.577437 0.018231 0.087627 255 220 0
0.571186 0.007748 0.081862 255 220 0
0.638284 0.091633 0.072573 255 220 0
0.645044 0.039870 0.078857 255 220 0
0.642890 0.020240 0.047342 255 220 0
0.613989 0.064433 0.019865 255 220 0
0.638943 0.036433 0.032904 255 220 0
0.576690 0.014675 0.087241 255 220 0
0.634150 0.010834 0.082645 255 220 0
0.604364 0.067244 0.020253 255 220 0
0.633052 -0.004616 0.060244 255 220 0
0.648857 0.035769 0.063033 255 220 0
0.636743 0.041595 0.090580 255 220 0
0.619110 0.043787 0.100767 255 220 0
0.573404 0.044352 0.071966 255 220 0
0.576309 0.054388 0.071090 255 220 0
0.577704 0.019476 0.087754 255 220 0
0.632509 0.023510 0.028877 255 220 0
0.602242 -0.033885 0.075402 255 220 0
0.621061 0.018997 0.020765 255 220 0
0.583173 -0.035846 0.080614 255 220 0
0.644641 0.052887 0.041813 255 220 0
0.598475 -0.046177 0.048394 255 220 0
0.639211 0.006265 0.059394 255 220 0
0.616688 0.098858 0.059279 255 220 0
0.610309 -0.029766 0.038133 255 220 0
0.626524 0.098808 0.061235 255 220 0
0.555624 -0.034051 0.012612 255 220 0
0.595587 -0.023694 0.019396 255 220 0
0.568879 -0.012088 0.013645 255 220 0
0.553479 -0.010185 0.039857 255 220 0
0.626940 0.060543 0.024573 255 220 0
0.638470 0.023496 0.036225 255 220 0
0.554282 -0.016944 0.052647 255 220 0
0.609196 -0.036399 0.051290 255 220 0
0.597153 0.061154 0.018637 255 220 0
0.567930 0.009055 0.019152 255 220 0
0.619279 0.084857 0.033247 255 220 0
0.573651 -0.056025 0.025160 255 220 0
0.641589 0.060125 0.038045 255 220 0
0.609348 0.063603 0.018581 255 220 0
0.628120 0.022447 0.094509 255 220 0
0.610829 0.010594 0.016727 255 220 0
0.542504 -0.047123 0.038691 255 220 0
0.557911 -0.012635 0.060039 255 220 0
0.575219 0.021728 0.016083 255 220 0
0.645559 0.023574 0.064629 255 220 0
0.646163 0.047671 0.078190 255 220 0
0.594726 -0.034460 0.024207 255 220 0
0.590544 0.080515 0.075575 255 220 0
0.543919 -0.033915 0.034316 255 220 0
0.600220 0.011070 0.012237 255 220 0
0.599086 0.013244 0.011600 255 220 0
0.644685 0.024586 0.048748 255 220 0
0.591150 0.079631 0.040912 255 220 0
0.639309 0.019197 0.039935 255 220 0
0.581235 0.057504 0.028936 255 220 0
0.611917 0.045234 0.014430 255 220 0
0.632691 0.095493 0.072687 255 220 0
0.591313 -0.010513 0.095027 255 220 0
0.609183 0.060216 0.099526 255 220 0
0.587722 0.061316 0.024375 255 220 0
0.643259 0.043110 0.082643 255 220 0
0.623415 0.098655 0.071225 255 220 0
0.632161 0.062516 0.028980 255 220 0
0.555263 -0.004929 0.041559 255 220 0
0.582774 0.054248 0.024272 255 220 0
0.587707 -0.006197 0.094639 255 220 0
0.574514 0.020516 0.016339 255 220 0
0.580382 0.042029 0.086319 255 220 0
0.626196 0.098326 0.058513 255 220 0
0.616550 -0.018155 0.078785 255 220 0
0.559081 -0.003373 0.024964 255 220 0
0.623619 -0.012001 0.075493 255 220 0
0.582503 0.022900 0.012327 255 220 0
0.619758 -0.001218 0.027138 255 220 0
0.564455 -0.063835 0.039443 255 220 0
0.555122 -0.011650 0.051964 255 220 0
0.618112 -0.006625 0.028415 255 220 0
0.576354 0.047429 0.077831 255 220 0
0.563300 0.001654 0.068793 255 220 0
0.576980 0.040770 0.022292 255 220 0
0.590941 0.084323 0.058647 255 220 0
0.573110 -0.011645 0.083739 255 220 0
0.608116 0.067373 0.097834 255 220 0
0.577537 0.032105 0.017459 255 220 0
0.643220 0.036113 0.081134 255 220 0
0.649444 0.053562 0.055354 255 220 0
0.570187 0.025331 0.022967 255 220 0
0.586733 0.042768 0.092722 255 220 0
0.542600 -0.038420 0.022177 255 220 0
0.558209 -0.050023 0.013499 255 220 0
0.616944 0.084431 0.032415 255 220 0
0.593991 0.082223 0.040925 255 220 0
0.574460 -0.004103 0.085645 255 220 0
0.554930 -0.016520 0.020927 255 220 0
0.603042 -0.016633 0.092101 255 220 0
0.602521 0.066640 0.096552 255 220 0
0.610115 -0.030679 0.070065 255 220 0
0.572679 -0.055535 0.061880 255 220 0
0.549596 -0.033739 0.015638 255 220 0
0.583825 -0.031981 0.083275 255 220 0
0.566765 -0.048385 0.064970 255 220 0
0.567712 -0.006293 0.015350 255 220 0
0.559418 0.008859 0.042147 255 220 0
0.590190 0.005190 0.011494 255 220 0
0.606710 0.043070 0.012967 255 220 0
0.596177 0.030767 0.100511 255 220 0
0.610590 0.096088 0.053130 255 220 0
0.641418 0.083303 0.051010 255 220 0
0.580846 0.059970 0.032005 255 220 0
0.580695 0.068372 0.045612 255 220 0
0.586106 -0.047650 0.069090 255 220 0
0.625688 0.016513 0.024921 255 220 0
0.595457 0.076772 0.031718 255 220 0
0.579922 -0.057414 0.036243 255 220 0
0.551975 -0.056393 0.046982 255 220 0
0.576740 0.049916 0.076945 255 220 0
0.586979 0.077070 0.073071 255 220 0
0.590848 -0.018258 0.092172 255 220 0
0.565860 -0.020661 0.012930 255 220 0
0.581260 -0.048368 0.023186 255 220 0
0.645666 0.023316 0.062231 255 220 0
0.623856 -0.013498 0.072837 255 220 0
0.559985 -0.010675 0.064471 255 220 0
0.646900 0.071220 0.053934 255 220 0
0.619767 -0.015202 0.036464 255 220 0
0.572259 0.051632 0.054873 255 220 0
0.588571 -0.044757 0.026463 255 220 0
0.550761 -0.042085 0.012909 255 220 0
0.590205 -0.052276 0.044372 255 220 0
0.634328 0.051315 0.027786 255 220 0
0.634530 0.086774 0.083227 255 220 0
0.567478 0.037335 0.049414 255 220 0
0.601006 0.071482 0.023737 255 220 0
0.587371 0.001078 0.095490 255 220 0
0.638762 0.010154 0.072433 255 220 0
0.624434 0.004555 0.089838 255 220 0
0.618829 -0.017596 0.037492 255 220 0
0.587807 0.072283 0.080970 255 220 0
0.605509 0.022349 0.101967 255 220 0
0.586957 -0.053066 0.037446 255 220 0
0.605600 0.063666 0.098274 255 220 0
0.584503 0.050495 0.088527 255 220 0
0.629256 0.090622 0.044761 255 220 0
0.616760 0.012474 0.097918 255 220 0
0.574218 0.055643 0.046310 255 220 0
0.640667 0.027917 0.082462 255 220 0
0.600676 0.055270 0.098552 255 220 0
0.620853 0.097396 0.074921 255 220 0
0.581012 0.036862 0.088344 255 220 0
0.634861 0.031258 0.029145 255 220 0
0.630977 0.068997 0.093795 255 220 0
0.558338 -0.001638 0.055691 255 220 0
0.561102 -0.030070 0.067504 255 220 0
0.549765 -0.049645 0.014359 255 220 0
0.609463 0.026489 0.013102 255 220 0
0.585346 -0.009612 0.012336 255 220 0
0.590087 -0.038047 0.022685 255 220 0
0.592051 -0.042631 0.072057 255 220 0
0.543024 -0.053452 0.035496 255 220 0
0.603655 -0.000485 0.098743 255 220 0
0.610352 -0.000134 0.019795 255 220 0
0.612526 -0.007583 0.092315 255 220 0
0.556969 -0.051170 0.013891 255 220 0
0.562085 -0.015403 0.069928 255 220 0
0.558350 -0.062020 0.046140 255 220 0
0.563780 0.020156 0.059581 255 220 0
0.601967 -0.001896 0.015760 255 220 0
0.593159 0.048429 0.096304 255 220 0
0.629999 0.056109 0.025443 255 220 0
0.648373 0.051101 0.073529 255 220 0
0.618310 0.092507 0.042556 255 220 0
0.583449 -0.022579 0.013648 255 220 0
0.590082 0.078668 0.077593 255 220 0
0.623736 -0.004881 0.083331 255 220 0
0.597190 -0.017142 0.093160 255 220 0
0.560683 0.011520 0.053787 255 220 0
0.596186 -0.034593 0.025554 255 220 0
0.619655 0.093883 0.081146 255 220 0
0.617742 0.002662 0.023809 255 220 0
0.621582 -0.009028 0.033604 255 220 0
0.596488 0.083331 0.039367 255 220 0
0.569276 -0.006728 0.080290 255 220 0
0.569752 -0.014872 0.012953 255 220 0
0.560833 0.014288 0.045501 255 220 0
0.566346 0.033075 0.045225 255 220 0
0.588676 0.078177 0.043132 255 220 0
0.637665 0.011756 0.042188 255 220 0
0.624568 0.083095 0.033789 255 220 0
0.649352 0.042313 0.067892 255 220 0
0.604537 -0.039020 0.062520 255 220 0
0.568763 0.012198 0.019293 255 220 0
0.624208 -0.005366 0.082228 255 220 0
0.563718 -0.007903 0.017353 255 220 0
0.576797 0.021760 0.014973 255 220 0
0.559053 -0.008617 0.061347 255 220 0
0.578502 0.043506 0.083429 255 220 0
0.589176 0.062549 0.088838 255 220 0
0.556186 -0.047873 0.012623 255 220 0
0.644779 0.034258 0.077451 255 220 0
0.639417 0.027178 0.084110 255 220 0
0.632751 0.066517 0.030859 255 220 0
0.629731 0.098122 0.063974 255 220 0
0.557017 -0.021986 0.016043 255 220 0
0.547284 -0.025859 0.034823 255 220 0
0.642853 0.019168 0.048380 255 220 0
0.582762 0.063357 0.032396 255 220 0
0.571492 -0.016068 0.012480 255 220 0
0.586410 -0.006121 0.093995 255 220 0
0.570255 0.032265 0.072425 255 220 0
0.567634 0.025698 0.068985 255 220 0
0.570635 -0.028965 0.011992 255 220 0
0.598125 0.085546 0.041182 255 220 0
0.623069 0.067184 0.024604 255 220 0
0.590579 0.082411 0.071262 255 220 0
0.572168 -0.013826 0.012597 255 220 0
0.568726 0.039445 0.042248 255 220 0
0.621418 -0.013651 0.037467 255 220 0
0.630186 0.083284 0.037533 255 220 0
0.646989 0.040612 0.074810 255 220 0
0.560387 -0.002644 0.062441 255 220 0
0.542790 -0.039950 0.037450 255 220 0
0.559718 0.010271 0.045876 255 220 0
0.606604 0.048194 0.013839 255 220 0
0.611003 -0.005100 0.022043 255 220 0
0.572209 0.025056 0.079926 255 220 0
0.570955 0.042361 0.065432 255 220 0
0.586043 0.053027 0.020379 255 220 0
0.608076 0.019271 0.013466 255 220 0
0.544218 -0.051527 0.040255 255 220 0
0.625884 -0.009076 0.040267 255 220 0
0.617212 0.082816 0.031117 255 220 0
0.584163 0.053127 0.022061 255 220 0
0.650357 0.055122 0.063205 255 220 0
0.572233 0.014445 0.082262 255 220 0
0.575860 0.056494 0.039921 255 220 0
0.549181 -0.027071 0.020362 255 220 0
0.618328 0.057750 0.099503 255 220 0
0.631915 0.078826 0.035885 255 220 0
0.647592 0.048138 0.048667 255 220 0
0.620433 -0.021856 0.065428 255 220 0
0.561207 0.003142 0.062104 255 220 0
0.567926 0.030500 0.065906 255 220 0
0.589178 0.082358 0.063025 255 220 0
0.595336 0.026006 0.010436 255 220 0
0.593743 0.068420 0.024979 255 220 0
0.600771 -0.032686 0.078570 255 220 0
0.602090 -0.043128 0.049803 255 220 0
0.572215 0.041575 0.070651 255 220 0
0.596575 0.021522 0.010482 255 220 0
0.590172 -0.044732 0.028145 255 220 0
0.612692 0.048724 0.101281 255 220 0
0.623743 -0.019115 0.057508 255 220 0
0.544323 -0.031862 0.030993 255 220 0
0.620827 0.027755 0.018711 255 220 0
0.608724 0.092050 0.043690 255 220 0
0.578324 0.064584 0.047074 255 220 0
0.639929 0.021091 0.039882 255 220 0
0.624801 0.097400 0.074624 255 220 0
0.547160 -0.026547 0.025888 255 220 0
0.601599 0.064551 0.019184 255 220 0
0.604302 0.091031 0.077025 255 220 0
0.639560 0.031910 0.085514 255 220 0
0.623894 0.076872 0.094272 255 220 0
0.590985 -0.051661 0.053293 255 220 0
0.638591 0.011523 0.044472 255 220 0
0.618918 0.059417 0.099192 255 220 0
0.629525 -0.009333 0.050542 255 220 0
0.632527 -0.000908 0.072544 255 220 0
0.620753 -0.021299 0.047459 255 220 0
0.556046 -0.008595 0.052839 255 220 0
0.585122 -0.055742 0.048260 255 220 0
0.621696 0.099086 0.059145 255 220 0
0.553191 -0.013996 0.046704 255 220 0
0.581486 -0.050621 0.067259 255 220 0
0.564646 -0.063357 0.034279 255 220 0
0.594575 0.085079 0.046084 255 220 0
0.572657 0.001262 0.014349 255 220 0
0.638037 0.093192 0.061508 255 220 0
0.619701 -0.004567 0.088207 255 220 0
0.595752 0.047320 0.097983 255 220 0
0.569390 0.038422 0.036625 255 220 0
0.625878 -0.003127 0.034713 255 220 0
0.617116 -0.027006 0.049896 255 220 0
0.598512 0.045922 0.013213 255 220 0
0.598081 -0.015612 0.017859 255 220 0
0.590486 0.010695 0.097799 255 220 0
0.574975 0.047550 0.073974 255 220 0
0.617319 0.071296 0.097165 255 220 0
0.614663 0.045662 0.101458 255 220 0
0.559070 0.002351 0.030685 255 220 0
0.565920 -0.040457 0.068617 255 220 0
0.618470 0.076122 0.026939 255 220 0
0.595124 -0.043992 0.033768 255 220 0
0.564242 -0.005264 0.072746 255 220 0
0.587539 0.040024 0.014087 255 220 0
0.623276 0.084990 0.034723 255 220 0
0.569291 0.042772 0.047319 255 220 0
0.605011 0.007804 0.014608 255 220 0
0.592919 0.074641 0.031669 255 220 0
0.593898 0.027076 0.099699 255 220 0
0.602278 -0.022798 0.088027 255 220 0
0.572342 -0.035196 0.012929 255 220 0
0.642003 0.016612 0.071108 255 220 0
0.575801 -0.034665 0.078186 255 220 0
0.637952 0.050926 0.089965 255 220 0
0.633933 0.022902 0.089404 255 220 0
0.633398 0.005756 0.079295 255 220 0
0.563202 0.013916 0.029542 255 220 0
0.578216 0.065300 0.060535 255 220 0
0.598575 -0.046054 0.053723 255 220 0
0.620239 -0.019675 0.070356 255 220 0
0.610345 0.093578 0.077545 255 220 0
0.545017 -0.056510 0.035548 255 220 0
0.593110 -0.048245 0.038132 255 220 0
0.647205 0.033798 0.049836 255 220 0
0.572686 0.023867 0.080967 255 220 0
0.563291 0.007635 0.066255 255 220 0
0.551787 -0.015900 0.041871 255 220 0
0.601554 -0.023104 0.088157 255 220 0
0.591837 -0.051313 0.051550 255 220 0
0.598671 -0.018701 0.092139 255 220 0
0.640675 0.010157 0.064420 255 220 0
0.561120 0.006756 0.059844 255 220 0
0.555731 -0.014568 0.055294 255 220 0
0.606059 0.009120 0.014737 255 220 0
0.549740 -0.060509 0.028657 255 220 0
0.620611 0.069243 0.097273 255 220 0
0.599578 0.078087 0.088921 255 220 0
0.566430 -0.000259 0.075988 255 220 0
0.577540 -0.058975 0.037442 255 220 0
0.599295 0.059928 0.096988 255 220 0
0.601095 0.084232 0.084385 255 220 0
0.595061 0.081066 0.037534 255 220 0
0.610702 -0.005334 0.021927 255 220 0
0.633130 0.044731 0.026067 255 220 0
0.550088 -0.038636 0.050871 255 220 0
0.594731 -0.046030 0.063325 255 220 0
0.570281 0.028584 0.074871 255 220 0
0.560939 -0.013542 0.067453 255 220 0
0.573534 -0.029516 0.012397 255 220 0
0.597463 -0.000749 0.098751 255 220 0
0.613491 0.077168 0.094921 255 220 0
0.574093 -0.009459 0.084865 255 220 0
0.614326 0.092325 0.042236 255 220 0
0.631975 0.008639 0.084090 255 220 0
0.637210 0.015100 0.038849 255 220 0
0.554718 -0.021483 0.055575 255 220 0
0.592367 0.040667 0.012839 255 220 0
0.605425 0.094225 0.053460 255 220 0
0.629569 -0.007536 0.046533 255 220 0
0.594707 0.018011 0.099960 255 220 0
0.583731 0.022163 0.011836 255 220 0
0.622362 0.054640 0.020305 255 220 0
0.594231 -0.032467 0.022604 255 220 0
0.589305 -0.053122 0.047088 255 220 0
0.593008 0.084660 0.048878 255 220 0
0.599294 0.086424 0.041344 255 220 0
0.605715 -0.039268 0.047329 255 220 0
0.630185 0.063538 0.027801 255 220 0
0.581760 0.064819 0.076334 255 220 0
0.564528 -0.009137 0.073704 255 220 0
0.567697 -0.006425 0.078333 255 220 0
0.611828 0.047817 0.014779 255 220 0
0.628191 0.098103 0.069455 255 220 0
0.589030 0.050036 0.017058 255 220 0
0.634110 0.018505 0.032529 255 220 0
0.639085 0.084397 0.048191 255 220 0
0.629292 0.048449 0.096456 255 220 0
0.630298 0.028634 0.094344 255 220 0
0.620244 -0.009368 0.032247 255 220 0
0.620330 0.059374 0.020532 255 220 0
0.571836 0.050208 0.048428 255 220 0
0.576407 0.043846 0.080009 255 220 0
0.563400 0.022546 0.042194 255 220 0
0.631552 0.030799 0.026025 255 220 0
0.606527 0.080706 0.090961 255 220 0
0.645283 0.056935 0.043810 255 220 0
0.640974 0.049393 0.086502 255 220 0
0.597516 0.050156 0.098277 255 220 0
0.629872 0.097507 0.059594 255 220 0
0.624826 0.099360 0.063769 255 220 0
0.583342 0.055929 0.085118 255 220 0
0.594927 -0.016370 0.016496 255 220 0
0.609399 0.037115 0.102576 255 220 0
0.591151 0.080079 0.041767 255 220 0
0.635195 -0.000111 0.064704 255 220 0
0.616991 0.060109 0.099388 255 220 0
0.594388 0.036205 0.099155 255 220 0
0.597319 0.062910 0.019458 255 220 0
0.582112 0.033734 0.014770 255 220 0
0.635638 0.029411 0.030478 255 220 0
0.595726 -0.018749 0.092416 255 220 0
0.603278 -0.025201 0.025698 255 220 0
0.615281 0.077005 0.095130 255 220 0
0.635639 0.015045 0.036350 255 220 0
0.618769 0.092635 0.082740 255 220 0
0.560228 -0.022312 0.067033 255 220 0
0.599314 0.034433 0.101352 255 220 0
0.601399 0.018465 0.011428 255 220 0
0.639494 0.068196 0.087375 255 220 0
0.567585 -0.005569 0.078167 255 220 0
0.642972 0.068523 0.082800 255 220 0
0.570489 0.026249 0.023005 255 220 0
0.613644 0.024054 0.015251 255 220 0
0.644061 0.034236 0.041579 255 220 0
0.639524 0.068899 0.038673 255 220 0
0.585072 0.077304 0.057914 255 220 0
0.596544 -0.045087 0.062624 255 220 0
0.596240 -0.046418 0.040810 255 220 0
0.643417 0.062842 0.041811 255 220 0
0.600975 -0.043939 0.048060 255 220 0
0.604397 0.094588 0.063546 255 220 0
0.569237 0.033807 0.067571 255 220 0
0.552502 -0.014242 0.028891 255 220 0
0.575085 -0.008529 0.085814 255 220 0
0.585569 0.077868 0.055907 255 220 0
0.610345 0.052618 0.100788 255 220 0
0.603519 -0.030268 0.079155 255 220 0
0.626825 0.001035 0.084719 255 220 0
0.629346 0.072901 0.093673 255 220 0
0.566183 -0.053411 0.061032 255 220 0
0.630304 0.011818 0.088200 255 220 0
0.632839 -0.003873 0.050305 255 220 0
0.593711 0.024188 0.010392 255 220 0
0.548118 -0.024451 0.036873 255 220 0
0.601245 -0.043848 0.054103 255 220 0
0.634200 0.021843 0.031295 255 220 0
0.644046 0.022832 0.071534 255 220 0
0.591361 0.065934 0.089361 255 220 0
0.602607 0.019984 0.011567 255 220 0
0.581127 -0.037983 0.016980 255 220 0
0.609884 0.097016 0.065869 255 220 0
0.598153 -0.010252 0.016273 255 220 0
0.610035 0.047712 0.014324 255 220 0
0.647532 0.033106 0.051748 255 220 0
0.590731 0.044533 0.014347 255 220 0
0.619725 -0.023509 0.063216 255 220 0
