ply
format ascii 1.0
element vertex 1024
property float x
property float y
property float z
property uchar red
property uchar green
property uchar blue
end_header
0.628481 0.011277 0.028858 255 220 0
0.584545 -0.054927 0.042753 255 220 0
0.624738 0.004889 0.028094 255 220 0
0.571971 0.049627 0.059581 255 220 0
0.645389 0.079231 0.076996 255 220 0
0.611768 -0.025134 0.077622 255 220 0
0.571463 0.043035 0.065720 255 220 0
0.605554 0.065381 0.097942 255 220 0
0.618481 0.096496 0.076492 255 220 0
0.625529 -0.012669 0.071908 255 220 0
0.592682 -0.046603 0.035494 255 220 0
0.569455 0.000114 0.078007 255 220 0
0.602297 0.092078 0.051461 255 220 0
0.622209 0.078750 0.030700 255 220 0
0.566897 0.031558 0.060588 255 220 0
0.603152 0.069546 0.022251 255 220 0
0.624145 -0.019145 0.058112 255 220 0
0.580505 -0.030785 0.080345 255 220 0
0.585106 -0.031784 0.017364 255 220 0
0.586124 -0.016926 0.013882 255 220 0
0.567490 0.038984 0.049921 255 220 0
0.631394 0.092482 0.049346 255 220 0
0.633436 0.005969 0.081181 255 220 0
0.636971 0.000976 0.059573 255 220 0
0.631508 -0.003338 0.043241 255 220 0
0.561261 0.018341 0.047547 255 220 0
0.605966 0.026475 0.012904 255 220 0
0.563781 -0.047833 0.061568 255 220 0
0.569008 0.037411 0.062690 255 220 0
0.586627 -0.010096 0.090797 255 220 0
0.580795 -0.027768 0.014463 255 220 0
0.603381 0.019915 0.100948 255 220 0
0.577640 0.060777 0.066497 255 220 0
0.571508 0.040221 0.068029 255 220 0
0.651065 0.045944 0.064431 255 220 0
0.642652 0.062506 0.039971 255 220 0
0.622735 0.097788 0.055534 255 220 0
0.602030 0.003627 0.098611 255 220 0
0.544832 -0.054418 0.039658 255 220 0
0.551916 -0.059547 0.026731 255 220 0
0.628684 0.066687 0.028425 255 220 0
0.630511 0.000344 0.037617 255 220 0
0.585958 0.046179 0.016879 255 220 0
0.640879 0.055169 0.035520 255 220 0
0.582283 0.072112 0.062866 255 220 0
0.638321 0.010616 0.076602 255 220 0
0.574920 0.032057 0.018639 255 220 0
0.594731 0.079888 0.082001 255 220 0
0.618495 0.022466 0.099882 255 220 0
0.607331 0.063692 0.098903 255 220 0
0.635319 0.054351 0.029214 255 220 0
0.606977 -0.038447 0.049472 255 220 0
0.637709 0.079691 0.087232 255 220 0
0.642890 0.079462 0.049265 255 220 0
0.630262 -0.008092 0.067292 255 220 0
0.604430 0.023911 0.012647 255 220 0
0.568833 0.003437 0.076753 255 220 0
0.538791 -0.038351 0.028488 255 220 0
0.546420 -0.043475 0.014642 255 220 0
0.579108 0.035208 0.016602 255 220 0
0.599942 0.032449 0.100486 255 220 0
0.616208 0.050085 0.101125 255 220 0
0.561940 -0.002594 0.019377 255 220 0
0.616214 -0.029076 0.052350 255 220 0
0.644330 0.077336 0.050262 255 220 0
0.612024 0.080240 0.029370 255 220 0
0.583467 -0.044064 0.072317 255 220 0
0.554880 -0.062089 0.033201 255 220 0
0.548395 -0.023380 0.020845 255 220 0
0.634998 0.080474 0.040197 255 220 0
0.542212 -0.035694 0.019998 255 220 0
0.577928 0.044529 0.021876 255 220 0
0.634939 0.070239 0.034567 255 220 0
0.635415 -0.001726 0.057814 255 220 0
0.571618 -0.056502 0.026967 255 220 0
0.646087 0.050754 0.081023 255 220 0
0.618150 -0.020755 0.073826 255 220 0
0.646207 0.031382 0.074819 255 220 0
0.594140 -0.019635 0.090317 255 220 0
0.590133 0.044115 0.093836 255 220 0
0.563320 0.025391 0.040194 255 220 0
0.611199 0.089714 0.038881 255 220 0
0.615424 0.071919 0.024702 255 220 0
0.627726 0.097828 0.058127 255 220 0
0.582150 0.072671 0.058154 255 220 0
0.624348 0.063409 0.098408 255 220 0
0.588697 -0.046496 0.068192 255 220 0
0.556789 -0.050773 0.015395 255 220 0
0.568231 -0.016180 0.012770 255 220 0
0.578434 0.053544 0.027896 255 220 0
0.580431 0.053030 0.080203 255 220 0
0.609737 -0.031916 0.039878 255 220 0
0.585660 -0.013607 0.013211 255 220 0
0.589553 -0.049212 0.035421 255 220 0
0.574692 0.038291 0.021881 255 220 0
0.604289 0.035296 0.012504 255 220 0
0.591481 -0.034986 0.080310 255 220 0
0.595750 -0.026022 0.020842 255 220 0
0.560956 -0.048068 0.059475 255 220 0
0.608469 0.013685 0.100106 255 220 0
0.644509 0.018434 0.066796 255 220 0
0.570793 0.028487 0.021536 255 220 0
0.645338 0.032982 0.043025 255 220 0
0.623614 0.000216 0.088964 255 220 0
0.636909 0.001947 0.051015 255 220 0
0.580483 0.066602 0.067851 255 220 0
0.590730 -0.049416 0.060216 255 220 0
0.593071 -0.033219 0.022684 255 220 0
0.585861 -0.000941 0.012081 255 220 0
0.556328 -0.030011 0.059891 255 220 0
0.617896 0.071747 0.097796 255 220 0
0.564430 -0.002444 0.017412 255 220 0
0.604879 0.013584 0.100258 255 220 0
0.574950 0.056048 0.039372 255 220 0
0.596884 -0.046858 0.046428 255 220 0
0.566238 0.033019 0.055437 255 220 0
0.574705 0.030098 0.080378 255 220 0
0.593651 -0.008074 0.094246 255 220 0
0.627437 0.074636 0.095173 255 220 0
0.558098 -0.027876 0.012968 255 220 0
0.620696 -0.004139 0.088867 255 220 0
0.600541 0.047134 0.013980 255 220 0
0.646046 0.039982 0.043011 255 220 0
0.641671 0.018308 0.043803 255 220 0
0.636837 0.047665 0.029688 255 220 0
0.581813 -0.003677 0.012087 255 220 0
0.576620 0.042122 0.078845 255 220 0
0.575345 0.047559 0.027596 255 220 0
0.616201 0.057287 0.019125 255 220 0
0.615360 -0.025356 0.071027 255 220 0
0.569881 0.029678 0.070411 255 220 0
0.606436 0.006269 0.016328 255 220 0
0.646597 0.045068 0.044124 255 220 0
0.579943 0.021939 0.087825 255 220 0
0.603617 0.021321 0.012643 255 220 0
0.602447 0.087926 0.040738 255 220 0
0.638201 0.003351 0.061630 255 220 0
0.547364 -0.020128 0.027511 255 220 0
0.631390 0.032988 0.095297 255 220 0
0.650564 0.041864 0.065055 255 220 0
0.598523 -0.020827 0.020331 255 220 0
0.605083 0.073395 0.024603 255 220 0
0.628423 -0.001632 0.036149 255 220 0
0.582556 -0.037406 0.077304 255 220 0
0.631849 0.088190 0.044000 255 220 0
0.641274 0.019767 0.078635 255 220 0
0.543132 -0.053156 0.038158 255 220 0
0.633936 0.089877 0.082445 255 220 0
0.573390 0.014441 0.081677 255 220 0
0.561173 0.000058 0.062553 255 220 0
0.595489 0.033620 0.011634 255 220 0
0.641902 0.010677 0.056996 255 220 0
0.647852 0.078369 0.065614 255 220 0
0.588549 0.079924 0.067973 255 220 0
0.548759 -0.024848 0.045382 255 220 0
0.633406 0.034150 0.027062 255 220 0
0.587324 0.069377 0.081384 255 220 0
0.622981 -0.013656 0.075745 255 220 0
0.604119 0.078897 0.029159 255 220 0
0.552827 -0.041869 0.012589 255 220 0
0.607337 0.038668 0.013389 255 220 0
0.570328 0.046080 0.041067 255 220 0
0.617960 -0.027145 0.055638 255 220 0
0.591487 0.061391 0.090594 255 220 0
0.580373 0.048855 0.022023 255 220 0
0.582810 0.000199 0.090084 255 220 0
0.570786 0.034921 0.069595 255 220 0
0.631815 0.044510 0.025088 255 220 0
0.624199 -0.012234 0.075485 255 220 0
0.646898 0.066084 0.049031 255 220 0
0.580386 -0.055064 0.034076 255 220 0
0.592500 -0.029396 0.084641 255 220 0
0.593771 0.001750 0.012903 255 220 0
0.579273 -0.057785 0.043327 255 220 0
0.615931 0.098193 0.057934 255 220 0
0.628832 0.002955 0.085174 255 220 0
0.593888 -0.043836 0.032868 255 220 0
0.600419 0.027146 0.100746 255 220 0
0.544795 -0.050666 0.043285 255 220 0
0.638718 0.050509 0.032025 255 220 0
0.549308 -0.015265 0.031069 255 220 0
0.635052 0.000370 0.047037 255 220 0
0.612739 -0.026422 0.074006 255 220 0
0.538871 -0.047640 0.033550 255 220 0
0.631413 0.038046 0.024928 255 220 0
0.627550 0.098070 0.058800 255 220 0
0.629418 0.075163 0.094263 255 220 0
0.564134 -0.035160 0.067679 255 220 0
0.568964 -0.061423 0.040236 255 220 0
0.640257 0.007535 0.063282 255 220 0
0.566387 -0.020522 0.012578 255 220 0
0.628885 0.054691 0.097411 255 220 0
0.651231 0.048025 0.059031 255 220 0
0.550333 -0.043975 0.051965 255 220 0
0.584658 0.043601 0.016508 255 220 0
0.594140 0.045448 0.096375 255 220 0
0.600605 0.068950 0.022314 255 220 0
0.619092 -0.023154 0.066984 255 220 0
0.641188 0.028915 0.037130 255 220 0
0.604807 0.074290 0.025294 255 220 0
0.643607 0.015888 0.066403 255 220 0
0.600619 0.035771 0.012025 255 220 0
0.586167 -0.047251 0.068471 255 220 0
0.554263 -0.010898 0.051030 255 220 0
0.629633 0.037907 0.023631 255 220 0
0.566753 -0.018587 0.074239 255 220 0
0.635830 0.094261 0.073714 255 220 0
0.627637 -0.009916 0.071618 255 220 0
0.613926 0.033533 0.102163 255 220 0
0.575176 -0.038733 0.073463 255 220 0
0.546537 -0.032831 0.016600 255 220 0
0.598745 -0.042005 0.065252 255 220 0
0.619799 0.040379 0.017919 255 220 0
0.562765 -0.056194 0.054680 255 220 0
0.570355 0.029079 0.022419 255 220 0
0.607234 0.055356 0.016429 255 220 0
0.587016 0.079453 0.060098 255 220 0
0.644012 0.062839 0.042241 255 220 0
0.647393 0.029182 0.068778 255 220 0
0.539960 -0.042678 0.021100 255 220 0
0.588386 0.066900 0.027525 255 220 0
0.636848 0.071978 0.090974 255 220 0
0.550605 -0.012419 0.036120 255 220 0
0.646508 0.060278 0.080691 255 220 0
0.624479 0.010197 0.025781 255 220 0
0.542638 -0.031784 0.022809 255 220 0
0.593203 -0.018655 0.016846 255 220 0
0.594953 0.039838 0.012661 255 220 0
0.553836 -0.005063 0.032538 255 220 0
0.590252 -0.024771 0.087034 255 220 0
0.640381 0.007356 0.060433 255 220 0
0.596112 -0.017587 0.091516 255 220 0
0.613916 0.035659 0.102182 255 220 0
0.641648 0.071055 0.086605 255 220 0
0.563539 0.008481 0.065061 255 220 0
0.618168 0.044453 0.101241 255 220 0
0.542806 -0.039428 0.017611 255 220 0
0.637317 0.090485 0.078625 255 220 0
0.553022 -0.044372 0.012905 255 220 0
0.545592 -0.033764 0.043642 255 220 0
0.561937 -0.050437 0.058707 255 220 0
0.575313 0.020591 0.015239 255 220 0
0.562858 0.009520 0.063076 255 220 0
0.565110 -0.023586 0.071661 255 220 0
0.632791 0.009007 0.084677 255 220 0
0.539423 -0.036959 0.026649 255 220 0
0.628940 0.081727 0.036138 255 220 0
0.615584 0.096915 0.053158 255 220 0
0.603851 -0.035854 0.070508 255 220 0
0.541128 -0.032724 0.030368 255 220 0
0.574994 -0.059574 0.043119 255 220 0
0.618826 0.007770 0.022589 255 220 0
0.622321 -0.019861 0.065309 255 220 0
0.593956 0.076291 0.032144 255 220 0
0.597139 0.016038 0.011723 255 220 0
0.554900 -0.052265 0.016180 255 220 0
0.643125 0.023556 0.043305 255 220 0
0.644692 0.078103 0.051597 255 220 0
0.613205 0.096606 0.072592 255 220 0
0.584488 0.062435 0.081771 255 220 0
0.565059 -0.044046 0.014218 255 220 0
0.633402 0.077047 0.036666 255 220 0
0.601794 0.037749 0.012356 255 220 0
0.644746 0.061570 0.043123 255 220 0
0.611081 0.034121 0.014319 255 220 0
0.571881 0.033871 0.022990 255 220 0
0.546815 -0.031728 0.016903 255 220 0
0.610308 0.093694 0.046587 255 220 0
0.622939 0.073793 0.028361 255 220 0
0.538838 -0.048571 0.032206 255 220 0
0.566844 -0.005639 0.074626 255 220 0
0.644963 0.073289 0.048751 255 220 0
0.648107 0.038098 0.073145 255 220 0
0.578322 0.057155 0.072374 255 220 0
0.638228 0.035746 0.031777 255 220 0
0.575809 -0.024163 0.080435 255 220 0
0.640381 0.008741 0.051502 255 220 0
0.575238 0.038536 0.021382 255 220 0
0.644360 0.064511 0.043409 255 220 0
0.575795 0.044316 0.075677 255 220 0
0.640928 0.021302 0.080389 255 220 0
0.548466 -0.057127 0.041314 255 220 0
0.539747 -0.042590 0.021548 255 220 0
0.600901 0.076717 0.028265 255 220 0
0.639589 0.052042 0.090000 255 220 0
0.555173 -0.040875 0.057535 255 220 0
0.646428 0.043061 0.043723 255 220 0
0.631702 0.057532 0.095926 255 220 0
0.573496 0.032419 0.020200 255 220 0
0.574195 -0.016599 0.081504 255 220 0
0.651118 0.051896 0.057925 255 220 0
0.577132 -0.048703 0.067343 255 220 0
0.637771 0.065613 0.091373 255 220 0
0.597277 0.081923 0.036204 255 220 0
0.571615 -0.034820 0.073372 255 220 0
0.540999 -0.041414 0.039058 255 220 0
0.575775 -0.008354 0.084153 255 220 0
0.616034 0.086149 0.089505 255 220 0
0.597547 -0.017179 0.091832 255 220 0
0.588282 0.003533 0.011949 255 220 0
0.544344 -0.026530 0.026212 255 220 0
0.588045 -0.013197 0.013744 255 220 0
0.630201 0.018360 0.027898 255 220 0
0.618137 -0.022777 0.070163 255 220 0
0.641013 0.086928 0.053292 255 220 0
0.641574 0.011825 0.050831 255 220 0
0.637023 0.080789 0.087193 255 220 0
0.610291 0.006101 0.098384 255 220 0
0.600256 -0.043878 0.045533 255 220 0
0.587120 0.022042 0.093624 255 220 0
0.609252 0.067380 0.098414 255 220 0
0.616987 0.046150 0.101324 255 220 0
0.575527 0.040213 0.022006 255 220 0
0.614532 -0.025773 0.071912 255 220 0
0.639004 0.013357 0.077968 255 220 0
0.587084 0.007631 0.093297 255 220 0
0.597448 -0.032584 0.081208 255 220 0
0.598749 -0.003173 0.015296 255 220 0
0.562857 0.012669 0.061643 255 220 0
0.637826 0.064084 0.091473 255 220 0
0.609393 -0.036266 0.054520 255 220 0
0.615755 0.088880 0.086755 255 220 0
0.537898 -0.042940 0.030270 255 220 0
0.574534 0.057911 0.047974 255 220 0
0.585541 0.047329 0.017551 255 220 0
0.591694 0.083340 0.048179 255 220 0
0.582533 -0.012082 0.088085 255 220 0
0.553579 -0.005284 0.039127 255 220 0
0.578708 0.066812 0.051868 255 220 0
0.572446 -0.025572 0.077592 255 220 0
0.609488 0.067936 0.098299 255 220 0
0.549344 -0.023392 0.019626 255 220 0
0.636214 0.010397 0.080584 255 220 0
0.568004 -0.007023 0.076339 255 220 0
0.595982 0.088661 0.058768 255 220 0
0.554269 -0.010947 0.051078 255 220 0
0.561008 -0.008526 0.017684 255 220 0
0.611978 0.057774 0.100502 255 220 0
0.589559 0.015150 0.095164 255 220 0
0.603779 -0.004689 0.096659 255 220 0
0.651165 0.057419 0.060201 255 220 0
0.614011 0.096827 0.072764 255 220 0
0.639511 0.008360 0.048544 255 220 0
0.647133 0.055909 0.046545 255 220 0
0.643268 0.027781 0.079611 255 220 0
0.643619 0.031741 0.080784 255 220 0
0.547266 -0.028904 0.044363 255 220 0
0.643752 0.062582 0.041720 255 220 0
0.645008 0.022654 0.071057 255 220 0
0.539229 -0.045966 0.035560 255 220 0
0.637537 0.081174 0.086548 255 220 0
0.579206 0.040198 0.083898 255 220 0
0.573653 0.036917 0.022381 255 220 0
0.615549 -0.024765 0.071792 255 220 0
0.609112 0.045140 0.014540 255 220 0
0.640534 0.018362 0.079098 255 220 0
0.638972 0.025833 0.035080 255 220 0
0.630517 0.080857 0.091227 255 220 0
0.597793 -0.030958 0.024863 255 220 0
0.545649 -0.041502 0.046171 255 220 0
0.568343 -0.055913 0.057818 255 220 0
0.627696 0.050032 0.098056 255 220 0
0.641779 0.034552 0.084749 255 220 0
0.556411 -0.058129 0.022294 255 220 0
0.626838 0.095197 0.051017 255 220 0
0.585967 -0.029792 0.083096 255 220 0
0.566905 0.006876 0.072780 255 220 0
0.564415 0.020686 0.027740 255 220 0
0.566347 0.023372 0.025627 255 220 0
0.596099 0.087681 0.068701 255 220 0
0.565372 0.028530 0.057508 255 220 0
0.608698 0.096288 0.058607 255 220 0
0.553221 -0.056852 0.020820 255 220 0
0.641172 0.033973 0.035748 255 220 0
0.581589 0.067856 0.069736 255 220 0
0.558815 -0.006182 0.020721 255 220 0
0.588842 -0.034394 0.080738 255 220 0
0.645233 0.052298 0.082710 255 220 0
0.581129 0.068644 0.066613 255 220 0
0.610628 0.093483 0.077523 255 220 0
0.604753 0.091012 0.076799 255 220 0
0.596317 0.023292 0.011153 255 220 0
0.563585 -0.012858 0.070023 255 220 0
0.581312 0.043114 0.018251 255 220 0
0.566762 -0.010349 0.074677 255 220 0
0.579832 0.036220 0.016488 255 220 0
0.585692 0.055128 0.087087 255 220 0
0.649116 0.070359 0.070259 255 220 0
0.576951 -0.016522 0.012270 255 220 0
0.562253 -0.060264 0.027322 255 220 0
0.560321 -0.038327 0.012174 255 220 0
0.609096 0.076094 0.094778 255 220 0
0.572509 -0.059489 0.035763 255 220 0
0.570025 0.013354 0.017369 255 220 0
0.566851 0.036924 0.043802 255 220 0
0.635023 0.041500 0.093427 255 220 0
0.629057 -0.005283 0.075857 255 220 0
0.630021 0.049089 0.024208 255 220 0
0.566591 0.005640 0.072452 255 220 0
0.627170 -0.014827 0.056667 255 220 0
0.596386 0.071428 0.090206 255 220 0
0.602652 0.066261 0.020457 255 220 0
0.622208 0.044196 0.100279 255 220 0
0.587488 0.003731 0.011900 255 220 0
0.561773 0.016519 0.055003 255 220 0
0.631308 0.089918 0.084089 255 220 0
0.572995 0.040425 0.071565 255 220 0
0.572155 0.050954 0.057875 255 220 0
0.624444 -0.018720 0.054281 255 220 0
0.539884 -0.048821 0.035581 255 220 0
0.639551 0.061591 0.035610 255 220 0
0.626115 0.052332 0.022402 255 220 0
0.568639 0.041785 0.053747 255 220 0
0.614255 -0.029397 0.064260 255 220 0
0.636903 0.008540 0.077388 255 220 0
0.608622 -0.007639 0.021437 255 220 0
0.632927 0.091387 0.049048 255 220 0
0.582027 -0.001422 0.012078 255 220 0
0.559611 -0.052922 0.017353 255 220 0
0.558876 -0.009162 0.019100 255 220 0
0.639878 0.010059 0.071557 255 220 0
0.645735 0.060760 0.082105 255 220 0
0.636926 0.001811 0.064860 255 220 0
0.578128 0.057660 0.071461 255 220 0
0.579221 -0.020215 0.012812 255 220 0
0.553299 -0.023784 0.054085 255 220 0
0.599429 0.028667 0.011485 255 220 0
0.638045 0.021243 0.035728 255 220 0
0.617559 0.061407 0.099914 255 220 0
0.570507 0.001454 0.014897 255 220 0
0.595383 0.026290 0.098710 255 220 0
0.594299 0.040278 0.012822 255 220 0
0.560483 0.006954 0.058003 255 220 0
0.586968 0.079504 0.058295 255 220 0
0.578124 0.055998 0.072833 255 220 0
0.569954 -0.059327 0.031527 255 220 0
0.580348 -0.055765 0.035960 255 220 0
0.646034 0.080762 0.073791 255 220 0
0.623326 0.062545 0.023819 255 220 0
0.545289 -0.055668 0.023973 255 220 0
0.571949 0.044429 0.031586 255 220 0
0.601558 0.023344 0.011951 255 220 0
0.621398 0.021558 0.020621 255 220 0
0.637119 0.017986 0.035959 255 220 0
0.571630 0.016115 0.016767 255 220 0
0.603742 -0.040782 0.045803 255 220 0
0.576586 -0.056321 0.031768 255 220 0
0.609630 -0.034272 0.044135 255 220 0
0.579928 -0.057631 0.048795 255 220 0
0.635410 0.075134 0.037380 255 220 0
0.569727 0.031936 0.068733 255 220 0
0.646495 0.023845 0.056287 255 220 0
0.633516 0.077554 0.037049 255 220 0
0.634658 0.032467 0.092524 255 220 0
0.630851 -0.003325 0.074890 255 220 0
0.556531 -0.052499 0.016476 255 220 0
0.638203 0.093425 0.071247 255 220 0
0.566875 0.031710 0.060344 255 220 0
0.617353 -0.027019 0.048779 255 220 0
0.546092 -0.042624 0.046909 255 220 0
0.609067 -0.006709 0.094935 255 220 0
0.566029 0.015320 0.021897 255 220 0
0.600710 -0.030429 0.081880 255 220 0
0.570559 -0.041350 0.014922 255 220 0
0.623833 0.063391 0.098550 255 220 0
0.609301 0.079863 0.029128 255 220 0
0.551259 -0.016805 0.046482 255 220 0
0.596820 0.037361 0.098794 255 220 0
0.551420 -0.011724 0.040664 255 220 0
0.567122 -0.060298 0.031262 255 220 0
0.584123 -0.031435 0.016791 255 220 0
0.618492 0.079764 0.030040 255 220 0
0.548079 -0.039529 0.049199 255 220 0
0.643767 0.023796 0.044655 255 220 0
0.604228 0.081780 0.031838 255 220 0
0.597066 0.089533 0.058467 255 220 0
0.611148 0.048531 0.015578 255 220 0
0.570668 0.047937 0.053873 255 220 0
0.599412 -0.029564 0.025277 255 220 0
0.570642 0.035790 0.026283 255 220 0
0.569769 0.044049 0.057197 255 220 0
0.561378 -0.027438 0.012445 255 220 0
0.624528 -0.016032 0.067775 255 220 0
0.621529 0.005459 0.093360 255 220 0
0.648818 0.067647 0.055026 255 220 0
0.590476 0.004073 0.094964 255 220 0
0.569468 0.043077 0.038918 255 220 0
0.554872 -0.001769 0.039786 255 220 0
0.551584 -0.059254 0.026185 255 220 0
0.641057 0.009749 0.052820 255 220 0
0.593457 -0.025434 0.087226 255 220 0
0.546554 -0.040840 0.047317 255 220 0
0.564902 0.017015 0.024370 255 220 0
0.593469 0.012592 0.097173 255 220 0
0.558447 -0.051151 0.055868 255 220 0
0.624423 -0.008109 0.080578 255 220 0
0.640889 0.059974 0.088809 255 220 0
0.634749 0.060353 0.093993 255 220 0
0.591443 -0.049631 0.040035 255 220 0
0.571246 0.041173 0.066606 255 220 0
0.595899 0.053353 0.016255 255 220 0
0.576313 0.052531 0.030591 255 220 0
0.616070 0.019372 0.018102 255 220 0
0.638251 0.012755 0.040939 255 220 0
0.599416 0.011448 0.012804 255 220 0
0.546128 -0.022219 0.032627 255 220 0
0.591685 -0.041910 0.028017 255 220 0
0.588120 0.079421 0.047167 255 220 0
0.586419 0.000437 0.012037 255 220 0
0.603588 0.031028 0.012194 255 220 0
0.594581 0.082558 0.078111 255 220 0
0.585416 -0.020908 0.087014 255 220 0
0.641137 0.009161 0.055726 255 220 0
0.613981 -0.031338 0.050267 255 220 0
0.634006 0.002641 0.041550 255 220 0
0.575104 0.056709 0.040052 255 220 0
0.560604 0.005626 0.025190 255 220 0
0.566503 -0.040264 0.013468 255 220 0
0.592922 0.016942 0.011193 255 220 0
0.619446 -0.001160 0.026334 255 220 0
0.620019 0.057338 0.020616 255 220 0
0.621822 0.045310 0.100344 255 220 0
0.565648 -0.031242 0.070311 255 220 0
0.630406 0.088183 0.042796 255 220 0
0.598315 -0.017151 0.091875 255 220 0
0.636072 0.075878 0.090301 255 220 0
0.604204 0.044359 0.100792 255 220 0
0.609761 0.049005 0.015347 255 220 0
0.598325 0.090155 0.065169 255 220 0
0.617222 -0.027964 0.056733 255 220 0
0.604739 0.079585 0.090680 255 220 0
0.612551 -0.021317 0.031966 255 220 0
0.631666 0.023889 0.093039 255 220 0
0.569377 0.033703 0.027121 255 220 0
0.638273 0.006650 0.071045 255 220 0
0.596071 0.060749 0.094333 255 220 0
0.567748 -0.012894 0.075899 255 220 0
0.625796 0.003105 0.088666 255 220 0
0.601532 -0.014547 0.019733 255 220 0
0.594849 0.040056 0.012716 255 220 0
0.603098 0.043046 0.100634 255 220 0
0.568399 -0.027450 0.012151 255 220 0
0.617720 -0.016322 0.080884 255 220 0
0.637082 0.002688 0.049890 255 220 0
0.588677 0.052886 0.090790 255 220 0
0.627249 -0.003810 0.036244 255 220 0
0.603131 -0.039831 0.041433 255 220 0
0.579698 0.013363 0.088127 255 220 0
0.567586 0.016368 0.020423 255 220 0
0.610342 -0.031999 0.041173 255 220 0
0.578496 -0.031225 0.014554 255 220 0
0.597005 0.013842 0.098787 255 220 0
0.577792 -0.052276 0.063938 255 220 0
0.593986 0.021507 0.011045 255 220 0
0.647444 0.035986 0.074026 255 220 0
0.587618 -0.032826 0.019046 255 220 0
0.570239 0.022079 0.074956 255 220 0
0.560052 -0.056082 0.053074 255 220 0
0.574467 0.057705 0.047573 255 220 0
0.585755 -0.004724 0.012304 255 220 0
0.611312 0.043545 0.101869 255 220 0
0.562112 -0.059972 0.049873 255 220 0
0.580312 0.009253 0.088673 255 220 0
0.631564 0.097600 0.068528 255 220 0
0.598257 0.079510 0.086158 255 220 0
0.589584 -0.032118 0.082473 255 220 0
0.590920 -0.051361 0.050472 255 220 0
0.601804 -0.007393 0.095850 255 220 0
0.580079 0.068834 0.048436 255 220 0
0.629320 0.098536 0.067174 255 220 0
0.635280 0.095961 0.068058 255 220 0
0.571798 0.048635 0.038479 255 220 0
0.596235 0.019968 0.011272 255 220 0
0.609245 -0.006654 0.021472 255 220 0
0.589199 -0.013588 0.091086 255 220 0
0.577908 0.052980 0.074587 255 220 0
0.545886 -0.028386 0.041018 255 220 0
0.546130 -0.036012 0.015657 255 220 0
0.598029 -0.029518 0.024171 255 220 0
0.645696 0.021541 0.055149 255 220 0
0.552632 -0.010166 0.044435 255 220 0
0.599862 -0.041508 0.038333 255 220 0
0.600004 0.075840 0.090327 255 220 0
0.636649 0.063086 0.092485 255 220 0
0.606498 0.074635 0.025383 255 220 0
0.581406 0.016480 0.089428 255 220 0
0.574614 0.006312 0.083708 255 220 0
0.640112 0.091245 0.072679 255 220 0
0.647650 0.039260 0.074985 255 220 0
0.642251 0.021588 0.042709 255 220 0
0.610488 0.067113 0.021216 255 220 0
0.636759 0.038602 0.029799 255 220 0
0.580633 0.012947 0.088902 255 220 0
0.637301 0.009943 0.078078 255 220 0
0.600949 0.069804 0.022786 255 220 0
0.633899 -0.004107 0.054997 255 220 0
0.649789 0.036177 0.058624 255 220 0
0.640624 0.040181 0.087597 255 220 0
0.624153 0.041573 0.099693 255 220 0
0.575670 0.043476 0.075933 255 220 0
0.578436 0.053574 0.075384 255 220 0
0.581681 0.017717 0.089604 255 220 0
0.629976 0.025892 0.025672 255 220 0
0.604942 -0.034546 0.071450 255 220 0
0.617751 0.021778 0.018540 255 220 0
0.586533 -0.037005 0.078500 255 220 0
0.643313 0.054530 0.039070 255 220 0
0.598391 -0.045186 0.044273 255 220 0
0.639902 0.006863 0.054186 255 220 0
0.617216 0.099070 0.062197 255 220 0
0.609031 -0.028063 0.033870 255 220 0
0.627204 0.098993 0.063104 255 220 0
0.551978 -0.031287 0.014003 255 220 0
0.592402 -0.020989 0.017193 255 220 0
0.565202 -0.009304 0.015007 255 220 0
0.552639 -0.009166 0.042756 255 220 0
0.623874 0.063064 0.024290 255 220 0
0.636676 0.025481 0.032340 255 220 0
0.554805 -0.016692 0.054946 255 220 0
0.609328 -0.035504 0.046632 255 220 0
0.593626 0.063756 0.021558 255 220 0
0.564775 0.011449 0.021889 255 220 0
0.617096 0.086724 0.035216 255 220 0
0.571290 -0.053819 0.023200 255 220 0
0.639860 0.061956 0.036100 255 220 0
0.605741 0.066320 0.020376 255 220 0
0.632519 0.020745 0.091209 255 220 0
0.607176 0.013543 0.015082 255 220 0
0.541713 -0.046065 0.040449 255 220 0
0.559178 -0.012812 0.062171 255 220 0
0.571664 0.024356 0.018868 255 220 0
0.646714 0.023877 0.059794 255 220 0
0.648669 0.047097 0.074691 255 220 0
0.592084 -0.032038 0.021388 255 220 0
0.592986 0.079510 0.079969 255 220 0
0.542621 -0.032600 0.036781 255 220 0
0.596152 0.014193 0.011766 255 220 0
0.594951 0.016392 0.011389 255 220 0
0.644171 0.025857 0.044186 255 220 0
0.589945 0.080768 0.045447 255 220 0
0.637914 0.020970 0.035666 255 220 0
0.578892 0.059327 0.033222 255 220 0
0.607913 0.048267 0.014844 255 220 0
0.634551 0.095037 0.073618 255 220 0
0.596069 -0.012532 0.093529 255 220 0
0.614102 0.057952 0.100524 255 220 0
0.584851 0.063475 0.028252 255 220 0
0.646264 0.042244 0.079131 255 220 0
0.625163 0.098195 0.073336 255 220 0
0.629524 0.064812 0.028239 255 220 0
0.554577 -0.004009 0.044585 255 220 0
0.579940 0.056380 0.028228 255 220 0
0.592429 -0.008235 0.093790 255 220 0
0.570993 0.023124 0.019120 255 220 0
0.584125 0.040340 0.089303 255 220 0
0.626592 0.098676 0.060407 255 220 0
0.619480 -0.018919 0.074287 255 220 0
0.556623 -0.001397 0.027811 255 220 0
0.626144 -0.012507 0.070662 255 220 0
0.578508 0.025826 0.014449 255 220 0
0.617186 0.001197 0.023744 255 220 0
0.563671 -0.062582 0.037855 255 220 0
0.555552 -0.011359 0.054509 255 220 0
0.615700 -0.004294 0.024847 255 220 0
0.579211 0.046214 0.081637 255 220 0
0.565415 0.000961 0.071184 255 220 0
0.574011 0.042995 0.026031 255 220 0
0.591588 0.084357 0.063363 255 220 0
0.576783 -0.013139 0.084162 255 220 0
0.612842 0.065189 0.099403 255 220 0
0.574082 0.034650 0.020636 255 220 0
0.646087 0.035352 0.077201 255 220 0
0.649512 0.054414 0.052048 255 220 0
0.567372 0.027480 0.026451 255 220 0
0.591113 0.040744 0.095038 255 220 0
0.540046 -0.036361 0.024590 255 220 0
0.554689 -0.047258 0.013618 255 220 0
0.614688 0.086328 0.034608 255 220 0
0.592764 0.083381 0.045323 255 220 0
0.578303 -0.005717 0.086382 255 220 0
0.552111 -0.014309 0.023420 255 220 0
0.607443 -0.018348 0.089014 255 220 0
0.607144 0.064483 0.098671 255 220 0
0.612200 -0.030943 0.065527 255 220 0
0.574185 -0.055602 0.059779 255 220 0
0.546301 -0.031219 0.017658 255 220 0
0.587450 -0.033306 0.081313 255 220 0
0.568607 -0.048713 0.063911 255 220 0
0.564204 -0.003637 0.017182 255 220 0
0.558730 0.009756 0.045593 255 220 0
0.586117 0.008276 0.011714 255 220 0
0.602587 0.046148 0.013803 255 220 0
0.601359 0.028376 0.101032 255 220 0
0.610514 0.096625 0.056561 255 220 0
0.640985 0.084289 0.050430 255 220 0
0.578819 0.061596 0.036462 255 220 0
0.580076 0.069142 0.050506 255 220 0
0.588272 -0.048049 0.066019 255 220 0
0.622797 0.019086 0.022025 255 220 0
0.593269 0.078522 0.035692 255 220 0
0.578697 -0.055829 0.033458 255 220 0
0.552031 -0.055738 0.047109 255 220 0
0.579494 0.048754 0.080872 255 220 0
0.589188 0.076192 0.077643 255 220 0
0.595328 -0.020091 0.090261 255 220 0
0.562151 -0.017845 0.014080 255 220 0
0.578626 -0.045984 0.020921 255 220 0
0.646568 0.023768 0.057387 255 220 0
0.626105 -0.013835 0.067908 255 220 0
0.561700 -0.011110 0.066474 255 220 0
0.646781 0.072102 0.052005 255 220 0
0.618218 -0.013335 0.032129 255 220 0
0.572711 0.051784 0.059541 255 220 0
0.586231 -0.042512 0.023631 255 220 0
0.547198 -0.039370 0.014308 255 220 0
0.589763 -0.051104 0.040767 255 220 0
0.631587 0.053726 0.026130 255 220 0
0.637514 0.085704 0.083344 255 220 0
0.567425 0.037805 0.053733 255 220 0
0.597964 0.073787 0.026859 255 220 0
0.592162 -0.001030 0.095123 255 220 0
0.640815 0.009938 0.067416 255 220 0
0.628415 0.003141 0.085845 255 220 0
0.617400 -0.015795 0.033098 255 220 0
0.590857 0.070935 0.085099 255 220 0
0.610817 0.019973 0.100975 255 220 0
0.585806 -0.051497 0.034185 255 220 0
0.610397 0.061439 0.099872 255 220 0
0.588430 0.048693 0.091590 255 220 0
0.628212 0.091863 0.045957 255 220 0
0.621610 0.010474 0.095162 255 220 0
0.573747 0.056333 0.051086 255 220 0
0.643712 0.027066 0.078277 255 220 0
0.605554 0.052994 0.100142 255 220 0
0.623007 0.096686 0.077194 255 220 0
0.584980 0.035064 0.090925 255 220 0
0.632319 0.033630 0.026174 255 220 0
0.635145 0.067277 0.093098 255 220 0
0.559112 -0.001565 0.058495 255 220 0
0.563188 -0.030643 0.068160 255 220 0
0.546382 -0.047014 0.015381 255 220 0
0.605389 0.029617 0.012616 255 220 0
0.581433 -0.006596 0.012136 255 220 0
0.587321 -0.035569 0.020141 255 220 0
0.594482 -0.043165 0.068653 255 220 0
0.541913 -0.052180 0.036830 255 220 0
0.608703 -0.002635 0.096548 255 220 0
0.607057 0.002642 0.017509 255 220 0
0.616870 -0.009239 0.088797 255 220 0
0.553501 -0.048439 0.014066 255 220 0
0.564377 -0.016145 0.071376 255 220 0
0.558299 -0.061241 0.045254 255 220 0
0.564868 0.019998 0.063142 255 220 0
0.598299 0.001052 0.014272 255 220 0
0.597863 0.046234 0.098272 255 220 0
0.627021 0.058615 0.024557 255 220 0
0.650366 0.050829 0.070046 255 220 0
0.617089 0.093776 0.045033 255 220 0
0.579723 -0.019636 0.012830 255 220 0
0.592744 0.077537 0.081906 255 220 0
0.627064 -0.005883 0.078873 255 220 0
0.601736 -0.018978 0.090647 255 220 0
0.561205 0.011707 0.057178 255 220 0
0.593678 -0.032239 0.022564 255 220 0
0.622481 0.092785 0.083280 255 220 0
0.614820 0.005255 0.020892 255 220 0
0.619703 -0.006978 0.029484 255 220 0
0.595080 0.084607 0.043583 255 220 0
0.572592 -0.008056 0.081447 255 220 0
0.566006 -0.012032 0.014056 255 220 0
0.560474 0.014982 0.049111 255 220 0
0.565871 0.033801 0.049429 255 220 0
0.587722 0.079157 0.047819 255 220 0
0.636538 0.013389 0.037612 255 220 0
0.622418 0.084982 0.035089 255 220 0
0.650774 0.042415 0.063802 255 220 0
0.605884 -0.038856 0.058103 255 220 0
0.565609 0.014585 0.022137 255 220 0
0.627419 -0.006294 0.077698 255 220 0
0.560448 -0.005405 0.019489 255 220 0
0.573115 0.024471 0.017603 255 220 0
0.560439 -0.008872 0.063599 255 220 0
0.581948 0.041975 0.086723 255 220 0
0.593075 0.060748 0.092159 255 220 0
0.552580 -0.045078 0.013095 255 220 0
0.647256 0.033743 0.073267 255 220 0
0.642645 0.026216 0.079998 255 220 0
0.630297 0.068695 0.030292 255 220 0
0.630683 0.098170 0.065444 255 220 0
0.553688 -0.019444 0.018014 255 220 0
0.545996 -0.024559 0.037433 255 220 0
0.642327 0.020454 0.043676 255 220 0
0.580756 0.064971 0.036860 255 220 0
0.567690 -0.013181 0.013329 255 220 0
0.591071 -0.008131 0.093292 255 220 0
0.572623 0.031355 0.075965 255 220 0
0.569674 0.024988 0.072417 255 220 0
0.566825 -0.026030 0.012132 255 220 0
0.596892 0.086721 0.045352 255 220 0
0.620009 0.069654 0.025140 255 220 0
0.592561 0.081668 0.075803 255 220 0
0.568368 -0.010944 0.013514 255 220 0
0.567906 0.040364 0.046621 255 220 0
0.619960 -0.011832 0.033047 255 220 0
0.628398 0.084994 0.038229 255 220 0
0.649156 0.040269 0.070810 255 220 0
0.561863 -0.002966 0.064917 255 220 0
0.541846 -0.038826 0.039635 255 220 0
0.559416 0.010939 0.049350 255 220 0
0.602558 0.051207 0.014998 255 220 0
0.607955 -0.002447 0.019363 255 220 0
0.575376 0.023716 0.082757 255 220 0
0.572553 0.041868 0.069580 255 220 0
0.582785 0.055432 0.023946 255 220 0
0.604069 0.022377 0.012673 255 220 0
0.543595 -0.050540 0.041548 255 220 0
0.624683 -0.007396 0.035643 255 220 0
0.614823 0.084798 0.033191 255 220 0
0.581093 0.055411 0.025818 255 220 0
0.651241 0.055497 0.059842 255 220 0
0.575677 0.012982 0.084412 255 220 0
0.574705 0.057592 0.044625 255 220 0
0.546365 -0.024859 0.022806 255 220 0
0.623201 0.055579 0.099390 255 220 0
0.629957 0.080662 0.036134 255 220 0
0.646983 0.049395 0.045268 255 220 0
0.621947 -0.021753 0.060393 255 220 0
0.562625 0.002838 0.064857 255 220 0
0.569625 0.029972 0.069629 255 220 0
0.590302 0.082110 0.067771 255 220 0
0.591062 0.029165 0.011421 255 220 0
0.590881 0.070585 0.028662 255 220 0
0.603809 -0.033558 0.074823 255 220 0
0.602125 -0.042196 0.045482 255 220 0
0.574357 0.040774 0.074579 255 220 0
0.592312 0.024698 0.011057 255 220 0
0.588000 -0.042576 0.025135 255 220 0
0.617810 0.046408 0.101183 255 220 0
0.624397 -0.018498 0.052355 255 220 0
0.542667 -0.030342 0.033568 255 220 0
0.617277 0.030643 0.017071 255 220 0
0.607677 0.093159 0.047135 255 220 0
0.577883 0.065249 0.051970 255 220 0
0.638519 0.022870 0.035667 255 220 0
0.626902 0.096746 0.076486 255 220 0
0.544936 -0.024696 0.028535 255 220 0
0.598095 0.067156 0.021847 255 220 0
0.606788 0.090047 0.080621 255 220 0
0.642920 0.030853 0.081671 255 220 0
0.628128 0.075039 0.094805 255 220 0
0.591475 -0.051033 0.049579 255 220 0
0.637700 0.013025 0.039768 255 220 0
0.623750 0.057268 0.099123 255 220 0
0.629385 -0.008251 0.045444 255 220 0
0.634659 -0.001169 0.067492 255 220 0
0.620374 -0.020087 0.042559 255 220 0
0.556554 -0.008355 0.055471 255 220 0
0.585127 -0.054852 0.044943 255 220 0
0.622182 0.099353 0.061553 255 220 0
0.553085 -0.013394 0.049345 255 220 0
0.583494 -0.050945 0.064500 255 220 0
0.563317 -0.061785 0.032739 255 220 0
0.593878 0.085920 0.050560 255 220 0
0.568994 0.004012 0.016141 255 220 0
0.638698 0.093480 0.061819 255 220 0
0.623564 -0.005908 0.084154 255 220 0
0.600622 0.045049 0.099598 255 220 0
0.567978 0.039696 0.040907 255 220 0
0.624075 -0.001117 0.030502 255 220 0
0.617030 -0.025968 0.045003 255 220 0
0.594453 0.048901 0.015084 255 220 0
0.594697 -0.012804 0.015910 255 220 0
0.595475 0.008455 0.097687 255 220 0
0.577433 0.046559 0.077960 255 220 0
0.621911 0.069233 0.098018 255 220 0
0.619798 0.043359 0.100961 255 220 0
0.557198 0.003963 0.033847 255 220 0
0.568128 -0.041033 0.068113 255 220 0
0.615654 0.078386 0.028496 255 220 0
0.593514 -0.042136 0.030243 255 220 0
0.566788 -0.006179 0.074578 255 220 0
0.583651 0.042856 0.016734 255 220 0
0.621226 0.086804 0.036271 255 220 0
0.568991 0.043378 0.051803 255 220 0
0.601176 0.010833 0.013414 255 220 0
0.590747 0.076374 0.035776 255 220 0
0.599018 0.024720 0.100235 255 220 0
0.606273 -0.024258 0.084667 255 220 0
0.568640 -0.032291 0.012495 255 220 0
0.643880 0.016496 0.066164 255 220 0
0.578943 -0.035748 0.076935 255 220 0
0.641733 0.049542 0.087441 255 220 0
0.637760 0.021570 0.085561 255 220 0
0.636216 0.005074 0.074516 255 220 0
0.561152 0.015616 0.033000 255 220 0
0.579190 0.065134 0.065387 255 220 0
0.599051 -0.045391 0.049559 255 220 0
0.622266 -0.019881 0.065439 255 220 0
0.612845 0.092614 0.080663 255 220 0
0.543910 -0.055217 0.036482 255 220 0
0.591983 -0.046669 0.034521 255 220 0
0.646764 0.035007 0.045576 255 220 0
0.575964 0.022470 0.083666 255 220 0
0.565121 0.007086 0.069038 255 220 0
0.551186 -0.015011 0.044577 255 220 0
0.605567 -0.024579 0.084853 255 220 0
0.592137 -0.050569 0.047781 255 220 0
0.603106 -0.020456 0.089382 255 220 0
0.641875 0.010452 0.059263 255 220 0
0.562290 0.006584 0.062848 255 220 0
0.556516 -0.014470 0.057570 255 220 0
0.602228 0.012148 0.013515 255 220 0
0.547893 -0.058738 0.028899 255 220 0
0.625202 0.067209 0.097652 255 220 0
0.603382 0.076350 0.092118 255 220 0
0.569290 -0.001362 0.077878 255 220 0
0.576459 -0.057484 0.034799 255 220 0
0.604002 0.057727 0.099024 255 220 0
0.604395 0.082777 0.087840 255 220 0
0.593475 0.082446 0.041773 255 220 0
0.607645 -0.002676 0.019264 255 220 0
0.630234 0.047250 0.024139 255 220 0
0.550512 -0.038273 0.052272 255 220 0
0.596238 -0.045995 0.059494 255 220 0
0.572917 0.027530 0.078161 255 220 0
0.562971 -0.014146 0.069155 255 220 0
0.569753 -0.026577 0.012195 255 220 0
0.602547 -0.002958 0.097188 255 220 0
0.617851 0.075196 0.096558 255 220 0
0.577872 -0.011018 0.085313 255 220 0
0.613094 0.093576 0.045122 255 220 0
0.635297 0.007643 0.079604 255 220 0
0.635725 0.016928 0.034553 255 220 0
0.555559 -0.021399 0.057523 255 220 0
0.588318 0.043621 0.015029 255 220 0
0.605417 0.094697 0.057313 255 220 0
0.629002 -0.006210 0.041572 255 220 0
0.599878 0.015665 0.099845 255 220 0
0.579680 0.025133 0.013787 255 220 0
0.618890 0.057392 0.020166 255 220 0
0.591417 -0.029954 0.019973 255 220 0
0.589156 -0.052125 0.043505 255 220 0
0.592616 0.085314 0.053471 255 220 0
0.598068 0.087599 0.045445 255 220 0
0.605458 -0.038156 0.042887 255 220 0
0.627432 0.065885 0.027340 255 220 0
0.584377 0.063714 0.080667 255 220 0
0.567186 -0.010100 0.075257 255 220 0
0.570816 -0.007648 0.079689 255 220 0
0.607854 0.050822 0.015361 255 220 0
0.629728 0.097799 0.071044 255 220 0
0.585416 0.052680 0.020150 255 220 0
0.631967 0.020686 0.028817 255 220 0
0.638366 0.085533 0.047944 255 220 0
0.633812 0.046588 0.094638 255 220 0
0.634649 0.026951 0.091202 255 220 0
0.618231 -0.007247 0.028256 255 220 0
0.616880 0.062084 0.020899 255 220 0
0.571617 0.050756 0.053099 255 220 0
0.579504 0.042505 0.083569 255 220 0
0.562654 0.023452 0.046074 255 220 0
0.628702 0.033333 0.023396 255 220 0
0.610499 0.078904 0.093578 255 220 0
0.644150 0.058452 0.041237 255 220 0
0.644378 0.048255 0.083592 255 220 0
0.602398 0.047878 0.099881 255 220 0
0.630364 0.097827 0.061044 255 220 0
0.625780 0.099371 0.065832 255 220 0
0.586901 0.054315 0.088665 255 220 0
0.591419 -0.013506 0.014840 255 220 0
0.614706 0.034710 0.102091 255 220 0
0.590034 0.081162 0.046322 255 220 0
0.636486 0.000135 0.059480 255 220 0
0.621852 0.057928 0.099563 255 220 0
0.599422 0.033870 0.100213 255 220 0
0.593872 0.065460 0.022465 255 220 0
0.578344 0.036485 0.017590 255 220 0
0.633238 0.031712 0.027301 255 220 0
0.600207 -0.020549 0.089962 255 220 0
0.600718 -0.022807 0.022548 255 220 0
0.619653 0.075037 0.096568 255 220 0
0.633899 0.017012 0.032235 255 220 0
0.621772 0.091433 0.084877 255 220 0
0.562247 -0.022879 0.068267 255 220 0
0.604557 0.032013 0.101767 255 220 0
0.597218 0.021635 0.011300 255 220 0
0.642942 0.066953 0.085784 255 220 0
0.570684 -0.006785 0.079589 255 220 0
0.645919 0.067594 0.080900 255 220 0
0.567674 0.028397 0.026515 255 220 0
0.609780 0.027094 0.014160 255 220 0
0.642768 0.035923 0.037737 255 220 0
0.637847 0.070655 0.037486 255 220 0
0.585696 0.077341 0.062814 255 220 0
0.597965 -0.044993 0.058667 255 220 0
0.595372 -0.044981 0.036965 255 220 0
0.642066 0.064454 0.039815 255 220 0
0.600836 -0.042908 0.043819 255 220 0
0.605455 0.094428 0.067454 255 220 0
0.571095 0.033183 0.071350 255 220 0
0.550527 -0.012550 0.031721 255 220 0
0.578955 -0.010139 0.086209 255 220 0
0.585978 0.078032 0.060805 255 220 0
0.615413 0.050302 0.101182 255 220 0
0.606596 -0.031156 0.075266 255 220 0
0.630264 -0.000034 0.080294 255 220 0
0.633499 0.071164 0.093392 255 220 0
0.567630 -0.053492 0.059750 255 220 0
0.634058 0.010546 0.084057 255 220 0
0.632640 -0.002755 0.045201 255 220 0
0.589447 0.027337 0.011434 255 220 0
0.547037 -0.023272 0.039468 255 220 0
0.601740 -0.043187 0.049794 255 220 0
0.631916 0.024094 0.027792 255 220 0
0.645938 0.022696 0.066760 255 220 0
0.595292 0.064115 0.092659 255 220 0
0.598429 0.023154 0.011406 255 220 0
0.577811 -0.035238 0.015421 255 220 0
0.611149 0.096760 0.069336 255 220 0
0.594585 -0.007355 0.014661 255 220 0
0.606024 0.050729 0.015090 255 220 0
0.647293 0.034202 0.047396 255 220 0
0.586839 0.047371 0.016939 255 220 0
0.621015 -0.023274 0.058168 255 220 0
