ply
format ascii 1.0
element vertex 1024
property float x
property float y
property float z
property uchar red
property uchar green
property uchar blue
end_header
0.628974 0.011223 0.029462 255 220 0
0.586271 -0.055255 0.045696 255 220 0
0.625344 0.004749 0.028923 255 220 0
0.571884 0.049558 0.059116 255 220 0
0.644816 0.081019 0.075271 255 220 0
0.613067 -0.023849 0.079461 255 220 0
0.571513 0.043164 0.065470 255 220 0
0.605301 0.067163 0.096811 255 220 0
0.617603 0.097778 0.074299 255 220 0
0.626585 -0.011337 0.073289 255 220 0
0.594235 -0.047032 0.038136 255 220 0
0.570311 0.000644 0.079172 255 220 0
0.601422 0.092249 0.049488 255 220 0
0.621504 0.078599 0.029104 255 220 0
0.567137 0.031445 0.060736 255 220 0
0.602588 0.068784 0.021033 255 220 0
0.625274 -0.018288 0.059719 255 220 0
0.581919 -0.029960 0.082486 255 220 0
0.586339 -0.032957 0.019555 255 220 0
0.587081 -0.018206 0.015582 255 220 0
0.567564 0.038524 0.049828 255 220 0
0.630500 0.093100 0.047252 255 220 0
0.634187 0.007735 0.081913 255 220 0
0.637742 0.002094 0.060468 255 220 0
0.632307 -0.002852 0.044308 255 220 0
0.561698 0.017707 0.048159 255 220 0
0.606141 0.025484 0.013101 255 220 0
0.565443 -0.047913 0.064344 255 220 0
0.569150 0.037401 0.062636 255 220 0
0.587702 -0.008832 0.092228 255 220 0
0.581948 -0.029115 0.016539 255 220 0
0.603950 0.021790 0.101322 255 220 0
0.577376 0.061029 0.065639 255 220 0
0.571616 0.040430 0.067870 255 220 0
0.651047 0.047442 0.063790 255 220 0
0.642263 0.063035 0.038828 255 220 0
0.621768 0.098453 0.053294 255 220 0
0.602882 0.005412 0.099528 255 220 0
0.546546 -0.055554 0.042733 255 220 0
0.553680 -0.060979 0.029956 255 220 0
0.628186 0.066584 0.027202 255 220 0
0.631226 0.000623 0.038569 255 220 0
0.585797 0.044950 0.016498 255 220 0
0.640607 0.055524 0.034628 255 220 0
0.581803 0.072319 0.061619 255 220 0
0.638974 0.012314 0.077165 255 220 0
0.575018 0.030701 0.018764 255 220 0
0.594170 0.080942 0.080440 255 220 0
0.619012 0.024572 0.100116 255 220 0
0.607111 0.065539 0.097820 255 220 0
0.635043 0.054401 0.028373 255 220 0
0.608426 -0.038166 0.051784 255 220 0
0.637162 0.081681 0.085515 255 220 0
0.642227 0.080290 0.047558 255 220 0
0.631221 -0.006831 0.068507 255 220 0
0.604650 0.022887 0.012934 255 220 0
0.569626 0.003912 0.077811 255 220 0
0.540184 -0.039974 0.031062 255 220 0
0.547859 -0.045416 0.017364 255 220 0
0.579143 0.033857 0.016609 255 220 0
0.600286 0.034239 0.100460 255 220 0
0.616236 0.052172 0.100457 255 220 0
0.562662 -0.004132 0.020692 255 220 0
0.617503 -0.028543 0.054317 255 220 0
0.643707 0.078225 0.048619 255 220 0
0.611290 0.079863 0.027763 255 220 0
0.585092 -0.043443 0.074889 255 220 0
0.556709 -0.063254 0.036495 255 220 0
0.549495 -0.025095 0.022895 255 220 0
0.634289 0.080862 0.038490 255 220 0
0.543531 -0.037538 0.022476 255 220 0
0.577814 0.043324 0.021577 255 220 0
0.634396 0.070447 0.033201 255 220 0
0.636230 -0.000691 0.058805 255 220 0
0.573325 -0.057580 0.030018 255 220 0
0.646035 0.052707 0.080233 255 220 0
0.619358 -0.019484 0.075500 255 220 0
0.646482 0.033147 0.074670 255 220 0
0.595384 -0.018247 0.092034 255 220 0
0.590250 0.045503 0.093466 255 220 0
0.563607 0.024546 0.040570 255 220 0
0.610325 0.089630 0.036960 255 220 0
0.614823 0.071454 0.023359 255 220 0
0.626765 0.098666 0.055866 255 220 0
0.581646 0.072720 0.056892 255 220 0
0.624129 0.065542 0.097272 255 220 0
0.590352 -0.045916 0.070827 255 220 0
0.558359 -0.052500 0.018319 255 220 0
0.569173 -0.017814 0.014513 255 220 0
0.578177 0.052541 0.027294 255 220 0
0.580347 0.053790 0.079583 255 220 0
0.611039 -0.031907 0.041969 255 220 0
0.586555 -0.014919 0.014803 255 220 0
0.591153 -0.049697 0.038160 255 220 0
0.574689 0.037033 0.021800 255 220 0
0.604305 0.034256 0.012416 255 220 0
0.592967 -0.033965 0.082549 255 220 0
0.596890 -0.026895 0.022802 255 220 0
0.562616 -0.048267 0.062270 255 220 0
0.609145 0.015627 0.100667 255 220 0
0.644990 0.019913 0.067084 255 220 0
0.570965 0.027156 0.021793 255 220 0
0.645484 0.033680 0.042844 255 220 0
0.624494 0.002068 0.089918 255 220 0
0.637637 0.002781 0.051884 255 220 0
0.580118 0.066946 0.066789 255 220 0
0.592411 -0.049061 0.062944 255 220 0
0.594345 -0.034073 0.024891 255 220 0
0.586527 -0.002296 0.013257 255 220 0
0.557667 -0.030291 0.062108 255 220 0
0.617527 0.073739 0.096409 255 220 0
0.565142 -0.004003 0.018713 255 220 0
0.605559 0.015467 0.100835 255 220 0
0.574685 0.055360 0.038695 255 220 0
0.598476 -0.046852 0.049056 255 220 0
0.566436 0.032723 0.055542 255 220 0
0.575033 0.030778 0.080534 255 220 0
0.594701 -0.006573 0.095583 255 220 0
0.627006 0.076710 0.093657 255 220 0
0.559252 -0.029676 0.015134 255 220 0
0.621654 -0.002338 0.089975 255 220 0
0.600351 0.046069 0.013516 255 220 0
0.646067 0.040687 0.042596 255 220 0
0.642083 0.018977 0.044118 255 220 0
0.636682 0.047762 0.029062 255 220 0
0.582528 -0.005102 0.013367 255 220 0
0.576727 0.042777 0.078598 255 220 0
0.575195 0.046495 0.027203 255 220 0
0.615844 0.056662 0.018264 255 220 0
0.616642 -0.024225 0.072865 255 220 0
0.570185 0.029944 0.070604 255 220 0
0.606982 0.005414 0.017186 255 220 0
0.646531 0.045816 0.043539 255 220 0
0.580438 0.022964 0.088226 255 220 0
0.603883 0.020284 0.013018 255 220 0
0.601612 0.087749 0.038907 255 220 0
0.638937 0.004558 0.062441 255 220 0
0.548427 -0.021644 0.029454 255 220 0
0.631703 0.035164 0.095138 255 220 0
0.650621 0.043376 0.064549 255 220 0
0.599568 -0.021671 0.022110 255 220 0
0.604457 0.072742 0.023250 255 220 0
0.629169 -0.001437 0.037175 255 220 0
0.584077 -0.036640 0.079657 255 220 0
0.631015 0.088642 0.042049 255 220 0
0.641769 0.021578 0.078885 255 220 0
0.544819 -0.054372 0.041199 255 220 0
0.633192 0.091634 0.080410 255 220 0
0.574001 0.015152 0.082353 255 220 0
0.561983 -0.000070 0.063760 255 220 0
0.595535 0.032396 0.011634 255 220 0
0.642491 0.011791 0.057555 255 220 0
0.647259 0.079826 0.063916 255 220 0
0.587945 0.080405 0.066442 255 220 0
0.549962 -0.025745 0.047465 255 220 0
0.633484 0.034108 0.026895 255 220 0
0.586950 0.070286 0.080198 255 220 0
0.624067 -0.012242 0.077166 255 220 0
0.603409 0.078373 0.027626 255 220 0
0.554230 -0.043765 0.015235 255 220 0
0.607296 0.037710 0.013178 255 220 0
0.570247 0.045373 0.040735 255 220 0
0.619225 -0.026474 0.057534 255 220 0
0.591284 0.062684 0.089651 255 220 0
0.580181 0.047696 0.021572 255 220 0
0.583701 0.001365 0.091190 255 220 0
0.570994 0.035172 0.069612 255 220 0
0.631702 0.044368 0.024587 255 220 0
0.625259 -0.010807 0.076855 255 220 0
0.646472 0.066985 0.047750 255 220 0
0.582087 -0.055752 0.037043 255 220 0
0.593900 -0.028217 0.086689 255 220 0
0.594389 0.000561 0.013959 255 220 0
0.581053 -0.058185 0.046383 255 220 0
0.614965 0.098816 0.055705 255 220 0
0.629650 0.004773 0.086020 255 220 0
0.595384 -0.044332 0.035415 255 220 0
0.600859 0.028957 0.100893 255 220 0
0.546453 -0.051684 0.046234 255 220 0
0.638519 0.050714 0.031297 255 220 0
0.550295 -0.016631 0.032842 255 220 0
0.635796 0.001041 0.047967 255 220 0
0.614050 -0.025237 0.075887 255 220 0
0.540445 -0.049088 0.036428 255 220 0
0.631414 0.037896 0.024642 255 220 0
0.626586 0.098928 0.056531 255 220 0
0.628975 0.077241 0.092723 255 220 0
0.565589 -0.035041 0.070032 255 220 0
0.570801 -0.062106 0.043452 255 220 0
0.640923 0.008830 0.063947 255 220 0
0.567406 -0.022193 0.014471 255 220 0
0.628817 0.056878 0.096545 255 220 0
0.651159 0.049345 0.058323 255 220 0
0.551898 -0.044613 0.054669 255 220 0
0.584542 0.042339 0.016217 255 220 0
0.594240 0.046990 0.095944 255 220 0
0.600052 0.068145 0.021125 255 220 0
0.620321 -0.022091 0.068737 255 220 0
0.641390 0.029348 0.037102 255 220 0
0.604167 0.073655 0.023912 255 220 0
0.644133 0.017339 0.066778 255 220 0
0.600626 0.034650 0.011936 255 220 0
0.587837 -0.046706 0.071140 255 220 0
0.555233 -0.011521 0.052630 255 220 0
0.629633 0.037682 0.023357 255 220 0
0.567932 -0.018217 0.076033 255 220 0
0.634980 0.095761 0.071531 255 220 0
0.628643 -0.008558 0.072900 255 220 0
0.614254 0.035625 0.102048 255 220 0
0.576711 -0.038225 0.075890 255 220 0
0.547793 -0.034712 0.018970 255 220 0
0.600308 -0.041347 0.067704 255 220 0
0.619739 0.039790 0.017603 255 220 0
0.564554 -0.056513 0.057738 255 220 0
0.570519 0.027769 0.022656 255 220 0
0.606904 0.054484 0.015667 255 220 0
0.586396 0.079647 0.058593 255 220 0
0.643624 0.063466 0.041081 255 220 0
0.647689 0.030770 0.068700 255 220 0
0.541407 -0.044521 0.023817 255 220 0
0.587887 0.066052 0.026447 255 220 0
0.636451 0.074081 0.089513 255 220 0
0.551557 -0.013598 0.037791 255 220 0
0.646285 0.062221 0.079585 255 220 0
0.624983 0.009971 0.026438 255 220 0
0.543895 -0.033531 0.025156 255 220 0
0.594199 -0.019710 0.018575 255 220 0
0.594890 0.038635 0.012458 255 220 0
0.554644 -0.006308 0.033957 255 220 0
0.591577 -0.023557 0.088936 255 220 0
0.641041 0.008559 0.061105 255 220 0
0.597323 -0.016126 0.093158 255 220 0
0.614206 0.037751 0.101997 255 220 0
0.641252 0.073100 0.085159 255 220 0
0.564206 0.008472 0.065980 255 220 0
0.618297 0.046583 0.100750 255 220 0
0.544183 -0.041337 0.020211 255 220 0
0.636550 0.092176 0.076559 255 220 0
0.554471 -0.046252 0.015633 255 220 0
0.546949 -0.034769 0.046032 255 220 0
0.563636 -0.050642 0.061577 255 220 0
0.575606 0.019138 0.015742 255 220 0
0.563501 0.009433 0.063964 255 220 0
0.566370 -0.023327 0.073627 255 220 0
0.633498 0.010875 0.085310 255 220 0
0.540785 -0.038632 0.029176 255 220 0
0.628197 0.081873 0.034415 255 220 0
0.614626 0.097374 0.050975 255 220 0
0.605321 -0.034936 0.072734 255 220 0
0.542426 -0.034247 0.032748 255 220 0
0.576805 -0.060056 0.046250 255 220 0
0.619363 0.007341 0.023348 255 220 0
0.623485 -0.018798 0.066943 255 220 0
0.593304 0.075688 0.030733 255 220 0
0.597498 0.014859 0.012297 255 220 0
0.556500 -0.053999 0.019160 255 220 0
0.643442 0.024231 0.043442 255 220 0
0.644060 0.079041 0.049927 255 220 0
0.612314 0.097666 0.070417 255 220 0
0.584240 0.063312 0.080825 255 220 0
0.566504 -0.045670 0.016890 255 220 0
0.632744 0.077293 0.035080 255 220 0
0.601767 0.036658 0.012196 255 220 0
0.644383 0.062241 0.042002 255 220 0
0.611123 0.033263 0.014244 255 220 0
0.571961 0.032604 0.023064 255 220 0
0.548052 -0.033595 0.019236 255 220 0
0.609388 0.093845 0.044533 255 220 0
0.622314 0.073581 0.026926 255 220 0
0.540425 -0.050062 0.035115 255 220 0
0.567793 -0.005263 0.075992 255 220 0
0.644408 0.074141 0.047240 255 220 0
0.648256 0.039836 0.072768 255 220 0
0.578140 0.057616 0.071629 255 220 0
0.638292 0.035945 0.031538 255 220 0
0.577105 -0.023423 0.082375 255 220 0
0.640989 0.009648 0.052134 255 220 0
0.575229 0.037272 0.021290 255 220 0
0.643945 0.065183 0.042192 255 220 0
0.575853 0.044850 0.075363 255 220 0
0.641401 0.023164 0.080589 255 220 0
0.550232 -0.058141 0.044464 255 220 0
0.541194 -0.044422 0.024263 255 220 0
0.600228 0.076109 0.026816 255 220 0
0.639543 0.054175 0.089186 255 220 0
0.556700 -0.041246 0.060116 255 220 0
0.646397 0.043795 0.043205 255 220 0
0.631579 0.059718 0.094957 255 220 0
0.573594 0.031089 0.020318 255 220 0
0.575360 -0.015858 0.083201 255 220 0
0.650973 0.053176 0.057090 255 220 0
0.578825 -0.048355 0.070094 255 220 0
0.637488 0.067750 0.090118 255 220 0
0.596536 0.081509 0.034593 255 220 0
0.573080 -0.034380 0.075683 255 220 0
0.542480 -0.042646 0.041720 255 220 0
0.576801 -0.007503 0.085571 255 220 0
0.615382 0.087824 0.087655 255 220 0
0.598751 -0.015682 0.093455 255 220 0
0.588867 0.002213 0.012968 255 220 0
0.545517 -0.028138 0.028377 255 220 0
0.588934 -0.014450 0.015314 255 220 0
0.630564 0.018301 0.028263 255 220 0
0.619369 -0.021626 0.071905 255 220 0
0.640229 0.087851 0.051344 255 220 0
0.642123 0.012729 0.051357 255 220 0
0.636456 0.082765 0.085443 255 220 0
0.611098 0.008024 0.099188 255 220 0
0.601790 -0.043843 0.048051 255 220 0
0.587630 0.023386 0.093992 255 220 0
0.608964 0.069243 0.097203 255 220 0
0.617086 0.048260 0.100782 255 220 0
0.575490 0.038973 0.021858 255 220 0
0.615824 -0.024626 0.073766 255 220 0
0.639612 0.015111 0.078438 255 220 0
0.587851 0.008973 0.094140 255 220 0
0.598893 -0.031429 0.083345 255 220 0
0.599462 -0.004192 0.016495 255 220 0
0.563439 0.012533 0.062428 255 220 0
0.637570 0.066226 0.090268 255 220 0
0.610818 -0.035777 0.056748 255 220 0
0.615046 0.090458 0.084818 255 220 0
0.539379 -0.044516 0.032997 255 220 0
0.574263 0.057499 0.047232 255 220 0
0.585361 0.046115 0.017134 255 220 0
0.590967 0.083221 0.046535 255 220 0
0.583637 -0.010979 0.089597 255 220 0
0.554412 -0.006316 0.040551 255 220 0
0.578290 0.066596 0.050815 255 220 0
0.573760 -0.024985 0.079593 255 220 0
0.609190 0.069799 0.097069 255 220 0
0.550440 -0.025130 0.021673 255 220 0
0.636884 0.012190 0.081160 255 220 0
0.568983 -0.006569 0.077746 255 220 0
0.595192 0.088964 0.056927 255 220 0
0.555241 -0.011569 0.052679 255 220 0
0.561830 -0.010132 0.019199 255 220 0
0.611867 0.059761 0.099596 255 220 0
0.590198 0.016592 0.095750 255 220 0
0.604774 -0.002931 0.097845 255 220 0
0.650928 0.058770 0.059183 255 220 0
0.613116 0.097906 0.070579 255 220 0
0.640116 0.009155 0.049193 255 220 0
0.646881 0.056740 0.045600 255 220 0
0.643623 0.029654 0.079588 255 220 0
0.643907 0.033656 0.080629 255 220 0
0.548538 -0.029858 0.046586 255 220 0
0.643367 0.063188 0.040570 255 220 0
0.645427 0.024279 0.071202 255 220 0
0.540780 -0.047342 0.038380 255 220 0
0.636961 0.083137 0.084784 255 220 0
0.579363 0.041067 0.083702 255 220 0
0.573677 0.035659 0.022348 255 220 0
0.616823 -0.023605 0.073609 255 220 0
0.608958 0.044246 0.014109 255 220 0
0.641056 0.020176 0.079396 255 220 0
0.639223 0.026161 0.035163 255 220 0
0.629963 0.082850 0.089496 255 220 0
0.599032 -0.031658 0.026976 255 220 0
0.547153 -0.042416 0.048814 255 220 0
0.570137 -0.056030 0.060845 255 220 0
0.627714 0.052223 0.097348 255 220 0
0.642029 0.036564 0.084506 255 220 0
0.558134 -0.059630 0.025458 255 220 0
0.625902 0.095787 0.048850 255 220 0
0.587370 -0.028780 0.085182 255 220 0
0.567625 0.007183 0.073735 255 220 0
0.564747 0.019452 0.028274 255 220 0
0.566624 0.022101 0.026066 255 220 0
0.595357 0.088315 0.066886 255 220 0
0.565656 0.028290 0.057763 255 220 0
0.607769 0.096806 0.056468 255 220 0
0.554918 -0.058458 0.023955 255 220 0
0.641279 0.034357 0.035554 255 220 0
0.581207 0.068281 0.068628 255 220 0
0.559605 -0.007728 0.022165 255 220 0
0.590320 -0.033406 0.082967 255 220 0
0.645159 0.054291 0.081870 255 220 0
0.580724 0.068957 0.065483 255 220 0
0.609808 0.094662 0.075458 255 220 0
0.603976 0.092064 0.074838 255 220 0
0.596545 0.022075 0.011491 255 220 0
0.564649 -0.012687 0.071642 255 220 0
0.581210 0.041851 0.017988 255 220 0
0.567795 -0.009970 0.076199 255 220 0
0.579849 0.034877 0.016459 255 220 0
0.585592 0.056207 0.086374 255 220 0
0.648680 0.071998 0.068817 255 220 0
0.577897 -0.018018 0.013992 255 220 0
0.564030 -0.061493 0.030532 255 220 0
0.561659 -0.040106 0.014676 255 220 0
0.608641 0.077828 0.093283 255 220 0
0.574296 -0.060258 0.038904 255 220 0
0.570454 0.011882 0.018129 255 220 0
0.566943 0.036252 0.043783 255 220 0
0.635178 0.043674 0.092975 255 220 0
0.629993 -0.003762 0.076979 255 220 0
0.629824 0.048883 0.023563 255 220 0
0.567332 0.005931 0.073448 255 220 0
0.628216 -0.013967 0.058121 255 220 0
0.596003 0.072788 0.088914 255 220 0
0.602140 0.065433 0.019350 255 220 0
0.622338 0.046366 0.099783 255 220 0
0.588070 0.002396 0.012915 255 220 0
0.562265 0.016142 0.055669 255 220 0
0.630569 0.091683 0.082061 255 220 0
0.573111 0.040776 0.071392 255 220 0
0.572040 0.050832 0.057365 255 220 0
0.625553 -0.017985 0.055875 255 220 0
0.541486 -0.050182 0.038492 255 220 0
0.639165 0.061922 0.034512 255 220 0
0.625855 0.051995 0.021665 255 220 0
0.568675 0.041470 0.053555 255 220 0
0.615588 -0.028506 0.066239 255 220 0
0.637596 0.010240 0.078024 255 220 0
0.609432 -0.008277 0.022743 255 220 0
0.632052 0.092023 0.046985 255 220 0
0.582702 -0.002845 0.013284 255 220 0
0.561226 -0.054532 0.020336 255 220 0
0.559715 -0.010758 0.020643 255 220 0
0.640525 0.011619 0.072135 255 220 0
0.645508 0.062736 0.080985 255 220 0
0.637700 0.003103 0.065725 255 220 0
0.577935 0.058087 0.070701 255 220 0
0.580234 -0.021651 0.014647 255 220 0
0.554509 -0.024314 0.056111 255 220 0
0.599561 0.027512 0.011634 255 220 0
0.638379 0.021579 0.035965 255 220 0
0.617381 0.063470 0.098868 255 220 0
0.571141 -0.000082 0.016049 255 220 0
0.595832 0.027945 0.098905 255 220 0
0.594229 0.039068 0.012607 255 220 0
0.561155 0.006659 0.058987 255 220 0
0.586342 0.079638 0.056789 255 220 0
0.577964 0.056471 0.072127 255 220 0
0.571725 -0.060281 0.034674 255 220 0
0.582068 -0.056391 0.038950 255 220 0
0.645424 0.082455 0.072015 255 220 0
0.622889 0.062197 0.022756 255 220 0
0.546975 -0.057312 0.027097 255 220 0
0.571868 0.043439 0.031307 255 220 0
0.601787 0.022246 0.012267 255 220 0
0.621682 0.021099 0.020918 255 220 0
0.637513 0.018316 0.036306 255 220 0
0.572008 0.014650 0.017431 255 220 0
0.605221 -0.040678 0.048206 255 220 0
0.578303 -0.057151 0.034792 255 220 0
0.610988 -0.034124 0.046303 255 220 0
0.581722 -0.057839 0.051841 255 220 0
0.634788 0.075440 0.035850 255 220 0
0.569985 0.032142 0.068854 255 220 0
0.646847 0.025008 0.056395 255 220 0
0.632850 0.077814 0.035446 255 220 0
0.634971 0.034611 0.092372 255 220 0
0.631748 -0.001806 0.075941 255 220 0
0.558136 -0.054193 0.019458 255 220 0
0.637360 0.094886 0.069085 255 220 0
0.567112 0.031588 0.060488 255 220 0
0.618594 -0.026586 0.050676 255 220 0
0.547618 -0.043506 0.049586 255 220 0
0.610092 -0.004912 0.096168 255 220 0
0.566438 0.013926 0.022604 255 220 0
0.602119 -0.029195 0.083933 255 220 0
0.571958 -0.042855 0.017484 255 220 0
0.623614 0.065520 0.097416 255 220 0
0.608573 0.079430 0.027544 255 220 0
0.552322 -0.017627 0.048290 255 220 0
0.597072 0.039036 0.098618 255 220 0
0.552373 -0.012739 0.042307 255 220 0
0.568911 -0.061311 0.034452 255 220 0
0.585349 -0.032644 0.018975 255 220 0
0.617767 0.079524 0.028424 255 220 0
0.549556 -0.040302 0.051766 255 220 0
0.644084 0.024527 0.044782 255 220 0
0.603475 0.081345 0.030208 255 220 0
0.596260 0.089845 0.056593 255 220 0
0.610937 0.047705 0.015027 255 220 0
0.570594 0.047657 0.053471 255 220 0
0.600628 -0.030223 0.027337 255 220 0
0.570699 0.034608 0.026296 255 220 0
0.569775 0.043867 0.056925 255 220 0
0.562522 -0.029197 0.014584 255 220 0
0.625632 -0.014851 0.069273 255 220 0
0.622330 0.007416 0.094147 255 220 0
0.648383 0.068779 0.053683 255 220 0
0.591311 0.005533 0.095911 255 220 0
0.569435 0.042286 0.038689 255 220 0
0.555645 -0.002759 0.041088 255 220 0
0.553341 -0.060711 0.029402 255 220 0
0.641650 0.010711 0.053415 255 220 0
0.594794 -0.024156 0.089139 255 220 0
0.548049 -0.041702 0.049934 255 220 0
0.565288 0.015681 0.025025 255 220 0
0.594158 0.014172 0.097827 255 220 0
0.560151 -0.051512 0.058776 255 220 0
0.625425 -0.006514 0.081808 255 220 0
0.640698 0.062086 0.087729 255 220 0
0.634569 0.062527 0.092921 255 220 0
0.593064 -0.049930 0.042778 255 220 0
0.571333 0.041329 0.066418 255 220 0
0.595606 0.052276 0.015601 255 220 0
0.576083 0.051580 0.030029 255 220 0
0.616386 0.018737 0.018492 255 220 0
0.638754 0.013273 0.041451 255 220 0
0.599860 0.010349 0.013520 255 220 0
0.547244 -0.023586 0.034640 255 220 0
0.593131 -0.042607 0.030511 255 220 0
0.587460 0.079208 0.045666 255 220 0
0.587059 -0.000910 0.013165 255 220 0
0.603680 0.029969 0.012250 255 220 0
0.593961 0.083479 0.076466 255 220 0
0.586674 -0.019783 0.088808 255 220 0
0.641750 0.010221 0.056338 255 220 0
0.615304 -0.030912 0.052318 255 220 0
0.634692 0.003111 0.042411 255 220 0
0.574829 0.056046 0.039352 255 220 0
0.561198 0.004251 0.026236 255 220 0
0.567879 -0.041890 0.016010 255 220 0
0.593264 0.015670 0.011753 255 220 0
0.620155 -0.001449 0.027384 255 220 0
0.619665 0.056830 0.019739 255 220 0
0.621933 0.047474 0.099812 255 220 0
0.567040 -0.031011 0.072528 255 220 0
0.629569 0.088570 0.040852 255 220 0
0.599518 -0.015639 0.093494 255 220 0
0.635602 0.077943 0.088715 255 220 0
0.604336 0.046227 0.100357 255 220 0
0.609541 0.048147 0.014785 255 220 0
0.597528 0.090710 0.063266 255 220 0
0.618505 -0.027269 0.058657 255 220 0
0.604210 0.081104 0.089088 255 220 0
0.613638 -0.021527 0.033702 255 220 0
0.632134 0.026002 0.093181 255 220 0
0.569474 0.032528 0.027208 255 220 0
0.638979 0.008167 0.071742 255 220 0
0.595891 0.062247 0.093392 255 220 0
0.568830 -0.012455 0.077500 255 220 0
0.626623 0.004984 0.089517 255 220 0
0.602462 -0.015362 0.021294 255 220 0
0.594783 0.038853 0.012506 255 220 0
0.603253 0.044889 0.100247 255 220 0
0.569541 -0.029094 0.014265 255 220 0
0.618871 -0.014829 0.082409 255 220 0
0.637793 0.003487 0.050734 255 220 0
0.588628 0.054142 0.090137 255 220 0
0.628035 -0.003631 0.037346 255 220 0
0.604581 -0.039883 0.043809 255 220 0
0.580347 0.014399 0.088812 255 220 0
0.567972 0.014952 0.021092 255 220 0
0.611649 -0.031937 0.043264 255 220 0
0.579711 -0.032608 0.016753 255 220 0
0.597676 0.015537 0.099385 255 220 0
0.579539 -0.052026 0.066806 255 220 0
0.594246 0.020246 0.011450 255 220 0
0.647634 0.037744 0.073721 255 220 0
0.588875 -0.033898 0.021261 255 220 0
0.570693 0.022506 0.075396 255 220 0
0.561835 -0.056502 0.056140 255 220 0
0.574198 0.057279 0.046839 255 220 0
0.586489 -0.006071 0.013604 255 220 0
0.611460 0.045574 0.101434 255 220 0
0.563954 -0.060459 0.053061 255 220 0
0.581037 0.010321 0.089491 255 220 0
0.630639 0.098850 0.066255 255 220 0
0.597716 0.080764 0.084595 255 220 0
0.591027 -0.031061 0.084623 255 220 0
0.592606 -0.051324 0.053269 255 220 0
0.602845 -0.005695 0.097133 255 220 0
0.579613 0.068527 0.047313 255 220 0
0.628374 0.099701 0.064878 255 220 0
0.634382 0.097263 0.065825 255 220 0
0.571663 0.047867 0.038058 255 220 0
0.596523 0.018755 0.011720 255 220 0
0.610038 -0.007280 0.022743 255 220 0
0.590338 -0.012266 0.092622 255 220 0
0.577808 0.053510 0.073980 255 220 0
0.547139 -0.029475 0.043230 255 220 0
0.547440 -0.037929 0.018134 255 220 0
0.599241 -0.030238 0.026236 255 220 0
0.646085 0.022654 0.055336 255 220 0
0.553569 -0.011036 0.046020 255 220 0
0.601332 -0.041719 0.040778 255 220 0
0.599541 0.077265 0.088876 255 220 0
0.636415 0.065241 0.091317 255 220 0
0.605852 0.074033 0.023984 255 220 0
0.582003 0.017587 0.090003 255 220 0
0.575376 0.007118 0.084647 255 220 0
0.639312 0.092788 0.070580 255 220 0
0.647784 0.041050 0.074570 255 220 0
0.642601 0.022229 0.042914 255 220 0
0.609963 0.066449 0.020052 255 220 0
0.636766 0.038707 0.029472 255 220 0
0.581292 0.014026 0.089597 255 220 0
0.637971 0.011673 0.078667 255 220 0
0.600382 0.069020 0.021567 255 220 0
0.634748 -0.003191 0.056074 255 220 0
0.649927 0.037467 0.058312 255 220 0
0.640782 0.042262 0.087172 255 220 0
0.624328 0.043760 0.099277 255 220 0
0.575744 0.044017 0.075647 255 220 0
0.578328 0.054139 0.074755 255 220 0
0.582257 0.018834 0.090137 255 220 0
0.630198 0.025749 0.025791 255 220 0
0.606390 -0.033578 0.073629 255 220 0
0.618026 0.021186 0.018844 255 220 0
0.588050 -0.036130 0.080824 255 220 0
0.643063 0.055046 0.038188 255 220 0
0.599946 -0.045225 0.046842 255 220 0
0.640551 0.007852 0.054880 255 220 0
0.616248 0.099855 0.059932 255 220 0
0.610245 -0.028268 0.035840 255 220 0
0.626238 0.099986 0.060804 255 220 0
0.553197 -0.033159 0.016304 255 220 0
0.593441 -0.022045 0.019002 255 220 0
0.566030 -0.010923 0.016533 255 220 0
0.553553 -0.010092 0.044309 255 220 0
0.623428 0.062742 0.023208 255 220 0
0.636925 0.025678 0.032444 255 220 0
0.555891 -0.017172 0.056732 255 220 0
0.610716 -0.035277 0.048840 255 220 0
0.593164 0.062806 0.020567 255 220 0
0.565253 0.010035 0.022729 255 220 0
0.616263 0.086626 0.033373 255 220 0
0.572937 -0.055029 0.026166 255 220 0
0.639469 0.062308 0.034988 255 220 0
0.605227 0.065545 0.019256 255 220 0
0.633037 0.022815 0.091452 255 220 0
0.607589 0.012655 0.015698 255 220 0
0.543281 -0.047235 0.043261 255 220 0
0.560217 -0.012979 0.063809 255 220 0
0.571901 0.022955 0.019259 255 220 0
0.647076 0.025159 0.059899 255 220 0
0.648663 0.048890 0.074015 255 220 0
0.593332 -0.032954 0.023560 255 220 0
0.592427 0.080466 0.078429 255 220 0
0.543936 -0.033885 0.039147 255 220 0
0.596544 0.013000 0.012404 255 220 0
0.595303 0.015163 0.011959 255 220 0
0.644449 0.026578 0.044243 255 220 0
0.589255 0.080530 0.043895 255 220 0
0.638254 0.021302 0.035913 255 220 0
0.578548 0.058504 0.032425 255 220 0
0.607705 0.047360 0.014314 255 220 0
0.633687 0.096511 0.071415 255 220 0
0.597195 -0.011008 0.095003 255 220 0
0.613989 0.059977 0.099605 255 220 0
0.584417 0.062591 0.027299 255 220 0
0.646358 0.044144 0.078621 255 220 0
0.624244 0.099490 0.071064 255 220 0
0.629059 0.064719 0.027076 255 220 0
0.555405 -0.004843 0.045960 255 220 0
0.579634 0.055413 0.027527 255 220 0
0.593480 -0.006771 0.095136 255 220 0
0.571253 0.021720 0.019554 255 220 0
0.584296 0.041474 0.089081 255 220 0
0.625623 0.099570 0.058121 255 220 0
0.620656 -0.017611 0.075896 255 220 0
0.557351 -0.002752 0.029102 255 220 0
0.627194 -0.011205 0.072036 255 220 0
0.578704 0.024400 0.014769 255 220 0
0.617845 0.000782 0.024725 255 220 0
0.565522 -0.063437 0.041130 255 220 0
0.556541 -0.011843 0.056117 255 220 0
0.616460 -0.004695 0.026014 255 220 0
0.579254 0.047004 0.081244 255 220 0
0.566235 0.001193 0.072340 255 220 0
0.573937 0.041859 0.025795 255 220 0
0.590890 0.084736 0.061678 255 220 0
0.577894 -0.012267 0.085734 255 220 0
0.612596 0.067150 0.098250 255 220 0
0.574141 0.033344 0.020678 255 220 0
0.646299 0.037190 0.076920 255 220 0
0.649304 0.055469 0.051140 255 220 0
0.567578 0.026251 0.026751 255 220 0
0.591293 0.042191 0.094775 255 220 0
0.541390 -0.038091 0.027096 255 220 0
0.556192 -0.049083 0.016435 255 220 0
0.613861 0.086167 0.032787 255 220 0
0.592026 0.083187 0.043675 255 220 0
0.579288 -0.004749 0.087702 255 220 0
0.553056 -0.015880 0.025156 255 220 0
0.608657 -0.016768 0.090640 255 220 0
0.606910 0.066318 0.097564 255 220 0
0.613565 -0.030045 0.067563 255 220 0
0.575979 -0.055551 0.062773 255 220 0
0.547531 -0.033071 0.019976 255 220 0
0.588911 -0.032324 0.083511 255 220 0
0.570291 -0.048629 0.066696 255 220 0
0.564937 -0.005206 0.018524 255 220 0
0.559314 0.009019 0.046498 255 220 0
0.586617 0.006906 0.012585 255 220 0
0.602414 0.045113 0.013363 255 220 0
0.601778 0.030212 0.101134 255 220 0
0.609572 0.097108 0.054404 255 220 0
0.640240 0.085118 0.048570 255 220 0
0.578445 0.060877 0.035589 255 220 0
0.579611 0.068904 0.049372 255 220 0
0.589948 -0.047547 0.068708 255 220 0
0.623130 0.018701 0.022397 255 220 0
0.592588 0.078022 0.034208 255 220 0
0.580411 -0.056567 0.036457 255 220 0
0.553791 -0.056498 0.050196 255 220 0
0.579489 0.049523 0.080395 255 220 0
0.588681 0.077006 0.076228 255 220 0
0.596580 -0.018684 0.091989 255 220 0
0.563128 -0.019543 0.015899 255 220 0
0.580125 -0.047144 0.023603 255 220 0
0.646925 0.024969 0.057497 255 220 0
0.627170 -0.012624 0.069327 255 220 0
0.562722 -0.011091 0.068044 255 220 0
0.646257 0.073095 0.050524 255 220 0
0.619162 -0.013445 0.033581 255 220 0
0.572586 0.051725 0.059001 255 220 0
0.587675 -0.043450 0.026169 255 220 0
0.548563 -0.041311 0.016893 255 220 0
0.591413 -0.051408 0.043565 255 220 0
0.631312 0.053608 0.025326 255 220 0
0.636848 0.087557 0.081432 255 220 0
0.567532 0.037471 0.053677 255 220 0
0.597339 0.073082 0.025519 255 220 0
0.593089 0.000469 0.096232 255 220 0
0.641451 0.011377 0.067998 255 220 0
0.629232 0.004974 0.086686 255 220 0
0.618391 -0.015886 0.034634 255 220 0
0.590467 0.072029 0.083847 255 220 0
0.611384 0.021981 0.101319 255 220 0
0.587444 -0.052088 0.037014 255 220 0
0.610220 0.063374 0.098852 255 220 0
0.588458 0.049973 0.091076 255 220 0
0.627319 0.092313 0.043898 255 220 0
0.622326 0.012488 0.095782 255 220 0
0.573514 0.056011 0.050397 255 220 0
0.644076 0.028903 0.078278 255 220 0
0.605529 0.054858 0.099417 255 220 0
0.622127 0.098072 0.074978 255 220 0
0.585250 0.036272 0.090873 255 220 0
0.632404 0.033540 0.026029 255 220 0
0.634838 0.069423 0.091797 255 220 0
0.559939 -0.001862 0.059765 255 220 0
0.564563 -0.030528 0.070367 255 220 0
0.547887 -0.048929 0.018220 255 220 0
0.605507 0.028604 0.012711 255 220 0
0.582200 -0.008024 0.013514 255 220 0
0.588630 -0.036607 0.022447 255 220 0
0.596077 -0.042470 0.071156 255 220 0
0.543578 -0.053462 0.039844 255 220 0
0.609660 -0.000795 0.097647 255 220 0
0.607672 0.001839 0.018484 255 220 0
0.617919 -0.007505 0.090087 255 220 0
0.555026 -0.050269 0.016926 255 220 0
0.565504 -0.015913 0.073100 255 220 0
0.560150 -0.061948 0.048501 255 220 0
0.565323 0.019942 0.063677 255 220 0
0.598934 -0.000012 0.015334 255 220 0
0.597954 0.047905 0.097801 255 220 0
0.626655 0.058360 0.023609 255 220 0
0.650279 0.052496 0.069243 255 220 0
0.616161 0.093997 0.042953 255 220 0
0.580726 -0.021063 0.014643 255 220 0
0.592226 0.078555 0.080431 255 220 0
0.628021 -0.004298 0.080020 255 220 0
0.602968 -0.017444 0.092314 255 220 0
0.561790 0.011395 0.058003 255 220 0
0.594934 -0.033088 0.024736 255 220 0
0.621690 0.094365 0.081191 255 220 0
0.615397 0.004700 0.021750 255 220 0
0.620526 -0.007154 0.030723 255 220 0
0.594315 0.084395 0.041888 255 220 0
0.573605 -0.007352 0.082868 255 220 0
0.566879 -0.013666 0.015669 255 220 0
0.560975 0.014388 0.049835 255 220 0
0.566037 0.033300 0.049513 255 220 0
0.587069 0.078958 0.046328 255 220 0
0.637020 0.013766 0.038112 255 220 0
0.621615 0.084975 0.033284 255 220 0
0.650816 0.043889 0.063278 255 220 0
0.607368 -0.038309 0.060428 255 220 0
0.566032 0.013192 0.022871 255 220 0
0.628379 -0.004742 0.078858 255 220 0
0.561220 -0.006963 0.020902 255 220 0
0.573346 0.023054 0.017985 255 220 0
0.561412 -0.008972 0.065102 255 220 0
0.582081 0.042984 0.086457 255 220 0
0.592889 0.062122 0.091230 255 220 0
0.554042 -0.046959 0.015848 255 220 0
0.647484 0.035473 0.073037 255 220 0
0.643029 0.028092 0.080029 255 220 0
0.629768 0.068681 0.028996 255 220 0
0.629738 0.099302 0.063157 255 220 0
0.554708 -0.021161 0.019915 255 220 0
0.547169 -0.025768 0.039521 255 220 0
0.642700 0.021130 0.043918 255 220 0
0.580323 0.064297 0.035869 255 220 0
0.568581 -0.014808 0.014974 255 220 0
0.592119 -0.006708 0.094640 255 220 0
0.572914 0.031851 0.076090 255 220 0
0.570068 0.025319 0.072765 255 220 0
0.567942 -0.027703 0.014204 255 220 0
0.596095 0.086599 0.043579 255 220 0
0.619449 0.069287 0.023854 255 220 0
0.591950 0.082477 0.074196 255 220 0
0.569220 -0.012555 0.015084 255 220 0
0.567945 0.039802 0.046483 255 220 0
0.620880 -0.011882 0.034443 255 220 0
0.627603 0.085196 0.036399 255 220 0
0.649260 0.041947 0.070359 255 220 0
0.562734 -0.003001 0.066220 255 220 0
0.543282 -0.040026 0.042207 255 220 0
0.559991 0.010336 0.050212 255 220 0
0.602299 0.050208 0.014391 255 220 0
0.608667 -0.003168 0.020501 255 220 0
0.575825 0.024491 0.083120 255 220 0
0.572637 0.042145 0.069362 255 220 0
0.582482 0.054375 0.023268 255 220 0
0.604317 0.021348 0.013012 255 220 0
0.545246 -0.051637 0.044499 255 220 0
0.625531 -0.007280 0.036874 255 220 0
0.614018 0.084594 0.031422 255 220 0
0.580796 0.054385 0.025147 255 220 0
0.651038 0.056839 0.058887 255 220 0
0.576322 0.013824 0.085127 255 220 0
0.574429 0.057072 0.043895 255 220 0
0.547498 -0.026544 0.024910 255 220 0
0.623124 0.057729 0.098515 255 220 0
0.629233 0.080827 0.034443 255 220 0
0.646843 0.050185 0.044538 255 220 0
0.623130 -0.020858 0.062093 255 220 0
0.563392 0.002810 0.065965 255 220 0
0.569922 0.030208 0.069814 255 220 0
0.589659 0.082614 0.066162 255 220 0
0.591187 0.027859 0.011585 255 220 0
0.590320 0.069816 0.027453 255 220 0
0.605251 -0.032501 0.076972 255 220 0
0.603630 -0.042130 0.047938 255 220 0
0.574475 0.041249 0.074388 255 220 0
0.592515 0.023406 0.011364 255 220 0
0.589450 -0.043433 0.027667 255 220 0
0.617904 0.048528 0.100630 255 220 0
0.625496 -0.017827 0.053943 255 220 0
0.543932 -0.031734 0.035861 255 220 0
0.617388 0.029988 0.017085 255 220 0
0.606768 0.093282 0.045108 255 220 0
0.577493 0.065023 0.050972 255 220 0
0.638825 0.023211 0.035848 255 220 0
0.626019 0.098177 0.074254 255 220 0
0.546084 -0.026217 0.030636 255 220 0
0.597573 0.066292 0.020727 255 220 0
0.606040 0.091262 0.078682 255 220 0
0.643227 0.032786 0.081547 255 220 0
0.627689 0.077112 0.093273 255 220 0
0.593152 -0.051015 0.052363 255 220 0
0.638195 0.013494 0.040274 255 220 0
0.623643 0.059418 0.098191 255 220 0
0.630278 -0.007727 0.046680 255 220 0
0.635495 0.000172 0.068462 255 220 0
0.621471 -0.019810 0.044220 255 220 0
0.557493 -0.008792 0.056976 255 220 0
0.586858 -0.055097 0.047880 255 220 0
0.621205 0.100205 0.059260 255 220 0
0.554095 -0.014092 0.051032 255 220 0
0.585218 -0.050576 0.067303 255 220 0
0.565137 -0.062815 0.035992 255 220 0
0.593112 0.085917 0.048821 255 220 0
0.569586 0.002488 0.017213 255 220 0
0.637824 0.094638 0.059659 255 220 0
0.624538 -0.004211 0.085313 255 220 0
0.600738 0.046813 0.099155 255 220 0
0.568011 0.038947 0.040794 255 220 0
0.624795 -0.001186 0.031531 255 220 0
0.618241 -0.025665 0.046869 255 220 0
0.594236 0.047763 0.014583 255 220 0
0.595585 -0.013867 0.017441 255 220 0
0.596240 0.010091 0.098469 255 220 0
0.577458 0.047196 0.077565 255 220 0
0.621587 0.071306 0.096699 255 220 0
0.619945 0.045510 0.100501 255 220 0
0.557848 0.002814 0.034956 255 220 0
0.569688 -0.040825 0.070645 255 220 0
0.614949 0.078046 0.026936 255 220 0
0.594970 -0.042727 0.032737 255 220 0
0.567747 -0.005805 0.075963 255 220 0
0.583549 0.041585 0.016472 255 220 0
0.620394 0.086813 0.034409 255 220 0
0.568992 0.043004 0.051558 255 220 0
0.601633 0.009785 0.014143 255 220 0
0.590105 0.075834 0.034372 255 220 0
0.599500 0.026491 0.100467 255 220 0
0.607579 -0.022838 0.086495 255 220 0
0.569869 -0.033916 0.014767 255 220 0
0.644394 0.017943 0.066518 255 220 0
0.580435 -0.035060 0.079248 255 220 0
0.641724 0.051631 0.086703 255 220 0
0.638246 0.023546 0.085760 255 220 0
0.636962 0.006670 0.075271 255 220 0
0.561591 0.014501 0.033710 255 220 0
0.578844 0.065374 0.064380 255 220 0
0.600626 -0.045244 0.052129 255 220 0
0.623431 -0.018815 0.067074 255 220 0
0.612051 0.093936 0.078617 255 220 0
0.545628 -0.056473 0.039589 255 220 0
0.593535 -0.047143 0.037168 255 220 0
0.646883 0.035814 0.045321 255 220 0
0.576437 0.023286 0.084067 255 220 0
0.565826 0.007238 0.069995 255 220 0
0.552210 -0.015898 0.046327 255 220 0
0.606880 -0.023165 0.086693 255 220 0
0.593800 -0.050600 0.050549 255 220 0
0.604360 -0.018939 0.091093 255 220 0
0.642476 0.011641 0.059829 255 220 0
0.562985 0.006481 0.063835 255 220 0
0.557571 -0.014834 0.059275 255 220 0
0.602661 0.011122 0.014197 255 220 0
0.549650 -0.060172 0.032111 255 220 0
0.624913 0.069329 0.096388 255 220 0
0.602915 0.077894 0.090636 255 220 0
0.570172 -0.000839 0.079093 255 220 0
0.578207 -0.058216 0.037860 255 220 0
0.603890 0.059523 0.098150 255 220 0
0.603799 0.084193 0.086145 255 220 0
0.592743 0.082148 0.040155 255 220 0
0.608360 -0.003406 0.020412 255 220 0
0.630070 0.047046 0.023554 255 220 0
0.551976 -0.038902 0.054787 255 220 0
0.597855 -0.045569 0.062089 255 220 0
0.573283 0.028107 0.078410 255 220 0
0.564056 -0.014014 0.070819 255 220 0
0.570879 -0.028196 0.014275 255 220 0
0.603513 -0.001206 0.098321 255 220 0
0.617416 0.077144 0.095059 255 220 0
0.578948 -0.010090 0.086810 255 220 0
0.612170 0.093729 0.043063 255 220 0
0.636013 0.009389 0.080275 255 220 0
0.636133 0.017187 0.034942 255 220 0
0.556738 -0.021777 0.059460 255 220 0
0.588197 0.042375 0.014725 255 220 0
0.604513 0.095115 0.055239 255 220 0
0.629847 -0.005822 0.042744 255 220 0
0.600520 0.017444 0.100373 255 220 0
0.579886 0.023706 0.014125 255 220 0
0.618534 0.056849 0.019292 255 220 0
0.592625 -0.030930 0.022080 255 220 0
0.590833 -0.052348 0.046337 255 220 0
0.591870 0.085385 0.051756 255 220 0
0.597255 0.087500 0.043638 255 220 0
0.606882 -0.038120 0.045199 255 220 0
0.626944 0.065725 0.026150 255 220 0
0.584104 0.064551 0.079679 255 220 0
0.568216 -0.009694 0.076769 255 220 0
0.571815 -0.007033 0.081104 255 220 0
0.607601 0.049929 0.014747 255 220 0
0.628808 0.099100 0.068769 255 220 0
0.585149 0.051546 0.019555 255 220 0
0.632291 0.020687 0.029099 255 220 0
0.637590 0.086233 0.046054 255 220 0
0.633879 0.048776 0.094022 255 220 0
0.635056 0.029055 0.091233 255 220 0
0.619055 -0.007489 0.029510 255 220 0
0.616442 0.061526 0.019877 255 220 0
0.571490 0.050466 0.052601 255 220 0
0.579619 0.043367 0.083297 255 220 0
0.562995 0.022790 0.046513 255 220 0
0.628784 0.033088 0.023276 255 220 0
0.609990 0.080621 0.091985 255 220 0
0.643837 0.059052 0.040221 255 220 0
0.644379 0.050265 0.082888 255 220 0
0.602464 0.049680 0.099338 255 220 0
0.629412 0.098809 0.058771 255 220 0
0.624816 0.100429 0.063523 255 220 0
0.586820 0.055468 0.087974 255 220 0
0.592317 -0.014663 0.016407 255 220 0
0.615012 0.036813 0.101934 255 220 0
0.589340 0.080954 0.044758 255 220 0
0.637273 0.001243 0.060405 255 220 0
0.621735 0.060058 0.098616 255 220 0
0.599739 0.035641 0.100142 255 220 0
0.593383 0.064544 0.021417 255 220 0
0.578360 0.035152 0.017556 255 220 0
0.633361 0.031677 0.027216 255 220 0
0.601465 -0.019065 0.091687 255 220 0
0.601804 -0.023537 0.024383 255 220 0
0.619221 0.077017 0.095067 255 220 0
0.634300 0.017162 0.032629 255 220 0
0.621011 0.093054 0.082834 255 220 0
0.563484 -0.022783 0.070223 255 220 0
0.604912 0.033928 0.101737 255 220 0
0.597476 0.020440 0.011689 255 220 0
0.642617 0.068997 0.084469 255 220 0
0.571669 -0.006176 0.080976 255 220 0
0.645566 0.069529 0.079555 255 220 0
0.567864 0.027175 0.026783 255 220 0
0.609948 0.026212 0.014321 255 220 0
0.642846 0.036399 0.037471 255 220 0
0.637305 0.071011 0.036094 255 220 0
0.585123 0.077603 0.061382 255 220 0
0.599561 -0.044564 0.061223 255 220 0
0.596900 -0.045315 0.039542 255 220 0
0.641642 0.064966 0.038611 255 220 0
0.602348 -0.042920 0.046304 255 220 0
0.604588 0.095182 0.065383 255 220 0
0.571339 0.033499 0.071423 255 220 0
0.551467 -0.013875 0.033400 255 220 0
0.580019 -0.009163 0.087673 255 220 0
0.585386 0.078232 0.059350 255 220 0
0.615438 0.052377 0.100509 255 220 0
0.607996 -0.030035 0.077325 255 220 0
0.631120 0.001651 0.081237 255 220 0
0.633124 0.073289 0.091969 255 220 0
0.569386 -0.053560 0.062699 255 220 0
0.634737 0.012415 0.084634 255 220 0
0.633434 -0.002185 0.046244 255 220 0
0.589604 0.026004 0.011664 255 220 0
0.548194 -0.024396 0.041509 255 220 0
0.603275 -0.042986 0.052281 255 220 0
0.632176 0.024057 0.027961 255 220 0
0.646343 0.024196 0.066902 255 220 0
0.595047 0.065542 0.091611 255 220 0
0.598660 0.021983 0.011741 255 220 0
0.579100 -0.036602 0.017755 255 220 0
0.610245 0.097675 0.067166 255 220 0
0.595371 -0.008466 0.016014 255 220 0
0.605772 0.049795 0.014486 255 220 0
0.647431 0.035079 0.047164 255 220 0
0.586656 0.046159 0.016515 255 220 0
0.622218 -0.022467 0.059923 255 220 0
