ply
format ascii 1.0
element vertex 1024
property float x
property float y
property float z
property uchar red
property uchar green
property uchar blue
end_header
0.628340 0.011729 0.028350 255 220 0
0.586613 -0.055489 0.044060 255 220 0
0.624767 0.005229 0.027752 255 220 0
0.571409 0.048892 0.059748 255 220 0
0.644298 0.080801 0.075204 255 220 0
0.613693 -0.024454 0.077941 255 220 0
0.571217 0.042375 0.065984 255 220 0
0.605320 0.066125 0.097174 255 220 0
0.616903 0.097290 0.075039 255 220 0
0.626970 -0.011686 0.071770 255 220 0
0.594356 -0.047041 0.036518 255 220 0
0.570693 -0.000409 0.078884 255 220 0
0.600334 0.092066 0.050419 255 220 0
0.620183 0.079017 0.029421 255 220 0
0.566875 0.030703 0.061104 255 220 0
0.601225 0.069161 0.021502 255 220 0
0.625485 -0.018391 0.058095 255 220 0
0.582667 -0.030948 0.081401 255 220 0
0.585983 -0.032698 0.018356 255 220 0
0.586504 -0.017867 0.014654 255 220 0
0.567034 0.037993 0.050328 255 220 0
0.629358 0.093263 0.047682 255 220 0
0.634532 0.007297 0.080623 255 220 0
0.637758 0.002103 0.059014 255 220 0
0.632082 -0.002591 0.042861 255 220 0
0.561350 0.017151 0.048364 255 220 0
0.605073 0.026060 0.012675 255 220 0
0.566050 -0.048723 0.063213 255 220 0
0.568862 0.036642 0.063082 255 220 0
0.588412 -0.009950 0.091444 255 220 0
0.581501 -0.028846 0.015493 255 220 0
0.604509 0.020662 0.100834 255 220 0
0.576900 0.060294 0.066392 255 220 0
0.571391 0.039597 0.068329 255 220 0
0.650660 0.047516 0.062970 255 220 0
0.641270 0.063490 0.038473 255 220 0
0.620682 0.098408 0.053981 255 220 0
0.603575 0.004311 0.098744 255 220 0
0.546845 -0.056148 0.041800 255 220 0
0.553803 -0.061254 0.028795 255 220 0
0.626951 0.067112 0.027171 255 220 0
0.630864 0.000982 0.037210 255 220 0
0.584597 0.045244 0.016808 255 220 0
0.639615 0.056043 0.034160 255 220 0
0.581141 0.071703 0.062512 255 220 0
0.639187 0.012015 0.075879 255 220 0
0.574007 0.030842 0.018991 255 220 0
0.593757 0.080095 0.081273 255 220 0
0.619518 0.023624 0.099414 255 220 0
0.607163 0.064500 0.098120 255 220 0
0.633951 0.054981 0.027984 255 220 0
0.608699 -0.038289 0.050080 255 220 0
0.636823 0.081187 0.085594 255 220 0
0.641217 0.080574 0.047532 255 220 0
0.631473 -0.007042 0.066994 255 220 0
0.603606 0.023450 0.012485 255 220 0
0.569950 0.002876 0.077599 255 220 0
0.540117 -0.040416 0.030546 255 220 0
0.547599 -0.045515 0.016611 255 220 0
0.578060 0.034081 0.016825 255 220 0
0.600705 0.033086 0.100278 255 220 0
0.616470 0.051182 0.100335 255 220 0
0.562040 -0.004149 0.020468 255 220 0
0.617722 -0.028621 0.052635 255 220 0
0.642737 0.078504 0.048527 255 220 0
0.609934 0.080200 0.028288 255 220 0
0.585839 -0.044249 0.073491 255 220 0
0.556972 -0.063621 0.035235 255 220 0
0.549128 -0.025288 0.022502 255 220 0
0.633112 0.081235 0.038621 255 220 0
0.543283 -0.037782 0.021950 255 220 0
0.576724 0.043437 0.021997 255 220 0
0.633229 0.070925 0.033131 255 220 0
0.636244 -0.000665 0.057325 255 220 0
0.573410 -0.057651 0.028573 255 220 0
0.645893 0.052414 0.079597 255 220 0
0.619867 -0.019949 0.073952 255 220 0
0.646437 0.032970 0.073652 255 220 0
0.596183 -0.019278 0.090932 255 220 0
0.590430 0.044376 0.093681 255 220 0
0.563053 0.024153 0.040875 255 220 0
0.609037 0.089779 0.037686 255 220 0
0.613473 0.071914 0.023660 255 220 0
0.625722 0.098625 0.056467 255 220 0
0.580894 0.072193 0.057797 255 220 0
0.624168 0.064692 0.097268 255 220 0
0.591050 -0.046589 0.069290 255 220 0
0.558186 -0.052506 0.017243 255 220 0
0.568577 -0.017643 0.013912 255 220 0
0.577097 0.052546 0.027883 255 220 0
0.580195 0.052821 0.080139 255 220 0
0.611072 -0.031817 0.040342 255 220 0
0.585932 -0.014571 0.013949 255 220 0
0.591301 -0.049738 0.036546 255 220 0
0.573668 0.037111 0.022154 255 220 0
0.603137 0.034824 0.012192 255 220 0
0.593755 -0.034837 0.081190 255 220 0
0.596529 -0.026589 0.021531 255 220 0
0.563190 -0.049067 0.061184 255 220 0
0.609754 0.014567 0.099968 255 220 0
0.644943 0.019867 0.065841 255 220 0
0.570044 0.027197 0.022023 255 220 0
0.644861 0.034099 0.041865 255 220 0
0.625043 0.001377 0.088689 255 220 0
0.637491 0.002953 0.050447 255 220 0
0.579603 0.066216 0.067607 255 220 0
0.592999 -0.049561 0.061312 255 220 0
0.594095 -0.033832 0.023525 255 220 0
0.585747 -0.001922 0.012646 255 220 0
0.558057 -0.031144 0.061456 255 220 0
0.617469 0.072835 0.096681 255 220 0
0.564483 -0.003956 0.018449 255 220 0
0.606173 0.014367 0.100197 255 220 0
0.573782 0.055111 0.039396 255 220 0
0.598790 -0.047024 0.047363 255 220 0
0.566068 0.032072 0.055949 255 220 0
0.575133 0.029741 0.080742 255 220 0
0.595446 -0.007682 0.094716 255 220 0
0.626866 0.075956 0.093818 255 220 0
0.558790 -0.029617 0.014482 255 220 0
0.622250 -0.003059 0.088712 255 220 0
0.599084 0.046571 0.013589 255 220 0
0.645369 0.041115 0.041742 255 220 0
0.641633 0.019340 0.042916 255 220 0
0.635669 0.048347 0.028515 255 220 0
0.581780 -0.004772 0.012774 255 220 0
0.576671 0.041792 0.079007 255 220 0
0.574175 0.046473 0.027729 255 220 0
0.614552 0.057234 0.018264 255 220 0
0.617151 -0.024667 0.071275 255 220 0
0.570115 0.029046 0.070886 255 220 0
0.606191 0.005925 0.016358 255 220 0
0.645797 0.046230 0.042775 255 220 0
0.580755 0.021839 0.088184 255 220 0
0.602867 0.020838 0.012533 255 220 0
0.600380 0.087770 0.039751 255 220 0
0.638963 0.004542 0.061012 255 220 0
0.548144 -0.021973 0.029144 255 220 0
0.632010 0.034441 0.094416 255 220 0
0.650289 0.043432 0.063658 255 220 0
0.599141 -0.021325 0.020891 255 220 0
0.603094 0.073095 0.023761 255 220 0
0.628803 -0.001073 0.035813 255 220 0
0.584843 -0.037550 0.078407 255 220 0
0.629824 0.088911 0.042386 255 220 0
0.641918 0.021274 0.077727 255 220 0
0.545079 -0.054955 0.040319 255 220 0
0.632661 0.091195 0.080752 255 220 0
0.574292 0.014073 0.082278 255 220 0
0.562096 -0.000916 0.063612 255 220 0
0.594373 0.032887 0.011532 255 220 0
0.642355 0.011904 0.056203 255 220 0
0.646547 0.079851 0.063786 255 220 0
0.587286 0.079760 0.067380 255 220 0
0.550044 -0.026401 0.047043 255 220 0
0.632572 0.034705 0.026144 255 220 0
0.586642 0.069372 0.080954 255 220 0
0.624532 -0.012691 0.075673 255 220 0
0.602068 0.078631 0.028262 255 220 0
0.553914 -0.043758 0.014401 255 220 0
0.606105 0.038293 0.012967 255 220 0
0.569484 0.045041 0.041322 255 220 0
0.619481 -0.026596 0.055860 255 220 0
0.591222 0.061636 0.090180 255 220 0
0.579046 0.047833 0.022034 255 220 0
0.584289 0.000222 0.090674 255 220 0
0.570854 0.034300 0.069980 255 220 0
0.630645 0.044988 0.024066 255 220 0
0.625703 -0.011238 0.075368 255 220 0
0.645600 0.067313 0.047393 255 220 0
0.582279 -0.055865 0.035475 255 220 0
0.594704 -0.029160 0.085423 255 220 0
0.593592 0.001003 0.013263 255 220 0
0.581438 -0.058487 0.044783 255 220 0
0.613920 0.098655 0.056519 255 220 0
0.630101 0.004209 0.084752 255 220 0
0.595427 -0.044278 0.033830 255 220 0
0.601338 0.027803 0.100598 255 220 0
0.546776 -0.052347 0.045376 255 220 0
0.637516 0.051276 0.030774 255 220 0
0.550021 -0.017007 0.032595 255 220 0
0.635597 0.001268 0.046531 255 220 0
0.614625 -0.025764 0.074323 255 220 0
0.540567 -0.049627 0.035730 255 220 0
0.630424 0.038514 0.024001 255 220 0
0.625553 0.098873 0.057140 255 220 0
0.628813 0.076525 0.092860 255 220 0
0.566168 -0.035960 0.069145 255 220 0
0.571174 -0.062459 0.041960 255 220 0
0.640932 0.008805 0.062564 255 220 0
0.566855 -0.022038 0.013818 255 220 0
0.628930 0.056093 0.096291 255 220 0
0.650654 0.049525 0.057539 255 220 0
0.552301 -0.045381 0.053847 255 220 0
0.583364 0.042625 0.016500 255 220 0
0.594450 0.045857 0.096116 255 220 0
0.598698 0.068494 0.021627 255 220 0
0.620734 -0.022416 0.067125 255 220 0
0.640708 0.029834 0.036115 255 220 0
0.602807 0.073992 0.024446 255 220 0
0.644107 0.017291 0.065501 255 220 0
0.599446 0.035188 0.011785 255 220 0
0.588549 -0.047411 0.069631 255 220 0
0.555263 -0.012223 0.052386 255 220 0
0.628622 0.038305 0.022744 255 220 0
0.568449 -0.019231 0.075426 255 220 0
0.634247 0.095508 0.071925 255 220 0
0.628992 -0.008878 0.071399 255 220 0
0.614684 0.034588 0.101643 255 220 0
0.577426 -0.039139 0.074741 255 220 0
0.547453 -0.034845 0.018424 255 220 0
0.600902 -0.041858 0.066077 255 220 0
0.618605 0.040419 0.017209 255 220 0
0.565130 -0.057205 0.056461 255 220 0
0.569608 0.027789 0.022906 255 220 0
0.605588 0.055012 0.015785 255 220 0
0.585604 0.079136 0.059546 255 220 0
0.642667 0.063892 0.040709 255 220 0
0.647560 0.030720 0.067618 255 220 0
0.541255 -0.044811 0.023194 255 220 0
0.586653 0.066172 0.027123 255 220 0
0.636261 0.073506 0.089457 255 220 0
0.551341 -0.014055 0.037578 255 220 0
0.646034 0.061941 0.079129 255 220 0
0.624308 0.010494 0.025374 255 220 0
0.543655 -0.033823 0.024699 255 220 0
0.593690 -0.019353 0.017491 255 220 0
0.593680 0.039102 0.012487 255 220 0
0.554285 -0.006662 0.033830 255 220 0
0.592375 -0.024568 0.087801 255 220 0
0.641002 0.008589 0.059716 255 220 0
0.598120 -0.017158 0.092061 255 220 0
0.614614 0.036713 0.101633 255 220 0
0.640993 0.072658 0.085000 255 220 0
0.564272 0.007605 0.065956 255 220 0
0.618592 0.045610 0.100484 255 220 0
0.543933 -0.041530 0.019602 255 220 0
0.635943 0.091844 0.076853 255 220 0
0.554187 -0.046249 0.014747 255 220 0
0.547098 -0.035426 0.045490 255 220 0
0.564222 -0.051418 0.060427 255 220 0
0.574657 0.019345 0.015737 255 220 0
0.563521 0.008596 0.063972 255 220 0
0.566896 -0.024310 0.072950 255 220 0
0.633873 0.010364 0.084091 255 220 0
0.540670 -0.039032 0.028676 255 220 0
0.626938 0.082260 0.034674 255 220 0
0.613511 0.097300 0.051769 255 220 0
0.605939 -0.035491 0.071141 255 220 0
0.542331 -0.034699 0.032301 255 220 0
0.577207 -0.060399 0.044690 255 220 0
0.618661 0.007864 0.022335 255 220 0
0.623832 -0.019057 0.065338 255 220 0
0.592048 0.075781 0.031496 255 220 0
0.596526 0.015362 0.011822 255 220 0
0.556357 -0.054039 0.018087 255 220 0
0.642926 0.024619 0.042318 255 220 0
0.643105 0.079299 0.049844 255 220 0
0.611546 0.097196 0.071251 255 220 0
0.584014 0.062359 0.081494 255 220 0
0.566234 -0.045564 0.015800 255 220 0
0.631542 0.077716 0.035170 255 220 0
0.600571 0.037202 0.012064 255 220 0
0.643456 0.062657 0.041593 255 220 0
0.609996 0.033867 0.013879 255 220 0
0.571008 0.032630 0.023381 255 220 0
0.547705 -0.033731 0.018707 255 220 0
0.608193 0.093840 0.045355 255 220 0
0.621005 0.074051 0.027133 255 220 0
0.540533 -0.050577 0.034399 255 220 0
0.568177 -0.006281 0.075637 255 220 0
0.643454 0.074455 0.047057 255 220 0
0.648109 0.039712 0.071848 255 220 0
0.577807 0.056776 0.072301 255 220 0
0.637444 0.036503 0.030735 255 220 0
0.577787 -0.024460 0.081502 255 220 0
0.640777 0.009848 0.050769 255 220 0
0.574196 0.037365 0.021640 255 220 0
0.642991 0.065590 0.041847 255 220 0
0.575717 0.043917 0.075829 255 220 0
0.641565 0.022823 0.079467 255 220 0
0.550588 -0.058729 0.043415 255 220 0
0.541049 -0.044723 0.023645 255 220 0
0.598896 0.076349 0.027466 255 220 0
0.639549 0.053644 0.088691 255 220 0
0.557165 -0.042068 0.059271 255 220 0
0.645678 0.044214 0.042405 255 220 0
0.631634 0.058991 0.094709 255 220 0
0.572606 0.031185 0.020578 255 220 0
0.575980 -0.016931 0.082504 255 220 0
0.650407 0.053375 0.056384 255 220 0
0.579538 -0.049134 0.068715 255 220 0
0.637373 0.067176 0.089921 255 220 0
0.595290 0.081561 0.035410 255 220 0
0.573753 -0.035330 0.074674 255 220 0
0.542631 -0.043267 0.041107 255 220 0
0.577379 -0.008608 0.085008 255 220 0
0.615024 0.087061 0.088239 255 220 0
0.599549 -0.016706 0.092342 255 220 0
0.588036 0.002616 0.012402 255 220 0
0.545281 -0.028475 0.027995 255 220 0
0.588315 -0.014087 0.014426 255 220 0
0.629837 0.018845 0.027260 255 220 0
0.619835 -0.022022 0.070317 255 220 0
0.639212 0.088039 0.051498 255 220 0
0.641866 0.012955 0.050032 255 220 0
0.636105 0.082265 0.085555 255 220 0
0.611756 0.007014 0.098309 255 220 0
0.602055 -0.043963 0.046357 255 220 0
0.588045 0.022226 0.093828 255 220 0
0.608968 0.068234 0.097541 255 220 0
0.617365 0.047274 0.100570 255 220 0
0.574450 0.039057 0.022235 255 220 0
0.616354 -0.025094 0.072183 255 220 0
0.639819 0.014794 0.077194 255 220 0
0.588414 0.007817 0.093695 255 220 0
0.599669 -0.032254 0.081929 255 220 0
0.598758 -0.003744 0.015617 255 220 0
0.563400 0.011724 0.062498 255 220 0
0.637473 0.065651 0.090040 255 220 0
0.611156 -0.035970 0.055046 255 220 0
0.614610 0.089744 0.085460 255 220 0
0.539392 -0.045002 0.032408 255 220 0
0.573493 0.057083 0.047979 255 220 0
0.584162 0.046391 0.017474 255 220 0
0.589920 0.082987 0.047479 255 220 0
0.584321 -0.012089 0.088845 255 220 0
0.554172 -0.006798 0.040426 255 220 0
0.577491 0.066152 0.051664 255 220 0
0.574408 -0.026004 0.078751 255 220 0
0.609185 0.068795 0.097413 255 220 0
0.550052 -0.025289 0.021263 255 220 0
0.637170 0.011793 0.079908 255 220 0
0.569412 -0.007607 0.077344 255 220 0
0.594273 0.088575 0.057903 255 220 0
0.555273 -0.012272 0.052434 255 220 0
0.561243 -0.010128 0.018875 255 220 0
0.612009 0.058739 0.099699 255 220 0
0.590712 0.015428 0.095409 255 220 0
0.605521 -0.003978 0.096868 255 220 0
0.650344 0.058928 0.058584 255 220 0
0.612349 0.097442 0.071404 255 220 0
0.639857 0.009402 0.047835 255 220 0
0.646073 0.057115 0.045039 255 220 0
0.643703 0.029354 0.078553 255 220 0
0.643965 0.033338 0.079665 255 220 0
0.548646 -0.030511 0.046110 255 220 0
0.642404 0.063621 0.040198 255 220 0
0.645410 0.024158 0.070034 255 220 0
0.540919 -0.047915 0.037709 255 220 0
0.636594 0.082656 0.084894 255 220 0
0.579415 0.040013 0.084030 255 220 0
0.572680 0.035716 0.022694 255 220 0
0.617340 -0.024060 0.072028 255 220 0
0.607718 0.044828 0.013994 255 220 0
0.641228 0.019855 0.078224 255 220 0
0.638539 0.026662 0.034153 255 220 0
0.629685 0.082205 0.089724 255 220 0
0.598795 -0.031408 0.025573 255 220 0
0.547428 -0.043123 0.048121 255 220 0
0.570762 -0.056722 0.059476 255 220 0
0.627888 0.051412 0.097024 255 220 0
0.642128 0.036151 0.083630 255 220 0
0.558161 -0.059772 0.024246 255 220 0
0.624762 0.095872 0.049414 255 220 0
0.588154 -0.029762 0.084022 255 220 0
0.567843 0.006204 0.073623 255 220 0
0.564023 0.019306 0.028465 255 220 0
0.565833 0.022016 0.026275 255 220 0
0.594624 0.087737 0.067843 255 220 0
0.565374 0.027590 0.058098 255 220 0
0.606760 0.096555 0.057371 255 220 0
0.554907 -0.058606 0.022823 255 220 0
0.640518 0.034870 0.034665 255 220 0
0.580712 0.067527 0.069451 255 220 0
0.559047 -0.007805 0.021926 255 220 0
0.591110 -0.034314 0.081666 255 220 0
0.645030 0.053958 0.081281 255 220 0
0.580165 0.068258 0.066329 255 220 0
0.609162 0.094071 0.076277 255 220 0
0.603347 0.091425 0.075711 255 220 0
0.595484 0.022581 0.011171 255 220 0
0.565031 -0.013653 0.071201 255 220 0
0.580070 0.042068 0.018320 255 220 0
0.568232 -0.010990 0.075753 255 220 0
0.578752 0.035111 0.016682 255 220 0
0.585537 0.055163 0.086881 255 220 0
0.648136 0.071946 0.068510 255 220 0
0.577292 -0.017745 0.013232 255 220 0
0.564166 -0.061670 0.029177 255 220 0
0.561293 -0.040011 0.013781 255 220 0
0.608487 0.076889 0.093793 255 220 0
0.574569 -0.060487 0.037387 255 220 0
0.569622 0.011991 0.018076 255 220 0
0.566327 0.035830 0.044253 255 220 0
0.635358 0.043027 0.092355 255 220 0
0.630367 -0.004148 0.075544 255 220 0
0.628703 0.049501 0.023162 255 220 0
0.567558 0.004955 0.073317 255 220 0
0.628354 -0.014009 0.056528 255 220 0
0.595824 0.071802 0.089554 255 220 0
0.600782 0.065838 0.019763 255 220 0
0.622617 0.045454 0.099441 255 220 0
0.587236 0.002791 0.012367 255 220 0
0.562068 0.015449 0.055830 255 220 0
0.630068 0.091184 0.082450 255 220 0
0.572945 0.039891 0.071830 255 220 0
0.571520 0.050200 0.058020 255 220 0
0.625691 -0.018011 0.054252 255 220 0
0.541656 -0.050750 0.037754 255 220 0
0.638107 0.062426 0.034192 255 220 0
0.624669 0.052607 0.021396 255 220 0
0.568182 0.040878 0.054091 255 220 0
0.616022 -0.028831 0.064588 255 220 0
0.637845 0.009911 0.076723 255 220 0
0.608879 -0.007843 0.021606 255 220 0
0.630915 0.092208 0.047367 255 220 0
0.581929 -0.002512 0.012731 255 220 0
0.561109 -0.054546 0.019169 255 220 0
0.559160 -0.010804 0.020345 255 220 0
0.640654 0.011432 0.070810 255 220 0
0.645277 0.062421 0.080552 255 220 0
0.637800 0.003011 0.064289 255 220 0
0.577581 0.057262 0.071386 255 220 0
0.579677 -0.021365 0.013775 255 220 0
0.554732 -0.025087 0.055632 255 220 0
0.598448 0.028046 0.011366 255 220 0
0.637756 0.022057 0.034882 255 220 0
0.617471 0.062520 0.098944 255 220 0
0.570393 0.000077 0.015754 255 220 0
0.596287 0.026777 0.098681 255 220 0
0.593017 0.039525 0.012655 255 220 0
0.561115 0.005893 0.058985 255 220 0
0.585517 0.079160 0.057744 255 220 0
0.577652 0.055619 0.072780 255 220 0
0.571922 -0.060457 0.033204 255 220 0
0.582300 -0.056541 0.037369 255 220 0
0.644832 0.082305 0.071966 255 220 0
0.621619 0.062756 0.022735 255 220 0
0.547011 -0.057603 0.026127 255 220 0
0.570954 0.043304 0.031831 255 220 0
0.600738 0.022793 0.011857 255 220 0
0.620797 0.021690 0.020129 255 220 0
0.636929 0.018779 0.035176 255 220 0
0.571135 0.014788 0.017404 255 220 0
0.605456 -0.040766 0.046511 255 220 0
0.578469 -0.057261 0.033265 255 220 0
0.611121 -0.034116 0.044633 255 220 0
0.582201 -0.058238 0.050233 255 220 0
0.633619 0.075870 0.035868 255 220 0
0.569862 0.031274 0.069182 255 220 0
0.646555 0.025185 0.055221 255 220 0
0.631649 0.078231 0.035544 255 220 0
0.635233 0.033975 0.091582 255 220 0
0.632084 -0.002154 0.074513 255 220 0
0.558000 -0.054222 0.018352 255 220 0
0.636591 0.094705 0.069420 255 220 0
0.566845 0.030851 0.060859 255 220 0
0.618728 -0.026584 0.049014 255 220 0
0.547918 -0.044222 0.048863 255 220 0
0.610828 -0.005871 0.095059 255 220 0
0.565668 0.013907 0.022661 255 220 0
0.602881 -0.029999 0.082503 255 220 0
0.571669 -0.042705 0.016352 255 220 0
0.623656 0.064662 0.097421 255 220 0
0.607219 0.079743 0.028108 255 220 0
0.552336 -0.018275 0.047982 255 220 0
0.597409 0.037883 0.098586 255 220 0
0.552230 -0.013274 0.042094 255 220 0
0.569115 -0.061512 0.033012 255 220 0
0.584980 -0.032385 0.017799 255 220 0
0.616425 0.079916 0.028826 255 220 0
0.549864 -0.041040 0.051069 255 220 0
0.643588 0.024896 0.043651 255 220 0
0.602150 0.081553 0.030900 255 220 0
0.595326 0.089473 0.057567 255 220 0
0.609678 0.048289 0.014943 255 220 0
0.570037 0.047086 0.054092 255 220 0
0.600382 -0.029964 0.025933 255 220 0
0.569784 0.034558 0.026674 255 220 0
0.569318 0.043222 0.057486 255 220 0
0.562044 -0.029093 0.013883 255 220 0
0.625980 -0.015133 0.067705 255 220 0
0.622901 0.006621 0.093058 255 220 0
0.647599 0.069013 0.053324 255 220 0
0.591940 0.004380 0.095338 255 220 0
0.568666 0.041985 0.039232 255 220 0
0.555378 -0.003239 0.041010 255 220 0
0.553451 -0.060979 0.028253 255 220 0
0.641451 0.010893 0.052059 255 220 0
0.595601 -0.025136 0.087934 255 220 0
0.548338 -0.042420 0.049238 255 220 0
0.564544 0.015604 0.025134 255 220 0
0.594734 0.013010 0.097369 255 220 0
0.560696 -0.052270 0.057673 255 220 0
0.625915 -0.007038 0.080400 255 220 0
0.640597 0.061592 0.087367 255 220 0
0.634557 0.061870 0.092675 255 220 0
0.593298 -0.050039 0.041124 255 220 0
0.571073 0.040520 0.066899 255 220 0
0.594314 0.052687 0.015878 255 220 0
0.575063 0.051512 0.030635 255 220 0
0.615482 0.019319 0.017752 255 220 0
0.638313 0.013652 0.040200 255 220 0
0.598955 0.010854 0.012915 255 220 0
0.547074 -0.024026 0.034312 255 220 0
0.593070 -0.042483 0.029002 255 220 0
0.586439 0.078955 0.046596 255 220 0
0.586264 -0.000529 0.012571 255 220 0
0.602552 0.030534 0.011955 255 220 0
0.593450 0.082706 0.077352 255 220 0
0.587432 -0.020843 0.087832 255 220 0
0.641608 0.010349 0.054970 255 220 0
0.615512 -0.030975 0.050631 255 220 0
0.634372 0.003432 0.041037 255 220 0
0.573932 0.055786 0.040064 255 220 0
0.560591 0.004110 0.026198 255 220 0
0.567554 -0.041754 0.014969 255 220 0
0.592275 0.016139 0.011369 255 220 0
0.619614 -0.000992 0.026185 255 220 0
0.618396 0.057413 0.019674 255 220 0
0.622201 0.046557 0.099499 255 220 0
0.567623 -0.031965 0.071691 255 220 0
0.628357 0.088847 0.041213 255 220 0
0.600316 -0.016656 0.092368 255 220 0
0.635359 0.077373 0.088748 255 220 0
0.604630 0.045115 0.100333 255 220 0
0.608274 0.048721 0.014735 255 220 0
0.596705 0.090224 0.064233 255 220 0
0.618790 -0.027420 0.056981 255 220 0
0.603948 0.080198 0.089742 255 220 0
0.613416 -0.021255 0.032232 255 220 0
0.632498 0.025324 0.092275 255 220 0
0.568597 0.032449 0.027566 255 220 0
0.639136 0.007972 0.070379 255 220 0
0.595899 0.061177 0.093830 255 220 0
0.569314 -0.013488 0.076987 255 220 0
0.627135 0.004323 0.088306 255 220 0
0.601957 -0.014971 0.020146 255 220 0
0.593572 0.039318 0.012541 255 220 0
0.603559 0.043769 0.100216 255 220 0
0.569055 -0.028911 0.013441 255 220 0
0.619457 -0.015431 0.080957 255 220 0
0.637619 0.003682 0.049309 255 220 0
0.588661 0.053059 0.090549 255 220 0
0.627694 -0.003281 0.035962 255 220 0
0.604729 -0.039894 0.042143 255 220 0
0.580761 0.013264 0.088607 255 220 0
0.567163 0.014978 0.021141 255 220 0
0.611705 -0.031865 0.041625 255 220 0
0.579304 -0.032365 0.015679 255 220 0
0.598265 0.014381 0.098890 255 220 0
0.580229 -0.052734 0.065345 255 220 0
0.593204 0.020730 0.011137 255 220 0
0.647525 0.037595 0.072771 255 220 0
0.588559 -0.033644 0.019998 255 220 0
0.570786 0.021524 0.075523 255 220 0
0.562383 -0.057192 0.054912 255 220 0
0.573423 0.056869 0.047583 255 220 0
0.585754 -0.005703 0.012921 255 220 0
0.611779 0.044517 0.101271 255 220 0
0.564486 -0.061066 0.051720 255 220 0
0.581504 0.009181 0.089194 255 220 0
0.629781 0.098652 0.066787 255 220 0
0.597378 0.079875 0.085359 255 220 0
0.591823 -0.031994 0.083354 255 220 0
0.593042 -0.051637 0.051593 255 220 0
0.603607 -0.006749 0.096137 255 220 0
0.578731 0.068163 0.048177 255 220 0
0.627483 0.099505 0.065467 255 220 0
0.633531 0.097112 0.066260 255 220 0
0.570826 0.047600 0.038669 255 220 0
0.595501 0.019258 0.011337 255 220 0
0.609475 -0.006840 0.021614 255 220 0
0.591088 -0.013363 0.091725 255 220 0
0.577559 0.052622 0.074578 255 220 0
0.547183 -0.030079 0.042788 255 220 0
0.547117 -0.038049 0.017533 255 220 0
0.598976 -0.029972 0.024857 255 220 0
0.645799 0.022843 0.054130 255 220 0
0.553475 -0.011630 0.045817 255 220 0
0.601444 -0.041706 0.039136 255 220 0
0.599316 0.076315 0.089538 255 220 0
0.636347 0.064634 0.091091 255 220 0
0.604489 0.074386 0.024494 255 220 0
0.582406 0.016446 0.089829 255 220 0
0.575790 0.006012 0.084392 255 220 0
0.638591 0.092600 0.070840 255 220 0
0.647657 0.040886 0.073682 255 220 0
0.642095 0.022619 0.041767 255 220 0
0.608605 0.066922 0.020344 255 220 0
0.635852 0.039288 0.028750 255 220 0
0.581724 0.012886 0.089367 255 220 0
0.638217 0.011335 0.077386 255 220 0
0.599027 0.069364 0.022080 255 220 0
0.634738 -0.003128 0.054573 255 220 0
0.649543 0.037637 0.057322 255 220 0
0.640872 0.041784 0.086427 255 220 0
0.624624 0.042879 0.098849 255 220 0
0.575622 0.043078 0.076099 255 220 0
0.578087 0.053241 0.075356 255 220 0
0.582650 0.017693 0.089983 255 220 0
0.629351 0.026335 0.024938 255 220 0
0.607011 -0.034140 0.072042 255 220 0
0.617103 0.021777 0.018122 255 220 0
0.588830 -0.037020 0.079512 255 220 0
0.642140 0.055523 0.037665 255 220 0
0.600204 -0.045340 0.045155 255 220 0
0.640407 0.007996 0.053488 255 220 0
0.615268 0.099627 0.060742 255 220 0
0.610131 -0.028070 0.034300 255 220 0
0.625270 0.099845 0.061438 255 220 0
0.552792 -0.033185 0.015692 255 220 0
0.592964 -0.021703 0.017886 255 220 0
0.565401 -0.010825 0.016121 255 220 0
0.553419 -0.010654 0.044125 255 220 0
0.622162 0.063297 0.023188 255 220 0
0.636197 0.026207 0.031467 255 220 0
0.556052 -0.017944 0.056366 255 220 0
0.610906 -0.035321 0.047152 255 220 0
0.591856 0.063095 0.021088 255 220 0
0.564524 0.010002 0.022732 255 220 0
0.614940 0.086906 0.033937 255 220 0
0.572927 -0.055031 0.024779 255 220 0
0.638416 0.062807 0.034670 255 220 0
0.603865 0.065984 0.019616 255 220 0
0.633402 0.022180 0.090470 255 220 0
0.606697 0.013199 0.015000 255 220 0
0.543506 -0.047876 0.042545 255 220 0
0.560462 -0.013841 0.063444 255 220 0
0.570977 0.023056 0.019393 255 220 0
0.646845 0.025272 0.058722 255 220 0
0.648446 0.048744 0.073262 255 220 0
0.593048 -0.032698 0.022235 255 220 0
0.591982 0.079640 0.079284 255 220 0
0.543952 -0.034443 0.038679 255 220 0
0.595593 0.013491 0.011910 255 220 0
0.594322 0.015649 0.011529 255 220 0
0.643923 0.026960 0.043146 255 220 0
0.588188 0.080329 0.044820 255 220 0
0.637632 0.021780 0.034827 255 220 0
0.577500 0.058415 0.033120 255 220 0
0.606437 0.047924 0.014281 255 220 0
0.632945 0.096246 0.071846 255 220 0
0.597974 -0.012079 0.094007 255 220 0
0.614128 0.058978 0.099674 255 220 0
0.583234 0.062660 0.027970 255 220 0
0.646273 0.043887 0.077816 255 220 0
0.623467 0.099133 0.071720 255 220 0
0.627841 0.065258 0.026993 255 220 0
0.555247 -0.005418 0.045844 255 220 0
0.578528 0.055429 0.028145 255 220 0
0.594219 -0.007884 0.094287 255 220 0
0.570347 0.021809 0.019676 255 220 0
0.584440 0.040369 0.089327 255 220 0
0.624612 0.099474 0.058759 255 220 0
0.621153 -0.018070 0.074361 255 220 0
0.556868 -0.002985 0.028997 255 220 0
0.627554 -0.011523 0.070509 255 220 0
0.577683 0.024657 0.014811 255 220 0
0.617234 0.001264 0.023612 255 220 0
0.565869 -0.063800 0.039708 255 220 0
0.556637 -0.012598 0.055842 255 220 0
0.615928 -0.004251 0.024820 255 220 0
0.579202 0.045994 0.081689 255 220 0
0.566489 0.000227 0.072138 255 220 0
0.572939 0.041851 0.026254 255 220 0
0.590101 0.084212 0.062648 255 220 0
0.578523 -0.013363 0.085060 255 220 0
0.612638 0.066160 0.098482 255 220 0
0.573137 0.033438 0.020971 255 220 0
0.646254 0.036967 0.075983 255 220 0
0.648608 0.055765 0.050510 255 220 0
0.566757 0.026163 0.027023 255 220 0
0.591531 0.041051 0.094907 255 220 0
0.541232 -0.038445 0.026596 255 220 0
0.555950 -0.049077 0.015464 255 220 0
0.612531 0.086434 0.033385 255 220 0
0.590928 0.083018 0.044601 255 220 0
0.579876 -0.005870 0.087147 255 220 0
0.552636 -0.016080 0.024876 255 220 0
0.609414 -0.017634 0.089330 255 220 0
0.606950 0.065283 0.097881 255 220 0
0.614039 -0.030417 0.065918 255 220 0
0.576633 -0.056219 0.061308 255 220 0
0.547193 -0.033226 0.019465 255 220 0
0.589700 -0.033258 0.082256 255 220 0
0.570947 -0.049433 0.065465 255 220 0
0.564287 -0.005158 0.018241 255 220 0
0.559025 0.008471 0.046578 255 220 0
0.585732 0.007292 0.012150 255 220 0
0.601154 0.045640 0.013382 255 220 0
0.602249 0.029063 0.100847 255 220 0
0.608522 0.096915 0.055282 255 220 0
0.639200 0.085361 0.048672 255 220 0
0.577430 0.060726 0.036330 255 220 0
0.578763 0.068500 0.050242 255 220 0
0.590625 -0.048184 0.067146 255 220 0
0.622295 0.019279 0.021535 255 220 0
0.591372 0.078041 0.035028 255 220 0
0.580600 -0.056686 0.034903 255 220 0
0.554233 -0.057158 0.049113 255 220 0
0.579396 0.048531 0.080884 255 220 0
0.588233 0.076183 0.077084 255 220 0
0.597382 -0.019701 0.090857 255 220 0
0.562576 -0.019460 0.015373 255 220 0
0.579988 -0.047024 0.022240 255 220 0
0.646653 0.025125 0.056320 255 220 0
0.627496 -0.012891 0.067775 255 220 0
0.563024 -0.012009 0.067670 255 220 0
0.645373 0.073366 0.050287 255 220 0
0.618855 -0.013114 0.032167 255 220 0
0.572087 0.051068 0.059663 255 220 0
0.587545 -0.043301 0.024741 255 220 0
0.548252 -0.041394 0.016206 255 220 0
0.591676 -0.051549 0.041912 255 220 0
0.630175 0.054208 0.024989 255 220 0
0.636376 0.087137 0.081630 255 220 0
0.567082 0.036866 0.054157 255 220 0
0.596015 0.073317 0.026162 255 220 0
0.593775 -0.000671 0.095529 255 220 0
0.641508 0.011279 0.066653 255 220 0
0.629692 0.004393 0.085430 255 220 0
0.618128 -0.015583 0.033187 255 220 0
0.590206 0.071081 0.084572 255 220 0
0.611940 0.020931 0.100703 255 220 0
0.587596 -0.052146 0.035421 255 220 0
0.610312 0.062349 0.099054 255 220 0
0.588551 0.048872 0.091410 255 220 0
0.626125 0.092507 0.044371 255 220 0
0.622876 0.011660 0.094790 255 220 0
0.572816 0.055527 0.051128 255 220 0
0.644139 0.028633 0.077220 255 220 0
0.605719 0.053775 0.099539 255 220 0
0.621436 0.097618 0.075643 255 220 0
0.585479 0.035143 0.091001 255 220 0
0.631482 0.034143 0.025287 255 220 0
0.634737 0.068789 0.091679 255 220 0
0.559998 -0.002653 0.059620 255 220 0
0.565103 -0.031466 0.069585 255 220 0
0.547678 -0.049043 0.017399 255 220 0
0.604401 0.029180 0.012357 255 220 0
0.581484 -0.007699 0.012870 255 220 0
0.588363 -0.036379 0.021136 255 220 0
0.596746 -0.043090 0.069583 255 220 0
0.543805 -0.054032 0.039005 255 220 0
0.610380 -0.001788 0.096625 255 220 0
0.606940 0.002334 0.017574 255 220 0
0.618570 -0.008266 0.088791 255 220 0
0.554806 -0.050284 0.015952 255 220 0
0.565945 -0.016897 0.072581 255 220 0
0.560616 -0.062508 0.047200 255 220 0
0.565232 0.019127 0.063855 255 220 0
0.598166 0.000452 0.014546 255 220 0
0.598187 0.046775 0.097924 255 220 0
0.625439 0.058942 0.023448 255 220 0
0.649939 0.052457 0.068532 255 220 0
0.614935 0.094092 0.043657 255 220 0
0.580162 -0.020772 0.013775 255 220 0
0.591837 0.077688 0.081252 255 220 0
0.628455 -0.004762 0.078609 255 220 0
0.603762 -0.018402 0.091092 255 220 0
0.561683 0.010653 0.058082 255 220 0
0.594672 -0.032837 0.023379 255 220 0
0.621148 0.093789 0.081790 255 220 0
0.614694 0.005213 0.020757 255 220 0
0.620103 -0.006756 0.029407 255 220 0
0.593172 0.084284 0.042797 255 220 0
0.574133 -0.008439 0.082366 255 220 0
0.566262 -0.013542 0.015189 255 220 0
0.560691 0.013793 0.049988 255 220 0
0.565554 0.032759 0.049940 255 220 0
0.586063 0.078688 0.047260 255 220 0
0.636514 0.014191 0.036902 255 220 0
0.620305 0.085314 0.033721 255 220 0
0.650456 0.043971 0.062394 255 220 0
0.607798 -0.038608 0.058737 255 220 0
0.565273 0.013164 0.022920 255 220 0
0.628797 -0.005180 0.077433 255 220 0
0.560631 -0.006999 0.020650 255 220 0
0.572398 0.023194 0.018095 255 220 0
0.561639 -0.009848 0.064793 255 220 0
0.582163 0.041906 0.086772 255 220 0
0.592860 0.061061 0.091719 255 220 0
0.553769 -0.046964 0.014956 255 220 0
0.647385 0.035337 0.072047 255 220 0
0.643132 0.027777 0.078974 255 220 0
0.628544 0.069190 0.028976 255 220 0
0.628820 0.099153 0.063714 255 220 0
0.554246 -0.021243 0.019506 255 220 0
0.547109 -0.026301 0.039151 255 220 0
0.642223 0.021501 0.042747 255 220 0
0.579278 0.064159 0.036643 255 220 0
0.567963 -0.014652 0.014442 255 220 0
0.592849 -0.007826 0.093817 255 220 0
0.572924 0.030877 0.076358 255 220 0
0.570084 0.024380 0.072959 255 220 0
0.567441 -0.027536 0.013436 255 220 0
0.594959 0.086474 0.044498 255 220 0
0.618128 0.069786 0.024031 255 220 0
0.591409 0.081726 0.075100 255 220 0
0.568581 -0.012395 0.014583 255 220 0
0.567342 0.039338 0.047002 255 220 0
0.620572 -0.011551 0.033028 255 220 0
0.626346 0.085538 0.036733 255 220 0
0.649048 0.041879 0.069463 255 220 0
0.562921 -0.003885 0.066001 255 220 0
0.543415 -0.040648 0.041631 255 220 0
0.559755 0.009725 0.050304 255 220 0
0.601005 0.050712 0.014510 255 220 0
0.608022 -0.002700 0.019477 255 220 0
0.576035 0.023415 0.083192 255 220 0
0.572421 0.041293 0.069835 255 220 0
0.581310 0.054502 0.023817 255 220 0
0.603290 0.021907 0.012540 255 220 0
0.545538 -0.052280 0.043664 255 220 0
0.625219 -0.006946 0.035464 255 220 0
0.612680 0.084889 0.031987 255 220 0
0.579658 0.054459 0.025725 255 220 0
0.650468 0.057005 0.058250 255 220 0
0.576677 0.012718 0.084984 255 220 0
0.573602 0.056722 0.044632 255 220 0
0.547182 -0.026796 0.024524 255 220 0
0.623265 0.056847 0.098379 255 220 0
0.627985 0.081224 0.034664 255 220 0
0.646083 0.050582 0.043852 255 220 0
0.623410 -0.021027 0.060456 255 220 0
0.563516 0.001936 0.065847 255 220 0
0.569836 0.029322 0.070106 255 220 0
0.588972 0.081992 0.067112 255 220 0
0.590071 0.028307 0.011472 255 220 0
0.589065 0.069942 0.028157 255 220 0
0.605921 -0.033138 0.075425 255 220 0
0.603875 -0.042229 0.046244 255 220 0
0.574359 0.040321 0.074809 255 220 0
0.591440 0.023872 0.011142 255 220 0
0.589346 -0.043293 0.026208 255 220 0
0.618177 0.047553 0.100408 255 220 0
0.625598 -0.017817 0.052325 255 220 0
0.543867 -0.032230 0.035435 255 220 0
0.616344 0.030604 0.016545 255 220 0
0.605590 0.093238 0.045966 255 220 0
0.576713 0.064567 0.051805 255 220 0
0.638183 0.023696 0.034789 255 220 0
0.625312 0.097778 0.074852 255 220 0
0.545868 -0.026592 0.030280 255 220 0
0.596231 0.066623 0.021237 255 220 0
0.605488 0.090571 0.079502 255 220 0
0.643310 0.032443 0.080578 255 220 0
0.627538 0.076373 0.093430 255 220 0
0.593569 -0.051306 0.050684 255 220 0
0.637731 0.013890 0.039038 255 220 0
0.623760 0.058547 0.098078 255 220 0
0.630147 -0.007531 0.045174 255 220 0
0.635674 0.000005 0.067008 255 220 0
0.621419 -0.019656 0.042639 255 220 0
0.557573 -0.009554 0.056742 255 220 0
0.587237 -0.055367 0.046235 255 220 0
0.620209 0.100041 0.059989 255 220 0
0.554122 -0.014775 0.050759 255 220 0
0.585901 -0.051235 0.065769 255 220 0
0.565385 -0.063085 0.034590 255 220 0
0.592078 0.085661 0.049779 255 220 0
0.568833 0.002608 0.016995 255 220 0
0.636888 0.094642 0.059984 255 220 0
0.625068 -0.004812 0.083964 255 220 0
0.601006 0.045687 0.099206 255 220 0
0.567314 0.038592 0.041297 255 220 0
0.624326 -0.000760 0.030253 255 220 0
0.618297 -0.025594 0.045232 255 220 0
0.592972 0.048180 0.014798 255 220 0
0.594996 -0.013476 0.016445 255 220 0
0.596868 0.008939 0.097895 255 220 0
0.577338 0.046238 0.078046 255 220 0
0.621558 0.070439 0.096852 255 220 0
0.620246 0.044559 0.100185 255 220 0
0.557414 0.002473 0.034947 255 220 0
0.570336 -0.041712 0.069573 255 220 0
0.613596 0.078438 0.027361 255 220 0
0.594950 -0.042627 0.031191 255 220 0
0.568136 -0.006822 0.075598 255 220 0
0.582384 0.041856 0.016758 255 220 0
0.619086 0.087117 0.034903 255 220 0
0.568448 0.042454 0.052119 255 220 0
0.600744 0.010297 0.013496 255 220 0
0.588914 0.075824 0.035194 255 220 0
0.599997 0.025331 0.100150 255 220 0
0.608322 -0.023635 0.085089 255 220 0
0.569441 -0.033738 0.013844 255 220 0
0.644357 0.017903 0.065248 255 220 0
0.581177 -0.036000 0.078092 255 220 0
0.641709 0.051170 0.086121 255 220 0
0.638500 0.023073 0.084701 255 220 0
0.637198 0.006388 0.073914 255 220 0
0.561016 0.014220 0.033860 255 220 0
0.578302 0.064677 0.065191 255 220 0
0.600978 -0.045453 0.050428 255 220 0
0.623781 -0.019077 0.065469 255 220 0
0.611469 0.093309 0.079381 255 220 0
0.545880 -0.057016 0.038656 255 220 0
0.593639 -0.047141 0.035561 255 220 0
0.646282 0.036199 0.044357 255 220 0
0.576676 0.022199 0.084104 255 220 0
0.565976 0.006311 0.069917 255 220 0
0.552172 -0.016511 0.046054 255 220 0
0.607630 -0.023973 0.085293 255 220 0
0.594180 -0.050849 0.048866 255 220 0
0.605147 -0.019858 0.089818 255 220 0
0.642382 0.011709 0.058473 255 220 0
0.563033 0.005642 0.063796 255 220 0
0.557753 -0.015638 0.058923 255 220 0
0.601759 0.011643 0.013557 255 220 0
0.549804 -0.060530 0.031037 255 220 0
0.624897 0.068503 0.096444 255 220 0
0.602714 0.076946 0.091250 255 220 0
0.570567 -0.001891 0.078779 255 220 0
0.578439 -0.058385 0.036313 255 220 0
0.604010 0.058446 0.098391 255 220 0
0.603453 0.083338 0.086866 255 220 0
0.591592 0.082054 0.041050 255 220 0
0.607716 -0.002940 0.019388 255 220 0
0.628967 0.047668 0.023114 255 220 0
0.552323 -0.039673 0.054074 255 220 0
0.598391 -0.045997 0.060427 255 220 0
0.573372 0.027093 0.078598 255 220 0
0.564436 -0.014969 0.070364 255 220 0
0.570384 -0.028000 0.013444 255 220 0
0.604251 -0.002276 0.097399 255 220 0
0.617299 0.076264 0.095399 255 220 0
0.579574 -0.011196 0.086159 255 220 0
0.610950 0.093780 0.043833 255 220 0
0.636312 0.009000 0.078985 255 220 0
0.635537 0.017662 0.033815 255 220 0
0.556994 -0.022591 0.058990 255 220 0
0.586991 0.042728 0.014944 255 220 0
0.603500 0.094854 0.056168 255 220 0
0.629625 -0.005556 0.041284 255 220 0
0.601107 0.016299 0.099863 255 220 0
0.578861 0.023987 0.014133 255 220 0
0.617257 0.057429 0.019247 255 220 0
0.592293 -0.030654 0.020807 255 220 0
0.591156 -0.052548 0.044675 255 220 0
0.590895 0.085060 0.052724 255 220 0
0.596112 0.087385 0.044554 255 220 0
0.607036 -0.038134 0.043525 255 220 0
0.625700 0.066260 0.026124 255 220 0
0.583844 0.063618 0.080375 255 220 0
0.568659 -0.010721 0.076321 255 220 0
0.572309 -0.008106 0.080641 255 220 0
0.606315 0.050483 0.014765 255 220 0
0.627992 0.098834 0.069338 255 220 0
0.583938 0.051772 0.020003 255 220 0
0.631555 0.021232 0.028110 255 220 0
0.636494 0.086495 0.046226 255 220 0
0.634027 0.048095 0.093523 255 220 0
0.635354 0.028443 0.090334 255 220 0
0.618614 -0.007083 0.028214 255 220 0
0.615129 0.062072 0.019960 255 220 0
0.570888 0.049920 0.053260 255 220 0
0.579640 0.042322 0.083664 255 220 0
0.562565 0.022277 0.046793 255 220 0
0.627817 0.033704 0.022590 255 220 0
0.609784 0.079720 0.092525 255 220 0
0.642910 0.059498 0.039761 255 220 0
0.644310 0.049905 0.082235 255 220 0
0.602706 0.048568 0.099414 255 220 0
0.628420 0.098740 0.059327 255 220 0
0.623893 0.100221 0.064190 255 220 0
0.586801 0.054408 0.088444 255 220 0
0.591718 -0.014286 0.015454 255 220 0
0.615428 0.035786 0.101539 255 220 0
0.588285 0.080737 0.045688 255 220 0
0.637296 0.001248 0.058942 255 220 0
0.621854 0.059159 0.098548 255 220 0
0.600138 0.034488 0.099996 255 220 0
0.592072 0.064818 0.021968 255 220 0
0.577280 0.035350 0.017811 255 220 0
0.632479 0.032267 0.026420 255 220 0
0.602265 -0.020025 0.090461 255 220 0
0.601437 -0.023211 0.023087 255 220 0
0.619105 0.076155 0.095372 255 220 0
0.633662 0.017662 0.031535 255 220 0
0.620512 0.092440 0.083420 255 220 0
0.563943 -0.023731 0.069609 255 220 0
0.605356 0.032799 0.101465 255 220 0
0.596436 0.020953 0.011322 255 220 0
0.642386 0.068584 0.084206 255 220 0
0.572151 -0.007248 0.080532 255 220 0
0.645241 0.069240 0.079252 255 220 0
0.567033 0.027089 0.027068 255 220 0
0.608894 0.026804 0.013841 255 220 0
0.642099 0.036892 0.036594 255 220 0
0.636183 0.071464 0.035981 255 220 0
0.584402 0.077026 0.062317 255 220 0
0.600071 -0.044958 0.059550 255 220 0
0.597028 -0.045323 0.037910 255 220 0
0.640626 0.065417 0.038304 255 220 0
0.602572 -0.043001 0.044618 255 220 0
0.603757 0.094728 0.066309 255 220 0
0.571248 0.032597 0.071752 255 220 0
0.551175 -0.014250 0.033184 255 220 0
0.580651 -0.010274 0.087020 255 220 0
0.584621 0.077696 0.060294 255 220 0
0.615670 0.051378 0.100406 255 220 0
0.608647 -0.030651 0.075776 255 220 0
0.631516 0.001195 0.079884 255 220 0
0.632987 0.072632 0.091956 255 220 0
0.570020 -0.054296 0.061390 255 220 0
0.635084 0.011929 0.083423 255 220 0
0.633237 -0.001949 0.044788 255 220 0
0.588509 0.026434 0.011544 255 220 0
0.548156 -0.024957 0.041146 255 220 0
0.603607 -0.043171 0.050576 255 220 0
0.631385 0.024623 0.027040 255 220 0
0.646248 0.024167 0.065718 255 220 0
0.594990 0.064496 0.092127 255 220 0
0.597605 0.022507 0.011382 255 220 0
0.578751 -0.036383 0.016615 255 220 0
0.609419 0.097246 0.068038 255 220 0
0.594702 -0.008050 0.015126 255 220 0
0.604483 0.050334 0.014535 255 220 0
0.646871 0.035435 0.046176 255 220 0
0.585445 0.046461 0.016834 255 220 0
0.622476 -0.022605 0.058273 255 220 0
